# .PCD v0.7 - Point Cloud Data file format
VERSION 0.7
FIELDS x y z intensity laser_id azimuth distance_m adjustedtime timestamp vertical_angle
SIZE 4 4 4 1 1 2 8 8 4 8
TYPE F F F U U U F U U F
COUNT 1 1 1 1 1 1 1 1 1 1
WIDTH 539
HEIGHT 1
VIEWPOINT 0 0 0 1 0 0 0
POINTS 539
DATA ascii
2.13846421 2.90478563 0.18903747 30 3 3636 3.61200000 2990409630 2990409630 3.00000000
2.07295704 2.81580424 -0.67966163 11 4 3636 3.56200000 2990409632 2990409632 -11.00000000
2.13493729 2.89893532 0.31498086 63 5 3637 3.61400000 2990409634 2990409634 5.00000000
2.16173244 2.93424654 -0.57724315 31 6 3638 3.69000000 2990409637 2990409637 -9.00000000
2.15756917 2.92752504 0.44652927 64 7 3639 3.66400000 2990409639 2990409639 7.00000000
2.19341969 2.97508216 -0.45384145 31 8 3640 3.72400000 2990409641 2990409641 -7.00000000
2.16444111 2.93470407 0.57755607 82 9 3641 3.69200000 2990409644 2990409644 9.00000000
2.18189955 2.95837545 -0.32160470 33 10 3641 3.69000000 2990409646 2990409646 -5.00000000
2.17731047 2.95107484 0.71286243 70 11 3642 3.73600000 2990409648 2990409648 11.00000000
2.18589544 2.96162844 -0.19291033 27 12 3643 3.68600000 2990409650 2990409650 -3.00000000
5.04676104 6.83526421 1.96157324 22 13 3644 8.72000000 2990409653 2990409653 13.00000000
2.19434905 2.97091103 -0.06446919 25 14 3645 3.69400000 2990409655 2990409655 -1.00000000
5.22121763 7.06638241 2.35421801 42 15 3646 9.09600000 2990409657 2990409657 15.00000000
1.35345864 1.82709277 -0.60926002 4 0 3653 2.35400000 2990409678 2990409678 -15.00000000
2.17043877 2.92890120 0.06363147 30 1 3654 3.64600000 2990409680 2990409680 1.00000000
1.61892772 2.18386698 -0.62761343 3 2 3655 2.79000000 2990409683 2990409683 -13.00000000
2.15810823 2.91013741 0.18987484 34 3 3656 3.62800000 2990409685 2990409685 3.00000000
2.09446788 2.82432055 -0.68347782 5 4 3656 3.58200000 2990409687 2990409687 -11.00000000
2.14504361 2.89146519 0.31498086 63 5 3657 3.61400000 2990409690 2990409690 5.00000000
2.17431617 2.92985535 -0.57786894 30 6 3658 3.69400000 2990409692 2990409692 -9.00000000
2.16422510 2.91519427 0.44579807 66 7 3659 3.65800000 2990409694 2990409694 7.00000000
2.20615840 2.97059488 -0.45432892 31 8 3660 3.72800000 2990409697 2990409697 -7.00000000
2.17887211 2.93385386 0.57880753 81 9 3660 3.70000000 2990409699 2990409699 9.00000000
2.19221282 2.95074105 -0.32160470 33 10 3661 3.69000000 2990409701 2990409701 -5.00000000
2.18525624 2.94030523 0.71209919 68 11 3662 3.73200000 2990409703 2990409703 11.00000000
2.20813656 2.97000837 -0.19395706 32 12 3663 3.70600000 2990409706 2990409706 -3.00000000
5.08570814 6.83793354 1.96742189 23 13 3664 8.74600000 2990409708 2990409708 13.00000000
2.20112491 2.95842028 -0.06436448 28 14 3665 3.68800000 2990409710 2990409710 -1.00000000
5.24923420 7.05522919 2.35628867 45 15 3665 9.10400000 2990409713 2990409713 15.00000000
1.36676013 1.83164704 -0.61236584 4 0 3673 2.36600000 2990409733 2990409733 -15.00000000
2.19619989 2.94213915 0.06408524 30 1 3674 3.67200000 2990409736 2990409736 1.00000000
1.62187696 2.17195678 -0.62581384 3 2 3675 2.78200000 2990409738 2990409738 -13.00000000
2.15988636 2.89138579 0.18914215 33 3 3676 3.61400000 2990409740 2990409740 3.00000000
3.53421330 4.73116302 -1.14790690 6 4 3676 6.01600000 2990409743 2990409743 -11.00000000
2.16347218 2.89513206 0.31620103 60 5 3677 3.62800000 2990409745 2990409745 5.00000000
2.19990587 2.94281578 -0.58193618 24 6 3678 3.72000000 2990409747 2990409747 -9.00000000
2.17201018 2.90444255 0.44531059 66 7 3679 3.65400000 2990409750 2990409750 7.00000000
2.20937967 2.95333862 -0.45286649 29 8 3680 3.71600000 2990409752 2990409752 -7.00000000
2.19671202 2.93533731 0.58068472 78 9 3681 3.71200000 2990409754 2990409754 9.00000000
2.20966220 2.95264173 -0.32265055 33 10 3681 3.70200000 2990409756 2990409756 -5.00000000
2.20256591 2.94208908 0.71438891 63 11 3682 3.74400000 2990409759 2990409759 11.00000000
2.22327948 2.96867704 -0.19437574 29 12 3683 3.71400000 2990409761 2990409761 -3.00000000
5.12473583 6.84041452 1.97327065 20 13 3684 8.77200000 2990409763 2990409763 13.00000000
2.20903993 2.94751835 -0.06429467 30 14 3685 3.68400000 2990409766 2990409766 -1.00000000
5.27505779 7.03594255 2.35628867 45 15 3686 9.10400000 2990409768 2990409768 15.00000000
1.37018728 1.82425487 -0.61133057 4 0 3691 2.36200000 2990409789 2990409789 -15.00000000
2.21384048 2.94641614 0.06432957 33 1 3692 3.68600000 2990409791 2990409791 1.00000000
1.63103414 2.16996622 -0.62671363 3 2 3693 2.78600000 2990409793 2990409793 -13.00000000
2.16775894 2.88298988 0.18903747 34 3 3694 3.61200000 2990409796 2990409796 3.00000000
2.18213797 2.90105891 0.31759551 57 5 3695 3.64400000 2990409800 2990409800 5.00000000
2.18589926 2.90394855 0.44628555 66 7 3697 3.66200000 2990409805 2990409805 7.00000000
2.21387053 2.94004011 -0.45189151 29 8 3698 3.70800000 2990409807 2990409807 -7.00000000
2.19828200 2.91933846 0.57880753 73 9 3698 3.70000000 2990409809 2990409809 9.00000000
2.22132468 2.94886827 -0.32299918 31 10 3699 3.70600000 2990409812 2990409812 -5.00000000
2.21652389 2.94142675 0.71591532 60 11 3700 3.75200000 2990409814 2990409814 11.00000000
2.23980832 2.97124696 -0.19500378 27 12 3701 3.72600000 2990409816 2990409816 -3.00000000
5.16028023 6.84295177 1.97866952 17 13 3702 8.79600000 2990409819 2990409819 13.00000000
2.21106315 2.93098569 -0.06408524 28 14 3703 3.67200000 2990409821 2990409821 -1.00000000
5.29940081 7.02488661 2.35784149 45 15 3703 9.11000000 2990409823 2990409823 15.00000000
1.38120902 1.82562339 -0.61340111 4 0 3711 2.37000000 2990409844 2990409844 -15.00000000
2.23014593 2.94664288 0.06450409 31 1 3712 3.69600000 2990409846 2990409846 1.00000000
1.64330411 2.17047429 -0.62851322 3 2 3713 2.79400000 2990409849 2990409849 -13.00000000
2.18986797 2.89132667 0.19008419 34 3 3714 3.63200000 2990409851 2990409851 3.00000000
2.19345450 2.89501214 0.31776983 55 5 3715 3.64600000 2990409856 2990409856 5.00000000
2.50455236 3.30441380 -0.65671188 4 6 3716 4.19800000 2990409858 2990409858 -9.00000000
2.20081997 2.90262794 0.44726050 64 7 3717 3.67000000 2990409860 2990409860 7.00000000
2.23131752 2.94178391 -0.45335397 28 8 3718 3.72000000 2990409862 2990409862 -7.00000000
2.20419121 2.90496731 0.57755607 63 9 3719 3.69200000 2990409865 2990409865 9.00000000
2.23160481 2.94109631 -0.32299918 35 10 3719 3.70600000 2990409867 2990409867 -5.00000000
2.23389983 2.94305444 0.71820503 67 11 3720 3.76400000 2990409869 2990409869 11.00000000
2.24171162 2.95227575 -0.19427107 27 12 3721 3.71200000 2990409872 2990409872 -3.00000000
5.19474363 6.83886385 1.98271859 7 13 3722 8.81400000 2990409874 2990409874 13.00000000
2.23337913 2.93917155 -0.06443428 31 14 3723 3.69200000 2990409876 2990409876 -1.00000000
5.32277489 7.00234032 2.35680628 45 15 3724 9.10600000 2990409879 2990409879 15.00000000
1.37500763 1.80364907 -0.60770714 4 0 3732 2.34800000 2990409899 2990409899 -15.00000000
2.23486781 2.93049884 0.06432957 33 1 3733 3.68600000 2990409902 2990409902 1.00000000
1.65124822 2.16443682 -0.62851322 3 2 3734 2.79400000 2990409904 2990409904 -13.00000000
2.20529723 2.88963199 0.19050288 34 3 3735 3.64000000 2990409906 2990409906 3.00000000
3.56487775 4.67110920 -1.14218259 111 4 3735 5.98600000 2990409909 2990409909 -11.00000000
2.19921446 2.88061881 0.31707260 48 5 3736 3.63800000 2990409911 2990409911 5.00000000
2.50945306 3.28579259 -0.65483469 4 6 3737 4.18600000 2990409913 2990409913 -9.00000000
2.21505928 2.89927435 0.44799170 49 7 3738 3.67600000 2990409915 2990409915 7.00000000
3.45473909 4.52024603 -0.69855505 6 8 3739 5.73200000 2990409918 2990409918 -7.00000000
2.22751260 2.91451979 0.58099759 45 9 3739 3.71400000 2990409920 2990409920 9.00000000
2.23994923 2.92973185 -0.32265055 35 10 3740 3.70200000 2990409922 2990409922 -5.00000000
2.25659871 2.95044112 0.72202122 63 11 3741 3.78400000 2990409925 2990409925 11.00000000
2.25494432 2.94721222 -0.19448042 26 12 3742 3.71600000 2990409927 2990409927 -3.00000000
2.27331305 2.96907187 -0.06527200 28 14 3744 3.74000000 2990409932 2990409932 -1.00000000
5.34248734 6.97758198 2.35473561 45 15 3744 9.09800000 2990409934 2990409934 15.00000000
1.38953114 1.80956399 -0.61133057 4 0 3752 2.36200000 2990409955 2990409955 -15.00000000
2.23777437 2.91316485 0.06412014 30 1 3753 3.67400000 2990409957 2990409957 1.00000000
1.65285647 2.15093350 -0.62626374 3 2 3754 2.78400000 2990409959 2990409959 -13.00000000
2.22510839 2.89458418 0.19134025 34 3 3755 3.65600000 2990409962 2990409962 3.00000000
2.22018719 2.88713908 0.31864139 46 5 3756 3.65600000 2990409966 2990409966 5.00000000
2.52572513 3.28327584 -0.65608615 4 6 3757 4.19400000 2990409968 2990409968 -9.00000000
2.23606205 2.90568328 0.45018536 43 7 3758 3.69400000 2990409971 2990409971 7.00000000
3.47655129 4.51602411 -0.69977379 9 8 3759 5.74200000 2990409973 2990409973 -7.00000000
2.24972248 2.92237926 0.58412629 59 9 3759 3.73400000 2990409975 2990409975 9.00000000
2.26231861 2.93768048 -0.32439366 31 10 3760 3.72200000 2990409978 2990409978 -5.00000000
2.26448774 2.93943572 0.72125798 63 11 3761 3.78000000 2990409980 2990409980 11.00000000
2.26887584 2.94406891 -0.19479443 27 12 3762 3.72200000 2990409982 2990409982 -3.00000000
6.17398977 8.00841141 2.33454204 58 13 3763 10.37800000 2990409985 2990409985 13.00000000
2.28610563 2.96428537 -0.06534181 27 14 3764 3.74400000 2990409987 2990409987 -1.00000000
5.36563110 6.95736122 2.35421801 45 15 3764 9.09600000 2990409989 2990409989 15.00000000
1.40056694 1.81081510 -0.61340111 4 0 3772 2.37000000 2990410010 2990410010 -15.00000000
2.26873255 2.93222260 0.06471352 27 1 3773 3.70800000 2990410012 2990410012 1.00000000
1.66154730 2.14669204 -0.62671363 3 2 3774 2.78600000 2990410015 2990410015 -13.00000000
2.23642159 2.88837862 0.19144493 37 3 3775 3.65800000 2990410017 2990410017 3.00000000
2.24001217 2.89197278 0.32003587 34 5 3776 3.67200000 2990410021 2990410021 5.00000000
2.53233099 3.26819324 -0.65483469 4 6 3777 4.18600000 2990410024 2990410024 -9.00000000
2.25227189 2.90570521 0.45140404 40 7 3778 3.70400000 2990410026 2990410026 7.00000000
3.48012972 4.48817348 -0.69733638 9 8 3779 5.72200000 2990410028 2990410028 -7.00000000
2.27494717 2.93284416 0.58788073 57 9 3780 3.75800000 2990410031 2990410031 9.00000000
2.27473450 2.93151331 0.72125798 63 11 3781 3.78000000 2990410035 2990410035 11.00000000
2.28403759 2.94244194 -0.19521312 19 12 3782 3.73000000 2990410038 2990410038 -3.00000000
6.21146822 7.99912453 2.33814120 62 13 3783 10.39400000 2990410040 2990410040 13.00000000
2.29153204 2.94997048 -0.06520219 27 14 3784 3.73600000 2990410042 2990410042 -1.00000000
5.39818001 6.94926882 2.35784149 45 15 3784 9.11000000 2990410044 2990410044 15.00000000
1.40687931 1.80591524 -0.61340111 4 0 3792 2.37000000 2990410065 2990410065 -15.00000000
2.31091356 2.96529460 0.06562105 29 1 3793 3.76000000 2990410068 2990410068 1.00000000
1.67142689 2.14395285 -0.62761343 3 2 3794 2.79000000 2990410070 2990410070 -13.00000000
2.25140333 2.88685417 0.19186361 33 3 3795 3.66600000 2990410072 2990410072 3.00000000
2.01627374 2.58536005 -0.63730204 4 4 3795 3.34000000 2990410074 2990410074 -11.00000000
2.26725078 2.90612841 0.32247624 28 5 3796 3.70000000 2990410077 2990410077 5.00000000
2.55101562 3.26867747 -0.65671188 4 6 3797 4.19800000 2990410079 2990410079 -9.00000000
2.27950335 2.91973138 0.45481640 42 7 3798 3.73200000 2990410081 2990410081 7.00000000
3.47500348 4.44940186 -0.69319284 9 8 3799 5.68800000 2990410084 2990410084 -7.00000000
2.28638697 2.92644191 0.58819360 64 9 3800 3.76000000 2990410086 2990410086 9.00000000
5.18499613 6.63649273 -0.73681468 8 10 3800 8.45400000 2990410088 2990410088 -5.00000000
2.29946113 2.94211745 0.72583741 60 11 3801 3.80400000 2990410091 2990410091 11.00000000
6.23935270 7.97739363 2.33814120 62 13 3803 10.39400000 2990410095 2990410095 13.00000000
2.30427980 2.94510341 -0.06527200 24 14 3804 3.74000000 2990410097 2990410097 -1.00000000
5.42599535 6.93247938 2.35887671 45 15 3805 9.11400000 2990410100 2990410100 15.00000000
1.41286016 1.80123985 -0.61340111 4 0 3811 2.37000000 2990410121 2990410121 -15.00000000
2.32567191 2.96390796 0.06576066 29 1 3812 3.76800000 2990410123 2990410123 1.00000000
1.68093371 2.14146423 -0.62851322 3 2 3813 2.79400000 2990410125 2990410125 -13.00000000
2.27206540 2.89351010 0.19280566 29 3 3814 3.68400000 2990410127 2990410127 3.00000000
2.01756120 2.56939483 -0.63501233 4 4 3814 3.32800000 2990410130 2990410130 -11.00000000
2.28672147 2.91112852 0.32387075 27 5 3815 3.71600000 2990410132 2990410132 5.00000000
2.56184101 3.26020002 -0.65671188 4 6 3816 4.19800000 2990410134 2990410134 -9.00000000
2.29653358 2.92151999 0.45627883 51 7 3817 3.74400000 2990410137 2990410137 7.00000000
3.46642518 4.40820599 -0.68856180 9 8 3818 5.65000000 2990410139 2990410139 -7.00000000
2.29241490 2.91418624 0.58725500 70 9 3819 3.75400000 2990410141 2990410141 9.00000000
5.19958401 6.60986614 -0.73576880 8 10 3819 8.44200000 2990410144 2990410144 -5.00000000
2.31406116 2.94064736 0.72736388 60 11 3820 3.81200000 2990410146 2990410146 11.00000000
6.27059460 7.96278334 2.33994079 64 13 3822 10.40200000 2990410150 2990410150 13.00000000
5.44894314 6.91691637 2.35939431 45 15 3823 9.11600000 2990410155 2990410155 15.00000000
1.40716326 1.78113842 -0.60822475 4 0 3831 2.35000000 2990410176 2990410176 -15.00000000
1.68598151 2.13252616 -0.62761343 3 2 3833 2.79000000 2990410180 2990410180 -13.00000000
2.30321407 2.91219258 0.19458508 26 3 3834 3.71800000 2990410183 2990410183 3.00000000
2.03747845 2.57619548 -0.63844693 4 4 3834 3.34600000 2990410185 2990410185 -11.00000000
2.32530189 2.93906617 0.32787991 52 5 3835 3.76200000 2990410187 2990410187 5.00000000
2.56585002 3.24194407 -0.65483469 4 6 3836 4.18600000 2990410190 2990410190 -9.00000000
2.31903982 2.92904925 0.45871621 55 7 3837 3.76400000 2990410192 2990410192 7.00000000
3.47193146 4.38362980 -0.68661189 6 8 3838 5.63400000 2990410194 2990410194 -7.00000000
2.31361389 2.92010117 0.59007078 82 9 3839 3.77200000 2990410197 2990410197 9.00000000
5.21520138 6.58230639 -0.73472291 8 10 3839 8.43000000 2990410199 2990410199 -5.00000000
2.33406758 2.94486046 0.73041683 54 11 3840 3.82800000 2990410201 2990410201 11.00000000
6.29835176 7.94084644 2.33994079 62 13 3842 10.40200000 2990410206 2990410206 13.00000000
5.46945238 6.89331388 2.35784149 45 15 3843 9.11000000 2990410210 2990410210 15.00000000
1.41969764 1.78352630 -0.61081296 4 0 3852 2.36000000 2990410231 2990410231 -15.00000000
1.69135785 2.12328386 -0.62671363 3 2 3854 2.78600000 2990410236 2990410236 -13.00000000
2.04568362 2.56717515 -0.63806528 2 4 3855 3.34400000 2990410240 2990410240 -11.00000000
2.32612324 2.91806006 0.32648543 16 5 3856 3.74600000 2990410243 2990410243 5.00000000
2.57278872 3.22634006 -0.65358317 4 6 3857 4.17800000 2990410245 2990410245 -9.00000000
2.35575604 2.95311809 0.46383473 73 7 3858 3.80600000 2990410247 2990410247 7.00000000
3.49292779 4.37708187 -0.68758684 6 8 3859 5.64200000 2990410249 2990410249 -7.00000000
2.33734632 2.92899156 0.59351236 80 9 3859 3.79400000 2990410252 2990410252 9.00000000
5.25420809 6.58183241 -0.73681468 8 10 3860 8.45400000 2990410254 2990410254 -5.00000000
2.35097098 2.94395638 0.73232490 33 11 3861 3.83800000 2990410256 2990410256 11.00000000
6.33228064 7.92379808 2.34174037 59 13 3863 10.41000000 2990410261 2990410261 13.00000000
5.49709320 6.87623882 2.35887671 45 15 3864 9.11400000 2990410266 2990410266 15.00000000
1.43679035 1.79212511 -0.61547166 4 0 3872 2.37800000 2990410286 2990410286 -15.00000000
1.69875920 2.11736703 -0.62671363 3 2 3874 2.78600000 2990410291 2990410291 -13.00000000
2.05954766 2.56614304 -0.63959175 4 4 3875 3.35200000 2990410296 2990410296 -11.00000000
2.59640479 3.23274112 -0.65671188 4 6 3877 4.19800000 2990410300 2990410300 -9.00000000
2.37350988 2.95416212 0.46529716 73 7 3878 3.81800000 2990410302 2990410302 7.00000000
3.50569820 4.36176777 -0.68709934 6 8 3879 5.63800000 2990410305 2990410305 -7.00000000
2.34806585 2.92040491 0.59351236 77 9 3880 3.79400000 2990410307 2990410307 9.00000000
5.27465391 6.56034613 -0.73646605 8 10 3880 8.45000000 2990410309 2990410309 -5.00000000
2.37599826 2.95409012 0.73690432 18 11 3881 3.86200000 2990410312 2990410312 11.00000000
6.35745716 7.89860964 2.34084058 60 13 3883 10.40600000 2990410316 2990410316 13.00000000
5.52347088 6.85754919 2.35939431 45 15 3885 9.11600000 2990410321 2990410321 15.00000000
1.44241333 1.78760242 -0.61547166 4 0 3890 2.37800000 2990410342 2990410342 -15.00000000
1.71274829 2.12111688 -0.62941307 3 2 3892 2.79800000 2990410346 2990410346 -13.00000000
2.06019735 2.55049658 -0.63730204 4 4 3893 3.34000000 2990410351 2990410351 -11.00000000
2.60654807 3.22456837 -0.65671188 4 6 3895 4.19800000 2990410355 2990410355 -9.00000000
2.38153076 2.94514728 0.46505341 81 7 3896 3.81600000 2990410358 2990410358 7.00000000
3.51438999 4.34455919 -0.68612438 6 8 3897 5.63000000 2990410360 2990410360 -7.00000000
2.35225868 2.90687156 0.59226090 63 9 3898 3.78600000 2990410362 2990410362 9.00000000
5.29523754 6.54374313 -0.73646605 8 10 3898 8.45000000 2990410365 2990410365 -5.00000000
6.38469362 7.88162661 2.34174037 60 13 3901 10.41000000 2990410372 2990410372 13.00000000
5.54257727 6.83962965 2.35887671 45 15 3902 9.11400000 2990410376 2990410376 15.00000000
1.44133425 1.77356136 -0.61236584 4 0 3910 2.36600000 2990410397 2990410397 -15.00000000
1.71522379 2.10907769 -0.62761343 3 2 3912 2.79000000 2990410401 2990410401 -13.00000000
2.06908751 2.54328966 -0.63730204 2 4 3913 3.34000000 2990410406 2990410406 -11.00000000
2.62527084 3.22464156 -0.65858912 4 6 3915 4.21000000 2990410411 2990410411 -9.00000000
2.38427544 2.92758107 0.46359098 63 7 3916 3.80400000 2990410413 2990410413 7.00000000
3.52702618 4.32918739 -0.68563694 6 8 3917 5.62600000 2990410415 2990410415 -7.00000000
2.35739923 2.89251804 0.59100944 61 9 3918 3.77800000 2990410418 2990410418 9.00000000
5.32056475 6.52830839 -0.73681468 8 10 3918 8.45400000 2990410420 2990410420 -5.00000000
6.40970278 7.85627222 2.34084058 59 13 3921 10.40600000 2990410427 2990410427 13.00000000
5.56641817 6.82024097 2.35887671 45 15 3922 9.11400000 2990410431 2990410431 15.00000000
1.44262195 1.76253951 -0.61029530 4 0 3930 2.35800000 2990410452 2990410452 -15.00000000
1.72257531 2.10307765 -0.62761343 3 2 3932 2.79000000 2990410457 2990410457 -13.00000000
2.63651109 3.21545792 -0.65858912 4 6 3935 4.21000000 2990410466 2990410466 -9.00000000
2.39447999 2.91924047 0.46359098 65 7 3936 3.80400000 2990410468 2990410468 7.00000000
3.54211640 4.31684971 -0.68563694 6 8 3937 5.62600000 2990410471 2990410471 -7.00000000
2.37073731 2.88926601 0.59194803 63 9 3937 3.78400000 2990410473 2990410473 9.00000000
5.34584856 6.51277637 -0.73716325 8 10 3938 8.45800000 2990410475 2990410475 -5.00000000
5.65003252 6.88091040 1.73063755 21 11 3939 9.07000000 2990410478 2990410478 11.00000000
5.65394735 6.88077927 2.05605268 28 13 3941 9.14000000 2990410482 2990410482 13.00000000
5.59383202 6.80277729 2.35991216 45 15 3943 9.11800000 2990410487 2990410487 15.00000000
1.45368075 1.76345575 -0.61236584 4 0 3950 2.36600000 2990410507 2990410507 -15.00000000
1.73238611 2.10005832 -0.62851322 3 2 3952 2.79400000 2990410512 2990410512 -13.00000000
2.10553622 2.55149651 -0.64302629 2 4 3953 3.37000000 2990410517 2990410517 -11.00000000
2.64268780 3.20014262 -0.65733761 4 6 3955 4.20200000 2990410521 2990410521 -9.00000000
2.40718412 2.91392517 0.46407846 50 7 3956 3.80800000 2990410524 2990410524 7.00000000
3.55716348 4.30445910 -0.68563694 6 8 3957 5.62600000 2990410526 2990410526 -7.00000000
2.39012146 2.89121485 0.59413809 56 9 3958 3.79800000 2990410528 2990410528 9.00000000
5.37235832 6.49868298 -0.73768622 8 10 3958 8.46400000 2990410531 2990410531 -5.00000000
6.46066570 7.80682898 2.33949089 55 13 3961 10.40000000 2990410537 2990410537 13.00000000
5.59659719 6.75791597 2.35111213 33 15 3963 9.08400000 2990410542 2990410542 15.00000000
1.46260297 1.76108825 -0.61340111 4 0 3971 2.37000000 2990410563 2990410563 -15.00000000
1.73010695 2.08170509 -0.62491405 3 2 3973 2.77800000 2990410567 2990410567 -13.00000000
2.09981227 2.52564645 -0.63844693 2 4 3974 3.34600000 2990410572 2990410572 -11.00000000
2.66197944 3.19954634 -0.65921485 4 6 3976 4.21400000 2990410577 2990410577 -9.00000000
2.42038774 2.90813446 0.46456593 45 7 3977 3.81200000 2990410579 2990410579 7.00000000
3.57545638 4.29444361 -0.68612438 6 8 3978 5.63000000 2990410581 2990410581 -7.00000000
2.42421389 2.91169786 0.60008264 64 9 3978 3.83600000 2990410584 2990410584 9.00000000
5.37573957 6.45445347 -0.73489720 4 10 3979 8.43200000 2990410586 2990410586 -5.00000000
6.49173164 7.78609037 2.34039068 57 13 3982 10.40400000 2990410593 2990410593 13.00000000
5.60895205 6.72252464 2.34593582 22 15 3984 9.06400000 2990410597 2990410597 15.00000000
1.46874130 1.75597203 -0.61340111 4 0 3991 2.37000000 2990410618 2990410618 -15.00000000
1.73986459 2.07864189 -0.62581384 3 2 3993 2.78200000 2990410623 2990410623 -13.00000000
2.10609484 2.51529074 -0.63768369 4 4 3994 3.34200000 2990410627 2990410627 -11.00000000
2.67059445 3.18720675 -0.65858912 4 6 3996 4.21000000 2990410632 2990410632 -9.00000000
2.44582653 2.91792393 0.46749079 60 7 3997 3.83600000 2990410634 2990410634 7.00000000
3.59042501 4.28193665 -0.68612438 6 8 3998 5.63000000 2990410637 2990410637 -7.00000000
2.43690109 2.90624547 0.60070837 47 9 3998 3.84000000 2990410639 2990410639 9.00000000
5.45073462 6.49823523 -0.74204397 4 10 3999 8.51400000 2990410641 2990410641 -5.00000000
6.52012396 7.76487494 2.34084058 60 13 4002 10.40600000 2990410648 2990410648 13.00000000
5.62741280 6.69698858 2.34386516 13 15 4004 9.05600000 2990410653 2990410653 15.00000000
1.47455633 1.75109184 -0.61340111 4 0 4010 2.37000000 2990410673 2990410673 -15.00000000
1.74925947 2.07584143 -0.62671363 3 2 4012 2.78600000 2990410678 2990410678 -13.00000000
2.11442447 2.50829291 -0.63768369 4 4 4013 3.34200000 2990410683 2990410683 -11.00000000
2.68114877 3.17833304 -0.65858912 6 6 4015 4.21000000 2990410687 2990410687 -9.00000000
2.45036840 2.90372896 0.46651584 11 7 4016 3.82800000 2990410689 2990410689 7.00000000
3.59692168 4.26090574 -0.68466198 6 8 4017 5.61800000 2990410692 2990410692 -7.00000000
5.46196938 6.46794653 -0.74064952 4 10 4018 8.49800000 2990410696 2990410696 -5.00000000
6.54835367 7.74618721 2.34174037 60 13 4021 10.41000000 2990410703 2990410703 13.00000000
5.64343452 6.67337608 2.34179473 13 15 4022 9.04800000 2990410708 2990410708 15.00000000
1.47191322 1.73562050 -0.60977769 4 0 4030 2.35600000 2990410729 2990410729 -15.00000000
1.75901675 2.07269430 -0.62761343 3 2 4032 2.79000000 2990410733 2990410733 -13.00000000
2.12316704 2.50089693 -0.63768369 4 4 4033 3.34200000 2990410738 2990410738 -11.00000000
2.69222689 3.16895485 -0.65858912 6 6 4035 4.21000000 2990410742 2990410742 -9.00000000
3.62205958 4.26042318 -0.68661189 6 8 4037 5.63400000 2990410747 2990410747 -7.00000000
5.46386099 6.42455769 -0.73786050 4 10 4038 8.46600000 2990410752 2990410752 -5.00000000
5.64840508 6.63920069 1.69438386 21 11 4039 8.88000000 2990410754 2990410754 11.00000000
5.65063477 6.63712597 2.01241207 40 13 4041 8.94600000 2990410759 2990410759 13.00000000
5.64906311 6.63058949 2.33403015 22 15 4043 9.01800000 2990410763 2990410763 15.00000000
1.48202944 1.73462033 -0.61133057 4 0 4051 2.36200000 2990410784 2990410784 -15.00000000
1.76406896 2.06327081 -0.62671363 3 2 4053 2.78600000 2990410789 2990410789 -13.00000000
2.14252758 2.50503421 -0.64073658 4 4 4054 3.35800000 2990410793 2990410793 -11.00000000
2.69611692 3.15006161 -0.65671188 6 6 4056 4.19800000 2990410798 2990410798 -9.00000000
3.64023304 4.25013447 -0.68709934 6 8 4058 5.63800000 2990410802 2990410802 -7.00000000
5.49514961 6.41356611 -0.73890638 4 10 4059 8.47800000 2990410807 2990410807 -5.00000000
6.60234737 7.69765091 2.34129047 57 13 4062 10.40800000 2990410814 2990410814 13.00000000
5.72626638 6.67387390 2.35628867 31 15 4063 9.10400000 2990410819 2990410819 15.00000000
1.48933530 1.73090088 -0.61184824 4 0 4071 2.36400000 2990410839 2990410839 -15.00000000
1.76363111 2.04824018 -0.62401420 3 2 4073 2.77400000 2990410844 2990410844 -13.00000000
2.15125871 2.49754000 -0.64073658 4 4 4074 3.35800000 2990410848 2990410848 -11.00000000
2.70451665 3.13763857 -0.65608615 4 6 4076 4.19400000 2990410853 2990410853 -9.00000000
3.64986038 4.23138905 -0.68612438 6 8 4078 5.63000000 2990410858 2990410858 -7.00000000
5.51620197 6.39283705 -0.73873210 4 10 4079 8.47600000 2990410862 2990410862 -5.00000000
6.63045073 7.67603254 2.34174037 59 13 4082 10.41000000 2990410869 2990410869 13.00000000
5.76837540 6.67330265 2.36353540 47 15 4084 9.13200000 2990410874 2990410874 15.00000000
1.49633193 1.72741282 -0.61236584 4 0 4090 2.36600000 2990410895 2990410895 -15.00000000
1.77807224 2.05121541 -0.62671363 3 2 4092 2.78600000 2990410899 2990410899 -13.00000000
2.14923954 2.47852635 -0.63768369 4 4 4093 3.34200000 2990410904 2990410904 -11.00000000
2.72008538 3.13462067 -0.65733761 6 6 4095 4.20200000 2990410908 2990410908 -9.00000000
3.66647506 4.22226000 -0.68661189 6 8 4097 5.63400000 2990410913 2990410913 -7.00000000
5.53998423 6.37751770 -0.73908073 4 10 4098 8.48000000 2990410918 2990410918 -5.00000000
6.65586901 7.65400314 2.34174037 60 13 4101 10.41000000 2990410925 2990410925 13.00000000
5.79311562 6.65952063 2.36508846 45 15 4102 9.13800000 2990410929 2990410929 15.00000000
1.49981272 1.71926749 -0.61133057 4 0 4110 2.36200000 2990410950 2990410950 -15.00000000
1.78906620 2.04940057 -0.62806332 3 2 4112 2.79200000 2990410954 2990410954 -13.00000000
2.15529537 2.46805143 -0.63692045 4 4 4113 3.33800000 2990410959 2990410959 -11.00000000
2.73361039 3.12808156 -0.65796334 4 6 4115 4.20600000 2990410964 2990410964 -9.00000000
3.67857766 4.20644760 -0.68612438 6 8 4117 5.63000000 2990410968 2990410968 -7.00000000
5.55565310 6.35064316 -0.73820913 8 10 4118 8.47000000 2990410973 2990410973 -5.00000000
6.68511343 7.63365507 2.34264016 59 13 4121 10.41400000 2990410980 2990410980 13.00000000
5.81621170 6.63679028 2.36457086 47 15 4123 9.13600000 2990410984 2990410984 15.00000000
1.50040662 1.70847833 -0.60926002 4 0 4129 2.35400000 2990411005 2990411005 -15.00000000
1.79842532 2.04638410 -0.62896317 3 2 4131 2.79600000 2990411010 2990411010 -13.00000000
2.16606045 2.46383977 -0.63768369 2 4 4132 3.34200000 2990411014 2990411014 -11.00000000
2.75179720 3.12789822 -0.65984058 6 6 4134 4.21800000 2990411019 2990411019 -9.00000000
3.69512987 4.19720554 -0.68661189 6 8 4136 5.63400000 2990411024 2990411024 -7.00000000
5.59248352 6.35012722 -0.74030089 13 10 4137 8.49400000 2990411028 2990411028 -5.00000000
6.71296835 7.61436796 2.34354019 59 13 4140 10.41800000 2990411035 2990411035 13.00000000
5.82808828 6.60834312 2.36094737 45 15 4141 9.12200000 2990411040 2990411040 15.00000000
1.51404023 1.71191311 -0.61236584 4 0 4149 2.36600000 2990411060 2990411060 -15.00000000
1.80168295 2.03571606 -0.62761343 3 2 4151 2.79000000 2990411065 2990411065 -13.00000000
2.74959922 3.10348797 -0.65671188 4 6 4154 4.19800000 2990411074 2990411074 -9.00000000
3.71239233 4.18725252 -0.68709934 6 8 4156 5.63800000 2990411079 2990411079 -7.00000000
5.60403967 6.31864214 -0.73890638 8 10 4157 8.47800000 2990411083 2990411083 -5.00000000
6.74468184 7.59671783 2.34533978 57 13 4160 10.42600000 2990411090 2990411090 13.00000000
5.85740232 6.59271431 2.36301780 45 15 4162 9.13000000 2990411095 2990411095 15.00000000
1.52257645 1.70950294 -0.61340111 4 0 4169 2.37000000 2990411116 2990411116 -15.00000000
1.80359149 2.02359557 -0.62581384 3 2 4171 2.78200000 2990411120 2990411120 -13.00000000
2.76041555 3.09387112 -0.65671188 6 6 4174 4.19800000 2990411130 2990411130 -9.00000000
3.70847654 4.15353727 -0.68368703 6 8 4176 5.61000000 2990411134 2990411134 -7.00000000
5.62871599 6.30201387 -0.73925501 8 10 4177 8.48200000 2990411139 2990411139 -5.00000000
5.62859011 6.29965973 1.64210224 12 11 4178 8.60600000 2990411141 2990411141 11.00000000
6.76596260 7.56731749 2.34354019 59 13 4180 10.41800000 2990411146 2990411146 13.00000000
5.88180828 6.57613420 2.36405325 45 15 4181 9.13400000 2990411150 2990411150 15.00000000
1.52595460 1.70130146 -0.61236584 4 0 4189 2.36600000 2990411171 2990411171 -15.00000000
1.81585085 2.02308846 -0.62761343 3 2 4191 2.79000000 2990411176 2990411176 -13.00000000
2.78704143 3.10184908 -0.66046631 6 6 4194 4.22200000 2990411185 2990411185 -9.00000000
3.73357058 4.15237617 -0.68563694 6 8 4196 5.62600000 2990411189 2990411189 -7.00000000
5.64002085 6.27047729 -0.73786050 8 10 4197 8.46600000 2990411194 2990411194 -5.00000000
5.62690878 6.25370359 1.63523304 21 11 4198 8.57000000 2990411196 2990411196 11.00000000
6.79233646 7.54365349 2.34354019 56 13 4200 10.41800000 2990411201 2990411201 13.00000000
5.90845776 6.55740261 2.36508846 45 15 4202 9.13800000 2990411206 2990411206 15.00000000
1.52929413 1.69309723 -0.61133057 4 0 4209 2.36200000 2990411226 2990411226 -15.00000000
1.82028830 2.01384616 -0.62671363 3 2 4211 2.78600000 2990411231 2990411231 -13.00000000
2.19761634 2.43044424 -0.63692045 2 4 4212 3.33800000 2990411236 2990411236 -11.00000000
2.79520106 3.08917212 -0.65984058 4 6 4214 4.21800000 2990411240 2990411240 -9.00000000
3.74004793 4.13048935 -0.68417448 6 8 4216 5.61400000 2990411245 2990411245 -7.00000000
5.66187429 6.25075150 -0.73786050 8 10 4217 8.46600000 2990411249 2990411249 -5.00000000
5.64474916 6.22965956 1.63408828 31 11 4218 8.56400000 2990411252 2990411252 11.00000000
6.81862736 7.51989794 2.34354019 57 13 4220 10.41800000 2990411256 2990411256 13.00000000
5.92238283 6.52918816 2.36198258 45 15 4221 9.12600000 2990411261 2990411261 15.00000000
1.53259504 1.68489063 -0.61029530 4 0 4229 2.35800000 2990411282 2990411282 -15.00000000
1.83780098 2.01900887 -0.63031286 3 2 4231 2.80200000 2990411286 2990411286 -13.00000000
2.22194839 2.44017768 -0.64149982 2 4 4232 3.36200000 2990411291 2990411291 -11.00000000
2.79798460 3.07063556 -0.65796334 6 6 4234 4.20600000 2990411295 2990411295 -9.00000000
3.75711823 4.12034273 -0.68466198 6 8 4236 5.61800000 2990411300 2990411300 -7.00000000
5.68365908 6.23094988 -0.73786050 13 10 4237 8.46600000 2990411305 2990411305 -5.00000000
5.66646051 6.20991755 1.63408828 12 11 4238 8.56400000 2990411307 2990411307 11.00000000
6.84483480 7.49605083 2.34354019 56 13 4240 10.41800000 2990411312 2990411312 13.00000000
5.94513798 6.50847530 2.36198258 45 15 4241 9.12600000 2990411316 2990411316 15.00000000
1.54629636 1.68807781 -0.61340111 4 0 4249 2.37000000 2990411337 2990411337 -15.00000000
1.84220386 2.00970840 -0.62941307 3 2 4251 2.79800000 2990411342 2990411342 -13.00000000
2.21983790 2.42083073 -0.63844693 2 4 4252 3.34600000 2990411346 2990411346 -11.00000000
2.81135702 3.06376100 -0.65858912 6 6 4254 4.21000000 2990411351 2990411351 -9.00000000
3.78221917 4.11890030 -0.68661189 6 8 4256 5.63400000 2990411355 2990411355 -7.00000000
5.72154856 6.22867966 -0.73995227 8 10 4257 8.49000000 2990411360 2990411360 -5.00000000
6.87095928 7.47211218 2.34354019 57 13 4260 10.41800000 2990411367 2990411367 13.00000000
5.97305202 6.49337053 2.36405325 47 15 4261 9.13400000 2990411371 2990411371 15.00000000
1.54693997 1.67699003 -0.61133057 4 0 4269 2.36200000 2990411392 2990411392 -15.00000000
1.83598983 1.98894644 -0.62491405 3 2 4271 2.77800000 2990411397 2990411397 -13.00000000
2.23093843 2.41595197 -0.63921010 4 4 4272 3.35000000 2990411401 2990411401 -11.00000000
2.81130934 3.04232240 -0.65608615 6 6 4274 4.19400000 2990411406 2990411406 -9.00000000
3.79657388 4.10567236 -0.68661189 6 8 4276 5.63400000 2990411411 2990411411 -7.00000000
5.74866772 6.21452045 -0.74064952 8 10 4277 8.49800000 2990411415 2990411415 -5.00000000
6.89435196 7.44522285 2.34264016 60 13 4280 10.41400000 2990411422 2990411422 13.00000000
5.99681139 6.47143459 2.36405325 47 15 4282 9.13400000 2990411427 2990411427 15.00000000
1.56067324 1.68007231 -0.61443639 4 0 4289 2.37400000 2990411448 2990411448 -15.00000000
1.84026778 1.97967088 -0.62401420 3 2 4291 2.77400000 2990411452 2990411452 -13.00000000
2.23802114 2.40671229 -0.63882852 4 4 4292 3.34800000 2990411457 2990411457 -11.00000000
2.83671451 3.04839778 -0.65952772 6 6 4294 4.21600000 2990411461 2990411461 -9.00000000
3.80547094 4.08658409 -0.68563694 6 8 4296 5.62600000 2990411466 2990411466 -7.00000000
5.78798008 6.21336794 -0.74291557 8 10 4297 8.52400000 2990411471 2990411471 -5.00000000
6.92295694 7.42396212 2.34354019 57 13 4300 10.41800000 2990411477 2990411477 13.00000000
6.02087402 6.45433807 2.36508846 47 15 4301 9.13800000 2990411482 2990411482 15.00000000
1.56388879 1.67179275 -0.61340111 4 0 4309 2.37000000 2990411503 2990411503 -15.00000000
1.85249388 1.97892582 -0.62581384 3 2 4311 2.78200000 2990411507 2990411507 -13.00000000
2.24909234 2.40175152 -0.63959175 4 4 4312 3.35200000 2990411512 2990411512 -11.00000000
2.84463668 3.03559446 -0.65890199 6 6 4314 4.21200000 2990411517 2990411517 -9.00000000
3.81563902 4.06893158 -0.68490571 6 8 4316 5.62000000 2990411521 2990411521 -7.00000000
5.78646040 6.16842365 -0.73995227 8 10 4317 8.49000000 2990411526 2990411526 -5.00000000
6.94882917 7.39975119 2.34354019 57 13 4320 10.41800000 2990411533 2990411533 13.00000000
6.04336691 6.43328190 2.36508846 47 15 4321 9.13800000 2990411537 2990411537 15.00000000
1.56309164 1.65929270 -0.61081296 4 0 4329 2.36000000 2990411559 2990411559 -15.00000000
1.87008429 1.98379135 -0.62941307 3 2 4331 2.79800000 2990411564 2990411564 -13.00000000
2.25072765 2.38674450 -0.63768369 4 4 4332 3.34200000 2990411568 2990411568 -11.00000000
2.85250401 3.02277303 -0.65827620 6 6 4334 4.20800000 2990411573 2990411573 -9.00000000
3.83663344 4.06280422 -0.68612438 6 8 4336 5.63000000 2990411577 2990411577 -7.00000000
5.78606606 6.12501383 -0.73716325 8 10 4337 8.45800000 2990411582 2990411582 -5.00000000
6.97729445 7.37828207 2.34443998 57 13 4340 10.42200000 2990411589 2990411589 13.00000000
6.05251074 6.39811325 2.35991216 47 15 4341 9.11800000 2990411594 2990411594 15.00000000
1.57286274 1.65803099 -0.61236584 4 0 4349 2.36600000 2990411614 2990411614 -15.00000000
1.87431419 1.97442484 -0.62851322 3 2 4351 2.79400000 2990411619 2990411619 -13.00000000
2.25904512 2.37887335 -0.63768369 4 4 4352 3.34200000 2990411624 2990411624 -11.00000000
2.86575961 3.01566148 -0.65890199 6 6 4354 4.21200000 2990411628 2990411628 -9.00000000
3.86173558 4.06089497 -0.68807429 6 8 4356 5.64600000 2990411633 2990411633 -7.00000000
5.84311485 6.14231205 -0.74169534 4 10 4357 8.51000000 2990411637 2990411637 -5.00000000
7.00838280 7.35952663 2.34623957 55 13 4360 10.43000000 2990411644 2990411644 13.00000000
6.08391666 6.38427782 2.36301780 47 15 4362 9.13000000 2990411649 2990411649 15.00000000
1.57835233 1.65280604 -0.61236584 4 0 4368 2.36600000 2990411670 2990411670 -15.00000000
1.87277329 1.95974529 -0.62581384 3 2 4370 2.78200000 2990411674 2990411674 -13.00000000
2.27506113 2.37988377 -0.63997334 4 4 4371 3.35400000 2990411679 2990411679 -11.00000000
2.87301326 3.00328684 -0.65827620 6 6 4373 4.20800000 2990411683 2990411683 -9.00000000
7.02735472 7.33061838 2.34443998 59 13 4379 10.42200000 2990411700 2990411700 13.00000000
6.10929203 6.37071085 2.36508846 47 15 4380 9.13800000 2990411704 2990411704 15.00000000
1.58411205 1.64728653 -0.61236584 4 0 4388 2.36600000 2990411725 2990411725 -15.00000000
1.87419760 1.94757950 -0.62401420 3 2 4390 2.77400000 2990411729 2990411729 -13.00000000
2.28607774 2.37475657 -0.64073658 4 4 4391 3.35800000 2990411734 2990411734 -11.00000000
2.89718390 3.00746632 -0.66140491 9 6 4393 4.22800000 2990411739 2990411739 -9.00000000
2.98412919 3.09555769 -0.52793801 8 8 4395 4.33200000 2990411743 2990411743 -7.00000000
2.98734283 3.09780908 -0.37651280 2 10 4396 4.32000000 2990411748 2990411748 -5.00000000
2.97908521 3.08708882 -0.22483526 2 12 4398 4.29600000 2990411753 2990411753 -3.00000000
7.04748678 7.30043554 2.34264016 55 13 4399 10.41400000 2990411755 2990411755 13.00000000
2.98935437 3.09556699 -0.07511516 3 14 4400 4.30400000 2990411757 2990411757 -1.00000000
6.13283443 6.35073614 2.36560607 42 15 4400 9.14000000 2990411759 2990411759 15.00000000
1.59733999 1.65063131 -0.61547166 5 0 4406 2.37800000 2990411780 2990411780 -15.00000000
2.99035215 3.08903885 0.07504535 11 1 4407 4.30000000 2990411782 2990411782 1.00000000
1.89521909 1.95708096 -0.62896317 3 2 4408 2.79600000 2990411785 2990411785 -13.00000000
2.98500633 3.08136368 0.22483526 5 3 4409 4.29600000 2990411787 2990411787 3.00000000
2.29079509 2.36474276 -0.63997334 2 4 4409 3.35400000 2990411789 2990411789 -11.00000000
2.99490333 3.09050035 0.37651280 5 5 4410 4.32000000 2990411792 2990411792 5.00000000
2.90936780 3.00118637 -0.66203064 9 6 4411 4.23200000 2990411794 2990411794 -9.00000000
3.04305100 3.13799238 0.53671259 1 7 4412 4.40400000 2990411796 2990411796 7.00000000
2.97587085 3.06764483 -0.52476937 20 8 4413 4.30600000 2990411799 2990411799 -7.00000000
2.98734736 3.07840014 -0.37529263 33 10 4414 4.30600000 2990411803 2990411803 -5.00000000
2.98876882 3.07771444 -0.22483526 22 12 4416 4.29600000 2990411808 2990411808 -3.00000000
2.98791552 3.07468772 -0.07483592 21 14 4418 4.28800000 2990411812 2990411812 -1.00000000
1.58556449 1.62705922 -0.60874242 4 0 4426 2.35200000 2990411835 2990411835 -15.00000000
2.99692917 3.07428622 0.07494064 16 1 4427 4.29400000 2990411838 2990411838 1.00000000
1.89795744 1.94626796 -0.62761343 3 2 4428 2.79000000 2990411840 2990411840 -13.00000000
3.01194119 3.08860707 0.22609133 17 3 4428 4.32000000 2990411842 2990411842 3.00000000
2.29355192 2.35111070 -0.63844693 4 4 4429 3.34600000 2990411845 2990411845 -11.00000000
3.00706434 3.08145332 0.37668711 20 5 4430 4.32200000 2990411847 2990411847 5.00000000
2.91154671 2.98253131 -0.66015345 9 6 4431 4.22000000 2990411849 2990411849 -9.00000000
2.97823787 3.04871845 -0.52330697 6 8 4433 4.29400000 2990411854 2990411854 -7.00000000
2.99389720 3.06367874 -0.37476969 7 10 4434 4.30000000 2990411859 2990411859 -5.00000000
2.99670100 3.06440711 -0.22462593 6 12 4436 4.29200000 2990411863 2990411863 -3.00000000
3.02254152 3.08975220 0.99788290 51 13 4437 4.43600000 2990411865 2990411865 13.00000000
1.59935296 1.62978768 -0.61184824 4 0 4446 2.36400000 2990411891 2990411891 -15.00000000
2.98943114 3.04525495 0.07448687 3 1 4447 4.26800000 2990411893 2990411893 1.00000000
1.91020119 1.94519269 -0.62941307 3 2 4448 2.79800000 2990411895 2990411895 -13.00000000
3.00451183 3.05954909 0.22473060 3 3 4448 4.29400000 2990411898 2990411898 3.00000000
2.30174470 2.34309030 -0.63844693 4 4 4449 3.34600000 2990411900 2990411900 -11.00000000
2.92332482 2.97375870 -0.66046631 9 6 4451 4.22200000 2990411905 2990411905 -9.00000000
3.03008723 3.08128715 0.53061914 56 7 4452 4.35400000 2990411907 2990411907 7.00000000
2.99721432 3.04679489 -0.52476937 8 8 4453 4.30600000 2990411909 2990411909 -7.00000000
3.02964520 3.07976222 0.68424433 66 9 4453 4.37400000 2990411912 2990411912 9.00000000
2.98920107 3.03758836 -0.37285227 9 10 4454 4.27800000 2990411914 2990411914 -5.00000000
3.01900792 3.06680679 0.83650666 44 11 4455 4.38400000 2990411916 2990411916 11.00000000
2.99616838 3.04254317 -0.22378854 8 12 4456 4.27600000 2990411918 2990411918 -3.00000000
3.01963234 3.06530023 0.99338388 49 13 4457 4.41600000 2990411921 2990411921 13.00000000
2.99106121 3.03523707 -0.07438216 7 14 4458 4.26200000 2990411923 2990411923 -1.00000000
3.02707291 3.07070851 1.15536821 52 15 4459 4.46400000 2990411925 2990411925 15.00000000
1.60503221 1.62419498 -0.61184824 4 0 4466 2.36400000 2990411946 2990411946 -15.00000000
3.00004268 3.03480124 0.07448687 7 1 4467 4.26800000 2990411948 2990411948 1.00000000
1.90875804 1.93019915 -0.62671363 3 2 4468 2.78600000 2990411951 2990411951 -13.00000000
3.00955606 3.04336214 0.22431190 7 3 4468 4.28600000 2990411953 2990411953 3.00000000
2.31543255 2.34062433 -0.63997334 4 4 4469 3.35400000 2990411955 2990411955 -11.00000000
3.01448917 3.04622316 0.37494400 7 5 4470 4.30200000 2990411958 2990411958 5.00000000
2.93507719 2.96494007 -0.66077918 11 6 4471 4.22400000 2990411960 2990411960 -9.00000000
3.01847577 3.04812312 0.52671933 61 7 4472 4.32200000 2990411962 2990411962 7.00000000
2.98967004 3.01798058 -0.52160078 8 8 4473 4.28000000 2990411965 2990411965 -7.00000000
3.03064585 3.05934429 0.68205428 62 9 4473 4.36000000 2990411967 2990411967 9.00000000
2.99557877 3.02288985 -0.37232932 9 10 4474 4.27200000 2990411969 2990411969 -5.00000000
3.02416611 3.05067277 0.83498019 59 11 4475 4.37600000 2990411971 2990411971 11.00000000
2.99833250 3.02355719 -0.22316052 8 12 4476 4.26400000 2990411974 2990411974 -3.00000000
3.02482414 3.04920697 0.99158424 52 13 4477 4.40800000 2990411976 2990411976 13.00000000
3.00586367 3.02903605 -0.07448687 7 14 4478 4.26800000 2990411978 2990411978 -1.00000000
3.03096819 3.05326819 1.15278006 56 15 4479 4.45400000 2990411981 2990411981 15.00000000
1.61614263 1.62405992 -0.61391878 4 0 4486 2.37200000 2990412001 2990412001 -15.00000000
3.00497484 3.01864195 0.07434725 7 1 4487 4.26000000 2990412004 2990412004 1.00000000
1.91548407 1.92352450 -0.62671363 3 2 4488 2.78600000 2990412006 2990412006 -13.00000000
3.01029563 3.02293181 0.22357920 7 3 4488 4.27200000 2990412008 2990412008 3.00000000
2.31250405 2.32140064 -0.63692045 4 4 4489 3.33800000 2990412011 2990412011 -11.00000000
3.02229142 3.03285956 0.37459537 7 5 4490 4.29800000 2990412013 2990412013 5.00000000
2.94680333 2.95607567 -0.66109204 13 6 4491 4.22600000 2990412015 2990412015 -9.00000000
3.02208877 3.03053999 0.52550060 63 7 4492 4.31200000 2990412017 2990412017 7.00000000
2.98756886 2.99487782 -0.51940715 8 8 4493 4.26200000 2990412020 2990412020 -7.00000000
3.02875066 3.03616023 0.67923844 68 9 4493 4.34200000 2990412022 2990412022 9.00000000
2.99766827 3.00395298 -0.37128347 9 10 4494 4.26000000 2990412024 2990412024 -5.00000000
3.02647424 3.03176117 0.83269048 59 11 4495 4.36400000 2990412027 2990412027 11.00000000
2.99193287 2.99611330 -0.22190446 8 12 4496 4.24000000 2990412029 2990412029 -3.00000000
3.02029967 3.02346420 0.98663533 55 13 4497 4.38600000 2990412031 2990412031 13.00000000
3.00086999 3.00296569 -0.07410292 7 14 4498 4.24600000 2990412034 2990412034 -1.00000000
3.03424883 3.03636789 1.15019178 54 15 4498 4.44400000 2990412036 2990412036 15.00000000
1.61906695 1.61567950 -0.61288351 4 0 4506 2.36800000 2990412057 2990412057 -15.00000000
3.01266193 3.00530958 0.07427744 7 1 4507 4.25600000 2990412059 2990412059 1.00000000
1.92218685 1.91682649 -0.62671363 3 2 4508 2.78600000 2990412061 2990412061 -13.00000000
3.00668693 2.99830246 0.22253248 7 3 4508 4.25200000 2990412064 2990412064 3.00000000
2.32615495 2.31885862 -0.63844693 4 4 4509 3.34600000 2990412066 2990412066 -11.00000000
3.02015805 3.00963402 0.37302658 7 5 4510 4.28000000 2990412068 2990412068 5.00000000
2.96130252 2.94995379 -0.66203064 13 6 4511 4.23200000 2990412070 2990412070 -9.00000000
3.03264904 3.01997232 0.52550060 61 7 4512 4.31200000 2990412073 2990412073 7.00000000
2.99378419 2.98022962 -0.51867592 8 8 4513 4.25600000 2990412075 2990412075 -7.00000000
3.02253079 3.00884581 0.67548400 68 9 4513 4.31800000 2990412077 2990412077 9.00000000
2.99118853 2.97660637 -0.36919174 9 10 4514 4.23600000 2990412080 2990412080 -5.00000000
3.02868748 3.01287079 0.83040076 59 11 4515 4.35200000 2990412082 2990412082 11.00000000
2.99104333 2.97438478 -0.22106709 8 12 4516 4.22400000 2990412084 2990412084 -3.00000000
3.01977873 3.00191212 0.98303610 55 13 4517 4.37000000 2990412087 2990412087 13.00000000
2.99998665 2.98119617 -0.07382368 7 14 4518 4.23000000 2990412089 2990412089 -1.00000000
3.03439283 3.01433444 1.14605069 56 15 4519 4.42800000 2990412091 2990412091 15.00000000
1.62058020 1.60593855 -0.61133057 4 0 4526 2.36200000 2990412112 2990412112 -15.00000000
3.00324512 2.97507286 0.07378878 7 1 4527 4.22800000 2990412114 2990412114 1.00000000
1.93717420 1.91833246 -0.62941307 3 2 4528 2.79800000 2990412117 2990412117 -13.00000000
3.00772023 2.97742629 0.22179978 7 3 4529 4.23800000 2990412119 2990412119 3.00000000
2.33144450 2.30796218 -0.63768369 2 4 4529 3.34200000 2990412121 2990412121 -11.00000000
3.01223469 2.98085475 0.37076053 7 5 4530 4.25400000 2990412123 2990412123 5.00000000
2.96034694 2.92848516 -0.65952772 13 6 4531 4.21600000 2990412126 2990412126 -9.00000000
3.02905726 2.99540997 0.52306324 63 7 4532 4.29200000 2990412128 2990412128 7.00000000
2.99146318 2.95720100 -0.51648229 8 8 4533 4.23800000 2990412130 2990412130 -7.00000000
3.01896691 2.98438954 0.67235535 68 9 4533 4.29800000 2990412133 2990412133 9.00000000
2.99589181 2.96054530 -0.36849448 9 10 4534 4.22800000 2990412135 2990412135 -5.00000000
3.02102900 2.98434401 0.82543969 65 11 4535 4.32600000 2990412137 2990412137 11.00000000
3.00567102 2.96813607 -0.22138110 8 12 4536 4.23000000 2990412140 2990412140 -3.00000000
3.02191806 2.98313856 0.98033667 55 13 4537 4.35800000 2990412142 2990412142 13.00000000
2.99471784 2.95525551 -0.07343972 7 14 4538 4.20800000 2990412144 2990412144 -1.00000000
3.02374625 2.98390150 1.13828611 60 15 4538 4.39800000 2990412147 2990412147 15.00000000
1.62342215 1.59756196 -0.61029530 4 0 4546 2.35800000 2990412167 2990412167 -15.00000000
2.99935627 2.95054793 0.07343972 7 1 4547 4.20800000 2990412170 2990412170 1.00000000
1.93830073 1.90609324 -0.62761343 3 2 4548 2.79000000 2990412172 2990412172 -13.00000000
3.01667070 2.96550918 0.22169511 7 3 4549 4.23600000 2990412174 2990412174 3.00000000
2.34228683 2.30256248 -0.63844693 2 4 4549 3.34600000 2990412176 2990412176 -11.00000000
3.01551604 2.96333933 0.36988896 7 5 4550 4.24400000 2990412179 2990412179 5.00000000
2.96491456 2.91259646 -0.65827620 11 6 4551 4.20800000 2990412181 2990412181 -9.00000000
3.02249861 2.96812773 0.52013838 60 7 4552 4.26800000 2990412183 2990412183 7.00000000
2.99893427 2.94395947 -0.51599479 8 8 4553 4.23400000 2990412186 2990412186 -7.00000000
3.02706504 2.97053742 0.67172956 68 9 4554 4.29400000 2990412188 2990412188 9.00000000
2.99198723 2.93611455 -0.36675137 9 10 4554 4.20800000 2990412190 2990412190 -5.00000000
3.01881456 2.96140671 0.82200515 59 11 4555 4.30800000 2990412193 2990412193 11.00000000
2.99747539 2.93944693 -0.22002035 8 12 4556 4.20400000 2990412195 2990412195 -3.00000000
3.02674627 2.96711516 0.97853708 59 13 4557 4.35000000 2990412197 2990412197 13.00000000
3.00644374 2.94618368 -0.07347463 7 14 4558 4.21000000 2990412200 2990412200 -1.00000000
3.02362227 2.96198368 1.13414502 64 15 4559 4.38200000 2990412202 2990412202 15.00000000
1.63866055 1.60133672 -0.61391878 4 0 4566 2.37200000 2990412223 2990412223 -15.00000000
2.99962425 2.93027854 0.07319539 7 1 4567 4.19400000 2990412225 2990412225 1.00000000
1.94215405 1.89659274 -0.62671363 3 2 4568 2.78600000 2990412227 2990412227 -13.00000000
3.00842452 2.93682384 0.22033438 7 3 4569 4.21000000 2990412229 2990412229 3.00000000
2.35311961 2.29711533 -0.63921010 4 4 4569 3.35000000 2990412232 2990412232 -11.00000000
3.01443434 2.94166327 0.36849448 7 5 4570 4.22800000 2990412234 2990412234 5.00000000
2.96799326 2.89533234 -0.65671188 9 6 4571 4.19800000 2990412236 2990412236 -9.00000000
3.01578641 2.94092822 0.51721346 47 7 4572 4.24400000 2990412239 2990412239 7.00000000
2.98787069 2.91268826 -0.51233870 8 8 4573 4.20400000 2990412241 2990412241 -7.00000000
3.02275419 2.94669390 0.66860092 70 9 4573 4.27400000 2990412243 2990412243 9.00000000
2.99651051 2.92009068 -0.36605412 9 10 4574 4.20000000 2990412246 2990412246 -5.00000000
3.02350831 2.94537139 0.82047868 12 11 4575 4.30000000 2990412248 2990412248 11.00000000
3.00056338 2.92199874 -0.21949700 8 12 4576 4.19400000 2990412250 2990412250 -3.00000000
3.02032876 2.94021988 0.97313827 53 13 4577 4.32600000 2990412253 2990412253 13.00000000
3.00811076 2.92730355 -0.07326520 8 14 4578 4.19800000 2990412255 2990412255 -1.00000000
