# .PCD v0.7 - Point Cloud Data file format
VERSION 0.7
FIELDS x y z intensity laser_id azimuth distance_m adjustedtime timestamp vertical_angle
SIZE 4 4 4 1 1 2 8 8 4 8
TYPE F F F U U U F U U F
COUNT 1 1 1 1 1 1 1 1 1 1
WIDTH 538
HEIGHT 1
VIEWPOINT 0 0 0 1 0 0 0
POINTS 538
DATA ascii
1.86310673 2.69066787 -0.63615721 4 4 3470 3.33400000 2991609502 2991609502 -11.00000000
2.06140900 2.97594261 0.31672397 67 5 3471 3.63400000 2991609504 2991609504 5.00000000
2.26484299 3.26841044 -0.62980515 4 6 3472 4.02600000 2991609507 2991609507 -9.00000000
2.05489397 2.96432614 0.44287318 55 7 3473 3.63400000 2991609509 2991609509 7.00000000
3.17757320 4.58216000 -0.68466198 6 8 3474 5.61800000 2991609511 2991609511 -7.00000000
2.05435681 2.96244717 0.57098579 65 9 3474 3.65000000 2991609513 2991609513 9.00000000
4.78338099 6.89521503 -0.73420000 8 10 3475 8.42400000 2991609516 2991609516 -5.00000000
2.08643150 3.00645781 0.71133596 70 11 3476 3.72800000 2991609518 2991609518 11.00000000
2.15841246 3.10902095 -0.19835328 6 12 3477 3.79000000 2991609520 2991609520 -3.00000000
2.12095904 3.05393434 0.85841322 56 13 3478 3.81600000 2991609523 2991609523 13.00000000
2.09595585 3.01680851 -0.06412014 27 14 3479 3.67400000 2991609525 2991609525 -1.00000000
5.01306534 7.21554232 2.35421801 40 15 3479 9.09600000 2991609527 2991609527 15.00000000
1.29996264 1.86553359 -0.60926002 4 0 3487 2.35400000 2991609548 2991609548 -15.00000000
2.07439041 2.97578216 0.06331733 27 1 3488 3.62800000 2991609550 2991609550 1.00000000
1.55498505 2.22984815 -0.62761343 3 2 3489 2.79000000 2991609553 2991609553 -13.00000000
2.06261587 2.95669079 0.18893281 57 3 3490 3.61000000 2991609555 2991609555 3.00000000
1.87922716 2.69380903 -0.63844693 4 4 3490 3.34600000 2991609557 2991609557 -11.00000000
2.06722355 2.96219349 0.31602672 67 5 3491 3.62600000 2991609560 2991609560 5.00000000
2.19595361 3.14548516 -0.60759145 44 6 3492 3.88400000 2991609562 2991609562 -9.00000000
2.07432175 2.97015524 0.44482312 57 7 3493 3.65000000 2991609564 2991609564 7.00000000
3.20491743 4.58731318 -0.68709934 6 8 3494 5.63800000 2991609566 2991609566 -7.00000000
2.06972742 2.96137404 0.57223725 71 9 3495 3.65800000 2991609569 2991609569 9.00000000
4.82454109 6.90297222 -0.73681468 4 10 3495 8.45400000 2991609571 2991609571 -5.00000000
2.09466338 2.99593854 0.71057272 70 11 3496 3.72400000 2991609573 2991609573 11.00000000
2.12918663 3.04418468 -0.19468975 1 12 3497 3.72000000 2991609576 2991609576 -3.00000000
2.13830948 3.05609250 0.86111265 50 13 3498 3.82800000 2991609578 2991609578 13.00000000
2.16266155 3.08974838 -0.06583048 17 14 3499 3.77200000 2991609580 2991609580 -1.00000000
5.03947783 7.19712019 2.35421801 42 15 3500 9.09600000 2991609583 2991609583 15.00000000
1.30614173 1.86121249 -0.60926002 4 0 3506 2.35400000 2991609603 2991609603 -15.00000000
2.07735324 2.95906687 0.06310790 28 1 3507 3.61600000 2991609606 2991609606 1.00000000
1.56013107 2.22148991 -0.62671363 3 2 3508 2.78600000 2991609608 2991609608 -13.00000000
2.07585382 2.95473719 0.18924682 58 3 3509 3.61600000 2991609610 2991609610 3.00000000
2.01681042 2.87069583 -0.68195134 6 4 3509 3.57400000 2991609613 2991609613 -11.00000000
2.08047199 2.96021223 0.31654966 61 5 3510 3.63200000 2991609615 2991609615 5.00000000
2.08872771 2.96975493 0.44579807 63 7 3512 3.65800000 2991609619 2991609619 7.00000000
2.15321422 3.06030655 -0.45944741 5 8 3513 3.77000000 2991609622 2991609622 -7.00000000
2.08584094 2.96455073 0.57411450 63 9 3513 3.67000000 2991609624 2991609624 9.00000000
2.16166544 3.07117891 -0.32857716 1 10 3514 3.77000000 2991609626 2991609626 -5.00000000
2.10232615 2.98576546 0.70980948 70 11 3515 3.72000000 2991609629 2991609629 11.00000000
2.15997243 3.06649876 -0.19657385 17 12 3516 3.75600000 2991609631 2991609631 -3.00000000
2.15516710 3.05854273 0.86381203 45 13 3517 3.84000000 2991609633 2991609633 13.00000000
2.16137457 3.06621528 -0.06548143 21 14 3518 3.75200000 2991609636 2991609636 -1.00000000
5.06651545 7.18756866 2.35628867 42 15 3518 9.10400000 2991609638 2991609638 15.00000000
1.32043731 1.86768389 -0.61288351 4 0 3526 2.36800000 2991609659 2991609659 -15.00000000
2.09459782 2.96159339 0.06331733 25 1 3527 3.62800000 2991609661 2991609661 1.00000000
1.56449938 2.21125793 -0.62536395 4 2 3528 2.78000000 2991609663 2991609663 -13.00000000
2.08269358 2.94258261 0.18893281 57 3 3529 3.61000000 2991609666 2991609666 3.00000000
2.01547670 2.84761357 -0.67813516 5 4 3529 3.55400000 2991609668 2991609668 -11.00000000
2.08848977 2.94967985 0.31620103 60 5 3530 3.62800000 2991609670 2991609670 5.00000000
2.15679955 3.04503012 -0.59100944 48 6 3531 3.77800000 2991609672 2991609672 -9.00000000
2.10137677 2.96568513 0.44628555 67 7 3532 3.66200000 2991609675 2991609675 7.00000000
2.15699601 3.04305482 -0.45798498 45 8 3533 3.75800000 2991609677 2991609677 -7.00000000
2.11673832 2.98626018 0.57974613 71 9 3533 3.70600000 2991609679 2991609679 9.00000000
2.17122030 3.06198931 -0.32840285 31 10 3534 3.76800000 2991609682 2991609682 -5.00000000
2.11500740 2.98161149 0.71057272 63 11 3535 3.72400000 2991609684 2991609684 11.00000000
2.15910482 3.04265213 -0.19552714 24 12 3536 3.73600000 2991609686 2991609686 -3.00000000
2.15906215 3.04146671 0.86111265 20 13 3537 3.82800000 2991609689 2991609689 13.00000000
2.16627526 3.05049992 -0.06530690 24 14 3538 3.74200000 2991609691 2991609691 -1.00000000
5.09157372 7.16983938 2.35628867 42 15 3538 9.10400000 2991609693 2991609693 15.00000000
1.32839489 1.86440504 -0.61340111 4 0 3547 2.37000000 2991609714 2991609714 -15.00000000
2.12400913 2.97995067 0.06387581 25 1 3548 3.66000000 2991609716 2991609716 1.00000000
1.57372487 2.20709562 -0.62581384 3 2 3549 2.78200000 2991609719 2991609719 -13.00000000
2.08534598 2.92354727 0.18820010 46 3 3550 3.59600000 2991609721 2991609721 3.00000000
2.03388071 2.85139537 -0.68080652 5 4 3550 3.56800000 2991609723 2991609723 -11.00000000
2.10160136 2.94524908 0.31654966 61 5 3551 3.63200000 2991609725 2991609725 5.00000000
2.13925385 2.99690986 -0.58318770 34 6 3552 3.72800000 2991609728 2991609728 -9.00000000
2.12030768 2.96927190 0.44799170 82 7 3553 3.67600000 2991609730 2991609730 7.00000000
2.14736485 3.00605345 -0.45359769 31 8 3554 3.72200000 2991609732 2991609732 -7.00000000
2.12359500 2.97168159 0.57849467 78 9 3555 3.69800000 2991609735 2991609735 9.00000000
2.16621065 3.03131652 -0.32596248 31 10 3555 3.74000000 2991609737 2991609737 -5.00000000
2.12820482 2.97703362 0.71133596 66 11 3556 3.72800000 2991609739 2991609739 11.00000000
2.16908050 3.03309345 -0.19542246 26 12 3557 3.73400000 2991609742 2991609742 -3.00000000
5.87109184 8.20670509 2.32959318 34 13 3558 10.35600000 2991609744 2991609744 13.00000000
2.16813111 3.02953053 -0.06502767 24 14 3559 3.72600000 2991609746 2991609746 -1.00000000
5.12456417 7.16055536 2.35939431 42 15 3559 9.11600000 2991609748 2991609748 15.00000000
1.33264172 1.85661793 -0.61236584 4 0 3567 2.36600000 2991609769 2991609769 -15.00000000
2.15539217 3.00175619 0.06450409 27 1 3568 3.69600000 2991609772 2991609772 1.00000000
1.58141947 2.20158887 -0.62581384 3 2 3569 2.78200000 2991609774 2991609774 -13.00000000
2.09903479 2.92111611 0.18851411 28 3 3570 3.60200000 2991609776 2991609776 3.00000000
2.01747179 2.80760908 -0.67202926 5 4 3570 3.52200000 2991609778 2991609778 -11.00000000
2.10954356 2.93465948 0.31620103 61 5 3571 3.62800000 2991609781 2991609781 5.00000000
2.13701606 2.97178292 -0.57974613 31 6 3572 3.70600000 2991609783 2991609783 -9.00000000
2.12834096 2.95862961 0.44750422 81 7 3573 3.67200000 2991609785 2991609785 7.00000000
2.16364241 3.00659561 -0.45481640 29 8 3574 3.73200000 2991609788 2991609788 -7.00000000
2.12703061 2.95463181 0.57661742 79 9 3575 3.68600000 2991609790 2991609790 9.00000000
2.15815401 2.99786496 -0.32317349 31 10 3575 3.70800000 2991609792 2991609792 -5.00000000
2.14546752 2.97914553 0.71362567 70 11 3576 3.74000000 2991609795 2991609795 11.00000000
2.17498493 3.01902151 -0.19500378 26 12 3577 3.72600000 2991609797 2991609797 -3.00000000
5.91565418 8.20829487 2.33589172 35 13 3578 10.38400000 2991609799 2991609799 13.00000000
2.17284560 3.01383328 -0.06485314 28 14 3579 3.71600000 2991609801 2991609801 -1.00000000
5.14399433 7.13232374 2.35628867 42 15 3580 9.10400000 2991609804 2991609804 15.00000000
1.33846796 1.85242212 -0.61236584 4 0 3585 2.36600000 2991609825 2991609825 -15.00000000
2.16364026 2.99334931 0.06446919 30 1 3586 3.69400000 2991609827 2991609827 1.00000000
1.58832812 2.19660974 -0.62581384 3 2 3587 2.78200000 2991609829 2991609829 -13.00000000
2.11639547 2.92583537 0.18924682 30 3 3588 3.61600000 2991609831 2991609831 3.00000000
2.03318596 2.81080151 -0.67431897 6 4 3588 3.53400000 2991609834 2991609834 -11.00000000
2.11057663 2.91671896 0.31498086 63 5 3589 3.61400000 2991609836 2991609836 5.00000000
2.13707519 2.95225334 -0.57724315 30 6 3590 3.69000000 2991609838 2991609838 -9.00000000
2.13878942 2.95353651 0.44774798 67 7 3591 3.67400000 2991609841 2991609841 7.00000000
2.17307734 2.99978352 -0.45481640 29 8 3592 3.73200000 2991609843 2991609843 -7.00000000
2.13862062 2.95113397 0.57724315 79 9 3593 3.69000000 2991609845 2991609845 9.00000000
2.15587020 2.97493696 -0.32143039 31 10 3593 3.68800000 2991609848 2991609848 -5.00000000
2.15712070 2.97556973 0.71438891 71 11 3594 3.74400000 2991609850 2991609850 11.00000000
2.18211341 3.00893998 -0.19479443 26 12 3595 3.72200000 2991609852 2991609852 -3.00000000
4.96757889 6.84733343 1.95302510 10 13 3596 8.68200000 2991609854 2991609854 13.00000000
2.18347764 3.00861073 -0.06488805 30 14 3597 3.71800000 2991609857 2991609857 -1.00000000
5.15832520 7.10764885 2.35318279 45 15 3597 9.09200000 2991609859 2991609859 15.00000000
1.33810461 1.83836722 -0.60926002 4 0 3605 2.35400000 2991609880 2991609880 -15.00000000
2.16583633 2.97446275 0.06422485 30 1 3606 3.68000000 2991609882 2991609882 1.00000000
1.60057557 2.19735289 -0.62761343 3 2 3607 2.79000000 2991609884 2991609884 -13.00000000
2.13482904 2.92972898 0.18997952 31 3 3608 3.63000000 2991609887 2991609887 3.00000000
2.05454707 2.81955409 -0.67813516 6 4 3608 3.55400000 2991609889 2991609889 -11.00000000
2.12426591 2.91416407 0.31550378 61 5 3609 3.62000000 2991609891 2991609891 5.00000000
2.14154792 2.93679523 -0.57567883 31 6 3610 3.68000000 2991609894 2991609894 -9.00000000
2.14674640 2.94284511 0.44726050 66 7 3611 3.67000000 2991609896 2991609896 7.00000000
2.18587565 2.99538684 -0.45530388 28 8 3612 3.73600000 2991609898 2991609898 -7.00000000
2.15589738 2.95322371 0.57912040 82 9 3613 3.70200000 2991609901 2991609901 9.00000000
2.16859102 2.97061205 -0.32177901 31 10 3613 3.69200000 2991609903 2991609903 -5.00000000
2.16054702 2.95850897 0.71209919 71 11 3614 3.73200000 2991609905 2991609905 11.00000000
2.17610884 2.97872639 -0.19332902 24 12 3615 3.69400000 2991609907 2991609907 -3.00000000
5.01099777 6.85669899 1.96067333 17 13 3616 8.71600000 2991609910 2991609910 13.00000000
2.19160604 2.99774218 -0.06481824 28 14 3617 3.71400000 2991609912 2991609912 -1.00000000
5.18538475 7.09271860 2.35421801 42 15 3617 9.09600000 2991609914 2991609914 15.00000000
1.34908295 1.83991694 -0.61133057 4 0 3625 2.36200000 2991609935 2991609935 -15.00000000
2.16792679 2.95559740 0.06398052 30 1 3626 3.66600000 2991609937 2991609937 1.00000000
1.60593033 2.18861008 -0.62671363 3 2 3627 2.78600000 2991609940 2991609940 -13.00000000
2.14335108 2.92102337 0.18987484 31 3 3627 3.62800000 2991609942 2991609942 3.00000000
2.07947898 2.83293962 -0.68309623 9 4 3628 3.58000000 2991609944 2991609944 -11.00000000
2.14150071 2.91636682 0.31654966 61 5 3629 3.63200000 2991609947 2991609947 5.00000000
2.15646410 2.93566990 -0.57693028 33 6 3630 3.68800000 2991609949 2991609949 -9.00000000
2.15230393 2.92893505 0.44628555 64 7 3631 3.66200000 2991609951 2991609951 7.00000000
2.18338490 2.97014475 -0.45262274 29 8 3632 3.71400000 2991609953 2991609953 -7.00000000
2.16801858 2.94924140 0.57974613 79 9 3632 3.70600000 2991609956 2991609956 9.00000000
2.18130779 2.96623421 -0.32212761 31 10 3633 3.69600000 2991609958 2991609958 -5.00000000
2.17086101 2.95094919 0.71209919 71 11 3634 3.73200000 2991609960 2991609960 11.00000000
2.17820668 2.95985174 -0.19259632 27 12 3635 3.68000000 2991609963 2991609963 -3.00000000
5.03605700 6.84073496 1.96112335 25 13 3636 8.71800000 2991609965 2991609965 13.00000000
2.20087099 2.98846340 -0.06478333 25 14 3637 3.71200000 2991609967 2991609967 -1.00000000
5.21813011 7.08546400 2.35784149 45 15 3637 9.11000000 2991609970 2991609970 15.00000000
1.36238372 1.84452009 -0.61443639 4 0 3645 2.37400000 2991609990 2991609990 -15.00000000
2.17585397 2.94479513 0.06391072 28 1 3646 3.66200000 2991609993 2991609993 1.00000000
1.61240184 2.18142390 -0.62626374 3 2 3647 2.78400000 2991609995 2991609995 -13.00000000
2.15760517 2.91796565 0.19018887 37 3 3648 3.63400000 2991609997 2991609997 3.00000000
2.08235168 2.81619215 -0.68080652 8 4 3648 3.56800000 2991610000 2991610000 -11.00000000
2.15640712 2.91528082 0.31724691 60 5 3649 3.64000000 2991610002 2991610002 5.00000000
2.17492318 2.93924022 -0.57912040 33 6 3650 3.70200000 2991610004 2991610004 -9.00000000
2.16487670 2.92459536 0.44677302 67 7 3651 3.66600000 2991610006 2991610006 7.00000000
2.19610190 2.96569586 -0.45311022 33 8 3652 3.71800000 2991610009 2991610009 -7.00000000
2.17881370 2.94127560 0.57974613 73 9 3653 3.70600000 2991610011 2991610011 9.00000000
2.19520640 2.96340489 -0.32265055 31 10 3653 3.70200000 2991610013 2991610013 -5.00000000
2.18816185 2.95281768 0.71438891 70 11 3654 3.74400000 2991610016 2991610016 11.00000000
2.20398760 2.97308850 -0.19395706 32 12 3655 3.70600000 2991610018 2991610018 -3.00000000
5.06686926 6.83250570 1.96382272 24 13 3656 8.73000000 2991610020 2991610020 13.00000000
2.19341779 2.95667267 -0.06425976 27 14 3657 3.68200000 2991610023 2991610023 -1.00000000
5.23945951 7.06008577 2.35577106 42 15 3658 9.10200000 2991610025 2991610025 15.00000000
1.36388123 1.83379173 -0.61236584 4 0 3664 2.36600000 2991610046 2991610046 -15.00000000
2.19635034 2.95200276 0.06422485 28 1 3665 3.68000000 2991610048 2991610048 1.00000000
1.62428093 2.18231797 -0.62806332 3 2 3666 2.79200000 2991610050 2991610050 -13.00000000
2.15960670 2.90155983 0.18956083 31 3 3666 3.62200000 2991610053 2991610053 3.00000000
2.08229923 2.79667377 -0.67775357 5 4 3667 3.55200000 2991610055 2991610055 -11.00000000
2.16368246 2.90491819 0.31689829 61 5 3668 3.63600000 2991610057 2991610057 5.00000000
2.20236206 2.95577192 -0.58381343 28 6 3669 3.73200000 2991610059 2991610059 -9.00000000
2.17219043 2.91421723 0.44628555 66 7 3670 3.66200000 2991610062 2991610062 7.00000000
2.20948434 2.96317101 -0.45384145 29 8 3671 3.72400000 2991610064 2991610064 -7.00000000
2.18146873 2.92453384 0.57786894 73 9 3672 3.69400000 2991610066 2991610066 9.00000000
2.19906521 2.94812393 -0.32177901 31 10 3672 3.69200000 2991610069 2991610069 -5.00000000
2.20498657 2.95498610 0.71667856 63 11 3673 3.75600000 2991610071 2991610071 11.00000000
2.22339225 2.97856760 -0.19479443 29 12 3674 3.72200000 2991610073 2991610073 -3.00000000
5.10465670 6.83596420 1.96967149 20 13 3675 8.75600000 2991610076 2991610076 13.00000000
2.19962025 2.94457650 -0.06415505 28 14 3676 3.67600000 2991610078 2991610078 -1.00000000
5.26739454 7.05132914 2.35835910 45 15 3676 9.11200000 2991610080 2991610080 15.00000000
1.36564088 1.82283533 -0.61029530 4 0 3684 2.35800000 2991610101 2991610101 -15.00000000
2.21263766 2.95231891 0.06439938 33 1 3685 3.69000000 2991610103 2991610103 1.00000000
1.63071978 2.17507577 -0.62761343 3 2 3686 2.79000000 2991610105 2991610105 -13.00000000
2.17691040 2.90359187 0.19018887 33 3 3686 3.63400000 2991610108 2991610108 3.00000000
3.51619697 4.68824530 -1.13912976 27 4 3687 5.97000000 2991610110 2991610110 -11.00000000
2.17141771 2.89416051 0.31654966 57 5 3688 3.63200000 2991610112 2991610112 5.00000000
2.23282456 2.97492433 -0.58913219 10 6 3689 3.76600000 2991610115 2991610115 -9.00000000
2.18711734 2.91296673 0.44726050 63 7 3690 3.67000000 2991610117 2991610117 7.00000000
2.21742988 2.95226598 -0.45335397 28 8 3691 3.72000000 2991610119 2991610119 -7.00000000
2.19403720 2.92005968 0.57849467 61 9 3692 3.69800000 2991610122 2991610122 9.00000000
2.21053934 2.94202280 -0.32195333 31 10 3692 3.69400000 2991610124 2991610124 -5.00000000
2.22472477 2.95982623 0.71973151 65 11 3693 3.77200000 2991610126 2991610126 11.00000000
2.24337840 2.98355913 -0.19563180 29 12 3694 3.73800000 2991610129 2991610129 -3.00000000
5.15308762 6.85080862 1.97911942 18 13 3695 8.79800000 2991610131 2991610131 13.00000000
2.21108770 2.93847847 -0.06418995 28 14 3696 3.67800000 2991610133 2991610133 -1.00000000
5.28384542 7.02209377 2.35473561 45 15 3696 9.09800000 2991610135 2991610135 15.00000000
1.37432277 1.82114136 -0.61133057 4 0 3704 2.36200000 2991610156 2991610156 -15.00000000
2.21570063 2.93500161 0.06418995 30 1 3705 3.67800000 2991610158 2991610158 1.00000000
1.63595343 2.16626000 -0.62671363 3 2 3706 2.78600000 2991610161 2991610161 -13.00000000
2.19716930 2.90834260 0.19102624 33 3 3707 3.65000000 2991610163 2991610163 3.00000000
2.18871474 2.89610028 0.31759551 50 5 3708 3.64400000 2991610168 2991610168 5.00000000
2.49813104 3.30431962 -0.65608615 4 6 3709 4.19400000 2991610170 2991610170 -9.00000000
2.19607472 2.90373135 0.44701675 46 7 3710 3.66800000 2991610172 2991610172 7.00000000
2.23490787 2.95400620 -0.45481640 29 8 3711 3.73200000 2991610175 2991610175 -7.00000000
2.21562672 2.92852116 0.58162332 52 9 3711 3.71800000 2991610177 2991610177 9.00000000
2.22560501 2.94064331 -0.32265055 33 10 3712 3.70200000 2991610179 2991610179 -5.00000000
2.22793245 2.94265079 0.71744180 71 11 3713 3.76000000 2991610182 2991610182 11.00000000
2.24172068 2.95978880 -0.19458508 27 12 3714 3.71800000 2991610184 2991610184 -3.00000000
5.18756151 6.84675884 1.98316848 10 13 3715 8.81600000 2991610186 2991610186 13.00000000
2.23099446 2.94349170 -0.06446919 28 14 3716 3.69400000 2991610188 2991610188 -1.00000000
5.31071424 7.00422001 2.35525322 45 15 3717 9.10000000 2991610191 2991610191 15.00000000
1.37950230 1.81479502 -0.61081296 3 0 3724 2.36000000 2991610211 2991610211 -15.00000000
2.23077393 2.93361640 0.06432957 33 1 3725 3.68600000 2991610214 2991610214 1.00000000
1.63878584 2.15433216 -0.62491405 3 2 3726 2.77800000 2991610216 2991610216 -13.00000000
2.20559239 2.89945078 0.19092157 34 3 3726 3.64800000 2991610218 2991610218 3.00000000
3.56786346 4.68858099 -1.14523554 110 4 3727 6.00200000 2991610221 2991610221 -11.00000000
2.20484471 2.89636922 0.31846708 44 5 3728 3.65400000 2991610223 2991610223 5.00000000
2.50486279 3.28929329 -0.65483469 4 6 3729 4.18600000 2991610225 2991610225 -9.00000000
2.21582079 2.90868068 0.44896665 39 7 3730 3.68400000 2991610228 2991610228 7.00000000
2.24430943 2.94394493 0.58631635 68 9 3732 3.74800000 2991610232 2991610232 9.00000000
2.24068785 2.93919444 -0.32334781 35 10 3732 3.71000000 2991610235 2991610235 -5.00000000
2.23819065 2.93485594 0.71744180 65 11 3733 3.76000000 2991610237 2991610237 11.00000000
2.24355865 2.94083023 -0.19385238 26 12 3734 3.70400000 2991610239 2991610239 -3.00000000
5.21497631 6.83325624 1.98451817 2 13 3735 8.82200000 2991610241 2991610241 13.00000000
2.27765942 2.98336911 -0.06551633 30 14 3736 3.75400000 2991610244 2991610244 -1.00000000
5.33630371 6.98717451 2.35577106 42 15 3737 9.10200000 2991610246 2991610246 15.00000000
1.39639866 1.82377338 -0.61547166 4 0 3744 2.37800000 2991610267 2991610267 -15.00000000
2.24343228 2.92898679 0.06439938 28 1 3745 3.69000000 2991610269 2991610269 1.00000000
1.65103686 2.15478611 -0.62671363 3 2 3746 2.78600000 2991610271 2991610271 -13.00000000
2.21448517 2.89014888 0.19081689 33 3 3746 3.64600000 2991610274 2991610274 3.00000000
3.58420777 4.67609835 -1.14523554 25 4 3747 6.00200000 2991610276 2991610276 -11.00000000
2.22948956 2.90762830 0.32055882 30 5 3748 3.67800000 2991610278 2991610278 5.00000000
2.52113843 3.28679919 -0.65608615 6 6 3749 4.19400000 2991610281 2991610281 -9.00000000
2.25254631 2.93557549 0.45432892 51 7 3750 3.72800000 2991610283 2991610283 7.00000000
3.46661615 4.51614952 -0.69904256 9 8 3751 5.73600000 2991610285 2991610285 -7.00000000
2.25526237 2.93805337 0.58662927 73 9 3751 3.75000000 2991610288 2991610288 9.00000000
2.26064157 2.94399691 -0.32474229 33 10 3752 3.72600000 2991610290 2991610290 -5.00000000
2.26516509 2.94882250 0.72278446 65 11 3753 3.78800000 2991610292 2991610292 11.00000000
2.26476288 2.94723392 -0.19479443 29 12 3754 3.72200000 2991610294 2991610294 -3.00000000
2.28318334 2.96905971 -0.06537671 27 14 3756 3.74600000 2991610299 2991610299 -1.00000000
5.37126207 6.98228598 2.36042976 45 15 3757 9.12000000 2991610301 2991610301 15.00000000
1.39567757 1.80970943 -0.61236584 4 0 3764 2.36600000 2991610322 2991610322 -15.00000000
2.27440810 2.94805360 0.06499276 25 1 3765 3.72400000 2991610324 2991610324 1.00000000
1.65616715 2.14592433 -0.62581384 3 2 3766 2.78200000 2991610327 2991610327 -13.00000000
2.23798323 2.89979362 0.19196829 37 3 3766 3.66800000 2991610329 2991610329 3.00000000
2.24571466 2.90771246 0.32143039 27 5 3768 3.68800000 2991610334 2991610334 5.00000000
2.53742695 3.28423142 -0.65733761 4 6 3769 4.20200000 2991610336 2991610336 -9.00000000
2.27491903 2.94340134 0.45676631 57 7 3770 3.74800000 2991610338 2991610338 7.00000000
3.48235917 4.50402164 -0.69904256 9 8 3771 5.73600000 2991610341 2991610341 -7.00000000
2.26308799 2.92703772 0.58600348 80 9 3771 3.74600000 2991610343 2991610343 9.00000000
2.28025031 2.94710851 0.72431093 65 11 3773 3.79600000 2991610347 2991610347 11.00000000
2.28237176 2.94878697 -0.19542246 29 12 3774 3.73400000 2991610350 2991610350 -3.00000000
2.27883911 2.94210076 -0.06495786 27 14 3776 3.72200000 2991610354 2991610354 -1.00000000
5.38731956 6.95280457 2.35680628 45 15 3777 9.10600000 2991610357 2991610357 15.00000000
1.39693177 1.79896784 -0.61029530 4 0 3783 2.35800000 2991610377 2991610377 -15.00000000
2.30502605 2.96734190 0.06558614 32 1 3784 3.75800000 2991610380 2991610380 1.00000000
1.66566563 2.14349818 -0.62671363 3 2 3785 2.78600000 2991610382 2991610382 -13.00000000
2.25494003 2.90181875 0.19259632 34 3 3785 3.68000000 2991610384 2991610384 3.00000000
2.00618553 2.58077383 -0.63539398 4 4 3786 3.33000000 2991610387 2991610387 -11.00000000
2.27858305 2.93013263 0.32474229 41 5 3787 3.72600000 2991610389 2991610389 5.00000000
2.54587817 3.27268052 -0.65671188 4 6 3788 4.19800000 2991610391 2991610391 -9.00000000
2.29320121 2.94680762 0.45847246 73 7 3789 3.76200000 2991610393 2991610393 7.00000000
3.48752069 4.47991753 -0.69709265 9 8 3790 5.72000000 2991610396 2991610396 -7.00000000
2.27763557 2.92575169 0.58725500 80 9 3790 3.75400000 2991610398 2991610398 9.00000000
5.16722012 6.63519716 -0.73576880 8 10 3791 8.44200000 2991610400 2991610400 -5.00000000
2.29001069 2.93953085 0.72431093 67 11 3792 3.79600000 2991610403 2991610403 11.00000000
6.23160648 7.99333239 2.33994079 60 13 3794 10.40200000 2991610407 2991610407 13.00000000
2.29104257 2.93768120 -0.06502767 27 14 3795 3.72600000 2991610410 2991610410 -1.00000000
5.40794754 6.93432188 2.35628867 45 15 3795 9.10400000 2991610412 2991610412 15.00000000
1.40558314 1.79712403 -0.61133057 4 0 3803 2.36200000 2991610433 2991610433 -15.00000000
2.31167316 2.95455289 0.06548143 27 1 3804 3.75200000 2991610435 2991610435 1.00000000
1.67794204 2.14380908 -0.62851322 3 2 3805 2.79400000 2991610437 2991610437 -13.00000000
2.27859664 2.91123056 0.19374771 29 3 3805 3.70200000 2991610440 2991610440 3.00000000
2.02970576 2.59230494 -0.63997334 4 4 3806 3.35400000 2991610442 2991610442 -11.00000000
2.30108285 2.93784642 0.32648543 42 5 3807 3.74600000 2991610444 2991610444 5.00000000
2.54997635 3.25444436 -0.65483469 4 6 3808 4.18600000 2991610446 2991610446 -9.00000000
2.29245210 2.92472363 0.45627883 60 7 3809 3.74400000 2991610449 2991610449 7.00000000
3.47986460 4.43803596 -0.69246161 9 8 3810 5.68200000 2991610451 2991610451 -7.00000000
2.29027224 2.92089248 0.58788073 78 9 3810 3.75800000 2991610453 2991610453 9.00000000
5.19035006 6.61711979 -0.73576880 8 10 3811 8.44200000 2991610456 2991610456 -5.00000000
2.30268145 2.93460822 0.72507417 56 11 3812 3.80000000 2991610458 2991610458 11.00000000
6.26669168 7.98072720 2.34264016 59 13 3814 10.41400000 2991610463 2991610463 13.00000000
5.43571424 6.91749239 2.35732388 45 15 3816 9.10800000 2991610467 2991610467 15.00000000
1.41304326 1.79372430 -0.61184824 4 0 3823 2.36400000 2991610488 2991610488 -15.00000000
2.33311200 2.96060109 0.06579557 13 1 3824 3.77000000 2991610490 2991610490 1.00000000
1.67335057 2.12263513 -0.62401420 3 2 3825 2.77400000 2991610493 2991610493 -13.00000000
2.30780292 2.92638350 0.19531779 26 3 3826 3.73200000 2991610495 2991610495 3.00000000
2.03874230 2.58520412 -0.63997334 4 4 3826 3.35400000 2991610497 2991610497 -11.00000000
2.32613206 2.94856691 0.32857716 70 5 3827 3.77000000 2991610499 2991610499 5.00000000
2.57111096 3.25792861 -0.65733761 4 6 3828 4.20200000 2991610502 2991610502 -9.00000000
2.31002760 2.92605209 0.45774126 63 7 3829 3.75600000 2991610504 2991610504 7.00000000
3.46088624 4.38224220 -0.68563694 6 8 3830 5.62600000 2991610506 2991610506 -7.00000000
2.31147289 2.92683220 0.59069651 75 9 3830 3.77600000 2991610509 2991610509 9.00000000
5.21094608 6.59583521 -0.73542017 8 10 3831 8.43800000 2991610511 2991610511 -5.00000000
2.31534576 2.92963314 0.72583741 58 11 3832 3.80400000 2991610513 2991610513 11.00000000
6.28725815 7.94963312 2.33994079 62 13 3834 10.40200000 2991610518 2991610518 13.00000000
5.46341801 6.90548897 2.35939431 45 15 3835 9.11600000 2991610523 2991610523 15.00000000
1.42169738 1.79180753 -0.61288351 4 0 3843 2.36800000 2991610543 2991610543 -15.00000000
1.67832625 2.11372876 -0.62311441 3 2 3845 2.77000000 2991610548 2991610548 -13.00000000
2.34905982 2.95740843 0.19793458 14 3 3846 3.78200000 2991610550 2991610550 3.00000000
2.04897499 2.57960916 -0.64035499 4 4 3846 3.35600000 2991610552 2991610552 -11.00000000
2.32897353 2.93106985 0.32753128 22 5 3847 3.75800000 2991610555 2991610555 5.00000000
2.58246756 3.24893403 -0.65733761 4 6 3848 4.20200000 2991610557 2991610557 -9.00000000
2.34370136 2.94749236 0.46237230 73 7 3849 3.79400000 2991610559 2991610559 7.00000000
3.48604798 4.38256311 -0.68758684 6 8 3850 5.64200000 2991610562 2991610562 -7.00000000
2.31972480 2.91524911 0.59007078 71 9 3851 3.77200000 2991610564 2991610564 9.00000000
5.24138165 6.58695984 -0.73646605 8 10 3851 8.45000000 2991610566 2991610566 -5.00000000
2.34267569 2.94303775 0.73118007 37 11 3852 3.83200000 2991610569 2991610569 11.00000000
6.31254101 7.92458963 2.33904099 64 13 3854 10.39800000 2991610573 2991610573 13.00000000
5.49350786 6.89146042 2.36146498 45 15 3856 9.12400000 2991610578 2991610578 15.00000000
1.42070711 1.77777910 -0.60977769 4 0 3863 2.35600000 2991610599 2991610599 -15.00000000
1.70029962 2.12612057 -0.62851322 3 2 3865 2.79400000 2991610603 2991610603 -13.00000000
2.04202318 2.55251169 -0.63539398 4 4 3866 3.33000000 2991610608 2991610608 -11.00000000
2.59873104 3.24606800 -0.65858912 4 6 3868 4.21000000 2991610612 2991610612 -9.00000000
2.35893941 2.94549108 0.46334726 84 7 3869 3.80200000 2991610615 2991610615 7.00000000
3.48767185 4.35332632 -0.68490571 6 8 3870 5.62000000 2991610617 2991610617 -7.00000000
2.31949854 2.89520741 0.58756787 70 9 3870 3.75600000 2991610619 2991610619 9.00000000
5.25686646 6.55929565 -0.73542017 8 10 3871 8.43800000 2991610622 2991610622 -5.00000000
2.35907459 2.94250107 0.73308814 35 11 3872 3.84200000 2991610624 2991610624 11.00000000
6.34504223 7.90858650 2.34084058 60 13 3874 10.40600000 2991610629 2991610629 13.00000000
5.50907564 6.86416578 2.35835910 45 15 3875 9.11200000 2991610633 2991610633 15.00000000
1.43053794 1.77732384 -0.61133057 4 0 3883 2.36200000 2991610654 2991610654 -15.00000000
1.70771074 2.12017250 -0.62851322 3 2 3885 2.79400000 2991610658 2991610658 -13.00000000
2.05092072 2.54536796 -0.63539398 4 4 3886 3.33000000 2991610663 2991610663 -11.00000000
2.60756612 3.23390150 -0.65796334 4 6 3888 4.20600000 2991610668 2991610668 -9.00000000
2.36297536 2.92951345 0.46212855 61 7 3889 3.79200000 2991610670 2991610670 7.00000000
3.51655889 4.35811901 -0.68758684 6 8 3890 5.64200000 2991610672 2991610672 -7.00000000
2.32761312 2.88361239 0.58694214 77 9 3891 3.75200000 2991610675 2991610675 9.00000000
5.28974199 6.55330849 -0.73681468 8 10 3891 8.45400000 2991610677 2991610677 -5.00000000
6.37750912 7.89245272 2.34264016 59 13 3894 10.41400000 2991610684 2991610684 13.00000000
5.53298235 6.84242582 2.35784149 42 15 3896 9.11000000 2991610688 2991610688 15.00000000
1.43430018 1.76931810 -0.61029530 4 0 3903 2.35800000 2991610709 2991610709 -15.00000000
1.71510112 2.11419845 -0.62851322 3 2 3905 2.79400000 2991610714 2991610714 -13.00000000
2.06969023 2.55038905 -0.63844693 4 4 3906 3.34600000 2991610718 2991610718 -11.00000000
2.61634827 3.22171283 -0.65733761 4 6 3908 4.20200000 2991610723 2991610723 -9.00000000
2.35691500 2.90121770 0.45895994 48 7 3909 3.76600000 2991610725 2991610725 7.00000000
3.52924609 4.34273624 -0.68709934 6 8 3910 5.63800000 2991610728 2991610728 -7.00000000
2.34463763 2.88507581 0.58881932 78 9 3910 3.76400000 2991610730 2991610730 9.00000000
5.32012606 6.54407978 -0.73786050 8 10 3911 8.46600000 2991610732 2991610732 -5.00000000
6.40748024 7.87316608 2.34354019 57 13 3914 10.41800000 2991610739 2991610739 13.00000000
5.55442238 6.82254219 2.35732388 45 15 3915 9.10800000 2991610744 2991610744 15.00000000
1.44535458 1.77028644 -0.61236584 4 0 3923 2.36600000 2991610764 2991610764 -15.00000000
1.71014082 2.09310794 -0.62401420 3 2 3925 2.77400000 2991610769 2991610769 -13.00000000
2.62757802 3.21256042 -0.65733761 4 6 3928 4.20200000 2991610778 2991610778 -9.00000000
2.36451364 2.88989997 0.45847246 50 7 3929 3.76200000 2991610781 2991610781 7.00000000
3.53432512 4.31810141 -0.68514943 6 8 3930 5.62200000 2991610783 2991610783 -7.00000000
2.36020184 2.88257647 0.59007078 75 9 3931 3.77200000 2991610785 2991610785 9.00000000
5.33031464 6.51005316 -0.73611742 8 10 3931 8.44600000 2991610787 2991610787 -5.00000000
5.65281773 6.90147734 1.73407221 34 11 3932 9.08800000 2991610790 2991610790 11.00000000
5.65912580 6.90426064 2.06100154 40 13 3934 9.16200000 2991610794 2991610794 13.00000000
5.58796692 6.81259394 2.36094737 47 15 3936 9.12200000 2991610799 2991610799 15.00000000
1.45397913 1.76821482 -0.61340111 4 0 3943 2.37000000 2991610820 2991610820 -15.00000000
1.71991324 2.09013510 -0.62491405 3 2 3945 2.77800000 2991610824 2991610824 -13.00000000
2.63877606 3.20336890 -0.65733761 4 6 3948 4.20200000 2991610834 2991610834 -9.00000000
2.38721085 2.89694834 0.46090984 27 7 3949 3.78200000 2991610836 2991610836 7.00000000
3.54937649 4.30573797 -0.68514943 6 8 3950 5.62200000 2991610838 2991610838 -7.00000000
2.36723495 2.87168550 0.58944505 77 9 3950 3.76800000 2991610840 2991610840 9.00000000
5.37455511 6.51753902 -0.73908073 8 10 3951 8.48000000 2991610843 2991610843 -5.00000000
6.44740152 7.81020784 2.33814120 51 13 3954 10.39400000 2991610850 2991610850 13.00000000
5.60560751 6.78806782 2.35887671 36 15 3955 9.11400000 2991610854 2991610854 15.00000000
1.45767820 1.76015294 -0.61236584 4 0 3963 2.36600000 2991610875 2991610875 -15.00000000
1.73714650 2.09612226 -0.62851322 3 2 3965 2.79400000 2991610880 2991610880 -13.00000000
2.08625984 2.51648450 -0.63539398 2 4 3966 3.33000000 2991610884 2991610884 -11.00000000
2.66255450 3.20934129 -0.66046631 4 6 3968 4.22200000 2991610889 2991610889 -9.00000000
3.56438470 4.29332209 -0.68514943 6 8 3970 5.62200000 2991610893 2991610893 -7.00000000
2.37774420 2.86298990 0.58944505 68 9 3971 3.76800000 2991610896 2991610896 9.00000000
5.35781193 6.45122433 -0.73367703 8 10 3971 8.41800000 2991610898 2991610898 -5.00000000
6.47462511 7.78765440 2.33814120 53 13 3974 10.39400000 2991610905 2991610905 13.00000000
5.60079575 6.73183489 2.34645343 24 15 3976 9.06600000 2991610910 2991610910 15.00000000
1.45638919 1.74615264 -0.60926002 4 0 3983 2.35400000 2991610930 2991610930 -15.00000000
1.74445283 2.09004593 -0.62851322 3 2 3985 2.79400000 2991610935 2991610935 -13.00000000
2.10509753 2.52124310 -0.63844693 2 4 3986 3.34600000 2991610940 2991610940 -11.00000000
2.66614151 3.19093227 -0.65858912 4 6 3988 4.21000000 2991610944 2991610944 -9.00000000
3.58953619 4.29303694 -0.68709934 6 8 3990 5.63800000 2991610949 2991610949 -7.00000000
2.39229345 2.86115098 0.59069651 52 9 3990 3.77600000 2991610951 2991610951 9.00000000
5.40075064 6.45693493 -0.73646605 4 10 3991 8.45000000 2991610953 2991610953 -5.00000000
6.51427984 7.77994776 2.34264016 59 13 3994 10.41400000 2991610960 2991610960 13.00000000
5.61068392 6.69841528 2.34127712 15 15 3995 9.04600000 2991610965 2991610965 15.00000000
1.46744561 1.74697518 -0.61133057 4 0 4003 2.36200000 2991610986 2991610986 -15.00000000
1.74672210 2.07797694 -0.62671363 3 2 4005 2.78600000 2991610990 2991610990 -13.00000000
2.11641240 2.51688480 -0.63921010 4 4 4006 3.35000000 2991610995 2991610995 -11.00000000
2.67472005 3.17858338 -0.65796334 6 6 4008 4.20600000 2991610999 2991610999 -9.00000000
3.59682798 4.27137041 -0.68563694 6 8 4010 5.62600000 2991611004 2991611004 -7.00000000
5.44379473 6.46242428 -0.73925501 4 10 4011 8.48200000 2991611009 2991611009 -5.00000000
6.54642248 7.76312017 2.34443998 56 13 4014 10.42200000 2991611016 2991611016 13.00000000
5.63527727 6.68026590 2.34179473 11 15 4015 9.04800000 2991611020 2991611020 15.00000000
1.47323072 1.74209929 -0.61133057 4 0 4022 2.36200000 2991611041 2991611041 -15.00000000
1.74856782 2.06622291 -0.62491405 3 2 4024 2.77800000 2991611046 2991611046 -13.00000000
2.12728405 2.51284957 -0.63997334 4 4 4025 3.35400000 2991611050 2991611050 -11.00000000
2.68524599 3.16969633 -0.65796334 6 6 4027 4.20600000 2991611055 2991611055 -9.00000000
3.61353993 4.26244783 -0.68612438 6 8 4029 5.63000000 2991611059 2991611059 -7.00000000
5.46004009 6.43825817 -0.73855776 4 10 4030 8.47400000 2991611064 2991611064 -5.00000000
5.63631725 6.63906717 2.01061249 24 13 4033 8.93800000 2991611071 2991611071 13.00000000
5.64364290 6.64534473 2.33610082 29 15 4034 9.02600000 2991611075 2991611075 15.00000000
1.48431313 1.74282908 -0.61340111 4 0 4042 2.37000000 2991611096 2991611096 -15.00000000
1.75829768 2.06307292 -0.62581384 3 2 4044 2.78200000 2991611101 2991611101 -13.00000000
2.13094759 2.49943256 -0.63844693 4 4 4045 3.34600000 2991611105 2991611105 -11.00000000
2.69372964 3.15729809 -0.65733761 6 6 4047 4.20200000 2991611110 2991611110 -9.00000000
3.62195182 4.24225998 -0.68490571 6 8 4049 5.62000000 2991611115 2991611115 -7.00000000
5.49541998 6.43431044 -0.74030089 4 10 4050 8.49400000 2991611119 2991611119 -5.00000000
5.65592098 6.61989307 1.69247580 21 11 4051 8.87000000 2991611122 2991611122 11.00000000
5.66199017 6.62231445 2.01151228 5 13 4053 8.94200000 2991611126 2991611126 13.00000000
5.69307947 6.65397310 2.34645343 13 15 4055 9.06600000 2991611131 2991611131 15.00000000
1.48756957 1.73496425 -0.61236584 4 0 4061 2.36600000 2991611152 2991611152 -15.00000000
1.76766741 2.06018877 -0.62671363 3 2 4063 2.78600000 2991611156 2991611156 -13.00000000
2.13666701 2.48937297 -0.63768369 2 4 4064 3.34200000 2991611161 2991611161 -11.00000000
2.70933318 3.15434217 -0.65858912 4 6 4066 4.21000000 2991611165 2991611165 -9.00000000
3.63988161 4.23474216 -0.68563694 6 8 4068 5.62600000 2991611170 2991611170 -7.00000000
5.51023197 6.40849781 -0.73942930 4 10 4069 8.48400000 2991611175 2991611175 -5.00000000
5.74798965 6.67558146 2.36042976 31 15 4073 9.12000000 2991611186 2991611186 15.00000000
1.48856640 1.72391236 -0.61029530 4 0 4081 2.35800000 2991611207 2991611207 -15.00000000
1.77739620 2.05695510 -0.62761343 3 2 4083 2.79000000 2991611211 2991611211 -13.00000000
2.14534354 2.48189926 -0.63768369 2 4 4084 3.34200000 2991611216 2991611216 -11.00000000
2.71257353 3.13590145 -0.65671188 4 6 4086 4.19800000 2991611221 2991611221 -9.00000000
3.65594077 4.22351170 -0.68588066 6 8 4088 5.62800000 2991611225 2991611225 -7.00000000
5.53517675 6.39223671 -0.73977792 4 10 4089 8.48800000 2991611230 2991611230 -5.00000000
6.63490295 7.65414095 2.33859110 55 13 4092 10.39600000 2991611237 2991611237 13.00000000
5.76999140 6.65401697 2.35991216 45 15 4093 9.11800000 2991611241 2991611241 15.00000000
1.49711025 1.72162127 -0.61133057 4 0 4101 2.36200000 2991611262 2991611262 -15.00000000
1.78840327 2.05514836 -0.62896317 3 2 4103 2.79600000 2991611267 2991611267 -13.00000000
2.15657210 2.47735715 -0.63844693 4 4 4104 3.34600000 2991611271 2991611271 -11.00000000
2.72609830 3.12939286 -0.65733761 6 6 4106 4.20200000 2991611276 2991611276 -9.00000000
3.67718339 4.21820593 -0.68709934 6 8 4108 5.63800000 2991611280 2991611280 -7.00000000
5.55483723 6.36987305 -0.73942930 4 10 4109 8.48400000 2991611285 2991611285 -5.00000000
6.67824078 7.65001869 2.34443998 56 13 4112 10.42200000 2991611292 2991611292 13.00000000
5.80207777 6.64402103 2.36353540 45 15 4113 9.13200000 2991611297 2991611297 15.00000000
1.50056517 1.71347833 -0.61029530 4 0 4121 2.35800000 2991611317 2991611317 -15.00000000
1.78785992 2.04009962 -0.62626374 3 2 4123 2.78400000 2991611322 2991611322 -13.00000000
2.17038321 2.47571945 -0.63997334 2 4 4124 3.35400000 2991611327 2991611327 -11.00000000
2.74221611 3.12579751 -0.65858912 4 6 4126 4.21000000 2991611331 2991611331 -9.00000000
3.68140817 4.19340992 -0.68514943 6 8 4128 5.62200000 2991611336 2991611336 -7.00000000
5.58361197 6.35792971 -0.74030089 8 10 4129 8.49400000 2991611340 2991611340 -5.00000000
6.70233011 7.62373352 2.34354019 55 13 4132 10.41800000 2991611347 2991611347 13.00000000
5.82383823 6.61980963 2.36250019 47 15 4134 9.12800000 2991611352 2991611352 15.00000000
1.51450372 1.71665883 -0.61340111 4 0 4142 2.37000000 2991611373 2991611373 -15.00000000
1.79532528 2.03353310 -0.62626374 3 2 4144 2.78400000 2991611377 2991611377 -13.00000000
2.75888705 3.12164640 -0.65984058 4 6 4147 4.21800000 2991611386 2991611386 -9.00000000
3.69938326 4.18286276 -0.68563694 6 8 4149 5.62600000 2991611391 2991611391 -7.00000000
5.61479855 6.34637547 -0.74134678 8 10 4150 8.50600000 2991611396 2991611396 -5.00000000
6.72247553 7.59036398 2.34084058 59 13 4153 10.40600000 2991611403 2991611403 13.00000000
5.84691048 6.59944057 2.36250019 45 15 4154 9.12800000 2991611407 2991611407 15.00000000
1.51792049 1.70847344 -0.61236584 4 0 4162 2.36600000 2991611428 2991611428 -15.00000000
1.80888689 2.03453565 -0.62851322 3 2 4164 2.79400000 2991611432 2991611432 -13.00000000
2.76451349 3.10609484 -0.65858912 6 6 4167 4.21000000 2991611442 2991611442 -9.00000000
3.72188330 4.17881823 -0.68709934 6 8 4169 5.63800000 2991611446 2991611446 -7.00000000
5.62101269 6.30888605 -0.73925501 8 10 4170 8.48200000 2991611451 2991611451 -5.00000000
5.61958313 6.30506563 1.64172065 6 11 4171 8.60400000 2991611453 2991611453 11.00000000
6.75671244 7.57557774 2.34354019 57 13 4173 10.41800000 2991611458 2991611458 13.00000000
5.86733866 6.57610798 2.36146498 45 15 4174 9.12400000 2991611462 2991611462 15.00000000
1.52129865 1.70028508 -0.61133057 4 0 4182 2.36200000 2991611483 2991611483 -15.00000000
1.81597769 2.02820897 -0.62851322 3 2 4184 2.79400000 2991611488 2991611488 -13.00000000
2.77006531 3.09054208 -0.65733761 6 6 4187 4.20200000 2991611497 2991611497 -9.00000000
3.73114562 4.15989017 -0.68612438 6 8 4189 5.63000000 2991611502 2991611502 -7.00000000
5.64832258 6.29515839 -0.73995227 8 10 4190 8.49000000 2991611506 2991611506 -5.00000000
5.62844372 6.27080107 1.63790441 15 11 4191 8.58400000 2991611509 2991611509 11.00000000
6.78832388 7.55774546 2.34533978 55 13 4193 10.42600000 2991611513 2991611513 13.00000000
5.89656782 6.56030607 2.36353540 45 15 4195 9.13200000 2991611518 2991611518 15.00000000
1.52463818 1.69209397 -0.61029530 4 0 4202 2.35800000 2991611538 2991611538 -15.00000000
1.82043648 2.01896310 -0.62761343 3 2 4204 2.79000000 2991611543 2991611543 -13.00000000
2.78348351 3.08378673 -0.65796334 6 6 4207 4.20600000 2991611552 2991611552 -9.00000000
3.74298239 4.14389420 -0.68563694 6 8 4209 5.62600000 2991611557 2991611557 -7.00000000
5.64889050 6.25175095 -0.73716325 8 10 4210 8.45800000 2991611562 2991611562 -5.00000000
5.62660217 6.22489977 1.63103533 31 11 4211 8.54800000 2991611564 2991611564 11.00000000
6.81466389 7.53400373 2.34533978 59 13 4213 10.42600000 2991611568 2991611568 13.00000000
5.91424608 6.53395414 2.36146498 45 15 4215 9.12400000 2991611573 2991611573 15.00000000
1.53183353 1.68819237 -0.61081296 3 0 4222 2.36000000 2991611594 2991611594 -15.00000000
1.81961274 2.00394011 -0.62491405 3 2 4224 2.77800000 2991611598 2991611598 -13.00000000
2.21896553 2.44289041 -0.64149982 2 4 4225 3.36200000 2991611603 2991611603 -11.00000000
2.79423094 3.07405162 -0.65796334 6 6 4227 4.20600000 2991611608 2991611608 -9.00000000
3.76009583 4.13374043 -0.68612438 6 8 4229 5.63000000 2991611612 2991611612 -7.00000000
5.68408775 6.24673080 -0.73890638 8 10 4230 8.47800000 2991611617 2991611617 -5.00000000
5.65886927 6.21683598 1.63408828 21 11 4231 8.56400000 2991611619 2991611619 11.00000000
6.83829641 7.50728893 2.34443998 59 13 4233 10.42200000 2991611624 2991611624 13.00000000
5.94482613 6.52183580 2.36457086 45 15 4235 9.13600000 2991611628 2991611628 15.00000000
1.54683912 1.69281793 -0.61443639 4 0 4242 2.37400000 2991611649 2991611649 -15.00000000
1.82659674 1.99757624 -0.62491405 3 2 4244 2.77800000 2991611654 2991611654 -13.00000000
2.21952868 2.42643833 -0.63921010 2 4 4245 3.35000000 2991611658 2991611658 -11.00000000
2.80494428 3.06427932 -0.65796334 6 6 4247 4.20600000 2991611663 2991611663 -9.00000000
3.76913905 4.11473513 -0.68514943 6 8 4249 5.62200000 2991611668 2991611668 -7.00000000
5.71662664 6.23860312 -0.74030089 8 10 4250 8.49400000 2991611672 2991611672 -5.00000000
6.85919094 7.47762871 2.34264016 57 13 4253 10.41400000 2991611679 2991611679 13.00000000
5.97278070 6.50673771 2.36664128 45 15 4255 9.14400000 2991611684 2991611684 15.00000000
1.54459703 1.67914832 -0.61133057 4 0 4261 2.36200000 2991611704 2991611704 -15.00000000
1.84376931 2.00297809 -0.62851322 3 2 4263 2.79400000 2991611709 2991611709 -13.00000000
2.22490311 2.41617632 -0.63844693 4 4 4264 3.34600000 2991611714 2991611714 -11.00000000
2.81509042 3.05496097 -0.65796334 6 6 4266 4.20600000 2991611718 2991611718 -9.00000000
3.78545475 4.10513210 -0.68563694 6 8 4268 5.62600000 2991611723 2991611723 -7.00000000
5.73458147 6.21668291 -0.73995227 8 10 4269 8.49000000 2991611727 2991611727 -5.00000000
6.88659382 7.45770550 2.34354019 57 13 4272 10.41800000 2991611734 2991611734 13.00000000
5.98794937 6.48226500 2.36457086 45 15 4273 9.13600000 2991611739 2991611739 15.00000000
1.54782319 1.67091203 -0.61029530 4 0 4281 2.35800000 2991611760 2991611760 -15.00000000
1.84810019 1.99367177 -0.62761343 3 2 4283 2.79000000 2991611764 2991611764 -13.00000000
2.23866320 2.41415358 -0.63997334 4 4 4284 3.35400000 2991611769 2991611769 -11.00000000
2.82976818 3.04945970 -0.65890199 6 6 4286 4.21200000 2991611773 2991611773 -9.00000000
3.80786586 4.10062122 -0.68709934 6 8 4288 5.63800000 2991611778 2991611778 -7.00000000
5.75624657 6.19662762 -0.73995227 8 10 4289 8.49000000 2991611783 2991611783 -5.00000000
6.91523838 7.43647528 2.34443998 59 13 4292 10.42200000 2991611790 2991611790 13.00000000
6.00377178 6.45178938 2.36146498 45 15 4294 9.12400000 2991611794 2991611794 15.00000000
1.55364645 1.66549885 -0.61029530 4 0 4301 2.35800000 2991611815 2991611815 -15.00000000
1.85504818 1.98720849 -0.62761343 3 2 4303 2.79000000 2991611820 2991611820 -13.00000000
2.24305677 2.40201974 -0.63882852 4 4 4304 3.34800000 2991611824 2991611824 -11.00000000
2.83365202 3.03234696 -0.65733761 6 6 4306 4.20200000 2991611829 2991611829 -9.00000000
3.82215667 4.08730459 -0.68709934 6 8 4308 5.63800000 2991611833 2991611833 -7.00000000
5.77239752 6.17067671 -0.73925501 8 10 4309 8.48200000 2991611838 2991611838 -5.00000000
6.94381809 7.41513634 2.34533978 57 13 4312 10.42600000 2991611845 2991611845 13.00000000
6.03305769 6.44030380 2.36457086 47 15 4313 9.13600000 2991611850 2991611850 15.00000000
1.56341863 1.66428959 -0.61184824 4 0 4321 2.36400000 2991611870 2991611870 -15.00000000
1.86197352 1.98072112 -0.62761343 3 2 4323 2.79000000 2991611875 2991611875 -13.00000000
2.25411749 2.39703584 -0.63959175 4 4 4324 3.35200000 2991611879 2991611879 -11.00000000
2.84828067 3.02675295 -0.65827620 6 6 4326 4.20800000 2991611884 2991611884 -9.00000000
3.82279158 4.05948591 -0.68466198 6 8 4328 5.61800000 2991611889 2991611889 -7.00000000
5.79116964 6.14758921 -0.73890638 8 10 4329 8.47800000 2991611893 2991611893 -5.00000000
6.96698570 7.38801718 2.34443998 59 13 4332 10.42200000 2991611900 2991611900 13.00000000
6.05662251 6.41814852 2.36457086 45 15 4334 9.13600000 2991611905 2991611905 15.00000000
1.57320142 1.66303229 -0.61340111 4 0 4341 2.37000000 2991611926 2991611926 -15.00000000
1.86351740 1.96854866 -0.62581384 3 2 4343 2.78200000 2991611930 2991611930 -13.00000000
2.26382089 2.39057827 -0.63997334 4 4 4344 3.35400000 2991611935 2991611935 -11.00000000
2.85882878 3.01679206 -0.65827620 6 6 4346 4.20800000 2991611939 2991611939 -9.00000000
3.83147478 4.04035568 -0.68368703 6 8 4348 5.61000000 2991611944 2991611944 -7.00000000
5.82630587 6.14179182 -0.74064952 8 10 4349 8.49800000 2991611949 2991611949 -5.00000000
6.99004841 7.36082649 2.34354019 55 13 4352 10.41800000 2991611956 2991611956 13.00000000
6.08053350 6.40082979 2.36560607 47 15 4353 9.14000000 2991611960 2991611960 15.00000000
1.57899690 1.65753067 -0.61340111 4 0 4361 2.37000000 2991611981 2991611981 -15.00000000
1.87844539 1.97049487 -0.62851322 3 2 4363 2.79400000 2991611985 2991611985 -13.00000000
2.25860310 2.36845374 -0.63615721 4 4 4364 3.33400000 2991611990 2991611990 -11.00000000
2.87206936 3.00965285 -0.65890199 6 6 4366 4.21200000 2991611995 2991611995 -9.00000000
3.84555483 4.02695656 -0.68368703 2 8 4368 5.61000000 2991611999 2991611999 -7.00000000
7.01569986 7.33638191 2.34354019 59 13 4372 10.41800000 2991612011 2991612011 13.00000000
6.10128164 6.37570906 2.36457086 45 15 4374 9.13600000 2991612015 2991612015 15.00000000
1.56815386 1.63582718 -0.60718948 4 0 4379 2.34600000 2991612036 2991612036 -15.00000000
1.88462651 1.96458387 -0.62851322 3 2 4381 2.79400000 2991612041 2991612041 -13.00000000
2.27146983 2.36701250 -0.63768369 4 4 4382 3.34200000 2991612045 2991612045 -11.00000000
2.88561511 3.00488949 -0.65984058 6 6 4384 4.21800000 2991612050 2991612050 -9.00000000
2.98889136 3.11026073 -0.52964419 2 8 4386 4.34600000 2991612055 2991612055 -7.00000000
2.99213839 3.11255217 -0.37773299 2 10 4387 4.33400000 2991612059 2991612059 -5.00000000
7.04411840 7.31992197 2.34533978 55 13 4390 10.42600000 2991612066 2991612066 13.00000000
3.00390387 3.12042785 -0.07560383 1 14 4391 4.33200000 2991612068 2991612068 -1.00000000
6.11481237 6.35201120 2.36250019 45 15 4391 9.12800000 2991612071 2991612071 15.00000000
1.58190477 1.63868260 -0.61029530 4 0 4399 2.35800000 2991612091 2991612091 -15.00000000
2.99907804 3.10563612 0.07535949 1 1 4400 4.31800000 2991612094 2991612094 1.00000000
1.88605690 1.95238709 -0.62671363 3 2 4401 2.78600000 2991612096 2991612096 -13.00000000
3.00067043 3.10511541 0.22630067 1 3 4402 4.32400000 2991612098 2991612098 3.00000000
2.28790426 2.36753964 -0.63997334 4 4 4402 3.35400000 2991612101 2991612101 -11.00000000
3.01882076 3.12280655 0.37999904 1 5 4403 4.36000000 2991612103 2991612103 5.00000000
2.90569878 3.00473857 -0.66203064 9 6 4404 4.23200000 2991612105 2991612105 -9.00000000
2.98868632 3.08839655 -0.52769428 24 8 4406 4.33000000 2991612110 2991612110 -7.00000000
2.97249794 3.07059550 -0.37389815 19 10 4407 4.29000000 2991612114 2991612114 -5.00000000
