# .PCD v0.7 - Point Cloud Data file format
VERSION 0.7
FIELDS x y z intensity laser_id azimuth distance_m adjustedtime timestamp vertical_angle
SIZE 4 4 4 1 1 2 8 8 4 8
TYPE F F F U U U F U U F
COUNT 1 1 1 1 1 1 1 1 1 1
WIDTH 522
HEIGHT 1
VIEWPOINT 0 0 0 1 0 0 0
POINTS 522
DATA ascii
-3.40417123 8.70430374 2.50433302 38 15 33864 9.67600000 2991593879 2991593879 15.00000000
-0.79332113 2.03581333 -0.58544868 4 0 33871 2.26200000 2991593900 2991593900 -15.00000000
-4.17446470 10.71800137 0.20077248 13 1 33872 11.50400000 2991593902 2991593902 1.00000000
-0.92254561 2.36987281 -0.58712226 3 2 33873 2.61000000 2991593904 2991593904 -13.00000000
-4.17578077 10.73245621 0.60353827 21 3 33874 11.53200000 2991593906 2991593906 3.00000000
-1.10554564 2.84143758 -0.59265274 2 4 33874 3.10600000 2991593909 2991593909 -11.00000000
-4.17095184 10.72558498 1.00682318 21 5 33875 11.55200000 2991593911 2991593911 5.00000000
-1.36327577 3.50746989 -0.59601533 2 6 33876 3.81000000 2991593913 2991593913 -9.00000000
-4.17063475 10.73586273 1.41417181 19 7 33877 11.60400000 2991593916 2991593916 7.00000000
-4.17091656 10.74214172 -1.41490304 2 8 33878 11.61000000 2991593918 2991593918 -7.00000000
-4.17579460 10.76027012 1.82809317 18 9 33879 11.68600000 2991593920 2991593920 9.00000000
-2.59567690 6.68859196 -0.62769568 4 10 33879 7.20200000 2991593923 2991593923 -5.00000000
-4.06665659 10.48446655 2.18590784 50 11 33880 11.45600000 2991593925 2991593925 11.00000000
-4.14750481 10.69844341 -0.60134012 8 12 33881 11.49000000 2991593927 2991593927 -3.00000000
-3.87454152 9.99951649 2.47581124 62 13 33882 11.00600000 2991593929 2991593929 13.00000000
-4.15026903 10.71667194 -0.20059796 19 14 33883 11.49400000 2991593932 2991593932 -1.00000000
-3.37528801 8.71554470 2.50433302 42 15 33883 9.67600000 2991593934 2991593934 15.00000000
-0.78481966 2.03496504 -0.58441341 4 0 33891 2.25800000 2991593955 2991593955 -15.00000000
-4.12911463 10.71198273 0.20038854 10 1 33892 11.48200000 2991593957 2991593957 1.00000000
-0.91987228 2.38762617 -0.59072149 3 2 33893 2.62600000 2991593959 2991593959 -13.00000000
-4.13111496 10.72832870 0.60249156 23 3 33894 11.51200000 2991593962 2991593962 3.00000000
-1.08715463 2.82329392 -0.58807331 2 4 33894 3.08200000 2991593964 2991593964 -11.00000000
-4.13205576 10.73635960 1.00647449 12 5 33895 11.54800000 2991593966 2991593966 5.00000000
-1.35102403 3.51220727 -0.59601533 2 6 33896 3.81000000 2991593969 2991593969 -9.00000000
-4.12886000 10.73923779 1.41270947 19 7 33897 11.59200000 2991593971 2991593971 7.00000000
-4.11345673 10.70475101 -1.40807843 2 8 33898 11.55400000 2991593973 2991593973 -7.00000000
-4.12970972 10.75265217 1.82433867 18 9 33899 11.66200000 2991593976 2991593976 9.00000000
-2.57659960 6.70877123 -0.62874150 4 10 33899 7.21400000 2991593978 2991593978 -5.00000000
-4.03425550 10.50959587 2.18819761 46 11 33900 11.46800000 2991593980 2991593980 11.00000000
-4.10584259 10.70166779 -0.60071212 8 12 33901 11.47800000 2991593982 2991593982 -3.00000000
-3.86194062 10.07120514 2.49020815 70 13 33902 11.07000000 2991593985 2991593985 13.00000000
-4.10711050 10.71615601 -0.20031872 17 14 33903 11.47800000 2991593987 2991593987 -1.00000000
-3.34691882 8.73268509 2.50588608 38 15 33903 9.68200000 2991593989 2991593989 15.00000000
-0.77597880 2.03421807 -0.58337814 4 0 33912 2.25400000 2991594010 2991594010 -15.00000000
-4.08982563 10.72704506 0.20038854 10 1 33913 11.48200000 2991594012 2991594012 1.00000000
-0.90972716 2.38733959 -0.58982164 3 2 33914 2.62200000 2991594015 2991594015 -13.00000000
-4.08724022 10.72588634 0.60154951 21 3 33914 11.49400000 2991594017 2991594017 3.00000000
-1.07679939 2.82725954 -0.58807331 4 4 33915 3.08200000 2991594019 2991594019 -11.00000000
-4.08204508 10.72350216 1.00385988 17 5 33916 11.51800000 2991594022 2991594022 5.00000000
-1.35078597 3.55036807 -0.60164696 2 6 33917 3.84600000 2991594024 2991594024 -9.00000000
-4.08735418 10.74873257 1.41197824 19 7 33918 11.58600000 2991594026 2991594026 7.00000000
-4.06996298 10.70862293 -1.40661597 2 8 33919 11.54200000 2991594028 2991594028 -7.00000000
-4.08513308 10.74853706 1.82121003 18 9 33919 11.64200000 2991594031 2991594031 9.00000000
-2.55765343 6.73307037 -0.63013601 4 10 33920 7.23000000 2991594033 2991594033 -5.00000000
-3.99779963 10.52981758 2.18934250 53 11 33921 11.47400000 2991594035 2991594035 11.00000000
-4.06375694 10.70917511 -0.60029340 8 12 33922 11.47000000 2991594038 2991594038 -3.00000000
-3.83053017 10.09986877 2.49380732 57 13 33923 11.08600000 2991594040 2991594040 13.00000000
-4.05859184 10.70682907 -0.19986495 14 14 33924 11.45200000 2991594042 2991594042 -1.00000000
-3.31215024 8.73766804 2.50381541 40 15 33924 9.67400000 2991594045 2991594045 15.00000000
-0.77023780 2.04052901 -0.58441341 4 0 33932 2.25800000 2991594065 2991594065 -15.00000000
-4.04106283 10.71131992 0.19983006 13 1 33933 11.45000000 2991594068 2991594068 1.00000000
-0.90413851 2.39779449 -0.59162128 3 2 33934 2.63000000 2991594070 2991594070 -13.00000000
-4.04437876 10.73145008 0.60102612 21 3 33935 11.48400000 2991594072 2991594072 3.00000000
-1.06969333 2.83834958 -0.58959979 4 4 33935 3.09000000 2991594075 2991594075 -11.00000000
-4.04177904 10.73022747 1.00316262 17 5 33936 11.51000000 2991594077 2991594077 5.00000000
-1.33420873 3.54396939 -0.59976971 2 6 33937 3.83400000 2991594079 2991594079 -9.00000000
-4.04421663 10.74807072 1.41002834 19 7 33938 11.57000000 2991594081 2991594081 7.00000000
-1.74760485 4.64696455 -0.60959047 2 8 33939 5.00200000 2991594084 2991594084 -7.00000000
-4.04223490 10.75419235 1.81964564 15 9 33940 11.63200000 2991594086 2991594086 9.00000000
-2.53413510 6.74195719 -0.63013601 4 10 33940 7.23000000 2991594088 2991594088 -5.00000000
-3.95618629 10.53084373 2.18667102 50 11 33941 11.46000000 2991594091 2991594091 11.00000000
-4.02494621 10.71955490 -0.60008407 8 12 33942 11.46600000 2991594093 2991594093 -3.00000000
-3.79799056 10.12047672 2.49560690 57 13 33943 11.09400000 2991594095 2991594095 13.00000000
-4.01627731 10.70782471 -0.19962062 8 14 33944 11.43800000 2991594098 2991594098 -1.00000000
-3.27467799 8.73527813 2.49967432 36 15 33945 9.65800000 2991594100 2991594100 15.00000000
-0.76346689 2.04307199 -0.58441341 4 0 33951 2.25800000 2991594121 2991594121 -15.00000000
-3.99992323 10.70967579 0.19955082 13 1 33952 11.43400000 2991594123 2991594123 1.00000000
-0.89073008 2.38617396 -0.58802205 3 2 33953 2.61400000 2991594125 2991594125 -13.00000000
-4.00994635 10.74223232 0.60092145 18 3 33953 11.48200000 2991594128 2991594128 3.00000000
-1.06851017 2.86395407 -0.59417921 2 4 33954 3.11400000 2991594130 2991594130 -11.00000000
-3.99990916 10.72677040 1.00159383 17 5 33955 11.49200000 2991594132 2991594132 5.00000000
-1.31417096 3.52616239 -0.59601533 2 6 33956 3.81000000 2991594134 2991594134 -9.00000000
-3.99954462 10.73723984 1.40685976 19 7 33957 11.54400000 2991594137 2991594137 7.00000000
-3.98243332 10.69701004 -1.40149748 2 8 33958 11.50000000 2991594139 2991594139 -7.00000000
-4.00103951 10.75272655 1.81714272 15 9 33959 11.61600000 2991594141 2991594141 9.00000000
-3.99033499 10.72395802 -1.00107086 4 10 33959 11.48600000 2991594144 2991594144 -5.00000000
-3.92124295 10.54390430 2.18667102 46 11 33960 11.46000000 2991594146 2991594146 11.00000000
-3.98102617 10.71037769 -0.59882802 8 12 33961 11.44200000 2991594148 2991594148 -3.00000000
-3.76440907 10.13301563 2.49560690 55 13 33962 11.09400000 2991594151 2991594151 13.00000000
-3.97239423 10.69858837 -0.19920176 14 14 33963 11.41400000 2991594153 2991594153 -1.00000000
-3.25058126 8.75457764 2.50226259 38 15 33963 9.66800000 2991594155 2991594155 15.00000000
-0.75767046 2.04934859 -0.58544868 4 0 33971 2.26200000 2991594176 2991594176 -15.00000000
-3.95697021 10.70856667 0.19927157 30 1 33972 11.41800000 2991594178 2991594178 1.00000000
-0.88374561 2.39292479 -0.58892184 3 2 33973 2.61800000 2991594180 2991594180 -13.00000000
-3.96342921 10.73180771 0.59956074 13 3 33973 11.45600000 2991594183 2991594183 3.00000000
-1.05578732 2.86029935 -0.59265274 2 4 33974 3.10600000 2991594185 2991594185 -11.00000000
-3.96175170 10.73879814 1.00141943 12 5 33975 11.49000000 2991594187 2991594187 5.00000000
-1.31278849 3.56038260 -0.60102123 2 6 33976 3.84200000 2991594190 2991594190 -9.00000000
-3.95311666 10.72692108 1.40369105 21 7 33977 11.51800000 2991594192 2991594192 7.00000000
-1.72553909 4.68483114 -0.61300278 2 8 33978 5.03000000 2991594194 2991594194 -7.00000000
-3.95597458 10.74623585 1.81370115 21 9 33979 11.59400000 2991594197 2991594197 9.00000000
-2.50057507 6.79270506 -0.63327360 4 10 33979 7.26600000 2991594199 2991594199 -5.00000000
-3.88915944 10.57042599 2.18934250 53 11 33980 11.47400000 2991594201 2991594201 11.00000000
-3.93396521 10.69796562 -0.59736258 8 12 33981 11.41400000 2991594204 2991594204 -3.00000000
-3.72296500 10.12963200 2.49155784 54 13 33982 11.07600000 2991594206 2991594206 13.00000000
-3.93088794 10.70112705 -0.19899234 6 14 33983 11.40200000 2991594208 2991594208 -1.00000000
-3.21800399 8.76043034 2.50070953 40 15 33983 9.66200000 2991594210 2991594210 15.00000000
-0.75413370 2.06299829 -0.58855450 4 0 33992 2.27400000 2991594231 2991594231 -15.00000000
-3.91014624 10.70233727 0.19888762 10 1 33993 11.39600000 2991594233 2991594233 1.00000000
-0.87630606 2.39980888 -0.58982164 3 2 33994 2.62200000 2991594236 2991594236 -13.00000000
-3.91260672 10.72068024 0.59809530 10 3 33995 11.42800000 2991594238 2991594238 3.00000000
-1.04664290 2.86783814 -0.59341598 2 4 33995 3.11000000 2991594240 2991594240 -11.00000000
-3.91553807 10.73452854 0.99967635 17 5 33996 11.47000000 2991594243 2991594243 5.00000000
-1.29228771 3.54475546 -0.59757966 2 6 33997 3.82000000 2991594245 2991594245 -9.00000000
-3.91377401 10.74133873 1.40369105 17 7 33998 11.51800000 2991594247 2991594247 7.00000000
-1.71379089 4.70604610 -0.61495268 2 8 33999 5.04600000 2991594250 2991594250 -7.00000000
-3.91438341 10.74884319 1.81182396 12 9 33999 11.58200000 2991594252 2991594252 9.00000000
-2.47429895 6.79808044 -0.63292503 4 10 34000 7.26200000 2991594254 2991594254 -5.00000000
-3.87455201 10.65102768 2.20308065 59 11 34001 11.54600000 2991594257 2991594257 11.00000000
-3.91383743 10.76486969 -0.60029340 8 12 34002 11.47000000 2991594259 2991594259 -3.00000000
-3.68181968 10.13222027 2.48885846 54 13 34003 11.06400000 2991594261 2991594261 13.00000000
-3.90256190 10.74553585 -0.19955082 6 14 34004 11.43400000 2991594263 2991594263 -1.00000000
-3.18434262 8.77272224 2.50070953 36 15 34005 9.66200000 2991594266 2991594266 15.00000000
-0.74430019 2.05835128 -0.58648396 4 0 34012 2.26600000 2991594286 2991594286 -15.00000000
-3.89587307 10.77986240 0.20007439 10 1 34013 11.46400000 2991594289 2991594289 1.00000000
-0.86659974 2.39918733 -0.58892184 3 2 34014 2.61800000 2991594291 2991594291 -13.00000000
-3.89671111 10.78807163 0.60113078 7 3 34014 11.48600000 2991594293 2991594293 3.00000000
-1.03395927 2.86408782 -0.59188950 4 4 34015 3.10200000 2991594296 2991594296 -11.00000000
-3.89765358 10.80248070 1.00473142 42 5 34016 11.52800000 2991594298 2991594298 5.00000000
-1.28660750 3.56782722 -0.60070837 2 6 34017 3.84000000 2991594300 2991594300 -9.00000000
-3.89577532 10.80909157 1.41075957 38 7 34018 11.57600000 2991594303 2991594303 7.00000000
-1.69197130 4.69705868 -0.61300278 2 8 34019 5.03000000 2991594305 2991594305 -7.00000000
-3.88031387 10.77798653 1.81432688 34 9 34020 11.59800000 2991594307 2991594307 9.00000000
-2.45190382 6.81042480 -0.63327360 4 10 34020 7.26600000 2991594310 2991594310 -5.00000000
-3.84599066 10.68850327 2.20804167 59 11 34021 11.57200000 2991594312 2991594312 11.00000000
-3.91949415 10.89874935 -0.60699242 4 12 34022 11.59800000 2991594314 2991594314 -3.00000000
-3.64511085 10.14134216 2.48795867 51 13 34023 11.06000000 2991594316 2991594316 13.00000000
-3.90829682 10.87953758 -0.20178473 8 14 34024 11.56200000 2991594319 2991594319 -1.00000000
-3.14913106 8.77105713 2.49708605 38 15 34025 9.64800000 2991594321 2991594321 15.00000000
-0.73066664 2.04067278 -0.58078992 4 0 34030 2.24400000 2991594342 2991594342 -15.00000000
-3.89837098 10.89371872 0.20195925 6 1 34031 11.57200000 2991594344 2991594344 1.00000000
-0.86299580 2.41290736 -0.59162128 3 2 34032 2.63000000 2991594346 2991594346 -13.00000000
-3.90181160 10.90933418 0.60720176 18 3 34032 11.60200000 2991594349 2991594349 3.00000000
-1.02892148 2.87841415 -0.59417921 4 4 34033 3.11400000 2991594351 2991594351 -11.00000000
-3.89520240 10.90285587 1.01292408 59 5 34034 11.62200000 2991594353 2991594353 5.00000000
-1.26808548 3.55138779 -0.59726679 2 6 34035 3.81800000 2991594356 2991594356 -9.00000000
-3.89582586 10.91662788 1.42319024 40 7 34036 11.67800000 2991594358 2991594358 7.00000000
-1.69321191 4.74722433 -0.61885250 2 8 34037 5.07800000 2991594360 2991594360 -7.00000000
-3.87950778 10.87689877 1.82903171 37 9 34037 11.69200000 2991594363 2991594363 9.00000000
-2.44253826 6.85187483 -0.63641125 4 10 34038 7.30200000 2991594365 2991594365 -5.00000000
-3.80514479 10.68018913 2.20384383 56 11 34039 11.55000000 2991594367 2991594367 11.00000000
-3.91873455 11.00508499 -0.61222601 8 12 34040 11.69800000 2991594369 2991594369 -3.00000000
-3.53025270 9.91957951 2.43082118 90 13 34041 10.80600000 2991594372 2991594372 13.00000000
-3.90626550 10.98219776 -0.20346016 6 14 34042 11.65800000 2991594374 2991594374 -1.00000000
-3.11638379 8.76634502 2.49294496 38 15 34043 9.63200000 2991594376 2991594376 15.00000000
-0.72547352 2.04867387 -0.58234286 4 0 34050 2.25000000 2991594397 2991594397 -15.00000000
-3.89768338 11.01282597 0.20391391 10 1 34051 11.68400000 2991594399 2991594399 1.00000000
-0.85716742 2.42325401 -0.59342086 3 2 34052 2.63800000 2991594402 2991594402 -13.00000000
-3.86237502 10.91912174 0.60699242 26 3 34052 11.59800000 2991594404 2991594404 3.00000000
-1.01886761 2.88198829 -0.59417921 4 4 34053 3.11400000 2991594406 2991594406 -11.00000000
-3.87504196 10.96710777 1.01763046 17 5 34054 11.67600000 2991594409 2991594409 5.00000000
-1.26028550 3.56883121 -0.59945685 2 6 34055 3.83200000 2991594411 2991594411 -9.00000000
-3.88676572 11.01252460 1.43391466 36 7 34056 11.76600000 2991594413 2991594413 7.00000000
-1.67663062 4.75310564 -0.61885250 2 8 34057 5.07800000 2991594416 2991594416 -7.00000000
-3.87962961 10.99842167 1.84717822 31 9 34057 11.80800000 2991594418 2991594418 9.00000000
-2.41198134 6.84156895 -0.63466811 4 10 34058 7.28200000 2991594420 2991594420 -5.00000000
-3.76131654 10.67488956 2.20002770 56 11 34059 11.53000000 2991594422 2991594422 11.00000000
-3.91479325 11.11665821 -0.61766893 4 12 34060 11.80200000 2991594425 2991594425 -3.00000000
-3.57712436 10.16345596 2.48750877 52 13 34061 11.05800000 2991594427 2991594427 13.00000000
-3.90904760 11.11272240 -0.20562425 6 14 34062 11.78200000 2991594429 2991594429 -1.00000000
-3.08576465 8.77716923 2.49294496 38 15 34063 9.63200000 2991594432 2991594432 15.00000000
-0.72342592 2.06578016 -0.58648396 4 0 34070 2.26600000 2991594452 2991594452 -15.00000000
-3.89422941 11.12639809 0.20576388 10 1 34071 11.79000000 2991594455 2991594455 1.00000000
-0.84226900 2.40783668 -0.58892184 3 2 34072 2.61800000 2991594457 2991594457 -13.00000000
-3.80972838 10.89106178 0.60468966 26 3 34072 11.55400000 2991594459 2991594459 3.00000000
-1.01009727 2.88923359 -0.59494245 2 4 34073 3.11800000 2991594462 2991594462 -11.00000000
-3.82622099 10.95047379 1.01484144 4 5 34074 11.64400000 2991594464 2991594464 5.00000000
-1.25303042 3.58812809 -0.60195982 2 6 34075 3.84800000 2991594466 2991594466 -9.00000000
-3.87969995 11.11598682 1.44561410 38 7 34076 11.86200000 2991594468 2991594468 7.00000000
-1.65218329 4.73643732 -0.61592764 2 8 34077 5.05400000 2991594471 2991594471 -7.00000000
-3.87439561 11.10701942 1.86313450 34 9 34077 11.91000000 2991594473 2991594473 9.00000000
-2.39464402 6.86876011 -0.63641125 4 10 34078 7.30200000 2991594475 2991594475 -5.00000000
-3.72015548 10.67683125 2.19773793 59 11 34079 11.51800000 2991594478 2991594478 11.00000000
-3.90749288 11.22079086 -0.62269318 4 12 34080 11.89800000 2991594480 2991594480 -3.00000000
-3.54034424 10.17220020 2.48660898 51 13 34081 11.05400000 2991594482 2991594482 13.00000000
-3.90702367 11.23206615 -0.20757893 8 14 34082 11.89400000 2991594485 2991594485 -1.00000000
-3.05664158 8.78735447 2.49294496 36 15 34082 9.63200000 2991594487 2991594487 15.00000000
-0.71747488 2.07194376 -0.58751923 4 0 34090 2.27000000 2991594508 2991594508 -15.00000000
-3.89264560 11.24763775 0.20775345 10 1 34091 11.90400000 2991594510 2991594510 1.00000000
-0.83258492 2.40707874 -0.58802205 3 2 34092 2.61400000 2991594512 2991594512 -13.00000000
-3.76320076 10.87975597 0.60332888 26 3 34092 11.52800000 2991594515 2991594515 3.00000000
-0.99872285 2.88903093 -0.59417921 4 4 34093 3.11400000 2991594517 2991594517 -11.00000000
-3.76845431 10.90726757 1.00961208 4 5 34094 11.58400000 2991594519 2991594519 5.00000000
-1.23727417 3.58314419 -0.60039550 2 6 34095 3.83800000 2991594521 2991594521 -9.00000000
-3.87972975 11.24205112 1.46023846 36 7 34096 11.98200000 2991594524 2991594524 7.00000000
-1.61751652 4.68963099 -0.60910296 2 8 34097 4.99800000 2991594526 2991594526 -7.00000000
-2.37065291 6.87707710 -0.63641125 4 10 34098 7.30200000 2991594531 2991594531 -5.00000000
-3.68094516 10.68418312 2.19659305 59 11 34099 11.51200000 2991594533 2991594533 11.00000000
-3.50227857 10.17712593 2.48480940 49 13 34101 11.04600000 2991594538 2991594538 13.00000000
-3.02504182 8.80032539 2.49346256 33 15 34103 9.63400000 2991594542 2991594542 15.00000000
-0.70513803 2.06188798 -0.58389574 4 0 34112 2.25600000 2991594563 2991594563 -15.00000000
-0.82711595 2.42132258 -0.59072149 3 2 34114 2.62600000 2991594568 2991594568 -13.00000000
-3.72078705 10.89855576 0.60353827 26 3 34115 11.53200000 2991594570 2991594570 3.00000000
-0.98762244 2.89284444 -0.59417921 4 4 34115 3.11400000 2991594572 2991594572 -11.00000000
-3.71753836 10.89525795 1.00717175 4 5 34116 11.55600000 2991594574 2991594574 5.00000000
-1.23115766 3.61030436 -0.60414988 2 6 34117 3.86200000 2991594577 2991594577 -9.00000000
-1.61613917 4.74466324 -0.61544019 2 8 34119 5.05000000 2991594581 2991594581 -7.00000000
-2.34422946 6.88612890 -0.63641125 4 10 34120 7.30200000 2991594586 2991594586 -5.00000000
-3.63483500 10.68336868 2.19354010 59 11 34121 11.49600000 2991594588 2991594588 11.00000000
-3.46129441 10.18496323 2.48345971 50 13 34123 11.04000000 2991594593 2991594593 13.00000000
-2.98841763 8.79854870 2.48983932 36 15 34124 9.62000000 2991594598 2991594598 15.00000000
-0.69793642 2.06433678 -0.58389574 4 0 34132 2.25600000 2991594618 2991594618 -15.00000000
-0.82364690 2.43896556 -0.59432071 3 2 34134 2.64200000 2991594623 2991594623 -13.00000000
-3.68336010 10.91336918 0.60364294 7 3 34135 11.53400000 2991594625 2991594625 3.00000000
-0.97877419 2.89999461 -0.59494245 2 4 34135 3.11800000 2991594627 2991594627 -11.00000000
-3.67630005 10.89872932 1.00630021 12 5 34136 11.54600000 2991594630 2991594630 5.00000000
-1.21602368 3.60709238 -0.60289842 2 6 34137 3.85400000 2991594632 2991594632 -9.00000000
-1.60336828 4.76156330 -0.61690259 2 8 34139 5.06200000 2991594637 2991594637 -7.00000000
-3.59063625 10.67552280 2.18934250 59 11 34141 11.47400000 2991594644 2991594644 11.00000000
-3.42510056 10.19513607 2.48300982 53 13 34143 11.03800000 2991594648 2991594648 13.00000000
-2.95246172 8.79845428 2.48673344 36 15 34145 9.60800000 2991594653 2991594653 15.00000000
-0.69451261 2.07567930 -0.58648396 4 0 34150 2.26600000 2991594674 2991594674 -15.00000000
-0.80980366 2.42305851 -0.58982164 3 2 34152 2.62200000 2991594678 2991594678 -13.00000000
-3.68955231 11.04612732 0.61034191 2 3 34153 11.66200000 2991594680 2991594680 3.00000000
-0.96965873 2.90305519 -0.59494245 2 4 34153 3.11800000 2991594683 2991594683 -11.00000000
-3.67926431 11.02172661 1.01658463 12 5 34154 11.66400000 2991594685 2991594685 5.00000000
-1.20468569 3.61089492 -0.60289842 2 6 34155 3.85400000 2991594687 2991594687 -9.00000000
-1.59342217 4.78164339 -0.61885250 2 8 34157 5.07800000 2991594692 2991594692 -7.00000000
-3.55212021 10.67184830 2.18628955 56 11 34159 11.45800000 2991594699 2991594699 11.00000000
-3.39551401 10.21324253 2.48480940 50 13 34161 11.04600000 2991594704 2991594704 13.00000000
-2.92756152 8.81084156 2.48776865 36 15 34162 9.61200000 2991594708 2991594708 15.00000000
-0.68847609 2.08175921 -0.58751923 4 0 34170 2.27000000 2991594729 2991594729 -15.00000000
-0.80378562 2.43327212 -0.59162128 3 2 34172 2.63000000 2991594733 2991594733 -13.00000000
-3.68290448 11.15566444 0.61568022 2 3 34173 11.76400000 2991594736 2991594736 3.00000000
-0.96321213 2.91760802 -0.59723216 2 4 34173 3.13000000 2991594738 2991594738 -11.00000000
-3.68384361 11.16505527 1.02861202 12 5 34174 11.80200000 2991594740 2991594740 5.00000000
-1.19021809 3.60945010 -0.60195982 2 6 34175 3.84800000 2991594743 2991594743 -9.00000000
-1.57672143 4.78717613 -0.61885250 2 8 34177 5.07800000 2991594747 2991594747 -7.00000000
-3.50993872 10.66926289 2.18323660 53 11 34179 11.44200000 2991594754 2991594754 11.00000000
-3.35740900 10.21762753 2.48300982 51 13 34181 11.03800000 2991594759 2991594759 13.00000000
-2.89404368 8.81784153 2.48673344 38 15 34183 9.60800000 2991594763 2991594763 15.00000000
-0.68240553 2.08782244 -0.58855450 4 0 34190 2.27400000 2991594784 2991594784 -15.00000000
-0.79528701 2.43606305 -0.59162128 3 2 34192 2.63000000 2991594789 2991594789 -13.00000000
-3.68730688 11.30136490 0.62300724 5 3 34193 11.90400000 2991594791 2991594791 3.00000000
-0.95423985 2.92468524 -0.59799540 2 4 34193 3.13400000 2991594793 2991594793 -11.00000000
-1.17944777 3.61921716 -0.60289842 2 6 34195 3.85400000 2991594798 2991594798 -9.00000000
-1.55139959 4.76622391 -0.61544019 2 8 34197 5.05000000 2991594803 2991594803 -7.00000000
-3.47267461 10.68144989 2.18323660 59 11 34199 11.44200000 2991594809 2991594809 11.00000000
-3.31750917 10.21631050 2.47986031 46 13 34201 11.02400000 2991594814 2991594814 13.00000000
-2.86717200 8.83474064 2.48880386 36 15 34202 9.61600000 2991594819 2991594819 15.00000000
-0.67630106 2.09386826 -0.58958977 4 0 34210 2.27800000 2991594839 2991594839 -15.00000000
-0.79276186 2.45737028 -0.59612030 3 2 34212 2.65000000 2991594844 2991594844 -13.00000000
-0.94161516 2.92052412 -0.59646893 2 4 34213 3.12600000 2991594849 2991594849 -11.00000000
-1.17528415 3.64963603 -0.60727859 2 6 34215 3.88200000 2991594853 2991594853 -9.00000000
-1.53718424 4.77916956 -0.61641514 2 8 34217 5.05800000 2991594858 2991594858 -7.00000000
-3.43056440 10.67855358 2.18018365 53 11 34219 11.42600000 2991594865 2991594865 11.00000000
-3.28063679 10.22411728 2.47896051 47 13 34221 11.02000000 2991594869 2991594869 13.00000000
-2.83241343 8.83783054 2.48673344 36 15 34223 9.60800000 2991594874 2991594874 15.00000000
-0.66546386 2.08517385 -0.58648396 4 0 34230 2.26600000 2991594895 2991594895 -15.00000000
-0.77826089 2.44155574 -0.59162128 3 2 34232 2.63000000 2991594899 2991594899 -13.00000000
-0.93499041 2.93501711 -0.59875864 2 4 34233 3.13800000 2991594904 2991594904 -11.00000000
-1.16133952 3.64995170 -0.60665286 2 6 34235 3.87800000 2991594909 2991594909 -9.00000000
-1.52169490 4.78829002 -0.61690259 2 8 34237 5.06200000 2991594913 2991594913 -7.00000000
-3.38970470 10.67923546 2.17789388 56 11 34239 11.41400000 2991594920 2991594920 11.00000000
-3.24787235 10.24479485 2.48121023 51 13 34241 11.03000000 2991594925 2991594925 13.00000000
-2.79958963 8.83612537 2.48362756 38 15 34242 9.59600000 2991594929 2991594929 15.00000000
-0.65934306 2.09116912 -0.58751923 4 0 34250 2.27000000 2991594950 2991594950 -15.00000000
-0.77207488 2.45169258 -0.59342086 3 2 34252 2.63800000 2991594955 2991594955 -13.00000000
-0.92120332 2.92702675 -0.59646893 4 4 34253 3.12600000 2991594959 2991594959 -11.00000000
-1.13792920 3.62006283 -0.60102123 2 6 34255 3.84200000 2991594964 2991594964 -9.00000000
-1.50972831 4.80872393 -0.61885250 2 8 34257 5.07800000 2991594968 2991594968 -7.00000000
-3.34653234 10.67226982 2.17407775 53 11 34259 11.39400000 2991594975 2991594975 11.00000000
-3.21150923 10.25420952 2.48076034 50 13 34261 11.02800000 2991594980 2991594980 13.00000000
-2.76603127 8.84263897 2.48259234 38 15 34263 9.59200000 2991594985 2991594985 15.00000000
-0.65125525 2.08965516 -0.58648396 4 0 34269 2.26600000 2991595005 2991595005 -15.00000000
-0.76046544 2.44307518 -0.59072149 3 2 34271 2.62600000 2991595010 2991595010 -13.00000000
-0.91499090 2.94131327 -0.59875864 4 4 34272 3.13800000 2991595015 2991595015 -11.00000000
-1.12943506 3.63513494 -0.60289842 2 6 34274 3.85400000 2991595019 2991595019 -9.00000000
-1.49377370 4.81370401 -0.61885250 2 8 34276 5.07800000 2991595024 2991595024 -7.00000000
-3.30763626 10.67205715 2.17178798 56 11 34278 11.38200000 2991595031 2991595031 11.00000000
-3.17460608 10.25549507 2.47851062 51 13 34280 11.01800000 2991595035 2991595035 13.00000000
-2.74337626 8.86789513 2.48725104 40 15 34281 9.61000000 2991595040 2991595040 15.00000000
-0.64736724 2.10299397 -0.58958977 4 0 34289 2.27800000 2991595061 2991595061 -15.00000000
-0.75422364 2.45316553 -0.59252107 3 2 34291 2.63400000 2991595065 2991595065 -13.00000000
-0.90241170 2.93698263 -0.59723216 4 4 34292 3.13000000 2991595070 2991595070 -11.00000000
-1.12137532 3.65416288 -0.60540140 2 6 34294 3.87000000 2991595074 2991595074 -9.00000000
-1.47696161 4.81888866 -0.61885250 2 8 34296 5.07800000 2991595079 2991595079 -7.00000000
-3.27036357 10.68353748 2.17178798 53 11 34298 11.38200000 2991595086 2991595086 11.00000000
-3.13707924 10.26092339 2.47716093 47 13 34300 11.01200000 2991595091 2991595091 13.00000000
-2.71579170 8.88850307 2.49035692 40 15 34301 9.62200000 2991595095 2991595095 15.00000000
-0.63777477 2.09784746 -0.58751923 4 0 34309 2.27000000 2991595116 2991595116 -15.00000000
-0.74792057 2.46324205 -0.59432071 3 2 34311 2.64200000 2991595121 2991595121 -13.00000000
-0.89443451 2.94762945 -0.59875864 2 4 34312 3.13800000 2991595125 2991595125 -11.00000000
-1.11663413 3.68452144 -0.60978156 2 6 34314 3.89800000 2991595130 2991595130 -9.00000000
-1.46703255 4.84681463 -0.62177742 2 8 34316 5.10200000 2991595134 2991595134 -7.00000000
-3.23191500 10.69112968 2.17102480 56 11 34318 11.37800000 2991595141 2991595141 11.00000000
-3.10236931 10.27554226 2.47806072 46 13 34320 11.01600000 2991595146 2991595146 13.00000000
-2.67916822 8.87943363 2.48518038 40 15 34321 9.60200000 2991595150 2991595150 15.00000000
-0.62933713 2.09636045 -0.58648396 4 0 34329 2.26600000 2991595171 2991595171 -15.00000000
-0.74155641 2.47330451 -0.59612030 3 2 34331 2.65000000 2991595176 2991595176 -13.00000000
-0.88188589 2.94321108 -0.59723216 2 4 34332 3.13000000 2991595180 2991595180 -11.00000000
-1.09810269 3.66947222 -0.60665286 2 6 34334 3.87800000 2991595185 2991595185 -9.00000000
-1.45237887 4.85951376 -0.62275237 2 8 34336 5.11000000 2991595190 2991595190 -7.00000000
-3.19008398 10.68729687 2.16797185 53 11 34338 11.36200000 2991595197 2991595197 11.00000000
-3.06536841 10.28257465 2.47716093 50 13 34340 11.01200000 2991595201 2991595201 13.00000000
-2.63943887 8.86512375 2.47845125 38 15 34342 9.57600000 2991595206 2991595206 15.00000000
-0.62311363 2.10224891 -0.58751923 4 0 34349 2.27000000 2991595227 2991595227 -15.00000000
-0.72959954 2.46466637 -0.59342086 3 2 34351 2.63800000 2991595231 2991595231 -13.00000000
-0.87383455 2.95380187 -0.59875864 2 4 34352 3.13800000 2991595236 2991595236 -11.00000000
-1.08304822 3.66570544 -0.60540140 2 6 34354 3.87000000 2991595240 2991595240 -9.00000000
-1.43091273 4.84932232 -0.62080246 2 8 34356 5.09400000 2991595245 2991595245 -7.00000000
-3.14609933 10.67576885 2.16339231 56 11 34358 11.33800000 2991595252 2991595252 11.00000000
-3.03055739 10.29695034 2.47806072 48 13 34360 11.01600000 2991595256 2991595256 13.00000000
-2.61002660 8.87382793 2.47845125 38 15 34361 9.57600000 2991595261 2991595261 15.00000000
-0.61468655 2.10070300 -0.58648396 4 0 34369 2.26600000 2991595282 2991595282 -15.00000000
-0.71989858 2.46345711 -0.59252107 3 2 34371 2.63400000 2991595286 2991595286 -13.00000000
-0.86461926 2.96060324 -0.59952188 2 4 34372 3.14200000 2991595291 2991595291 -11.00000000
-1.07135212 3.67325616 -0.60602713 2 6 34374 3.87400000 2991595296 2991595296 -9.00000000
-1.42063856 4.87715864 -0.62372732 2 8 34376 5.11800000 2991595300 2991595300 -7.00000000
-3.10552454 10.67537498 2.16110277 53 11 34378 11.32600000 2991595307 2991595307 11.00000000
-2.99350858 10.30372334 2.47716093 47 13 34380 11.01200000 2991595312 2991595312 13.00000000
-2.58334446 8.89772606 2.48259234 40 15 34381 9.59200000 2991595316 2991595316 15.00000000
-0.61163843 2.11768365 -0.59062505 4 0 34389 2.28200000 2991595337 2991595337 -15.00000000
-0.71237528 2.46969986 -0.59342086 3 2 34391 2.63800000 2991595342 2991595342 -13.00000000
-0.86080492 2.98624063 -0.60410130 2 4 34392 3.16600000 2991595346 2991595346 -11.00000000
-1.06289542 3.69215989 -0.60853004 2 6 34394 3.89000000 2991595351 2991595351 -9.00000000
-1.39263546 4.84393167 -0.61885250 2 8 34396 5.07800000 2991595355 2991595355 -7.00000000
-3.06499076 10.67482853 2.15881300 53 11 34398 11.31400000 2991595362 2991595362 11.00000000
-2.95215201 10.29537773 2.47266197 50 13 34400 10.99200000 2991595367 2991595367 13.00000000
-2.55280209 8.90854645 2.48310995 40 15 34401 9.59400000 2991595372 2991595372 15.00000000
-0.60212433 2.11237454 -0.58855450 4 0 34409 2.27400000 2991595392 2991595392 -15.00000000
-0.70481718 2.47591996 -0.59432071 3 2 34411 2.64200000 2991595397 2991595397 -13.00000000
-0.84392941 2.96656704 -0.59952188 4 4 34412 3.14200000 2991595402 2991595402 -11.00000000
-1.05108058 3.69964790 -0.60915583 2 6 34414 3.89400000 2991595406 2991595406 -9.00000000
-1.38872254 4.89459610 -0.62470227 2 8 34416 5.12600000 2991595411 2991595411 -7.00000000
-3.03038597 10.69490623 2.16072106 50 11 34418 11.32400000 2991595418 2991595418 11.00000000
-2.91619658 10.30562019 2.47266197 50 13 34420 10.99200000 2991595422 2991595422 13.00000000
-2.51540518 8.90111160 2.47845125 38 15 34422 9.57600000 2991595427 2991595427 15.00000000
-0.59370089 2.11074400 -0.58751923 4 0 34429 2.27000000 2991595448 2991595448 -15.00000000
-0.69933236 2.48962188 -0.59702009 3 2 34431 2.65400000 2991595452 2991595452 -13.00000000
-0.83569145 2.97705579 -0.60104835 2 4 34432 3.15000000 2991595457 2991595457 -11.00000000
-1.03922641 3.70709848 -0.60978156 2 6 34434 3.89800000 2991595461 2991595461 -9.00000000
-1.36734748 4.88412142 -0.62275237 2 8 34436 5.11000000 2991595466 2991595466 -7.00000000
-2.98563480 10.67894840 2.15537834 46 11 34438 11.29600000 2991595473 2991595473 11.00000000
-2.88020539 10.31573677 2.47266197 50 13 34440 10.99200000 2991595478 2991595478 13.00000000
-2.48223996 8.89637852 2.47482777 42 15 34441 9.56200000 2991595482 2991595482 15.00000000
-0.58529621 2.10908055 -0.58648396 4 0 34449 2.26600000 2991595503 2991595503 -15.00000000
-0.68959677 2.48829198 -0.59612030 3 2 34451 2.65000000 2991595507 2991595507 -13.00000000
-0.82319850 2.97238660 -0.59952188 2 4 34452 3.14200000 2991595512 2991595512 -11.00000000
-1.01890790 3.68404889 -0.60540140 2 6 34454 3.87000000 2991595517 2991595517 -9.00000000
-1.35451829 4.90417194 -0.62470227 2 8 34456 5.12600000 2991595521 2991595521 -7.00000000
-2.94729590 10.68552017 2.15461516 50 11 34458 11.29200000 2991595528 2991595528 11.00000000
-2.84573174 10.33136368 2.47401166 51 13 34460 10.99800000 2991595533 2991595533 13.00000000
-2.45117068 8.90498924 2.47482777 40 15 34461 9.56200000 2991595537 2991595537 15.00000000
-0.57946086 2.11670065 -0.58803689 4 0 34469 2.27200000 2991595558 2991595558 -15.00000000
-0.67782348 2.47940540 -0.59342086 3 2 34471 2.63800000 2991595563 2991595563 -13.00000000
-0.80971360 2.96387887 -0.59723216 2 4 34472 3.13000000 2991595567 2991595567 -11.00000000
-1.01228106 3.71045184 -0.60915583 2 6 34474 3.89400000 2991595572 2991595572 -9.00000000
-1.33217323 4.88971758 -0.62226486 2 8 34476 5.10600000 2991595577 2991595577 -7.00000000
-2.90894771 10.69195461 2.15385199 46 11 34478 11.28800000 2991595584 2991595584 11.00000000
-2.80760741 10.33371258 2.47221208 51 13 34480 10.99000000 2991595588 2991595588 13.00000000
-2.41699815 8.90832043 2.47327471 40 15 34482 9.55600000 2991595593 2991595593 15.00000000
-0.57458657 2.12803578 -0.59062505 4 0 34489 2.28200000 2991595613 2991595613 -15.00000000
-0.67220855 2.49304557 -0.59612030 3 2 34491 2.65000000 2991595618 2991595618 -13.00000000
-0.80344898 2.98185229 -0.60028511 4 4 34492 3.14600000 2991595623 2991595623 -11.00000000
-1.00650859 3.74066806 -0.61353600 2 6 34494 3.92200000 2991595627 2991595627 -9.00000000
-1.32230842 4.92117691 -0.62567723 2 8 34496 5.13400000 2991595632 2991595632 -7.00000000
-2.87160826 10.70204353 2.15385199 40 11 34498 11.28800000 2991595639 2991595639 11.00000000
-2.76849270 10.33215523 2.46951270 59 13 34500 10.97800000 2991595643 2991595643 13.00000000
-2.38888383 8.92790031 2.47638059 40 15 34502 9.56800000 2991595648 2991595648 15.00000000
-0.56553704 2.12246251 -0.58855450 4 0 34508 2.27400000 2991595669 2991595669 -15.00000000
-0.66393763 2.49526095 -0.59612030 3 2 34510 2.65000000 2991595673 2991595673 -13.00000000
-0.79456538 2.98829508 -0.60104835 2 4 34511 3.15000000 2991595678 2991595678 -11.00000000
-0.99105698 3.73252988 -0.61165875 2 6 34513 3.91000000 2991595683 2991595683 -9.00000000
-1.30394697 4.91786003 -0.62470227 2 8 34515 5.12600000 2991595687 2991595687 -7.00000000
-2.83962059 10.72479248 2.15652323 46 11 34517 11.30200000 2991595694 2991595694 11.00000000
-2.73521113 10.34504700 2.47041249 56 13 34519 10.98200000 2991595699 2991595699 13.00000000
-2.35383987 8.91522598 2.47068667 40 15 34521 9.54600000 2991595703 2991595703 15.00000000
-0.55714309 2.12068677 -0.58751923 4 0 34528 2.27000000 2991595724 2991595724 -15.00000000
-0.65720153 2.50510311 -0.59791988 3 2 34530 2.65800000 2991595729 2991595729 -13.00000000
-0.78213799 2.98345399 -0.59952188 2 4 34531 3.14200000 2991595733 2991595733 -11.00000000
-0.97602093 3.72832274 -0.61040729 2 6 34533 3.90200000 2991595738 2991595738 -9.00000000
-1.28677249 4.92238140 -0.62470227 2 8 34535 5.12600000 2991595743 2991595743 -7.00000000
-2.79869580 10.72134209 2.15385199 40 11 34537 11.28800000 2991595749 2991595749 11.00000000
-2.69810033 10.35076046 2.46951270 56 13 34539 10.97800000 2991595754 2991595754 13.00000000
-2.31637931 8.89908409 2.46395731 40 15 34541 9.52000000 2991595759 2991595759 15.00000000
-0.55264318 2.13383961 -0.59062505 4 0 34548 2.28200000 2991595779 2991595779 -15.00000000
-0.64454967 2.49228859 -0.59432071 3 2 34550 2.64200000 2991595784 2991595784 -13.00000000
-0.77466637 2.99757075 -0.60181159 2 4 34551 3.15400000 2991595789 2991595789 -11.00000000
-0.95905197 3.71640515 -0.60790431 2 6 34553 3.88600000 2991595793 2991595793 -9.00000000
-1.26760089 4.91915417 -0.62372732 2 8 34555 5.11800000 2991595798 2991595798 -7.00000000
-2.76076508 10.72914410 2.15347028 43 11 34557 11.28600000 2991595805 2991595805 11.00000000
-2.66195297 10.36011600 2.46951270 57 13 34559 10.97800000 2991595809 2991595809 13.00000000
-2.28589535 8.90297413 2.46292210 40 15 34560 9.51600000 2991595814 2991595814 15.00000000
-0.54614699 2.13949943 -0.59166032 4 0 34568 2.28600000 2991595835 2991595835 -15.00000000
-0.63584602 2.49452329 -0.59432071 3 2 34570 2.64200000 2991595839 2991595839 -13.00000000
-0.76807493 3.01547670 -0.60486454 2 4 34571 3.17000000 2991595844 2991595844 -11.00000000
-0.95289022 3.74653220 -0.61228448 2 6 34573 3.91400000 2991595848 2991595848 -9.00000000
-1.26117218 4.96587706 -0.62908953 2 8 34575 5.16200000 2991595853 2991595853 -7.00000000
-2.71991825 10.72539520 2.15079904 43 11 34577 11.27200000 2991595860 2991595860 11.00000000
-2.62098956 10.35045338 2.46501374 55 13 34579 10.95800000 2991595865 2991595865 13.00000000
-2.25419617 8.91503906 2.46395731 42 15 34581 9.52000000 2991595869 2991595869 15.00000000
-0.54056054 2.14888668 -0.59373087 4 0 34588 2.29400000 2991595890 2991595890 -15.00000000
-0.62808412 2.50050783 -0.59522051 3 2 34590 2.64600000 2991595895 2991595895 -13.00000000
-0.75085300 2.99148083 -0.59952188 4 4 34591 3.14200000 2991595899 2991595899 -11.00000000
-0.94364840 3.76516461 -0.61478746 2 6 34593 3.93000000 2991595904 2991595904 -9.00000000
-1.24383032 4.97024918 -0.62908953 2 8 34595 5.16200000 2991595908 2991595908 -7.00000000
-2.68531871 10.74625206 2.15308881 43 11 34597 11.28400000 2991595915 2991595915 11.00000000
-2.58295679 10.35197639 2.46321416 56 13 34599 10.95000000 2991595920 2991595920 13.00000000
-2.22555494 8.92621422 2.46499252 40 15 34600 9.52400000 2991595925 2991595925 15.00000000
-0.53026778 2.13950968 -0.59062505 4 0 34608 2.28200000 2991595945 2991595945 -15.00000000
-0.62122446 2.51025152 -0.59702009 3 2 34610 2.65400000 2991595950 2991595950 -13.00000000
-0.74040622 2.99408364 -0.59952188 4 4 34611 3.14200000 2991595954 2991595954 -11.00000000
-0.92955273 3.76460004 -0.61416173 2 6 34613 3.92600000 2991595959 2991595959 -9.00000000
-1.22267175 4.95914173 -0.62713963 2 8 34615 5.14600000 2991595964 2991595964 -7.00000000
-2.64591384 10.74793434 2.15156221 40 11 34617 11.27600000 2991595971 2991595971 11.00000000
-2.54494524 10.35336018 2.46141434 57 13 34619 10.94200000 2991595975 2991595975 13.00000000
-2.18775868 8.91367340 2.45929861 40 15 34621 9.50200000 2991595980 2991595980 15.00000000
-0.52354372 2.14116502 -0.59062505 4 0 34626 2.28200000 2991596001 2991596001 -15.00000000
-0.61610842 2.52354956 -0.59971952 3 2 34628 2.66600000 2991596005 2991596005 -13.00000000
-0.73378825 3.00783873 -0.60181159 4 4 34629 3.15400000 2991596010 2991596010 -11.00000000
-0.91257870 3.74638987 -0.61072016 2 6 34631 3.90400000 2991596014 2991596014 -9.00000000
-1.21177745 4.98224688 -0.62957704 2 8 34633 5.16600000 2991596019 2991596019 -7.00000000
-2.61167192 10.75428581 2.15118051 43 11 34635 11.27400000 2991596026 2991596026 11.00000000
-2.51516199 10.37266731 2.46411395 57 13 34637 10.95400000 2991596031 2991596031 13.00000000
-2.15766215 8.90510464 2.45515752 40 15 34638 9.48600000 2991596035 2991596035 15.00000000
-0.51425731 2.13546705 -0.58855450 4 0 34646 2.27400000 2991596056 2991596056 -15.00000000
-0.60547346 2.51810598 -0.59791988 3 2 34648 2.65800000 2991596060 2991596060 -13.00000000
-0.72511899 3.01801753 -0.60333806 4 4 34649 3.16200000 2991596065 2991596065 -11.00000000
-0.90318227 3.76491952 -0.61322308 2 6 34651 3.92000000 2991596070 2991596070 -9.00000000
-1.18790519 4.95941973 -0.62616467 2 8 34653 5.13800000 2991596074 2991596074 -7.00000000
-2.57091999 10.74997139 2.14850926 40 11 34655 11.26000000 2991596081 2991596081 11.00000000
-2.47622371 10.37001038 2.46141434 56 13 34657 10.94200000 2991596086 2991596086 13.00000000
-2.12500882 8.91295338 2.45515752 40 15 34659 9.48600000 2991596090 2991596090 15.00000000
-0.50680000 2.13724899 -0.58855450 4 0 34666 2.27400000 2991596111 2991596111 -15.00000000
-0.59578204 2.51641154 -0.59702009 3 2 34668 2.65400000 2991596116 2991596116 -13.00000000
-0.71638769 3.02817225 -0.60486454 2 4 34669 3.17000000 2991596120 2991596120 -11.00000000
-0.88640195 3.75266957 -0.61072016 2 6 34671 3.90400000 2991596125 2991596125 -9.00000000
-1.17240906 4.97126436 -0.62713963 2 8 34673 5.14600000 2991596130 2991596130 -7.00000000
-2.53113008 10.74932480 2.14660120 40 11 34675 11.25000000 2991596136 2991596136 11.00000000
-2.43644261 10.36341476 2.45781517 56 13 34677 10.92600000 2991596141 2991596141 13.00000000
-2.09632444 8.92371273 2.45619273 40 15 34678 9.49000000 2991596146 2991596146 15.00000000
-0.50328904 2.15593648 -0.59321326 4 0 34686 2.29200000 2991596166 2991596166 -15.00000000
-0.58699447 2.51847577 -0.59702009 3 2 34688 2.65400000 2991596171 2991596171 -13.00000000
-0.70670366 3.03447866 -0.60562778 2 4 34689 3.17400000 2991596176 2991596176 -11.00000000
-0.87598163 3.76728511 -0.61259735 2 6 34691 3.91600000 2991596180 2991596180 -9.00000000
-1.15774238 4.98692846 -0.62860209 2 8 34693 5.15800000 2991596185 2991596185 -7.00000000
-2.49359250 10.75809479 2.14660120 40 11 34695 11.25000000 2991596192 2991596192 11.00000000
-2.39498019 10.34907341 2.45241642 55 13 34697 10.90200000 2991596196 2991596196 13.00000000
-2.06273341 8.92757130 2.45515752 40 15 34699 9.48600000 2991596201 2991596201 15.00000000
-0.49279010 2.14646935 -0.59010744 4 0 34707 2.28000000 2991596222 2991596222 -15.00000000
-0.57863063 2.52440929 -0.59791988 3 2 34709 2.65800000 2991596226 2991596226 -13.00000000
-0.68856424 3.00642920 -0.59952188 2 4 34710 3.14200000 2991596231 2991596231 -11.00000000
-0.86436957 3.78009868 -0.61416173 2 6 34712 3.92600000 2991596236 2991596236 -9.00000000
-1.12973654 4.94856167 -0.62323982 6 8 34714 5.11400000 2991596240 2991596240 -7.00000000
-2.45501781 10.77099037 2.14736438 37 11 34716 11.25400000 2991596247 2991596247 11.00000000
-2.35962725 10.36918354 2.45511580 55 13 34718 10.91400000 2991596252 2991596252 13.00000000
-2.02984452 8.92718220 2.45308685 38 15 34719 9.47800000 2991596256 2991596256 15.00000000
-0.48572025 2.15006089 -0.59062505 4 0 34727 2.28200000 2991596277 2991596277 -15.00000000
-0.57153028 2.53401780 -0.59971952 3 2 34729 2.66600000 2991596282 2991596282 -13.00000000
-0.67892885 3.01264501 -0.60028511 2 4 34730 3.14600000 2991596286 2991596286 -11.00000000
-0.85203654 3.78694725 -0.61478746 2 6 34732 3.93000000 2991596291 2991596291 -9.00000000
-1.12202740 4.99508524 -0.62860209 2 8 34734 5.15800000 2991596295 2991596295 -7.00000000
-2.41439795 10.76608467 2.14469314 40 11 34736 11.24000000 2991596302 2991596302 11.00000000
-2.32299185 10.37545490 2.45466590 54 13 34738 10.91200000 2991596307 2991596307 13.00000000
-1.99458265 8.92325020 2.44998097 40 15 34740 9.46600000 2991596312 2991596312 15.00000000
-0.47980279 2.15534759 -0.59166032 4 0 34745 2.28600000 2991596332 2991596332 -15.00000000
-0.56187552 2.52819133 -0.59791988 3 2 34747 2.65800000 2991596337 2991596337 -13.00000000
-0.67456818 3.03776169 -0.60486454 2 4 34748 3.17000000 2991596342 2991596342 -11.00000000
-0.84013528 3.78960538 -0.61478746 2 6 34750 3.93000000 2991596346 2991596346 -9.00000000
-1.11662471 5.04510212 -0.63445181 2 8 34752 5.20600000 2991596351 2991596351 -7.00000000
-2.37886906 10.76594830 2.14316654 40 11 34754 11.23200000 2991596358 2991596358 11.00000000
-2.29038501 10.38270187 2.45466590 53 13 34756 10.91200000 2991596362 2991596362 13.00000000
-1.96726644 8.92535591 2.44894576 40 15 34757 9.46200000 2991596367 2991596367 15.00000000
-0.47310266 2.16078353 -0.59269559 4 0 34765 2.29000000 2991596388 2991596388 -15.00000000
-0.55138248 2.52252221 -0.59612030 3 2 34767 2.65000000 2991596392 2991596392 -13.00000000
-0.66312248 3.03626180 -0.60410130 2 4 34768 3.16600000 2991596397 2991596397 -11.00000000
-0.82437706 3.78093481 -0.61291021 2 6 34770 3.91800000 2991596401 2991596401 -9.00000000
-1.08971870 5.00629616 -0.62908953 2 8 34772 5.16200000 2991596406 2991596406 -7.00000000
-2.33752227 10.75691986 2.13973212 34 11 34774 11.21400000 2991596413 2991596413 11.00000000
-2.25247622 10.38301563 2.45286632 53 13 34776 10.90400000 2991596418 2991596418 13.00000000
-1.93609917 8.93216801 2.44894576 38 15 34777 9.46200000 2991596422 2991596422 15.00000000
-0.46474406 2.15864468 -0.59166032 4 0 34785 2.28600000 2991596443 2991596443 -15.00000000
-0.54544032 2.53776813 -0.59926963 3 2 34787 2.66400000 2991596448 2991596448 -13.00000000
-0.65251988 3.03855801 -0.60410130 2 4 34788 3.16600000 2991596452 2991596452 -11.00000000
-0.81779933 3.81469321 -0.61791611 2 6 34790 3.95000000 2991596457 2991596457 -9.00000000
-1.07888377 5.04112768 -0.63298935 2 8 34792 5.19400000 2991596461 2991596461 -7.00000000
-2.30160022 10.77269363 2.14125848 34 11 34794 11.22200000 2991596468 2991596468 11.00000000
-2.21215391 10.37175655 2.44836736 52 13 34796 10.88400000 2991596473 2991596473 13.00000000
-1.90531099 8.94076157 2.44946337 40 15 34797 9.46400000 2991596477 2991596477 15.00000000
-0.45640612 2.15647388 -0.59062505 4 0 34805 2.28200000 2991596498 2991596498 -15.00000000
-0.53778708 2.54537654 -0.60061932 3 2 34807 2.67000000 2991596503 2991596503 -13.00000000
-0.64109838 3.03697538 -0.60333806 2 4 34808 3.16200000 2991596507 2991596507 -11.00000000
-0.80366397 3.81365871 -0.61729038 2 6 34810 3.94600000 2991596512 2991596512 -9.00000000
-1.06454957 5.06040382 -0.63493925 2 8 34812 5.21000000 2991596517 2991596517 -7.00000000
-2.26236844 10.77297688 2.13973212 37 11 34814 11.21400000 2991596524 2991596524 11.00000000
-2.17633605 10.38132191 2.44881725 51 13 34816 10.88600000 2991596528 2991596528 13.00000000
-1.87134147 8.94201183 2.44791055 38 15 34818 9.45800000 2991596533 2991596533 15.00000000
-0.44769564 2.15237975 -0.58907217 4 0 34825 2.27600000 2991596554 2991596554 -15.00000000
-0.52969110 2.55105424 -0.60151911 3 2 34827 2.67400000 2991596558 2991596558 -13.00000000
-0.63129103 3.04303956 -0.60410130 2 4 34828 3.16600000 2991596563 2991596563 -11.00000000
-0.78794342 3.80483484 -0.61541319 2 6 34830 3.93400000 2991596567 2991596567 -9.00000000
-1.04044902 5.03298521 -0.63103944 2 8 34832 5.17800000 2991596572 2991596572 -7.00000000
-2.22355962 10.77504063 2.13858724 37 11 34834 11.20800000 2991596579 2991596579 11.00000000
-2.14047861 10.39076424 2.44926715 51 13 34836 10.88800000 2991596583 2991596583 13.00000000
-1.83973122 8.93870735 2.44532228 38 15 34837 9.44800000 2991596588 2991596588 15.00000000
-0.44134009 2.15960765 -0.59062505 4 0 34845 2.28200000 2991596609 2991596609 -15.00000000
-0.51883548 2.54334068 -0.59926963 3 2 34847 2.66400000 2991596613 2991596613 -13.00000000
-0.62301749 3.05676675 -0.60639101 2 4 34848 3.17800000 2991596618 2991596618 -11.00000000
-0.77465725 3.80756211 -0.61541319 2 6 34850 3.93400000 2991596623 2991596623 -9.00000000
-1.02524483 5.04825878 -0.63250190 2 8 34852 5.19000000 2991596627 2991596627 -7.00000000
-2.18281364 10.76734352 2.13553429 40 11 34854 11.19200000 2991596634 2991596634 11.00000000
-2.10574102 10.40581322 2.45106673 55 13 34856 10.89600000 2991596639 2991596639 13.00000000
-1.80736959 8.93939400 2.44376945 36 15 34857 9.44200000 2991596643 2991596643 15.00000000
-0.43493721 2.16484737 -0.59166032 4 0 34864 2.28600000 2991596664 2991596664 -15.00000000
-0.51001543 2.54313660 -0.59881973 3 2 34866 2.66200000 2991596669 2991596669 -13.00000000
-0.61442024 3.06651592 -0.60791749 2 4 34867 3.18600000 2991596673 2991596673 -11.00000000
-0.76357627 3.81785798 -0.61666465 2 6 34869 3.94200000 2991596678 2991596678 -9.00000000
-1.01083040 5.06331062 -0.63396430 2 8 34871 5.20200000 2991596682 2991596682 -7.00000000
-2.15016532 10.78992558 2.13858724 43 11 34873 11.20800000 2991596689 2991596689 11.00000000
-2.06894135 10.40127087 2.44836736 54 13 34875 10.88400000 2991596694 2991596694 13.00000000
-1.78035140 8.95860195 2.44739294 40 15 34876 9.45600000 2991596699 2991596699 15.00000000
-0.42737782 2.16635227 -0.59166032 4 0 34884 2.28600000 2991596719 2991596719 -15.00000000
-0.50038207 2.54107714 -0.59791988 3 2 34886 2.65800000 2991596724 2991596724 -13.00000000
-0.60068053 3.05323148 -0.60486454 2 4 34887 3.17000000 2991596729 2991596729 -11.00000000
-0.74796098 3.80887008 -0.61478746 2 6 34889 3.93000000 2991596733 2991596733 -9.00000000
-0.99314994 5.06680822 -0.63396430 2 8 34891 5.20200000 2991596738 2991596738 -7.00000000
-2.11098051 10.78965855 2.13706064 43 11 34893 11.20000000 2991596745 2991596745 11.00000000
-2.03038049 10.39695358 2.44566774 51 13 34895 10.87200000 2991596749 2991596749 13.00000000
-1.74898291 8.97265244 2.44946337 38 15 34897 9.46400000 2991596754 2991596754 15.00000000
-0.41981325 2.16783094 -0.59166032 4 0 34904 2.28600000 2991596775 2991596775 -15.00000000
-0.49150902 2.54280853 -0.59791988 3 2 34906 2.65800000 2991596779 2991596779 -13.00000000
