# .PCD v0.7 - Point Cloud Data file format
VERSION 0.7
FIELDS x y z intensity laser_id azimuth distance_m adjustedtime timestamp vertical_angle
SIZE 4 4 4 1 1 2 8 8 4 8
TYPE F F F U U U F U U F
COUNT 1 1 1 1 1 1 1 1 1 1
WIDTH 536
HEIGHT 1
VIEWPOINT 0 0 0 1 0 0 0
POINTS 536
DATA ascii
8.12417889 0.88974231 0.14265597 21 1 8375 8.17400000 1893225723 1893225723 1.00000000
2.61714983 0.28616226 -0.60781777 6 2 8376 2.70200000 1893225725 1893225725 -13.00000000
8.15811539 0.89201802 0.43009689 26 3 8376 8.21800000 1893225727 1893225727 3.00000000
3.14607573 0.34344003 -0.61516821 5 4 8377 3.22400000 1893225730 1893225730 -11.00000000
8.13655376 0.88678640 0.71607161 83 5 8378 8.21600000 1893225732 1893225732 5.00000000
3.97862911 0.43292004 -0.63387245 6 6 8379 4.05200000 1893225734 1893225734 -9.00000000
8.14850521 0.88521087 1.00639701 99 7 8380 8.25800000 1893225737 1893225737 7.00000000
5.29889822 0.57470882 -0.65443838 6 8 8381 5.37000000 1893225739 1893225739 -7.00000000
8.05397701 0.87209743 -0.70875049 17 10 8382 8.13200000 1893225744 1893225744 -5.00000000
8.13750935 0.87826878 -0.42894551 17 12 8384 8.19600000 1893225748 1893225748 -3.00000000
8.13978958 0.87564057 -0.14290030 14 14 8386 8.18800000 1893225753 1893225753 -1.00000000
8.18263245 0.87880468 2.20513821 47 15 8387 8.52000000 1893225755 1893225755 15.00000000
2.22650409 0.23637263 -0.59994256 4 0 8394 2.31800000 1893225776 1893225776 -15.00000000
8.13121223 0.86179972 0.14272578 18 1 8395 8.17800000 1893225778 1893225778 1.00000000
2.61425686 0.27661484 -0.60691792 6 2 8396 2.69800000 1893225780 1893225780 -13.00000000
8.14529037 0.86185420 0.42925951 23 3 8396 8.20200000 1893225783 1893225783 3.00000000
3.15311265 0.33307478 -0.61631304 5 4 8397 3.23000000 1893225785 1893225785 -11.00000000
8.13167381 0.85754335 0.71537435 83 5 8398 8.20800000 1893225787 1893225787 5.00000000
3.97225809 0.41820210 -0.63262099 6 6 8399 4.04400000 1893225790 1893225790 -9.00000000
8.14364815 0.85593194 1.00542212 99 7 8400 8.25000000 1893225792 1893225792 7.00000000
5.27718067 0.55372286 -0.65151352 6 8 8401 5.34600000 1893225794 1893225794 -7.00000000
8.05499077 0.84377092 -0.70857620 17 10 8402 8.13000000 1893225799 1893225799 -5.00000000
8.12860680 0.84861392 -0.42831746 17 12 8404 8.18400000 1893225803 1893225803 -3.00000000
8.13285160 0.84618735 -0.14272578 14 14 8406 8.17800000 1893225808 1893225808 -1.00000000
8.18372822 0.85003704 2.20462060 56 15 8407 8.51800000 1893225810 1893225810 15.00000000
2.23500276 0.22938819 -0.60201311 4 0 8414 2.32600000 1893225831 1893225831 -15.00000000
8.13615990 0.83361506 0.14276068 15 1 8415 8.18000000 1893225833 1893225833 1.00000000
2.60939050 0.26689285 -0.60556823 5 2 8416 2.69200000 1893225836 1893225836 -13.00000000
8.12639332 0.83118111 0.42810813 21 3 8416 8.18000000 1893225838 1893225838 3.00000000
3.14253759 0.32086980 -0.61402333 5 4 8417 3.21800000 1893225840 1893225840 -11.00000000
8.14056396 0.82975936 0.71589726 79 5 8418 8.21400000 1893225843 1893225843 5.00000000
3.98351979 0.40533361 -0.63418531 9 6 8419 4.05400000 1893225845 1893225845 -9.00000000
8.14066124 0.82689828 1.00469089 97 7 8420 8.24400000 1893225847 1893225847 7.00000000
5.28698158 0.53609973 -0.65248847 6 8 8421 5.35400000 1893225850 1893225850 -7.00000000
8.08960247 0.81885904 -0.71136516 17 10 8422 8.16200000 1893225854 1893225854 -5.00000000
8.13152027 0.82023466 -0.42831746 17 12 8424 8.18400000 1893225859 1893225859 -3.00000000
8.13177681 0.81739324 -0.14265597 14 14 8426 8.17400000 1893225863 1893225863 -1.00000000
8.18664551 0.82146531 2.20462060 58 15 8427 8.51800000 1893225866 1893225866 15.00000000
2.22425532 0.22044200 -0.59890729 4 0 8434 2.31400000 1893225886 1893225886 -15.00000000
8.13305092 0.80461890 0.14265597 12 1 8435 8.17400000 1893225889 1893225889 1.00000000
2.62194228 0.25893188 -0.60826766 6 2 8436 2.70400000 1893225891 1893225891 -13.00000000
8.13918304 0.80379111 0.42863148 21 3 8436 8.19000000 1893225893 1893225893 3.00000000
3.14754605 0.31028357 -0.61478657 5 4 8437 3.22200000 1893225896 1893225896 -11.00000000
8.12953091 0.79997265 0.71467710 83 5 8438 8.20000000 1893225898 1893225898 5.00000000
3.98097849 0.39103985 -0.63355958 9 6 8439 4.05000000 1893225900 1893225900 -9.00000000
8.13954735 0.79808956 1.00420344 97 7 8440 8.24000000 1893225902 1893225902 7.00000000
5.28882027 0.51764143 -0.65248847 6 8 8441 5.35400000 1893225905 1893225905 -7.00000000
6.62701321 0.64744890 -0.58254898 8 10 8442 6.68400000 1893225909 1893225909 -5.00000000
8.13433361 0.79184532 -0.42831746 17 12 8444 8.18400000 1893225914 1893225914 -3.00000000
8.12064838 0.78765172 -0.14241163 14 14 8446 8.16000000 1893225919 1893225919 -1.00000000
8.18932438 0.79431289 2.20462060 56 15 8446 8.51800000 1893225921 1893225921 15.00000000
2.23270345 0.21341182 -0.60097784 4 0 8454 2.32200000 1893225942 1893225942 -15.00000000
8.12386608 0.77508479 0.14244655 12 1 8455 8.16200000 1893225944 1893225944 1.00000000
2.63058996 0.25051698 -0.61006725 5 2 8456 2.71200000 1893225946 1893225946 -13.00000000
8.13796234 0.77499646 0.42842212 15 3 8456 8.18600000 1893225949 1893225949 3.00000000
3.14860988 0.29929468 -0.61478657 5 4 8457 3.22200000 1893225951 1893225951 -11.00000000
8.12830734 0.77121401 0.71432847 83 5 8458 8.19600000 1893225953 1893225953 5.00000000
3.97838616 0.37676880 -0.63293386 9 6 8459 4.04600000 1893225955 1893225955 -9.00000000
8.15018845 0.77041966 1.00517833 97 7 8460 8.24800000 1893225958 1893225958 7.00000000
5.29454803 0.49954981 -0.65297592 6 8 8461 5.35800000 1893225960 1893225960 -7.00000000
6.60146236 0.62169707 -0.58010864 16 10 8462 6.65600000 1893225965 1893225965 -5.00000000
8.13307095 0.76307327 -0.42810813 17 12 8464 8.18000000 1893225969 1893225969 -3.00000000
8.11936569 0.75892836 -0.14234182 14 14 8466 8.15600000 1893225974 1893225974 -1.00000000
8.18064022 0.76321548 2.20151472 49 15 8467 8.50600000 1893225976 1893225976 15.00000000
2.22958755 0.20526274 -0.59994256 4 0 8474 2.31800000 1893225997 1893225997 -15.00000000
8.10860062 0.74507570 0.14213240 15 1 8475 8.14400000 1893225999 1893225999 1.00000000
2.61980486 0.24026515 -0.60736787 6 2 8476 2.70000000 1893226002 1893226002 -13.00000000
8.15268230 0.74625647 0.42905018 15 3 8477 8.19800000 1893226004 1893226004 3.00000000
3.14768028 0.28812319 -0.61440498 4 4 8477 3.22000000 1893226006 1893226006 -11.00000000
8.13094997 0.74283624 0.71432847 83 5 8478 8.19600000 1893226008 1893226008 5.00000000
3.97180820 0.36216182 -0.63168240 9 6 8479 4.03800000 1893226011 1893226011 -9.00000000
8.14492035 0.74124581 1.00420344 97 7 8480 8.24000000 1893226013 1893226013 7.00000000
5.28439760 0.47998792 -0.65151352 6 8 8481 5.34600000 1893226015 1893226015 -7.00000000
6.61549759 0.59972912 -0.58115447 16 10 8482 6.66800000 1893226020 1893226020 -5.00000000
8.13568497 0.73467886 -0.42810813 17 12 8484 8.18000000 1893226025 1893226025 -3.00000000
8.12794018 0.73111928 -0.14244655 16 14 8486 8.16200000 1893226029 1893226029 -1.00000000
8.17927742 0.73573714 2.20047951 51 15 8486 8.50200000 1893226032 1893226032 15.00000000
2.23029041 0.19747877 -0.59994256 4 0 8494 2.31800000 1893226052 1893226052 -15.00000000
8.12310314 0.71782297 0.14234182 21 1 8495 8.15600000 1893226055 1893226055 1.00000000
2.61286259 0.23043406 -0.60556823 6 2 8496 2.69200000 1893226057 1893226057 -13.00000000
8.13932037 0.71639282 0.42821279 15 3 8497 8.18200000 1893226059 1893226059 3.00000000
3.16431236 0.27851105 -0.61745793 4 4 8497 3.23600000 1893226061 1893226061 -11.00000000
8.12753868 0.71392637 0.71380556 76 5 8498 8.19000000 1893226064 1893226064 5.00000000
3.97698379 0.34864044 -0.63230813 9 6 8499 4.04200000 1893226066 1893226066 -9.00000000
8.13757038 0.71194518 1.00298464 99 7 8500 8.23000000 1893226068 1893226068 7.00000000
5.27813053 0.46084833 -0.65053856 6 8 8501 5.33800000 1893226071 1893226071 -7.00000000
6.61755085 0.57663310 -0.58115447 12 10 8502 6.66800000 1893226075 1893226075 -5.00000000
8.12427139 0.70506680 -0.42737541 17 12 8504 8.16600000 1893226080 1893226080 -3.00000000
8.12645817 0.70239866 -0.14237674 14 14 8506 8.15800000 1893226085 1893226085 -1.00000000
8.18191910 0.70575368 2.20047951 49 15 8507 8.50200000 1893226087 1893226087 15.00000000
2.23478270 0.19040978 -0.60097784 4 0 8513 2.32200000 1893226108 1893226108 -15.00000000
8.12543869 0.69088185 0.14234182 21 1 8514 8.15600000 1893226110 1893226110 1.00000000
2.61749601 0.22209775 -0.60646802 7 2 8515 2.69600000 1893226112 1893226112 -13.00000000
8.12971020 0.68838686 0.42758477 21 3 8516 8.17000000 1893226114 1893226114 3.00000000
3.14565611 0.26635981 -0.61364174 4 4 8516 3.21600000 1893226117 1893226117 -11.00000000
8.13780308 0.68764162 0.71450275 79 5 8517 8.19800000 1893226119 1893226119 5.00000000
3.97811818 0.33545038 -0.63230813 9 6 8518 4.04200000 1893226121 1893226121 -9.00000000
8.13790894 0.68478966 1.00274098 97 7 8519 8.22800000 1893226124 1893226124 7.00000000
5.26380491 0.44201404 -0.64858866 8 8 8520 5.32200000 1893226126 1893226126 -7.00000000
6.62935352 0.55551720 -0.58202606 16 10 8521 6.67800000 1893226131 1893226131 -5.00000000
8.13054562 0.67845404 -0.42758477 17 12 8523 8.17000000 1893226135 1893226135 -3.00000000
8.12674999 0.67528087 -0.14234182 14 14 8525 8.15600000 1893226140 1893226140 -1.00000000
8.18409634 0.68004596 2.20047951 51 15 8525 8.50200000 1893226142 1893226142 15.00000000
2.22773194 0.18197864 -0.59890729 4 0 8533 2.31400000 1893226163 1893226163 -15.00000000
8.14374542 0.66381425 0.14262107 18 1 8534 8.17200000 1893226165 1893226165 1.00000000
2.62213993 0.21327560 -0.60736787 7 2 8535 2.70000000 1893226167 1893226167 -13.00000000
8.14201736 0.66081250 0.42810813 21 3 8536 8.18000000 1893226170 1893226170 3.00000000
3.14656663 0.25537780 -0.61364174 4 4 8536 3.21600000 1893226172 1893226172 -11.00000000
8.13022423 0.65842706 0.71363121 83 5 8537 8.18800000 1893226174 1893226174 5.00000000
3.97926474 0.32156211 -0.63230813 9 6 8538 4.04200000 1893226177 1893226177 -9.00000000
8.14618587 0.65685755 1.00347221 99 7 8539 8.23400000 1893226179 1893226179 7.00000000
5.27520895 0.42443323 -0.64980733 8 8 8540 5.33200000 1893226181 1893226181 -7.00000000
6.62330818 0.53173530 -0.58132881 44 10 8541 6.67000000 1893226186 1893226186 -5.00000000
8.13286400 0.65006900 -0.42758477 17 12 8543 8.17000000 1893226190 1893226190 -3.00000000
8.11311054 0.64564002 -0.14206259 12 14 8545 8.14000000 1893226195 1893226195 -1.00000000
8.17690468 0.64928061 2.19789124 49 15 8546 8.49200000 1893226197 1893226197 15.00000000
2.22450161 0.17390017 -0.59787202 4 0 8553 2.31000000 1893226218 1893226218 -15.00000000
8.12607670 0.63382822 0.14227201 15 1 8554 8.15200000 1893226220 1893226220 1.00000000
2.62869692 0.20457493 -0.60871756 6 2 8555 2.70600000 1893226223 1893226223 -13.00000000
8.15024853 0.63285136 0.42842212 23 3 8556 8.18600000 1893226225 1893226225 3.00000000
3.15526843 0.24500063 -0.61516821 4 4 8556 3.22400000 1893226227 1893226227 -11.00000000
8.11856842 0.62896597 0.71241105 79 5 8557 8.17400000 1893226230 1893226230 5.00000000
3.98233247 0.30782214 -0.63262099 9 6 8558 4.04400000 1893226232 1893226232 -9.00000000
8.14249134 0.62796009 1.00274098 97 7 8559 8.22800000 1893226234 1893226234 7.00000000
5.27665854 0.40601674 -0.64980733 8 8 8560 5.33200000 1893226237 1893226237 -7.00000000
6.61717796 0.50800234 -0.58063155 68 10 8561 6.66200000 1893226241 1893226241 -5.00000000
8.13508415 0.62167603 -0.42758477 17 12 8563 8.17000000 1893226246 1893226246 -3.00000000
8.11332130 0.61716437 -0.14202769 14 14 8565 8.13800000 1893226250 1893226250 -1.00000000
8.17130756 0.62157530 2.19582081 47 15 8565 8.48400000 1893226253 1893226253 15.00000000
2.23280120 0.16670950 -0.59994256 4 0 8573 2.31800000 1893226273 1893226273 -15.00000000
8.11627483 0.60456783 0.14206259 15 1 8574 8.14000000 1893226276 1893226276 1.00000000
2.61967826 0.19467571 -0.60646802 6 2 8575 2.69600000 1893226278 1893226278 -13.00000000
8.14842415 0.60410249 0.42821279 21 3 8576 8.18200000 1893226280 1893226280 3.00000000
3.15610433 0.23398519 -0.61516821 4 4 8576 3.22400000 1893226283 1893226283 -11.00000000
8.12270069 0.60077000 0.71258533 76 5 8577 8.17600000 1893226285 1893226285 5.00000000
3.96762252 0.29275647 -0.63011801 6 6 8578 4.02800000 1893226287 1893226287 -9.00000000
8.14067364 0.59924221 1.00225353 95 7 8579 8.22400000 1893226290 1893226290 7.00000000
5.28596258 0.38817683 -0.65078229 9 8 8580 5.34000000 1893226292 1893226292 -7.00000000
6.61692381 0.48475543 -0.58045727 72 10 8581 6.66000000 1893226296 1893226296 -5.00000000
8.12923622 0.59269458 -0.42716607 17 12 8583 8.16200000 1893226301 1893226301 -3.00000000
8.12938690 0.58985287 -0.14227201 16 14 8585 8.15200000 1893226306 1893226306 -1.00000000
8.17931175 0.59204018 2.19737363 51 15 8586 8.49000000 1893226308 1893226308 15.00000000
2.23915029 0.15932590 -0.60149544 4 0 8593 2.32400000 1893226329 1893226329 -15.00000000
8.11634064 0.57609147 0.14202769 18 1 8594 8.13800000 1893226331 1893226331 1.00000000
2.62228560 0.18566778 -0.60691792 6 2 8595 2.69800000 1893226333 1893226333 -13.00000000
8.14450645 0.57523340 0.42789876 21 3 8596 8.17600000 1893226336 1893226336 3.00000000
3.15298510 0.22269027 -0.61440498 4 4 8596 3.22000000 1893226338 1893226338 -11.00000000
8.12872410 0.57269287 0.71293396 83 5 8597 8.18000000 1893226340 1893226340 5.00000000
3.97650242 0.27945903 -0.63136947 6 6 8598 4.03600000 1893226343 1893226343 -9.00000000
8.13083458 0.56998938 1.00079107 95 7 8599 8.21200000 1893226345 1893226345 7.00000000
5.28134489 0.36930761 -0.65005106 8 8 8600 5.33400000 1893226347 1893226347 -7.00000000
6.60863781 0.46096194 -0.57958567 28 10 8601 6.65000000 1893226352 1893226352 -5.00000000
8.10933876 0.56279355 -0.42601469 17 12 8603 8.14000000 1893226356 1893226356 -3.00000000
8.12740707 0.56119692 -0.14220221 16 14 8605 8.14800000 1893226361 1893226361 -1.00000000
8.18315697 0.56504643 2.19789124 49 15 8605 8.49200000 1893226363 1893226363 15.00000000
2.24354768 0.15176961 -0.60253072 4 0 8613 2.32800000 1893226384 1893226384 -15.00000000
8.12428761 0.54816049 0.14213240 21 1 8614 8.14400000 1893226386 1893226386 1.00000000
2.61319613 0.17585893 -0.60466844 5 2 8615 2.68800000 1893226389 1893226389 -13.00000000
8.12454414 0.54532892 0.42674738 21 3 8616 8.15400000 1893226391 1893226391 3.00000000
3.14982557 0.21141998 -0.61364174 4 4 8616 3.21600000 1893226393 1893226393 -11.00000000
8.13663673 0.54471409 0.71345693 90 5 8617 8.18600000 1893226396 1893226396 5.00000000
3.98533750 0.26610315 -0.63262099 6 6 8618 4.04400000 1893226398 1893226398 -9.00000000
8.13673592 0.54186785 1.00127852 92 7 8619 8.21600000 1893226400 1893226400 7.00000000
5.27467871 0.35034376 -0.64907610 8 8 8620 5.32600000 1893226402 1893226402 -7.00000000
8.21339321 0.54409313 1.30372488 7 9 8621 8.33400000 1893226405 1893226405 9.00000000
6.62014675 0.43854916 -0.58045727 20 10 8621 6.66000000 1893226407 1893226407 -5.00000000
8.12121868 0.53513986 -0.42653805 17 12 8623 8.15000000 1893226412 1893226412 -3.00000000
8.12133408 0.53230041 -0.14206259 16 14 8625 8.14000000 1893226416 1893226416 -1.00000000
8.19095612 0.53542793 2.19944429 56 15 8626 8.49800000 1893226419 1893226419 15.00000000
2.23249650 0.14319530 -0.59942490 4 0 8633 2.31600000 1893226439 1893226439 -15.00000000
8.13014317 0.52005339 0.14220221 21 1 8634 8.14800000 1893226442 1893226442 1.00000000
2.62351799 0.16735640 -0.60691792 6 2 8635 2.69800000 1893226444 1893226444 -13.00000000
8.14035130 0.51785326 0.42748010 23 3 8636 8.16800000 1893226446 1893226446 3.00000000
3.14662576 0.20017447 -0.61287850 4 4 8636 3.21200000 1893226449 1893226449 -11.00000000
8.12655830 0.51555175 0.71241105 90 5 8637 8.17400000 1893226451 1893226451 5.00000000
3.96652794 0.25094286 -0.62949228 6 6 8638 4.02400000 1893226453 1893226453 -9.00000000
8.14055920 0.51358700 1.00152230 100 7 8639 8.21800000 1893226455 1893226455 7.00000000
5.28379440 0.33242816 -0.65005106 8 8 8640 5.33400000 1893226458 1893226458 -7.00000000
6.61567211 0.41506359 -0.57993430 16 10 8641 6.65400000 1893226462 1893226462 -5.00000000
8.12503052 0.50691265 -0.42664272 17 12 8643 8.15200000 1893226467 1893226467 -3.00000000
8.10917187 0.50308168 -0.14181826 16 14 8645 8.12600000 1893226472 1893226472 -1.00000000
8.18111801 0.50754505 2.19633842 49 15 8645 8.48600000 1893226474 1893226474 15.00000000
2.22912621 0.13516770 -0.59838963 4 0 8653 2.31200000 1893226495 1893226495 -15.00000000
8.12192822 0.49106729 0.14202769 18 1 8654 8.13800000 1893226497 1893226497 1.00000000
2.62408614 0.15819760 -0.60691792 6 2 8655 2.69800000 1893226499 1893226499 -13.00000000
8.13214111 0.48883575 0.42695674 23 3 8656 8.15800000 1893226502 1893226502 3.00000000
3.15514421 0.18966068 -0.61440498 4 4 8656 3.22000000 1893226504 1893226504 -11.00000000
8.11438656 0.48634723 0.71119088 83 5 8657 8.16000000 1893226506 1893226506 5.00000000
3.97526717 0.23756693 -0.63074374 6 6 8658 4.03200000 1893226508 1893226508 -9.00000000
8.14428425 0.48528612 1.00176597 95 7 8659 8.22000000 1893226511 1893226511 7.00000000
5.29284859 0.31445315 -0.65102601 9 8 8660 5.34200000 1893226513 1893226513 -7.00000000
6.62304735 0.39232150 -0.58045727 40 10 8661 6.66000000 1893226518 1893226518 -5.00000000
8.13472557 0.47901753 -0.42706141 17 12 8663 8.16000000 1893226522 1893226522 -3.00000000
8.10888290 0.47465545 -0.14178336 16 14 8665 8.12400000 1893226527 1893226527 -1.00000000
8.17512608 0.47853300 2.19426775 51 15 8665 8.47800000 1893226529 1893226529 15.00000000
2.22765565 0.12727559 -0.59787202 4 0 8673 2.31000000 1893226550 1893226550 -15.00000000
8.11760426 0.46237233 0.14192297 21 1 8674 8.13200000 1893226552 1893226552 1.00000000
2.61683989 0.14859495 -0.60511833 6 2 8675 2.69000000 1893226555 1893226555 -13.00000000
8.14576149 0.46112362 0.42758477 18 3 8676 8.17000000 1893226557 1893226557 3.00000000
3.15382695 0.17853506 -0.61402333 5 4 8676 3.21800000 1893226559 1893226559 -11.00000000
8.12001324 0.45824429 0.71153951 83 5 8677 8.16400000 1893226561 1893226561 5.00000000
3.96621084 0.22313443 -0.62917942 9 6 8678 4.02200000 1893226564 1893226564 -9.00000000
8.13403606 0.45618734 1.00030363 92 7 8679 8.20800000 1893226566 1893226566 7.00000000
5.28400421 0.29542169 -0.64980733 8 8 8680 5.33200000 1893226568 1893226568 -7.00000000
8.22258472 0.45827428 1.30435061 7 9 8681 8.33800000 1893226571 1893226571 9.00000000
6.62636566 0.36931121 -0.58063155 56 10 8681 6.66200000 1893226573 1893226573 -5.00000000
8.12039471 0.44973555 -0.42622402 17 12 8683 8.14400000 1893226578 1893226578 -3.00000000
8.23063660 0.45440024 1.90308595 4 13 8684 8.46000000 1893226580 1893226580 13.00000000
8.12246990 0.44700658 -0.14199278 18 14 8685 8.13600000 1893226582 1893226582 -1.00000000
8.17481709 0.44988742 2.19375014 47 15 8685 8.47600000 1893226584 1893226584 15.00000000
2.23580265 0.11991268 -0.59994256 4 0 8693 2.31800000 1893226605 1893226605 -15.00000000
8.11717129 0.43392703 0.14188807 18 1 8694 8.13000000 1893226608 1893226608 1.00000000
2.61539674 0.13935587 -0.60466844 6 2 8695 2.68800000 1893226610 1893226610 -13.00000000
8.13136673 0.43183941 0.42674738 13 3 8696 8.15400000 1893226612 1893226612 3.00000000
3.16031241 0.16783741 -0.61516821 4 4 8696 3.22400000 1893226614 1893226614 -11.00000000
8.12355328 0.43000266 0.71171379 76 5 8697 8.16600000 1893226617 1893226617 5.00000000
3.96696544 0.20928842 -0.62917942 9 6 8698 4.02200000 1893226619 1893226619 -9.00000000
8.13161469 0.42758301 0.99981612 95 7 8699 8.20400000 1893226621 1893226621 7.00000000
5.28302097 0.27687138 -0.64956361 6 8 8700 5.33000000 1893226624 1893226624 -7.00000000
8.21624374 0.42915714 1.30309904 7 9 8701 8.33000000 1893226626 1893226626 9.00000000
6.62761450 0.34617865 -0.58063155 64 10 8701 6.66200000 1893226628 1893226628 -5.00000000
8.11992073 0.42128384 -0.42611936 17 12 8703 8.14200000 1893226633 1893226633 -3.00000000
8.12398052 0.41865113 -0.14199278 18 14 8705 8.13600000 1893226637 1893226637 -1.00000000
8.17834091 0.42002127 2.19426775 51 15 8706 8.47800000 1893226640 1893226640 15.00000000
2.23425865 0.11240077 -0.59942490 4 0 8712 2.31600000 1893226661 1893226661 -15.00000000
8.12256050 0.40720740 0.14195788 18 1 8713 8.13400000 1893226663 1893226663 1.00000000
2.61779070 0.13077937 -0.60511833 6 2 8714 2.69000000 1893226665 1893226665 -13.00000000
8.12676907 0.40457454 0.42643338 21 3 8715 8.14800000 1893226667 1893226667 3.00000000
3.15692997 0.15716128 -0.61440498 5 4 8715 3.22000000 1893226670 1893226670 -11.00000000
8.13289452 0.40345651 0.71241105 90 5 8716 8.17400000 1893226672 1893226672 5.00000000
3.97947550 0.19671752 -0.63105661 9 6 8717 4.03400000 1893226674 1893226674 -9.00000000
8.13298798 0.40061525 0.99981612 92 7 8718 8.20400000 1893226677 1893226677 7.00000000
5.27994442 0.25915611 -0.64907610 6 8 8719 5.32600000 1893226679 1893226679 -7.00000000
8.21762180 0.40190873 1.30309904 10 9 8720 8.33000000 1893226681 1893226681 9.00000000
6.61877584 0.32371214 -0.57976002 72 10 8720 6.65200000 1893226684 1893226684 -5.00000000
8.11728287 0.39416116 -0.42591003 21 12 8722 8.13800000 1893226688 1893226688 -3.00000000
8.11533737 0.39122730 -0.14181826 18 14 8724 8.12600000 1893226693 1893226693 -1.00000000
8.18540859 0.39460531 2.19582081 49 15 8724 8.48400000 1893226695 1893226695 15.00000000
2.22884822 0.10433008 -0.59787202 4 0 8732 2.31000000 1893226716 1893226716 -15.00000000
8.12193489 0.37875873 0.14192297 15 1 8733 8.13200000 1893226718 1893226718 1.00000000
2.62796450 0.12209298 -0.60736787 6 2 8734 2.70000000 1893226720 1893226720 -13.00000000
8.12813187 0.37620434 0.42643338 15 3 8735 8.14800000 1893226723 1893226723 3.00000000
3.15353703 0.14595905 -0.61364174 5 4 8735 3.21600000 1893226725 1893226725 -11.00000000
8.12231159 0.37451431 0.71136516 76 5 8736 8.16200000 1893226727 1893226727 5.00000000
3.98013806 0.18282536 -0.63105661 9 6 8737 4.03400000 1893226730 1893226730 -9.00000000
8.13830280 0.37240487 1.00030363 97 7 8738 8.20800000 1893226732 1893226732 7.00000000
5.26891899 0.24018170 -0.64761370 6 8 8739 5.31400000 1893226734 1893226734 -7.00000000
8.20318794 0.37250456 1.30059612 10 9 8740 8.31400000 1893226737 1893226737 9.00000000
6.60593319 0.29997367 -0.57853985 76 10 8740 6.63800000 1893226739 1893226739 -5.00000000
8.13257599 0.36645350 -0.42664272 17 12 8742 8.15200000 1893226743 1893226743 -3.00000000
8.10666561 0.36245051 -0.14164373 16 14 8744 8.11600000 1893226748 1893226748 -1.00000000
8.18094635 0.36577162 2.19426775 56 15 8744 8.47800000 1893226750 1893226750 15.00000000
2.23497200 0.09719017 -0.59942490 4 0 8751 2.31600000 1893226772 1893226772 -15.00000000
8.11715221 0.35156375 0.14181826 25 1 8752 8.12600000 1893226774 1893226774 1.00000000
2.62640810 0.11329368 -0.60691792 6 2 8753 2.69800000 1893226777 1893226777 -13.00000000
8.13525963 0.35092548 0.42674738 13 3 8753 8.15400000 1893226779 1893226779 3.00000000
3.15400362 0.13550073 -0.61364174 5 4 8754 3.21600000 1893226781 1893226781 -11.00000000
8.11554623 0.34723702 0.71066791 79 5 8755 8.15400000 1893226784 1893226784 5.00000000
3.96493363 0.16895294 -0.62855369 9 6 8756 4.01800000 1893226786 1893226786 -9.00000000
8.14345932 0.34558356 1.00079107 90 7 8757 8.21200000 1893226788 1893226788 7.00000000
5.28158617 0.22321093 -0.64907610 6 8 8758 5.32600000 1893226790 1893226790 -7.00000000
8.22010612 0.34739897 1.30309904 10 9 8758 8.33000000 1893226793 1893226793 9.00000000
6.59295702 0.27747950 -0.57731962 60 10 8759 6.62400000 1893226795 1893226795 -5.00000000
8.12775993 0.33923304 -0.42632869 25 12 8761 8.14600000 1893226800 1893226800 -3.00000000
8.10982037 0.33564854 -0.14167863 20 14 8763 8.11800000 1893226804 1893226804 -1.00000000
8.17825413 0.33848086 2.19323254 54 15 8763 8.47400000 1893226807 1893226807 15.00000000
2.22950673 0.08915649 -0.59787202 4 0 8771 2.31000000 1893226827 1893226827 -15.00000000
8.10833931 0.32282969 0.14164373 21 1 8772 8.11600000 1893226830 1893226830 1.00000000
2.63068199 0.10427949 -0.60781777 6 2 8773 2.70200000 1893226832 1893226832 -13.00000000
8.13449574 0.32102716 0.42664272 13 3 8774 8.15200000 1893226834 1893226834 3.00000000
3.14857221 0.12425812 -0.61249685 5 4 8774 3.21000000 1893226837 1893226837 -11.00000000
8.11670876 0.31890637 0.71066791 79 5 8775 8.15400000 1893226839 1893226839 5.00000000
3.95760393 0.15480289 -0.62730223 9 6 8776 4.01000000 1893226841 1893226841 -9.00000000
8.13668156 0.31684652 0.99981612 90 7 8777 8.20400000 1893226843 1893226843 7.00000000
5.26844788 0.20423514 -0.64736998 4 8 8778 5.31200000 1893226846 1893226846 -7.00000000
8.21342850 0.31696373 1.30184758 10 9 8779 8.32200000 1893226848 1893226848 9.00000000
6.60383987 0.25484824 -0.57819122 48 10 8779 6.63400000 1893226850 1893226850 -5.00000000
8.10893631 0.31009656 -0.42528197 25 12 8781 8.12600000 1893226855 1893226855 -3.00000000
8.11893559 0.30764079 -0.14181826 18 14 8783 8.12600000 1893226860 1893226860 -1.00000000
8.17557907 0.30835816 2.19219732 51 15 8784 8.47000000 1893226862 1893226862 15.00000000
2.24140191 0.08140504 -0.60097784 4 0 8792 2.32200000 1893226883 1893226883 -15.00000000
8.11146736 0.29318121 0.14167863 18 1 8793 8.11800000 1893226885 1893226885 1.00000000
2.61157155 0.09393636 -0.60331875 6 2 8794 2.68200000 1893226887 1893226887 -13.00000000
8.13556671 0.29263049 0.42664272 13 3 8794 8.15200000 1893226890 1893226890 3.00000000
3.15293050 0.11285765 -0.61326009 5 4 8795 3.21400000 1893226892 1893226892 -11.00000000
8.12180519 0.28929684 0.71101654 79 5 8796 8.15800000 1893226894 1893226894 5.00000000
3.97196364 0.14078632 -0.62949228 6 6 8797 4.02400000 1893226896 1893226896 -9.00000000
8.12390137 0.28653216 0.99810994 87 7 8798 8.19000000 1893226899 1893226899 7.00000000
5.26916122 0.18492393 -0.64736998 4 8 8799 5.31200000 1893226901 1893226901 -7.00000000
8.23032856 0.28740939 1.30435061 10 9 8800 8.33800000 1893226903 1893226903 9.00000000
6.60472965 0.23064224 -0.57819122 44 10 8800 6.63400000 1893226906 1893226906 -5.00000000
8.11401081 0.28051177 -0.42549133 21 12 8802 8.13000000 1893226910 1893226910 -3.00000000
8.11401367 0.27767617 -0.14171354 20 14 8804 8.12000000 1893226915 1893226915 -1.00000000
8.18818951 0.28021461 2.19530320 56 15 8804 8.48200000 1893226917 1893226917 15.00000000
2.24553418 0.07370734 -0.60201311 4 0 8812 2.32600000 1893226938 1893226938 -15.00000000
8.11443996 0.26493037 0.14171354 21 1 8813 8.12000000 1893226940 1893226940 1.00000000
2.61967444 0.08507270 -0.60511833 6 2 8814 2.69000000 1893226942 1893226942 -13.00000000
8.12256527 0.26377651 0.42591003 15 3 8814 8.13800000 1893226945 1893226945 3.00000000
3.14938092 0.10172442 -0.61249685 5 4 8815 3.21000000 1893226947 1893226947 -11.00000000
8.12674904 0.26107264 0.71136516 76 5 8816 8.16200000 1893226949 1893226949 5.00000000
3.96453333 0.12666839 -0.62824082 6 6 8817 4.01600000 1893226952 1893226952 -9.00000000
8.13080406 0.25836185 0.99884117 95 7 8818 8.19600000 1893226954 1893226954 7.00000000
5.26580620 0.16640460 -0.64688247 4 8 8819 5.30800000 1893226956 1893226956 -7.00000000
8.21351242 0.25812003 1.30153477 10 9 8820 8.32000000 1893226959 1893226959 9.00000000
6.61146879 0.20777377 -0.57871413 40 10 8820 6.64000000 1893226961 1893226961 -5.00000000
8.11693668 0.25224891 -0.42559600 17 12 8822 8.13200000 1893226966 1893226966 -3.00000000
8.11093616 0.24922845 -0.14164373 20 14 8824 8.11600000 1893226970 1893226970 -1.00000000
8.18911743 0.25163078 2.19530320 56 15 8824 8.48200000 1893226972 1893226972 15.00000000
2.23031807 0.06580469 -0.59787202 4 0 8831 2.31000000 1893226993 1893226993 -15.00000000
8.12127018 0.23819634 0.14181826 18 1 8832 8.12600000 1893226995 1893226995 1.00000000
2.62383795 0.07649866 -0.60601813 6 2 8833 2.69400000 1893226998 1893226998 -13.00000000
8.12543297 0.23547971 0.42601469 13 3 8834 8.14000000 1893227000 1893227000 3.00000000
3.14577603 0.09116640 -0.61173362 5 4 8834 3.20600000 1893227002 1893227002 -11.00000000
8.12757015 0.23412193 0.71136516 90 5 8835 8.16200000 1893227005 1893227005 5.00000000
3.97085524 0.11369043 -0.62917942 6 6 8836 4.02200000 1893227007 1893227007 -9.00000000
8.13558483 0.23151064 0.99932861 97 7 8837 8.20000000 1893227009 1893227009 7.00000000
5.26037645 0.14877328 -0.64615124 6 8 8838 5.30200000 1893227012 1893227012 -7.00000000
8.20440960 0.23203605 1.29997039 10 9 8838 8.31000000 1893227014 1893227014 9.00000000
6.59818029 0.18545637 -0.57749397 12 10 8839 6.62600000 1893227016 1893227016 -5.00000000
8.11972523 0.22538620 -0.42570066 17 12 8841 8.13400000 1893227021 1893227021 -3.00000000
8.09572601 0.22189194 -0.14136449 20 14 8843 8.10000000 1893227025 1893227025 -1.00000000
8.18608379 0.22293872 2.19426775 54 15 8844 8.47800000 1893227028 1893227028 15.00000000
2.22667193 0.05791856 -0.59683675 4 0 8851 2.30600000 1893227048 1893227048 -15.00000000
8.12405109 0.20989801 0.14185315 15 1 8852 8.12800000 1893227051 1893227051 1.00000000
2.62603712 0.06738929 -0.60646802 6 2 8853 2.69600000 1893227053 1893227053 -13.00000000
8.12017918 0.20837981 0.42570066 13 3 8853 8.13400000 1893227055 1893227055 3.00000000
3.15000033 0.08028508 -0.61249685 5 4 8854 3.21000000 1893227058 1893227058 -11.00000000
8.11041164 0.20529625 0.70979637 76 5 8855 8.14400000 1893227060 1893227060 5.00000000
3.96727848 0.09972958 -0.62855369 6 6 8856 4.01800000 1893227062 1893227062 -9.00000000
8.13634396 0.20311074 0.99932861 92 7 8857 8.20000000 1893227065 1893227065 7.00000000
5.26483250 0.13050862 -0.64663875 6 8 8858 5.30600000 1893227067 1893227067 -7.00000000
8.22297764 0.20240130 1.30278623 10 9 8859 8.32800000 1893227069 1893227069 9.00000000
6.59679556 0.16237426 -0.57731962 24 10 8859 6.62400000 1893227072 1893227072 -5.00000000
8.11247540 0.19684790 -0.42528197 25 12 8861 8.12600000 1893227076 1893227076 -3.00000000
8.10244846 0.19377467 -0.14146921 16 14 8863 8.10600000 1893227081 1893227081 -1.00000000
8.17136192 0.19399579 2.19012666 49 15 8864 8.46200000 1893227083 1893227083 15.00000000
2.22685170 0.05053433 -0.59683675 4 0 8870 2.30600000 1893227104 1893227104 -15.00000000
8.10471058 0.18250635 0.14150411 15 1 8871 8.10800000 1893227106 1893227106 1.00000000
2.62040138 0.05855007 -0.60511833 6 2 8872 2.69000000 1893227108 1893227108 -13.00000000
8.13879681 0.18185271 0.42664272 15 3 8872 8.15200000 1893227111 1893227111 3.00000000
3.14632368 0.06975183 -0.61173362 5 4 8873 3.20600000 1893227113 1893227113 -11.00000000
8.10905647 0.17835622 0.70962209 72 5 8874 8.14200000 1893227115 1893227115 5.00000000
3.95771289 0.08635760 -0.62698936 6 6 8875 4.00800000 1893227118 1893227118 -9.00000000
8.13300323 0.17604262 0.99884117 92 7 8876 8.19600000 1893227120 1893227120 7.00000000
5.26920557 0.11313432 -0.64712620 6 8 8877 5.31000000 1893227122 1893227122 -7.00000000
8.21567345 0.17639747 1.30153477 10 9 8877 8.32000000 1893227125 1893227125 9.00000000
6.60924959 0.14075214 -0.57836550 72 10 8878 6.63600000 1893227127 1893227127 -5.00000000
8.11707783 0.17002854 -0.42549133 25 12 8880 8.13000000 1893227131 1893227131 -3.00000000
8.11104393 0.16706963 -0.14160882 18 14 8882 8.11400000 1893227136 1893227136 -1.00000000
8.17582321 0.16697639 2.19116211 51 15 8883 8.46600000 1893227138 1893227138 15.00000000
2.22701454 0.04276086 -0.59683675 4 0 8890 2.30600000 1893227159 1893227159 -15.00000000
8.11129570 0.15432864 0.14160882 18 1 8891 8.11400000 1893227161 1893227161 1.00000000
2.61084795 0.04921915 -0.60286885 6 2 8892 2.68000000 1893227164 1893227164 -13.00000000
8.12740040 0.15321603 0.42601469 13 3 8892 8.14000000 1893227166 1893227166 3.00000000
3.15832543 0.05898866 -0.61402333 5 4 8893 3.21800000 1893227168 1893227168 -11.00000000
8.12158108 0.15027039 0.71066791 79 5 8894 8.15400000 1893227171 1893227171 5.00000000
3.96391535 0.07265068 -0.62792796 9 6 8895 4.01400000 1893227173 1893227173 -9.00000000
8.12959862 0.14758000 0.99835366 90 7 8896 8.19200000 1893227175 1893227175 7.00000000
5.25765991 0.09452656 -0.64566380 6 8 8897 5.29800000 1893227178 1893227178 -7.00000000
8.22018909 0.14778937 1.30216050 10 9 8897 8.32400000 1893227180 1893227180 9.00000000
6.61766863 0.11782256 -0.57906276 100 10 8898 6.64400000 1893227182 1893227182 -5.00000000
8.09964943 0.14137989 -0.42454928 17 12 8900 8.11200000 1893227187 1893227187 -3.00000000
8.11957550 0.13889259 -0.14174844 18 14 8902 8.12200000 1893227191 1893227191 -1.00000000
8.17442417 0.13840373 2.19064450 49 15 8903 8.46400000 1893227194 1893227194 15.00000000
2.23488879 0.03432813 -0.59890729 4 0 8912 2.31400000 1893227214 1893227214 -15.00000000
8.11782742 0.12327352 0.14171354 15 1 8913 8.12000000 1893227217 1893227217 1.00000000
2.61881161 0.03931088 -0.60466844 6 2 8914 2.68800000 1893227219 1893227219 -13.00000000
8.11794376 0.12185812 0.42549133 13 3 8914 8.13000000 1893227221 1893227221 3.00000000
3.15067649 0.04674466 -0.61249685 5 4 8915 3.21000000 1893227224 1893227224 -11.00000000
8.12608337 0.11914314 0.71101654 76 5 8916 8.15800000 1893227226 1893227226 5.00000000
3.97009063 0.05751568 -0.62886655 9 6 8917 4.02000000 1893227228 1893227228 -9.00000000
8.13010502 0.11636357 0.99835366 90 7 8918 8.19200000 1893227230 1893227230 7.00000000
5.24607468 0.07416958 -0.64420134 6 8 8919 5.28600000 1893227233 1893227233 -7.00000000
8.21082020 0.11608547 1.30059612 10 9 8919 8.31400000 1893227235 1893227235 9.00000000
6.61010361 0.09230045 -0.57836550 76 10 8920 6.63600000 1893227237 1893227237 -5.00000000
8.10013199 0.11027852 -0.42454928 17 12 8922 8.11200000 1893227242 1893227242 -3.00000000
8.10805130 0.10755558 -0.14153902 20 14 8924 8.11000000 1893227247 1893227247 -1.00000000
8.18260384 0.10854453 2.19271493 49 15 8924 8.47200000 1893227249 1893227249 15.00000000
2.22726798 0.02643499 -0.59683675 4 0 8932 2.30600000 1893227270 1893227270 -15.00000000
8.12020779 0.09495965 0.14174844 18 1 8933 8.12200000 1893227272 1893227272 1.00000000
2.62088156 0.03019172 -0.60511833 7 2 8934 2.69000000 1893227274 1893227274 -13.00000000
8.11831951 0.09352046 0.42549133 13 3 8934 8.13000000 1893227277 1893227277 3.00000000
3.14296794 0.03565737 -0.61097038 5 4 8935 3.20200000 1893227279 1893227279 -11.00000000
8.11449623 0.09064355 0.70997065 79 5 8936 8.14600000 1893227281 1893227281 5.00000000
3.96829176 0.04363541 -0.62855369 4 6 8937 4.01800000 1893227283 1893227283 -9.00000000
8.13443184 0.08802646 0.99884117 90 7 8938 8.19600000 1893227286 1893227286 7.00000000
5.25424147 0.05594144 -0.64517629 8 8 8939 5.29400000 1893227288 1893227288 -7.00000000
8.20129871 0.08731850 1.29903185 10 9 8939 8.30400000 1893227290 1893227290 9.00000000
6.60440874 0.06916373 -0.57784259 28 10 8940 6.63000000 1893227293 1893227293 -5.00000000
8.11444759 0.08214463 -0.42528197 17 12 8942 8.12600000 1893227297 1893227297 -3.00000000
8.09837914 0.07915482 -0.14136449 20 14 8944 8.10000000 1893227302 1893227302 -1.00000000
8.17715168 0.07849742 2.19116211 51 15 8945 8.46600000 1893227304 1893227304 15.00000000
2.22347665 0.01940399 -0.59580141 4 0 8950 2.30200000 1893227325 1893227325 -15.00000000
8.11646652 0.06941464 0.14167863 15 1 8951 8.11800000 1893227327 1893227327 1.00000000
2.62875819 0.02202315 -0.60691792 7 2 8952 2.69800000 1893227330 1893227330 -13.00000000
8.12657356 0.06666417 0.42591003 15 3 8953 8.13800000 1893227332 1893227332 3.00000000
3.14306450 0.02578329 -0.61097038 5 4 8953 3.20200000 1893227334 1893227334 -11.00000000
8.10278606 0.06505474 0.70892483 76 5 8954 8.13400000 1893227336 1893227336 5.00000000
3.94668078 0.03099780 -0.62511212 2 6 8955 3.99600000 1893227339 1893227339 -9.00000000
8.13268375 0.06245575 0.99859738 90 7 8956 8.19400000 1893227341 1893227341 7.00000000
5.25439119 0.03943450 -0.64517629 8 8 8957 5.29400000 1893227343 1893227343 -7.00000000
8.20350838 0.06156779 1.29934466 10 9 8957 8.30600000 1893227346 1893227346 9.00000000
6.59662390 0.04835664 -0.57714534 20 10 8958 6.62200000 1893227348 1893227348 -5.00000000
8.11865997 0.05667986 -0.42549133 25 12 8960 8.13000000 1893227353 1893227353 -3.00000000
8.10058784 0.05372592 -0.14139940 20 14 8962 8.10200000 1893227357 1893227357 -1.00000000
8.17348480 0.05420940 2.19012666 54 15 8962 8.46200000 1893227360 1893227360 15.00000000
2.23512173 0.01170318 -0.59890729 4 0 8970 2.31400000 1893227380 1893227380 -15.00000000
8.10266209 0.04101161 0.14143430 18 1 8971 8.10400000 1893227383 1893227383 1.00000000
2.61712670 0.01278980 -0.60421854 7 2 8972 2.68600000 1893227385 1893227385 -13.00000000
8.13474560 0.03833437 0.42632869 13 3 8973 8.14600000 1893227387 1893227387 3.00000000
3.14313531 0.01481179 -0.61097038 5 4 8973 3.20200000 1893227389 1893227389 -11.00000000
8.11093330 0.03680650 0.70962209 76 5 8974 8.14200000 1893227392 1893227392 5.00000000
3.94281435 0.01720388 -0.62448639 2 6 8975 3.99200000 1893227394 1893227394 -9.00000000
8.12689686 0.03404206 0.99786621 90 7 8976 8.18800000 1893227396 1893227396 7.00000000
5.27037764 0.02115677 -0.64712620 8 8 8977 5.31000000 1893227399 1893227399 -7.00000000
8.21158028 0.03153036 1.30059612 10 9 8978 8.31400000 1893227401 1893227401 9.00000000
6.59077549 0.02530689 -0.57662237 16 10 8978 6.61600000 1893227403 1893227403 -5.00000000
8.11081982 0.02831222 -0.42507264 25 12 8980 8.12200000 1893227408 1893227408 -3.00000000
8.10872459 0.02547439 -0.14153902 20 14 8982 8.11000000 1893227413 1893227413 -1.00000000
8.16976452 0.02424025 2.18909144 51 15 8983 8.45800000 1893227415 1893227415 15.00000000
2.23514891 0.00390107 -0.59890729 4 0 8990 2.31400000 1893227436 1893227436 -15.00000000
8.11275387 0.01274350 0.14160882 28 1 8991 8.11400000 1893227438 1893227438 1.00000000
2.61325788 0.00364880 -0.60331875 7 2 8992 2.68200000 1893227440 1893227440 -13.00000000
8.11885166 0.00991905 0.42549133 13 3 8993 8.13000000 1893227442 1893227442 3.00000000
3.15494752 0.00385450 -0.61326009 5 4 8993 3.21400000 1893227445 1893227445 -11.00000000
8.11898232 0.00850218 0.71031928 76 5 8994 8.15000000 1893227447 1893227447 5.00000000
3.94285035 0.00344079 -0.62448639 2 6 8995 3.99200000 1893227449 1893227449 -9.00000000
8.12299538 0.00567092 0.99737871 90 7 8996 8.18400000 1893227452 1893227452 7.00000000
5.24262810 0.00274503 -0.64371389 6 8 8997 5.28200000 1893227454 1893227454 -7.00000000
8.21361542 0.00430064 1.30090904 10 9 8997 8.31600000 1893227456 1893227456 9.00000000
6.60277796 0.00230480 -0.57766825 16 10 8998 6.62800000 1893227459 1893227459 -5.00000000
8.10088253 0.00000000 -0.42454928 17 12 9000 8.11200000 1893227463 1893227463 -3.00000000
-1.94537389 0.00169766 -0.52126157 5 0 27005 2.01400000 1893277368 1893277368 -15.00000000
-2.25274181 0.00275224 -0.52008682 4 2 27007 2.31200000 1893277372 1893277372 -13.00000000
-2.62683177 0.00366775 -0.51060486 3 4 27008 2.67600000 1893277377 1893277377 -11.00000000
-3.14874554 0.00549560 -0.49871308 3 6 27010 3.18800000 1893277382 1893277382 -9.00000000
-3.95231009 0.00827771 -0.48528373 3 8 27012 3.98200000 1893277386 1893277386 -7.00000000
-5.18418407 0.01176256 -0.45355847 6 10 27013 5.20400000 1893277391 1893277391 -5.00000000
-7.66745138 0.02007339 -0.40183547 24 12 27015 7.67800000 1893277396 1893277396 -3.00000000
-10.16922188 0.03017278 2.72484684 45 15 27017 10.52800000 1893277402 1893277402 15.00000000
-1.94922125 0.00816493 -0.52229685 5 0 27024 2.01800000 1893277423 1893277423 -15.00000000
-2.23907924 0.01016069 -0.51693749 4 2 27026 2.29800000 1893277428 1893277428 -13.00000000
-2.62287879 0.01236012 -0.50984162 3 4 27027 2.67200000 1893277432 1893277432 -11.00000000
-3.13290739 0.01585720 -0.49621013 3 6 27029 3.17200000 1893277437 1893277437 -9.00000000
-3.96417141 0.02144844 -0.48674616 3 8 27031 3.99400000 1893277442 1893277442 -7.00000000
-5.18411636 0.02895387 -0.45355847 6 10 27032 5.20400000 1893277446 1893277446 -5.00000000
-7.64737034 0.04538094 -0.40078875 16 12 27034 7.65800000 1893277451 1893277451 -3.00000000
-10.16325951 0.06563238 2.72329402 42 15 27037 10.52200000 1893277458 1893277458 15.00000000
-1.95304441 0.01499860 -0.52333212 5 0 27044 2.02200000 1893277478 1893277478 -15.00000000
-2.23513293 0.01794518 -0.51603770 4 2 27046 2.29400000 1893277483 1893277483 -13.00000000
-2.62281966 0.02151560 -0.50984162 3 4 27047 2.67200000 1893277488 1893277488 -11.00000000
-3.14073396 0.02686057 -0.49746159 3 6 27049 3.18000000 1893277492 1893277492 -9.00000000
-3.95414710 0.03519750 -0.48552746 5 8 27051 3.98400000 1893277497 1893277497 -7.00000000
-5.19593763 0.04715813 -0.45460436 6 10 27052 5.21600000 1893277502 1893277502 -5.00000000
-7.64716530 0.07207497 -0.40078875 16 12 27054 7.65800000 1893277506 1893277506 -3.00000000
-10.15137768 0.10099307 2.72018814 42 15 27057 10.51000000 1893277513 1893277513 15.00000000
-1.96263885 0.02192380 -0.52592027 5 0 27064 2.03200000 1893277534 1893277534 -15.00000000
-2.23505664 0.02574714 -0.51603770 4 2 27066 2.29400000 1893277538 1893277538 -13.00000000
-2.62272859 0.03067081 -0.50984162 3 4 27067 2.67200000 1893277543 1893277543 -11.00000000
-3.17222500 0.03820423 -0.50246751 3 6 27069 3.21200000 1893277548 1893277548 -9.00000000
-3.93018103 0.04870466 -0.48260260 5 8 27071 3.96000000 1893277552 1893277552 -7.00000000
-5.19175673 0.06524497 -0.45425573 6 10 27072 5.21200000 1893277557 1893277557 -5.00000000
-7.64886427 0.09879392 -0.40089342 16 12 27074 7.66000000 1893277561 1893277561 -3.00000000
-10.15869045 0.13653122 2.72225881 42 15 27077 10.51800000 1893277568 1893277568 15.00000000
-1.95096052 0.02860462 -0.52281445 5 0 27084 2.02000000 1893277589 1893277589 -15.00000000
-2.23885012 0.03360729 -0.51693749 4 2 27086 2.29800000 1893277594 1893277594 -13.00000000
-2.61475325 0.03970642 -0.50831515 3 4 27087 2.66400000 1893277598 1893277598 -11.00000000
-3.16022134 0.04909303 -0.50059026 3 6 27089 3.20000000 1893277603 1893277603 -9.00000000
-3.93792629 0.06254936 -0.48357755 5 8 27091 3.96800000 1893277608 1893277608 -7.00000000
-5.19149733 0.08336719 -0.45425573 9 10 27092 5.21200000 1893277612 1893277612 -5.00000000
-7.65046978 0.12552559 -0.40099809 16 12 27094 7.66200000 1893277617 1893277617 -3.00000000
-10.15235710 0.17189272 2.72070575 45 15 27097 10.51200000 1893277624 1893277624 15.00000000
-1.94505417 0.03530938 -0.52126157 5 0 27104 2.01400000 1893277644 1893277644 -15.00000000
-2.24846125 0.04160238 -0.51918703 4 2 27106 2.30800000 1893277649 1893277649 -13.00000000
-2.61263585 0.04879671 -0.50793356 3 4 27107 2.66200000 1893277654 1893277654 -11.00000000
-3.16398072 0.06019912 -0.50121605 3 6 27109 3.20400000 1893277658 1893277658 -9.00000000
-3.95753121 0.07667946 -0.48601493 7 8 27111 3.98800000 1893277663 1893277663 -7.00000000
-5.17922258 0.10125472 -0.45320988 9 10 27112 5.20000000 1893277667 1893277667 -5.00000000
-7.65597582 0.15234916 -0.40131211 12 12 27114 7.66800000 1893277672 1893277672 -3.00000000
-10.13821125 0.20528445 2.71708226 42 15 27116 10.49800000 1893277679 1893277679 15.00000000
-1.94878185 0.04218229 -0.52229685 5 0 27124 2.01800000 1893277700 1893277700 -15.00000000
-2.24245763 0.04932217 -0.51783735 4 2 27126 2.30200000 1893277704 1893277704 -13.00000000
-2.62226343 0.05813378 -0.50984162 3 4 27127 2.67200000 1893277709 1893277709 -11.00000000
-3.14400268 0.07079839 -0.49808735 3 6 27129 3.18400000 1893277713 1893277713 -9.00000000
-3.96120858 0.09058412 -0.48650241 7 8 27131 3.99200000 1893277718 1893277718 -7.00000000
-5.17883778 0.11933297 -0.45320988 9 10 27132 5.20000000 1893277723 1893277723 -5.00000000
-7.63942337 0.17869893 -0.40047473 12 12 27134 7.65200000 1893277727 1893277727 -3.00000000
-10.13545895 0.24239528 2.71656466 42 15 27137 10.49600000 1893277734 1893277734 15.00000000
-1.95634770 0.04917873 -0.52436739 5 0 27144 2.02600000 1893277755 1893277755 -15.00000000
-2.23837543 0.05705020 -0.51693749 4 2 27146 2.29800000 1893277760 1893277760 -13.00000000
-2.62989497 0.06748829 -0.51136810 3 4 27147 2.68000000 1893277764 1893277764 -11.00000000
-3.14373636 0.08177257 -0.49808735 3 6 27149 3.18400000 1893277769 1893277769 -9.00000000
-3.95293069 0.10420153 -0.48552746 7 8 27151 3.98400000 1893277773 1893277773 -7.00000000
-5.19033957 0.13772686 -0.45425573 9 10 27152 5.21200000 1893277778 1893277778 -5.00000000
-7.64673948 0.20557910 -0.40089342 12 12 27154 7.66000000 1893277783 1893277783 -3.00000000
-10.14811802 0.27637249 2.72018814 42 15 27156 10.51000000 1893277790 1893277790 15.00000000
-1.95809519 0.05606265 -0.52488500 5 0 27164 2.02800000 1893277810 1893277810 -15.00000000
-2.23426676 0.06475034 -0.51603770 4 2 27166 2.29400000 1893277815 1893277815 -13.00000000
-2.62571859 0.07655349 -0.51060486 3 4 27167 2.67600000 1893277819 1893277819 -11.00000000
-3.15922785 0.09321182 -0.50059026 3 6 27169 3.20000000 1893277824 1893277824 -9.00000000
-3.94857454 0.11788072 -0.48503998 7 8 27171 3.98000000 1893277829 1893277829 -7.00000000
-5.19381046 0.15596329 -0.45460436 9 10 27172 5.21600000 1893277833 1893277833 -5.00000000
-7.65196419 0.23245189 -0.40120745 12 12 27174 7.66600000 1893277838 1893277838 -3.00000000
-10.14896774 0.31362501 2.72070575 45 15 27177 10.51200000 1893277845 1893277845 15.00000000
-1.94630241 0.06252517 -0.52177918 5 0 27184 2.01600000 1893277866 1893277866 -15.00000000
-2.23792267 0.07267550 -0.51693749 4 2 27186 2.29800000 1893277870 1893277870 -13.00000000
-2.61954880 0.08552630 -0.50946003 3 4 27187 2.67000000 1893277875 1893277875 -11.00000000
-3.16678047 0.10449962 -0.50184178 3 6 27189 3.20800000 1893277879 1893277879 -9.00000000
-3.94813895 0.13166310 -0.48503998 7 8 27191 3.98000000 1893277884 1893277884 -7.00000000
-5.18526936 0.17382511 -0.45390710 9 10 27192 5.20800000 1893277889 1893277889 -5.00000000
-7.66108656 0.25949886 -0.40173081 16 12 27194 7.67600000 1893277893 1893277893 -3.00000000
-10.14787197 0.34727848 2.72070575 45 15 27196 10.51200000 1893277900 1893277900 15.00000000
-1.94221103 0.06918111 -0.52074391 5 0 27204 2.01200000 1893277921 1893277921 -15.00000000
-2.24934030 0.08090716 -0.51963693 4 2 27206 2.31000000 1893277925 1893277925 -13.00000000
-2.61923432 0.09466971 -0.50946003 3 4 27207 2.67000000 1893277930 1893277930 -11.00000000
-3.15060401 0.11497678 -0.49933881 3 6 27209 3.19200000 1893277935 1893277935 -9.00000000
-3.94567156 0.14537078 -0.48479626 7 8 27211 3.97800000 1893277939 1893277939 -7.00000000
-5.19259501 0.19221884 -0.45460436 6 10 27212 5.21600000 1893277944 1893277944 -5.00000000
-7.66612196 0.28646323 -0.40204480 12 12 27214 7.68200000 1893277948 1893277948 -3.00000000
-10.13108730 0.38388476 2.71656466 45 15 27217 10.49600000 1893277955 1893277955 15.00000000
-1.94967926 0.07626230 -0.52281445 4 0 27224 2.02000000 1893277976 1893277976 -15.00000000
-2.24514961 0.08860463 -0.51873714 4 2 27226 2.30600000 1893277981 1893277981 -13.00000000
-2.62869644 0.10420078 -0.51136810 3 4 27227 2.68000000 1893277985 1893277985 -11.00000000
-3.15018344 0.12597375 -0.49933881 3 6 27229 3.19200000 1893277990 1893277990 -9.00000000
-3.96299148 0.15986297 -0.48698989 7 8 27231 3.99600000 1893277995 1893277995 -7.00000000
-5.19985533 0.21066581 -0.45530161 6 10 27232 5.22400000 1893277999 1893277999 -5.00000000
-7.65310144 0.31273195 -0.40141678 16 12 27234 7.67000000 1893278004 1893278004 -3.00000000
-10.13747883 0.41779673 2.71863532 45 15 27236 10.50400000 1893278011 1893278011 15.00000000
-1.94554090 0.08290300 -0.52177918 4 0 27244 2.01600000 1893278031 1893278031 -15.00000000
-2.23509192 0.09602290 -0.51648760 4 2 27246 2.29600000 1893278036 1893278036 -13.00000000
-2.61654806 0.11286835 -0.50907838 3 4 27247 2.66800000 1893278041 1893278041 -11.00000000
-3.16156554 0.13748409 -0.50121605 3 6 27249 3.20400000 1893278045 1893278045 -9.00000000
-3.95447636 0.17334768 -0.48601493 7 8 27251 3.98800000 1893278050 1893278050 -7.00000000
-5.20705032 0.22916582 -0.45599884 6 10 27252 5.23200000 1893278054 1893278054 -5.00000000
-7.64398193 0.33909032 -0.40099809 24 12 27254 7.66200000 1893278059 1893278059 -3.00000000
-10.13973999 0.45512292 2.71967053 45 15 27257 10.50800000 1893278066 1893278066 15.00000000
