# .PCD v0.7 - Point Cloud Data file format
VERSION 0.7
FIELDS x y z intensity laser_id azimuth distance_m adjustedtime timestamp vertical_angle
SIZE 4 4 4 1 1 2 8 8 4 8
TYPE F F F U U U F U U F
COUNT 1 1 1 1 1 1 1 1 1 1
WIDTH 542
HEIGHT 1
VIEWPOINT 0 0 0 1 0 0 0
POINTS 542
DATA ascii
2.99004960 2.72359896 -0.35385230 11 10 4767 4.06000000 1892315737 1892315737 -5.00000000
3.02518153 2.75463438 0.79529190 18 11 4768 4.16800000 1892315739 1892315739 11.00000000
2.99535656 2.72652054 -0.21227464 9 12 4769 4.05600000 1892315741 1892315741 -3.00000000
3.00521231 2.73453283 0.93804592 52 13 4770 4.17000000 1892315744 1892315744 13.00000000
2.98812890 2.71803498 -0.07050772 7 14 4771 4.04000000 1892315746 1892315746 -1.00000000
3.01536822 2.74281216 1.09221637 22 15 4771 4.22000000 1892315748 1892315748 15.00000000
1.68989062 1.53283679 -0.61133057 4 0 4779 2.36200000 1892315769 1892315769 -15.00000000
2.99683881 2.71736765 0.07061244 8 1 4780 4.04600000 1892315771 1892315771 1.00000000
2.01996589 1.83095086 -0.62941307 3 2 4781 2.79800000 1892315773 1892315773 -13.00000000
3.01633573 2.73312807 0.21332136 8 3 4782 4.07600000 1892315776 1892315776 3.00000000
2.42377687 2.19620562 -0.63577557 4 4 4782 3.33200000 1892315778 1892315778 -11.00000000
3.01388717 2.72995186 0.35576975 6 5 4783 4.08200000 1892315780 1892315780 5.00000000
2.97105289 2.69020891 -0.63481104 9 6 4784 4.05800000 1892315783 1892315783 -9.00000000
3.03176093 2.74421573 0.50210172 8 7 4785 4.12000000 1892315785 1892315785 7.00000000
2.99691272 2.71172118 -0.49625197 12 8 4786 4.07200000 1892315787 1892315787 -7.00000000
3.01787567 2.72973156 0.64450997 16 9 4787 4.12000000 1892315790 1892315790 9.00000000
2.98919535 2.70378947 -0.35263214 11 10 4787 4.04600000 1892315792 1892315792 -5.00000000
3.01876020 2.72957373 0.79109412 28 11 4788 4.14600000 1892315794 1892315794 11.00000000
2.99744725 2.70935178 -0.21175128 7 12 4789 4.04600000 1892315796 1892315796 -3.00000000
3.01763105 2.72663879 0.93894571 22 13 4790 4.17400000 1892315799 1892315799 13.00000000
2.99463058 2.70490718 -0.07043792 8 14 4791 4.03600000 1892315801 1892315801 -1.00000000
3.00532699 2.71361637 1.08496940 46 15 4792 4.19200000 1892315803 1892315803 15.00000000
1.69496441 1.52722442 -0.61133057 4 0 4798 2.36200000 1892315824 1892315824 -15.00000000
2.99246097 2.69536996 0.07029829 7 1 4799 4.02800000 1892315826 1892315826 1.00000000
2.02312994 1.82163441 -0.62851322 3 2 4800 2.79400000 1892315829 1892315829 -13.00000000
3.02241349 2.72043824 0.21311201 8 3 4801 4.07200000 1892315831 1892315831 3.00000000
2.43688345 2.19340968 -0.63730204 4 4 4801 3.34000000 1892315833 1892315833 -11.00000000
3.00959349 2.70794845 0.35420093 6 5 4802 4.06400000 1892315836 1892315836 5.00000000
2.97408271 2.67505765 -0.63355958 9 6 4803 4.05000000 1892315838 1892315838 -9.00000000
3.01722622 2.71291089 0.49820188 8 7 4804 4.08800000 1892315840 1892315840 7.00000000
2.98817229 2.68584418 -0.49332711 12 8 4805 4.04800000 1892315843 1892315843 -7.00000000
3.02496719 2.71891665 0.64419711 8 9 4805 4.11800000 1892315845 1892315845 9.00000000
2.99073482 2.68720412 -0.35176057 11 10 4806 4.03600000 1892315847 1892315847 -5.00000000
3.01318932 2.70642924 0.78727794 58 11 4807 4.12600000 1892315849 1892315849 11.00000000
2.99155402 2.68605351 -0.21070457 7 12 4808 4.02600000 1892315852 1892315852 -3.00000000
3.01795483 2.70880699 0.93624628 15 13 4809 4.16200000 1892315854 1892315854 13.00000000
3.00060701 2.69229078 -0.07036810 7 14 4810 4.03200000 1892315856 1892315856 -1.00000000
3.01527524 2.70545173 1.08548713 60 15 4810 4.19400000 1892315859 1892315859 15.00000000
1.70604384 1.52645123 -0.61340111 4 0 4818 2.37000000 1892315879 1892315879 -15.00000000
2.99290848 2.67690921 0.07008886 8 1 4819 4.01600000 1892315882 1892315882 1.00000000
2.01494908 1.80157232 -0.62401420 3 2 4820 2.77400000 1892315884 1892315884 -13.00000000
3.01402140 2.69389963 0.21185595 8 3 4821 4.04800000 1892315886 1892315886 3.00000000
2.45038009 2.19012308 -0.63882852 4 4 4821 3.34800000 1892315889 1892315889 -11.00000000
3.02199912 2.70008159 0.35454956 8 5 4822 4.06800000 1892315891 1892315891 5.00000000
2.97456264 2.65676475 -0.63168240 9 6 4823 4.03800000 1892315893 1892315893 -9.00000000
3.01927376 2.69575167 0.49698317 8 7 4824 4.07800000 1892315896 1892315896 7.00000000
2.98271942 2.66217875 -0.49088973 12 8 4825 4.02800000 1892315898 1892315898 -7.00000000
3.02164650 2.69597530 0.64138132 8 9 4826 4.10000000 1892315900 1892315900 9.00000000
2.98969007 2.66746306 -0.35054040 11 10 4826 4.02200000 1892315902 1892315902 -5.00000000
3.01236200 2.68674731 0.78460658 68 11 4827 4.11200000 1892315905 1892315905 11.00000000
2.98600435 2.66230321 -0.20965785 9 12 4828 4.00600000 1892315907 1892315907 -3.00000000
3.00411558 2.67751002 0.92904788 36 13 4829 4.13000000 1892315909 1892315909 13.00000000
3.00401449 2.67647934 -0.07022848 7 14 4830 4.02400000 1892315912 1892315912 -1.00000000
3.02517104 2.69438195 1.08548713 68 15 4831 4.19400000 1892315914 1892315914 15.00000000
1.71425021 1.52305293 -0.61443639 4 0 4838 2.37400000 1892315935 1892315935 -15.00000000
3.00073934 2.66511774 0.07005396 7 1 4839 4.01400000 1892315937 1892315937 1.00000000
2.03579807 1.80746603 -0.62851322 3 2 4840 2.79400000 1892315939 1892315939 -13.00000000
3.01444387 2.67540789 0.21122792 10 3 4841 4.03600000 1892315942 1892315942 3.00000000
2.45213675 2.17634368 -0.63730204 4 4 4841 3.34000000 1892315944 1892315944 -11.00000000
3.01948285 2.67893815 0.35315508 6 5 4842 4.05200000 1892315946 1892315946 5.00000000
2.97790694 2.64112234 -0.63043088 9 6 4843 4.03000000 1892315949 1892315949 -9.00000000
3.01529694 2.67334390 0.49478954 8 7 4844 4.06000000 1892315951 1892315951 7.00000000
2.98308039 2.64385104 -0.48942727 10 8 4845 4.01600000 1892315953 1892315953 -7.00000000
3.01874352 2.67545867 0.63887835 8 9 4845 4.08400000 1892315955 1892315955 9.00000000
2.99749160 2.65568948 -0.35036609 13 10 4846 4.02000000 1892315958 1892315958 -5.00000000
3.01290393 2.66840601 0.78231686 62 11 4847 4.10000000 1892315960 1892315960 11.00000000
2.98929763 2.64656806 -0.20923916 8 12 4848 3.99800000 1892315962 1892315962 -3.00000000
3.00760627 2.66184115 0.92724824 62 13 4849 4.12200000 1892315965 1892315965 13.00000000
2.99087358 2.64610147 -0.06970491 8 14 4850 3.99400000 1892315967 1892315967 -1.00000000
3.01962042 2.67153454 1.08031070 70 15 4850 4.17400000 1892315969 1892315969 15.00000000
1.72245347 1.51961589 -0.61547166 4 0 4858 2.37800000 1892315990 1892315990 -15.00000000
3.00102544 2.64669085 0.06984453 7 1 4859 4.00200000 1892315992 1892315992 1.00000000
2.03917122 1.79777133 -0.62761343 3 2 4860 2.79000000 1892315995 1892315995 -13.00000000
3.00878048 2.65166354 0.21018121 10 3 4861 4.01600000 1892315997 1892315997 3.00000000
2.44498968 2.15479016 -0.63348585 4 4 4861 3.32000000 1892315999 1892315999 -11.00000000
3.02732062 2.66706467 0.35298076 8 5 4862 4.05000000 1892316002 1892316002 5.00000000
2.97821331 2.62287807 -0.62855369 9 6 4863 4.01800000 1892316004 1892316004 -9.00000000
3.02312040 2.66149044 0.49454579 8 7 4864 4.05800000 1892316006 1892316006 7.00000000
2.98633027 2.62817621 -0.48845232 10 8 4865 4.00800000 1892316008 1892316008 -7.00000000
3.00776553 2.64610934 0.63449818 8 9 4866 4.05600000 1892316011 1892316011 9.00000000
2.99178457 2.63205004 -0.34862298 11 10 4866 4.00000000 1892316013 1892316013 -5.00000000
3.02220011 2.65787268 0.78231686 70 11 4867 4.10000000 1892316015 1892316015 11.00000000
2.99551773 2.63347983 -0.20902981 10 12 4868 3.99400000 1892316018 1892316018 -3.00000000
3.00516915 2.64103508 0.92364901 59 13 4869 4.10600000 1892316020 1892316020 13.00000000
2.99558496 2.63168573 -0.06960019 9 14 4870 3.98800000 1892316022 1892316022 -1.00000000
3.01777935 2.65025091 1.07616961 70 15 4871 4.15800000 1892316025 1892316025 15.00000000
1.71612263 1.50341022 -0.61133057 4 0 4878 2.36200000 1892316045 1892316045 -15.00000000
2.99971509 2.62697697 0.06960019 6 1 4879 3.98800000 1892316048 1892316048 1.00000000
2.05129933 1.79577684 -0.62941307 3 2 4880 2.79800000 1892316050 1892316050 -13.00000000
3.01200628 2.63588357 0.20976251 8 3 4881 4.00800000 1892316052 1892316052 3.00000000
2.46431565 2.15658569 -0.63653880 4 4 4881 3.33600000 1892316055 1892316055 -11.00000000
3.01111960 2.63417983 0.35001746 8 5 4882 4.01600000 1892316057 1892316057 5.00000000
2.98437667 2.60986543 -0.62792796 9 6 4883 4.01400000 1892316059 1892316059 -9.00000000
3.02491975 2.64438891 0.49332711 8 7 4884 4.04800000 1892316061 1892316061 7.00000000
2.98651767 2.60989833 -0.48698989 9 8 4885 3.99600000 1892316064 1892316064 -7.00000000
3.01949859 2.63872027 0.63512391 8 9 4885 4.06000000 1892316066 1892316066 9.00000000
2.97994733 2.60323954 -0.34618261 8 10 4886 3.97200000 1892316068 1892316068 -5.00000000
3.01667166 2.63439322 0.77850068 68 11 4887 4.08000000 1892316071 1892316071 11.00000000
3.00168276 2.62038064 -0.20882046 8 12 4888 3.99000000 1892316073 1892316073 -3.00000000
3.00996494 2.62668514 0.92229933 58 13 4889 4.10000000 1892316075 1892316075 13.00000000
2.99269795 2.61069679 -0.06932096 9 14 4890 3.97200000 1892316078 1892316078 -1.00000000
3.00908208 2.62498975 1.06995797 76 15 4890 4.13400000 1892316080 1892316080 15.00000000
1.71844494 1.49487484 -0.61029530 4 0 4898 2.35800000 1892316101 1892316101 -15.00000000
2.98774123 2.59811950 0.06911153 6 1 4899 3.96000000 1892316103 1892316103 1.00000000
2.04873085 1.78093457 -0.62671363 3 2 4900 2.78600000 1892316105 1892316105 -13.00000000
3.02118874 2.62535381 0.20976251 8 3 4901 4.00800000 1892316108 1892316108 3.00000000
2.47775626 2.15312147 -0.63806528 4 4 4901 3.34400000 1892316110 1892316110 -11.00000000
3.00826311 2.61320019 0.34862298 8 5 4902 4.00000000 1892316112 1892316112 5.00000000
2.97557068 2.58388996 -0.62417352 8 6 4903 3.99000000 1892316114 1892316114 -9.00000000
3.01764202 2.61949968 0.49064597 7 7 4904 4.02600000 1892316117 1892316117 7.00000000
2.98811316 2.59295249 -0.48577121 5 8 4905 3.98600000 1892316119 1892316119 -7.00000000
3.01973939 2.62039638 0.63324672 8 9 4905 4.04800000 1892316121 1892316121 9.00000000
2.98901606 2.59282160 -0.34618261 8 10 4906 3.97200000 1892316124 1892316124 -5.00000000
3.01694965 2.61612988 0.77621096 62 11 4907 4.06800000 1892316126 1892316126 11.00000000
2.99722886 2.59811282 -0.20787841 7 12 4908 3.97200000 1892316128 1892316128 -3.00000000
3.01617002 2.61361003 0.92139953 56 13 4909 4.09600000 1892316131 1892316131 13.00000000
2.99574685 2.59499741 -0.06918134 9 14 4910 3.96400000 1892316133 1892316133 -1.00000000
3.00946546 2.60688090 1.06685209 76 15 4910 4.12200000 1892316135 1892316135 15.00000000
1.73242426 1.49644411 -0.61340111 4 0 4918 2.37000000 1892316156 1892316156 -15.00000000
2.99376512 2.58506083 0.06904172 6 1 4919 3.95600000 1892316158 1892316158 1.00000000
2.04903436 1.76867890 -0.62491405 3 2 4920 2.77800000 1892316161 1892316161 -13.00000000
3.01218891 2.59913445 0.20850645 6 3 4921 3.98400000 1892316163 1892316163 3.00000000
2.48525691 2.14445949 -0.63806528 4 4 4921 3.34400000 1892316165 1892316165 -11.00000000
3.00982308 2.59617686 0.34775141 6 5 4922 3.99000000 1892316167 1892316167 5.00000000
2.98157978 2.57090759 -0.62354779 8 6 4923 3.98600000 1892316170 1892316170 -9.00000000
3.01022768 2.59469366 0.48796484 7 7 4924 4.00400000 1892316172 1892316172 7.00000000
2.97308469 2.56177354 -0.48187140 20 8 4925 3.95400000 1892316174 1892316174 -7.00000000
3.02183986 2.60286498 0.63168240 8 9 4926 4.03800000 1892316177 1892316177 9.00000000
2.97993350 2.56676888 -0.34409088 6 10 4926 3.94800000 1892316179 1892316179 -5.00000000
3.01713681 2.59789681 0.77392131 60 11 4927 4.05600000 1892316181 1892316181 11.00000000
2.96389508 2.55115247 -0.20494761 5 12 4928 3.91600000 1892316184 1892316184 -3.00000000
3.00902581 2.58908439 0.91645062 57 13 4929 4.07400000 1892316186 1892316186 13.00000000
2.98811030 2.57018042 -0.06879739 4 14 4930 3.94200000 1892316188 1892316188 -1.00000000
3.01561761 2.59384036 1.06581688 72 15 4930 4.11800000 1892316190 1892316190 15.00000000
1.73910367 1.49164546 -0.61391878 3 0 4938 2.37200000 1892316211 1892316211 -15.00000000
2.98303533 2.55767393 0.06858796 13 1 4939 3.93000000 1892316214 1892316214 1.00000000
2.06703258 1.77166116 -0.62851322 3 2 4940 2.79400000 1892316216 1892316216 -13.00000000
2.98180938 2.55481696 0.20578498 6 3 4941 3.93200000 1892316218 1892316218 3.00000000
2.49272752 2.13577127 -0.63806528 4 4 4941 3.34400000 1892316220 1892316220 -11.00000000
3.01281428 2.58047032 0.34705415 13 5 4942 3.98200000 1892316223 1892316223 5.00000000
2.98153281 2.55277586 -0.62167054 8 6 4943 3.97400000 1892316225 1892316225 -9.00000000
2.99966097 2.56738997 0.48479626 13 7 4944 3.97800000 1892316227 1892316227 7.00000000
2.95787525 2.53073144 -0.47797155 18 8 4945 3.92200000 1892316230 1892316230 -7.00000000
3.01739645 2.58074522 0.62886655 8 9 4946 4.02000000 1892316232 1892316232 9.00000000
2.98736095 2.55505633 -0.34391657 36 10 4946 3.94600000 1892316234 1892316234 -5.00000000
3.02320242 2.58479762 0.77315807 68 11 4947 4.05200000 1892316237 1892316237 11.00000000
2.97278214 2.54079103 -0.20494761 21 12 4948 3.91600000 1892316239 1892316239 -3.00000000
3.00767374 2.56970406 0.91330129 57 13 4949 4.06000000 1892316241 1892316241 13.00000000
2.97729635 2.54285121 -0.06834362 19 14 4950 3.91600000 1892316243 1892316243 -1.00000000
3.02216601 2.58026147 1.06478155 76 15 4951 4.11400000 1892316246 1892316246 15.00000000
1.73962903 1.48211169 -0.61236584 4 0 4957 2.36600000 1892316267 1892316267 -15.00000000
2.99150062 2.54776764 0.06858796 21 1 4958 3.93000000 1892316269 1892316269 1.00000000
2.06696105 1.75974381 -0.62671363 3 2 4959 2.78600000 1892316271 1892316271 -13.00000000
2.99939084 2.55268168 0.20641302 21 3 4960 3.94400000 1892316273 1892316273 3.00000000
2.48783541 2.11731386 -0.63501233 5 4 4960 3.32800000 1892316276 1892316276 -11.00000000
3.01224971 2.56271911 0.34600830 21 5 4961 3.97000000 1892316278 1892316278 5.00000000
2.98095298 2.53519607 -0.61979336 8 6 4962 3.96200000 1892316280 1892316280 -9.00000000
3.00664568 2.55614281 0.48455250 16 7 4963 3.97600000 1892316283 1892316283 7.00000000
3.01991606 2.56560922 0.62761509 8 9 4965 4.01200000 1892316287 1892316287 9.00000000
3.02876425 2.57221627 0.77239484 64 11 4966 4.04800000 1892316292 1892316292 11.00000000
3.01320720 2.55719423 0.91240150 56 13 4968 4.05600000 1892316296 1892316296 13.00000000
3.01847196 2.56075621 1.06064045 68 15 4969 4.09800000 1892316301 1892316301 15.00000000
1.74184215 1.47353482 -0.61133057 4 0 4977 2.36200000 1892316322 1892316322 -15.00000000
2.07606745 1.75503421 -0.62761343 3 2 4979 2.79000000 1892316326 1892316326 -13.00000000
2.50870681 2.12002158 -0.63844693 5 4 4980 3.34600000 1892316331 1892316331 -11.00000000
2.98072886 2.51712823 -0.61791611 8 6 4982 3.95000000 1892316336 1892316336 -9.00000000
2.97503257 2.51053929 -0.47797155 7 8 4984 3.92200000 1892316340 1892316340 -7.00000000
3.01828408 2.54613614 0.62542498 9 9 4985 3.99800000 1892316343 1892316343 9.00000000
2.96508789 2.50126147 -0.33938447 4 10 4985 3.89400000 1892316345 1892316345 -5.00000000
3.03022027 2.55530024 0.77048671 32 11 4986 4.03800000 1892316347 1892316347 11.00000000
2.97320986 2.50633717 -0.20379621 3 12 4987 3.89400000 1892316349 1892316349 -3.00000000
3.00572276 2.53284740 0.90745252 17 13 4988 4.03400000 1892316352 1892316352 13.00000000
2.97771263 2.50835514 -0.06795967 3 14 4989 3.89400000 1892316354 1892316354 -1.00000000
3.00522995 2.53153515 1.05287588 26 15 4989 4.06800000 1892316356 1892316356 15.00000000
1.74697518 1.46744561 -0.61133057 4 0 4997 2.36200000 1892316377 1892316377 -15.00000000
2.97246051 2.49595928 0.06775025 6 1 4998 3.88200000 1892316379 1892316379 1.00000000
2.08815145 1.75278831 -0.62941307 3 2 4999 2.79800000 1892316382 1892316382 -13.00000000
2.98916101 2.50909305 0.20452891 4 3 4999 3.90800000 1892316384 1892316384 3.00000000
2.51308393 2.10872769 -0.63768369 5 4 5000 3.34200000 1892316386 1892316386 -11.00000000
2.99037886 2.50833654 0.34147620 6 5 5001 3.91800000 1892316389 1892316389 5.00000000
2.97587419 2.49528527 -0.61510032 10 6 5002 3.93200000 1892316391 1892316391 -9.00000000
3.01072550 2.52361345 0.48235887 4 7 5003 3.95800000 1892316393 1892316393 7.00000000
2.98377800 2.50013924 -0.47797155 5 8 5004 3.92200000 1892316395 1892316395 -7.00000000
3.02216840 2.53230715 0.62448639 11 9 5004 3.99200000 1892316398 1892316398 9.00000000
2.97532821 2.49217534 -0.33955878 8 10 5005 3.89600000 1892316400 1892316400 -5.00000000
3.03008986 2.53714490 0.76819700 10 11 5006 4.02600000 1892316402 1892316402 11.00000000
2.98806691 2.50107121 -0.20421490 12 12 5007 3.90200000 1892316405 1892316405 -3.00000000
3.03397536 2.53859711 0.91330129 11 13 5008 4.06000000 1892316407 1892316407 13.00000000
2.98338246 2.49537969 -0.06788986 9 14 5009 3.89000000 1892316409 1892316409 -1.00000000
3.02590299 2.53094506 1.05701697 12 15 5009 4.08400000 1892316412 1892316412 15.00000000
1.76098824 1.46876287 -0.61443639 4 0 5017 2.37400000 1892316432 1892316432 -15.00000000
2.98115492 2.48556805 0.06775025 4 1 5018 3.88200000 1892316435 1892316435 1.00000000
2.08228135 1.73550725 -0.62581384 3 2 5019 2.78200000 1892316437 1892316437 -13.00000000
3.00140619 2.50067735 0.20473826 4 3 5020 3.91200000 1892316439 1892316439 3.00000000
2.52042937 2.09994268 -0.63768369 5 4 5020 3.34200000 1892316442 1892316442 -11.00000000
2.99911642 2.49788284 0.34147620 4 5 5021 3.91800000 1892316444 1892316444 5.00000000
3.00430131 2.50131345 -0.61916763 8 6 5022 3.95800000 1892316446 1892316446 -9.00000000
3.01951623 2.51308870 0.48235887 4 7 5023 3.95800000 1892316448 1892316448 7.00000000
3.00469494 2.49986553 -0.47992146 1 8 5024 3.93800000 1892316451 1892316451 -7.00000000
3.03598571 2.52500272 0.62542498 13 9 5025 3.99800000 1892316453 1892316453 9.00000000
3.02077341 2.51235056 -0.34374225 2 10 5025 3.94400000 1892316455 1892316455 -5.00000000
3.03439879 2.52278709 0.76705217 10 11 5026 4.02000000 1892316458 1892316458 11.00000000
3.04281807 2.52799106 0.91330129 9 13 5028 4.06000000 1892316462 1892316462 13.00000000
3.05514669 2.53733253 -0.06932096 1 14 5029 3.97200000 1892316465 1892316465 -1.00000000
3.03961802 2.52353954 1.05856991 8 15 5030 4.09000000 1892316467 1892316467 15.00000000
1.76312864 1.46014249 -0.61340111 4 0 5037 2.37000000 1892316488 1892316488 -15.00000000
3.03602338 2.51340270 0.06879739 1 1 5038 3.94200000 1892316490 1892316490 1.00000000
2.08532405 1.72574329 -0.62491405 3 2 5039 2.77800000 1892316492 1892316492 -13.00000000
3.00045013 2.48307037 0.20411023 1 3 5039 3.90000000 1892316495 1892316495 3.00000000
2.53076959 2.09363484 -0.63844693 5 4 5040 3.34600000 1892316497 1892316497 -11.00000000
3.05234337 2.52422094 0.34653124 1 5 5041 3.97600000 1892316499 1892316499 5.00000000
3.02671671 2.50213885 -0.62198341 8 6 5042 3.97600000 1892316501 1892316501 -9.00000000
3.04051185 2.51264977 0.48430878 4 7 5043 3.97400000 1892316504 1892316504 7.00000000
3.01493311 2.49062634 -0.48016521 20 8 5044 3.94000000 1892316506 1892316506 -7.00000000
3.06001258 2.52696800 0.62855369 8 9 5045 4.01800000 1892316508 1892316508 9.00000000
3.00955319 2.48529840 -0.34147620 8 10 5045 3.91800000 1892316511 1892316511 -5.00000000
3.06286883 2.52842760 0.77201319 8 11 5046 4.04600000 1892316513 1892316513 11.00000000
2.99775219 2.47379375 -0.20369154 7 12 5047 3.89200000 1892316515 1892316515 -3.00000000
3.05162382 2.51735425 0.91330129 8 13 5048 4.06000000 1892316518 1892316518 13.00000000
3.02541542 2.49484682 -0.06844833 13 14 5049 3.92200000 1892316520 1892316520 -1.00000000
3.06436467 2.52696562 1.06426394 8 15 5049 4.11200000 1892316522 1892316522 15.00000000
1.76224613 1.44907129 -0.61133057 4 0 5057 2.36200000 1892316543 1892316543 -15.00000000
3.04632306 2.50405931 0.06883229 17 1 5058 3.94400000 1892316545 1892316545 1.00000000
2.10338044 1.72835112 -0.62851322 3 2 5059 2.79400000 1892316547 1892316547 -13.00000000
3.04613447 2.50301337 0.20662236 16 3 5059 3.94800000 1892316550 1892316550 3.00000000
2.51985765 2.06983423 -0.63386750 5 4 5060 3.32200000 1892316552 1892316552 -11.00000000
3.06421566 2.51607966 0.34687987 15 5 5061 3.98000000 1892316554 1892316554 5.00000000
3.05070114 2.50409126 -0.62511212 10 6 5062 3.99600000 1892316557 1892316557 -9.00000000
3.06461024 2.51461315 0.48674616 6 7 5063 3.99400000 1892316559 1892316559 7.00000000
3.05277038 2.50400662 -0.48479626 7 8 5064 3.97800000 1892316561 1892316561 -7.00000000
3.07339740 2.52002859 0.62949228 8 9 5065 4.02400000 1892316564 1892316564 9.00000000
3.03977966 2.49246383 -0.34391657 27 10 5065 3.94600000 1892316566 1892316566 -5.00000000
3.08685970 2.53016639 0.77582937 8 11 5066 4.06600000 1892316568 1892316568 11.00000000
3.03417730 2.48609948 -0.20557563 17 12 5067 3.92800000 1892316571 1892316571 -3.00000000
3.07546830 2.51903486 0.91780031 8 13 5068 4.08000000 1892316573 1892316573 13.00000000
3.03101110 2.48173738 -0.06837853 17 14 5069 3.91800000 1892316575 1892316575 -1.00000000
3.08362985 2.52482057 1.06788743 8 15 5069 4.12600000 1892316577 1892316577 15.00000000
1.76080573 1.43863869 -0.60926002 4 0 5075 2.35400000 1892316598 1892316598 -15.00000000
3.05882120 2.49827147 0.06893700 8 1 5076 3.95000000 1892316600 1892316600 1.00000000
2.10879993 1.72173464 -0.62851322 3 2 5077 2.79400000 1892316603 1892316603 -13.00000000
3.06060719 2.49794984 0.20704104 13 3 5078 3.95600000 1892316605 1892316605 3.00000000
2.52786875 2.06314921 -0.63424909 5 4 5078 3.32400000 1892316607 1892316607 -11.00000000
3.04894853 2.48754787 0.34426519 6 5 5079 3.95000000 1892316610 1892316610 5.00000000
3.06620693 2.50073743 -0.62667644 9 6 5080 4.00600000 1892316612 1892316612 -9.00000000
3.08480334 2.51500773 0.48869607 7 7 5081 4.01000000 1892316614 1892316614 7.00000000
3.07293200 2.50443649 -0.48674616 7 8 5082 3.99400000 1892316617 1892316617 -7.00000000
3.09004831 2.51838636 0.63136947 8 9 5082 4.03600000 1892316619 1892316619 9.00000000
3.07385421 2.50429535 -0.34687987 8 10 5083 3.98000000 1892316621 1892316621 -5.00000000
3.09783792 2.52293563 0.77659261 8 11 5084 4.07000000 1892316624 1892316624 11.00000000
3.08069420 2.50807953 -0.20819244 5 12 5085 3.97800000 1892316626 1892316626 -3.00000000
3.09999299 2.52289152 0.92274922 8 13 5086 4.10200000 1892316628 1892316628 13.00000000
3.08843088 2.51258612 -0.06949548 6 14 5087 3.98200000 1892316630 1892316630 -1.00000000
3.09198546 2.51458120 1.06788743 8 15 5088 4.12600000 1892316633 1892316633 15.00000000
1.77481842 1.43978596 -0.61236584 4 0 5095 2.36600000 1892316653 1892316653 -15.00000000
3.08305478 2.50017452 0.06928606 8 1 5096 3.97000000 1892316656 1892316656 1.00000000
2.10874176 1.70945430 -0.62671363 3 2 5097 2.78600000 1892316658 1892316658 -13.00000000
3.10455847 2.51671457 0.20944850 7 3 5097 4.00200000 1892316660 1892316660 3.00000000
2.54115629 2.05925679 -0.63577557 5 4 5098 3.33200000 1892316663 1892316663 -11.00000000
3.09786510 2.50949717 0.34879729 6 5 5099 4.00200000 1892316665 1892316665 5.00000000
3.08105803 2.49499178 -0.62792796 11 6 5100 4.01400000 1892316667 1892316667 -9.00000000
3.10745001 2.51546550 0.49088973 7 7 5101 4.02800000 1892316670 1892316670 7.00000000
3.09708691 2.50618196 -0.48918355 8 8 5102 4.01400000 1892316672 1892316672 -7.00000000
3.11615181 2.52070951 0.63481104 8 9 5103 4.05800000 1892316674 1892316674 9.00000000
3.09032226 2.49981546 -0.34775141 8 10 5103 3.99000000 1892316677 1892316677 -5.00000000
3.10509896 2.51087236 0.77621096 8 11 5104 4.06800000 1892316679 1892316679 11.00000000
3.11117601 2.51488853 -0.20965785 7 12 5105 4.00600000 1892316681 1892316681 -3.00000000
3.11939073 2.52062869 0.92589855 8 13 5106 4.11600000 1892316683 1892316683 13.00000000
3.10962749 2.51184249 -0.06977472 6 14 5107 3.99800000 1892316686 1892316686 -1.00000000
3.11276841 2.51348209 1.07202852 8 15 5108 4.14200000 1892316688 1892316688 15.00000000
1.78911197 1.44054055 -0.61547166 4 0 5116 2.37800000 1892316709 1892316709 -15.00000000
3.11089110 2.50390363 0.06970491 6 1 5117 3.99400000 1892316711 1892316711 1.00000000
2.11802959 1.70415723 -0.62761343 3 2 5118 2.79000000 1892316713 1892316713 -13.00000000
3.11843014 2.50907493 0.20976251 7 3 5118 4.00800000 1892316716 1892316716 3.00000000
2.55174637 2.05239010 -0.63653880 5 4 5119 3.33600000 1892316718 1892316718 -11.00000000
3.12256956 2.51061034 0.35054040 6 5 5120 4.02200000 1892316720 1892316720 5.00000000
3.10557914 2.49605727 -0.63105661 11 6 5121 4.03400000 1892316723 1892316723 -9.00000000
3.12748122 2.51276255 0.49259588 7 7 5122 4.04200000 1892316725 1892316725 7.00000000
3.11708570 2.50351524 -0.49088973 10 8 5123 4.02800000 1892316727 1892316727 -7.00000000
3.13417244 2.51723862 0.63668829 8 9 5123 4.07000000 1892316730 1892316730 9.00000000
3.11810708 2.50344038 -0.34984314 9 10 5124 4.01400000 1892316732 1892316732 -5.00000000
3.13877892 2.51913643 0.78231686 8 11 5125 4.10000000 1892316734 1892316734 11.00000000
3.11569905 2.49971890 -0.20934382 7 12 5126 4.00000000 1892316736 1892316736 -3.00000000
3.13924980 2.51771331 0.92904788 8 13 5127 4.13000000 1892316739 1892316739 13.00000000
3.13597488 2.51418757 -0.07015868 7 14 5128 4.02000000 1892316741 1892316741 -1.00000000
3.14457178 2.52017832 1.07979310 8 15 5129 4.17200000 1892316743 1892316743 15.00000000
1.79412949 1.43428659 -0.61547166 4 0 5136 2.37800000 1892316764 1892316764 -15.00000000
3.13523388 2.50551319 0.07005396 8 1 5137 4.01400000 1892316766 1892316766 1.00000000
2.12092018 1.69432092 -0.62671363 3 2 5138 2.78600000 1892316769 1892316769 -13.00000000
3.14277411 2.51064014 0.21080923 8 3 5138 4.02800000 1892316771 1892316771 3.00000000
2.55275846 2.03856993 -0.63501233 5 4 5139 3.32800000 1892316773 1892316773 -11.00000000
3.15622783 2.51958346 0.35332939 6 5 5140 4.05400000 1892316776 1892316776 5.00000000
3.12971306 2.49752283 -0.63418531 11 6 5141 4.05400000 1892316778 1892316778 -9.00000000
3.15951061 2.52039886 0.49625197 7 7 5142 4.07200000 1892316780 1892316780 7.00000000
3.13201380 2.49756980 -0.49186468 10 8 5143 4.03600000 1892316783 1892316783 -7.00000000
3.15684032 2.51736736 0.63950408 8 9 5143 4.08800000 1892316785 1892316785 9.00000000
3.13929033 2.50247622 -0.35123765 9 10 5144 4.03000000 1892316787 1892316787 -5.00000000
3.17211938 2.52774048 0.78842276 8 11 5145 4.13200000 1892316789 1892316789 11.00000000
3.14158988 2.50251651 -0.21049522 7 12 5146 4.02200000 1892316792 1892316792 -3.00000000
3.16021490 2.51645136 0.93264705 9 13 5147 4.14600000 1892316794 1892316794 13.00000000
3.15255475 2.50945258 -0.07033320 7 14 5148 4.03000000 1892316796 1892316796 -1.00000000
3.17904830 2.52963519 1.08859289 8 15 5149 4.20600000 1892316799 1892316799 15.00000000
1.78399372 1.41600502 -0.61029530 4 0 5156 2.35800000 1892316819 1892316819 -15.00000000
3.16589165 2.51195502 0.07054263 8 1 5157 4.04200000 1892316822 1892316822 1.00000000
2.12376809 1.68448520 -0.62581384 3 2 5158 2.78200000 1892316824 1892316824 -13.00000000
3.16560197 2.51082492 0.21175128 7 3 5158 4.04600000 1892316826 1892316826 3.00000000
2.55370545 2.02476764 -0.63348585 5 4 5159 3.32000000 1892316829 1892316829 -11.00000000
3.17281055 2.51473880 0.35420093 6 5 5160 4.06400000 1892316831 1892316831 5.00000000
3.15079856 2.49639678 -0.63668829 11 6 5161 4.07000000 1892316833 1892316833 -9.00000000
3.18385053 2.52167988 0.49868935 7 7 5162 4.09200000 1892316835 1892316835 7.00000000
3.15471983 2.49771190 -0.49405831 10 8 5163 4.05400000 1892316838 1892316838 -7.00000000
3.17799807 2.51614213 0.64200705 8 9 5163 4.10400000 1892316840 1892316840 9.00000000
3.15581799 2.49768519 -0.35210919 9 10 5164 4.04000000 1892316842 1892316842 -5.00000000
3.18554258 2.52030683 0.78956765 8 11 5165 4.13800000 1892316845 1892316845 11.00000000
3.16440511 2.50268555 -0.21143727 7 12 5166 4.04000000 1892316847 1892316847 -3.00000000
3.18579531 2.51869917 0.93759602 8 13 5167 4.16800000 1892316849 1892316849 13.00000000
3.16443300 2.50091267 -0.07040301 7 14 5168 4.03400000 1892316852 1892316852 -1.00000000
3.18893504 2.52027702 1.08911049 8 15 5168 4.20800000 1892316854 1892316854 15.00000000
1.79802954 1.41694343 -0.61340111 4 0 5176 2.37000000 1892316875 1892316875 -15.00000000
3.17778230 2.50336361 0.07061244 7 1 5177 4.04600000 1892316877 1892316877 1.00000000
2.14494514 1.68911815 -0.63031286 3 2 5178 2.80200000 1892316879 1892316879 -13.00000000
3.18690014 2.50964499 0.21258865 7 3 5178 4.06200000 1892316882 1892316882 3.00000000
2.56692815 2.02069879 -0.63501233 5 4 5179 3.32800000 1892316884 1892316884 -11.00000000
3.18783236 2.50857663 0.35489818 6 5 5180 4.07200000 1892316886 1892316886 5.00000000
3.16570354 2.49026847 -0.63793975 9 6 5181 4.07800000 1892316888 1892316888 -9.00000000
3.20979810 2.52404833 0.50137049 7 7 5182 4.11400000 1892316891 1892316891 7.00000000
3.18838954 2.50631309 -0.49795812 10 8 5183 4.08600000 1892316893 1892316893 -7.00000000
3.19763279 2.51357889 0.64419711 8 9 5183 4.11800000 1892316895 1892316895 9.00000000
3.17705011 2.49650240 -0.35350370 9 10 5184 4.05600000 1892316898 1892316898 -5.00000000
3.20975947 2.52129912 0.79338378 8 11 5185 4.15800000 1892316900 1892316900 11.00000000
3.18725944 2.50272584 -0.21237931 7 12 5186 4.05800000 1892316902 1892316902 -3.00000000
3.20223236 2.51357961 0.93984550 8 13 5187 4.17800000 1892316905 1892316905 13.00000000
3.18572903 2.49972677 -0.07068224 7 14 5188 4.05000000 1892316907 1892316907 -1.00000000
3.20575094 2.51453352 1.09169877 8 15 5189 4.21800000 1892316909 1892316909 15.00000000
1.79992163 1.40827763 -0.61236584 4 0 5196 2.36600000 1892316930 1892316930 -15.00000000
3.19122672 2.49595165 0.07071715 7 1 5197 4.05200000 1892316932 1892316932 1.00000000
2.13547611 1.66961753 -0.62581384 3 2 5198 2.78200000 1892316935 1892316935 -13.00000000
3.21810818 2.51516628 0.21405406 7 3 5199 4.09000000 1892316937 1892316937 3.00000000
2.57241917 2.01051712 -0.63463074 5 4 5199 3.32600000 1892316939 1892316939 -11.00000000
3.21697974 2.51338005 0.35716423 6 5 5200 4.09800000 1892316941 1892316941 5.00000000
3.17593384 2.48041892 -0.63825262 9 6 5201 4.08000000 1892316944 1892316944 -9.00000000
3.22641253 2.51893663 0.50258917 7 7 5202 4.12400000 1892316946 1892316946 7.00000000
3.20963812 2.50493884 -0.49990806 10 8 5203 4.10200000 1892316948 1892316948 -7.00000000
3.23130345 2.52184725 0.64920300 8 9 5203 4.15000000 1892316951 1892316951 9.00000000
3.20145392 2.49765253 -0.35524681 9 10 5204 4.07600000 1892316953 1892316953 -5.00000000
3.22318530 2.51370168 0.79452866 8 11 5205 4.16400000 1892316955 1892316955 11.00000000
3.20700216 2.50018072 -0.21311201 7 12 5206 4.07200000 1892316958 1892316958 -3.00000000
3.23711753 2.52275038 0.94749385 8 13 5207 4.21200000 1892316960 1892316960 13.00000000
3.20863271 2.49965167 -0.07099639 7 14 5208 4.06800000 1892316962 1892316962 -1.00000000
3.23845553 2.52288485 1.09998095 8 15 5208 4.25000000 1892316965 1892316965 15.00000000
1.81092906 1.40672660 -0.61443639 4 0 5216 2.37400000 1892316985 1892316985 -15.00000000
3.22045255 2.50074077 0.07117091 7 1 5217 4.07800000 1892316988 1892316988 1.00000000
2.13513350 1.65737343 -0.62401420 3 2 5218 2.77400000 1892316990 1892316990 -13.00000000
3.23475766 2.51003957 0.21457742 7 3 5219 4.10000000 1892316992 1892316992 3.00000000
2.59183002 2.01115417 -0.63768369 5 4 5219 3.34200000 1892316994 1892316994 -11.00000000
3.24462509 2.51678920 0.35925597 6 5 5220 4.12200000 1892316997 1892316997 5.00000000
3.20642757 2.48626399 -0.64263278 9 6 5221 4.10800000 1892316999 1892316999 -9.00000000
3.24459934 2.51495576 0.50405163 7 7 5222 4.13600000 1892317001 1892317001 7.00000000
3.22306991 2.49736738 -0.50063926 10 8 5223 4.10800000 1892317004 1892317004 -7.00000000
3.25770330 2.52329302 0.65264457 8 9 5224 4.17200000 1892317006 1892317006 9.00000000
3.23220491 2.50354290 -0.35768718 9 10 5224 4.10400000 1892317008 1892317008 -5.00000000
3.24901581 2.51565671 0.79872644 8 11 5225 4.18600000 1892317011 1892317011 11.00000000
3.22676587 2.49752831 -0.21384472 7 12 5226 4.08600000 1892317013 1892317013 -3.00000000
3.25823402 2.52097559 0.95109308 9 13 5227 4.22800000 1892317015 1892317015 13.00000000
3.24106526 2.50678754 -0.07151996 7 14 5228 4.09800000 1892317018 1892317018 -1.00000000
3.25837874 2.51926994 1.10360444 8 15 5229 4.26400000 1892317020 1892317020 15.00000000
1.81864309 1.40307367 -0.61547166 4 0 5235 2.37800000 1892317041 1892317041 -15.00000000
3.24456239 2.50225973 0.07151996 7 1 5236 4.09800000 1892317043 1892317043 1.00000000
2.13753128 1.64790428 -0.62311441 3 2 5237 2.77000000 1892317045 1892317045 -13.00000000
3.25571942 2.50905228 0.21541479 7 3 5238 4.11600000 1892317047 1892317047 3.00000000
2.58915472 1.99535775 -0.63539398 5 4 5238 3.33000000 1892317050 1892317050 -11.00000000
3.26400161 2.51452732 0.36047617 6 5 5239 4.13600000 1892317052 1892317052 5.00000000
3.21935010 2.47923326 -0.64357138 9 6 5240 4.11400000 1892317054 1892317054 -9.00000000
3.27022433 2.51750255 0.50673270 7 7 5241 4.15800000 1892317057 1892317057 7.00000000
3.24706578 2.49877214 -0.50307667 8 8 5242 4.12800000 1892317059 1892317059 -7.00000000
3.26874542 2.51545572 0.65327030 8 9 5242 4.17600000 1892317061 1892317061 9.00000000
3.25470185 2.50374413 -0.35925597 9 10 5243 4.12200000 1892317064 1892317064 -5.00000000
3.27290320 2.51683664 0.80254263 8 11 5244 4.20600000 1892317066 1892317066 11.00000000
3.24611449 2.49533510 -0.21457742 7 12 5245 4.10000000 1892317068 1892317068 -3.00000000
3.27584720 2.51728129 0.95379245 8 13 5246 4.24000000 1892317071 1892317071 13.00000000
3.25570369 2.50089884 -0.07165958 7 14 5247 4.10600000 1892317073 1892317073 -1.00000000
3.28006554 2.51961255 1.10826313 8 15 5247 4.28200000 1892317075 1892317075 15.00000000
1.81432772 1.38966870 -0.61236584 4 0 5255 2.36600000 1892317096 1892317096 -15.00000000
3.27074218 2.50429130 0.07190391 7 1 5256 4.12000000 1892317098 1892317098 1.00000000
2.15565038 1.64990830 -0.62671363 3 2 5257 2.78600000 1892317100 1892317100 -13.00000000
3.27397513 2.50495434 0.21604283 7 3 5258 4.12800000 1892317103 1892317103 3.00000000
2.59922242 1.98869371 -0.63615721 6 4 5258 3.33400000 1892317105 1892317105 -11.00000000
3.28700209 2.51401210 0.36204496 7 5 5259 4.15400000 1892317107 1892317107 5.00000000
3.24210787 2.47877860 -0.64638722 9 6 5260 4.13200000 1892317110 1892317110 -9.00000000
3.30264997 2.52415347 0.51038879 7 7 5261 4.18800000 1892317112 1892317112 7.00000000
3.27154231 2.49947405 -0.50551403 8 8 5262 4.14800000 1892317114 1892317114 -7.00000000
3.29364204 2.51544785 0.65639901 8 9 5263 4.19600000 1892317117 1892317117 9.00000000
3.26975536 2.49720502 -0.35995322 9 10 5263 4.13000000 1892317119 1892317119 -5.00000000
3.30351520 2.52207565 0.80788529 8 11 5264 4.23400000 1892317121 1892317121 11.00000000
3.27068233 2.49610567 -0.21562414 7 12 5265 4.12000000 1892317123 1892317123 -3.00000000
3.30475569 2.52119708 0.95964122 8 13 5266 4.26600000 1892317126 1892317126 13.00000000
3.27077389 2.49436951 -0.07179920 7 14 5267 4.11400000 1892317128 1892317128 -1.00000000
3.30310535 2.51811457 1.11292195 8 15 5268 4.30000000 1892317130 1892317130 15.00000000
1.81277573 1.37896609 -0.61029530 4 0 5274 2.35800000 1892317151 1892317151 -15.00000000
3.28698754 2.49948335 0.07207844 7 1 5275 4.13000000 1892317153 1892317153 1.00000000
2.16421270 1.64510942 -0.62761343 3 2 5276 2.79000000 1892317156 1892317156 -13.00000000
3.30611753 2.51220942 0.21761291 7 3 5277 4.15800000 1892317158 1892317158 3.00000000
2.60111332 1.97650003 -0.63501233 6 4 5277 3.32800000 1892317160 1892317160 -11.00000000
3.30008054 2.50671363 0.36256790 7 5 5278 4.16000000 1892317163 1892317163 5.00000000
3.25660300 2.47279215 -0.64763868 11 6 5279 4.14000000 1892317165 1892317165 -9.00000000
3.32681417 2.52518940 0.51282620 7 7 5280 4.20800000 1892317167 1892317167 7.00000000
3.30511522 2.50780988 -0.50941384 8 8 5281 4.18000000 1892317170 1892317170 -7.00000000
3.31097031 2.51225257 0.65827620 8 9 5281 4.20800000 1892317172 1892317172 9.00000000
3.29071784 2.49598074 -0.36134771 9 10 5282 4.14600000 1892317174 1892317174 -5.00000000
3.32281137 2.51940989 0.81055659 8 11 5283 4.24800000 1892317176 1892317176 11.00000000
3.29963398 2.50092959 -0.21698487 7 12 5284 4.14600000 1892317179 1892317179 -3.00000000
3.32707739 2.52081609 0.96369034 7 13 5285 4.28400000 1892317181 1892317181 13.00000000
3.30453277 2.50282693 -0.07235768 7 14 5286 4.14600000 1892317183 1892317183 -1.00000000
3.31715989 2.51239061 1.11499250 8 15 5286 4.30800000 1892317186 1892317186 15.00000000
1.82374477 1.37728691 -0.61236584 4 0 5294 2.36600000 1892317206 1892317206 -15.00000000
3.30686426 2.49642825 0.07232277 7 1 5295 4.14400000 1892317209 1892317209 1.00000000
2.16994190 1.63754487 -0.62761343 3 2 5296 2.79000000 1892317211 1892317211 -13.00000000
3.33081126 2.51268172 0.21865962 7 3 5297 4.17800000 1892317213 1892317213 3.00000000
2.61269879 1.97095537 -0.63615721 6 4 5297 3.33400000 1892317216 1892317216 -11.00000000
3.32312751 2.50597525 0.36413670 7 5 5298 4.17800000 1892317218 1892317218 5.00000000
3.26679230 2.46259856 -0.64795154 11 6 5299 4.14200000 1892317220 1892317220 -9.00000000
3.34194994 2.51833987 0.51380116 7 7 5300 4.21600000 1892317223 1892317223 7.00000000
3.32177687 2.50222945 -0.51063257 8 8 5301 4.19000000 1892317225 1892317225 -7.00000000
3.34856033 2.52148890 0.66390789 8 9 5302 4.24400000 1892317227 1892317227 9.00000000
3.31850982 2.49886084 -0.36343944 9 10 5302 4.17000000 1892317229 1892317229 -5.00000000
3.33942819 2.51369929 0.81246471 8 11 5303 4.25800000 1892317232 1892317232 11.00000000
3.32749486 2.50380707 -0.21824093 7 12 5304 4.17000000 1892317234 1892317234 -3.00000000
3.34987259 2.51972985 0.96773946 8 13 5305 4.30200000 1892317236 1892317236 13.00000000
3.33242869 2.50569820 -0.07277653 7 14 5306 4.17000000 1892317239 1892317239 -1.00000000
3.34024429 2.51066232 1.11965120 8 15 5307 4.32600000 1892317241 1892317241 15.00000000
1.82878053 1.37059331 -0.61236584 4 0 5315 2.36600000 1892317262 1892317262 -15.00000000
3.33839726 2.50107718 0.07281144 7 1 5316 4.17200000 1892317264 1892317264 1.00000000
2.16657043 1.62257171 -0.62491405 3 2 5317 2.77800000 1892317266 1892317266 -13.00000000
3.34799242 2.50644159 0.21918298 7 3 5318 4.18800000 1892317269 1892317269 3.00000000
2.61990523 1.96136618 -0.63615721 5 4 5318 3.33400000 1892317271 1892317271 -11.00000000
3.34983683 2.50691009 0.36605412 7 5 5319 4.20000000 1892317273 1892317273 5.00000000
3.27579618 2.45060849 -0.64795154 11 6 5320 4.14200000 1892317276 1892317276 -9.00000000
3.36069608 2.51320720 0.51526356 7 7 5321 4.22800000 1892317278 1892317278 7.00000000
3.34682512 2.50192356 -0.51306993 8 8 5322 4.21000000 1892317280 1892317280 -7.00000000
3.36841655 2.51806426 0.66609794 8 9 5322 4.25800000 1892317282 1892317282 9.00000000
3.34679818 2.50099277 -0.36553118 9 10 5323 4.19400000 1892317285 1892317285 -5.00000000
3.36749315 2.51554203 0.81704414 8 11 5324 4.28200000 1892317287 1892317287 11.00000000
3.34305072 2.49637437 -0.21865962 7 12 5325 4.17800000 1892317289 1892317289 -3.00000000
3.37001681 2.51559496 0.97088873 8 13 5326 4.31600000 1892317292 1892317292 13.00000000
3.36402774 2.51021004 -0.07326520 7 14 5327 4.19800000 1892317294 1892317294 -1.00000000
3.37376070 2.51747274 1.12793338 8 15 5327 4.35800000 1892317296 1892317296 15.00000000
1.83665347 1.36650765 -0.61340111 4 0 5335 2.37000000 1892317317 1892317317 -15.00000000
3.36957097 2.50611615 0.07330011 7 1 5336 4.20000000 1892317319 1892317319 1.00000000
2.17222095 1.61499906 -0.62491405 3 2 5337 2.77800000 1892317322 1892317322 -13.00000000
3.36954522 2.50427055 0.22002035 7 3 5338 4.20400000 1892317324 1892317324 3.00000000
2.62200832 1.94869578 -0.63501233 5 4 5338 3.32800000 1892317326 1892317326 -11.00000000
3.39375210 2.52134180 0.36988896 7 5 5339 4.24400000 1892317329 1892317329 5.00000000
3.29384565 2.44622564 -0.64982879 9 6 5340 4.15400000 1892317331 1892317331 -9.00000000
3.39176250 2.51802683 0.51867592 7 7 5341 4.25600000 1892317333 1892317333 7.00000000
3.36032033 2.49377465 -0.51380116 8 8 5342 4.21600000 1892317335 1892317335 -7.00000000
3.38872862 2.51394010 0.66828805 8 9 5343 4.27200000 1892317338 1892317338 9.00000000
3.36990905 2.49997878 -0.36710000 9 10 5343 4.21200000 1892317340 1892317340 -5.00000000
3.39044619 2.51429701 0.82047868 8 11 5344 4.30000000 1892317342 1892317342 11.00000000
3.37260246 2.50015211 -0.22002035 8 12 5345 4.20400000 1892317345 1892317345 -3.00000000
3.39130306 2.51309800 0.97448796 8 13 5346 4.33200000 1892317347 1892317347 13.00000000
3.37758994 2.50202298 -0.07336992 7 14 5347 4.20400000 1892317349 1892317349 -1.00000000
3.38917518 2.50968909 1.13000393 8 15 5348 4.36600000 1892317352 1892317352 15.00000000
1.84141231 1.36008823 -0.61340111 4 0 5355 2.37000000 1892317372 1892317372 -15.00000000
3.39116812 2.50384116 0.07357935 7 1 5356 4.21600000 1892317375 1892317375 1.00000000
2.18411684 1.61203575 -0.62671363 3 2 5357 2.78600000 1892317377 1892317377 -13.00000000
3.39273095 2.50316548 0.22096241 7 3 5358 4.22200000 1892317379 1892317379 3.00000000
2.62405515 1.93603456 -0.63386750 9 4 5358 3.32200000 1892317382 1892317382 -11.00000000
3.40734291 2.51302791 0.37041190 7 5 5359 4.25000000 1892317384 1892317384 5.00000000
3.31190419 2.44174647 -0.65170598 9 6 5360 4.16600000 1892317386 1892317386 -9.00000000
3.41331530 2.51559353 0.52062583 7 7 5361 4.27200000 1892317388 1892317388 7.00000000
3.39457583 2.50086856 -0.51770097 8 8 5362 4.24800000 1892317391 1892317391 -7.00000000
3.41454053 2.51557708 0.67172956 8 9 5362 4.29400000 1892317393 1892317393 9.00000000
3.39465809 2.50001526 -0.36884311 9 10 5363 4.23200000 1892317395 1892317395 -5.00000000
3.42291737 2.51990581 0.82620293 8 11 5364 4.33000000 1892317398 1892317398 11.00000000
3.39739513 2.50020242 -0.22106709 8 12 5365 4.22400000 1892317400 1892317400 -3.00000000
3.41575193 2.51279259 0.97898698 8 13 5366 4.35200000 1892317402 1892317402 13.00000000
3.39757991 2.49851060 -0.07361425 7 14 5367 4.21800000 1892317405 1892317405 -1.00000000
3.42238021 2.51674819 1.13828611 8 15 5367 4.39800000 1892317407 1892317407 15.00000000
1.83835900 1.34794056 -0.61081296 3 0 5375 2.36000000 1892317428 1892317428 -15.00000000
3.40633893 2.49671698 0.07371897 7 1 5376 4.22400000 1892317430 1892317430 1.00000000
2.19287467 1.60670543 -0.62761343 3 2 5377 2.79000000 1892317432 1892317432 -13.00000000
3.43045115 2.51255012 0.22284651 7 3 5378 4.25800000 1892317435 1892317435 3.00000000
2.62921333 1.92570305 -0.63348585 5 4 5378 3.32000000 1892317437 1892317437 -11.00000000
3.42734718 2.50935769 0.37163210 7 5 5379 4.26400000 1892317439 1892317439 5.00000000
3.32040739 2.43017077 -0.65170598 9 6 5380 4.16600000 1892317441 1892317441 -9.00000000
3.44450498 2.52007341 0.52403820 7 7 5381 4.30000000 1892317444 1892317444 7.00000000
3.40809178 2.49251962 -0.51843220 8 8 5382 4.25400000 1892317446 1892317446 -7.00000000
3.42967868 2.50830722 0.67298108 8 9 5382 4.30200000 1892317448 1892317448 9.00000000
3.40818906 2.49167800 -0.36936605 9 10 5383 4.23800000 1892317451 1892317451 -5.00000000
3.44437337 2.51720929 0.82925588 8 11 5384 4.34600000 1892317453 1892317453 11.00000000
3.41739082 2.49657536 -0.22179978 8 12 5385 4.23800000 1892317455 1892317455 -3.00000000
3.44338751 2.51464558 0.98438579 9 13 5386 4.37600000 1892317458 1892317458 13.00000000
3.42889237 2.50314236 -0.07410292 7 14 5387 4.24600000 1892317460 1892317460 -1.00000000
3.44362712 2.51389909 1.14242721 8 15 5387 4.41400000 1892317462 1892317462 15.00000000
1.84414613 1.34329593 -0.61133057 4 0 5393 2.36200000 1892317483 1892317483 -15.00000000
3.42548180 2.49424291 0.07396330 7 1 5394 4.23800000 1892317485 1892317485 1.00000000
2.19476032 1.59751475 -0.62671363 3 2 5395 2.78600000 1892317488 1892317488 -13.00000000
3.46416759 2.52056193 0.22452125 7 3 5396 4.29000000 1892317490 1892317490 3.00000000
2.64636278 1.92551923 -0.63615721 5 4 5396 3.33400000 1892317492 1892317492 -11.00000000
3.45132637 2.51029754 0.37337521 7 5 5397 4.28400000 1892317494 1892317494 5.00000000
3.31524396 2.41043425 -0.64920300 9 6 5398 4.15000000 1892317497 1892317497 -9.00000000
3.45882797 2.51390815 0.52501315 7 7 5399 4.30800000 1892317499 1892317499 7.00000000
3.44320703 2.50163627 -0.52257574 8 8 5400 4.28800000 1892317501 1892317501 -7.00000000
3.46834564 2.51897573 0.67892557 8 9 5401 4.34000000 1892317504 1892317504 9.00000000
3.43534517 2.49500847 -0.37145779 9 10 5401 4.26200000 1892317506 1892317506 -5.00000000
3.46179652 2.51329660 0.83154559 8 11 5402 4.35800000 1892317508 1892317508 11.00000000
3.43329954 2.49169254 -0.22232315 8 12 5403 4.24800000 1892317511 1892317511 -3.00000000
3.47493100 2.52098060 0.99113435 9 13 5404 4.40600000 1892317513 1892317513 13.00000000
3.44807100 2.50057578 -0.07434725 7 14 5405 4.26000000 1892317515 1892317515 -1.00000000
3.47340226 2.51894617 1.14967418 8 15 5405 4.44200000 1892317517 1892317517 15.00000000
1.85038936 1.33798254 -0.61184824 4 0 5413 2.36400000 1892317538 1892317538 -15.00000000
3.46171856 2.50218511 0.07455668 7 1 5414 4.27200000 1892317541 1892317541 1.00000000
2.19400501 1.58527875 -0.62491405 3 2 5415 2.77800000 1892317543 1892317543 -13.00000000
3.47942138 2.51313233 0.22493994 7 3 5416 4.29800000 1892317545 1892317545 3.00000000
2.64829326 1.91282141 -0.63501233 5 4 5416 3.32800000 1892317547 1892317547 -11.00000000
3.47299075 2.50756526 0.37476969 7 5 5417 4.30000000 1892317550 1892317550 5.00000000
3.32363772 2.39884710 -0.64920300 9 6 5418 4.15000000 1892317552 1892317552 -9.00000000
3.48207068 2.51227260 0.52720678 7 7 5419 4.32600000 1892317554 1892317554 7.00000000
3.46157861 2.49656916 -0.52403820 8 8 5420 4.30000000 1892317557 1892317557 -7.00000000
3.48833370 2.51494026 0.68111569 8 9 5421 4.35400000 1892317559 1892317559 9.00000000
3.45696259 2.49232316 -0.37285227 9 10 5421 4.27800000 1892317561 1892317561 -5.00000000
3.48488307 2.51152825 0.83498019 8 11 5422 4.37600000 1892317564 1892317564 11.00000000
3.45656085 2.49020004 -0.22326519 8 12 5423 4.26600000 1892317566 1892317566 -3.00000000
3.49003506 2.51339078 0.99293393 9 13 5424 4.41400000 1892317568 1892317568 13.00000000
3.47625351 2.50254440 -0.07476611 7 14 5425 4.28400000 1892317570 1892317570 -1.00000000
3.49985981 2.51861119 1.15536821 8 15 5426 4.46400000 1892317573 1892317573 15.00000000
1.86289549 1.33714771 -0.61443639 4 0 5433 2.37400000 1892317594 1892317594 -15.00000000
3.48018003 2.49708080 0.07476611 7 1 5434 4.28400000 1892317596 1892317596 1.00000000
2.19952536 1.57761049 -0.62491405 3 2 5435 2.77800000 1892317598 1892317598 -13.00000000
3.49141884 2.50329900 0.22514929 7 3 5436 4.30200000 1892317600 1892317600 3.00000000
2.65016770 1.90013361 -0.63386750 5 4 5436 3.32200000 1892317603 1892317603 -11.00000000
3.50601363 2.51283693 0.37738436 7 5 5437 4.33000000 1892317605 1892317605 5.00000000
3.33841419 2.39183283 -0.65045452 9 6 5438 4.15800000 1892317607 1892317607 -9.00000000
3.50857162 2.51281691 0.52988791 7 7 5439 4.34800000 1892317610 1892317610 7.00000000
3.47511435 2.48793745 -0.52476937 8 8 5440 4.30600000 1892317612 1892317612 -7.00000000
3.51636791 2.51654410 0.68487006 8 9 5441 4.37800000 1892317614 1892317614 9.00000000
3.49156499 2.49879336 -0.37564126 10 10 5441 4.31000000 1892317617 1892317617 -5.00000000
3.51757956 2.51648283 0.84070444 8 11 5442 4.40600000 1892317619 1892317619 11.00000000
3.48147798 2.48973727 -0.22431190 8 12 5443 4.28600000 1892317621 1892317621 -3.00000000
3.51146984 2.51025939 0.99653316 8 13 5444 4.43000000 1892317623 1892317623 13.00000000
3.49635649 2.49853325 -0.07501044 7 14 5445 4.29800000 1892317626 1892317626 -1.00000000
3.52705383 2.52046990 1.16157985 8 15 5445 4.48800000 1892317628 1892317628 15.00000000
1.86125839 1.32615280 -0.61236584 4 0 5453 2.36600000 1892317649 1892317649 -15.00000000
