# .PCD v0.7 - Point Cloud Data file format
VERSION 0.7
FIELDS x y z intensity laser_id azimuth distance_m adjustedtime timestamp vertical_angle
SIZE 4 4 4 1 1 2 8 8 4 8
TYPE F F F U U U F U U F
COUNT 1 1 1 1 1 1 1 1 1 1
WIDTH 522
HEIGHT 1
VIEWPOINT 0 0 0 1 0 0 0
POINTS 522
DATA ascii
-3.60360241 7.06636906 2.12542200 15 15 33298 8.21200000 1892594993 1892594993 15.00000000
-0.97064036 1.90993083 -0.57406062 4 0 33306 2.21800000 1892595014 1892595014 -15.00000000
-1.14608729 2.25710821 -0.58442283 3 2 33308 2.59800000 1892595018 1892595018 -13.00000000
-1.35681581 2.67327356 -0.58273065 2 4 33309 3.05400000 1892595023 1892595023 -11.00000000
-1.68677974 3.32626319 -0.59069651 2 6 33311 3.77600000 1892595028 1892595028 -9.00000000
-2.20800328 4.35786581 -0.59984088 2 8 33313 4.92200000 1892595032 1892595032 -7.00000000
-3.13444567 6.18903494 -0.60695261 4 10 33314 6.96400000 1892595037 1892595037 -5.00000000
-4.97181749 9.82122040 2.13973212 12 11 33315 11.21400000 1892595039 1892595039 11.00000000
-5.36368990 10.59990692 -0.62258852 4 12 33316 11.89600000 1892595041 1892595041 -3.00000000
-4.33268213 8.56610489 2.21621776 57 13 33317 9.85200000 1892595044 1892595044 13.00000000
-3.57194138 7.06511259 2.12128091 11 15 33318 8.19600000 1892595048 1892595048 15.00000000
-0.96396756 1.91330731 -0.57406062 4 0 33326 2.21800000 1892595069 1892595069 -15.00000000
-1.13644910 2.25761390 -0.58352304 3 2 33328 2.59400000 1892595074 1892595074 -13.00000000
-1.35100579 2.68500853 -0.58425713 2 4 33329 3.06200000 1892595078 1892595078 -11.00000000
-1.67338419 3.32860112 -0.59007078 2 6 33331 3.77200000 1892595083 1892595083 -9.00000000
-2.19990611 4.37973785 -0.60179085 2 8 33333 4.93800000 1892595087 1892595087 -7.00000000
-3.12176275 6.21774435 -0.60869569 4 10 33334 6.98400000 1892595092 1892595092 -5.00000000
-4.91813183 9.79991245 2.13133645 12 11 33335 11.17000000 1892595094 1892595094 11.00000000
-5.32397032 10.61320972 -0.62227452 4 12 33336 11.89000000 1892595097 1892595097 -3.00000000
-4.30450106 8.58466053 2.21711755 57 13 33337 9.85600000 1892595099 1892595099 13.00000000
-3.54466081 7.07235670 2.11972809 9 15 33338 8.19000000 1892595104 1892595104 15.00000000
-0.96677816 1.93567157 -0.57975465 4 0 33346 2.24000000 1892595124 1892595124 -15.00000000
-1.12334085 2.25110483 -0.58082360 3 2 33348 2.58200000 1892595129 1892595129 -13.00000000
-1.34513044 2.69673538 -0.58578360 2 4 33349 3.07000000 1892595134 1892595134 -11.00000000
-1.65646839 3.32381415 -0.58819360 2 6 33351 3.76000000 1892595138 1892595138 -9.00000000
-2.16779327 4.35362768 -0.59715980 2 8 33353 4.90000000 1892595143 1892595143 -7.00000000
-3.10714173 6.24287271 -0.61009020 4 10 33354 7.00000000 1892595147 1892595147 -5.00000000
-4.87514925 9.79944229 2.12752032 18 11 33355 11.15000000 1892595150 1892595150 11.00000000
-5.29222631 10.64245892 -0.62290257 4 12 33356 11.90200000 1892595152 1892595152 -3.00000000
-4.26930475 8.58916283 2.21441817 59 13 33357 9.84400000 1892595154 1892595154 13.00000000
-3.52215266 7.09222221 2.12179852 6 15 33359 8.19800000 1892595159 1892595159 15.00000000
-0.95967704 1.93920207 -0.57975465 4 0 33367 2.24000000 1892595180 1892595180 -15.00000000
-1.12199247 2.26918197 -0.58442283 3 2 33369 2.59800000 1892595184 1892595184 -13.00000000
-1.33175790 2.69460726 -0.58425713 2 4 33370 3.06200000 1892595189 1892595189 -11.00000000
-1.65302098 3.34757519 -0.59132230 2 6 33372 3.78000000 1892595193 1892595193 -9.00000000
-2.17992711 4.41851091 -0.60495943 2 8 33374 4.96400000 1892595198 1892595198 -7.00000000
-3.11067581 6.30782652 -0.61531955 4 10 33375 7.06000000 1892595203 1892595203 -5.00000000
-4.83312368 9.80491829 2.12484908 21 11 33376 11.13600000 1892595205 1892595205 11.00000000
-5.27525282 10.70657444 -0.62551934 4 12 33377 11.95200000 1892595207 1892595207 -3.00000000
-4.23262930 8.59426403 2.21171880 59 13 33378 9.83200000 1892595210 1892595210 13.00000000
-3.51017308 7.13047171 2.12956309 2 15 33379 8.22800000 1892595214 1892595214 15.00000000
-0.94779730 1.93213367 -0.57664883 4 0 33387 2.22800000 1892595235 1892595235 -15.00000000
-1.11577988 2.27658439 -0.58532262 3 2 33389 2.60200000 1892595239 1892595239 -13.00000000
-1.32752609 2.70981789 -0.58654684 2 4 33390 3.07400000 1892595244 1892595244 -11.00000000
-1.63958883 3.34977651 -0.59069651 2 6 33392 3.77600000 1892595249 1892595249 -9.00000000
-2.16623449 4.42965984 -0.60544688 2 8 33394 4.96800000 1892595253 1892595253 -7.00000000
-3.08688855 6.31506634 -0.61497092 4 10 33395 7.05600000 1892595258 1892595258 -5.00000000
-4.78680229 9.79703426 2.11950636 21 11 33396 11.10800000 1892595260 1892595260 11.00000000
-5.24661255 10.74287033 -0.62656605 4 12 33397 11.97200000 1892595263 1892595263 -3.00000000
-4.20431376 8.61248875 2.21261859 60 13 33398 9.83600000 1892595265 1892595265 13.00000000
-3.92579079 8.04549980 2.39873481 45 15 33399 9.26800000 1892595269 1892595269 15.00000000
-0.94476509 1.94221497 -0.57871938 4 0 33406 2.23600000 1892595290 1892595290 -15.00000000
-1.10822439 2.28027201 -0.58532262 3 2 33408 2.60200000 1892595295 1892595295 -13.00000000
-1.31853271 2.71420527 -0.58654684 2 4 33409 3.07400000 1892595299 1892595299 -11.00000000
-1.62157130 3.34097815 -0.58819360 2 6 33411 3.76000000 1892595304 1892595304 -9.00000000
-2.14460421 4.42252970 -0.60349697 2 8 33413 4.95200000 1892595309 1892595309 -7.00000000
-3.05202556 6.29658222 -0.61218196 4 10 33414 7.02400000 1892595313 1892595313 -5.00000000
-4.74915171 9.80225277 2.11721659 21 11 33415 11.09600000 1892595316 1892595316 11.00000000
-5.21444130 10.76739979 -0.62698478 4 12 33416 11.98000000 1892595318 1892595318 -3.00000000
-4.17573023 8.62638378 2.21261859 60 13 33417 9.83600000 1892595320 1892595320 13.00000000
-3.91955137 8.10437202 2.41219354 45 15 33419 9.32000000 1892595325 1892595325 15.00000000
-0.93630177 1.94202065 -0.57768410 4 0 33426 2.23200000 1892595345 1892595345 -15.00000000
-1.10025799 2.28412652 -0.58532262 3 2 33428 2.60200000 1892595350 1892595350 -13.00000000
-1.30564356 2.71171570 -0.58502036 2 4 33429 3.06600000 1892595355 1892595355 -11.00000000
-1.61503720 3.35729885 -0.59007078 2 6 33431 3.77200000 1892595359 1892595359 -9.00000000
-2.13431311 4.44072390 -0.60495943 2 8 33433 4.96400000 1892595364 1892595364 -7.00000000
-3.02140021 6.28923845 -0.61043882 4 10 33434 7.00400000 1892595369 1892595369 -5.00000000
-4.69960976 9.78691483 2.11034751 21 11 33435 11.06000000 1892595371 1892595371 11.00000000
-4.14559317 8.64090729 2.21261859 59 13 33437 9.83600000 1892595375 1892595375 13.00000000
-3.91378379 8.16504002 2.42616963 45 15 33439 9.37400000 1892595380 1892595380 15.00000000
-0.93118298 1.94876325 -0.57871938 4 0 33446 2.23600000 1892595401 1892595401 -15.00000000
-1.09227824 2.28795314 -0.58532262 3 2 33448 2.60200000 1892595405 1892595405 -13.00000000
-1.30124307 2.72688794 -0.58731008 2 4 33449 3.07800000 1892595410 1892595410 -11.00000000
-1.61010909 3.37718058 -0.59257376 2 6 33451 3.78800000 1892595415 1892595415 -9.00000000
-2.10514045 4.41947222 -0.60105962 2 8 33453 4.93200000 1892595419 1892595419 -7.00000000
-3.02683592 6.35731173 -0.61601681 4 10 33454 7.06800000 1892595424 1892595424 -5.00000000
-4.66204357 9.79616928 2.10882092 21 11 33455 11.05200000 1892595426 1892595426 11.00000000
-5.14514971 10.81616592 -0.62771744 4 12 33456 11.99400000 1892595428 1892595428 -3.00000000
-4.11289501 8.65004539 2.21126890 59 13 33457 9.83000000 1892595431 1892595431 13.00000000
-3.91344285 8.23797989 2.44376945 45 15 33459 9.44200000 1892595435 1892595435 15.00000000
-0.92768210 1.95898569 -0.58078992 4 0 33466 2.24400000 1892595456 1892595456 -15.00000000
-1.08428514 2.29175210 -0.58532262 3 2 33468 2.60200000 1892595461 1892595461 -13.00000000
-1.28332329 2.71366549 -0.58349389 2 4 33469 3.05800000 1892595465 1892595465 -11.00000000
-1.59493518 3.37563610 -0.59132230 2 6 33471 3.78000000 1892595470 1892595470 -9.00000000
-2.07614231 4.39807177 -0.59715980 2 8 33473 4.90000000 1892595475 1892595475 -7.00000000
-3.02843213 6.41829109 -0.62089753 4 10 33474 7.12400000 1892595479 1892595479 -5.00000000
-4.61944580 9.79462624 2.10500479 25 11 33475 11.03200000 1892595481 1892595481 11.00000000
-4.08101463 8.66082382 2.21036911 59 13 33477 9.82600000 1892595486 1892595486 13.00000000
-3.91017127 8.30577374 2.45981622 45 15 33479 9.50400000 1892595491 1892595491 15.00000000
-0.91755545 1.95521653 -0.57871938 4 0 33486 2.23600000 1892595511 1892595511 -15.00000000
-1.07296968 2.28846526 -0.58352304 3 2 33488 2.59400000 1892595516 1892595516 -13.00000000
-1.27051055 2.71101761 -0.58196741 2 4 33489 3.05000000 1892595521 1892595521 -11.00000000
-1.59486926 3.40622878 -0.59570247 2 6 33491 3.80800000 1892595525 1892595525 -9.00000000
-2.06077743 4.40529203 -0.59715980 2 8 33493 4.90000000 1892595530 1892595530 -7.00000000
-2.97731662 6.36745882 -0.61497092 4 10 33494 7.05600000 1892595534 1892595534 -5.00000000
-4.58522797 9.81069088 2.10500479 21 11 33495 11.03200000 1892595537 1892595537 11.00000000
-4.04910898 8.67148495 2.20946932 60 13 33497 9.82200000 1892595541 1892595541 13.00000000
-3.90875244 8.37471294 2.47638059 47 15 33498 9.56800000 1892595546 1892595546 15.00000000
-0.90746647 1.95140076 -0.57664883 4 0 33506 2.22800000 1892595567 1892595567 -15.00000000
-1.06825936 2.29926586 -0.58532262 3 2 33508 2.60200000 1892595571 1892595571 -13.00000000
-1.27427018 2.74392581 -0.58807331 2 4 33509 3.08200000 1892595576 1892595576 -11.00000000
-1.57382429 3.39206433 -0.59226090 2 6 33511 3.78600000 1892595580 1892595580 -9.00000000
-2.05874515 4.44127464 -0.60105962 2 8 33513 4.93200000 1892595585 1892595585 -7.00000000
-2.97014880 6.41035271 -0.61810851 4 10 33514 7.09200000 1892595590 1892595590 -5.00000000
-4.53775358 9.79813290 2.09889889 21 11 33515 11.00000000 1892595592 1892595592 11.00000000
-4.01717806 8.68202877 2.20856953 59 13 33517 9.81800000 1892595597 1892595597 13.00000000
-3.90234995 8.44158936 2.49190974 47 15 33519 9.62800000 1892595601 1892595601 15.00000000
-0.90307474 1.95982003 -0.57820177 4 0 33526 2.23400000 1892595622 1892595622 -15.00000000
-1.06348670 2.31006145 -0.58712226 3 2 33528 2.61000000 1892595627 1892595627 -13.00000000
-1.26304293 2.74479032 -0.58731008 2 4 33529 3.07800000 1892595631 1892595631 -11.00000000
-1.56114900 3.39574242 -0.59194803 2 6 33531 3.78400000 1892595636 1892595636 -9.00000000
-2.05980086 4.48451185 -0.60593438 2 8 33533 4.97200000 1892595640 1892595640 -7.00000000
-2.96105504 6.44965219 -0.62089753 4 10 33534 7.12400000 1892595645 1892595645 -5.00000000
-4.48878527 9.78179550 2.09202981 21 11 33535 10.96400000 1892595647 1892595647 11.00000000
-3.98684788 8.69599819 2.20856953 64 13 33537 9.81800000 1892595652 1892595652 13.00000000
-3.88882184 8.48609543 2.50122714 42 15 33538 9.66400000 1892595657 1892595657 15.00000000
-0.89783287 1.96647513 -0.57923704 4 0 33546 2.23800000 1892595677 1892595677 -15.00000000
-1.04894650 2.29957557 -0.58352304 3 2 33548 2.59400000 1892595682 1892595682 -13.00000000
-1.25345409 2.74918246 -0.58731008 2 4 33549 3.07800000 1892595686 1892595686 -11.00000000
-1.55256164 3.40836191 -0.59319949 2 6 33551 3.79200000 1892595691 1892595691 -9.00000000
-2.05564618 4.51696968 -0.60934669 2 8 33553 5.00000000 1892595696 1892595696 -7.00000000
-2.94347334 6.47083044 -0.62194335 4 10 33554 7.13600000 1892595700 1892595700 -5.00000000
-4.44892502 9.78489399 2.08935857 15 11 33555 10.95000000 1892595703 1892595703 11.00000000
-3.95485687 8.70631409 2.20766973 59 13 33557 9.81400000 1892595707 1892595707 13.00000000
-3.86407948 8.51436520 2.50536847 40 15 33559 9.68000000 1892595712 1892595712 15.00000000
-0.89767903 1.98352170 -0.58337814 4 0 33565 2.25400000 1892595733 1892595733 -15.00000000
-1.04131508 2.30304146 -0.58352304 3 2 33567 2.59400000 1892595737 1892595737 -13.00000000
-1.24271357 2.74974585 -0.58654684 2 4 33568 3.07400000 1892595742 1892595742 -11.00000000
-1.53962481 3.40989089 -0.59257376 2 6 33570 3.78800000 1892595746 1892595746 -9.00000000
-2.02106571 4.48033333 -0.60349697 2 8 33572 4.95200000 1892595751 1892595751 -7.00000000
-2.90889597 6.45149517 -0.61915439 4 10 33573 7.10400000 1892595756 1892595756 -5.00000000
-4.41806602 9.80317307 2.09012175 21 11 33574 10.95400000 1892595758 1892595758 11.00000000
-4.90054369 10.87880325 -0.62531000 4 12 33575 11.94800000 1892595760 1892595760 -3.00000000
-3.93076444 8.73004246 2.21036911 62 13 33576 9.82600000 1892595763 1892595763 13.00000000
-4.82885838 10.72966766 -0.20537992 2 14 33577 11.76800000 1892595765 1892595765 -1.00000000
-3.83810449 8.52822495 2.50588608 40 15 33577 9.68200000 1892595767 1892595767 15.00000000
-0.88442683 1.97254097 -0.57923704 4 0 33585 2.23800000 1892595788 1892595788 -15.00000000
-4.86515570 10.85585308 0.20764874 3 1 33586 11.89800000 1892595790 1892595790 1.00000000
-1.03964293 2.32088995 -0.58712226 3 2 33587 2.61000000 1892595792 1892595792 -13.00000000
-4.82034779 10.76593876 0.61819232 2 3 33588 11.81200000 1892595795 1892595795 3.00000000
-1.23631668 2.76123428 -0.58807331 2 4 33588 3.08200000 1892595797 1892595797 -11.00000000
-1.51642013 3.38999963 -0.58819360 2 6 33590 3.76000000 1892595802 1892595802 -9.00000000
-4.78351212 10.70369720 -1.43952072 2 8 33592 11.81200000 1892595806 1892595806 -7.00000000
-2.90586066 6.50526905 -0.62333786 4 10 33593 7.15200000 1892595811 1892595811 -5.00000000
-4.38141823 9.81315708 2.08897686 12 11 33594 10.94800000 1892595813 1892595813 11.00000000
-4.78847027 10.72987080 -0.61578488 8 12 33595 11.76600000 1892595815 1892595815 -3.00000000
-3.91614437 8.77930355 2.21936703 62 13 33596 9.86600000 1892595818 1892595818 13.00000000
-4.78323221 10.72819424 -0.20503087 8 14 33597 11.74800000 1892595820 1892595820 -1.00000000
-3.80682135 8.54223442 2.50588608 40 15 33598 9.68200000 1892595822 1892595822 15.00000000
-0.87596756 1.97208512 -0.57820177 4 0 33605 2.23400000 1892595843 1892595843 -15.00000000
-4.76556301 10.73386669 0.20499596 13 1 33606 11.74600000 1892595845 1892595845 1.00000000
-1.03469694 2.33162975 -0.58892184 3 2 33607 2.61800000 1892595848 1892595848 -13.00000000
-4.76735163 10.74801064 0.61620355 13 3 33608 11.77400000 1892595850 1892595850 3.00000000
-1.22348654 2.75835443 -0.58654684 2 4 33608 3.07400000 1892595852 1892595852 -11.00000000
-4.75789452 10.73174191 1.02704322 12 5 33609 11.78400000 1892595855 1892595855 5.00000000
-1.51258063 3.41333222 -0.59132230 2 6 33610 3.78000000 1892595857 1892595857 -9.00000000
-4.76487350 10.75761700 1.44463921 17 7 33611 11.85400000 1892595859 1892595859 7.00000000
-4.74451256 10.71669960 -1.43903315 2 8 33612 11.80800000 1892595862 1892595862 -7.00000000
-4.76207542 10.75636864 1.86313450 9 9 33612 11.91000000 1892595864 1892595864 9.00000000
-2.87991047 6.50808477 -0.62264061 4 10 33613 7.14400000 1892595866 1892595866 -5.00000000
-4.74775648 10.73921299 -0.61536616 8 12 33615 11.75800000 1892595871 1892595871 -3.00000000
-3.90437865 8.83570004 2.23016477 64 13 33616 9.91400000 1892595873 1892595873 13.00000000
-4.73686743 10.72470474 -0.20464692 8 14 33617 11.72600000 1892595875 1892595875 -1.00000000
-3.77691221 8.55127716 2.50485063 38 15 33617 9.67800000 1892595878 1892595878 15.00000000
-0.87063444 1.97866726 -0.57923704 4 0 33625 2.23800000 1892595898 1892595898 -15.00000000
-4.71840525 10.72847080 0.20457710 16 1 33626 11.72200000 1892595901 1892595901 1.00000000
-1.02498329 2.33165932 -0.58802205 3 2 33627 2.61400000 1892595903 1892595903 -13.00000000
-4.72819853 10.76092911 0.61599422 18 3 33628 11.77000000 1892595905 1892595905 3.00000000
-1.21385062 2.76260853 -0.58654684 2 4 33628 3.07400000 1892595908 1892595908 -11.00000000
-4.71559763 10.73733902 1.02599740 17 5 33629 11.77200000 1892595910 1892595910 5.00000000
-1.51494873 3.45114946 -0.59695393 2 6 33630 3.81600000 1892595912 1892595912 -9.00000000
-4.71692467 10.75055218 1.44147062 21 7 33631 11.82800000 1892595915 1892595915 7.00000000
-4.70867014 10.73683167 -1.43952072 2 8 33632 11.81200000 1892595917 1892595917 -7.00000000
-4.71627474 10.75927639 1.86063159 15 9 33633 11.89400000 1892595919 1892595919 9.00000000
-2.84917665 6.49985027 -0.62089753 4 10 33633 7.12400000 1892595921 1892595921 -5.00000000
-4.52474022 10.32722950 2.19163203 31 11 33634 11.48600000 1892595924 1892595924 11.00000000
-4.70543337 10.74474335 -0.61473817 8 12 33635 11.74600000 1892595926 1892595926 -3.00000000
-3.91102076 8.93496418 2.25176001 66 13 33636 10.01000000 1892595928 1892595928 13.00000000
-4.69138718 10.72285366 -0.20429787 8 14 33637 11.70600000 1892595931 1892595931 -1.00000000
-3.74477077 8.56329250 2.50433302 38 15 33638 9.67600000 1892595933 1892595933 15.00000000
-0.86835349 1.99231994 -0.58234286 4 0 33645 2.25000000 1892595954 1892595954 -15.00000000
-4.67773247 10.73754215 0.20443749 23 1 33646 11.71400000 1892595956 1892595956 1.00000000
-1.01528203 2.33164954 -0.58712226 3 2 33647 2.61000000 1892595958 1892595958 -13.00000000
-4.67705727 10.74623489 0.61421478 21 3 33648 11.73600000 1892595961 1892595961 3.00000000
-1.20733380 2.77402925 -0.58807331 4 4 33648 3.08200000 1892595963 1892595963 -11.00000000
-4.67252493 10.74094486 1.02477717 17 5 33649 11.75800000 1892595965 1892595965 5.00000000
-1.49344051 3.43467808 -0.59319949 2 6 33650 3.79200000 1892595968 1892595968 -9.00000000
-4.66908360 10.74328423 1.43830204 19 7 33651 11.80200000 1892595970 1892595970 7.00000000
-4.66483545 10.73863697 -1.43757081 2 8 33652 11.79600000 1892595972 1892595972 -7.00000000
-4.67427349 10.76036263 1.85812855 15 9 33652 11.87800000 1892595974 1892595974 9.00000000
-4.65788364 10.72775650 -1.02320838 4 10 33653 11.74000000 1892595977 1892595977 -5.00000000
-4.48631907 10.33755779 2.19048738 40 11 33654 11.48000000 1892595979 1892595979 11.00000000
-4.65041304 10.72079182 -0.61243534 12 12 33655 11.70200000 1892595981 1892595981 -3.00000000
-3.90306377 9.00220013 2.26525712 56 13 33656 10.07000000 1892595984 1892595984 13.00000000
-4.64677238 10.72265053 -0.20398372 8 14 33657 11.68800000 1892595986 1892595986 -1.00000000
-3.71865773 8.58098125 2.50588608 40 15 33657 9.68200000 1892595988 1892595988 15.00000000
-0.85986239 1.99179173 -0.58130759 4 0 33665 2.24600000 1892596009 1892596009 -15.00000000
-4.63467741 10.74095345 0.20419316 20 1 33666 11.70000000 1892596011 1892596011 1.00000000
-1.00559342 2.33160067 -0.58622247 3 2 33667 2.60600000 1892596014 1892596014 -13.00000000
-4.62686682 10.73315048 0.61254001 21 3 33668 11.70400000 1892596016 1892596016 3.00000000
-1.19453454 2.77101541 -0.58654684 2 4 33668 3.07400000 1892596018 1892596018 -11.00000000
-4.63106155 10.74804115 1.02390563 17 5 33669 11.74800000 1892596021 1892596021 5.00000000
-1.48456764 3.44712734 -0.59445095 2 6 33670 3.80000000 1892596023 1892596023 -9.00000000
-4.62684488 10.74857712 1.43683958 19 7 33671 11.79000000 1892596025 1892596025 7.00000000
-1.97080934 4.58056879 -0.61227161 2 8 33672 5.02400000 1892596027 1892596027 -7.00000000
-4.62387753 10.75201702 1.85374844 15 9 33673 11.85000000 1892596030 1892596030 9.00000000
-4.62198305 10.74761105 -1.02355707 4 10 33673 11.74400000 1892596032 1892596032 -5.00000000
-4.45253325 10.35856628 2.19163203 43 11 33674 11.48600000 1892596034 1892596034 11.00000000
-4.60507774 10.71860886 -0.61138862 8 12 33675 11.68200000 1892596037 1892596037 -3.00000000
-3.89622235 9.07306957 2.27965403 66 13 33676 10.13400000 1892596039 1892596039 13.00000000
-4.60221672 10.72226715 -0.20366958 12 14 33677 11.67000000 1892596041 1892596041 -1.00000000
-3.68870521 8.59810448 2.50692129 40 15 33678 9.68600000 1892596044 1892596044 15.00000000
-0.85594243 2.00188613 -0.58337814 4 0 33685 2.25400000 1892596064 1892596064 -15.00000000
-4.58929777 10.73867702 0.20384410 16 1 33686 11.68000000 1892596067 1892596067 1.00000000
-0.99744850 2.33509660 -0.58622247 3 2 33687 2.60600000 1892596069 1892596069 -13.00000000
-4.58702040 10.74372482 0.61222601 18 3 33688 11.69800000 1892596071 1892596071 3.00000000
-1.18331289 2.77155709 -0.58578360 2 4 33688 3.07000000 1892596074 1892596074 -11.00000000
-4.58569574 10.74581623 1.02216256 17 5 33689 11.72800000 1892596076 1892596076 5.00000000
-1.46942580 3.44502044 -0.59319949 2 6 33690 3.79200000 1892596078 1892596078 -9.00000000
-4.58462572 10.75370502 1.43537712 19 7 33691 11.77800000 1892596080 1892596080 7.00000000
-1.91901159 4.50341511 -0.60105962 2 8 33692 4.93200000 1892596083 1892596083 -7.00000000
-4.57813025 10.74366665 1.84968114 15 9 33692 11.82400000 1892596085 1892596085 9.00000000
-4.57975435 10.75268078 -1.02251112 4 10 33693 11.73200000 1892596087 1892596087 -5.00000000
-4.41634798 10.37404537 2.19163203 43 11 33694 11.48600000 1892596090 1892596090 11.00000000
-4.56607103 10.73094273 -0.61117929 8 12 33695 11.67800000 1892596092 1892596092 -3.00000000
-3.89961123 9.16910553 2.30034947 59 13 33696 10.22600000 1892596094 1892596094 13.00000000
-4.55693769 10.71986389 -0.20332053 19 14 33697 11.65000000 1892596097 1892596097 -1.00000000
-3.65866113 8.60673332 2.50588608 40 15 33697 9.68200000 1892596099 1892596099 15.00000000
-0.84292305 1.99063039 -0.57923704 4 0 33705 2.23800000 1892596120 1892596120 -15.00000000
-4.54165220 10.73069191 0.20339034 10 1 33706 11.65400000 1892596122 1892596122 1.00000000
-0.99688381 2.35651159 -0.59072149 3 2 33707 2.62600000 1892596124 1892596124 -13.00000000
-4.54560041 10.75047302 0.61170268 18 3 33708 11.68800000 1892596127 1892596127 3.00000000
-1.17363107 2.77567053 -0.58578360 4 4 33708 3.07000000 1892596129 1892596129 -11.00000000
-4.53807497 10.73789978 1.01989651 17 5 33709 11.70200000 1892596131 1892596131 5.00000000
-1.45892882 3.45376825 -0.59382522 2 6 33710 3.79600000 1892596133 1892596133 -9.00000000
-4.54242802 10.75867081 1.43391466 19 7 33711 11.76600000 1892596136 1892596136 7.00000000
-1.91099811 4.52837515 -0.60349697 2 8 33712 4.95200000 1892596138 1892596138 -7.00000000
-4.53368759 10.74320221 1.84686530 12 9 33712 11.80600000 1892596140 1892596140 9.00000000
-4.53290033 10.74657249 -1.02041948 4 10 33713 11.70800000 1892596143 1892596143 -5.00000000
-4.37858343 10.38578033 2.19086885 46 11 33714 11.48200000 1892596145 1892596145 11.00000000
-4.51695156 10.71920872 -0.60960925 12 12 33715 11.64800000 1892596147 1892596147 -3.00000000
-3.89027405 9.23654079 2.31384659 57 13 33716 10.28600000 1892596150 1892596150 13.00000000
-4.51095629 10.71543121 -0.20293657 17 14 33717 11.62800000 1892596152 1892596152 -1.00000000
-3.62484789 8.61054897 2.50329781 38 15 33717 9.67200000 1892596154 1892596154 15.00000000
-0.84045172 2.00424981 -0.58234286 4 0 33725 2.25000000 1892596175 1892596175 -15.00000000
-4.49179983 10.71697140 0.20283186 13 1 33726 11.62200000 1892596177 1892596177 1.00000000
-0.98413414 2.34919262 -0.58802205 3 2 33727 2.61400000 1892596180 1892596180 -13.00000000
-4.50033283 10.74785233 0.61065596 23 3 33728 11.66800000 1892596182 1892596182 3.00000000
-1.16772640 2.78880501 -0.58769172 4 4 33728 3.08000000 1892596184 1892596184 -11.00000000
-4.49671936 10.74448586 1.01902497 68 5 33729 11.69200000 1892596186 1892596186 5.00000000
-1.44076550 3.44426084 -0.59132230 2 6 33730 3.78000000 1892596189 1892596189 -9.00000000
-4.49489069 10.75065231 1.43074608 19 7 33731 11.74000000 1892596191 1892596191 7.00000000
-4.48382950 10.72945786 -1.42782128 2 8 33732 11.71600000 1892596193 1892596193 -7.00000000
-4.48971319 10.74881077 1.84498811 12 9 33733 11.79400000 1892596196 1892596196 9.00000000
-4.49228859 10.75497627 -1.01972222 4 10 33733 11.70000000 1892596198 1892596198 -5.00000000
-4.33776522 10.39013100 2.18857908 50 11 33734 11.47000000 1892596200 1892596200 11.00000000
-4.47258472 10.71832085 -0.60866719 8 12 33735 11.63000000 1892596203 1892596203 -3.00000000
-3.89401579 9.33639526 2.33544183 68 13 33736 10.38200000 1892596205 1892596205 13.00000000
-4.47275543 10.72926712 -0.20290168 17 14 33737 11.62600000 1892596207 1892596207 -1.00000000
-3.59699941 8.62849903 2.50485063 38 15 33737 9.67800000 1892596209 1892596209 15.00000000
-0.83196878 2.00360322 -0.58130759 4 0 33745 2.24600000 1892596230 1892596230 -15.00000000
-4.45129728 10.72519779 0.20269226 13 1 33746 11.61400000 1892596233 1892596233 1.00000000
-0.97294116 2.34541345 -0.58622247 3 2 33747 2.60600000 1892596235 1892596235 -13.00000000
-4.45743370 10.75058079 0.60992324 23 3 33748 11.65400000 1892596237 1892596237 3.00000000
-1.16249621 2.80374551 -0.58998144 4 4 33748 3.09200000 1892596239 1892596239 -11.00000000
-4.45232153 10.74355125 1.01745617 76 5 33749 11.67400000 1892596242 1892596242 5.00000000
-1.44460881 3.48759437 -0.59789252 2 6 33750 3.82200000 1892596244 1892596244 -9.00000000
-4.44746494 10.74243355 1.42757750 21 7 33751 11.71400000 1892596246 1892596246 7.00000000
-4.43875885 10.72670078 -1.42538381 2 8 33752 11.69600000 1892596249 1892596249 -7.00000000
-4.44990063 10.75894070 1.84404945 15 9 33753 11.78800000 1892596251 1892596251 9.00000000
-2.74136591 6.62805653 -0.62752134 4 10 33753 7.20000000 1892596253 1892596253 -5.00000000
-4.30147076 10.40520859 2.18857908 46 11 33754 11.47000000 1892596256 1892596256 11.00000000
-4.42904186 10.71910095 -0.60782981 8 12 33755 11.61400000 1892596258 1892596258 -3.00000000
-3.88818121 9.41477394 2.35163832 57 13 33756 10.45400000 1892596260 1892596260 13.00000000
-4.43222427 10.73742104 -0.20276205 14 14 33757 11.61800000 1892596262 1892596262 -1.00000000
-3.56608701 8.64341068 2.50536847 40 15 33758 9.68000000 1892596265 1892596265 15.00000000
-0.82937753 2.01721549 -0.58441341 4 0 33765 2.25800000 1892596286 1892596286 -15.00000000
-4.41079187 10.73327160 0.20255263 10 1 33766 11.60600000 1892596288 1892596288 1.00000000
-0.96474820 2.34879541 -0.58622247 3 2 33767 2.60600000 1892596290 1892596290 -13.00000000
-4.41001940 10.74205589 0.60856247 23 3 33768 11.62800000 1892596292 1892596292 3.00000000
-1.15344775 2.80960250 -0.59036303 2 4 33768 3.09400000 1892596295 1892596295 -11.00000000
-4.41403627 10.75718403 1.01728177 80 5 33769 11.67200000 1892596297 1892596297 5.00000000
-1.42567992 3.47616696 -0.59507668 2 6 33770 3.80400000 1892596299 1892596299 -9.00000000
-4.40617514 10.74870872 1.42635882 21 7 33771 11.70400000 1892596302 1892596302 7.00000000
-4.39225721 10.72008705 -1.42245901 2 8 33772 11.67200000 1892596304 1892596304 -7.00000000
-4.40183735 10.74881554 1.83966935 18 9 33773 11.76000000 1892596306 1892596306 9.00000000
-2.71519256 6.63020992 -0.62682408 4 10 33773 7.19200000 1892596309 1892596309 -5.00000000
-4.26661062 10.42379475 2.18934250 46 11 33774 11.47400000 1892596311 1892596311 11.00000000
-4.39008570 10.73079872 -0.60762048 8 12 33775 11.61000000 1892596313 1892596313 -3.00000000
-3.88184643 9.49322414 2.36783481 68 13 33776 10.52600000 1892596315 1892596315 13.00000000
-4.38336849 10.72506046 -0.20223849 8 14 33777 11.58800000 1892596318 1892596318 -1.00000000
-3.54032826 8.66234207 2.50743890 36 15 33777 9.68800000 1892596320 1892596320 15.00000000
-0.81941760 2.01294112 -0.58234286 4 0 33785 2.25000000 1892596341 1892596341 -15.00000000
-4.36726952 10.73378468 0.20227338 13 1 33786 11.59000000 1892596343 1892596343 1.00000000
-0.95947993 2.35936952 -0.58802205 3 2 33787 2.61400000 1892596345 1892596345 -13.00000000
-4.36647892 10.74258232 0.60772514 23 3 33788 11.61200000 1892596348 1892596348 3.00000000
-1.14215493 2.80997396 -0.58959979 2 4 33788 3.09000000 1892596350 1892596350 -11.00000000
-4.35996151 10.73191738 1.01344693 55 5 33789 11.62800000 1892596352 1892596352 5.00000000
-1.41650987 3.48844337 -0.59632820 2 6 33790 3.81200000 1892596355 1892596355 -9.00000000
-4.36340284 10.75114822 1.42465258 21 7 33791 11.69000000 1892596357 1892596357 7.00000000
-4.34884071 10.72063732 -1.42050910 2 8 33792 11.65600000 1892596359 1892596359 -7.00000000
-4.35983706 10.75313187 1.83779204 18 9 33793 11.74800000 1892596362 1892596362 9.00000000
-2.70401025 6.66918993 -0.62961310 4 10 33793 7.22400000 1892596364 1892596364 -5.00000000
-4.23167372 10.44226265 2.19010568 46 11 33794 11.47800000 1892596366 1892596366 11.00000000
-4.34960222 10.73865318 -0.60720176 8 12 33795 11.60200000 1892596368 1892596368 -3.00000000
-3.88232374 9.58980751 2.38853025 64 13 33796 10.61800000 1892596371 1892596371 13.00000000
-4.33990383 10.72546673 -0.20195925 8 14 33797 11.57200000 1892596373 1892596373 -1.00000000
-3.50427270 8.66032124 2.50329781 38 15 33797 9.67200000 1892596375 1892596375 15.00000000
-0.80805337 2.00503826 -0.57923704 4 0 33805 2.23800000 1892596396 1892596396 -15.00000000
-4.31782055 10.71928596 0.20171492 16 1 33806 11.55800000 1892596398 1892596398 1.00000000
-0.95560521 2.37355065 -0.59072149 3 2 33807 2.62600000 1892596401 1892596401 -13.00000000
-4.32411814 10.74032879 0.60678309 21 3 33807 11.59400000 1892596403 1892596403 3.00000000
-1.13233936 2.81394386 -0.58959979 2 4 33808 3.09000000 1892596405 1892596405 -11.00000000
-4.31726933 10.73413181 1.01222682 21 5 33809 11.61400000 1892596408 1892596408 5.00000000
-1.41021872 3.50802922 -0.59883112 2 6 33810 3.82800000 1892596410 1892596410 -9.00000000
-4.31918669 10.74973583 1.42245901 21 7 33811 11.67200000 1892596412 1892596412 7.00000000
-1.84943056 4.60524750 -0.60934669 2 8 33812 5.00000000 1892596414 1892596414 -7.00000000
-4.31458426 10.74370003 1.83372486 18 9 33812 11.72200000 1892596417 1892596417 9.00000000
-2.66587067 6.64160776 -0.62612689 4 10 33813 7.18400000 1892596419 1892596419 -5.00000000
-4.19227362 10.44968224 2.18857908 46 11 33814 11.47000000 1892596421 1892596421 11.00000000
-4.30019760 10.72411060 -0.60552704 8 12 33815 11.57000000 1892596424 1892596424 -3.00000000
-3.87637401 9.67203808 2.40562654 68 13 33816 10.69400000 1892596426 1892596426 13.00000000
-4.29723310 10.72755623 -0.20171492 8 14 33817 11.55800000 1892596428 1892596428 -1.00000000
-3.47545791 8.67608738 2.50433302 38 15 33817 9.67600000 1892596431 1892596431 15.00000000
-0.80820817 2.02578974 -0.58441341 4 0 33825 2.25800000 1892596451 1892596451 -15.00000000
-4.27148914 10.71200371 0.20129606 16 1 33826 11.53400000 1892596454 1892596454 1.00000000
-0.94659263 2.37506175 -0.59027159 3 2 33827 2.62400000 1892596456 1892596456 -13.00000000
-4.28102827 10.74682713 0.60625970 23 3 33828 11.58400000 1892596458 1892596458 3.00000000
-1.12541604 2.82517481 -0.59112626 2 4 33828 3.09800000 1892596461 1892596461 -11.00000000
-4.27682590 10.74173164 1.01152956 59 5 33829 11.60600000 1892596463 1892596463 5.00000000
-1.38773930 3.48723483 -0.59445095 2 6 33830 3.80000000 1892596465 1892596465 -9.00000000
-4.27283287 10.74261284 1.41953409 21 7 33831 11.64800000 1892596467 1892596467 7.00000000
-1.83334398 4.61167526 -0.60934669 2 8 33832 5.00000000 1892596470 1892596470 -7.00000000
-4.26934195 10.74475574 1.83122182 18 9 33833 11.70600000 1892596472 1892596472 9.00000000
-4.25681877 10.71323776 -1.00856626 4 10 33833 11.57200000 1892596474 1892596474 -5.00000000
-4.15287352 10.45695400 2.18705273 46 11 33834 11.46200000 1892596477 1892596477 11.00000000
-4.25831604 10.72791672 -0.60489899 8 12 33835 11.55800000 1892596479 1892596479 -3.00000000
-3.87995815 9.77970219 2.42902160 66 13 33836 10.79800000 1892596481 1892596481 13.00000000
-4.25091553 10.72018433 -0.20129606 8 14 33837 11.53400000 1892596484 1892596484 -1.00000000
-3.44292331 8.68697071 2.50381541 36 15 33838 9.67400000 1892596486 1892596486 15.00000000
-0.80148602 2.02845883 -0.58441341 4 0 33844 2.25800000 1892596507 1892596507 -15.00000000
-4.23227072 10.71680927 0.20112154 13 1 33845 11.52400000 1892596509 1892596509 1.00000000
-0.93656498 2.37274957 -0.58892184 3 2 33846 2.61800000 1892596511 1892596511 -13.00000000
-4.23844528 10.73793030 0.60500365 21 3 33846 11.56000000 1892596514 1892596514 3.00000000
-1.11748230 2.83254385 -0.59188950 2 4 33847 3.10200000 1892596516 1892596516 -11.00000000
-4.24191236 10.75770855 1.01170385 80 5 33848 11.60800000 1892596518 1892596518 5.00000000
-1.38051343 3.50284457 -0.59632820 2 6 33849 3.81200000 1892596520 1892596520 -9.00000000
-4.22845507 10.73455906 1.41660929 21 7 33850 11.62400000 1892596523 1892596523 7.00000000
-1.81222332 4.60295248 -0.60739678 2 8 33851 4.98400000 1892596525 1892596525 -7.00000000
-4.23224115 10.75517845 1.83059609 18 9 33852 11.70200000 1892596527 1892596527 9.00000000
-4.22126913 10.72729492 -1.00856626 4 10 33852 11.57200000 1892596530 1892596530 -5.00000000
-4.11961126 10.47432232 2.18781590 43 11 33853 11.46600000 1892596532 1892596532 11.00000000
-4.21248770 10.71595573 -0.60343355 8 12 33854 11.53000000 1892596534 1892596534 -3.00000000
-3.87316108 9.85781097 2.44521785 57 13 33855 10.87000000 1892596537 1892596537 13.00000000
-4.21315002 10.72863770 -0.20119134 17 14 33856 11.52800000 1892596539 1892596539 -1.00000000
-3.41773391 8.70313835 2.50536847 38 15 33856 9.68000000 1892596541 1892596541 15.00000000
-0.79721498 2.03844070 -0.58648396 4 0 33864 2.26600000 1892596562 1892596562 -15.00000000
-4.19119596 10.72220516 0.20094700 13 1 33865 11.51400000 1892596564 1892596564 1.00000000
-0.92827684 2.37600446 -0.58892184 3 2 33866 2.61800000 1892596566 1892596566 -13.00000000
-4.19294214 10.73219681 0.60385227 21 3 33866 11.53800000 1892596569 1892596569 3.00000000
-1.10758805 2.83642721 -0.59188950 2 4 33867 3.10200000 1892596571 1892596571 -11.00000000
-4.19274521 10.74275398 1.00891483 42 5 33868 11.57600000 1892596573 1892596573 5.00000000
-1.36971354 3.51132274 -0.59695393 2 6 33869 3.81600000 1892596576 1892596576 -9.00000000
-4.18519020 10.73445797 1.41465938 21 7 33870 11.60800000 1892596578 1892596578 7.00000000
-4.19484901 10.76478195 -1.41855919 2 8 33871 11.64000000 1892596580 1892596580 -7.00000000
-4.18535280 10.74595737 1.82652879 15 9 33872 11.67600000 1892596583 1892596583 9.00000000
-4.18524408 10.74567795 -1.00891483 4 10 33872 11.57600000 1892596585 1892596585 -5.00000000
-4.08444834 10.49229717 2.18857908 46 11 33873 11.47000000 1892596587 1892596587 11.00000000
-4.16636610 10.70825863 -0.60217750 8 12 33874 11.50600000 1892596590 1892596590 -3.00000000
-3.86839175 9.94755268 2.46411395 66 13 33875 10.95400000 1892596592 1892596592 13.00000000
-4.16335869 10.71159363 -0.20059796 19 14 33876 11.49400000 1892596594 1892596594 -1.00000000
-3.39083266 8.72401905 2.50795650 38 15 33876 9.69000000 1892596596 1892596596 15.00000000
-0.79009467 2.04121113 -0.58648396 4 0 33884 2.26600000 1892596617 1892596617 -15.00000000
-4.14941406 10.72558022 0.20073758 13 1 33885 11.50200000 1892596619 1892596619 1.00000000
-0.92419428 2.39013577 -0.59162128 3 2 33886 2.63000000 1892596622 1892596622 -13.00000000
-4.14853859 10.73445129 0.60311955 21 3 33887 11.52400000 1892596624 1892596624 3.00000000
-1.09484935 2.83295107 -0.59036303 2 4 33887 3.09400000 1892596626 1892596626 -11.00000000
-4.14660549 10.73502064 1.00682318 17 5 33888 11.55200000 1892596629 1892596629 5.00000000
-1.35317969 3.50502563 -0.59507668 2 6 33889 3.80400000 1892596631 1892596631 -9.00000000
-4.14626503 10.74529743 1.41417181 19 7 33890 11.60400000 1892596633 1892596633 7.00000000
-4.12581778 10.69786549 -1.40783465 2 8 33891 11.55200000 1892596636 1892596636 -7.00000000
-4.14329767 10.74318981 1.82371294 18 9 33891 11.65800000 1892596638 1892596638 9.00000000
-4.14197636 10.74534893 -1.00752044 4 10 33892 11.56000000 1892596640 1892596640 -5.00000000
-4.05062151 10.51381874 2.19010568 46 11 33893 11.47800000 1892596643 1892596643 11.00000000
-4.12896156 10.72273731 -0.60217750 8 12 33894 11.50600000 1892596645 1892596645 -3.00000000
-3.86724234 10.04829311 2.48570919 66 13 33895 11.05000000 1892596647 1892596647 13.00000000
-4.12019968 10.71113014 -0.20031872 19 14 33896 11.47800000 1892596649 1892596649 -1.00000000
-3.35328865 8.72196293 2.50381541 40 15 33897 9.67400000 1892596652 1892596652 15.00000000
-0.77467203 2.02230835 -0.58027232 4 0 33904 2.24200000 1892596672 1892596672 -15.00000000
-4.10336971 10.71758938 0.20031872 13 1 33905 11.47800000 1892596675 1892596675 1.00000000
-0.91166675 2.38242698 -0.58892184 3 2 33906 2.61800000 1892596677 1892596677 -13.00000000
-4.10292625 10.72203445 0.60165417 23 3 33906 11.49600000 1892596679 1892596679 3.00000000
-1.08355129 2.83308816 -0.58959979 4 4 33907 3.09000000 1892596682 1892596682 -11.00000000
-4.10270548 10.73268032 1.00525439 17 5 33908 11.53400000 1892596684 1892596684 5.00000000
-1.34728169 3.52633524 -0.59789252 2 6 33909 3.82200000 1892596686 1892596686 -9.00000000
-4.10306644 10.74486923 1.41222191 19 7 33910 11.58800000 1892596689 1892596689 7.00000000
-4.08561897 10.70478439 -1.40685976 2 8 33911 11.54400000 1892596691 1892596691 -7.00000000
-4.10037374 10.74907494 1.82214868 15 9 33912 11.64800000 1892596693 1892596693 9.00000000
-2.56492186 6.72390795 -0.62961310 4 10 33912 7.22400000 1892596696 1892596696 -5.00000000
-4.01039982 10.51872158 2.18819761 50 11 33913 11.46800000 1892596698 1892596698 11.00000000
-4.08724022 10.72588634 -0.60154951 8 12 33914 11.49400000 1892596700 1892596700 -3.00000000
-3.85017729 10.10908031 2.49740672 60 13 33915 11.10200000 1892596702 1892596702 13.00000000
-4.07780600 10.71236515 -0.20007439 17 14 33916 11.46400000 1892596705 1892596705 -1.00000000
-3.31938815 8.72458744 2.50122714 38 15 33917 9.66400000 1892596707 1892596707 15.00000000
-0.77034712 2.03222585 -0.58234286 4 0 33924 2.25000000 1892596728 1892596728 -15.00000000
-4.05459738 10.70192719 0.19976024 13 1 33925 11.44600000 1892596730 1892596730 1.00000000
-0.90472513 2.38923979 -0.58982164 3 2 33926 2.62200000 1892596732 1892596732 -13.00000000
-4.06405973 10.73255539 0.60144478 21 3 33926 11.49200000 1892596735 1892596735 3.00000000
-1.07504511 2.84052563 -0.59036303 4 4 33927 3.09400000 1892596737 1892596737 -11.00000000
-4.06098700 10.73575497 1.00420845 17 5 33928 11.52200000 1892596739 1892596739 5.00000000
-1.33286858 3.52547359 -0.59695393 2 6 33929 3.81600000 1892596742 1892596742 -9.00000000
-4.05921984 10.74241352 1.41002834 19 7 33930 11.57000000 1892596744 1892596744 7.00000000
-4.04963017 10.72269440 -1.40734720 2 8 33931 11.54800000 1892596746 1892596746 -7.00000000
-4.05982065 10.74967766 1.81995857 18 9 33931 11.63400000 1892596749 1892596749 9.00000000
-2.54987860 6.75518847 -0.63170481 4 10 33932 7.24800000 1892596751 1892596751 -5.00000000
-3.97019315 10.52347183 2.18628955 46 11 33933 11.45800000 1892596753 1892596753 11.00000000
-4.03849983 10.71018696 -0.59987473 8 12 33934 11.46200000 1892596755 1892596755 -3.00000000
-3.81349230 10.11881065 2.49650669 57 13 33935 11.09800000 1892596758 1892596758 13.00000000
-4.03192949 10.70407772 -0.19965553 8 14 33936 11.44000000 1892596760 1892596760 -1.00000000
-3.28959417 8.73792839 2.50174499 38 15 33937 9.66600000 1892596762 1892596762 15.00000000
-0.76664090 2.04394650 -0.58493102 4 0 33944 2.26000000 1892596783 1892596783 -15.00000000
-4.01511049 10.71039772 0.19965553 13 1 33945 11.44000000 1892596785 1892596785 1.00000000
-0.89501214 2.38873363 -0.58892184 3 2 33946 2.61800000 1892596788 1892596788 -13.00000000
-4.02026463 10.72984409 0.60050279 23 3 33946 11.47400000 1892596790 1892596790 3.00000000
-1.07063138 2.85896945 -0.59341598 4 4 33947 3.11000000 1892596792 1892596792 -11.00000000
-4.01859856 10.73680305 1.00298834 17 5 33948 11.50800000 1892596795 1892596795 5.00000000
-1.33439660 3.56710768 -0.60321128 2 6 33949 3.85600000 1892596797 1892596797 -9.00000000
-4.01196432 10.73048592 1.40661597 21 7 33950 11.54200000 1892596799 1892596799 7.00000000
-3.99827886 10.69957447 -1.40247238 4 8 33951 11.50800000 1892596802 1892596802 -7.00000000
-4.01950645 10.75638199 1.81870711 18 9 33951 11.62600000 1892596804 1892596804 9.00000000
-2.52210045 6.75284910 -0.63065898 4 10 33952 7.23600000 1892596806 1892596806 -5.00000000
-3.93137550 10.53174877 2.18514466 50 11 33953 11.45200000 1892596808 1892596808 11.00000000
-3.99131584 10.69802094 -0.59840930 8 12 33954 11.43400000 1892596811 1892596811 -3.00000000
-3.77542424 10.12475681 2.49470711 55 13 33955 11.09000000 1892596813 1892596813 13.00000000
-3.99454045 10.71808720 -0.19965553 6 14 33956 11.44000000 1892596815 1892596815 -1.00000000
-3.26042175 8.75297928 2.50278020 36 15 33957 9.67000000 1892596818 1892596818 15.00000000
-0.76218998 2.05385470 -0.58700162 4 0 33964 2.26800000 1892596838 1892596838 -15.00000000
-3.97144103 10.70747375 0.19934139 10 1 33965 11.42200000 1892596841 1892596841 1.00000000
-0.88666850 2.39184332 -0.58892184 3 2 33966 2.61800000 1892596843 1892596843 -13.00000000
-3.97445512 10.72133923 0.59924668 15 3 33966 11.45000000 1892596845 1892596845 3.00000000
-1.05655265 2.85164332 -0.59112626 4 4 33967 3.09800000 1892596848 1892596848 -11.00000000
-3.97763634 10.74142361 1.00211668 17 5 33968 11.49800000 1892596850 1892596850 5.00000000
-1.31713736 3.55877590 -0.60102123 2 6 33969 3.84200000 1892596852 1892596852 -9.00000000
-3.97241759 10.73884010 1.40588474 21 7 33970 11.53600000 1892596854 1892596854 7.00000000
-1.71267533 4.63244772 -0.60642183 2 8 33971 4.97600000 1892596857 1892596857 -7.00000000
-3.97371531 10.74811363 1.81495261 21 9 33971 11.60200000 1892596859 1892596859 9.00000000
-2.52061176 6.82141638 -0.63623691 4 10 33972 7.30000000 1892596861 1892596861 -5.00000000
-3.89866972 10.55645752 2.18743443 50 11 33973 11.46400000 1892596864 1892596864 11.00000000
-3.94703221 10.69315147 -0.59736258 8 12 33974 11.41400000 1892596866 1892596866 -3.00000000
-3.73398876 10.12141991 2.49065804 53 13 33975 11.07200000 1892596868 1892596868 13.00000000
-3.94326711 10.69444084 -0.19895743 19 14 33976 11.40000000 1892596871 1892596871 -1.00000000
-3.23137784 8.76374245 2.50278020 36 15 33976 9.67000000 1892596873 1892596873 15.00000000
-0.75035548 2.04380846 -0.58337814 4 0 33984 2.25400000 1892596894 1892596894 -15.00000000
-3.92784119 10.70437622 0.19902724 13 1 33985 11.40400000 1892596896 1892596896 1.00000000
-0.88099790 2.40224195 -0.59072149 3 2 33986 2.62600000 1892596898 1892596898 -13.00000000
-3.93150496 10.72014618 0.59840930 15 3 33986 11.43400000 1892596901 1892596901 3.00000000
-1.04929483 2.86268735 -0.59265274 2 4 33987 3.10600000 1892596903 1892596903 -11.00000000
-3.92778111 10.72156811 0.99897915 12 5 33988 11.46200000 1892596905 1892596905 5.00000000
-1.30131102 3.55407715 -0.59945685 2 6 33989 3.83200000 1892596907 1892596907 -9.00000000
-3.93081450 10.74145603 1.40442228 19 7 33990 11.52400000 1892596910 1892596910 7.00000000
-1.71967828 4.70178413 -0.61470896 2 8 33991 5.04400000 1892596912 1892596912 -7.00000000
-3.92870927 10.74151134 1.81151116 21 9 33991 11.58000000 1892596914 1892596914 9.00000000
-2.47489572 6.77029228 -0.63065898 4 10 33992 7.23600000 1892596917 1892596917 -5.00000000
-3.88200903 10.62532330 2.19888282 53 11 33993 11.52400000 1892596919 1892596919 11.00000000
-3.91721797 10.72750092 -0.59851402 8 12 33994 11.43600000 1892596921 1892596921 -3.00000000
-3.69930387 10.13622284 2.49110794 55 13 33995 11.07400000 1892596924 1892596924 13.00000000
-3.19394183 8.76100731 2.49863911 38 15 33997 9.65400000 1892596928 1892596928 15.00000000
-0.74123830 2.04096770 -0.58182520 4 0 34004 2.24800000 1892596949 1892596949 -15.00000000
-3.89181662 10.72178078 0.19909705 3 1 34005 11.40800000 1892596951 1892596951 1.00000000
-0.87260717 2.40530276 -0.59072149 3 2 34006 2.62600000 1892596954 1892596954 -13.00000000
-3.89763355 10.74950504 0.59924668 7 3 34007 11.45000000 1892596956 1892596956 3.00000000
-1.03661883 2.85894990 -0.59112626 2 4 34007 3.09800000 1892596958 1892596958 -11.00000000
-3.89779878 10.75581837 1.00089657 21 5 34008 11.48400000 1892596960 1892596960 5.00000000
-1.29024243 3.56231260 -0.60008264 2 6 34009 3.83600000 1892596963 1892596963 -9.00000000
-3.89735007 10.76631069 1.40588474 23 7 34010 11.53600000 1892596965 1892596965 7.00000000
-3.94949961 10.91632462 -1.42538381 2 8 34011 11.69600000 1892596967 1892596967 -7.00000000
-3.89253473 10.75887489 1.81213689 21 9 34011 11.58400000 1892596970 1892596970 9.00000000
-2.46886325 6.82760525 -0.63519102 4 10 34012 7.28800000 1892596972 1892596972 -5.00000000
-3.85890889 10.67758369 2.20689678 59 11 34013 11.56600000 1892596974 1892596974 11.00000000
-3.91638803 10.84254742 -0.60416627 4 12 34014 11.54400000 1892596977 1892596977 -3.00000000
-3.66191411 10.14357471 2.48975825 53 13 34015 11.06800000 1892596979 1892596979 13.00000000
-3.90583801 10.82516384 -0.20087720 6 14 34016 11.51000000 1892596981 1892596981 -1.00000000
-3.16093779 8.76064777 2.49553323 36 15 34016 9.64200000 1892596984 1892596984 15.00000000
-0.73345631 2.04172468 -0.58130759 4 0 34024 2.24600000 1892597004 1892597004 -15.00000000
-3.89896512 10.85951710 0.20140077 6 1 34025 11.54000000 1892597007 1892597007 1.00000000
-0.86552215 2.41200233 -0.59162128 3 2 34026 2.63000000 1892597009 1892597009 -13.00000000
-3.90391350 10.88524532 0.60605037 10 3 34027 11.58000000 1892597011 1892597011 3.00000000
-1.02663291 2.86255097 -0.59112626 4 4 34027 3.09800000 1892597013 1892597013 -11.00000000
-1.27247012 3.55191755 -0.59757966 2 6 34029 3.82000000 1892597018 1892597018 -9.00000000
-3.89186478 10.86955643 1.41758418 48 7 34030 11.63200000 1892597020 1892597020 7.00000000
-1.69216263 4.72862720 -0.61665887 2 8 34031 5.06000000 1892597023 1892597023 -7.00000000
-3.87968493 10.84746933 1.82465160 43 9 34032 11.66400000 1892597025 1892597025 9.00000000
-2.45709300 6.86994934 -0.63832867 4 10 34032 7.32400000 1892597027 1892597027 -5.00000000
-3.81698799 10.67804718 2.20422554 62 11 34033 11.55200000 1892597030 1892597030 11.00000000
-3.91614604 10.96147823 -0.61002791 8 12 34034 11.65600000 1892597032 1892597032 -3.00000000
-3.62648416 10.15629578 2.48975825 51 13 34035 11.06800000 1892597034 1892597034 13.00000000
-3.90902638 10.95361710 -0.20300639 8 14 34036 11.63200000 1892597037 1892597037 -1.00000000
-3.12750936 8.76853561 2.49449801 36 15 34037 9.63800000 1892597039 1892597039 15.00000000
-0.73113978 2.05896306 -0.58544868 4 0 34045 2.26200000 1892597060 1892597060 -15.00000000
-3.89391565 10.97173023 0.20321582 6 1 34046 11.64400000 1892597062 1892597062 1.00000000
-0.85407007 2.40781212 -0.58982164 3 2 34047 2.62200000 1892597064 1892597064 -13.00000000
-3.86932969 10.91454029 0.60688776 28 3 34048 11.59600000 1892597066 1892597066 3.00000000
-1.02007020 2.87739706 -0.59341598 2 4 34048 3.11000000 1892597069 1892597069 -11.00000000
-3.87463021 10.93555164 1.01501572 17 5 34049 11.64600000 1892597071 1892597071 5.00000000
-1.25812435 3.55283332 -0.59695393 2 6 34050 3.81600000 1892597073 1892597073 -9.00000000
-3.88114142 10.96608734 1.42830873 40 7 34051 11.72000000 1892597076 1892597076 7.00000000
-1.68011594 4.74976921 -0.61860877 2 8 34052 5.07600000 1892597078 1892597078 -7.00000000
-3.87275743 10.94847393 1.83935642 34 9 34052 11.75800000 1892597080 1892597080 9.00000000
-2.43189669 6.87890911 -0.63832867 4 10 34053 7.32400000 1892597083 1892597083 -5.00000000
-3.76997662 10.66975212 2.19964600 62 11 34054 11.52800000 1892597085 1892597085 11.00000000
-3.90653634 11.06238842 -0.61484283 8 12 34055 11.74800000 1892597087 1892597087 -3.00000000
-3.57626343 10.13276672 2.48076034 55 13 34056 11.02800000 1892597090 1892597090 13.00000000
-3.90676999 11.07536221 -0.20499596 6 14 34057 11.74600000 1892597092 1892597092 -1.00000000
-3.09688234 8.77939892 2.49449801 38 15 34057 9.63800000 1892597094 1892597094 15.00000000
-0.72650856 2.06879354 -0.58751923 4 0 34065 2.27000000 1892597115 1892597115 -15.00000000
-3.89599061 11.10035324 0.20534502 10 1 34066 11.76600000 1892597117 1892597117 1.00000000
-0.84566003 2.41077852 -0.58982164 3 2 34067 2.62200000 1892597119 1892597119 -13.00000000
-3.81865239 10.89216900 0.60489899 26 3 34068 11.55800000 1892597122 1892597122 3.00000000
-1.01131916 2.88464570 -0.59417921 2 4 34068 3.11400000 1892597124 1892597124 -11.00000000
-3.83445787 10.94336987 1.01449287 12 5 34069 11.64000000 1892597126 1892597126 5.00000000
-1.25485539 3.58330441 -0.60133410 2 6 34070 3.84400000 1892597129 1892597129 -9.00000000
-3.87628341 11.07512474 1.44073939 38 7 34071 11.82200000 1892597131 1892597131 7.00000000
