# .PCD v0.7 - Point Cloud Data file format
VERSION 0.7
FIELDS x y z intensity laser_id azimuth distance_m adjustedtime timestamp vertical_angle
SIZE 4 4 4 1 1 2 8 8 4 8
TYPE F F F U U U F U U F
COUNT 1 1 1 1 1 1 1 1 1 1
WIDTH 542
HEIGHT 1
VIEWPOINT 0 0 0 1 0 0 0
POINTS 542
DATA ascii
3.00104499 2.70120478 0.63950408 10 9 4801 4.08800000 1893015783 1893015783 9.00000000
2.99182034 2.69195676 -0.35210919 11 10 4802 4.04000000 1893015785 1893015785 -5.00000000
3.02005720 2.71640968 0.78956765 42 11 4803 4.13800000 1893015787 1893015787 11.00000000
2.98967814 2.68814135 -0.21070457 7 12 4804 4.02600000 1893015790 1893015790 -3.00000000
3.00591779 2.70179439 0.93309695 12 13 4805 4.14800000 1893015792 1893015792 13.00000000
2.98980188 2.68636584 -0.07015868 7 14 4806 4.02000000 1893015794 1893015794 -1.00000000
3.01194882 2.70626497 1.08496940 56 15 4806 4.19200000 1893015797 1893015797 15.00000000
1.69634497 1.51990700 -0.61029530 4 0 4814 2.35800000 1893015817 1893015817 -15.00000000
2.99997640 2.68700290 0.07029829 8 1 4815 4.02800000 1893015820 1893015820 1.00000000
2.02530551 1.81337786 -0.62761343 3 2 4816 2.79000000 1893015822 1893015822 -13.00000000
3.01214004 2.69600320 0.21185595 8 3 4817 4.04800000 1893015824 1893015824 3.00000000
2.44446182 2.18790531 -0.63768369 5 4 4817 3.34200000 1893015827 1893015827 -11.00000000
3.01120448 2.69421959 0.35350370 6 5 4818 4.05600000 1893015829 1893015829 5.00000000
2.97565174 2.66147447 -0.63230813 9 6 4819 4.04200000 1893015831 1893015831 -9.00000000
3.02627015 2.70579767 0.49844560 8 7 4820 4.09000000 1893015833 1893015833 7.00000000
2.99122071 2.67352057 -0.49259588 12 8 4821 4.04200000 1893015836 1893015836 -7.00000000
3.01976371 2.69808412 0.64138132 8 9 4822 4.10000000 1893015838 1893015838 9.00000000
2.98188400 2.66423965 -0.34984314 11 10 4822 4.01400000 1893015840 1893015840 -5.00000000
3.01780677 2.69538879 0.78651470 64 11 4823 4.12200000 1893015843 1893015843 11.00000000
2.99308395 2.67236829 -0.21028587 11 12 4824 4.01800000 1893015845 1893015845 -3.00000000
3.00806117 2.68479705 0.93084747 35 13 4825 4.13800000 1893015847 1893015847 13.00000000
2.99916101 2.67591310 -0.07015868 7 14 4826 4.02000000 1893015850 1893015850 -1.00000000
3.00598860 2.68106270 1.07927537 68 15 4827 4.17000000 1893015852 1893015852 15.00000000
1.70452666 1.51654458 -0.61133057 4 0 4834 2.36200000 1893015873 1893015873 -15.00000000
2.98692417 2.65658021 0.06977472 6 1 4835 3.99800000 1893015875 1893015875 1.00000000
2.02871013 1.80370748 -0.62671363 3 2 4836 2.78600000 1893015877 1893015877 -13.00000000
3.02255630 2.68732691 0.21196063 10 3 4836 4.05000000 1893015880 1893015880 3.00000000
2.45355153 2.18066359 -0.63806528 4 4 4837 3.34400000 1893015882 1893015882 -11.00000000
3.01761174 2.68104529 0.35315508 8 5 4838 4.05200000 1893015884 1893015884 5.00000000
2.97310829 2.64057732 -0.62980515 9 6 4839 4.02600000 1893015886 1893015886 -9.00000000
3.02233672 2.68335605 0.49625197 7 7 4840 4.07200000 1893015889 1893015889 7.00000000
2.99014187 2.65383911 -0.49088973 10 8 4841 4.02800000 1893015891 1893015891 -7.00000000
3.01438689 2.67441678 0.63825262 8 9 4842 4.08000000 1893015893 1893015893 9.00000000
2.99265623 2.65513706 -0.35001746 13 10 4842 4.01600000 1893015896 1893015896 -5.00000000
3.00957155 2.66920590 0.78193527 62 11 4843 4.09800000 1893015898 1893015898 11.00000000
2.99043822 2.65130424 -0.20944850 9 12 4844 4.00200000 1893015900 1893015900 -3.00000000
3.01887274 2.67557335 0.93129736 59 13 4845 4.14000000 1893015903 1893015903 13.00000000
3.00399303 2.66144967 -0.07005396 8 14 4846 4.01400000 1893015905 1893015905 -1.00000000
3.01486278 2.67107987 1.07927537 70 15 4846 4.17000000 1893015907 1893015907 15.00000000
1.70836234 1.50930643 -0.61081296 4 0 4854 2.36000000 1893015928 1893015928 -15.00000000
2.99468040 2.64481401 0.06973982 8 1 4855 3.99600000 1893015930 1893015930 1.00000000
2.03499389 1.79661500 -0.62671363 3 2 4856 2.78600000 1893015932 1893015932 -13.00000000
3.01694608 2.66354132 0.21091390 10 3 4856 4.03000000 1893015935 1893015935 3.00000000
2.45820475 2.16948748 -0.63730204 4 4 4857 3.34000000 1893015937 1893015937 -11.00000000
3.02396393 2.66785932 0.35280645 6 5 4858 4.04800000 1893015939 1893015939 5.00000000
2.97934461 2.62756991 -0.62917942 9 6 4859 4.02200000 1893015942 1893015942 -9.00000000
3.01381636 2.65703654 0.49332711 7 7 4860 4.04800000 1893015944 1893015944 7.00000000
2.98598385 2.63157296 -0.48869607 10 8 4861 4.01000000 1893015946 1893015946 -7.00000000
3.02073956 2.66126680 0.63762689 8 9 4862 4.07600000 1893015949 1893015949 9.00000000
2.99891615 2.64204049 -0.34966883 13 10 4862 4.01200000 1893015951 1893015951 -5.00000000
3.00708365 2.64830399 0.77888232 64 11 4863 4.08200000 1893015953 1893015953 11.00000000
2.98468399 2.62765193 -0.20840178 10 12 4864 3.98200000 1893015956 1893015956 -3.00000000
3.01063919 2.64956975 0.92589855 61 13 4865 4.11600000 1893015958 1893015958 13.00000000
3.00125384 2.64038062 -0.06977472 8 14 4866 3.99800000 1893015960 1893015960 -1.00000000
3.01546550 2.65288353 1.07616961 68 15 4866 4.15800000 1893015962 1893015962 15.00000000
1.72088146 1.50970399 -0.61340111 4 0 4874 2.37000000 1893015983 1893015983 -15.00000000
2.99637699 2.62775207 0.06956529 6 1 4875 3.98600000 1893015985 1893015985 1.00000000
2.04711437 1.79463911 -0.62851322 3 2 4876 2.79400000 1893015988 1893015988 -13.00000000
3.01166725 2.63930202 0.20986718 8 3 4877 4.01000000 1893015990 1893015990 3.00000000
2.45395064 2.15054202 -0.63424909 4 4 4877 3.32400000 1893015992 1893015992 -11.00000000
3.01977015 2.64547157 0.35123765 9 5 4878 4.03000000 1893015995 1893015995 5.00000000
2.97958183 2.60934544 -0.62730223 9 6 4879 4.01000000 1893015997 1893015997 -9.00000000
3.02008557 2.64388514 0.49283963 7 7 4880 4.04400000 1893015999 1893015999 7.00000000
2.98170710 2.60936809 -0.48650241 9 8 4881 3.99200000 1893016002 1893016002 -7.00000000
3.01616931 2.63952684 0.63481104 8 9 4881 4.05800000 1893016004 1893016004 9.00000000
2.99912310 2.62368512 -0.34862298 11 10 4882 4.00000000 1893016006 1893016006 -5.00000000
3.01926541 2.64037585 0.77964556 66 11 4883 4.08600000 1893016009 1893016009 11.00000000
2.99083066 2.61458826 -0.20819244 8 12 4884 3.97800000 1893016011 1893016011 -3.00000000
3.00519586 2.62622118 0.92139953 57 13 4885 4.09600000 1893016013 1893016013 13.00000000
2.99388647 2.61541677 -0.06939077 9 14 4886 3.97600000 1893016015 1893016015 -1.00000000
3.02953386 2.64562559 1.07772255 78 15 4887 4.16400000 1893016018 1893016018 15.00000000
1.72322750 1.50114989 -0.61236584 4 0 4894 2.36600000 1893016038 1893016038 -15.00000000
2.99949908 2.61202383 0.06942567 8 1 4895 3.97800000 1893016041 1893016041 1.00000000
2.04748702 1.78236437 -0.62671363 3 2 4896 2.78600000 1893016043 1893016043 -13.00000000
3.00533867 2.61618686 0.20882046 8 3 4896 3.99000000 1893016045 1893016045 3.00000000
2.47032857 2.14969563 -0.63653880 4 4 4897 3.33600000 1893016048 1893016048 -11.00000000
3.01395416 2.62183785 0.34949452 6 5 4898 4.01000000 1893016050 1893016050 5.00000000
2.98569083 2.59633636 -0.62667644 9 6 4899 4.00600000 1893016052 1893016052 -9.00000000
3.02180529 2.62681508 0.49162093 7 7 4900 4.03400000 1893016055 1893016055 7.00000000
2.98480368 2.59373593 -0.48552746 7 8 4901 3.98400000 1893016057 1893016057 -7.00000000
3.01538444 2.61938620 0.63262099 8 9 4902 4.04400000 1893016059 1893016059 9.00000000
2.99623013 2.60274744 -0.34722847 10 10 4902 3.98400000 1893016062 1893016062 -5.00000000
3.02253413 2.62467170 0.77811909 64 11 4903 4.07800000 1893016064 1893016064 11.00000000
2.99541426 2.60020471 -0.20787841 8 12 4904 3.97200000 1893016066 1893016066 -3.00000000
3.00698543 2.60932899 0.91914999 54 13 4905 4.08600000 1893016068 1893016068 13.00000000
2.98336053 2.58791566 -0.06893700 11 14 4906 3.95000000 1893016071 1893016071 -1.00000000
3.01393843 2.61351871 1.06892264 72 15 4907 4.13000000 1893016073 1893016073 15.00000000
1.72089171 1.48910677 -0.60977769 3 0 4913 2.35600000 1893016094 1893016094 -15.00000000
2.99302053 2.58898067 0.06907663 6 1 4914 3.95800000 1893016096 1893016096 1.00000000
2.05928254 1.78066349 -0.62851322 3 2 4915 2.79400000 1893016098 1893016098 -13.00000000
3.01248693 2.60490012 0.20871580 8 3 4915 3.98800000 1893016101 1893016101 3.00000000
2.46853185 2.13378882 -0.63424909 4 4 4916 3.32400000 1893016103 1893016103 -11.00000000
3.00755644 2.59880233 0.34775141 7 5 4917 3.99000000 1893016105 1893016105 5.00000000
2.97634530 2.57092595 -0.62292206 8 6 4918 3.98200000 1893016108 1893016108 -9.00000000
3.01697707 2.60510373 0.48942727 8 7 4919 4.01600000 1893016110 1893016110 7.00000000
2.96934509 2.56307006 -0.48162764 7 8 4920 3.95200000 1893016112 1893016112 -7.00000000
3.01313090 2.60086489 0.63043088 8 9 4920 4.03000000 1893016115 1893016115 9.00000000
2.98221779 2.57327318 -0.34461382 6 10 4921 3.95400000 1893016117 1893016117 -5.00000000
3.02230167 2.60694027 0.77582937 68 11 4922 4.06600000 1893016119 1893016119 11.00000000
2.98435664 2.57330179 -0.20651768 3 12 4923 3.94600000 1893016121 1893016121 -3.00000000
3.01119351 2.59552622 0.91780031 59 13 4924 4.08000000 1893016124 1893016124 13.00000000
2.97374725 2.56234455 -0.06851815 4 14 4925 3.92600000 1893016126 1893016126 -1.00000000
3.01380610 2.59594512 1.06581688 72 15 4926 4.11800000 1893016128 1893016128 15.00000000
1.73340547 1.48938560 -0.61236584 4 0 4933 2.36600000 1893016149 1893016149 -15.00000000
2.98080230 2.56027603 0.06858796 6 1 4934 3.93000000 1893016151 1893016151 1.00000000
2.05957174 1.76838648 -0.62671363 3 2 4935 2.78600000 1893016154 1893016154 -13.00000000
2.99883151 2.57485223 0.20714572 4 3 4935 3.95800000 1893016156 1893016156 3.00000000
2.48490357 2.13283110 -0.63653880 4 4 4936 3.33600000 1893016158 1893016158 -11.00000000
2.99241614 2.56752992 0.34496242 4 5 4937 3.95800000 1893016161 1893016161 5.00000000
2.97630501 2.55280471 -0.62104481 8 6 4938 3.97000000 1893016163 1893016163 -9.00000000
3.01399636 2.58421993 0.48747736 7 7 4939 4.00000000 1893016165 1893016165 7.00000000
2.97676659 2.55139756 -0.48138392 24 8 4940 3.95000000 1893016168 1893016168 -7.00000000
3.01769185 2.58647466 0.62949228 8 9 4940 4.02400000 1893016170 1893016170 9.00000000
2.97756505 2.55118060 -0.34304500 34 10 4941 3.93600000 1893016172 1893016172 -5.00000000
3.01348996 2.58104920 0.77124995 66 11 4942 4.04200000 1893016174 1893016174 11.00000000
2.96601224 2.53948736 -0.20463359 19 12 4943 3.91000000 1893016177 1893016177 -3.00000000
3.01579380 2.58119798 0.91645062 54 13 4944 4.07400000 1893016179 1893016179 13.00000000
2.97507596 2.54544830 -0.06834362 19 14 4945 3.91600000 1893016181 1893016181 -1.00000000
3.01110435 2.57536387 1.06167567 70 15 4946 4.10200000 1893016184 1893016184 15.00000000
1.73859382 1.48332584 -0.61236584 4 0 4953 2.36600000 1893016204 1893016204 -15.00000000
2.99124265 2.55115318 0.06862286 35 1 4954 3.93200000 1893016207 1893016207 1.00000000
2.06573200 1.76118636 -0.62671363 3 2 4955 2.78600000 1893016209 1893016209 -13.00000000
3.00932097 2.56566453 0.20725039 32 3 4955 3.96000000 1893016211 1893016211 3.00000000
2.49382758 2.12541747 -0.63692045 5 4 4956 3.33800000 1893016214 1893016214 -11.00000000
3.00287700 2.55836105 0.34513673 22 5 4957 3.96000000 1893016216 1893016216 5.00000000
2.97918224 2.53727674 -0.61979336 8 6 4958 3.96200000 1893016218 1893016218 -9.00000000
2.99881458 2.55309391 0.48357755 19 7 4959 3.96800000 1893016220 1893016220 7.00000000
3.02218890 2.57208443 0.62855369 8 9 4960 4.01800000 1893016225 1893016225 9.00000000
3.01649904 2.56542683 0.76972347 68 11 4962 4.03400000 1893016230 1893016230 11.00000000
2.99464035 2.54593635 -0.20599432 5 12 4963 3.93600000 1893016232 1893016232 -3.00000000
3.00845122 2.55677319 0.91150165 54 13 4964 4.05200000 1893016234 1893016234 13.00000000
3.01373887 2.56036139 1.05960512 70 15 4965 4.09400000 1893016239 1893016239 15.00000000
1.74965715 1.48224282 -0.61443639 4 0 4973 2.37400000 1893016260 1893016260 -15.00000000
2.07781649 1.75900149 -0.62851322 3 2 4975 2.79400000 1893016264 1893016264 -13.00000000
2.50722623 2.12177253 -0.63844693 5 4 4976 3.34600000 1893016269 1893016269 -11.00000000
2.97897100 2.51920867 -0.61791611 8 6 4978 3.95000000 1893016273 1893016273 -9.00000000
2.97024679 2.51005316 -0.47748408 5 8 4980 3.91800000 1893016278 1893016278 -7.00000000
3.02058721 2.55259418 0.62636358 10 9 4980 4.00400000 1893016280 1893016280 9.00000000
2.98769283 2.52390265 -0.34217346 2 10 4981 3.92600000 1893016283 1893016283 -5.00000000
3.02093577 2.55108166 0.76857865 44 11 4982 4.02800000 1893016285 1893016285 11.00000000
2.98519492 2.52000737 -0.20473826 1 12 4983 3.91200000 1893016287 1893016287 -3.00000000
3.00991106 2.53997231 0.90925217 29 13 4984 4.04200000 1893016290 1893016290 13.00000000
2.98360300 2.51688027 -0.06813420 1 14 4985 3.90400000 1893016292 1893016292 -1.00000000
3.02605653 2.55178905 1.06064045 40 15 4986 4.09800000 1893016294 1893016294 15.00000000
1.74890697 1.47115207 -0.61236584 4 0 4993 2.36600000 1893016315 1893016315 -15.00000000
2.99061394 2.51476455 0.06820401 3 1 4994 3.90800000 1893016317 1893016317 1.00000000
2.08096027 1.74922991 -0.62761343 3 2 4995 2.79000000 1893016320 1893016320 -13.00000000
2.97867227 2.50294852 0.20390089 1 3 4996 3.89600000 1893016322 1893016322 3.00000000
2.50259280 2.10290360 -0.63539398 5 4 4996 3.33000000 1893016324 1893016324 -11.00000000
2.99625492 2.51683092 0.34234777 4 5 4997 3.92800000 1893016326 1893016326 5.00000000
2.98018265 2.50244331 -0.61635178 10 6 4998 3.94000000 1893016329 1893016329 -9.00000000
3.02416754 2.53847742 0.48479626 3 7 4999 3.97800000 1893016331 1893016331 7.00000000
2.96986651 2.49201393 -0.47602165 7 8 5000 3.90600000 1893016333 1893016333 -7.00000000
3.01434684 2.52933741 0.62323493 11 9 5000 3.98400000 1893016336 1893016336 9.00000000
2.97969341 2.49937367 -0.34025601 12 10 5001 3.90400000 1893016338 1893016338 -5.00000000
3.03433537 2.54430532 0.76972347 12 11 5002 4.03400000 1893016340 1893016340 11.00000000
2.98785067 2.50443959 -0.20431957 14 12 5003 3.90400000 1893016343 1893016343 -3.00000000
3.01875901 2.52945018 0.90925217 10 13 5004 4.04200000 1893016345 1893016345 13.00000000
2.97704077 2.49360991 -0.06778514 13 14 5005 3.88400000 1893016347 1893016347 -1.00000000
3.01821136 2.52809501 1.05494642 12 15 5005 4.07600000 1893016350 1893016350 15.00000000
1.74810088 1.46008468 -0.61029530 4 0 5013 2.35800000 1893016370 1893016370 -15.00000000
2.98248887 2.49021196 0.06782005 6 1 5014 3.88600000 1893016373 1893016373 1.00000000
2.08406138 1.73945796 -0.62671363 3 2 5015 2.78600000 1893016375 1893016375 -13.00000000
3.00579381 2.50789022 0.20515695 6 3 5016 3.92000000 1893016377 1893016377 3.00000000
2.51293302 2.09667063 -0.63615721 5 4 5016 3.33400000 1893016379 1893016379 -11.00000000
2.99278164 2.49614763 0.34095326 4 5 5017 3.91200000 1893016382 1893016382 5.00000000
2.99952006 2.50088024 -0.61854190 8 6 5018 3.95400000 1893016384 1893016384 -9.00000000
3.02538562 2.52155089 0.48357755 4 7 5019 3.96800000 1893016386 1893016386 7.00000000
3.01514983 2.51212811 -0.48187140 1 8 5020 3.95400000 1893016389 1893016389 -7.00000000
3.02511501 2.51953650 0.62354779 13 9 5021 3.98600000 1893016391 1893016391 9.00000000
3.04168963 2.53244185 0.76934189 14 11 5022 4.03200000 1893016396 1893016396 11.00000000
3.03955436 2.52886844 0.91285139 9 13 5024 4.05800000 1893016400 1893016400 13.00000000
2.99187660 2.48831749 -0.06792477 1 14 5025 3.89200000 1893016403 1893016403 -1.00000000
3.03488445 2.52319098 1.05753458 8 15 5026 4.08600000 1893016405 1893016405 15.00000000
1.75862551 1.45952058 -0.61236584 4 0 5031 2.36600000 1893016426 1893016426 -15.00000000
3.01492167 2.50125885 0.06837853 1 1 5032 3.91800000 1893016428 1893016428 1.00000000
2.08351588 1.72792602 -0.62491405 3 2 5033 2.77800000 1893016430 1893016430 -13.00000000
3.01673293 2.50098443 0.20536630 1 3 5034 3.92400000 1893016432 1893016432 3.00000000
2.51497316 2.08500671 -0.63501233 4 4 5034 3.32800000 1893016435 1893016435 -11.00000000
3.03128982 2.51215982 0.34443951 1 5 5035 3.95200000 1893016437 1893016437 5.00000000
3.01496768 2.49774575 -0.62010622 10 6 5036 3.96400000 1893016439 1893016439 -9.00000000
3.04705215 2.52342916 0.48577121 4 7 5037 3.98600000 1893016442 1893016442 7.00000000
3.01843977 2.49884582 -0.48114017 13 8 5038 3.94800000 1893016444 1893016444 -7.00000000
3.06300950 2.53574324 0.62980515 8 9 5038 4.02600000 1893016446 1893016446 9.00000000
3.00234413 2.48463774 -0.34095326 6 10 5039 3.91200000 1893016449 1893016449 -5.00000000
3.05719399 2.52913070 0.77124995 8 11 5040 4.04200000 1893016451 1893016451 11.00000000
2.99823833 2.47947717 -0.20390089 3 12 5041 3.89600000 1893016453 1893016453 -3.00000000
3.05799794 2.52799845 0.91600066 7 13 5042 4.07200000 1893016456 1893016456 13.00000000
3.01663518 2.49291825 -0.06830872 4 14 5043 3.91400000 1893016458 1893016458 -1.00000000
3.05427098 2.52402020 1.06167567 8 15 5043 4.10200000 1893016460 1893016460 15.00000000
1.76669121 1.45583010 -0.61340111 4 0 5051 2.37000000 1893016481 1893016481 -15.00000000
3.02672124 2.49326253 0.06844833 14 1 5052 3.92200000 1893016483 1893016483 1.00000000
2.08953476 1.72064269 -0.62491405 3 2 5053 2.77800000 1893016485 1893016485 -13.00000000
3.04086494 2.50313210 0.20641302 9 3 5054 3.94400000 1893016488 1893016488 3.00000000
2.52375174 2.07746291 -0.63539398 5 4 5054 3.33000000 1893016490 1893016490 -11.00000000
3.05388665 2.51295710 0.34600830 10 5 5055 3.97000000 1893016492 1893016492 5.00000000
3.03739834 2.49850035 -0.62292206 8 6 5056 3.98200000 1893016495 1893016495 -9.00000000
3.05124211 2.50899529 0.48503998 6 7 5057 3.98000000 1893016497 1893016497 7.00000000
3.01334238 2.47694945 -0.47894651 16 8 5058 3.93000000 1893016499 1893016499 -7.00000000
3.07686162 2.52826214 0.63074374 8 9 5059 4.03200000 1893016502 1893016502 9.00000000
3.03716803 2.49564576 -0.34391657 36 10 5059 3.94600000 1893016504 1893016504 -5.00000000
3.07207203 2.52342844 0.77277642 8 11 5060 4.05000000 1893016506 1893016506 11.00000000
3.02076721 2.48040342 -0.20484294 19 12 5061 3.91400000 1893016508 1893016508 -3.00000000
3.07282877 2.52225423 0.91780031 7 13 5062 4.08000000 1893016511 1893016511 13.00000000
3.03768587 2.49252081 -0.06858796 16 14 5063 3.93000000 1893016513 1893016513 -1.00000000
3.07246327 2.52015972 1.06478155 8 15 5064 4.11400000 1893016515 1893016515 15.00000000
1.77500594 1.45179117 -0.61443639 4 0 5072 2.37400000 1893016536 1893016536 -15.00000000
3.04203153 2.48721528 0.06858796 14 1 5073 3.93000000 1893016538 1893016538 1.00000000
2.09582710 1.71297264 -0.62491405 3 2 5074 2.77800000 1893016541 1893016541 -13.00000000
3.05775213 2.49828839 0.20693637 19 3 5075 3.95400000 1893016543 1893016543 3.00000000
2.52982879 2.06695676 -0.63501233 5 4 5075 3.32800000 1893016545 1893016545 -11.00000000
3.07233548 2.50930929 0.34705415 15 5 5076 3.98200000 1893016548 1893016548 5.00000000
3.06030679 2.49859452 -0.62573785 9 6 5077 4.00000000 1893016550 1893016550 -9.00000000
3.07887244 2.51285720 0.48796484 7 7 5078 4.00400000 1893016552 1893016552 7.00000000
3.07162023 2.50604534 -0.48674616 7 8 5079 3.99400000 1893016555 1893016555 -7.00000000
3.08872938 2.52000403 0.63136947 8 9 5079 4.03600000 1893016557 1893016557 9.00000000
3.08026242 2.51220083 -0.34775141 6 10 5080 3.99000000 1893016559 1893016559 -5.00000000
3.09651637 2.52455735 0.77659261 8 11 5081 4.07000000 1893016561 1893016561 11.00000000
3.06699491 2.49959779 -0.20735505 5 12 5082 3.96200000 1893016564 1893016564 -3.00000000
3.08809590 2.51589823 0.91959989 8 13 5083 4.08800000 1893016566 1893016566 13.00000000
3.07471061 2.50410056 -0.06921624 6 14 5084 3.96600000 1893016568 1893016568 -1.00000000
3.09921694 2.52405882 1.07099319 8 15 5084 4.13800000 1893016571 1893016571 15.00000000
1.77556396 1.44193292 -0.61288351 4 0 5092 2.36800000 1893016591 1893016591 -15.00000000
3.09106040 2.50935054 0.06949548 8 1 5093 3.98200000 1893016594 1893016594 1.00000000
2.10784650 1.71055830 -0.62671363 3 2 5094 2.78600000 1893016596 1893016596 -13.00000000
3.08661819 2.50395703 0.20829710 6 3 5095 3.98000000 1893016598 1893016598 3.00000000
2.53855300 2.05935025 -0.63539398 5 4 5095 3.33000000 1893016601 1893016601 -11.00000000
3.09500337 2.50986385 0.34862298 6 5 5096 4.00000000 1893016603 1893016603 5.00000000
3.08895826 2.50406814 -0.62980515 11 6 5097 4.02600000 1893016605 1893016605 -9.00000000
3.11230135 2.52209139 0.49186468 7 7 5098 4.03600000 1893016608 1893016608 7.00000000
3.08651924 2.50030613 -0.48772112 8 8 5099 4.00200000 1893016610 1893016610 -7.00000000
3.10101509 2.51115251 0.63199526 8 9 5100 4.04000000 1893016612 1893016612 9.00000000
3.09210968 2.50394106 -0.34810004 8 10 5100 3.99400000 1893016614 1893016614 -5.00000000
3.11446571 2.52114463 0.77888232 8 11 5101 4.08200000 1893016617 1893016617 11.00000000
3.09899044 2.50772238 -0.20892514 7 12 5102 3.99200000 1893016619 1893016619 -3.00000000
3.11049509 2.51613379 0.92364901 8 13 5103 4.10600000 1893016621 1893016621 13.00000000
3.09431744 2.50215411 -0.06946058 8 14 5104 3.98000000 1893016624 1893016624 -1.00000000
3.11746144 2.51996922 1.07409906 8 15 5105 4.15000000 1893016626 1893016626 15.00000000
1.77582490 1.43239832 -0.61133057 4 0 5111 2.36200000 1893016647 1893016647 -15.00000000
3.10870481 2.50661755 0.06970491 6 1 5112 3.99400000 1893016649 1893016649 1.00000000
2.11350727 1.70355892 -0.62671363 3 2 5113 2.78600000 1893016651 1893016651 -13.00000000
3.12445378 2.51751709 0.21028587 7 3 5114 4.01800000 1893016654 1893016654 3.00000000
2.54078174 2.04722548 -0.63424909 5 4 5114 3.32400000 1893016656 1893016656 -11.00000000
3.11106753 2.50583553 0.34949452 6 5 5115 4.01000000 1893016658 1893016658 5.00000000
3.10493827 2.50000548 -0.63136947 11 6 5116 4.03600000 1893016661 1893016661 -9.00000000
3.13301921 2.52171421 0.49381459 7 7 5117 4.05200000 1893016663 1893016663 7.00000000
3.11489964 2.50623441 -0.49088973 10 8 5118 4.02800000 1893016665 1893016665 -7.00000000
3.13197470 2.51997280 0.63668829 8 9 5118 4.07000000 1893016667 1893016667 9.00000000
3.10660601 2.49866819 -0.34879729 9 10 5119 4.00200000 1893016670 1893016670 -5.00000000
3.13657928 2.52187443 0.78231686 8 11 5120 4.10000000 1893016672 1893016672 11.00000000
3.12441373 2.51119542 -0.21007653 7 12 5121 4.01400000 1893016674 1893016674 -3.00000000
3.13401318 2.51801062 0.92814803 7 13 5122 4.12600000 1893016677 1893016677 13.00000000
3.11974788 2.50565338 -0.06984453 7 14 5123 4.00200000 1893016679 1893016679 -1.00000000
3.12837529 2.51258254 1.07513428 8 15 5123 4.15400000 1893016681 1893016681 15.00000000
1.77779830 1.42377555 -0.61029530 4 0 5131 2.35800000 1893016702 1893016702 -15.00000000
3.11587453 2.49450111 0.06967001 6 1 5132 3.99200000 1893016704 1893016704 1.00000000
2.11639786 1.69373584 -0.62581384 3 2 5133 2.78200000 1893016707 1893016707 -13.00000000
3.14258027 2.51408148 0.21091390 7 3 5134 4.03000000 1893016709 1893016709 3.00000000
2.55864382 2.04692912 -0.63692045 5 4 5134 3.33800000 1893016711 1893016711 -11.00000000
3.13846779 2.50989318 0.35158625 6 5 5135 4.03400000 1893016714 1893016714 5.00000000
3.11673188 2.49161887 -0.63199526 11 6 5136 4.04000000 1893016716 1893016716 -9.00000000
3.15575910 2.52191591 0.49600822 7 7 5137 4.07000000 1893016718 1893016718 7.00000000
3.14689350 2.51393104 -0.49454579 10 8 5138 4.05800000 1893016720 1893016720 -7.00000000
3.16434360 2.52696657 0.64138132 8 9 5139 4.10000000 1893016723 1893016723 9.00000000
3.13087797 2.50024176 -0.35054040 9 10 5139 4.02200000 1893016725 1893016725 -5.00000000
3.15150046 2.51580977 0.78384334 8 11 5140 4.10800000 1893016727 1893016727 11.00000000
3.13784385 2.50401115 -0.21039054 7 12 5141 4.02000000 1893016730 1893016730 -3.00000000
3.16411138 2.52406907 0.93444669 8 13 5142 4.15400000 1893016732 1893016732 13.00000000
3.15036368 2.51220274 -0.07033320 7 14 5143 4.03000000 1893016734 1893016734 -1.00000000
3.16022253 2.51916242 1.08289886 8 15 5144 4.18400000 1893016737 1893016737 15.00000000
1.79182994 1.42477536 -0.61340111 4 0 5151 2.37000000 1893016757 1893016757 -15.00000000
3.14804435 2.50227380 0.07019358 8 1 5152 4.02200000 1893016760 1893016760 1.00000000
2.11924577 1.68391323 -0.62491405 3 2 5153 2.77800000 1893016762 1893016762 -13.00000000
3.16697621 2.51551867 0.21196063 7 3 5154 4.05000000 1893016764 1893016764 3.00000000
2.56423593 2.03676414 -0.63653880 5 4 5154 3.33600000 1893016767 1893016767 -11.00000000
3.16749406 2.51502872 0.35385230 6 5 5155 4.06000000 1893016769 1893016769 5.00000000
3.13933539 2.49177694 -0.63481104 11 6 5156 4.05800000 1893016771 1893016771 -9.00000000
3.16609812 2.51211882 0.49625197 7 7 5157 4.07200000 1893016773 1893016773 7.00000000
3.15409446 2.50169754 -0.49430206 10 8 5158 4.05600000 1893016776 1893016776 -7.00000000
3.18044424 2.52259707 0.64294565 8 9 5158 4.11000000 1893016778 1893016778 9.00000000
3.15988207 2.50538969 -0.35280645 9 10 5159 4.04800000 1893016780 1893016780 -5.00000000
3.17103314 2.51332998 0.78651470 8 11 5160 4.12200000 1893016783 1893016783 11.00000000
3.15282702 2.49800420 -0.21080923 7 12 5161 4.02800000 1893016785 1893016785 -3.00000000
3.18054080 2.51905847 0.93669617 8 13 5162 4.16400000 1893016787 1893016787 13.00000000
3.16852045 2.50863814 -0.07054263 7 14 5163 4.04200000 1893016790 1893016790 -1.00000000
3.19127822 2.52665639 1.09066343 8 15 5163 4.21400000 1893016792 1893016792 15.00000000
1.79982495 1.42090607 -0.61443639 4 0 5171 2.37400000 1893016813 1893016813 -15.00000000
3.17402697 2.50489688 0.07057753 7 1 5172 4.04400000 1893016815 1893016815 1.00000000
2.11899090 1.67167747 -0.62311441 3 2 5173 2.77000000 1893016817 1893016817 -13.00000000
3.17573762 2.50444865 0.21196063 7 3 5174 4.05000000 1893016820 1893016820 3.00000000
2.56516361 2.02293801 -0.63501233 5 4 5174 3.32800000 1893016822 1893016822 -11.00000000
3.19346523 2.51752496 0.35576975 6 5 5175 4.08200000 1893016824 1893016824 5.00000000
3.15732312 2.48813963 -0.63668829 9 6 5176 4.07000000 1893016826 1893016826 -9.00000000
3.19356012 2.51579261 0.49917683 7 7 5177 4.09600000 1893016829 1893016829 7.00000000
3.16904593 2.49558496 -0.49527702 10 8 5178 4.06400000 1893016831 1893016831 -7.00000000
3.20319772 2.52247906 0.64576149 8 9 5178 4.12800000 1893016833 1893016833 9.00000000
3.17800117 2.50173879 -0.35385230 9 10 5179 4.06000000 1893016836 1893016836 -5.00000000
3.20292950 2.52045703 0.79223895 8 11 5180 4.15200000 1893016838 1893016838 11.00000000
3.18507409 2.50550628 -0.21237931 7 12 5181 4.05800000 1893016840 1893016840 -3.00000000
3.19544220 2.51275945 0.93849581 8 13 5182 4.17200000 1893016843 1893016843 13.00000000
3.18669057 2.50497770 -0.07075205 7 14 5183 4.05400000 1893016845 1893016845 -1.00000000
3.21830392 2.52982783 1.09687507 8 15 5183 4.23800000 1893016847 1893016847 15.00000000
1.79844594 1.41016173 -0.61236584 4 0 5190 2.36600000 1893016868 1893016868 -15.00000000
3.20277596 2.51039457 0.07103129 7 1 5191 4.07000000 1893016870 1893016870 1.00000000
2.13372660 1.67185295 -0.62581384 3 2 5192 2.78200000 1893016873 1893016873 -13.00000000
3.20603824 2.51114559 0.21342602 7 3 5193 4.07800000 1893016875 1893016875 3.00000000
2.56567550 2.00957823 -0.63348585 5 4 5193 3.32000000 1893016877 1893016877 -11.00000000
3.21748352 2.51920390 0.35751286 6 5 5194 4.10200000 1893016879 1893016879 5.00000000
3.18111229 2.48983097 -0.63981694 9 6 5195 4.09000000 1893016882 1893016882 -9.00000000
3.23002672 2.52720690 0.50356412 7 7 5196 4.13200000 1893016884 1893016884 7.00000000
3.20075870 2.50340676 -0.49893311 10 8 5197 4.09400000 1893016886 1893016886 -7.00000000
3.21198320 2.51128244 0.64576149 8 9 5198 4.12800000 1893016889 1893016889 9.00000000
3.20197582 2.50345802 -0.35559544 9 10 5198 4.08000000 1893016891 1893016891 -5.00000000
3.22055125 2.51707578 0.79452866 8 11 5199 4.16400000 1893016893 1893016893 11.00000000
3.19651294 2.49738955 -0.21258865 7 12 5200 4.06200000 1893016896 1893016896 -3.00000000
3.22525883 2.51894188 0.94479442 9 13 5201 4.20000000 1893016898 1893016898 13.00000000
3.20128489 2.49931884 -0.07089168 7 14 5202 4.06200000 1893016900 1893016900 -1.00000000
3.23276639 2.52389717 1.09894562 8 15 5202 4.24600000 1893016902 1893016902 15.00000000
1.80030859 1.40150201 -0.61133057 4 0 5210 2.36200000 1893016923 1893016923 -15.00000000
3.21467566 2.50165582 0.07110111 7 1 5211 4.07400000 1893016926 1893016926 1.00000000
2.14262557 1.66678774 -0.62671363 3 2 5212 2.78600000 1893016928 1893016928 -13.00000000
3.23212743 2.51342583 0.21457742 7 3 5213 4.10000000 1893016930 1893016930 3.00000000
2.58042359 2.00663590 -0.63539398 5 4 5213 3.33000000 1893016932 1893016932 -11.00000000
3.23254967 2.51284885 0.35821012 6 5 5214 4.11000000 1893016935 1893016935 5.00000000
3.19914293 2.48598409 -0.64169419 9 6 5215 4.10200000 1893016937 1893016937 -9.00000000
3.24980235 2.52444100 0.50527030 7 7 5216 4.14600000 1893016939 1893016939 7.00000000
3.22045302 2.50074124 -0.50063926 10 8 5217 4.10800000 1893016942 1893016942 -7.00000000
3.23945498 2.51459050 0.64951593 8 9 5218 4.15200000 1893016944 1893016944 9.00000000
3.21541667 2.49593091 -0.35611835 9 10 5218 4.08600000 1893016946 1893016946 -5.00000000
3.24793053 2.52026129 0.79910809 8 11 5219 4.18800000 1893016949 1893016949 11.00000000
3.22730494 2.50335431 -0.21405406 7 12 5220 4.09000000 1893016951 1893016951 -3.00000000
3.25559211 2.52438617 0.95109308 8 13 5221 4.22800000 1893016953 1893016953 13.00000000
3.22105312 2.49670434 -0.07113601 7 14 5222 4.07600000 1893016955 1893016955 -1.00000000
3.24963045 2.51794767 1.10153389 8 15 5223 4.25600000 1893016958 1893016958 15.00000000
1.80873454 1.39694071 -0.61236584 4 0 5232 2.36600000 1893016979 1893016979 -15.00000000
3.23692036 2.49907017 0.07138034 7 1 5233 4.09000000 1893016981 1893016981 1.00000000
2.15518069 1.66331089 -0.62851322 3 2 5234 2.79400000 1893016983 1893016983 -13.00000000
3.25440526 2.51075673 0.21541479 7 3 5235 4.11600000 1893016985 1893016985 3.00000000
2.58655524 1.99551392 -0.63501233 5 4 5235 3.32800000 1893016988 1893016988 -11.00000000
3.25637364 2.51136899 0.35977891 6 5 5236 4.12800000 1893016990 1893016990 5.00000000
3.21648693 2.47971249 -0.64325851 9 6 5237 4.11200000 1893016992 1893016992 -9.00000000
3.26890564 2.51921463 0.50673270 7 7 5238 4.15800000 1893016995 1893016995 7.00000000
3.25204706 2.50531769 -0.50405163 8 8 5239 4.13600000 1893016997 1893016997 -7.00000000
3.27256250 2.52021241 0.65420896 8 9 5240 4.18200000 1893016999 1893016999 9.00000000
3.24707627 2.50058532 -0.35855871 9 10 5240 4.11400000 1893017002 1893017002 -5.00000000
3.26225090 2.51136446 0.80025291 8 11 5241 4.19400000 1893017004 1893017004 11.00000000
3.24322462 2.49581623 -0.21447276 7 12 5242 4.09800000 1893017006 1893017006 -3.00000000
3.28070688 2.52374911 0.95559210 8 13 5243 4.24800000 1893017008 1893017008 13.00000000
3.25439382 2.50260305 -0.07165958 7 14 5244 4.10600000 1893017011 1893017011 -1.00000000
3.28027725 2.52250719 1.10878074 8 15 5244 4.28400000 1893017013 1893017013 15.00000000
1.81359982 1.39061856 -0.61236584 4 0 5252 2.36600000 1893017034 1893017034 -15.00000000
3.25832081 2.49748802 0.07165958 7 1 5253 4.10600000 1893017036 1893017036 1.00000000
2.15169239 1.64866638 -0.62581384 3 2 5254 2.78200000 1893017038 1893017038 -13.00000000
3.27741981 2.51031160 0.21635684 7 3 5255 4.13400000 1893017041 1893017041 3.00000000
2.59662223 1.98886061 -0.63577557 5 4 5255 3.33200000 1893017043 1893017043 -11.00000000
3.27935767 2.51088786 0.36134771 6 5 5256 4.14600000 1893017045 1893017045 5.00000000
3.23610377 2.47687411 -0.64544863 9 6 5257 4.12600000 1893017048 1893017048 -9.00000000
3.28713894 2.51502609 0.50819516 7 7 5258 4.17000000 1893017050 1893017050 7.00000000
3.27338672 2.50359845 -0.50600153 8 8 5259 4.15200000 1893017052 1893017052 -7.00000000
3.29703236 2.52077150 0.65733761 8 9 5260 4.20200000 1893017055 1893017055 9.00000000
3.26844740 2.49891686 -0.35995322 9 10 5260 4.13000000 1893017057 1893017057 -5.00000000
3.29127526 2.51545978 0.80521399 8 11 5261 4.22000000 1893017059 1893017059 11.00000000
3.26143956 2.49175525 -0.21510078 7 12 5262 4.11000000 1893017061 1893017061 -3.00000000
3.30188632 2.52174425 0.95919132 8 13 5263 4.26400000 1893017064 1893017064 13.00000000
3.28218293 2.50578928 -0.07207844 7 14 5264 4.13000000 1893017066 1893017066 -1.00000000
3.30288196 2.52159214 1.11343956 8 15 5264 4.30200000 1893017068 1893017068 15.00000000
1.81973827 1.38576722 -0.61288351 4 0 5271 2.36800000 1893017089 1893017089 -15.00000000
3.28567839 2.50120425 0.07207844 7 1 5272 4.13000000 1893017091 1893017091 1.00000000
2.15714788 1.64152205 -0.62581384 3 2 5273 2.78200000 1893017094 1893017094 -13.00000000
3.28846884 2.50242186 0.21656619 7 3 5273 4.13800000 1893017096 1893017096 3.00000000
2.60007811 1.97786164 -0.63501233 5 4 5274 3.32800000 1893017098 1893017098 -11.00000000
3.30828333 2.51567698 0.36361375 7 5 5275 4.17200000 1893017101 1893017101 5.00000000
3.25530767 2.47449708 -0.64763868 9 6 5276 4.14000000 1893017103 1893017103 -9.00000000
3.31284690 2.51732278 0.51087630 7 7 5277 4.19200000 1893017105 1893017105 7.00000000
3.28799415 2.49753284 -0.50697649 8 8 5278 4.16000000 1893017107 1893017107 -7.00000000
3.31594658 2.51876521 0.65952772 8 9 5278 4.21600000 1893017110 1893017110 9.00000000
3.29893112 2.50493264 -0.36239359 9 10 5279 4.15800000 1893017112 1893017112 -5.00000000
3.31680036 2.51758862 0.80941176 8 11 5280 4.24200000 1893017114 1893017114 11.00000000
3.29514194 2.50024247 -0.21677554 7 12 5281 4.14200000 1893017117 1893017117 -3.00000000
3.31178331 2.51195860 0.95964122 8 13 5282 4.26600000 1893017119 1893017119 13.00000000
3.29525471 2.49851608 -0.07218315 7 14 5283 4.13600000 1893017121 1893017121 -1.00000000
3.31892276 2.51646161 1.11602771 8 15 5283 4.31200000 1893017124 1893017124 15.00000000
1.82148230 1.37707663 -0.61184824 4 0 5291 2.36400000 1893017144 1893017144 -15.00000000
3.31193805 2.50298214 0.07246239 7 1 5292 4.15200000 1893017147 1893017147 1.00000000
2.16597438 1.63633156 -0.62671363 3 2 5293 2.78600000 1893017149 1893017149 -13.00000000
3.31833839 2.50599980 0.21792692 7 3 5294 4.16400000 1893017151 1893017151 3.00000000
2.59913301 1.96285784 -0.63310426 6 4 5294 3.31800000 1893017154 1893017154 -11.00000000
3.32499528 2.51011586 0.36448532 7 5 5295 4.18200000 1893017156 1893017156 5.00000000
3.26707911 2.46549869 -0.64826441 11 6 5296 4.14400000 1893017158 1893017158 -9.00000000
3.33904600 2.51889396 0.51355743 7 7 5297 4.21400000 1893017160 1893017160 7.00000000
3.31254148 2.49799252 -0.50941384 8 8 5298 4.18000000 1893017163 1893017163 -7.00000000
3.32988811 2.51016212 0.66046631 8 9 5299 4.22200000 1893017165 1893017165 9.00000000
3.32038283 2.50299668 -0.36378807 9 10 5299 4.17400000 1893017167 1893017167 -5.00000000
3.34595132 2.52135515 0.81437278 8 11 5300 4.26800000 1893017170 1893017170 11.00000000
3.32937384 2.50795221 -0.21845028 7 12 5301 4.17400000 1893017172 1893017172 -3.00000000
3.34232593 2.51679444 0.96593982 8 13 5302 4.29400000 1893017174 1893017174 13.00000000
3.31513953 2.49541640 -0.07242749 7 14 5303 4.15000000 1893017177 1893017177 -1.00000000
3.34047294 2.51357245 1.12016881 8 15 5304 4.32800000 1893017179 1893017179 15.00000000
1.82294917 1.36870897 -0.61081296 4 0 5310 2.36000000 1893017200 1893017200 -15.00000000
3.33621335 2.50398946 0.07281144 7 1 5311 4.17200000 1893017202 1893017202 1.00000000
2.17138886 1.62913990 -0.62671363 3 2 5312 2.78600000 1893017204 1893017204 -13.00000000
3.34696341 2.51114488 0.21928766 7 3 5312 4.19000000 1893017207 1893017207 3.00000000
2.61819243 1.96365166 -0.63615721 6 4 5313 3.33400000 1893017209 1893017209 -11.00000000
3.33489490 2.50027108 0.36465964 7 5 5314 4.18400000 1893017211 1893017211 5.00000000
3.27207565 2.45228171 -0.64763868 9 6 5315 4.14000000 1893017213 1893017213 -9.00000000
3.36485624 2.52089977 0.51623851 7 7 5316 4.23600000 1893017216 1893017216 7.00000000
3.33669591 2.49889350 -0.51185125 8 8 5317 4.20000000 1893017218 1893017218 -7.00000000
3.35875106 2.51449585 0.66453362 8 9 5318 4.24800000 1893017220 1893017220 9.00000000
3.33823442 2.49913645 -0.36483395 9 10 5318 4.18600000 1893017223 1893017223 -5.00000000
3.36844039 2.52083254 0.81780738 8 11 5319 4.28600000 1893017225 1893017225 11.00000000
3.35046649 2.50646925 -0.21928766 8 12 5320 4.19000000 1893017227 1893017227 -3.00000000
3.36625957 2.51736784 0.97043884 8 13 5321 4.31400000 1893017230 1893017230 13.00000000
3.34581947 2.50117159 -0.07291616 7 14 5322 4.17800000 1893017232 1893017232 -1.00000000
3.35454226 2.50769234 1.12223935 8 15 5322 4.33600000 1893017234 1893017234 15.00000000
1.82926464 1.36349177 -0.61133057 4 0 5330 2.36200000 1893017255 1893017255 -15.00000000
3.35134768 2.49710774 0.07295106 7 1 5331 4.18000000 1893017257 1893017257 1.00000000
2.16768527 1.61456597 -0.62401420 3 2 5332 2.77400000 1893017259 1893017259 -13.00000000
3.37172627 2.51137686 0.22033438 7 3 5332 4.21000000 1893017262 1893017262 3.00000000
2.62345624 1.95332801 -0.63577557 5 4 5333 3.33200000 1893017264 1893017264 -11.00000000
3.36597800 2.50526905 0.36710000 7 5 5334 4.21200000 1893017266 1893017266 5.00000000
3.27744603 2.43848681 -0.64701295 9 6 5335 4.13600000 1893017269 1893017269 -9.00000000
3.38478518 2.51743174 0.51794469 7 7 5336 4.25000000 1893017271 1893017271 7.00000000
3.35814285 2.49670601 -0.51380116 8 8 5337 4.21600000 1893017273 1893017273 -7.00000000
3.38653350 2.51689625 0.66828805 8 9 5338 4.27200000 1893017276 1893017276 9.00000000
3.36452794 2.50054169 -0.36675137 9 10 5338 4.20800000 1893017278 1893017278 -5.00000000
3.38037109 2.51140070 0.81857061 8 11 5339 4.29000000 1893017280 1893017280 11.00000000
3.36721253 2.50071263 -0.21981102 8 12 5340 4.20000000 1893017283 1893017283 -3.00000000
3.39067316 2.51721811 0.97493786 8 13 5341 4.33400000 1893017285 1893017285 13.00000000
3.37701106 2.50616121 -0.07340482 7 14 5342 4.20600000 1893017287 1893017287 -1.00000000
3.38964772 2.51553941 1.13103926 8 15 5342 4.37000000 1893017289 1893017289 15.00000000
1.83556592 1.35824728 -0.61184824 4 0 5350 2.36400000 1893017310 1893017310 -15.00000000
3.37612057 2.49728608 0.07330011 7 1 5351 4.20000000 1893017312 1893017312 1.00000000
2.17017412 1.60467231 -0.62311441 3 2 5352 2.77000000 1893017315 1893017315 -13.00000000
3.40178800 2.51443529 0.22169511 7 3 5353 4.23600000 1893017317 1893017317 3.00000000
2.63183737 1.94532561 -0.63615721 8 4 5353 3.33400000 1893017319 1893017319 -11.00000000
3.39553404 2.50889635 0.36936605 7 5 5354 4.23800000 1893017322 1893017322 5.00000000
3.29864955 2.43642044 -0.64951593 9 6 5355 4.15200000 1893017324 1893017324 -9.00000000
3.39834309 2.50913858 0.51867592 7 7 5356 4.25600000 1893017326 1893017326 7.00000000
3.37322617 2.48968410 -0.51477611 8 8 5357 4.22400000 1893017329 1893017329 -7.00000000
3.41234398 2.51855588 0.67172956 8 9 5357 4.29400000 1893017331 1893017331 9.00000000
3.39407825 2.50415945 -0.36901742 9 10 5358 4.23400000 1893017333 1893017333 -5.00000000
3.40965700 2.51473475 0.82353163 8 11 5359 4.31600000 1893017336 1893017336 11.00000000
3.38074374 2.49249935 -0.22012503 8 12 5360 4.20600000 1893017338 1893017338 -3.00000000
3.41669536 2.51808476 0.97988677 8 13 5361 4.35600000 1893017340 1893017340 13.00000000
3.40183806 2.50621891 -0.07375387 7 14 5362 4.22600000 1893017342 1893017342 -1.00000000
3.41440034 2.51455450 1.13621557 8 15 5363 4.39000000 1893017345 1893017345 15.00000000
1.84340978 1.35411906 -0.61288351 3 0 5370 2.36800000 1893017365 1893017365 -15.00000000
3.40415883 2.49968863 0.07371897 7 1 5371 4.22400000 1893017368 1893017368 1.00000000
2.18518782 1.60400593 -0.62581384 3 2 5372 2.78200000 1893017370 1893017370 -13.00000000
3.40849757 2.50195909 0.22159044 7 3 5372 4.23400000 1893017372 1893017372 3.00000000
2.63386345 1.93264258 -0.63501233 5 4 5373 3.32800000 1893017375 1893017375 -11.00000000
3.43318892 2.51823974 0.37250364 7 5 5374 4.27400000 1893017377 1893017377 5.00000000
3.31509924 2.43073130 -0.65108025 9 6 5375 4.16200000 1893017379 1893017379 -9.00000000
3.42629361 2.51134300 0.52160078 7 7 5376 4.28000000 1893017382 1893017382 7.00000000
3.40271282 2.49314642 -0.51794469 8 8 5377 4.25000000 1893017384 1893017384 -7.00000000
3.43430114 2.51536989 0.67423254 8 9 5378 4.31000000 1893017386 1893017386 9.00000000
3.41887236 2.50406957 -0.37076053 9 10 5378 4.25400000 1893017389 1893017389 -5.00000000
3.43583918 2.51557517 0.82772940 8 11 5379 4.33800000 1893017391 1893017391 11.00000000
3.40715241 2.49365854 -0.22127642 8 12 5380 4.22800000 1893017393 1893017393 -3.00000000
3.43018246 2.50959492 0.98123652 9 13 5381 4.36200000 1893017395 1893017395 13.00000000
3.42025042 2.50141191 -0.07396330 7 14 5382 4.23800000 1893017398 1893017398 -1.00000000
3.44810939 2.52086306 1.14449787 8 15 5383 4.42200000 1893017400 1893017400 15.00000000
1.85569358 1.35369122 -0.61547166 4 0 5389 2.37800000 1893017421 1893017421 -15.00000000
3.43504977 2.50488138 0.07420763 7 1 5390 4.25200000 1893017423 1893017423 1.00000000
2.19049478 1.59675086 -0.62581384 3 2 5391 2.78200000 1893017425 1893017425 -13.00000000
3.44259906 2.50946617 0.22326519 7 3 5391 4.26600000 1893017428 1893017428 3.00000000
2.63549757 1.92042911 -0.63386750 5 4 5392 3.32200000 1893017430 1893017430 -11.00000000
3.44635201 2.51036024 0.37302658 7 5 5393 4.28000000 1893017432 1893017432 5.00000000
3.32633543 2.42205024 -0.65170598 9 6 5394 4.16600000 1893017435 1893017435 -9.00000000
3.46028209 2.51865864 0.52550060 7 7 5395 4.31200000 1893017437 1893017437 7.00000000
3.42540812 2.49236012 -0.52013838 8 8 5396 4.26800000 1893017439 1893017439 -7.00000000
3.45336771 2.51270390 0.67642266 8 9 5396 4.32400000 1893017442 1893017442 9.00000000
3.43037987 2.49506211 -0.37110916 9 10 5397 4.25800000 1893017444 1893017444 -5.00000000
3.46956849 2.52263999 0.83383530 8 11 5398 4.37000000 1893017446 1893017446 11.00000000
3.43317461 2.49526310 -0.22242782 8 12 5399 4.25000000 1893017448 1893017448 -3.00000000
3.46371078 2.51653314 0.98843491 9 13 5400 4.39400000 1893017451 1893017451 13.00000000
3.44147038 2.49945712 -0.07424254 7 14 5401 4.25400000 1893017453 1893017453 -1.00000000
3.46426630 2.51508975 1.14708602 8 15 5402 4.43200000 1893017455 1893017455 15.00000000
1.84632540 1.33700788 -0.61081296 4 0 5409 2.36000000 1893017476 1893017476 -15.00000000
3.45835090 2.50342870 0.07452177 7 1 5410 4.27000000 1893017478 1893017478 1.00000000
2.20237041 1.59366453 -0.62761343 3 2 5411 2.79000000 1893017481 1893017481 -13.00000000
3.46266413 2.50563002 0.22399789 7 3 5411 4.28000000 1893017483 1893017483 3.00000000
2.64218521 1.91121781 -0.63386750 5 4 5412 3.32200000 1893017485 1893017485 -11.00000000
3.46801019 2.50765443 0.37442106 7 5 5413 4.29600000 1893017488 1893017488 5.00000000
3.32516408 2.40348125 -0.64982879 9 6 5414 4.15400000 1893017490 1893017490 -9.00000000
3.48996997 2.52167845 0.52866924 7 7 5415 4.33800000 1893017492 1893017492 7.00000000
3.45661640 2.49666071 -0.52355069 8 8 5416 4.29600000 1893017495 1893017495 -7.00000000
3.48133373 2.51451349 0.68017703 8 9 5416 4.34800000 1893017497 1893017497 9.00000000
3.44876051 2.49007058 -0.37215501 9 10 5417 4.27000000 1893017499 1893017499 -5.00000000
3.48472071 2.51510954 0.83536178 8 11 5418 4.37800000 1893017501 1893017501 11.00000000
3.45644116 2.49378109 -0.22336987 8 12 5419 4.26800000 1893017504 1893017504 -3.00000000
3.49144077 2.51810646 0.99383378 8 13 5420 4.41800000 1893017506 1893017506 13.00000000
3.46315098 2.49678445 -0.07452177 7 14 5421 4.27000000 1893017508 1893017508 -1.00000000
3.48399520 2.51088834 1.15070951 8 15 5422 4.44600000 1893017511 1893017511 15.00000000
1.85278225 1.33135903 -0.61133057 4 0 5430 2.36200000 1893017531 1893017531 -15.00000000
3.47724795 2.49773598 0.07473120 7 1 5431 4.28200000 1893017534 1893017534 1.00000000
2.20186472 1.58103526 -0.62581384 3 2 5432 2.78200000 1893017536 1893017536 -13.00000000
3.49778223 2.51156044 0.22567265 7 3 5432 4.31200000 1893017538 1893017538 3.00000000
2.65076733 1.90266573 -0.63424909 5 4 5433 3.32400000 1893017541 1893017541 -11.00000000
3.48689055 2.50189567 0.37546694 7 5 5434 4.30800000 1893017543 1893017543 5.00000000
3.33395100 2.39127779 -0.64982879 9 6 5435 4.15400000 1893017545 1893017545 -9.00000000
3.49918890 2.50887012 0.52866924 7 7 5436 4.33800000 1893017547 1893017547 7.00000000
3.48671913 2.49900818 -0.52671933 8 8 5437 4.32200000 1893017550 1893017550 -7.00000000
3.50337124 2.51094294 0.68268001 8 9 5437 4.36400000 1893017552 1893017552 9.00000000
3.48377752 2.49597955 -0.37494400 9 10 5438 4.30200000 1893017554 1893017554 -5.00000000
3.50349236 2.50917935 0.83765149 8 11 5439 4.39000000 1893017557 1893017557 11.00000000
3.47043014 2.48458385 -0.22368388 8 12 5440 4.27400000 1893017559 1893017559 -3.00000000
3.51966333 2.51890230 0.99923259 8 13 5441 4.44200000 1893017561 1893017561 13.00000000
3.49016881 2.49687314 -0.07490573 7 14 5442 4.29200000 1893017564 1893017564 -1.00000000
3.51002169 2.51107597 1.15640354 8 15 5442 4.46800000 1893017566 1893017566 15.00000000
1.86370921 1.32937086 -0.61340111 4 0 5450 2.37000000 1893017587 1893017587 -15.00000000
3.50385571 2.49835324 0.07511516 7 1 5451 4.30400000 1893017589 1893017589 1.00000000
2.20102262 1.56881535 -0.62401420 3 2 5452 2.77400000 1893017591 1893017591 -13.00000000
3.51465988 2.50513196 0.22619601 7 3 5452 4.32200000 1893017594 1893017594 3.00000000
2.66059041 1.89567971 -0.63501233 5 4 5453 3.32800000 1893017596 1893017596 -11.00000000
3.52319098 2.50935841 0.37843025 7 5 5454 4.34200000 1893017598 1893017598 5.00000000
3.33262253 2.37275147 -0.64795154 9 6 5455 4.14200000 1893017600 1893017600 -9.00000000
3.52409816 2.50815105 0.53110659 7 7 5456 4.35800000 1893017603 1893017603 7.00000000
3.50027347 2.49027419 -0.52745050 8 8 5457 4.32800000 1893017605 1893017605 -7.00000000
3.53947759 2.51816607 0.68799877 8 9 5457 4.39800000 1893017607 1893017607 9.00000000
3.50545812 2.49304152 -0.37633851 10 10 5458 4.31800000 1893017610 1893017610 -5.00000000
3.52823091 2.50831008 0.84146768 8 11 5459 4.41000000 1893017612 1893017612 11.00000000
3.49210596 2.48171043 -0.22452125 8 12 5460 4.29000000 1893017614 1893017614 -3.00000000
3.53796649 2.51337266 1.00193202 8 13 5461 4.45400000 1893017617 1893017617 13.00000000
3.51353693 2.49509525 -0.07521987 7 14 5462 4.31000000 1893017619 1893017619 -1.00000000
3.54755688 2.51832294 1.16572094 8 15 5463 4.50400000 1893017621 1893017621 15.00000000
1.86787641 1.32350934 -0.61340111 4 0 5468 2.37000000 1893017642 1893017642 -15.00000000
3.53290081 2.50235915 0.07556892 7 1 5469 4.33000000 1893017644 1893017644 1.00000000
2.20912123 1.56414509 -0.62491405 3 2 5470 2.77800000 1893017647 1893017647 -13.00000000
3.53109908 2.49923229 0.22671936 7 3 5471 4.33200000 1893017649 1893017649 3.00000000
2.66813540 1.88844609 -0.63539398 5 4 5471 3.33000000 1893017651 1893017651 -11.00000000
3.54244232 2.50633287 0.37965041 7 5 5472 4.35600000 1893017653 1893017653 5.00000000
3.33844757 2.36112928 -0.64763868 6 6 5473 4.14000000 1893017656 1893017656 -9.00000000
3.55627418 2.51425695 0.53476268 7 7 5474 4.38800000 1893017658 1893017658 7.00000000
3.52753282 2.49301386 -0.53037536 8 8 5475 4.35200000 1893017660 1893017660 -7.00000000
3.55059743 2.50931430 0.68862450 8 9 5475 4.40200000 1893017663 1893017663 9.00000000
3.54581833 2.50500894 -0.37982473 10 10 5476 4.35800000 1893017665 1893017665 -5.00000000
3.56495953 2.51759887 0.84833682 9 11 5477 4.44600000 1893017667 1893017667 11.00000000
3.52599144 2.48915720 -0.22619601 8 12 5478 4.32200000 1893017670 1893017670 -3.00000000
3.55699039 2.51011062 1.00508130 8 13 5479 4.46800000 1893017672 1893017672 13.00000000
3.53606439 2.49441910 -0.07553402 7 14 5480 4.32800000 1893017674 1893017674 -1.00000000
3.56606364 2.51558113 1.16934443 8 15 5480 4.51800000 1893017677 1893017677 15.00000000
