# .PCD v0.7 - Point Cloud Data file format
VERSION 0.7
FIELDS x y z intensity laser_id azimuth distance_m adjustedtime timestamp vertical_angle
SIZE 4 4 4 1 1 2 8 8 4 8
TYPE F F F U U U F U U F
COUNT 1 1 1 1 1 1 1 1 1 1
WIDTH 528
HEIGHT 1
VIEWPOINT 0 0 0 1 0 0 0
POINTS 528
DATA ascii
8.12164211 0.22827663 -0.42580533 17 12 8839 8.13600000 1892427108 1892427108 -3.00000000
8.10764122 0.22505079 -0.14157392 20 14 8841 8.11200000 1892427112 1892427112 -1.00000000
8.18210411 0.22711770 2.19323254 56 15 8841 8.47400000 1892427115 1892427115 15.00000000
2.22858262 0.05874672 -0.59735435 4 0 8849 2.30800000 1892427135 1892427135 -15.00000000
8.12597656 0.21278618 0.14188807 18 1 8850 8.13000000 1892427138 1892427138 1.00000000
2.62601352 0.06830595 -0.60646802 6 2 8851 2.69600000 1892427140 1892427140 -13.00000000
8.12413597 0.20990022 0.42591003 13 3 8852 8.13800000 1892427142 1892427142 3.00000000
3.14604688 0.08128322 -0.61173362 5 4 8852 3.20600000 1892427144 1892427144 -11.00000000
8.11631489 0.20828064 0.71031928 76 5 8853 8.15000000 1892427147 1892427147 5.00000000
3.97119284 0.10121508 -0.62917942 6 6 8854 4.02200000 1892427149 1892427149 -9.00000000
8.13230324 0.20585038 0.99884117 92 7 8855 8.19600000 1892427151 1892427151 7.00000000
5.24891090 0.13194731 -0.64468884 6 8 8856 5.29000000 1892427154 1892427154 -7.00000000
8.20118427 0.20472938 1.29934466 10 9 8857 8.30600000 1892427156 1892427156 9.00000000
6.60072231 0.16477641 -0.57766825 16 10 8857 6.62800000 1892427158 1892427158 -5.00000000
8.11639977 0.19977798 -0.42549133 21 12 8859 8.13000000 1892427163 1892427163 -3.00000000
8.09838200 0.19650593 -0.14139940 16 14 8861 8.10200000 1892427168 1892427168 -1.00000000
8.17901897 0.19703421 2.19219732 49 15 8862 8.47000000 1892427170 1892427170 15.00000000
2.22297120 0.05122264 -0.59580141 4 0 8868 2.30200000 1892427191 1892427191 -15.00000000
8.11264324 0.18551828 0.14164373 15 1 8869 8.11600000 1892427193 1892427193 1.00000000
2.61843252 0.05942055 -0.60466844 6 2 8870 2.68800000 1892427195 1892427195 -13.00000000
8.12478733 0.18295845 0.42591003 13 3 8871 8.13800000 1892427197 1892427197 3.00000000
3.15022469 0.07093850 -0.61249685 5 4 8871 3.21000000 1892427200 1892427200 -11.00000000
8.10700130 0.18114229 0.70944774 76 5 8872 8.14000000 1892427202 1892427202 5.00000000
3.96953177 0.08800179 -0.62886655 6 6 8873 4.02000000 1892427204 1892427204 -9.00000000
8.14087963 0.17905617 0.99981612 90 7 8874 8.20400000 1892427207 1892427207 7.00000000
5.27313519 0.11506022 -0.64761370 6 8 8875 5.31400000 1892427209 1892427209 -7.00000000
8.21166134 0.17917909 1.30090904 10 9 8875 8.31600000 1892427211 1892427211 9.00000000
6.60322428 0.14292984 -0.57784259 60 10 8876 6.63000000 1892427214 1892427214 -5.00000000
8.12101173 0.17294697 -0.42570066 25 12 8878 8.13400000 1892427218 1892427218 -3.00000000
8.10698605 0.16981716 -0.14153902 18 14 8880 8.11000000 1892427223 1892427223 -1.00000000
8.16993999 0.17113586 2.18960905 47 15 8880 8.46000000 1892427225 1892427225 15.00000000
2.23086238 0.04361375 -0.59787202 4 0 8888 2.31000000 1892427246 1892427246 -15.00000000
8.11324120 0.15719874 0.14164373 18 1 8889 8.11600000 1892427248 1892427248 1.00000000
2.62057233 0.05031756 -0.60511833 5 2 8890 2.69000000 1892427250 1892427250 -13.00000000
8.13935471 0.15486249 0.42664272 10 3 8891 8.15200000 1892427253 1892427253 3.00000000
3.15045309 0.05994173 -0.61249685 5 4 8891 3.21000000 1892427255 1892427255 -11.00000000
8.11156845 0.15291758 0.70979637 76 5 8892 8.14400000 1892427257 1892427257 5.00000000
3.95993972 0.07396057 -0.62730223 9 6 8893 4.01000000 1892427260 1892427260 -9.00000000
8.12954617 0.15041776 0.99835366 92 7 8894 8.19200000 1892427262 1892427262 7.00000000
5.26953506 0.09658009 -0.64712620 6 8 8895 5.31000000 1892427264 1892427264 -7.00000000
8.21226311 0.14908065 1.30090904 10 9 8896 8.31600000 1892427267 1892427267 9.00000000
6.62161160 0.12020488 -0.57941139 100 10 8896 6.64800000 1892427269 1892427269 -5.00000000
8.11557484 0.14449163 -0.42538664 17 12 8898 8.12800000 1892427273 1892427273 -3.00000000
8.11552715 0.14165705 -0.14167863 18 14 8900 8.11800000 1892427278 1892427278 -1.00000000
8.17051220 0.14119038 2.18960905 47 15 8901 8.46000000 1892427280 1892427280 15.00000000
2.23487043 0.03549831 -0.59890729 4 0 8909 2.31400000 1892427301 1892427301 -15.00000000
8.11376286 0.12746117 0.14164373 15 1 8910 8.11600000 1892427303 1892427303 1.00000000
2.61099672 0.04056100 -0.60286885 6 2 8911 2.68000000 1892427306 1892427306 -13.00000000
8.12588882 0.12481450 0.42591003 13 3 8912 8.13800000 1892427308 1892427308 3.00000000
3.15065169 0.04839434 -0.61249685 5 4 8912 3.21000000 1892427310 1892427310 -11.00000000
8.11805058 0.12327692 0.71031928 79 5 8913 8.15000000 1892427313 1892427313 5.00000000
3.96018410 0.05944616 -0.62730223 9 6 8914 4.01000000 1892427315 1892427315 -9.00000000
8.12210369 0.12050267 0.99737871 90 7 8915 8.18400000 1892427317 1892427317 7.00000000
5.26191425 0.07714922 -0.64615124 8 8 8916 5.30200000 1892427320 1892427320 -7.00000000
8.21865940 0.12050047 1.30184758 10 9 8916 8.32200000 1892427322 1892427322 9.00000000
6.60407782 0.09567490 -0.57784259 100 10 8917 6.63000000 1892427324 1892427324 -5.00000000
8.10007286 0.11451972 -0.42454928 17 12 8919 8.11200000 1892427329 1892427329 -3.00000000
8.11799145 0.11193878 -0.14171354 20 14 8921 8.12000000 1892427333 1892427333 -1.00000000
8.17095566 0.11266910 2.18960905 47 15 8921 8.46000000 1892427336 1892427336 15.00000000
2.23884416 0.02774481 -0.59994256 4 0 8929 2.31800000 1892427356 1892427356 -15.00000000
8.11015892 0.09908922 0.14157392 18 1 8930 8.11200000 1892427359 1892427359 1.00000000
2.61891675 0.03154054 -0.60466844 6 2 8931 2.68800000 1892427361 1892427361 -13.00000000
8.11828613 0.09635428 0.42549133 13 3 8932 8.13000000 1892427363 1892427363 3.00000000
3.15080142 0.03739622 -0.61249685 5 4 8932 3.21000000 1892427366 1892427366 -11.00000000
8.12241650 0.09498548 0.71066791 76 5 8933 8.15400000 1892427368 1892427368 5.00000000
3.95839214 0.04559942 -0.62698936 4 6 8934 4.00800000 1892427370 1892427370 -9.00000000
8.12446022 0.09217303 0.99762243 90 7 8935 8.18600000 1892427373 1892427373 7.00000000
5.25818157 0.05873689 -0.64566380 8 8 8936 5.29800000 1892427375 1892427375 -7.00000000
8.21509457 0.09033333 1.30122185 10 9 8937 8.31800000 1892427377 1892427377 9.00000000
6.59839487 0.07255606 -0.57731962 32 10 8937 6.62400000 1892427379 1892427379 -5.00000000
8.10641479 0.08630828 -0.42486328 17 12 8939 8.11800000 1892427384 1892427384 -3.00000000
8.10433578 0.08345688 -0.14146921 20 14 8941 8.10600000 1892427389 1892427389 -1.00000000
8.18097210 0.08281808 2.19219732 51 15 8942 8.47000000 1892427391 1892427391 15.00000000
2.23506021 0.02028532 -0.59890729 4 0 8948 2.31400000 1892427412 1892427412 -15.00000000
8.12244129 0.07230121 0.14178336 15 1 8949 8.12400000 1892427414 1892427414 1.00000000
2.62485290 0.02290674 -0.60601813 7 2 8950 2.69400000 1892427416 1892427416 -13.00000000
8.11456680 0.06939839 0.42528197 15 3 8951 8.12600000 1892427419 1892427419 3.00000000
3.14109206 0.02686363 -0.61058879 5 4 8951 3.20000000 1892427421 1892427421 -11.00000000
8.11670971 0.06799998 0.71014500 76 5 8952 8.14800000 1892427423 1892427423 5.00000000
3.95457101 0.03244026 -0.62636358 2 6 8953 4.00400000 1892427426 1892427426 -9.00000000
8.12869072 0.06526271 0.99810994 87 7 8954 8.19000000 1892427428 1892427428 7.00000000
5.25040722 0.04123745 -0.64468884 6 8 8955 5.29000000 1892427430 1892427430 -7.00000000
8.20151138 0.06441584 1.29903185 10 9 8955 8.30400000 1892427432 1892427432 9.00000000
6.60059166 0.05068990 -0.57749397 16 10 8956 6.62600000 1892427435 1892427435 -5.00000000
8.11065102 0.05945524 -0.42507264 21 12 8958 8.12200000 1892427439 1892427439 -3.00000000
8.10056877 0.05655356 -0.14139940 18 14 8960 8.10200000 1892427444 1892427444 -1.00000000
8.17153358 0.05704899 2.18960905 47 15 8960 8.46000000 1892427446 1892427446 15.00000000
2.22352648 0.01241864 -0.59580141 4 0 8968 2.30200000 1892427467 1892427467 -15.00000000
8.11464500 0.04390488 0.14164373 15 1 8969 8.11600000 1892427469 1892427469 1.00000000
2.62491703 0.01374416 -0.60601813 7 2 8970 2.69400000 1892427472 1892427472 -13.00000000
8.12274837 0.04111328 0.42570066 13 3 8971 8.13400000 1892427474 1892427474 3.00000000
3.13920355 0.01588907 -0.61020714 5 4 8971 3.19800000 1892427476 1892427476 -11.00000000
8.11091995 0.03963775 0.70962209 79 5 8972 8.14200000 1892427479 1892427479 5.00000000
3.95268488 0.01862673 -0.62605071 2 6 8973 4.00200000 1892427481 1892427481 -9.00000000
8.13283920 0.03690591 0.99859738 90 7 8974 8.19400000 1892427483 1892427483 7.00000000
5.25051928 0.02290986 -0.64468884 8 8 8975 5.29000000 1892427485 1892427485 -7.00000000
8.20564270 0.03437192 1.29965758 10 9 8976 8.30800000 1892427488 1892427488 9.00000000
6.58678150 0.02759081 -0.57627380 20 10 8976 6.61200000 1892427490 1892427490 -5.00000000
8.11480331 0.03115876 -0.42528197 25 12 8978 8.12600000 1892427495 1892427495 -3.00000000
8.09671688 0.02826299 -0.14132959 18 14 8980 8.09800000 1892427499 1892427499 -1.00000000
8.16782379 0.02708563 2.18857384 47 15 8981 8.45600000 1892427502 1892427502 15.00000000
2.22355628 0.00465701 -0.59580141 4 0 8988 2.30200000 1892427522 1892427522 -15.00000000
8.10675049 0.01556386 0.14150411 28 1 8989 8.10800000 1892427525 1892427525 1.00000000
2.62300014 0.00457800 -0.60556823 6 2 8990 2.69200000 1892427527 1892427527 -13.00000000
8.13083172 0.01277189 0.42611936 13 3 8991 8.14200000 1892427529 1892427529 3.00000000
3.15101933 0.00494961 -0.61249685 5 4 8991 3.21000000 1892427532 1892427532 -11.00000000
8.11300182 0.01132789 0.70979637 76 5 8992 8.14400000 1892427534 1892427534 5.00000000
3.95075035 0.00482675 -0.62573785 2 6 8993 4.00000000 1892427536 1892427536 -9.00000000
8.12696362 0.00851054 0.99786621 90 7 8994 8.18800000 1892427538 1892427538 7.00000000
5.24659681 0.00457852 -0.64420134 8 8 8995 5.28600000 1892427541 1892427541 -7.00000000
8.20966244 0.00716428 1.30028331 10 9 8995 8.31200000 1892427543 1892427543 9.00000000
6.59082270 0.00460126 -0.57662237 16 10 8996 6.61600000 1892427545 1892427545 -5.00000000
8.10088253 0.00282774 -0.42454928 17 12 8998 8.11200000 1892427550 1892427550 -3.00000000
8.10876465 0.00000000 -0.14153902 18 14 9000 8.11000000 1892427555 1892427555 -1.00000000
8.16786861 0.00000000 2.18857384 47 15 9000 8.45600000 1892427557 1892427557 15.00000000
-7.64351034 -0.00000000 -0.40057942 24 12 27000 7.65400000 1892477482 1892477482 -3.00000000
-10.17699337 0.00532866 2.72691751 45 15 27003 10.53600000 1892477489 1892477489 15.00000000
-1.93571246 0.00337846 -0.51867336 5 0 27010 2.00400000 1892477510 1892477510 -15.00000000
-2.24884129 0.00470997 -0.51918703 4 2 27012 2.30800000 1892477515 1892477515 -13.00000000
-2.62682748 0.00596009 -0.51060486 3 4 27013 2.67600000 1892477519 1892477519 -11.00000000
-3.15269041 0.00825374 -0.49933881 3 6 27015 3.19200000 1892477524 1892477524 -9.00000000
-3.95825672 0.01174442 -0.48601493 3 8 27017 3.98800000 1892477528 1892477528 -7.00000000
-5.18417168 0.01628661 -0.45355847 9 10 27018 5.20400000 1892477533 1892477533 -5.00000000
-7.67142534 0.02677844 -0.40204480 20 12 27020 7.68200000 1892477538 1892477538 -3.00000000
-10.15760136 0.03900258 2.72174096 45 15 27022 10.51600000 1892477545 1892477545 15.00000000
-1.95307529 0.01022637 -0.52333212 5 0 27030 2.02200000 1892477565 1892477565 -15.00000000
-2.24296498 0.01252721 -0.51783735 4 2 27032 2.30200000 1892477570 1892477570 -13.00000000
-2.63071728 0.01515201 -0.51136810 3 4 27033 2.68000000 1892477574 1892477574 -11.00000000
-3.14474106 0.01921037 -0.49808735 3 6 27035 3.18400000 1892477579 1892477579 -9.00000000
-3.96613169 0.02561252 -0.48698989 3 8 27037 3.99600000 1892477584 1892477584 -7.00000000
-5.18009853 0.03435622 -0.45320988 6 10 27038 5.20000000 1892477588 1892477588 -5.00000000
-7.66329622 0.05350077 -0.40162614 16 12 27040 7.67400000 1892477593 1892477593 -3.00000000
-10.15545845 0.07621729 2.72122335 42 15 27043 10.51400000 1892477600 1892477600 15.00000000
-1.95495939 0.01706067 -0.52384973 4 0 27050 2.02400000 1892477621 1892477621 -15.00000000
-2.23316431 0.02026811 -0.51558781 4 2 27052 2.29200000 1892477625 1892477625 -13.00000000
-2.62279558 0.02426219 -0.50984162 3 4 27053 2.67200000 1892477630 1892477630 -11.00000000
-3.14860535 0.03022537 -0.49871308 3 6 27055 3.18800000 1892477634 1892477634 -9.00000000
-3.94418311 0.03923951 -0.48430878 5 8 27057 3.97400000 1892477639 1892477639 -7.00000000
-5.17994690 0.05243793 -0.45320988 6 10 27058 5.20000000 1892477644 1892477644 -5.00000000
-7.64309120 0.08004119 -0.40057942 16 12 27060 7.65400000 1892477648 1892477648 -3.00000000
-10.16094494 0.10995629 2.72277641 42 15 27062 10.52000000 1892477655 1892477655 15.00000000
-1.96261477 0.02397906 -0.52592027 4 0 27070 2.03200000 1892477676 1892477676 -15.00000000
-2.23502851 0.02808767 -0.51603770 4 2 27072 2.29400000 1892477680 1892477680 -13.00000000
-2.61876869 0.03336729 -0.50907838 3 4 27073 2.66800000 1892477685 1892477685 -11.00000000
-3.16033196 0.04137101 -0.50059026 3 6 27075 3.20000000 1892477690 1892477690 -9.00000000
-3.94005251 0.05295369 -0.48382130 5 8 27077 3.97000000 1892477694 1892477694 -7.00000000
-5.19965458 0.07079022 -0.45495299 6 10 27078 5.22000000 1892477699 1892477699 -5.00000000
-7.64276552 0.10672008 -0.40057942 16 12 27080 7.65400000 1892477703 1892477703 -3.00000000
-10.16047382 0.14719728 2.72277641 45 15 27083 10.52000000 1892477710 1892477710 15.00000000
-1.95479798 0.03036716 -0.52384973 5 0 27089 2.02400000 1892477731 1892477731 -15.00000000
-2.24271703 0.03562294 -0.51783735 4 2 27091 2.30200000 1892477736 1892477736 -13.00000000
-2.61275482 0.04195669 -0.50793356 3 4 27092 2.66200000 1892477740 1892477740 -11.00000000
-3.16807771 0.05198045 -0.50184178 3 6 27094 3.20800000 1892477745 1892477745 -9.00000000
-3.93985510 0.06601909 -0.48382130 7 8 27096 3.97000000 1892477750 1892477750 -7.00000000
-5.18345451 0.08776268 -0.45355847 6 10 27097 5.20400000 1892477754 1892477754 -5.00000000
-7.65634823 0.13230537 -0.40131211 12 12 27099 7.66800000 1892477759 1892477759 -3.00000000
-10.14257717 0.17881010 2.71811771 40 15 27101 10.50200000 1892477766 1892477766 15.00000000
-1.93536508 0.03682300 -0.51867336 4 0 27109 2.00400000 1892477786 1892477786 -15.00000000
-2.24452734 0.04348902 -0.51828724 4 2 27111 2.30400000 1892477791 1892477791 -13.00000000
-2.62044382 0.05123014 -0.50946003 3 4 27112 2.67000000 1892477796 1892477796 -11.00000000
-3.15207720 0.06272438 -0.49933881 3 6 27114 3.19200000 1892477800 1892477800 -9.00000000
-3.95547819 0.08009284 -0.48577121 7 8 27116 3.98600000 1892477805 1892477805 -7.00000000
-5.19108438 0.10601851 -0.45425573 6 10 27117 5.21200000 1892477809 1892477809 -5.00000000
-7.64385891 0.15878133 -0.40068409 12 12 27119 7.65600000 1892477814 1892477814 -3.00000000
-10.14378452 0.21602443 2.71863532 42 15 27122 10.50400000 1892477821 1892477821 15.00000000
-1.95260704 0.04396988 -0.52333212 5 0 27129 2.02200000 1892477842 1892477842 -15.00000000
-2.23462081 0.05110085 -0.51603770 4 2 27131 2.29400000 1892477846 1892477846 -13.00000000
-2.61239815 0.06019598 -0.50793356 3 4 27132 2.66200000 1892477851 1892477851 -11.00000000
-3.14196491 0.07349583 -0.49777448 3 6 27134 3.18200000 1892477856 1892477856 -9.00000000
-3.95517445 0.09389955 -0.48577121 7 8 27136 3.98600000 1892477860 1892477860 -7.00000000
-5.17873144 0.12385231 -0.45320988 9 10 27137 5.20000000 1892477865 1892477865 -5.00000000
-7.64725113 0.18555930 -0.40089342 12 12 27139 7.66000000 1892477869 1892477869 -3.00000000
-10.14301300 0.24966125 2.71863532 42 15 27141 10.50400000 1892477876 1892477876 15.00000000
-1.95244169 0.05078549 -0.52333212 5 0 27149 2.02200000 1892477897 1892477897 -15.00000000
-2.23442864 0.05890083 -0.51603770 4 2 27151 2.29400000 1892477902 1892477902 -13.00000000
-2.62983513 0.06978328 -0.51136810 3 4 27152 2.68000000 1892477906 1892477906 -11.00000000
-3.16341043 0.08504685 -0.50121605 3 6 27154 3.20400000 1892477911 1892477911 -9.00000000
-3.94688511 0.10748895 -0.48479626 7 8 27156 3.97800000 1892477915 1892477915 -7.00000000
-5.19420099 0.14236541 -0.45460436 9 10 27157 5.21600000 1892477920 1892477920 -5.00000000
-7.62259912 0.21158704 -0.39963737 12 12 27159 7.63600000 1892477925 1892477925 -3.00000000
-10.14396095 0.28689018 2.71915293 42 15 27162 10.50600000 1892477932 1892477932 15.00000000
-1.95031142 0.05788389 -0.52281445 5 0 27170 2.02000000 1892477952 1892477952 -15.00000000
-2.23419785 0.06709002 -0.51603770 4 2 27172 2.29400000 1892477957 1892477957 -13.00000000
-2.61778760 0.07906602 -0.50907838 3 4 27173 2.66800000 1892477962 1892477962 -11.00000000
-3.15123081 0.09627881 -0.49933881 3 6 27175 3.19200000 1892477966 1892477966 -9.00000000
-3.93852806 0.12170902 -0.48382130 7 8 27177 3.97000000 1892477971 1892477971 -7.00000000
-5.20161009 0.16164970 -0.45530161 9 10 27178 5.22400000 1892477975 1892477975 -5.00000000
-7.65171671 0.24046488 -0.40120745 12 12 27180 7.66600000 1892477980 1892477980 -3.00000000
-10.14482784 0.32235882 2.71967053 45 15 27182 10.50800000 1892477987 1892477987 15.00000000
-1.93658197 0.06424304 -0.51919103 4 0 27190 2.00600000 1892478008 1892478008 -15.00000000
-2.24563599 0.07528016 -0.51873714 4 2 27192 2.30600000 1892478012 1892478012 -13.00000000
-2.61553359 0.08813720 -0.50869679 3 4 27193 2.66600000 1892478017 1892478017 -11.00000000
-3.17456627 0.10808467 -0.50309324 3 6 27195 3.21600000 1892478021 1892478021 -9.00000000
-3.94998288 0.13586575 -0.48528373 7 8 27197 3.98200000 1892478026 1892478026 -7.00000000
-5.20499659 0.17994340 -0.45565021 9 10 27198 5.22800000 1892478031 1892478031 -5.00000000
-7.66480303 0.26766080 -0.40194014 16 12 27200 7.68000000 1892478035 1892478035 -3.00000000
-10.14171028 0.35770082 2.71915293 42 15 27202 10.50600000 1892478042 1892478042 15.00000000
-1.94214988 0.07087598 -0.52074391 4 0 27209 2.01200000 1892478063 1892478063 -15.00000000
-2.24342656 0.08265480 -0.51828724 4 2 27211 2.30400000 1892478068 1892478068 -13.00000000
-2.61718869 0.09688277 -0.50907838 3 4 27212 2.66800000 1892478072 1892478072 -11.00000000
-3.17419028 0.11861131 -0.50309324 3 6 27214 3.21600000 1892478077 1892478077 -9.00000000
-3.95149422 0.14903843 -0.48552746 7 8 27216 3.98400000 1892478081 1892478081 -7.00000000
-5.19242525 0.19675015 -0.45460436 6 10 27217 5.21600000 1892478086 1892478086 -5.00000000
-7.66786480 0.29322937 -0.40214950 16 12 27219 7.68400000 1892478091 1892478091 -3.00000000
-10.13467693 0.39110649 2.71759987 42 15 27221 10.50000000 1892478097 1892478097 15.00000000
-1.93996036 0.07757773 -0.52022630 4 0 27229 2.01000000 1892478118 1892478118 -15.00000000
-2.24312425 0.09048531 -0.51828724 4 2 27231 2.30400000 1892478123 1892478123 -13.00000000
-2.62468123 0.10633577 -0.51060486 3 4 27232 2.67600000 1892478127 1892478127 -11.00000000
-3.15401959 0.12888405 -0.49996457 3 6 27234 3.19600000 1892478132 1892478132 -9.00000000
-3.96086693 0.16323952 -0.48674616 7 8 27236 3.99400000 1892478137 1892478137 -7.00000000
-5.19568825 0.21503869 -0.45495299 9 10 27237 5.22000000 1892478141 1892478141 -5.00000000
-7.65881252 0.31966028 -0.40173081 16 12 27239 7.67600000 1892478146 1892478146 -3.00000000
-10.12931538 0.42808616 2.71656466 47 15 27242 10.49600000 1892478153 1892478153 15.00000000
-1.95320272 0.08459559 -0.52384973 4 0 27248 2.02400000 1892478174 1892478174 -15.00000000
-2.23502445 0.09758327 -0.51648760 4 2 27250 2.29600000 1892478178 1892478178 -13.00000000
-2.62823677 0.11521089 -0.51136810 3 4 27251 2.68000000 1892478183 1892478183 -11.00000000
-3.14962816 0.13916805 -0.49933881 3 6 27253 3.19200000 1892478187 1892478187 -9.00000000
-3.95633769 0.17619669 -0.48625869 7 8 27255 3.99000000 1892478192 1892478192 -7.00000000
-5.19494677 0.23226702 -0.45495299 6 10 27256 5.22000000 1892478197 1892478197 -5.00000000
-7.64174843 0.34433684 -0.40089342 28 12 27258 7.66000000 1892478201 1892478201 -3.00000000
-10.13564014 0.46025673 2.71863532 45 15 27260 10.50400000 1892478208 1892478208 15.00000000
-1.95675504 0.09159368 -0.52488500 4 0 27268 2.02800000 1892478229 1892478229 -15.00000000
-2.24245644 0.10575156 -0.51828724 4 2 27270 2.30400000 1892478233 1892478233 -13.00000000
-2.61997437 0.12401316 -0.50984162 3 4 27271 2.67200000 1892478238 1892478238 -11.00000000
-3.14912319 0.15016146 -0.49933881 3 6 27273 3.19200000 1892478243 1892478243 -9.00000000
-3.94776726 0.18962486 -0.48528373 5 8 27275 3.98200000 1892478247 1892478247 -7.00000000
-5.20604467 0.25097498 -0.45599884 6 10 27276 5.23200000 1892478252 1892478252 -5.00000000
-7.65246916 0.37159061 -0.40152144 28 12 27278 7.67200000 1892478256 1892478256 -3.00000000
-10.14169025 0.49601141 2.72070575 42 15 27280 10.51200000 1892478263 1892478263 15.00000000
-1.94482982 0.09818053 -0.52177918 4 0 27289 2.01600000 1892478284 1892478284 -15.00000000
-2.24205375 0.11396986 -0.51828724 4 2 27291 2.30400000 1892478289 1892478289 -13.00000000
-2.62734509 0.13401505 -0.51136810 3 4 27292 2.68000000 1892478293 1892478293 -11.00000000
-3.15644264 0.16210784 -0.50059026 3 6 27294 3.20000000 1892478298 1892478298 -9.00000000
-3.94902825 0.20419538 -0.48552746 5 8 27296 3.98400000 1892478302 1892478302 -7.00000000
-5.18917227 0.26922855 -0.45460436 6 10 27297 5.21600000 1892478307 1892478307 -5.00000000
-7.64108324 0.39911494 -0.40099809 24 12 27299 7.66200000 1892478312 1892478312 -3.00000000
-10.13208675 0.53277344 2.71863532 45 15 27301 10.50400000 1892478319 1892478319 15.00000000
-1.93483007 0.10444797 -0.51919103 4 0 27309 2.00600000 1892478339 1892478339 -15.00000000
-2.25331759 0.12242975 -0.52098662 4 2 27311 2.31600000 1892478344 1892478344 -13.00000000
-2.61509919 0.14254425 -0.50907838 3 4 27312 2.66800000 1892478349 1892478349 -11.00000000
-3.17163682 0.17399052 -0.50309324 3 6 27314 3.21600000 1892478353 1892478353 -9.00000000
-3.95820165 0.21852596 -0.48674616 5 8 27316 3.99400000 1892478358 1892478358 -7.00000000
-5.19217920 0.28756085 -0.45495299 6 10 27317 5.22000000 1892478362 1892478362 -5.00000000
-7.65759087 0.42678514 -0.40194014 32 12 27319 7.68000000 1892478367 1892478367 -3.00000000
-10.11270714 0.56892920 2.71397662 42 15 27322 10.48600000 1892478374 1892478374 15.00000000
-1.94797385 0.11163725 -0.52281445 4 0 27328 2.02000000 1892478395 1892478395 -15.00000000
-2.23733497 0.12900393 -0.51738745 4 2 27330 2.30000000 1892478399 1892478399 -13.00000000
-2.63421202 0.15234900 -0.51289457 3 4 27331 2.68800000 1892478404 1892478404 -11.00000000
-3.15526605 0.18358913 -0.50059026 3 6 27333 3.20000000 1892478408 1892478408 -9.00000000
-3.96538210 0.23211461 -0.48772112 6 8 27335 4.00200000 1892478413 1892478413 -7.00000000
-5.19517517 0.30501071 -0.45530161 6 10 27336 5.22400000 1892478418 1892478418 -5.00000000
-7.65214586 0.45194077 -0.40173081 36 12 27338 7.67600000 1892478422 1892478422 -3.00000000
-10.11858368 0.60115463 2.71604705 42 15 27340 10.49400000 1892478429 1892478429 15.00000000
-1.95142889 0.11867079 -0.52384973 4 0 27348 2.02400000 1892478450 1892478450 -15.00000000
-2.23103571 0.13645600 -0.51603770 4 2 27350 2.29400000 1892478454 1892478454 -13.00000000
-2.62582588 0.16106240 -0.51136810 3 4 27351 2.68000000 1892478459 1892478459 -11.00000000
-3.16249251 0.19508846 -0.50184178 3 6 27353 3.20800000 1892478464 1892478464 -9.00000000
-3.96851015 0.24620080 -0.48820859 6 8 27355 4.00600000 1892478468 1892478468 -7.00000000
-5.21396446 0.32438055 -0.45704472 6 10 27356 5.24400000 1892478473 1892478473 -5.00000000
-7.64653492 0.47839954 -0.40152144 32 12 27358 7.67200000 1892478478 1892478478 -3.00000000
-10.12220764 0.63683534 2.71759987 42 15 27360 10.50000000 1892478484 1892478484 15.00000000
-1.94521916 0.12510985 -0.52229685 4 0 27368 2.01800000 1892478505 1892478505 -15.00000000
-2.23443532 0.14449444 -0.51693749 4 2 27370 2.29800000 1892478510 1892478510 -13.00000000
-2.62132931 0.16997319 -0.51060486 3 4 27371 2.67600000 1892478514 1892478514 -11.00000000
-3.16179228 0.20612642 -0.50184178 3 6 27373 3.20800000 1892478519 1892478519 -9.00000000
-3.96366501 0.25979233 -0.48772112 6 8 27375 4.00200000 1892478524 1892478524 -7.00000000
-5.21478844 0.34270936 -0.45721903 9 10 27376 5.24600000 1892478528 1892478528 -5.00000000
-7.65279007 0.50561470 -0.40194014 28 12 27378 7.68000000 1892478533 1892478533 -3.00000000
-10.11980534 0.67393082 2.71759987 42 15 27381 10.50000000 1892478540 1892478540 15.00000000
-1.93898833 0.13150699 -0.52074391 4 0 27388 2.01200000 1892478560 1892478560 -15.00000000
-2.23391724 0.15229321 -0.51693749 4 2 27390 2.29800000 1892478565 1892478565 -13.00000000
-2.61680269 0.17885455 -0.50984162 3 4 27391 2.67200000 1892478570 1892478570 -11.00000000
-3.16893649 0.21770343 -0.50309324 3 6 27393 3.21600000 1892478574 1892478574 -9.00000000
-3.96867514 0.27403677 -0.48845232 4 8 27395 4.00800000 1892478579 1892478579 -7.00000000
-5.20362186 0.36022231 -0.45634747 6 10 27396 5.23600000 1892478584 1892478584 -5.00000000
-7.65496349 0.53260213 -0.40214950 32 12 27398 7.68400000 1892478588 1892478588 -3.00000000
-10.12510014 0.70979178 2.71967053 42 15 27401 10.50800000 1892478595 1892478595 15.00000000
-1.94427407 0.13902622 -0.52229685 4 0 27409 2.01800000 1892478616 1892478616 -15.00000000
-2.24500656 0.16131791 -0.51963693 4 2 27411 2.31000000 1892478620 1892478620 -13.00000000
-2.62004590 0.18872653 -0.51060486 3 4 27412 2.67600000 1892478625 1892478625 -11.00000000
-3.16417694 0.22903149 -0.50246751 4 6 27414 3.21200000 1892478630 1892478630 -9.00000000
-3.96764398 0.28858083 -0.48845232 6 8 27416 4.00800000 1892478634 1892478634 -7.00000000
-5.19630575 0.37885746 -0.45582452 3 10 27417 5.23000000 1892478639 1892478639 -5.00000000
-7.66491175 0.56153095 -0.40277752 36 12 27419 7.69600000 1892478643 1892478643 -3.00000000
-10.10123825 0.74533361 2.71397662 42 15 27422 10.48600000 1892478650 1892478650 15.00000000
-1.94185054 0.14566764 -0.52177918 4 0 27429 2.01600000 1892478671 1892478671 -15.00000000
-2.24442959 0.16915347 -0.51963693 4 2 27431 2.31000000 1892478676 1892478676 -13.00000000
-2.62132883 0.19801892 -0.51098651 3 4 27432 2.67800000 1892478680 1892478680 -11.00000000
-3.14760041 0.23887923 -0.49996457 3 6 27434 3.19600000 1892478685 1892478685 -9.00000000
-3.97255063 0.30288148 -0.48918355 6 8 27436 4.01400000 1892478690 1892478690 -7.00000000
-5.19495153 0.39699367 -0.45582452 3 10 27437 5.23000000 1892478694 1892478694 -5.00000000
-7.64099932 0.58660138 -0.40162614 48 12 27439 7.67400000 1892478699 1892478699 -3.00000000
-10.11205769 0.78163117 2.71759987 45 15 27442 10.50000000 1892478706 1892478706 15.00000000
-1.94328272 0.15225714 -0.52229685 4 0 27448 2.01800000 1892478726 1892478726 -15.00000000
-2.22442913 0.17506637 -0.51513791 4 2 27450 2.29000000 1892478731 1892478731 -13.00000000
-2.62261510 0.20686485 -0.51136810 3 4 27451 2.68000000 1892478736 1892478736 -11.00000000
-3.15466785 0.24993981 -0.50121605 3 6 27453 3.20400000 1892478740 1892478740 -9.00000000
-3.95767260 0.31495094 -0.48747736 6 8 27455 4.00000000 1892478745 1892478745 -7.00000000
-5.20353699 0.41501057 -0.45669609 6 10 27456 5.24000000 1892478749 1892478749 -5.00000000
-7.63901234 0.61193663 -0.40162614 20 12 27458 7.67400000 1892478754 1892478754 -3.00000000
-10.11725426 0.81401497 2.71967053 45 15 27460 10.50800000 1892478761 1892478761 15.00000000
-1.95429194 0.15998527 -0.52540267 4 0 27468 2.03000000 1892478782 1892478782 -15.00000000
-2.22380447 0.18283001 -0.51513791 4 2 27470 2.29000000 1892478786 1892478786 -13.00000000
-2.62970352 0.21666306 -0.51289457 3 4 27471 2.68800000 1892478791 1892478791 -11.00000000
-3.16952538 0.26225325 -0.50371897 3 6 27473 3.22000000 1892478795 1892478795 -9.00000000
-3.96050549 0.32909262 -0.48796484 4 8 27475 4.00400000 1892478800 1892478800 -7.00000000
-5.21595526 0.43432909 -0.45791626 3 10 27476 5.25400000 1892478805 1892478805 -5.00000000
-7.64479065 0.63926375 -0.40204480 28 12 27478 7.68200000 1892478809 1892478809 -3.00000000
-10.11420250 0.85109109 2.71967053 45 15 27481 10.50800000 1892478816 1892478816 15.00000000
-1.94024754 0.16565566 -0.52177918 4 0 27488 2.01600000 1892478837 1892478837 -15.00000000
-2.23868561 0.19192307 -0.51873714 4 2 27490 2.30600000 1892478842 1892478842 -13.00000000
-2.62110686 0.22516897 -0.51136810 3 4 27491 2.68000000 1892478846 1892478846 -11.00000000
-3.15678215 0.27229682 -0.50184178 3 6 27493 3.20800000 1892478851 1892478851 -9.00000000
-3.97713184 0.34445694 -0.49015850 6 8 27495 4.02200000 1892478855 1892478855 -7.00000000
-5.20051289 0.45132768 -0.45669609 6 10 27496 5.24000000 1892478860 1892478860 -5.00000000
-7.65445089 0.66698539 -0.40267286 36 12 27498 7.69400000 1892478865 1892478865 -3.00000000
-10.11132526 0.88462633 2.71967053 45 15 27500 10.50800000 1892478872 1892478872 15.00000000
-1.94158173 0.17259844 -0.52229685 4 0 27508 2.01800000 1892478892 1892478892 -15.00000000
-2.24382520 0.20025606 -0.52008682 4 2 27510 2.31200000 1892478897 1892478897 -13.00000000
-2.61639404 0.23396724 -0.51060486 3 4 27511 2.67600000 1892478901 1892478901 -11.00000000
-5.57627583 0.49963140 0.48981526 5 5 27512 5.62000000 1892478904 1892478904 5.00000000
-3.15974736 0.28366762 -0.50246751 3 6 27513 3.21200000 1892478906 1892478906 -9.00000000
-3.97985935 0.35869402 -0.49064597 6 8 27515 4.02600000 1892478911 1892478911 -7.00000000
-5.19493675 0.46911973 -0.45634747 6 10 27516 5.23600000 1892478915 1892478915 -5.00000000
-7.65804338 0.69424134 -0.40298685 36 12 27518 7.70000000 1892478920 1892478920 -3.00000000
-7.65121031 0.69631469 -0.13410430 2 14 27520 7.68400000 1892478925 1892478925 -1.00000000
-10.10416698 0.92132938 2.71863532 42 15 27521 10.50400000 1892478927 1892478927 15.00000000
-1.93712020 0.17901923 -0.52126157 4 0 27528 2.01400000 1892478948 1892478948 -15.00000000
-2.23535085 0.20736723 -0.51828724 4 2 27530 2.30400000 1892478952 1892478952 -13.00000000
-2.61751628 0.24328043 -0.51098651 3 4 27531 2.67800000 1892478957 1892478957 -11.00000000
-5.55267572 0.51706111 0.48789784 8 5 27532 5.59800000 1892478959 1892478959 5.00000000
-3.15873790 0.29469547 -0.50246751 3 6 27533 3.21200000 1892478961 1892478961 -9.00000000
-3.96672440 0.37147358 -0.48918355 6 8 27535 4.01400000 1892478966 1892478966 -7.00000000
-5.20318604 0.48818117 -0.45721903 6 10 27536 5.24600000 1892478971 1892478971 -5.00000000
-7.12912893 0.67390108 -0.12499414 2 14 27540 7.16200000 1892478980 1892478980 -1.00000000
-10.09720993 0.95446736 2.71759987 45 15 27540 10.50000000 1892478982 1892478982 15.00000000
-1.94802165 0.18688688 -0.52436739 4 0 27548 2.02600000 1892479003 1892479003 -15.00000000
-7.07232666 0.67974186 0.12401680 3 1 27549 7.10600000 1892479005 1892479005 1.00000000
-2.23073387 0.21479523 -0.51738745 4 2 27550 2.30000000 1892479007 1892479007 -13.00000000
-2.62837625 0.25354683 -0.51327622 3 4 27551 2.69000000 1892479012 1892479012 -11.00000000
-5.55282021 0.53663212 0.48807216 11 5 27552 5.60000000 1892479014 1892479014 5.00000000
-3.15375757 0.30533901 -0.50184178 3 6 27553 3.20800000 1892479017 1892479017 -9.00000000
-3.95750046 0.38454983 -0.48820859 6 8 27555 4.00600000 1892479021 1892479021 -7.00000000
-5.21334839 0.50749892 -0.45826489 6 10 27556 5.25800000 1892479026 1892479026 -5.00000000
-7.27930498 0.71117675 -0.38330853 3 12 27558 7.32400000 1892479030 1892479030 -3.00000000
-6.60730362 0.64785177 -0.11588398 2 14 27560 6.64000000 1892479035 1892479035 -1.00000000
-10.10902405 0.99297982 2.72174096 45 15 27561 10.51600000 1892479037 1892479037 15.00000000
-1.94543505 0.19349439 -0.52384973 4 0 27568 2.02400000 1892479058 1892479058 -15.00000000
-5.88197470 0.58606231 0.10317863 2 1 27569 5.91200000 1892479060 1892479060 1.00000000
-2.23384857 0.22296773 -0.51828724 4 2 27570 2.30400000 1892479063 1892479063 -13.00000000
-6.30387115 0.63032120 0.33201930 2 3 27571 6.34400000 1892479065 1892479065 3.00000000
-2.62161469 0.26213405 -0.51213133 3 4 27571 2.68400000 1892479067 1892479067 -11.00000000
-5.54694796 0.55561465 0.48772353 11 5 27572 5.59600000 1892479070 1892479070 5.00000000
-3.16446567 0.31752917 -0.50371897 3 6 27573 3.22000000 1892479072 1892479072 -9.00000000
-3.94823360 0.39756623 -0.48723364 5 8 27575 3.99800000 1892479077 1892479077 -7.00000000
-5.22740364 0.52729350 -0.45965940 6 10 27576 5.27400000 1892479081 1892479081 -5.00000000
-7.28075218 0.73698425 -0.38351789 3 12 27578 7.32800000 1892479086 1892479086 -3.00000000
-6.29663563 0.63958895 -0.11047373 6 14 27580 6.33000000 1892479090 1892479090 -1.00000000
-10.10567570 1.02649713 2.72174096 45 15 27580 10.51600000 1892479093 1892479093 15.00000000
-1.93898273 0.19969033 -0.52229685 4 0 27588 2.01800000 1892479113 1892479113 -15.00000000
-5.60937071 0.57868260 0.09843157 2 1 27589 5.64000000 1892479116 1892479116 1.00000000
-2.24468732 0.23196585 -0.52098662 4 2 27590 2.31600000 1892479118 1892479118 -13.00000000
-5.85662460 0.60625637 0.30857280 4 3 27591 5.89600000 1892479120 1892479120 3.00000000
-2.61091948 0.27027285 -0.51022327 3 4 27591 2.67400000 1892479123 1892479123 -11.00000000
-5.53308439 0.57374078 0.48667768 14 5 27592 5.58400000 1892479125 1892479125 5.00000000
-3.15940833 0.32816511 -0.50309324 3 6 27593 3.21600000 1892479127 1892479127 -9.00000000
-3.96064258 0.41278613 -0.48893979 6 8 27595 4.01200000 1892479132 1892479132 -7.00000000
-5.03925896 0.52609080 -0.44327411 3 10 27596 5.08600000 1892479136 1892479136 -5.00000000
-5.14077902 0.53850341 -0.27089092 2 12 27598 5.17600000 1892479141 1892479141 -3.00000000
-5.12299633 0.53844863 -0.08991480 2 14 27600 5.15200000 1892479146 1892479146 -1.00000000
-10.04613018 1.05766356 2.70672965 42 15 27601 10.45800000 1892479148 1892479148 15.00000000
-1.93450367 0.20537294 -0.52126157 4 0 27606 2.01400000 1892479169 1892479169 -15.00000000
-5.15216208 0.54787898 0.09043837 9 1 27607 5.18200000 1892479171 1892479171 1.00000000
-2.22844529 0.23736537 -0.51738745 4 2 27608 2.30000000 1892479173 1892479173 -13.00000000
-5.49721336 0.58651227 0.28973186 4 3 27609 5.53600000 1892479176 1892479176 3.00000000
-2.61200976 0.27868223 -0.51060486 3 4 27609 2.67600000 1892479178 1892479178 -11.00000000
-5.51936817 0.58985025 0.48563179 17 5 27610 5.57200000 1892479180 1892479180 5.00000000
-3.15836167 0.33808905 -0.50309324 3 6 27611 3.21600000 1892479183 1892479183 -9.00000000
-3.97511625 0.42692262 -0.49088973 4 8 27613 4.02800000 1892479187 1892479187 -7.00000000
-4.77411366 0.51357687 -0.42009068 5 10 27614 4.82000000 1892479192 1892479192 -5.00000000
-4.90474606 0.52936161 -0.25853962 2 12 27616 4.94000000 1892479196 1892479196 -3.00000000
-4.94632912 0.53559637 -0.08684318 2 14 27618 4.97600000 1892479201 1892479201 -1.00000000
-10.08135986 1.09162569 2.71708226 42 15 27618 10.49800000 1892479203 1892479203 15.00000000
-1.93953598 0.21275632 -0.52281445 4 0 27626 2.02000000 1892479224 1892479224 -15.00000000
-4.82621765 0.53026175 0.08474889 2 1 27627 4.85600000 1892479226 1892479226 1.00000000
-2.22760296 0.24514264 -0.51738745 4 2 27628 2.30000000 1892479229 1892479229 -13.00000000
-4.95911884 0.54661578 0.26147044 4 3 27629 4.99600000 1892479231 1892479231 3.00000000
-2.62663245 0.28951892 -0.51365781 3 4 27629 2.69200000 1892479233 1892479233 -11.00000000
-5.50935411 0.60823834 0.48493454 25 5 27630 5.56400000 1892479236 1892479236 5.00000000
-3.13360143 0.34650642 -0.49933881 3 6 27631 3.19200000 1892479238 1892479238 -9.00000000
-3.97360158 0.44079575 -0.49088973 4 8 27633 4.02800000 1892479242 1892479242 -7.00000000
-4.75843048 0.52869838 -0.41887051 5 10 27634 4.80600000 1892479247 1892479247 -5.00000000
-4.62100315 0.51506215 -0.24367622 2 12 27636 4.65600000 1892479252 1892479252 -3.00000000
-4.64633274 0.51952749 -0.08160745 1 14 27638 4.67600000 1892479256 1892479256 -1.00000000
-10.07921124 1.12878346 2.71759987 47 15 27639 10.50000000 1892479259 1892479259 15.00000000
-1.94446325 0.22085607 -0.52436739 4 0 27648 2.02600000 1892479279 1892479279 -15.00000000
-4.57578611 0.52053595 0.08038578 6 1 27649 4.60600000 1892479282 1892479282 1.00000000
-2.23051786 0.25413540 -0.51828724 4 2 27650 2.30400000 1892479284 1892479284 -13.00000000
-4.81013918 0.54889661 0.25372472 6 3 27651 4.84800000 1892479286 1892479286 3.00000000
-2.63330388 0.30049264 -0.51518428 3 4 27651 2.70000000 1892479289 1892479289 -11.00000000
-3.16364884 0.36213034 -0.50434470 3 6 27653 3.22400000 1892479293 1892479293 -9.00000000
-3.96004701 0.45469138 -0.48942727 4 8 27655 4.01600000 1892479298 1892479298 -7.00000000
-4.73261309 0.54423410 -0.41677877 5 10 27656 4.78200000 1892479302 1892479302 -5.00000000
-4.61502314 0.53234392 -0.24346687 4 12 27658 4.65200000 1892479307 1892479307 -3.00000000
-4.61252069 0.53368682 -0.08104897 1 14 27660 4.64400000 1892479312 1892479312 -1.00000000
-10.08652020 1.16705024 2.72070575 45 15 27660 10.51200000 1892479314 1892479314 15.00000000
-1.93984306 0.22719273 -0.52333212 4 0 27668 2.02200000 1892479335 1892479335 -15.00000000
-4.56202459 0.53510749 0.08017635 8 1 27669 4.59400000 1892479337 1892479337 1.00000000
-2.22961712 0.26191980 -0.51828724 4 2 27670 2.30400000 1892479339 1892479339 -13.00000000
-4.74471951 0.55821598 0.25037521 4 3 27671 4.78400000 1892479342 1892479342 3.00000000
-2.61274076 0.30738881 -0.51136810 3 4 27671 2.68000000 1892479344 1892479344 -11.00000000
-3.16628909 0.37363431 -0.50497043 3 6 27673 3.22800000 1892479348 1892479348 -9.00000000
-3.95843577 0.46851176 -0.48942727 4 8 27675 4.01600000 1892479353 1892479353 -7.00000000
-4.72870636 0.56051618 -0.41660446 8 10 27676 4.78000000 1892479358 1892479358 -5.00000000
-4.60322046 0.54727119 -0.24294351 4 12 27678 4.64200000 1892479362 1892479362 -3.00000000
-4.50737667 0.53747213 -0.07923392 5 14 27680 4.54000000 1892479367 1892479367 -1.00000000
-10.07854843 1.20179415 2.71967053 47 15 27680 10.50800000 1892479369 1892479369 15.00000000
-1.93911970 0.23328580 -0.52333212 4 0 27686 2.02200000 1892479390 1892479390 -15.00000000
-4.55237961 0.54848009 0.08003674 6 1 27687 4.58600000 1892479392 1892479392 1.00000000
-2.24426079 0.27079058 -0.52188647 4 2 27688 2.32000000 1892479395 1892479395 -13.00000000
-4.71320009 0.56952524 0.24880514 4 3 27689 4.75400000 1892479397 1892479397 3.00000000
-2.61371136 0.31583098 -0.51174974 3 4 27689 2.68200000 1892479399 1892479399 -11.00000000
-5.36422539 0.64914262 0.47273275 2 5 27690 5.42400000 1892479401 1892479401 5.00000000
-3.15725541 0.38262901 -0.50371897 3 6 27691 3.22000000 1892479404 1892479404 -9.00000000
-3.97073841 0.48262182 -0.49113345 4 8 27693 4.03000000 1892479408 1892479408 -7.00000000
-4.71901083 0.57440609 -0.41590720 5 10 27694 4.77200000 1892479413 1892479413 -5.00000000
-4.60147810 0.56172991 -0.24294351 4 12 27696 4.64200000 1892479418 1892479418 -3.00000000
-4.46993828 0.54725564 -0.07860564 5 14 27698 4.50400000 1892479422 1892479422 -1.00000000
-10.06705379 1.23251188 2.71759987 45 15 27698 10.50000000 1892479424 1892479424 15.00000000
-1.93829358 0.24005316 -0.52333212 4 0 27706 2.02200000 1892479445 1892479445 -15.00000000
-4.51868534 0.56042951 0.07947826 4 1 27707 4.55400000 1892479448 1892479448 1.00000000
-2.24330211 0.27862287 -0.52188647 4 2 27708 2.32000000 1892479450 1892479450 -13.00000000
-4.63388586 0.57635969 0.24472293 4 3 27709 4.67600000 1892479452 1892479452 3.00000000
-2.61259294 0.32495260 -0.51174974 3 4 27709 2.68200000 1892479454 1892479454 -11.00000000
-5.25713968 0.65481138 0.46349424 2 5 27710 5.31800000 1892479457 1892479457 5.00000000
-3.17158222 0.39560357 -0.50622195 3 6 27711 3.23600000 1892479459 1892479459 -9.00000000
-3.97493887 0.49721852 -0.49186468 4 8 27713 4.03600000 1892479464 1892479464 -7.00000000
-4.71302319 0.59037971 -0.41555858 8 10 27714 4.76800000 1892479468 1892479468 -5.00000000
-4.69659185 0.58998668 -0.24807243 2 12 27716 4.74000000 1892479473 1892479473 -3.00000000
-4.42435265 0.55735672 -0.07783774 1 14 27718 4.46000000 1892479477 1892479477 -1.00000000
-10.05480194 1.26843405 2.71552944 45 15 27719 10.49200000 1892479480 1892479480 15.00000000
-1.93936014 0.24706174 -0.52384973 5 0 27726 2.02400000 1892479501 1892479501 -15.00000000
-4.45719290 0.56860769 0.07843111 4 1 27727 4.49400000 1892479503 1892479503 1.00000000
-2.23071766 0.28497010 -0.51918703 4 2 27728 2.30800000 1892479505 1892479505 -13.00000000
-4.56448746 0.58391464 0.24116409 1 3 27729 4.60800000 1892479507 1892479507 3.00000000
-2.61533761 0.33456853 -0.51251298 3 4 27729 2.68600000 1892479510 1892479510 -11.00000000
-5.21332121 0.66784185 0.45983371 7 5 27730 5.27600000 1892479512 1892479512 5.00000000
-3.16234469 0.40566668 -0.50497043 3 6 27731 3.22800000 1892479514 1892479514 -9.00000000
-3.96136570 0.50957102 -0.49040225 4 8 27733 4.02400000 1892479519 1892479519 -7.00000000
-4.70302916 0.60580945 -0.41486132 5 10 27734 4.76000000 1892479524 1892479524 -5.00000000
-4.37875128 0.56714630 -0.07706983 1 14 27738 4.41600000 1892479533 1892479533 -1.00000000
-10.04670811 1.30127370 2.71449423 42 15 27738 10.48800000 1892479535 1892479535 15.00000000
-1.94997895 0.25533479 -0.52695560 4 0 27746 2.03600000 1892479556 1892479556 -15.00000000
-4.40164757 0.57714343 0.07748868 3 1 27747 4.44000000 1892479558 1892479558 1.00000000
-2.21811628 0.29123291 -0.51648760 4 2 27748 2.29600000 1892479560 1892479560 -13.00000000
-4.52083683 0.59437680 0.23896597 1 3 27749 4.56600000 1892479563 1892479563 3.00000000
-2.62388635 0.34497529 -0.51442105 3 4 27749 2.69600000 1892479565 1892479565 -11.00000000
-5.15762377 0.67901403 0.45512730 7 5 27750 5.22200000 1892479567 1892479567 5.00000000
-3.15699244 0.41618651 -0.50434470 3 6 27751 3.22400000 1892479570 1892479570 -9.00000000
-5.63640642 0.74404866 0.69806761 2 7 27752 5.72800000 1892479572 1892479572 7.00000000
-3.95169115 0.52235508 -0.48942727 4 8 27753 4.01600000 1892479574 1892479574 -7.00000000
-4.71273708 0.62379104 -0.41590720 8 10 27754 4.77200000 1892479579 1892479579 -5.00000000
-4.33908272 0.57741570 -0.07640664 1 14 27758 4.37800000 1892479588 1892479588 -1.00000000
-10.05742455 1.33837390 2.71863532 45 15 27758 10.50400000 1892479590 1892479590 15.00000000
-1.94716120 0.26188242 -0.52643794 4 0 27766 2.03400000 1892479611 1892479611 -15.00000000
-4.35997009 0.58716661 0.07679059 3 1 27767 4.40000000 1892479613 1892479613 1.00000000
-2.22094870 0.29949465 -0.51738745 4 2 27768 2.30000000 1892479616 1892479616 -13.00000000
-4.46144009 0.60162467 0.23593049 3 3 27768 4.50800000 1892479618 1892479618 3.00000000
-2.61682940 0.35334414 -0.51327622 3 4 27769 2.69000000 1892479620 1892479620 -11.00000000
-5.12363148 0.69274217 0.45233831 10 5 27770 5.19000000 1892479623 1892479623 5.00000000
-3.16335058 0.42826399 -0.50559622 3 6 27771 3.23200000 1892479625 1892479625 -9.00000000
-5.58459759 0.75705230 0.69197410 2 7 27772 5.67800000 1892479627 1892479627 7.00000000
-3.95574474 0.53694689 -0.49015850 6 8 27773 4.02200000 1892479629 1892479629 -7.00000000
-4.70658255 0.63970113 -0.41555858 8 10 27774 4.76800000 1892479634 1892479634 -5.00000000
-4.28156424 0.58497888 -0.07542930 3 14 27778 4.32200000 1892479643 1892479643 -1.00000000
-10.05651951 1.37399578 2.71967053 45 15 27778 10.50800000 1892479646 1892479646 15.00000000
-1.94814885 0.26894188 -0.52695560 5 0 27786 2.03600000 1892479666 1892479666 -15.00000000
-4.32223845 0.59745359 0.07616230 3 1 27787 4.36400000 1892479669 1892479669 1.00000000
-2.22761106 0.30831406 -0.51918703 4 2 27788 2.30800000 1892479671 1892479671 -13.00000000
-4.41172457 0.61139262 0.23341836 3 3 27789 4.46000000 1892479673 1892479673 3.00000000
-2.61363530 0.36220694 -0.51289457 3 4 27789 2.68800000 1892479676 1892479676 -11.00000000
-5.08368587 0.70541972 0.44902638 10 5 27790 5.15200000 1892479678 1892479678 5.00000000
-3.15792322 0.43875983 -0.50497043 3 6 27791 3.22800000 1892479680 1892479680 -9.00000000
-5.59961605 0.77900332 0.69416779 2 7 27792 5.69600000 1892479682 1892479682 7.00000000
-3.94598198 0.54965627 -0.48918355 6 8 27793 4.01400000 1892479685 1892479685 -7.00000000
-4.70432091 0.65612626 -0.41555858 5 10 27794 4.76800000 1892479689 1892479689 -5.00000000
-4.23394871 0.59353566 -0.07462649 5 14 27798 4.27600000 1892479699 1892479699 -1.00000000
-10.03611183 1.40869737 2.71552944 45 15 27799 10.49200000 1892479701 1892479701 15.00000000
-1.93376100 0.27418199 -0.52333212 4 0 27807 2.02200000 1892479722 1892479722 -15.00000000
-4.27052355 0.60626465 0.07528968 5 1 27808 4.31400000 1892479724 1892479724 1.00000000
-2.23804212 0.31812206 -0.52188647 4 2 27809 2.32000000 1892479726 1892479726 -13.00000000
-4.36803865 0.62088615 0.23122026 5 3 27809 4.41800000 1892479729 1892479729 3.00000000
-2.61812115 0.37261382 -0.51403946 3 4 27810 2.69400000 1892479731 1892479731 -11.00000000
-5.04161692 0.71842611 0.44554016 10 5 27811 5.11200000 1892479733 1892479733 5.00000000
-3.14847159 0.44921520 -0.50371897 3 6 27812 3.22000000 1892479735 1892479735 -9.00000000
-5.62423515 0.80345196 0.69758010 2 7 27813 5.72400000 1892479738 1892479738 7.00000000
-3.95966148 0.56636393 -0.49113345 6 8 27814 4.03000000 1892479740 1892479740 -7.00000000
-4.69793987 0.67279911 -0.41520995 8 10 27815 4.76400000 1892479745 1892479745 -5.00000000
-4.32762766 0.62130785 -0.22912681 2 12 27817 4.37800000 1892479749 1892479749 -3.00000000
-4.21393108 0.60648602 -0.07431234 5 14 27819 4.25800000 1892479754 1892479754 -1.00000000
-10.02730846 1.44317091 2.71449423 45 15 27819 10.48800000 1892479756 1892479756 15.00000000
-1.94426274 0.28259766 -0.52643794 5 0 27827 2.03400000 1892479777 1892479777 -15.00000000
-4.23078299 0.61569631 0.07462649 5 1 27828 4.27600000 1892479779 1892479779 1.00000000
-2.22920465 0.32480845 -0.52008682 4 2 27829 2.31200000 1892479781 1892479781 -13.00000000
-4.33422232 0.63152212 0.22954550 5 3 27829 4.38600000 1892479784 1892479784 3.00000000
-2.60903382 0.38061687 -0.51251298 3 4 27830 2.68600000 1892479786 1892479786 -11.00000000
-5.02724981 0.73429251 0.44449428 10 5 27831 5.10000000 1892479788 1892479788 5.00000000
-3.13124752 0.45791596 -0.50121605 3 6 27832 3.20400000 1892479791 1892479791 -9.00000000
-5.57818508 0.81675231 0.69221789 2 7 27833 5.68000000 1892479793 1892479793 7.00000000
-3.96158862 0.58075815 -0.49162093 6 8 27834 4.03400000 1892479795 1892479795 -7.00000000
-4.71527529 0.69208723 -0.41695309 5 10 27835 4.78400000 1892479800 1892479800 -5.00000000
-4.29184103 0.63146788 -0.22734739 4 12 27837 4.34400000 1892479805 1892479805 -3.00000000
-4.20387554 0.62002462 -0.07417273 5 14 27839 4.25000000 1892479809 1892479809 -1.00000000
-10.02029896 1.47788203 2.71397662 42 15 27839 10.48600000 1892479811 1892479811 15.00000000
-1.94140410 0.28875929 -0.52592027 5 0 27846 2.03200000 1892479832 1892479832 -15.00000000
-4.20498323 0.62618828 0.07420763 7 1 27847 4.25200000 1892479834 1892479834 1.00000000
-2.22426033 0.33162424 -0.51918703 4 2 27848 2.30800000 1892479837 1892479837 -13.00000000
-4.31421328 0.64399374 0.22860345 5 3 27849 4.36800000 1892479839 1892479839 3.00000000
-2.61552429 0.39042604 -0.51403946 3 4 27849 2.69400000 1892479841 1892479841 -11.00000000
-4.99325895 0.74624753 0.44170532 9 5 27850 5.06800000 1892479844 1892479844 5.00000000
-3.14924812 0.47122023 -0.50434470 3 6 27851 3.22400000 1892479846 1892479846 -9.00000000
-5.58722496 0.83701038 0.69368029 2 7 27852 5.69200000 1892479848 1892479848 7.00000000
-3.95375156 0.59300870 -0.49088973 4 8 27853 4.02800000 1892479851 1892479851 -7.00000000
-4.74644947 0.71274966 -0.41991636 5 10 27854 4.81800000 1892479855 1892479855 -5.00000000
-4.26009798 0.64123744 -0.22577731 4 12 27856 4.31400000 1892479860 1892479860 -3.00000000
-4.19586420 0.63306677 -0.07406801 7 14 27858 4.24400000 1892479864 1892479864 -1.00000000
-10.02653980 1.51458168 2.71708226 42 15 27859 10.49800000 1892479867 1892479867 15.00000000
-1.94420397 0.29611608 -0.52695560 4 0 27866 2.03600000 1892479887 1892479887 -15.00000000
