# .PCD v0.7 - Point Cloud Data file format
VERSION 0.7
FIELDS x y z intensity laser_id azimuth distance_m adjustedtime timestamp vertical_angle
SIZE 4 4 4 1 1 2 8 8 4 8
TYPE F F F U U U F U U F
COUNT 1 1 1 1 1 1 1 1 1 1
WIDTH 537
HEIGHT 1
VIEWPOINT 0 0 0 1 0 0 0
POINTS 537
DATA ascii
4.57401562 7.01920366 -0.73297977 4 10 3309 8.41000000 1891611652 1891611652 -5.00000000
5.53366470 8.48215103 2.33814120 56 13 3312 10.39400000 1891611659 1891611659 13.00000000
4.80721760 7.36582375 2.35680628 40 15 3313 9.10600000 1891611663 1891611663 15.00000000
1.24994099 1.90865564 -0.61133057 4 0 3322 2.36200000 1891611684 1891611684 -15.00000000
1.47731590 2.25413895 -0.62221462 3 2 3324 2.76600000 1891611689 1891611689 -13.00000000
1.79980612 2.74516058 -0.63806528 2 4 3325 3.34400000 1891611693 1891611693 -11.00000000
2.26160312 3.44689345 -0.65295744 4 6 3327 4.17400000 1891611698 1891611698 -9.00000000
3.05733728 4.65612173 -0.68393075 9 8 3329 5.61200000 1891611702 1891611702 -7.00000000
4.60627508 7.01238346 -0.73402566 4 10 3330 8.42200000 1891611707 1891611707 -5.00000000
5.56043339 8.45529938 2.33634162 55 13 3333 10.38600000 1891611714 1891611714 13.00000000
4.83312082 7.34654093 2.35628867 40 15 3334 9.10400000 1891611719 1891611719 15.00000000
1.26510799 1.91718030 -0.61547166 4 0 3342 2.37800000 1891611739 1891611739 -15.00000000
1.49591410 2.26522994 -0.62671363 3 2 3344 2.78600000 1891611744 1891611744 -13.00000000
1.80072021 2.72575665 -0.63501233 2 4 3345 3.32800000 1891611749 1891611749 -11.00000000
2.28778362 3.46039939 -0.65702474 2 6 3347 4.20000000 1891611753 1891611753 -9.00000000
3.07685757 4.65038824 -0.68466198 6 8 3349 5.61800000 1891611758 1891611758 -7.00000000
4.63842249 7.00789165 -0.73524582 4 10 3350 8.43600000 1891611762 1891611762 -5.00000000
5.59206676 8.43908691 2.33724141 56 13 3353 10.39000000 1891611769 1891611769 13.00000000
4.86108255 7.33038759 2.35680628 40 15 3355 9.10600000 1891611774 1891611774 15.00000000
1.26257217 1.90032375 -0.61133057 4 0 3360 2.36200000 1891611795 1891611795 -15.00000000
1.50302315 2.26051927 -0.62671363 3 2 3362 2.78600000 1891611799 1891611799 -13.00000000
1.80492532 2.71354747 -0.63348585 2 4 3363 3.32000000 1891611804 1891611804 -11.00000000
2.29645443 3.44990635 -0.65639901 2 6 3365 4.19600000 1891611808 1891611808 -9.00000000
3.08264756 4.62748241 -0.68271208 6 8 3367 5.60200000 1891611813 1891611813 -7.00000000
4.63389826 6.95349407 -0.73106235 4 10 3368 8.38800000 1891611818 1891611818 -5.00000000
5.61422491 8.41499329 2.33544183 55 13 3371 10.38200000 1891611825 1891611825 13.00000000
4.87959337 7.31111145 2.35525322 42 15 3372 9.10000000 1891611829 1891611829 15.00000000
1.26919782 1.89590502 -0.61133057 4 0 3380 2.36200000 1891611850 1891611850 -15.00000000
1.51741242 2.26497293 -0.62941307 3 2 3382 2.79800000 1891611854 1891611854 -13.00000000
1.82531643 2.72353911 -0.63730204 2 4 3383 3.34000000 1891611859 1891611859 -11.00000000
2.30848289 3.44186926 -0.65639901 2 6 3385 4.19600000 1891611864 1891611864 -9.00000000
3.10099435 4.61998987 -0.68319952 6 8 3387 5.60600000 1891611868 1891611868 -7.00000000
4.66036320 6.94058466 -0.73141098 4 10 3388 8.39200000 1891611873 1891611873 -5.00000000
5.64791346 8.40181351 2.33724141 59 13 3391 10.39000000 1891611880 1891611880 13.00000000
4.90616226 7.29563713 2.35577106 38 15 3392 9.10200000 1891611884 1891611884 15.00000000
1.27364743 1.88826001 -0.61029530 4 0 3400 2.35800000 1891611905 1891611905 -15.00000000
1.52312887 2.25643206 -0.62851322 3 2 3402 2.79400000 1891611910 1891611910 -13.00000000
1.82822013 2.70738888 -0.63501233 2 4 3403 3.32800000 1891611914 1891611914 -11.00000000
2.31163478 3.42069650 -0.65389609 2 6 3405 4.18000000 1891611919 1891611919 -9.00000000
3.12599874 4.62229252 -0.68514943 6 8 3407 5.62200000 1891611924 1891611924 -7.00000000
4.69572639 6.94077682 -0.73315412 4 10 3408 8.41200000 1891611928 1891611928 -5.00000000
5.68157816 8.38850212 2.33904099 57 13 3411 10.39800000 1891611935 1891611935 13.00000000
4.93070126 7.27440786 2.35473561 40 15 3413 9.09800000 1891611940 1891611940 15.00000000
1.27805924 1.88060701 -0.60926002 4 0 3420 2.35400000 1891611960 1891611960 -15.00000000
1.52442050 2.24143338 -0.62581384 3 2 3422 2.78200000 1891611965 1891611965 -13.00000000
1.84759879 2.71559954 -0.63844693 4 4 3423 3.34600000 1891611970 1891611970 -11.00000000
2.32800817 3.41913795 -0.65514755 2 6 3425 4.18800000 1891611974 1891611974 -9.00000000
3.13652563 4.60314989 -0.68393075 6 8 3427 5.61200000 1891611979 1891611979 -7.00000000
4.71768141 6.92105055 -0.73280549 4 10 3428 8.40800000 1891611984 1891611984 -5.00000000
5.70203733 8.35574055 2.33544183 59 13 3431 10.38200000 1891611990 1891611990 13.00000000
4.95933199 7.26193810 2.35628867 40 15 3433 9.10400000 1891611995 1891611995 15.00000000
1.29400671 1.88843477 -0.61340111 4 0 3442 2.37000000 1891612016 1891612016 -15.00000000
1.53742409 2.24199200 -0.62761343 3 2 3444 2.79000000 1891612020 1891612020 -13.00000000
1.86023343 2.71172309 -0.63921010 4 4 3445 3.35000000 1891612025 1891612025 -11.00000000
2.34111953 3.41017389 -0.65514755 2 6 3447 4.18800000 1891612030 1891612030 -9.00000000
3.15530133 4.59270906 -0.68417448 6 8 3449 5.61400000 1891612034 1891612034 -7.00000000
4.75437784 6.91766310 -0.73437428 4 10 3450 8.42600000 1891612039 1891612039 -5.00000000
5.73186970 8.33057404 2.33454204 59 13 3453 10.37800000 1891612046 1891612046 13.00000000
4.98937035 7.24602461 2.35732388 45 15 3455 9.10800000 1891612050 1891612050 15.00000000
1.29510295 1.87595737 -0.61081296 4 0 3462 2.36000000 1891612071 1891612071 -15.00000000
1.54967153 2.24302506 -0.62941307 3 2 3464 2.79800000 1891612076 1891612076 -13.00000000
1.86745536 2.70198298 -0.63844693 4 4 3465 3.34600000 1891612080 1891612080 -11.00000000
3.18035197 4.59472466 -0.68612438 6 8 3469 5.63000000 1891612090 1891612090 -7.00000000
4.78076458 6.90430117 -0.73472291 8 10 3470 8.43000000 1891612094 1891612094 -5.00000000
5.76313448 8.31371880 2.33544183 57 13 3473 10.38200000 1891612101 1891612101 13.00000000
5.01353216 7.22697687 2.35680628 40 15 3475 9.10600000 1891612106 1891612106 15.00000000
1.30054033 1.86983919 -0.61029530 4 0 3482 2.35800000 1891612126 1891612126 -15.00000000
1.55081201 2.22800541 -0.62671363 3 2 3484 2.78600000 1891612131 1891612131 -13.00000000
1.87463188 2.69222569 -0.63768369 4 4 3485 3.34200000 1891612136 1891612136 -11.00000000
2.36599898 3.39536738 -0.65546042 2 6 3487 4.19000000 1891612140 1891612140 -9.00000000
3.19637108 4.58359528 -0.68612438 6 8 3489 5.63000000 1891612145 1891612145 -7.00000000
4.80141640 6.88266850 -0.73420000 8 10 3490 8.42400000 1891612149 1891612149 -5.00000000
5.79211950 8.29355049 2.33544183 57 13 3493 10.38200000 1891612156 1891612156 13.00000000
5.03193808 7.20239353 2.35421801 40 15 3494 9.09600000 1891612161 1891612161 15.00000000
1.30927658 1.86845219 -0.61133057 4 0 3502 2.36200000 1891612182 1891612182 -15.00000000
1.55634201 2.21938753 -0.62581384 4 2 3504 2.78200000 1891612186 1891612186 -13.00000000
1.87950826 2.67923665 -0.63615721 4 4 3505 3.33400000 1891612191 1891612191 -11.00000000
2.37670183 3.38547111 -0.65514755 2 6 3507 4.18800000 1891612195 1891612195 -9.00000000
3.21235132 4.57240963 -0.68612438 6 8 3509 5.63000000 1891612200 1891612200 -7.00000000
4.82770300 6.86912680 -0.73454863 8 10 3510 8.42800000 1891612205 1891612205 -5.00000000
5.82776213 8.28284454 2.33814120 57 13 3513 10.39400000 1891612212 1891612212 13.00000000
5.06275129 7.19022036 2.35628867 42 15 3515 9.10400000 1891612216 1891612216 15.00000000
1.31736720 1.86748707 -0.61236584 4 0 3520 2.36600000 1891612237 1891612237 -15.00000000
1.56443059 2.21607900 -0.62626374 4 2 3522 2.78400000 1891612242 1891612242 -13.00000000
1.88338590 2.66690397 -0.63463074 2 4 3523 3.32600000 1891612246 1891612246 -11.00000000
2.38732576 3.37798786 -0.65514755 2 6 3525 4.18800000 1891612251 1891612251 -9.00000000
3.22670007 4.56229544 -0.68612438 6 8 3527 5.63000000 1891612255 1891612255 -7.00000000
4.85616398 6.86368513 -0.73559445 13 10 3528 8.44000000 1891612260 1891612260 -5.00000000
5.85375500 8.26449585 2.33814120 56 13 3531 10.39400000 1891612267 1891612267 13.00000000
5.08629656 7.17831993 2.35732388 42 15 3532 9.10800000 1891612272 1891612272 15.00000000
1.32611609 1.86602664 -0.61340111 4 0 3540 2.37000000 1891612292 1891612292 -15.00000000
1.56876838 2.20584059 -0.62491405 4 2 3542 2.77800000 1891612297 1891612297 -13.00000000
1.89951241 2.66991186 -0.63692045 4 4 3543 3.33800000 1891612301 1891612301 -11.00000000
2.40368533 3.37607074 -0.65639901 2 6 3545 4.19600000 1891612306 1891612306 -9.00000000
3.23339057 4.53807068 -0.68417448 6 8 3547 5.61400000 1891612311 1891612311 -7.00000000
4.88471889 6.85318184 -0.73629171 13 10 3548 8.44800000 1891612315 1891612315 -5.00000000
5.87577629 8.23449421 2.33544183 57 13 3551 10.38200000 1891612322 1891612322 13.00000000
5.11818552 7.16749001 2.35991216 45 15 3553 9.11800000 1891612327 1891612327 15.00000000
1.32779956 1.85533488 -0.61133057 4 0 3559 2.36200000 1891612348 1891612348 -15.00000000
1.57834399 2.20379472 -0.62581384 3 2 3561 2.78200000 1891612352 1891612352 -13.00000000
1.90149522 2.65402269 -0.63463074 2 4 3562 3.32600000 1891612357 1891612357 -11.00000000
2.42867994 3.38734579 -0.66015345 2 6 3564 4.22000000 1891612361 1891612361 -9.00000000
3.25189352 4.53216219 -0.68490571 4 8 3566 5.62000000 1891612366 1891612366 -7.00000000
4.89579964 6.82075977 -0.73454863 13 10 3567 8.42800000 1891612371 1891612371 -5.00000000
5.90305042 8.21496391 2.33544183 49 13 3570 10.38200000 1891612378 1891612378 13.00000000
5.13616705 7.14510107 2.35784149 40 15 3571 9.11000000 1891612382 1891612382 15.00000000
1.32748914 1.84128630 -0.60822475 4 0 3579 2.35000000 1891612403 1891612403 -15.00000000
1.59058785 2.20459342 -0.62761343 3 2 3581 2.79000000 1891612407 1891612407 -13.00000000
1.91534376 2.65373659 -0.63615721 2 4 3582 3.33400000 1891612412 1891612412 -11.00000000
2.42082667 3.35162449 -0.65483469 2 6 3584 4.18600000 1891612417 1891612417 -9.00000000
3.27118254 4.52560949 -0.68563694 6 8 3586 5.62600000 1891612421 1891612421 -7.00000000
4.93125343 6.81977415 -0.73629171 8 10 3587 8.44800000 1891612426 1891612426 -5.00000000
5.93740320 8.20220089 2.33769131 17 13 3590 10.39200000 1891612433 1891612433 13.00000000
5.15892076 7.12153482 2.35628867 42 15 3592 9.10400000 1891612437 1891612437 15.00000000
1.34331298 1.84891164 -0.61236584 4 0 3600 2.36600000 1891612458 1891612458 -15.00000000
1.59865737 2.19874883 -0.62761343 3 2 3602 2.79000000 1891612463 1891612463 -13.00000000
1.93198621 2.65622497 -0.63844693 2 4 3603 3.34600000 1891612467 1891612467 -11.00000000
2.44820690 3.36349154 -0.65890199 4 6 3605 4.21200000 1891612472 1891612472 -9.00000000
3.29242277 4.52000809 -0.68661189 6 8 3607 5.63400000 1891612477 1891612477 -7.00000000
4.95621586 6.80165434 -0.73629171 8 10 3608 8.44800000 1891612481 1891612481 -5.00000000
4.99697304 6.85004854 1.95752406 15 13 3611 8.70200000 1891612488 1891612488 13.00000000
5.18374825 7.10348320 2.35628867 42 15 3612 9.10400000 1891612493 1891612493 15.00000000
1.35432255 1.85044706 -0.61443639 4 0 3620 2.37400000 1891612513 1891612513 -15.00000000
1.59595931 2.17900562 -0.62356430 3 2 3622 2.77200000 1891612518 1891612518 -13.00000000
1.94124639 2.64946485 -0.63844693 2 4 3623 3.34600000 1891612523 1891612523 -11.00000000
2.45058846 3.34218097 -0.65639901 6 6 3625 4.19600000 1891612527 1891612527 -9.00000000
3.30348301 4.50208616 -0.68563694 6 8 3627 5.62600000 1891612532 1891612532 -7.00000000
4.97992802 6.78431273 -0.73629171 8 10 3628 8.44800000 1891612536 1891612536 -5.00000000
5.02893114 6.84355640 1.96067333 21 13 3631 8.71600000 1891612543 1891612543 13.00000000
5.21203804 7.08754873 2.35732388 42 15 3633 9.10800000 1891612548 1891612548 15.00000000
1.36077356 1.84570837 -0.61443639 4 0 3640 2.37400000 1891612569 1891612569 -15.00000000
1.61049759 2.18283010 -0.62626374 3 2 3642 2.78400000 1891612573 1891612573 -13.00000000
1.94581938 2.63635421 -0.63692045 2 4 3643 3.33800000 1891612578 1891612578 -11.00000000
2.46223974 3.33360624 -0.65639901 6 6 3645 4.19600000 1891612583 1891612583 -9.00000000
3.31917810 4.49052715 -0.68563694 6 8 3647 5.62600000 1891612587 1891612587 -7.00000000
5.01779413 6.78611231 -0.73838347 13 10 3648 8.47200000 1891612592 1891612592 -5.00000000
5.05626726 6.83065939 1.96202314 23 13 3651 8.72200000 1891612599 1891612599 13.00000000
5.24011087 7.07643604 2.35939431 42 15 3652 9.11600000 1891612603 1891612603 15.00000000
1.36490428 1.83784521 -0.61340111 4 0 3660 2.37000000 1891612624 1891612624 -15.00000000
1.62275696 2.18345141 -0.62806332 3 2 3662 2.79200000 1891612629 1891612629 -13.00000000
1.95032465 2.62324381 -0.63539398 2 4 3663 3.33000000 1891612633 1891612633 -11.00000000
2.48329449 3.33766985 -0.65890199 6 6 3665 4.21200000 1891612638 1891612638 -9.00000000
3.33957481 4.48528242 -0.68661189 6 8 3667 5.63400000 1891612642 1891612642 -7.00000000
5.02716970 6.74938107 -0.73629171 13 10 3668 8.44800000 1891612647 1891612647 -5.00000000
5.09172869 6.82859087 1.96652210 24 13 3671 8.74200000 1891612654 1891612654 13.00000000
5.26023579 7.04944134 2.35680628 45 15 3673 9.10600000 1891612659 1891612659 15.00000000
1.36404967 1.82402635 -0.61029530 4 0 3679 2.35800000 1891612679 1891612679 -15.00000000
1.62882102 2.17649794 -0.62761343 3 2 3681 2.79000000 1891612684 1891612684 -13.00000000
1.95901299 2.61676192 -0.63539398 4 4 3682 3.33000000 1891612689 1891612689 -11.00000000
2.48961139 3.32309294 -0.65765047 6 6 3684 4.20400000 1891612693 1891612693 -9.00000000
3.35443020 4.47418356 -0.68661189 6 8 3686 5.63400000 1891612698 1891612698 -7.00000000
5.05191469 6.73586082 -0.73664033 8 10 3687 8.45200000 1891612702 1891612702 -5.00000000
5.13657665 6.84127760 1.97507024 20 13 3690 8.78000000 1891612709 1891612709 13.00000000
5.28119612 7.03133631 2.35628867 45 15 3691 9.10400000 1891612714 1891612714 15.00000000
1.37505770 1.82542610 -0.61236584 4 0 3699 2.36600000 1891612735 1891612735 -15.00000000
1.63406241 2.16768670 -0.62671363 3 2 3701 2.78600000 1891612739 1891612739 -13.00000000
1.97049940 2.61304283 -0.63615721 4 4 3702 3.33400000 1891612744 1891612744 -11.00000000
2.49167657 3.30176806 -0.65514755 6 6 3704 4.18800000 1891612748 1891612748 -9.00000000
3.37481284 4.46878338 -0.68758684 6 8 3706 5.64200000 1891612753 1891612753 -7.00000000
5.07539654 6.71818542 -0.73664033 8 10 3707 8.45200000 1891612758 1891612758 -5.00000000
5.17805815 6.84662008 1.98181880 15 13 3710 8.81000000 1891612765 1891612765 13.00000000
5.30570745 7.01285887 2.35628867 45 15 3711 9.10400000 1891612769 1891612769 15.00000000
1.38258898 1.82215405 -0.61288351 3 0 3719 2.36800000 1891612790 1891612790 -15.00000000
1.63690519 2.15576148 -0.62491405 3 2 3721 2.77800000 1891612795 1891612795 -13.00000000
1.98079610 2.60771179 -0.63653880 4 4 3722 3.33600000 1891612799 1891612799 -11.00000000
2.51035929 3.30248618 -0.65702474 4 6 3724 4.20000000 1891612804 1891612804 -9.00000000
3.37837291 4.44117689 -0.68514943 6 8 3726 5.62200000 1891612808 1891612808 -7.00000000
5.09881639 6.70042801 -0.73664033 8 10 3727 8.45200000 1891612813 1891612813 -5.00000000
5.21019220 6.83935499 1.98496807 4 13 3730 8.82400000 1891612820 1891612820 13.00000000
5.33249664 6.99736881 2.35732388 45 15 3731 9.10800000 1891612824 1891612824 15.00000000
1.39480650 1.82499135 -0.61547166 4 0 3739 2.37800000 1891612845 1891612845 -15.00000000
1.64678800 2.15313029 -0.62581384 3 2 3741 2.78200000 1891612850 1891612850 -13.00000000
1.99107969 2.60234094 -0.63692045 4 4 3742 3.33800000 1891612854 1891612854 -11.00000000
2.52187181 3.29370332 -0.65702474 4 6 3744 4.20000000 1891612859 1891612859 -9.00000000
3.39626956 4.43250847 -0.68563694 6 8 3746 5.62600000 1891612864 1891612864 -7.00000000
5.12944651 6.69207716 -0.73768622 8 10 3747 8.46400000 1891612868 1891612868 -5.00000000
5.36046076 6.98084164 2.35835910 45 15 3752 9.11200000 1891612880 1891612880 15.00000000
1.39142537 1.80810797 -0.61133057 4 0 3758 2.36200000 1891612901 1891612901 -15.00000000
1.65629697 2.15074539 -0.62671363 3 2 3760 2.78600000 1891612905 1891612905 -13.00000000
2.00209475 2.59883451 -0.63768369 4 4 3761 3.34200000 1891612910 1891612910 -11.00000000
2.53519249 3.28845119 -0.65765047 4 6 3763 4.20400000 1891612914 1891612914 -9.00000000
3.41579986 4.42750835 -0.68661189 6 8 3765 5.63400000 1891612919 1891612919 -7.00000000
5.15647936 6.68133926 -0.73838347 8 10 3766 8.47200000 1891612924 1891612924 -5.00000000
6.17998981 7.99885702 2.33364224 48 13 3769 10.37400000 1891612930 1891612930 13.00000000
5.38000250 6.96090984 2.35732388 42 15 3770 9.10800000 1891612935 1891612935 15.00000000
1.39536130 1.80018616 -0.61029530 4 0 3778 2.35800000 1891612956 1891612956 -15.00000000
1.66857207 2.15111017 -0.62851322 3 2 3780 2.79400000 1891612960 1891612960 -13.00000000
2.00874686 2.58872795 -0.63692045 4 4 3781 3.33800000 1891612965 1891612965 -11.00000000
2.53938651 3.27022028 -0.65577328 4 6 3783 4.19200000 1891612970 1891612970 -9.00000000
3.43610620 4.42182827 -0.68758684 6 8 3785 5.64200000 1891612974 1891612974 -7.00000000
5.16998768 6.65071535 -0.73698896 8 10 3786 8.45600000 1891612979 1891612979 -5.00000000
6.22103834 7.99415350 2.33859110 55 13 3789 10.39600000 1891612986 1891612986 13.00000000
5.40308094 6.94056320 2.35680628 45 15 3790 9.10600000 1891612990 1891612990 15.00000000
1.40758085 1.80291820 -0.61288351 3 0 3798 2.36800000 1891613011 1891613011 -15.00000000
1.67127156 2.13913012 -0.62671363 3 2 3800 2.78600000 1891613016 1891613016 -13.00000000
2.01777101 2.58170033 -0.63692045 4 4 3801 3.33800000 1891613020 1891613020 -11.00000000
2.55078626 3.26133633 -0.65577328 4 6 3803 4.19200000 1891613025 1891613025 -9.00000000
3.44907331 4.40668058 -0.68709934 6 8 3805 5.63800000 1891613029 1891613029 -7.00000000
5.19071484 6.62949038 -0.73664033 8 10 3806 8.45200000 1891613034 1891613034 -5.00000000
6.25491619 7.98005819 2.34084058 62 13 3809 10.40600000 1891613041 1891613041 13.00000000
5.42608309 6.92014027 2.35628867 45 15 3810 9.10400000 1891613046 1891613046 15.00000000
1.41267145 1.79647529 -0.61236584 3 0 3818 2.36600000 1891613066 1891613066 -15.00000000
1.67631805 2.13022041 -0.62581384 3 2 3820 2.78200000 1891613071 1891613071 -13.00000000
2.03648543 2.58698225 -0.63997334 4 4 3821 3.35400000 1891613076 1891613076 -11.00000000
2.56215501 3.25241256 -0.65577328 4 6 3823 4.19200000 1891613080 1891613080 -9.00000000
3.45460272 4.38214254 -0.68514943 6 8 3825 5.62200000 1891613085 1891613085 -7.00000000
5.20888948 6.60507345 -0.73594308 8 10 3826 8.44400000 1891613089 1891613089 -5.00000000
6.28273344 7.95817566 2.34084058 62 13 3829 10.40600000 1891613096 1891613096 13.00000000
5.45620060 6.90626955 2.35835910 45 15 3831 9.11200000 1891613101 1891613101 15.00000000
1.42190504 1.79657280 -0.61391878 4 0 3836 2.37200000 1891613122 1891613122 -15.00000000
1.68784177 2.13105416 -0.62761343 3 2 3838 2.79000000 1891613126 1891613126 -13.00000000
2.03972578 2.57441640 -0.63844693 5 4 3839 3.34600000 1891613131 1891613131 -11.00000000
2.57726908 3.25053883 -0.65702474 4 6 3841 4.20000000 1891613135 1891613135 -9.00000000
3.47452188 4.37904358 -0.68636817 6 8 3843 5.63200000 1891613140 1891613140 -7.00000000
5.23704624 6.59804010 -0.73698896 8 10 3844 8.45600000 1891613145 1891613145 -5.00000000
6.30770397 7.93839884 2.34084058 62 13 3847 10.40600000 1891613152 1891613152 13.00000000
5.48267841 6.89761209 2.36094737 45 15 3848 9.12200000 1891613156 1891613156 15.00000000
1.42575920 1.78857720 -0.61288351 4 0 3856 2.36800000 1891613177 1891613177 -15.00000000
1.69527030 2.12514949 -0.62761343 3 2 3858 2.79000000 1891613181 1891613181 -13.00000000
2.03645420 2.55193543 -0.63463074 4 4 3859 3.32600000 1891613186 1891613186 -11.00000000
2.59106517 3.24460983 -0.65765047 4 6 3861 4.20400000 1891613191 1891613191 -9.00000000
3.48111153 4.35603333 -0.68466198 6 8 3863 5.61800000 1891613195 1891613195 -7.00000000
5.24511671 6.56104422 -0.73489720 13 10 3864 8.43200000 1891613200 1891613200 -5.00000000
6.33537579 7.91633224 2.34084058 62 13 3867 10.40600000 1891613207 1891613207 13.00000000
5.50430727 6.87541580 2.35991216 45 15 3868 9.11800000 1891613211 1891613211 15.00000000
1.42836547 1.77907026 -0.61133057 4 0 3876 2.36200000 1891613232 1891613232 -15.00000000
1.70756030 2.12529540 -0.62941307 3 2 3878 2.79800000 1891613237 1891613237 -13.00000000
2.05518889 2.55705333 -0.63768369 4 4 3879 3.34200000 1891613241 1891613241 -11.00000000
2.60980368 3.24478102 -0.65952772 4 6 3881 4.21600000 1891613246 1891613246 -9.00000000
3.50625300 4.35622644 -0.68661189 6 8 3883 5.63400000 1891613251 1891613251 -7.00000000
5.27298498 6.54890299 -0.73559445 8 10 3884 8.44000000 1891613255 1891613255 -5.00000000
6.36786175 7.90023851 2.34264016 64 13 3887 10.41400000 1891613262 1891613262 13.00000000
5.52825737 6.85369158 2.35939431 42 15 3889 9.11600000 1891613267 1891613267 15.00000000
1.43213749 1.77106917 -0.61029530 4 0 3896 2.35800000 1891613287 1891613287 -15.00000000
1.71742034 2.12235188 -0.63031286 3 2 3898 2.80200000 1891613292 1891613292 -13.00000000
2.06410217 2.54986382 -0.63768369 4 4 3899 3.34200000 1891613297 1891613297 -11.00000000
2.61365366 3.22644186 -0.65765047 4 6 3901 4.20400000 1891613301 1891613301 -9.00000000
3.52143764 4.34396076 -0.68661189 6 8 3903 5.63400000 1891613306 1891613306 -7.00000000
5.30083275 6.53664684 -0.73629171 8 10 3904 8.44800000 1891613311 1891613311 -5.00000000
6.40276957 7.88704014 2.34533978 60 13 3907 10.42600000 1891613317 1891613317 13.00000000
5.54971123 6.83135366 2.35835910 40 15 3909 9.11200000 1891613322 1891613322 15.00000000
1.44105947 1.76880360 -0.61133057 4 0 3917 2.36200000 1891613343 1891613343 -15.00000000
1.71779919 2.10698056 -0.62761343 3 2 3919 2.79000000 1891613347 1891613347 -13.00000000
2.08087921 2.55140996 -0.63997334 2 4 3920 3.35400000 1891613352 1891613352 -11.00000000
2.61796737 3.20765829 -0.65577328 4 6 3922 4.19200000 1891613357 1891613357 -9.00000000
3.53482413 4.32795000 -0.68612438 6 8 3924 5.63000000 1891613361 1891613361 -7.00000000
5.33988190 6.53568935 -0.73838347 8 10 3925 8.47200000 1891613366 1891613366 -5.00000000
6.41929626 7.84843540 2.34084058 50 13 3928 10.40600000 1891613373 1891613373 13.00000000
5.57715893 6.81395721 2.35939431 47 15 3930 9.11600000 1891613377 1891613377 15.00000000
1.45212674 1.76973641 -0.61340111 4 0 3937 2.37000000 1891613398 1891613398 -15.00000000
1.72267020 2.09795928 -0.62671363 3 2 3939 2.78600000 1891613403 1891613403 -13.00000000
2.63918304 3.21070838 -0.65827620 4 6 3942 4.20800000 1891613412 1891613412 -9.00000000
3.53982139 4.30332041 -0.68417448 6 8 3944 5.61400000 1891613417 1891613417 -7.00000000
5.36139727 6.51547146 -0.73820913 8 10 3945 8.47000000 1891613421 1891613421 -5.00000000
5.65987158 6.87085867 2.05515289 10 13 3948 9.13600000 1891613428 1891613428 13.00000000
5.60459661 6.79891968 2.36094737 38 15 3950 9.12200000 1891613433 1891613433 15.00000000
1.45829535 1.76465678 -0.61340111 4 0 3957 2.37000000 1891613453 1891613453 -15.00000000
1.72998285 2.09193325 -0.62671363 3 2 3959 2.78600000 1891613458 1891613458 -13.00000000
2.08862901 2.52471876 -0.63692045 2 4 3960 3.33800000 1891613463 1891613463 -11.00000000
2.64785504 3.19843316 -0.65765047 4 6 3962 4.20400000 1891613467 1891613467 -9.00000000
3.56748533 4.30622435 -0.68661189 6 8 3964 5.63400000 1891613472 1891613472 -7.00000000
5.37139463 6.48137617 -0.73646605 8 10 3965 8.45000000 1891613476 1891613476 -5.00000000
6.46522188 7.79293060 2.33769131 52 13 3968 10.39200000 1891613483 1891613483 13.00000000
5.60120344 6.74907827 2.35007691 29 15 3969 9.08000000 1891613488 1891613488 15.00000000
1.45455980 1.74767673 -0.60926002 4 0 3977 2.35400000 1891613509 1891613509 -15.00000000
1.74725175 2.09786105 -0.63031286 3 2 3979 2.80200000 1891613513 1891613513 -13.00000000
2.09994268 2.52042937 -0.63768369 4 4 3980 3.34200000 1891613518 1891613518 -11.00000000
2.66153359 3.19220543 -0.65827620 4 6 3982 4.20800000 1891613522 1891613522 -9.00000000
3.57740808 4.28764820 -0.68563694 6 8 3984 5.62600000 1891613527 1891613527 -7.00000000
5.37738943 6.44270229 -0.73420000 4 10 3985 8.42400000 1891613532 1891613532 -5.00000000
6.49238491 7.77031565 2.33769131 51 13 3988 10.39200000 1891613539 1891613539 13.00000000
5.60359716 6.70182657 2.34075952 20 15 3990 9.04400000 1891613543 1891613543 15.00000000
1.46809745 1.75147200 -0.61236584 4 0 3997 2.36600000 1891613564 1891613564 -15.00000000
1.74454510 2.07980490 -0.62671363 3 2 3999 2.78600000 1891613569 1891613569 -13.00000000
2.11377549 2.51909971 -0.63921010 4 4 4000 3.35000000 1891613573 1891613573 -11.00000000
2.66757917 3.17684436 -0.65702474 4 6 4002 4.20000000 1891613578 1891613578 -9.00000000
3.59490705 4.27817440 -0.68612438 6 8 4004 5.63000000 1891613582 1891613582 -7.00000000
5.43830633 6.46964645 -0.73942930 4 10 4005 8.48400000 1891613587 1891613587 -5.00000000
6.53076124 7.76102495 2.34174037 53 13 4008 10.41000000 1891613594 1891613594 13.00000000
5.62703419 6.68468571 2.34127712 13 15 4009 9.04600000 1891613599 1891613599 15.00000000
1.47420228 1.74633670 -0.61236584 4 0 4017 2.36600000 1891613619 1891613619 -15.00000000
1.75179434 2.07370257 -0.62671363 3 2 4019 2.78600000 1891613624 1891613624 -13.00000000
2.11748719 2.50570774 -0.63768369 4 4 4020 3.34200000 1891613628 1891613628 -11.00000000
2.68375444 3.17354679 -0.65827620 6 6 4022 4.20800000 1891613633 1891613633 -9.00000000
3.60725427 4.26256895 -0.68563694 6 8 4024 5.62600000 1891613638 1891613638 -7.00000000
5.44927025 6.43693781 -0.73786050 4 10 4025 8.46600000 1891613642 1891613642 -5.00000000
6.56033230 7.74115467 2.34264016 55 13 4028 10.41400000 1891613649 1891613649 13.00000000
5.63650322 6.64633608 2.33506536 22 15 4030 9.02200000 1891613654 1891613654 15.00000000
1.48779690 1.75001109 -0.61547166 4 0 4037 2.37800000 1891613675 1891613675 -15.00000000
1.75397122 2.06163812 -0.62491405 3 2 4039 2.77800000 1891613679 1891613679 -13.00000000
2.12113118 2.49232078 -0.63615721 4 4 4040 3.33400000 1891613684 1891613684 -11.00000000
2.70121980 3.17167878 -0.65984058 6 6 4042 4.21800000 1891613688 1891613688 -9.00000000
3.62726188 4.25599480 -0.68661189 6 8 4044 5.63400000 1891613693 1891613693 -7.00000000
5.48333979 6.43152285 -0.73942930 4 10 4045 8.48400000 1891613698 1891613698 -5.00000000
5.64377213 6.61735725 1.69056773 37 11 4046 8.86000000 1891613700 1891613700 11.00000000
5.64102793 6.60946560 2.00611353 14 13 4048 8.91800000 1891613705 1891613705 13.00000000
5.67983675 6.65258503 2.34386516 15 15 4049 9.05600000 1891613709 1891613709 15.00000000
1.48887086 1.73893726 -0.61340111 4 0 4057 2.37000000 1891613730 1891613730 -15.00000000
1.76622868 2.06142235 -0.62671363 3 2 4059 2.78600000 1891613734 1891613734 -13.00000000
2.12726283 2.48192000 -0.63539398 4 4 4060 3.33000000 1891613739 1891613739 -11.00000000
2.70584440 3.15473342 -0.65827620 4 6 4062 4.20800000 1891613744 1891613744 -9.00000000
3.63563156 4.23577595 -0.68539321 6 8 4064 5.62400000 1891613748 1891613748 -7.00000000
5.49407530 6.39873838 -0.73786050 4 10 4065 8.46600000 1891613753 1891613753 -5.00000000
6.60405350 7.68334389 2.33904099 59 13 4068 10.39800000 1891613760 1891613760 13.00000000
5.74323368 6.67712545 2.35991216 31 15 4070 9.11800000 1891613764 1891613764 15.00000000
1.48201621 1.71935761 -0.60822475 4 0 4076 2.35000000 1891613785 1891613785 -15.00000000
1.77814627 2.06145644 -0.62851322 3 2 4078 2.79400000 1891613790 1891613790 -13.00000000
2.14830709 2.48971629 -0.63921010 2 4 4079 3.35000000 1891613794 1891613794 -11.00000000
2.72145486 3.15172362 -0.65952772 6 6 4081 4.21600000 1891613799 1891613799 -9.00000000
3.27327061 3.78810883 -0.61470896 6 8 4083 5.04400000 1891613804 1891613804 -7.00000000
5.50874949 6.37294769 -0.73698896 4 10 4084 8.45600000 1891613808 1891613808 -5.00000000
6.62822056 7.65992785 2.33859110 51 13 4087 10.39600000 1891613815 1891613815 13.00000000
5.76544666 6.66051006 2.36042976 45 15 4088 9.12000000 1891613820 1891613820 15.00000000
1.49307442 1.72000945 -0.61029530 4 0 4096 2.35800000 1891613840 1891613840 -15.00000000
1.78021932 2.04935241 -0.62671363 3 2 4098 2.78600000 1891613845 1891613845 -13.00000000
2.14668274 2.47034669 -0.63615721 2 4 4099 3.33400000 1891613850 1891613850 -11.00000000
2.71688533 3.12431741 -0.65577328 6 6 4101 4.19200000 1891613854 1891613854 -9.00000000
3.27865481 3.76767492 -0.61324656 8 8 4103 5.03200000 1891613859 1891613859 -7.00000000
5.53881073 6.36269617 -0.73803484 4 10 4104 8.46800000 1891613863 1891613863 -5.00000000
6.66516066 7.64849806 2.34219027 55 13 4107 10.41200000 1891613870 1891613870 13.00000000
5.79616833 6.64661407 2.36301780 45 15 4109 9.13000000 1891613875 1891613875 15.00000000
1.50669813 1.72351372 -0.61340111 4 0 4116 2.37000000 1891613896 1891613896 -15.00000000
1.78607893 2.04165912 -0.62626374 3 2 4118 2.78400000 1891613900 1891613900 -13.00000000
2.17597961 2.48647690 -0.64226305 2 4 4119 3.36600000 1891613905 1891613905 -11.00000000
2.73298025 3.12075901 -0.65702474 4 6 4121 4.20000000 1891613910 1891613910 -9.00000000
3.28131986 3.74426389 -0.61129665 14 8 4123 5.01600000 1891613914 1891613914 -7.00000000
5.57937479 6.36429787 -0.74047518 4 10 4124 8.49600000 1891613919 1891613919 -5.00000000
6.69824553 7.63250875 2.34443998 59 13 4127 10.42200000 1891613926 1891613926 13.00000000
5.82072639 6.63026047 2.36405325 47 15 4128 9.13400000 1891613930 1891613930 15.00000000
1.51270521 1.71824396 -0.61340111 4 0 4136 2.37000000 1891613951 1891613951 -15.00000000
1.79319477 2.03541207 -0.62626374 3 2 4138 2.78400000 1891613956 1891613956 -13.00000000
2.16906881 2.46119142 -0.63768369 2 4 4139 3.34200000 1891613960 1891613960 -11.00000000
2.74908352 3.11712623 -0.65827620 6 6 4141 4.20800000 1891613965 1891613965 -9.00000000
3.27860737 3.71492696 -0.60837173 17 8 4143 4.99200000 1891613969 1891613969 -7.00000000
3.31768274 3.75788021 -0.43856770 3 10 4144 5.03200000 1891613974 1891613974 -5.00000000
6.72226620 7.60616064 2.34354019 60 13 4147 10.41800000 1891613981 1891613981 13.00000000
5.84754801 6.61177588 2.36508846 45 15 4149 9.13800000 1891613986 1891613986 15.00000000
1.51583207 1.71032667 -0.61236584 4 0 4155 2.36600000 1891614006 1891614006 -15.00000000
1.80122769 2.03091240 -0.62671363 3 2 4157 2.78600000 1891614011 1891614011 -13.00000000
2.18764210 2.46573377 -0.64073658 2 4 4158 3.35800000 1891614016 1891614016 -11.00000000
2.75940514 3.10799289 -0.65827620 4 6 4160 4.20800000 1891614020 1891614020 -9.00000000
3.28167915 3.69364643 -0.60666561 19 8 4162 4.97800000 1891614025 1891614025 -7.00000000
3.31556654 3.73047638 -0.43665028 15 10 4163 5.01000000 1891614029 1891614029 -5.00000000
5.62622499 6.32806587 1.64591837 3 11 4164 8.62600000 1891614032 1891614032 11.00000000
3.29842877 3.70858598 -0.26010969 12 12 4165 4.97000000 1891614034 1891614034 -3.00000000
6.75004292 7.58673906 2.34443998 60 13 4166 10.42200000 1891614036 1891614036 13.00000000
5.86315346 6.58760023 2.36301780 45 15 4167 9.13000000 1891614041 1891614041 15.00000000
1.51664746 1.69925988 -0.61029530 4 0 4175 2.35800000 1891614062 1891614062 -15.00000000
1.81349838 2.03042626 -0.62851322 3 2 4177 2.79400000 1891614066 1891614066 -13.00000000
2.18838739 2.44929838 -0.63844693 2 4 4178 3.34600000 1891614071 1891614071 -11.00000000
2.77287054 3.10128689 -0.65890199 4 6 4180 4.21200000 1891614075 1891614075 -9.00000000
3.29455233 3.68216872 -0.60666561 21 8 4182 4.97800000 1891614080 1891614080 -7.00000000
3.31262302 3.70106530 -0.43455854 18 10 4183 4.98600000 1891614085 1891614085 -5.00000000
5.63125515 6.28937387 1.64095736 12 11 4184 8.60000000 1891614087 1891614087 11.00000000
6.78168583 7.56893635 2.34623957 57 13 4186 10.43000000 1891614092 1891614092 13.00000000
5.88611269 6.56709385 2.36301780 45 15 4187 9.13000000 1891614096 1891614096 15.00000000
1.52485633 1.69709516 -0.61133057 4 0 4194 2.36200000 1891614117 1891614117 -15.00000000
3.30428195 3.67493320 -1.14095175 70 2 4196 5.07200000 1891614122 1891614122 -13.00000000
2.19912338 2.44494724 -0.63921010 2 4 4197 3.35000000 1891614126 1891614126 -11.00000000
2.78049660 3.08913827 -0.65827620 6 6 4199 4.20800000 1891614131 1891614131 -9.00000000
3.30143046 3.66532326 -0.60569066 19 8 4201 4.97000000 1891614135 1891614135 -7.00000000
3.31287479 3.67673826 -0.43298972 21 10 4202 4.96800000 1891614140 1891614140 -5.00000000
5.62842083 6.24441624 1.63408828 31 11 4203 8.56400000 1891614142 1891614142 11.00000000
6.80935860 7.54929972 2.34713936 57 13 4205 10.43400000 1891614147 1891614147 13.00000000
5.90785742 6.54753876 2.36301780 45 15 4206 9.13000000 1891614151 1891614151 15.00000000
1.53595567 1.69749200 -0.61340111 4 0 4214 2.37000000 1891614172 1891614172 -15.00000000
2.21028042 2.44016600 -0.63997334 4 4 4217 3.35400000 1891614181 1891614181 -11.00000000
2.79126263 3.07941365 -0.65827620 6 6 4219 4.20800000 1891614186 1891614186 -9.00000000
3.29419947 3.63172197 -0.60203457 27 8 4221 4.94000000 1891614191 1891614191 -7.00000000
3.32167220 3.66072536 -0.43246680 27 10 4222 4.96200000 1891614195 1891614195 -5.00000000
5.64490557 6.21891642 1.63256180 25 11 4223 8.55600000 1891614198 1891614198 11.00000000
6.82780743 7.51682997 2.34443998 62 13 4225 10.42200000 1891614202 1891614202 13.00000000
3.36734700 3.70586014 -0.08740165 2 14 4226 5.00800000 1891614204 1891614204 -1.00000000
5.93441486 6.52870083 2.36405325 45 15 4227 9.13400000 1891614207 1891614207 15.00000000
1.54737258 1.69756198 -0.61547166 4 0 4235 2.37800000 1891614228 1891614228 -15.00000000
2.21656251 2.42914820 -0.63921010 2 4 4238 3.35000000 1891614237 1891614237 -11.00000000
2.80785847 3.07499743 -0.65952772 6 6 4240 4.21600000 1891614241 1891614241 -9.00000000
3.30347109 3.61522746 -0.60130334 80 8 4242 4.93400000 1891614246 1891614246 -7.00000000
3.32431316 3.63676143 -0.43107229 48 10 4243 4.94600000 1891614251 1891614251 -5.00000000
3.32292628 3.63269711 -0.25801626 235 12 4245 4.93000000 1891614255 1891614255 -3.00000000
6.85004997 7.48600340 2.34264016 59 13 4246 10.41400000 1891614257 1891614257 13.00000000
3.35660338 3.66694260 -0.08677337 8 14 4247 4.97200000 1891614260 1891614260 -1.00000000
5.96238565 6.51364565 2.36612368 45 15 4247 9.14200000 1891614262 1891614262 15.00000000
1.54545045 1.68361127 -0.61236584 4 0 4255 2.36600000 1891614283 1891614283 -15.00000000
3.32212639 3.61658406 -1.13375330 175 2 4257 5.04000000 1891614287 1891614287 -13.00000000
2.21440148 2.40983129 -0.63615721 4 4 4258 3.33400000 1891614292 1891614292 -11.00000000
2.81857514 3.06517744 -0.65952772 6 6 4260 4.21600000 1891614297 1891614297 -9.00000000
3.31203794 3.59929180 -0.60057211 38 8 4262 4.92800000 1891614301 1891614301 -7.00000000
3.32754207 3.61487412 -0.42985213 45 10 4263 4.93200000 1891614306 1891614306 -5.00000000
3.34099936 3.62695169 -0.25843495 235 12 4265 4.93800000 1891614310 1891614310 -3.00000000
6.87878036 7.46491289 2.34354019 60 13 4266 10.41800000 1891614313 1891614313 13.00000000
3.35582948 3.64050031 -0.08642431 6 14 4267 4.95200000 1891614315 1891614315 -1.00000000
5.98246717 6.48995256 2.36508846 45 15 4267 9.13800000 1891614317 1891614317 15.00000000
1.54840291 1.67563939 -0.61133057 4 0 4274 2.36200000 1891614338 1891614338 -15.00000000
3.33674717 3.60840917 -1.13465309 175 2 4276 5.04400000 1891614343 1891614343 -13.00000000
2.23037958 2.41112185 -0.63844693 4 4 4277 3.34600000 1891614347 1891614347 -11.00000000
2.81933093 3.04566646 -0.65733761 6 6 4279 4.20200000 1891614352 1891614352 -9.00000000
3.33339858 3.59848285 -0.60227829 21 8 4281 4.94200000 1891614356 1891614356 -7.00000000
3.34492803 3.60966539 -0.43054938 30 10 4282 4.94000000 1891614361 1891614361 -5.00000000
3.35572433 3.61878181 -0.25864428 235 12 4284 4.94200000 1891614366 1891614366 -3.00000000
6.90614796 7.44491816 2.34443998 60 13 4285 10.42200000 1891614368 1891614368 13.00000000
3.36652327 3.62788630 -0.08638941 8 14 4286 4.95000000 1891614370 1891614370 -1.00000000
6.00001383 6.46583033 2.36353540 45 15 4286 9.13200000 1891614373 1891614373 15.00000000
1.55687463 1.67305279 -0.61236584 4 0 4294 2.36600000 1891614393 1891614393 -15.00000000
3.34932256 3.59673977 -1.13465309 171 2 4296 5.04400000 1891614398 1891614398 -13.00000000
2.24145865 2.40619493 -0.63921010 2 4 4297 3.35000000 1891614403 1891614403 -11.00000000
2.82994509 3.03580666 -0.65733761 6 6 4299 4.20200000 1891614407 1891614407 -9.00000000
3.35000157 3.59117985 -0.60300952 21 8 4301 4.94800000 1891614412 1891614412 -7.00000000
3.37110090 3.61253405 -0.43229249 27 10 4302 4.96000000 1891614416 1891614416 -5.00000000
3.36288333 3.60120702 -0.25822562 235 12 4304 4.93400000 1891614421 1891614421 -3.00000000
6.94007492 7.42931032 2.34713936 59 13 4305 10.43400000 1891614423 1891614423 13.00000000
3.38462758 3.62195706 -0.08652903 26 14 4306 4.95800000 1891614426 1891614426 -1.00000000
6.01971388 6.43956184 2.36198258 47 15 4307 9.12600000 1891614428 1891614428 15.00000000
1.55742133 1.66196954 -0.61029530 4 0 4314 2.35800000 1891614449 1891614449 -15.00000000
3.35652518 3.57934046 -1.13285351 130 2 4316 5.03600000 1891614453 1891614453 -13.00000000
2.25253057 2.40121961 -0.63997334 4 4 4317 3.35400000 1891614458 1891614458 -11.00000000
2.84458065 3.03023052 -0.65827620 6 6 4319 4.20800000 1891614462 1891614462 -9.00000000
3.35843921 3.57512379 -0.60227829 19 8 4321 4.94200000 1891614467 1891614467 -7.00000000
3.39187670 3.60945630 -0.43333834 24 10 4322 4.97200000 1891614472 1891614472 -5.00000000
3.38774753 3.60254121 -0.25916764 192 12 4324 4.95200000 1891614476 1891614476 -3.00000000
6.95795441 7.39652348 2.34443998 62 13 4325 10.42200000 1891614479 1891614479 13.00000000
3.40547252 3.61885810 -0.08673846 56 14 4326 4.97000000 1891614481 1891614481 -1.00000000
6.04897881 6.42800570 2.36508846 47 15 4326 9.13800000 1891614483 1891614483 15.00000000
1.57116842 1.66495311 -0.61340111 4 0 4334 2.37000000 1891614504 1891614504 -15.00000000
2.25550604 2.38763356 -0.63844693 2 4 4337 3.34600000 1891614513 1891614513 -11.00000000
2.85106993 3.01597619 -0.65733761 6 6 4339 4.20200000 1891614518 1891614518 -9.00000000
3.37635493 3.56914735 -0.60325325 19 8 4341 4.95000000 1891614522 1891614522 -7.00000000
3.41130280 3.60483003 -0.43420991 21 10 4342 4.98200000 1891614527 1891614527 -5.00000000
3.42090154 3.61244678 -0.26073775 157 12 4344 4.98200000 1891614532 1891614532 -3.00000000
6.98373079 7.37219048 2.34443998 59 13 4345 10.42200000 1891614534 1891614534 13.00000000
6.07403755 6.40965605 2.36612368 47 15 4346 9.14200000 1891614538 1891614538 15.00000000
1.57430911 1.65665781 -0.61236584 4 0 4354 2.36600000 1891614559 1891614559 -15.00000000
2.25841403 2.37405610 -0.63692045 4 4 4357 3.33800000 1891614568 1891614568 -11.00000000
2.86975217 3.01459002 -0.65921485 6 6 4359 4.21400000 1891614573 1891614573 -9.00000000
3.40522361 3.57458758 -0.60617810 12 8 4361 4.97400000 1891614578 1891614578 -7.00000000
3.43348646 3.60299683 -0.43543008 12 10 4362 4.99600000 1891614582 1891614582 -5.00000000
7.00673151 7.34494781 2.34354019 59 13 4365 10.41800000 1891614589 1891614589 13.00000000
6.09748936 6.38735056 2.36612368 47 15 4367 9.14200000 1891614594 1891614594 15.00000000
1.57741094 1.64836085 -0.61133057 4 0 4374 2.36200000 1891614614 1891614614 -15.00000000
1.88830268 1.97185767 -0.63031286 3 2 4376 2.80200000 1891614619 1891614619 -13.00000000
2.26261282 2.36190534 -0.63577557 2 4 4377 3.33200000 1891614624 1891614624 -11.00000000
2.87615681 3.00027657 -0.65827620 6 6 4379 4.20800000 1891614628 1891614628 -9.00000000
7.03772783 7.32606602 2.34533978 59 13 4385 10.42600000 1891614644 1891614644 13.00000000
6.10903788 6.35488558 2.36198258 45 15 4387 9.12600000 1891614649 1891614649 15.00000000
1.58583629 1.64562678 -0.61236584 4 0 4394 2.36600000 1891614670 1891614670 -15.00000000
3.03800225 3.15144229 0.07640664 1 1 4395 4.37800000 1891614672 1891614672 1.00000000
1.88705790 1.95683777 -0.62761343 3 2 4396 2.79000000 1891614674 1891614674 -13.00000000
3.03346372 3.14563560 0.22902215 1 3 4396 4.37600000 1891614677 1891614677 3.00000000
2.28038502 2.36388350 -0.63844693 4 4 4397 3.34600000 1891614679 1891614679 -11.00000000
3.06866860 3.17991996 0.38662288 1 5 4398 4.43600000 1891614681 1891614681 5.00000000
2.89621592 3.00016689 -0.66046631 9 6 4399 4.22200000 1891614684 1891614684 -9.00000000
2.98461080 3.08957577 -0.52745050 18 8 4401 4.32800000 1891614688 1891614688 -7.00000000
2.96981716 3.07318830 -0.37389815 7 10 4402 4.29000000 1891614693 1891614693 -5.00000000
2.97398591 3.07535291 -0.22420724 6 12 4404 4.28400000 1891614697 1891614697 -3.00000000
7.06867743 7.30705786 2.34713936 46 13 4405 10.43400000 1891614700 1891614700 13.00000000
2.98286009 3.08237576 -0.07487082 8 14 4406 4.29000000 1891614702 1891614702 -1.00000000
6.13118315 6.33352232 2.36198258 24 15 4407 9.12600000 1891614704 1891614704 15.00000000
1.59964311 1.64839935 -0.61547166 5 0 4414 2.37800000 1891614725 1891614725 -15.00000000
2.99466252 3.08486056 0.07504535 18 1 4415 4.30000000 1891614727 1891614727 1.00000000
1.88573134 1.94185066 -0.62491405 3 2 4416 2.77800000 1891614730 1891614730 -13.00000000
3.00546575 3.09490848 0.22609133 15 3 4416 4.32000000 1891614732 1891614732 3.00000000
2.28725457 2.35450101 -0.63806528 2 4 4417 3.34400000 1891614734 1891614734 -11.00000000
3.01171231 3.09917545 0.37808162 16 5 4418 4.33800000 1891614737 1891614737 5.00000000
2.90667081 2.99003911 -0.66046631 9 6 4419 4.22200000 1891614739 1891614739 -9.00000000
3.01559901 3.10100842 0.53110659 1 7 4420 4.35800000 1891614741 1891614741 7.00000000
2.97876716 3.06206393 -0.52452564 16 8 4421 4.30400000 1891614744 1891614744 -7.00000000
2.99303222 3.07565379 -0.37546694 30 10 4422 4.30800000 1891614748 1891614748 -5.00000000
2.99166965 3.07210755 -0.22473060 20 12 4424 4.29400000 1891614753 1891614753 -3.00000000
3.02422237 3.10445118 1.00058234 16 13 4425 4.44800000 1891614755 1891614755 13.00000000
2.99918389 3.07767344 -0.07501044 17 14 4426 4.29800000 1891614757 1891614757 -1.00000000
3.02605772 3.10416651 1.16157985 8 15 4427 4.48800000 1891614760 1891614760 15.00000000
1.60645056 1.64446759 -0.61598933 4 0 4433 2.38000000 1891614780 1891614780 -15.00000000
3.00068283 3.07062244 0.07494064 7 1 4434 4.29400000 1891614783 1891614783 1.00000000
1.89760935 1.94116068 -0.62671363 3 2 4435 2.78600000 1891614785 1891614785 -13.00000000
2.99756217 3.06635809 0.22473060 10 3 4435 4.29400000 1891614787 1891614787 3.00000000
2.30054045 2.35251784 -0.63959175 4 4 4436 3.35200000 1891614790 1891614790 -11.00000000
3.01361322 3.08062577 0.37703574 13 5 4437 4.32600000 1891614792 1891614792 5.00000000
2.92071486 2.98461914 -0.66140491 9 6 4438 4.22800000 1891614794 1891614794 -9.00000000
2.97918248 3.04224110 -0.52281946 6 8 4440 4.29000000 1891614799 1891614799 -7.00000000
2.98787832 3.05005574 -0.37354952 7 10 4441 4.28600000 1891614803 1891614803 -5.00000000
2.99624825 3.05646491 -0.22431190 4 12 4443 4.28600000 1891614808 1891614808 -3.00000000
3.00448298 3.06379533 0.99068445 43 13 4444 4.40400000 1891614810 1891614810 13.00000000
1.60134292 1.62783253 -0.61184824 4 0 4453 2.36400000 1891614836 1891614836 -15.00000000
3.00857782 3.05727887 0.07487082 5 1 4454 4.29000000 1891614838 1891614838 1.00000000
1.91257632 1.94285750 -0.62941307 3 2 4455 2.79800000 1891614840 1891614840 -13.00000000
2.99984074 3.04733610 0.22410257 5 3 4455 4.28200000 1891614843 1891614843 3.00000000
2.30047321 2.33608007 -0.63730204 4 4 4456 3.34000000 1891614845 1891614845 -11.00000000
3.01316261 3.05873251 0.37564126 3 5 4457 4.31000000 1891614847 1891614847 5.00000000
2.93388844 2.97721982 -0.66203064 9 6 4458 4.23200000 1891614849 1891614849 -9.00000000
3.02966881 3.07334185 0.52988791 60 7 4459 4.34800000 1891614852 1891614852 7.00000000
2.99535918 3.03747702 -0.52379441 8 8 4460 4.29800000 1891614854 1891614854 -7.00000000
3.01814842 3.06058669 0.68080276 60 9 4460 4.35200000 1891614856 1891614856 9.00000000
2.99570823 3.03677082 -0.37320089 11 10 4461 4.28200000 1891614859 1891614859 -5.00000000
3.02413154 3.06451344 0.83688825 44 11 4462 4.38600000 1891614861 1891614861 11.00000000
2.99848008 3.03745914 -0.22368388 10 12 4463 4.27400000 1891614863 1891614863 -3.00000000
3.01515937 3.05328918 0.99068445 47 13 4464 4.40400000 1891614866 1891614866 13.00000000
2.99476719 3.03158045 -0.07438216 7 14 4465 4.26200000 1891614868 1891614868 -1.00000000
3.02674842 3.06288552 1.15381527 50 15 4466 4.45800000 1891614870 1891614870 15.00000000
1.60157704 1.61674309 -0.60977769 4 0 4473 2.35600000 1891614891 1891614891 -15.00000000
3.00374818 3.03113389 0.07448687 7 1 4474 4.26800000 1891614893 1891614893 1.00000000
1.92483425 1.94170535 -0.63121265 3 2 4475 2.80600000 1891614896 1891614896 -13.00000000
3.02224040 3.04766607 0.22493994 7 3 4476 4.29800000 1891614898 1891614898 3.00000000
2.31829023 2.33779383 -0.63997334 4 4 4476 3.35400000 1891614900 1891614900 -11.00000000
3.01540232 3.03970909 0.37459537 7 5 4477 4.29800000 1891614902 1891614902 5.00000000
2.94287157 2.96555829 -0.66171777 11 6 4478 4.23000000 1891614905 1891614905 -9.00000000
3.03058863 3.05288577 0.52818173 61 7 4479 4.33400000 1891614907 1891614907 7.00000000
2.99615240 3.01714277 -0.52208829 8 8 4480 4.28400000 1891614909 1891614909 -7.00000000
3.01767826 3.03881955 0.67829984 60 9 4480 4.33600000 1891614912 1891614912 9.00000000
2.98663235 3.00650644 -0.37076053 9 10 4481 4.25400000 1891614914 1891614914 -5.00000000
3.02789092 3.04697561 0.83498019 61 11 4482 4.37600000 1891614916 1891614916 11.00000000
3.00061607 3.01847529 -0.22305584 8 12 4483 4.26200000 1891614919 1891614919 -3.00000000
3.02579904 3.04274559 0.99068445 54 13 4484 4.40400000 1891614921 1891614921 13.00000000
2.99969006 3.01543760 -0.07424254 7 14 4485 4.25400000 1891614923 1891614923 -1.00000000
3.02326441 3.03913569 1.14863896 56 15 4485 4.43800000 1891614926 1891614926 15.00000000
1.61266816 1.61661351 -0.61184824 4 0 4493 2.36400000 1891614946 1891614946 -15.00000000
3.00159788 3.00789094 0.07417273 7 1 4494 4.25000000 1891614949 1891614949 1.00000000
1.91507924 1.91842461 -0.62581384 3 2 4495 2.78200000 1891614951 1891614951 -13.00000000
3.02015877 3.02437854 0.22399789 7 3 4496 4.28000000 1891614953 1891614953 3.00000000
2.31811309 2.32135201 -0.63768369 4 4 4496 3.34200000 1891614955 1891614955 -11.00000000
3.02177024 3.02493620 0.37407246 7 5 4497 4.29200000 1891614958 1891614958 5.00000000
2.94343114 2.94548678 -0.65952772 13 6 4498 4.21600000 1891614960 1891614960 -9.00000000
3.02438569 3.02544165 0.52525687 67 7 4499 4.31000000 1891614962 1891614962 7.00000000
2.99824381 2.99824381 -0.52062583 8 8 4500 4.27200000 1891614965 1891614965 -7.00000000
3.02879572 3.02773881 0.67829984 68 9 4501 4.33600000 1891614967 1891614967 9.00000000
2.99147248 2.99042845 -0.37006328 9 10 4501 4.24600000 1891614969 1891614969 -5.00000000
3.02045512 3.01834702 0.83001912 59 11 4502 4.35000000 1891614972 1891614972 11.00000000
3.00124311 2.99810195 -0.22232315 8 12 4503 4.24800000 1891614974 1891614974 -3.00000000
3.02674913 3.02252603 0.98753512 55 13 4504 4.39000000 1891614976 1891614976 13.00000000
3.00312138 2.99788451 -0.07406801 7 14 4505 4.24400000 1891614979 1891614979 -1.00000000
3.03028059 3.02394056 1.14708602 60 15 4506 4.43200000 1891614981 1891614981 15.00000000
1.62240875 1.61506319 -0.61340111 4 0 4513 2.37000000 1891615002 1891615002 -15.00000000
3.00357437 2.98893189 0.07396330 7 1 4514 4.23800000 1891615004 1891615004 1.00000000
1.92452717 1.91447675 -0.62671363 3 2 4515 2.78600000 1891615006 1891615006 -13.00000000
3.01653528 2.99973464 0.22295117 7 3 4516 4.26000000 1891615008 1891615008 3.00000000
2.32480979 2.31186175 -0.63730204 4 4 4516 3.34000000 1891615011 1891615011 -11.00000000
3.01818061 3.00032330 0.37232932 7 5 4517 4.27200000 1891615013 1891615013 5.00000000
2.95229363 2.93380189 -0.65921485 13 6 4518 4.21400000 1891615015 1891615015 -9.00000000
