# .PCD v0.7 - Point Cloud Data file format
VERSION 0.7
FIELDS x y z intensity laser_id azimuth distance_m adjustedtime timestamp vertical_angle
SIZE 4 4 4 1 1 2 8 8 4 8
TYPE F F F U U U F U U F
COUNT 1 1 1 1 1 1 1 1 1 1
WIDTH 535
HEIGHT 1
VIEWPOINT 0 0 0 1 0 0 0
POINTS 535
DATA ascii
2.55649042 7.77103853 -0.71572298 4 10 1821 8.21200000 1893107466 1893107466 -5.00000000
3.27669859 9.95442295 2.03707695 43 11 1822 10.67600000 1893107468 1893107468 11.00000000
3.49204683 10.60240841 -0.58501130 12 12 1823 11.17800000 1893107470 1893107470 -3.00000000
3.12356353 9.47806644 2.30394864 60 13 1824 10.24200000 1893107473 1893107473 13.00000000
3.50251675 10.62171650 -0.19522262 10 14 1825 11.18600000 1893107475 1893107475 -1.00000000
2.75994611 8.36980057 2.36146498 42 15 1825 9.12400000 1893107477 1893107477 15.00000000
0.71629804 2.16208720 -0.61029530 4 0 1833 2.35800000 1893107498 1893107498 -15.00000000
3.51668024 10.60860920 0.19508299 13 1 1834 11.17800000 1893107500 1893107500 1.00000000
0.84479511 2.54696655 -0.61951518 3 2 1835 2.75400000 1893107502 1893107502 -13.00000000
3.52053261 10.61402798 0.58605802 13 3 1835 11.19800000 1893107505 1893107505 3.00000000
1.01726580 3.06515670 -0.62776160 2 4 1836 3.29000000 1893107507 1893107507 -11.00000000
3.53071451 10.63230324 0.98015350 12 5 1837 11.24600000 1893107509 1893107509 5.00000000
1.28311515 3.86168647 -0.64450997 2 6 1838 4.12000000 1893107512 1893107512 -9.00000000
3.53400612 10.62980843 1.37541735 14 7 1839 11.28600000 1893107514 1893107514 7.00000000
3.51769018 10.57456684 -1.36834896 2 8 1840 11.22800000 1893107516 1893107516 -7.00000000
3.53724575 10.62716007 1.77396679 12 9 1841 11.34000000 1893107519 1893107519 9.00000000
2.58863473 7.77719069 -0.71711743 4 10 1841 8.22800000 1893107521 1893107521 -5.00000000
3.31018543 9.93919945 2.03631353 46 11 1842 10.67200000 1893107523 1893107523 11.00000000
3.52840352 10.58825874 -0.58490664 12 12 1843 11.17600000 1893107526 1893107526 -3.00000000
3.11471319 9.34139442 2.27335525 66 13 1844 10.10600000 1893107528 1893107528 13.00000000
3.53830647 10.60563183 -0.19515280 10 14 1845 11.18200000 1893107530 1893107530 -1.00000000
2.78914547 8.36011505 2.36146498 42 15 1845 9.12400000 1893107532 1893107532 15.00000000
0.72063369 2.15249848 -0.60822475 4 0 1851 2.35000000 1893107553 1893107553 -15.00000000
3.55697751 10.61836624 0.19546695 13 1 1852 11.20000000 1893107555 1893107555 1.00000000
0.85774690 2.55908155 -0.62311441 3 2 1853 2.77000000 1893107558 1893107558 -13.00000000
3.56396651 10.62691212 0.58741879 13 3 1854 11.22400000 1893107560 1893107560 3.00000000
1.02689028 3.06194568 -0.62776160 2 4 1854 3.29000000 1893107562 1893107562 -11.00000000
3.56346560 10.61926937 0.97997916 16 5 1855 11.24400000 1893107565 1893107565 5.00000000
1.30152822 3.87636280 -0.64763868 2 6 1856 4.14000000 1893107567 1893107567 -9.00000000
3.57244062 10.63370705 1.37736738 14 7 1857 11.30200000 1893107569 1893107569 7.00000000
3.56733894 10.61238575 -1.37468624 2 8 1858 11.28000000 1893107572 1893107572 -7.00000000
3.57442641 10.63346958 1.77678263 12 9 1858 11.35800000 1893107574 1893107574 9.00000000
2.60924363 7.75768948 -0.71607161 4 10 1859 8.21600000 1893107576 1893107576 -5.00000000
3.34389877 9.93619347 2.03784013 46 11 1860 10.68000000 1893107579 1893107579 11.00000000
3.57312274 10.61119270 -0.58679074 12 12 1861 11.21200000 1893107581 1893107581 -3.00000000
3.11417842 9.24291992 2.25176001 62 13 1862 10.01000000 1893107583 1893107583 13.00000000
3.57416272 10.60204315 -0.19529243 12 14 1863 11.19000000 1893107585 1893107585 -1.00000000
2.81685328 8.35082054 2.36146498 45 15 1864 9.12400000 1893107588 1893107588 15.00000000
0.72566414 2.14265084 -0.60615420 4 0 1871 2.34200000 1893107608 1893107608 -15.00000000
3.59466267 10.60777950 0.19550186 13 1 1872 11.20200000 1893107611 1893107611 1.00000000
0.87042910 2.56714511 -0.62581384 3 2 1873 2.78200000 1893107613 1893107613 -13.00000000
3.60367632 10.62827587 0.58815145 13 3 1873 11.23800000 1893107615 1893107615 3.00000000
1.04009509 3.06577921 -0.62928808 2 4 1874 3.29800000 1893107618 1893107618 -11.00000000
3.60371423 10.61619949 0.98085076 12 5 1875 11.25400000 1893107620 1893107620 5.00000000
1.31314540 3.86618471 -0.64670008 2 6 1876 4.13400000 1893107622 1893107622 -9.00000000
3.61592484 10.63996792 1.37980473 12 7 1877 11.32200000 1893107625 1893107625 7.00000000
3.60947394 10.61490440 -1.37663615 2 8 1878 11.29600000 1893107627 1893107627 -7.00000000
3.61973858 10.63899899 1.77991140 12 9 1879 11.37800000 1893107629 1893107629 9.00000000
2.63566542 7.74664783 -0.71589726 4 10 1879 8.21400000 1893107632 1893107632 -5.00000000
3.37729669 9.92074394 2.03707695 43 11 1880 10.67600000 1893107634 1893107634 11.00000000
3.61014104 10.59865570 -0.58679074 12 12 1881 11.21200000 1893107636 1893107636 -3.00000000
3.10493207 9.11025238 2.22206640 32 13 1882 9.87800000 1893107638 1893107638 13.00000000
3.61631250 10.60464382 -0.19557166 10 14 1883 11.20600000 1893107641 1893107641 -1.00000000
2.84598589 8.34093666 2.36146498 45 15 1884 9.12400000 1893107643 1893107643 15.00000000
0.73564327 2.14741516 -0.60822475 4 0 1891 2.35000000 1893107664 1893107664 -15.00000000
3.63231730 10.59705830 0.19553676 13 1 1892 11.20400000 1893107666 1893107666 1.00000000
0.87559164 2.55303097 -0.62311441 3 2 1893 2.77000000 1893107668 1893107668 -13.00000000
3.64593744 10.63074493 0.58898884 13 3 1893 11.25400000 1893107671 1893107671 3.00000000
1.03932023 3.02870464 -0.62241894 2 4 1894 3.26200000 1893107673 1893107673 -11.00000000
3.64592576 10.61863041 0.98224521 12 5 1895 11.27000000 1893107675 1893107675 5.00000000
1.32214022 3.84850001 -0.64450997 4 6 1896 4.12000000 1893107678 1893107678 -9.00000000
3.65562439 10.63479042 1.38077962 12 7 1897 11.33000000 1893107680 1893107680 7.00000000
3.64908743 10.60974884 -1.37761104 2 8 1898 11.30400000 1893107682 1893107682 -7.00000000
3.65756869 10.63440895 1.78116286 12 9 1898 11.38600000 1893107685 1893107685 9.00000000
2.66204190 7.73551655 -0.71572298 4 10 1899 8.21200000 1893107687 1893107687 -5.00000000
3.40807104 9.89775658 2.03478718 46 11 1900 10.66400000 1893107689 1893107689 11.00000000
3.64711523 10.58598900 -0.58679074 12 12 1901 11.21200000 1893107691 1893107691 -3.00000000
3.10305405 9.00171471 2.19822168 48 13 1902 9.77200000 1893107694 1893107694 13.00000000
3.65852380 10.60707951 -0.19585091 10 14 1903 11.22200000 1893107696 1893107696 -1.00000000
2.87256289 8.32364655 2.35939431 13 15 1904 9.11600000 1893107698 1893107698 15.00000000
0.74439961 2.14848495 -0.60926002 4 0 1911 2.35400000 1893107719 1893107719 -15.00000000
3.67387080 10.59754086 0.19578110 13 1 1912 11.21800000 1893107721 1893107721 1.00000000
0.88194352 2.54259467 -0.62131482 3 2 1913 2.76200000 1893107724 1893107724 -13.00000000
3.68564153 10.62550163 0.58940756 13 3 1913 11.26200000 1893107726 1893107726 3.00000000
1.06533504 3.06957173 -0.63157779 2 4 1914 3.31000000 1893107728 1893107728 -11.00000000
3.69015884 10.62654305 0.98416263 12 5 1915 11.29200000 1893107731 1893107731 5.00000000
1.33751094 3.84945917 -0.64544863 4 6 1916 4.12600000 1893107733 1893107733 -9.00000000
3.69142079 10.61821461 1.38029218 12 7 1917 11.32600000 1893107735 1893107735 7.00000000
3.69001317 10.60819530 -1.37907350 2 8 1918 11.31600000 1893107738 1893107738 -7.00000000
3.70050836 10.63836765 1.78397858 12 9 1918 11.40400000 1893107740 1893107740 9.00000000
2.69754148 7.75063896 -0.71798903 4 10 1919 8.23800000 1893107742 1893107742 -5.00000000
3.44389105 9.88950825 2.03555036 46 11 1920 10.66800000 1893107744 1893107744 11.00000000
3.68930221 10.58828259 -0.58762813 12 12 1921 11.22800000 1893107747 1893107747 -3.00000000
3.10302258 8.90066147 2.17617655 59 13 1922 9.67400000 1893107749 1893107749 13.00000000
3.70211339 10.61312485 -0.19619995 10 14 1923 11.24200000 1893107751 1893107751 -1.00000000
2.40441966 6.88906336 1.95511901 9 15 1924 7.55400000 1893107754 1893107754 15.00000000
0.75189465 2.14587331 -0.60926002 4 0 1931 2.35400000 1893107774 1893107774 -15.00000000
3.71348715 10.59220028 0.19592072 13 1 1932 11.22600000 1893107777 1893107777 1.00000000
0.88823330 2.53214502 -0.61951518 3 2 1933 2.75400000 1893107779 1893107779 -13.00000000
3.72270918 10.61257172 0.58940756 13 3 1933 11.26200000 1893107781 1893107781 3.00000000
1.06824124 3.04360461 -0.62699836 2 4 1934 3.28600000 1893107784 1893107784 -11.00000000
3.73185110 10.62675571 0.98538285 12 5 1935 11.30600000 1893107786 1893107786 5.00000000
1.35290444 3.85035801 -0.64638722 2 6 1936 4.13200000 1893107788 1893107788 -9.00000000
3.73504663 10.62399197 1.38272953 12 7 1937 11.34600000 1893107790 1893107790 7.00000000
3.72240901 10.58214188 -1.37736738 2 8 1938 11.30200000 1893107793 1893107793 -7.00000000
3.73827624 10.62724972 1.78429151 12 9 1938 11.40600000 1893107795 1893107795 9.00000000
2.72656417 7.74681377 -0.71851194 4 10 1939 8.24400000 1893107797 1893107797 -5.00000000
3.47969532 9.88113022 2.03631353 46 11 1940 10.67200000 1893107800 1893107800 11.00000000
3.73022223 10.58664227 -0.58825612 12 12 1941 11.24000000 1893107802 1893107802 -3.00000000
3.10102797 8.79604435 2.15323138 49 13 1942 9.57200000 1893107804 1893107804 13.00000000
3.73780704 10.59636593 -0.19613014 10 14 1943 11.23800000 1893107807 1893107807 -1.00000000
2.43753362 6.91020107 1.96340132 9 15 1943 7.58600000 1893107809 1893107809 15.00000000
0.75938058 2.14323568 -0.60926002 4 0 1951 2.35400000 1893107830 1893107830 -15.00000000
3.76179695 10.61121368 0.19651410 13 1 1952 11.26000000 1893107832 1893107832 1.00000000
0.90097547 2.54004884 -0.62221462 3 2 1953 2.76600000 1893107834 1893107834 -13.00000000
3.76373744 10.61080647 0.59003556 13 3 1953 11.27400000 1893107837 1893107837 3.00000000
1.07360578 3.02505589 -0.62394542 2 4 1954 3.27000000 1893107839 1893107839 -11.00000000
3.77025604 10.61742020 0.98573142 12 5 1955 11.31000000 1893107841 1893107841 5.00000000
1.36765909 3.84933496 -0.64701295 4 6 1956 4.13600000 1893107843 1893107843 -9.00000000
3.78008771 10.63333416 1.38565445 10 7 1957 11.37000000 1893107846 1893107846 7.00000000
3.76930380 10.59713840 -1.38102341 2 8 1958 11.33200000 1893107848 1893107848 -7.00000000
3.77799749 10.62158012 1.78554296 12 9 1958 11.41400000 1893107850 1893107850 9.00000000
2.74757671 7.72035551 -0.71694314 8 10 1959 8.22600000 1893107853 1893107853 -5.00000000
3.51943421 9.88371944 2.03936648 50 11 1960 10.68800000 1893107855 1893107855 11.00000000
3.77184606 10.58672714 -0.58898884 12 12 1961 11.25400000 1893107857 1893107857 -3.00000000
3.77611613 10.58702087 -0.19619995 10 14 1963 11.24200000 1893107862 1893107862 -1.00000000
2.46284437 6.90122080 1.96340132 6 15 1964 7.58600000 1893107864 1893107864 15.00000000
0.76387876 2.13343072 -0.60718948 4 0 1970 2.34600000 1893107885 1893107885 -15.00000000
3.79561543 10.59491634 0.19644429 13 1 1971 11.25600000 1893107887 1893107887 1.00000000
0.90939367 2.53704715 -0.62221462 3 2 1972 2.76600000 1893107890 1893107890 -13.00000000
3.80682135 10.61452389 0.59097761 10 3 1973 11.29200000 1893107892 1893107892 3.00000000
1.08893347 3.03626299 -0.62699836 2 4 1973 3.28600000 1893107894 1893107894 -11.00000000
3.80813575 10.61236000 0.98642868 12 5 1974 11.31800000 1893107896 1893107896 5.00000000
1.38308656 3.85221505 -0.64826441 4 6 1975 4.14400000 1893107899 1893107899 -9.00000000
3.82069731 10.63568592 1.38760436 12 7 1976 11.38600000 1893107901 1893107901 7.00000000
3.80711007 10.59205341 -1.38199830 2 8 1977 11.34000000 1893107903 1893107903 -7.00000000
3.81988072 10.62758350 1.78867173 12 9 1977 11.43400000 1893107906 1893107906 9.00000000
2.77586031 7.71870136 -0.71764040 8 10 1978 8.23400000 1893107908 1893107908 -5.00000000
3.54820228 9.86091042 2.03707695 43 11 1979 10.67600000 1893107910 1893107910 11.00000000
3.80896187 10.57979870 -0.58930284 12 12 1980 11.26000000 1893107913 1893107913 -3.00000000
3.00760818 8.34938049 2.04885411 8 13 1981 9.10800000 1893107915 1893107915 13.00000000
3.81933951 10.59701538 -0.19661881 10 14 1982 11.26600000 1893107917 1893107917 -1.00000000
2.48909831 6.90617132 1.96702468 9 15 1982 7.60000000 1893107920 1893107920 15.00000000
0.77395141 2.13801718 -0.60926002 4 0 1990 2.35400000 1893107940 1893107940 -15.00000000
3.83666158 10.59288311 0.19665371 13 1 1991 11.26800000 1893107943 1893107943 1.00000000
0.91824406 2.53385735 -0.62221462 3 2 1992 2.76600000 1893107945 1893107945 -13.00000000
3.85201931 10.62370300 0.59223366 10 3 1993 11.31600000 1893107947 1893107947 3.00000000
1.09952533 3.03244352 -0.62699836 2 4 1993 3.28600000 1893107949 1893107949 -11.00000000
3.84923339 10.61023998 0.98747456 12 5 1994 11.33000000 1893107952 1893107952 5.00000000
1.38843691 3.82508159 -0.64450997 4 6 1995 4.12000000 1893107954 1893107954 -9.00000000
3.86186528 10.63348007 1.38906682 12 7 1996 11.39800000 1893107956 1893107956 7.00000000
1.87660646 5.16434574 -0.67466867 2 8 1997 5.53600000 1893107959 1893107959 -7.00000000
3.86488175 10.63021946 1.79148746 12 9 1998 11.45200000 1893107961 1893107961 9.00000000
2.80006361 7.70147467 -0.71694314 4 10 1998 8.22600000 1893107963 1893107963 -5.00000000
3.57723236 9.83370495 2.03402400 46 11 1999 10.66000000 1893107966 1893107966 11.00000000
3.84996748 10.57769871 -0.58993089 12 12 2000 11.27200000 1893107968 1893107968 -3.00000000
3.05673933 8.39376450 2.06235123 9 13 2001 9.16800000 1893107970 1893107970 13.00000000
3.85904503 10.59113503 -0.19675843 10 14 2002 11.27400000 1893107973 1893107973 -1.00000000
2.51373219 6.89518690 1.96650708 15 15 2003 7.59800000 1893107975 1893107975 15.00000000
0.78406537 2.14255929 -0.61133057 4 0 2010 2.36200000 1893107996 1893107996 -15.00000000
3.87567687 10.58506012 0.19675843 13 1 2011 11.27400000 1893107998 1893107998 1.00000000
0.92507225 2.52514720 -0.62086493 3 2 2012 2.76000000 1893108000 1893108000 -13.00000000
3.89045429 10.61394215 0.59244305 10 3 2013 11.32000000 1893108002 1893108002 3.00000000
1.11415780 3.03964686 -0.62928808 2 4 2013 3.29800000 1893108005 1893108005 -11.00000000
3.89310670 10.61544514 0.98921770 12 5 2014 11.35000000 1893108007 1893108007 5.00000000
1.40450239 3.82762980 -0.64576149 4 6 2015 4.12800000 1893108009 1893108009 -9.00000000
3.90169621 10.62738895 1.39004171 10 7 2016 11.40600000 1893108012 1893108012 7.00000000
1.89872873 5.16894388 -0.67613113 2 8 2017 5.54800000 1893108014 1893108014 -7.00000000
3.90556049 10.63217831 1.79399049 12 9 2017 11.46800000 1893108016 1893108016 9.00000000
2.83242822 7.70661449 -0.71833766 4 10 2018 8.24200000 1893108019 1893108019 -5.00000000
3.61153674 9.82115841 2.03402400 46 11 2019 10.66000000 1893108021 1893108021 11.00000000
3.88824654 10.56794453 -0.59014022 12 12 2020 11.27600000 1893108023 1893108023 -3.00000000
3.90428519 10.60011673 -0.19717729 10 14 2022 11.29800000 1893108028 1893108028 -1.00000000
2.54192519 6.90131569 1.97064817 18 15 2022 7.61400000 1893108030 1893108030 15.00000000
0.79288000 2.14343309 -0.61236584 4 0 2030 2.36600000 1893108051 1893108051 -15.00000000
3.91884875 10.58834457 0.19707258 13 1 2031 11.29200000 1893108053 1893108053 1.00000000
0.93726462 2.53103995 -0.62311441 3 2 2032 2.77000000 1893108055 1893108055 -13.00000000
3.92817402 10.60217094 0.59254771 10 3 2033 11.32200000 1893108058 1893108058 3.00000000
1.12476134 3.03573918 -0.62928808 2 4 2033 3.29800000 1893108060 1893108060 -11.00000000
3.93429303 10.61299992 0.99026352 12 5 2034 11.36200000 1893108062 1893108062 5.00000000
1.42060244 3.83011222 -0.64701295 4 6 2035 4.13600000 1893108065 1893108065 -9.00000000
3.94291282 10.62487125 1.39150417 12 7 2036 11.41800000 1893108067 1893108067 7.00000000
1.90985048 5.14367485 -0.67369372 2 8 2037 5.52800000 1893108069 1893108069 -7.00000000
3.94656706 10.62334728 1.79492903 12 9 2038 11.47400000 1893108072 1893108072 9.00000000
2.86625028 7.71535730 -0.72008073 8 10 2038 8.26200000 1893108074 1893108074 -5.00000000
3.64990091 9.81953335 2.03631353 46 11 2039 10.67200000 1893108076 1893108076 11.00000000
3.93068123 10.56928349 -0.59097761 12 12 2040 11.29200000 1893108078 1893108078 -3.00000000
3.12409878 8.39596272 2.06820011 55 13 2041 9.19400000 1893108081 1893108081 13.00000000
3.94475126 10.59579372 -0.19735181 12 14 2042 11.30800000 1893108083 1893108083 -1.00000000
2.56990004 6.89919424 1.97271872 18 15 2043 7.62200000 1893108085 1893108085 15.00000000
0.79592609 2.12993431 -0.60926002 4 0 2049 2.35400000 1893108106 1893108106 -15.00000000
3.96584463 10.60713387 0.19766596 13 1 2050 11.32600000 1893108108 1893108108 1.00000000
0.94974941 2.53886914 -0.62581384 3 2 2051 2.78200000 1893108111 1893108111 -13.00000000
3.97171187 10.61153221 0.59380376 10 3 2052 11.34600000 1893108113 1893108113 3.00000000
1.12794018 3.01360583 -0.62547189 2 4 2052 3.27800000 1893108115 1893108115 -11.00000000
3.97226024 10.60735798 0.99096078 12 5 2053 11.37000000 1893108118 1893108118 5.00000000
1.43606806 3.83277941 -0.64826441 4 6 2054 4.14400000 1893108120 1893108120 -9.00000000
3.98369884 10.62660694 1.39345407 12 7 2055 11.43400000 1893108122 1893108122 7.00000000
1.93247414 5.15218258 -0.67564362 2 8 2056 5.54400000 1893108125 1893108125 -7.00000000
3.98200297 10.61644554 1.79586768 12 9 2056 11.48000000 1893108127 1893108127 9.00000000
2.88131928 7.67782974 -0.71746606 4 10 2057 8.23200000 1893108129 1893108129 -5.00000000
3.68382382 9.81105137 2.03707695 46 11 2058 10.67600000 1893108131 1893108131 11.00000000
3.97554231 10.58236599 -0.59244305 12 12 2059 11.32000000 1893108134 1893108134 -3.00000000
3.15398049 8.39102936 2.06954980 60 13 2060 9.20000000 1893108136 1893108136 13.00000000
3.97986650 10.58265495 -0.19735181 12 14 2061 11.30800000 1893108138 1893108138 -1.00000000
2.59360194 6.89651108 1.97427166 18 15 2061 7.62800000 1893108141 1893108141 15.00000000
0.80199105 2.12352848 -0.60822475 4 0 2069 2.35000000 1893108161 1893108161 -15.00000000
4.00355339 10.59509563 0.19770086 10 1 2070 11.32800000 1893108164 1893108164 1.00000000
0.95447105 2.52460170 -0.62311441 3 2 2071 2.77000000 1893108166 1893108166 -13.00000000
4.01155519 10.60507584 0.59422243 10 3 2072 11.35400000 1893108168 1893108168 3.00000000
1.14539874 3.02801299 -0.62928808 2 4 2072 3.29800000 1893108171 1893108171 -11.00000000
4.00503111 10.58224678 0.98991495 12 5 2073 11.35800000 1893108173 1893108173 5.00000000
1.44524109 3.81665897 -0.64638722 4 6 2074 4.13200000 1893108175 1893108175 -9.00000000
4.03131819 10.64048195 1.39711010 8 7 2075 11.46400000 1893108178 1893108178 7.00000000
1.94481778 5.13055611 -0.67369372 4 8 2076 5.52800000 1893108180 1893108180 -7.00000000
4.02789259 10.62024975 1.79899633 12 9 2077 11.50000000 1893108182 1893108182 9.00000000
2.91446114 7.68449116 -0.71903485 4 10 2077 8.25000000 1893108184 1893108184 -5.00000000
3.71665525 9.79446220 2.03631353 46 11 2078 10.67200000 1893108187 1893108187 11.00000000
3.18048334 8.37268162 2.06774998 60 13 2080 9.19200000 1893108191 1893108191 13.00000000
2.61817479 6.88515282 1.97375405 20 15 2082 7.62600000 1893108196 1893108196 15.00000000
0.81008750 2.12252092 -0.60874242 4 0 2089 2.35200000 1893108217 1893108217 -15.00000000
0.96605974 2.52853608 -0.62491405 3 2 2091 2.77800000 1893108221 1893108221 -13.00000000
1.15455949 3.02032852 -0.62852484 2 4 2092 3.29400000 1893108226 1893108226 -11.00000000
1.45502496 3.80236626 -0.64482284 4 6 2094 4.12200000 1893108231 1893108231 -9.00000000
1.97123611 5.14598083 -0.67661858 2 8 2096 5.55200000 1893108235 1893108235 -7.00000000
2.94126725 7.67427111 -0.71903485 4 10 2097 8.25000000 1893108240 1893108240 -5.00000000
3.74800992 9.77409649 2.03478718 43 11 2098 10.66400000 1893108242 1893108242 11.00000000
3.21248364 8.36880589 2.06954980 57 13 2100 9.20000000 1893108247 1893108247 13.00000000
2.64791870 6.89446735 1.97893047 20 15 2101 7.64600000 1893108251 1893108251 15.00000000
0.81818664 2.12148261 -0.60926002 4 0 2109 2.35400000 1893108272 1893108272 -15.00000000
0.97137082 2.51605868 -0.62266451 3 2 2111 2.76800000 1893108277 1893108277 -13.00000000
1.16651022 3.01994276 -0.62928808 4 4 2112 3.29800000 1893108281 1893108281 -11.00000000
1.47470057 3.81384611 -0.64763868 2 6 2114 4.14000000 1893108286 1893108286 -9.00000000
1.99778581 5.16128349 -0.67954344 2 8 2116 5.57600000 1893108290 1893108290 -7.00000000
2.95796418 7.63794613 -0.71659452 4 10 2117 8.22200000 1893108295 1893108295 -5.00000000
3.77926779 9.75363159 2.03326058 43 11 2118 10.65600000 1893108297 1893108297 11.00000000
3.23603892 8.34300613 2.06595039 60 13 2120 9.18400000 1893108302 1893108302 13.00000000
2.67736578 6.89552069 1.98203623 18 15 2122 7.65800000 1893108307 1893108307 15.00000000
0.82736027 2.12206936 -0.61029530 4 0 2130 2.35800000 1893108327 1893108327 -15.00000000
0.97846055 2.50703549 -0.62131482 3 2 2132 2.76200000 1893108332 1893108332 -13.00000000
1.17614281 3.01198959 -0.62852484 2 4 2133 3.29400000 1893108337 1893108337 -11.00000000
1.48363495 3.79553676 -0.64544863 2 6 2135 4.12600000 1893108341 1893108341 -9.00000000
2.00222254 5.11695433 -0.67466867 2 8 2137 5.53600000 1893108346 1893108346 -7.00000000
3.00264430 7.66972494 -0.72060370 4 10 2138 8.26800000 1893108350 1893108350 -5.00000000
3.81785536 9.74702644 2.03478718 43 11 2139 10.66400000 1893108353 1893108353 11.00000000
3.26517320 8.32746124 2.06505060 59 13 2141 9.18000000 1893108357 1893108357 13.00000000
2.70565248 6.89692354 1.98514211 15 15 2142 7.67000000 1893108362 1893108362 15.00000000
0.83617872 2.12276340 -0.61133057 4 0 2150 2.36200000 1893108383 1893108383 -15.00000000
0.99363941 2.51992083 -0.62536395 3 2 2152 2.78000000 1893108387 1893108387 -13.00000000
1.18376744 3.00056052 -0.62699836 4 4 2153 3.28600000 1893108392 1893108392 -11.00000000
1.50485623 3.81054497 -0.64889014 4 6 2155 4.14800000 1893108396 1893108396 -9.00000000
2.01861215 5.10624218 -0.67418122 2 8 2157 5.53200000 1893108401 1893108401 -7.00000000
3.03086400 7.66290236 -0.72095233 4 10 2158 8.27200000 1893108406 1893108406 -5.00000000
3.85474515 9.74094200 2.03631353 46 11 2159 10.67200000 1893108408 1893108408 11.00000000
3.29565692 8.31963634 2.06595039 60 13 2161 9.18400000 1893108413 1893108413 13.00000000
2.72899890 6.88564110 1.98462439 15 15 2162 7.66800000 1893108417 1893108417 15.00000000
0.83892953 2.10920835 -0.60822475 4 0 2169 2.35000000 1893108438 1893108438 -15.00000000
1.00126946 2.51480126 -0.62491405 3 2 2171 2.77800000 1893108443 1893108443 -13.00000000
1.19516432 3.00026631 -0.62776160 2 4 2172 3.29000000 1893108447 1893108447 -11.00000000
1.51455748 3.79819417 -0.64763868 2 6 2174 4.14000000 1893108452 1893108452 -9.00000000
2.04583669 5.12533092 -0.67759353 2 8 2176 5.56000000 1893108456 1893108456 -7.00000000
3.04591322 7.62690544 -0.71851194 4 10 2177 8.24400000 1893108461 1893108461 -5.00000000
3.88119864 9.71352100 2.03326058 43 11 2178 10.65600000 1893108463 1893108463 11.00000000
3.32756996 8.31951809 2.06865001 59 13 2180 9.19600000 1893108468 1893108468 13.00000000
2.75612402 6.88731527 1.98773026 11 15 2181 7.68000000 1893108472 1893108472 15.00000000
0.84772742 2.10985231 -0.60926002 4 0 2189 2.35400000 1893108493 1893108493 -15.00000000
1.00276995 2.49321103 -0.62041503 3 2 2191 2.75800000 1893108498 1893108498 -13.00000000
1.20856154 3.00336146 -0.62928808 2 4 2192 3.29800000 1893108502 1893108502 -11.00000000
1.53149676 3.80204582 -0.64920300 4 6 2194 4.15000000 1893108507 1893108507 -9.00000000
2.06223035 5.11447668 -0.67710608 2 8 2196 5.55600000 1893108512 1893108512 -7.00000000
3.07400846 7.61992216 -0.71886057 4 10 2197 8.24800000 1893108516 1893108516 -5.00000000
3.91214228 9.69263172 2.03173423 46 11 2198 10.64800000 1893108519 1893108519 11.00000000
3.35805011 8.31146622 2.06954980 60 13 2200 9.20000000 1893108523 1893108523 13.00000000
2.78424597 6.88433075 1.98980081 9 15 2202 7.68800000 1893108528 1893108528 15.00000000
0.85654002 2.11046028 -0.61029530 4 0 2209 2.35800000 1893108549 1893108549 -15.00000000
1.01293373 2.49330640 -0.62131482 3 2 2211 2.76200000 1893108553 1893108553 -13.00000000
1.22495186 3.01367450 -0.63234103 4 4 2212 3.31400000 1893108558 1893108558 -11.00000000
1.54773688 3.80399561 -0.65045452 2 6 2214 4.15800000 1893108562 1893108562 -9.00000000
2.07632685 5.09805441 -0.67588741 2 8 2216 5.54600000 1893108567 1893108567 -7.00000000
3.10735464 7.62575150 -0.72042936 4 10 2217 8.26600000 1893108572 1893108572 -5.00000000
3.94743419 9.68255234 2.03249741 46 11 2218 10.65200000 1893108574 1893108574 11.00000000
3.38041520 8.28345490 2.06550050 62 13 2220 9.18200000 1893108578 1893108578 13.00000000
3.04000783 7.44559717 2.15492725 27 15 2221 8.32600000 1893108583 1893108583 15.00000000
0.86390167 2.10745764 -0.61029530 4 0 2229 2.35800000 1893108604 1893108604 -15.00000000
1.02458990 2.49696684 -0.62311441 3 2 2231 2.77000000 1893108608 1893108608 -13.00000000
1.22502565 2.98395395 -0.62699836 2 4 2232 3.28600000 1893108613 1893108613 -11.00000000
1.55650079 3.78760719 -0.64857727 2 6 2234 4.14600000 1893108618 1893108618 -9.00000000
2.09562016 5.09444714 -0.67637485 2 8 2236 5.55000000 1893108622 1893108622 -7.00000000
3.13926244 7.62775564 -0.72164953 4 10 2237 8.28000000 1893108627 1893108627 -5.00000000
3.98270369 9.67234516 2.03326058 43 11 2238 10.65600000 1893108629 1893108629 11.00000000
3.40633893 8.26439762 2.06370091 57 13 2240 9.17400000 1893108634 1893108634 13.00000000
3.06892538 7.44208384 2.15699792 27 15 2241 8.33400000 1893108638 1893108638 15.00000000
0.87088549 2.10458112 -0.61029530 4 0 2248 2.35800000 1893108659 1893108659 -15.00000000
1.03137302 2.48995471 -0.62221462 3 2 2250 2.76600000 1893108664 1893108664 -13.00000000
1.24092710 2.99438453 -0.63005131 4 4 2251 3.30200000 1893108668 1893108668 -11.00000000
1.57132316 3.78789878 -0.64951593 2 6 2253 4.15200000 1893108673 1893108673 -9.00000000
2.11935377 5.10397005 -0.67856848 2 8 2255 5.56800000 1893108677 1893108677 -7.00000000
3.15230966 7.58786440 -0.71886057 4 10 2256 8.24800000 1893108682 1893108682 -5.00000000
4.01626348 9.66271019 2.03402400 43 11 2257 10.66000000 1893108684 1893108684 11.00000000
3.43522310 8.25665474 2.06460071 60 13 2259 9.17800000 1893108689 1893108689 13.00000000
2.97257590 7.14115477 2.07262301 6 15 2260 8.00800000 1893108694 1893108694 15.00000000
0.87226743 2.08726859 -0.60615420 4 0 2268 2.34200000 1893108714 1893108714 -15.00000000
1.04457045 2.49712610 -0.62491405 3 2 2270 2.77800000 1893108719 1893108719 -13.00000000
1.25137186 2.99003482 -0.63005131 4 4 2271 3.30200000 1893108724 1893108724 -11.00000000
1.58758891 3.78967857 -0.65076739 2 6 2273 4.16000000 1893108728 1893108728 -9.00000000
2.13024807 5.08006477 -0.67637485 2 8 2275 5.55000000 1893108733 1893108733 -7.00000000
3.18494344 7.59151268 -0.72025508 4 10 2276 8.26400000 1893108737 1893108737 -5.00000000
3.46704268 8.25179958 2.06640029 60 13 2279 9.18600000 1893108744 1893108744 13.00000000
3.01670384 7.17295027 2.08504629 11 15 2281 8.05600000 1893108749 1893108749 15.00000000
0.88405472 2.09489036 -0.60926002 4 0 2288 2.35400000 1893108770 1893108770 -15.00000000
1.05176413 2.48987436 -0.62401420 3 2 2290 2.77400000 1893108774 1893108774 -13.00000000
1.25874436 2.97841477 -0.62852484 4 4 2291 3.29400000 1893108779 1893108779 -11.00000000
1.59465075 3.76955938 -0.64826441 2 6 2293 4.14400000 1893108783 1893108783 -9.00000000
2.15106392 5.07990980 -0.67734981 2 8 2295 5.55800000 1893108788 1893108788 -7.00000000
3.20909190 7.57484531 -0.71973211 4 10 2296 8.25800000 1893108793 1893108793 -5.00000000
3.49734783 8.24323559 2.06730008 59 13 2299 9.19000000 1893108800 1893108800 13.00000000
3.03745437 7.15579414 2.08297563 9 15 2300 8.04800000 1893108804 1893108804 15.00000000
0.89439112 2.09890056 -0.61133057 4 0 2308 2.36200000 1893108825 1893108825 -15.00000000
1.05891991 2.48260283 -0.62311441 3 2 2310 2.77000000 1893108829 1893108829 -13.00000000
1.27067447 2.97761440 -0.62928808 4 4 2311 3.29800000 1893108834 1893108834 -11.00000000
1.61555886 3.78213596 -0.65139312 2 6 2313 4.16400000 1893108839 1893108839 -9.00000000
2.17112422 5.07784605 -0.67808104 2 8 2315 5.56400000 1893108843 1893108843 -7.00000000
3.23159528 7.55443811 -0.71886057 4 10 2316 8.24800000 1893108848 1893108848 -5.00000000
4.47024488 10.44496346 2.20842338 59 11 2317 11.57400000 1893108850 1893108850 11.00000000
3.51996183 8.21664715 2.06370091 57 13 2319 9.17400000 1893108855 1893108855 13.00000000
3.06089211 7.14159632 2.08194041 24 15 2320 8.04400000 1893108859 1893108859 15.00000000
0.90250641 2.09963012 -0.61236584 4 0 2326 2.36600000 1893108880 1893108880 -15.00000000
1.06825435 2.48284411 -0.62401420 3 2 2328 2.77400000 1893108885 1893108885 -13.00000000
1.28002262 2.97360778 -0.62928808 4 4 2329 3.29800000 1893108889 1893108889 -11.00000000
1.63055944 3.78429842 -0.65264457 2 6 2331 4.17200000 1893108894 1893108894 -9.00000000
2.18549371 5.06735468 -0.67759353 2 8 2333 5.56000000 1893108899 1893108899 -7.00000000
3.26636338 7.56985950 -0.72130090 4 10 2334 8.27600000 1893108903 1893108903 -5.00000000
4.51393032 10.45610237 2.21376586 59 11 2335 11.60200000 1893108906 1893108906 11.00000000
3.54266572 8.19839191 2.06190133 62 13 2337 9.16600000 1893108910 1893108910 13.00000000
3.08609152 7.13495302 2.08297563 40 15 2339 8.04800000 1893108915 1893108915 15.00000000
0.90521544 2.08583403 -0.60926002 4 0 2346 2.35400000 1893108935 1893108935 -15.00000000
1.07380879 2.47195053 -0.62221462 3 2 2348 2.76600000 1893108940 1893108940 -13.00000000
1.28726447 2.96191931 -0.62776160 4 4 2349 3.29000000 1893108945 1893108945 -11.00000000
1.63430321 3.75684690 -0.64889014 2 6 2351 4.14800000 1893108949 1893108949 -9.00000000
2.20158386 5.05605507 -0.67710608 2 8 2353 5.55600000 1893108954 1893108954 -7.00000000
3.29356289 7.56023836 -0.72147524 4 10 2354 8.27800000 1893108959 1893108959 -5.00000000
4.55667686 10.45468044 2.21681881 56 11 2355 11.61800000 1893108961 1893108961 11.00000000
3.57126188 8.18597603 2.06190133 59 13 2357 9.16600000 1893108965 1893108965 13.00000000
3.11020517 7.12236691 2.08245802 40 15 2359 8.04600000 1893108970 1893108970 15.00000000
0.91249084 2.08266139 -0.60926002 4 0 2366 2.35400000 1893108991 1893108991 -15.00000000
1.08869231 2.48246455 -0.62581384 3 2 2368 2.78200000 1893108995 1893108995 -13.00000000
1.30232859 2.96819472 -0.63005131 4 4 2369 3.30200000 1893109000 1893109000 -11.00000000
1.64899576 3.75473642 -0.64951593 2 6 2371 4.15200000 1893109005 1893109005 -9.00000000
2.22161603 5.05379105 -0.67783731 2 8 2373 5.56200000 1893109009 1893109009 -7.00000000
3.32554770 7.56146193 -0.72269541 4 10 2374 8.29200000 1893109014 1893109014 -5.00000000
4.59946823 10.45308685 2.21987176 53 11 2375 11.63400000 1893109016 1893109016 11.00000000
3.60295653 8.18059444 2.06370091 60 13 2377 9.17400000 1893109021 1893109021 13.00000000
3.13115168 7.10262823 2.07986975 40 15 2379 8.03600000 1893109025 1893109025 15.00000000
0.91975510 2.07946348 -0.60926002 4 0 2386 2.35400000 1893109046 1893109046 -15.00000000
1.09261775 2.46795750 -0.62311441 3 2 2388 2.77000000 1893109051 1893109051 -13.00000000
1.31109142 2.96004057 -0.62928808 4 4 2389 3.29800000 1893109055 1893109055 -11.00000000
1.65568721 3.73451066 -0.64701295 2 6 2391 4.13600000 1893109060 1893109060 -9.00000000
2.23682785 5.04056215 -0.67710608 2 8 2393 5.55600000 1893109065 1893109065 -7.00000000
3.35192204 7.54980755 -0.72269541 4 10 2394 8.29200000 1893109069 1893109069 -5.00000000
4.63911629 10.44414425 2.22139835 56 11 2395 11.64200000 1893109071 1893109071 11.00000000
3.63307357 8.17152882 2.06460071 60 13 2397 9.17800000 1893109076 1893109076 13.00000000
3.15749621 7.09518528 2.08090520 42 15 2399 8.04000000 1893109081 1893109081 15.00000000
0.92979503 2.08345866 -0.61133057 4 0 2405 2.36200000 1893109101 1893109101 -15.00000000
1.09761667 2.45720363 -0.62131482 3 2 2407 2.76200000 1893109106 1893109106 -13.00000000
1.32089996 2.95567656 -0.62928808 4 4 2408 3.29800000 1893109111 1893109111 -11.00000000
1.67290187 3.73981881 -0.64889014 2 6 2410 4.14800000 1893109115 1893109115 -9.00000000
2.25271940 5.03130484 -0.67686236 2 8 2412 5.55400000 1893109120 1893109120 -7.00000000
3.37123799 7.52592278 -0.72147524 8 10 2413 8.27800000 1893109124 1893109124 -5.00000000
4.67854214 10.43945312 2.22368813 56 11 2414 11.65400000 1893109127 1893109127 11.00000000
3.65696096 8.15232372 2.06280112 60 13 2416 9.17000000 1893109131 1893109131 13.00000000
3.18056178 7.08699322 2.08142281 40 15 2417 8.04200000 1893109136 1893109136 15.00000000
0.94023573 2.08724594 -0.61340111 4 0 2425 2.37000000 1893109157 1893109157 -15.00000000
1.10939121 2.46046329 -0.62311441 3 2 2427 2.77000000 1893109161 1893109161 -13.00000000
1.33524561 2.95999575 -0.63119614 4 4 2428 3.30800000 1893109166 1893109166 -11.00000000
2.26699805 5.01617479 -0.67588741 2 8 2432 5.54600000 1893109175 1893109175 -7.00000000
3.40651727 7.53407860 -0.72339267 4 10 2433 8.30000000 1893109180 1893109180 -5.00000000
4.72547293 10.44631195 2.22864914 59 11 2434 11.68000000 1893109182 1893109182 11.00000000
3.68057275 8.12885761 2.06010175 60 13 2436 9.15800000 1893109187 1893109187 13.00000000
3.20890784 7.08056688 2.08297563 42 15 2438 8.04800000 1893109191 1893109191 15.00000000
0.94271833 2.07339954 -0.61029530 4 0 2445 2.35800000 1893109212 1893109212 -15.00000000
1.12120187 2.46367049 -0.62491405 3 2 2447 2.77800000 1893109217 1893109217 -13.00000000
1.34312928 2.94995642 -0.63005131 4 4 2448 3.30200000 1893109221 1893109221 -11.00000000
1.71043813 3.75321388 -0.65327030 2 6 2450 4.17600000 1893109226 1893109226 -9.00000000
2.28531790 5.01003742 -0.67613113 2 8 2452 5.54800000 1893109230 1893109230 -7.00000000
3.42452359 7.50401640 -0.72164953 4 10 2453 8.28000000 1893109235 1893109235 -5.00000000
4.77087784 10.44939804 2.23284698 59 11 2454 11.70200000 1893109237 1893109237 11.00000000
3.70892549 8.11596107 2.06010175 55 13 2456 9.15800000 1893109242 1893109242 13.00000000
3.23076367 7.06637287 2.08194041 42 15 2457 8.04400000 1893109247 1893109247 15.00000000
0.94672722 2.06307292 -0.60822475 4 0 2465 2.35000000 1893109267 1893109267 -15.00000000
1.12816811 2.45620012 -0.62401420 3 2 2467 2.77400000 1893109272 1893109272 -13.00000000
1.35013926 2.93811440 -0.62852484 4 4 2468 3.29400000 1893109276 1893109276 -11.00000000
1.72352886 3.74722052 -0.65327030 2 6 2470 4.17600000 1893109281 1893109281 -9.00000000
2.31109357 5.02006149 -0.67856848 2 8 2472 5.56800000 1893109286 1893109286 -7.00000000
3.45152998 7.49382639 -0.72182387 8 10 2473 8.28200000 1893109290 1893109290 -5.00000000
3.73886514 8.10650349 2.06100154 62 13 2476 9.16200000 1893109297 1893109297 13.00000000
3.25340271 7.04746819 2.07986975 42 15 2478 8.03600000 1893109302 1893109302 15.00000000
0.95229918 2.05624986 -0.60718948 4 0 2485 2.34600000 1893109323 1893109323 -15.00000000
1.13345671 2.44517493 -0.62221462 3 2 2487 2.76600000 1893109327 1893109327 -13.00000000
1.36369085 2.94050789 -0.63005131 4 4 2488 3.30200000 1893109332 1893109332 -11.00000000
1.72495472 3.71609688 -0.64889014 2 6 2490 4.14800000 1893109336 1893109336 -9.00000000
2.32525706 5.00476217 -0.67759353 2 8 2492 5.56000000 1893109341 1893109341 -7.00000000
3.47430801 7.47450590 -0.72112662 4 10 2493 8.27400000 1893109346 1893109346 -5.00000000
4.45048618 9.57025051 2.05157828 3 11 2494 10.75200000 1893109348 1893109348 11.00000000
3.77371812 8.10753727 2.06460071 59 13 2496 9.17800000 1893109353 1893109353 13.00000000
3.27838612 7.04014349 2.08090520 42 15 2497 8.04000000 1893109357 1893109357 15.00000000
0.96928662 2.07391477 -0.61340111 4 0 2505 2.37000000 1893109378 1893109378 -15.00000000
1.14363647 2.44473386 -0.62311441 3 2 2507 2.77000000 1893109382 1893109382 -13.00000000
1.38060439 2.94995499 -0.63310426 4 4 2508 3.31800000 1893109387 1893109387 -11.00000000
1.73959172 3.71363068 -0.64951593 2 6 2510 4.15200000 1893109392 1893109392 -9.00000000
2.34187007 4.99481773 -0.67734981 2 8 2512 5.55800000 1893109396 1893109396 -7.00000000
3.51391578 7.49119329 -0.72391558 4 10 2513 8.30600000 1893109401 1893109401 -5.00000000
3.79371071 8.07667637 2.06010175 62 13 2516 9.15800000 1893109408 1893109408 13.00000000
3.30581141 7.03157663 2.08194041 42 15 2518 8.04400000 1893109412 1893109412 15.00000000
0.97652000 2.07051873 -0.61340111 4 0 2525 2.37000000 1893109433 1893109433 -15.00000000
1.15216327 2.44072700 -0.62311441 3 2 2527 2.77000000 1893109438 1893109438 -13.00000000
1.38921654 2.94156742 -0.63234103 2 4 2528 3.31400000 1893109442 1893109442 -11.00000000
1.76605129 3.73611021 -0.65452182 2 6 2530 4.18400000 1893109447 1893109447 -9.00000000
2.35844207 4.98481846 -0.67710608 2 8 2532 5.55600000 1893109452 1893109452 -7.00000000
3.53322411 7.46447515 -0.72252113 8 10 2533 8.29000000 1893109456 1893109456 -5.00000000
4.94151688 10.43499851 2.24429536 59 11 2534 11.76200000 1893109458 1893109458 11.00000000
3.82021117 8.05986309 2.05920196 59 13 2536 9.15400000 1893109463 1893109463 13.00000000
3.32911062 7.02057552 2.08194041 42 15 2537 8.04400000 1893109468 1893109468 15.00000000
0.97876054 2.05663109 -0.61029530 4 0 2545 2.35800000 1893109488 1893109488 -15.00000000
1.15899992 2.43317175 -0.62221462 3 2 2547 2.76600000 1893109493 1893109493 -13.00000000
1.39103019 2.91897726 -0.62852484 4 4 2548 3.29400000 1893109498 1893109498 -11.00000000
1.76887691 3.70852757 -0.65076739 2 6 2550 4.16000000 1893109502 1893109502 -9.00000000
2.37753844 4.98013830 -0.67759353 2 8 2552 5.56000000 1893109507 1893109507 -7.00000000
3.56612802 7.46647930 -0.72391558 8 10 2553 8.30600000 1893109511 1893109511 -5.00000000
4.99399424 10.45134258 2.25154614 59 11 2554 11.80000000 1893109514 1893109514 11.00000000
3.84664035 8.04296303 2.05830216 62 13 2556 9.15000000 1893109518 1893109518 13.00000000
3.35231781 7.00309896 2.08038759 45 15 2558 8.03800000 1893109523 1893109523 15.00000000
0.98306739 2.04814911 -0.60874242 4 0 2564 2.35200000 1893109544 1893109544 -15.00000000
1.17381310 2.44336724 -0.62581384 3 2 2566 2.78200000 1893109548 1893109548 -13.00000000
1.40240312 2.91788721 -0.62928808 4 4 2567 3.29800000 1893109553 1893109553 -11.00000000
1.77602708 3.69196057 -0.64889014 2 6 2569 4.14800000 1893109558 1893109558 -9.00000000
2.39490128 4.97401524 -0.67783731 2 8 2571 5.56200000 1893109562 1893109562 -7.00000000
3.57444000 7.42050743 -0.72060370 8 10 2572 8.26800000 1893109567 1893109567 -5.00000000
5.03203392 10.44179916 2.25307250 62 11 2573 11.80800000 1893109569 1893109569 11.00000000
3.87159729 8.02665234 2.05740237 62 13 2575 9.14600000 1893109574 1893109574 13.00000000
3.37178326 6.98731327 2.07883453 45 15 2576 8.03200000 1893109578 1893109578 15.00000000
0.99610490 2.05687594 -0.61236584 4 0 2584 2.36600000 1893109599 1893109599 -15.00000000
1.17723501 2.42873359 -0.62311441 3 2 2586 2.77000000 1893109604 1893109604 -13.00000000
1.41429317 2.91650724 -0.63005131 2 4 2587 3.30200000 1893109608 1893109608 -11.00000000
1.78890359 3.68573856 -0.64889014 2 6 2589 4.14800000 1893109613 1893109613 -9.00000000
2.42092323 4.98348093 -0.68027467 2 8 2591 5.58200000 1893109617 1893109617 -7.00000000
3.61686778 7.44203281 -0.72391558 8 10 2592 8.30600000 1893109622 1893109622 -5.00000000
5.07703638 10.44182587 2.25688887 62 11 2593 11.82800000 1893109624 1893109624 11.00000000
3.89618111 8.00607967 2.05560279 64 13 2595 9.13800000 1893109629 1893109629 13.00000000
3.40075421 6.98185539 2.08090520 45 15 2597 8.04000000 1893109634 1893109634 15.00000000
0.99819016 2.04297209 -0.60926002 4 0 2604 2.35400000 1893109654 1893109654 -15.00000000
1.18313730 2.41935754 -0.62176472 4 2 2606 2.76400000 1893109659 1893109659 -13.00000000
1.43136740 2.92566061 -0.63310426 2 4 2607 3.31800000 1893109664 1893109664 -11.00000000
1.81392062 3.70430899 -0.65327030 2 6 2609 4.17600000 1893109668 1893109668 -9.00000000
2.43568325 4.96965218 -0.67954344 2 8 2611 5.57600000 1893109673 1893109673 -7.00000000
3.64457750 7.43294001 -0.72426420 8 10 2612 8.31000000 1893109677 1893109677 -5.00000000
5.12382984 10.44519138 2.26146817 59 11 2613 11.85200000 1893109680 1893109680 11.00000000
3.92066836 7.98543358 2.05380321 59 13 2615 9.13000000 1893109684 1893109684 13.00000000
3.42473984 6.97227383 2.08142281 45 15 2616 8.04200000 1893109689 1893109689 15.00000000
1.01385677 2.05680299 -0.61443639 4 0 2624 2.37400000 1893109710 1893109710 -15.00000000
1.19416189 2.42045569 -0.62311441 3 2 2626 2.77000000 1893109714 1893109714 -13.00000000
1.43288171 2.90304160 -0.62928808 4 4 2627 3.29800000 1893109719 1893109719 -11.00000000
1.82684004 3.69795465 -0.65327030 2 6 2629 4.17600000 1893109723 1893109723 -9.00000000
2.44597697 4.94688416 -0.67759353 2 8 2631 5.56000000 1893109728 1893109728 -7.00000000
3.68375206 7.44696045 -0.72687888 8 10 2632 8.34000000 1893109733 1893109733 -5.00000000
5.16461325 10.43604088 2.26337624 59 11 2633 11.86200000 1893109735 1893109735 11.00000000
3.94678903 7.96820688 2.05290341 57 13 2635 9.12600000 1893109740 1893109740 13.00000000
3.45163012 6.96546936 2.08297563 42 15 2636 8.04800000 1893109744 1893109744 15.00000000
1.01672924 2.04460239 -0.61184824 4 0 2644 2.36400000 1893109765 1893109765 -15.00000000
1.20260358 2.41627264 -0.62311441 3 2 2646 2.77000000 1893109770 1893109770 -13.00000000
1.44300652 2.89802217 -0.62928808 4 4 2647 3.29800000 1893109774 1893109774 -11.00000000
1.83973718 3.69155526 -0.65327030 2 6 2649 4.17600000 1893109779 1893109779 -9.00000000
2.46500182 4.94186878 -0.67808104 2 8 2651 5.56400000 1893109783 1893109783 -7.00000000
3.70171762 7.41801167 -0.72531009 8 10 2652 8.32200000 1893109788 1893109788 -5.00000000
5.21153355 10.43902779 2.26795578 59 11 2653 11.88600000 1893109790 1893109790 11.00000000
3.96935296 7.94392204 2.05020380 18 13 2655 9.11400000 1893109795 1893109795 13.00000000
3.47419548 6.94992256 2.08194041 45 15 2656 8.04400000 1893109799 1893109799 15.00000000
1.01952899 2.03240705 -0.60926002 4 0 2664 2.35400000 1893109820 1893109820 -15.00000000
1.21627700 2.42250943 -0.62581384 3 2 2666 2.78200000 1893109825 1893109825 -13.00000000
1.46016335 2.90700245 -0.63234103 2 4 2667 3.31400000 1893109829 1893109829 -11.00000000
1.84551382 3.67099166 -0.65076739 2 6 2669 4.16000000 1893109834 1893109834 -9.00000000
2.48759079 4.94387388 -0.67954344 4 8 2671 5.57600000 1893109839 1893109839 -7.00000000
3.72669291 7.40326548 -0.72513580 8 10 2672 8.32000000 1893109843 1893109843 -5.00000000
5.25058985 10.42603207 2.26910067 59 11 2673 11.89200000 1893109846 1893109846 11.00000000
4.55841827 9.04373550 2.33814120 46 13 2675 10.39400000 1893109850 1893109850 13.00000000
3.49703455 6.93196821 2.08038759 45 15 2677 8.03800000 1893109855 1893109855 15.00000000
1.03185058 2.03917837 -0.61236584 4 0 2684 2.36600000 1893109876 1893109876 -15.00000000
1.22296476 2.41477203 -0.62491405 3 2 2686 2.77800000 1893109880 1893109880 -13.00000000
1.46675241 2.89488268 -0.63081455 4 4 2687 3.30600000 1893109885 1893109885 -11.00000000
1.85742331 3.66276550 -0.65045452 2 6 2689 4.15800000 1893109889 1893109889 -9.00000000
2.50932503 4.94401121 -0.68076217 4 8 2691 5.58600000 1893109894 1893109894 -7.00000000
3.75341463 7.39198828 -0.72531009 8 10 2692 8.32200000 1893109899 1893109899 -5.00000000
5.29406452 10.42164421 2.27215362 62 11 2693 11.90800000 1893109901 1893109901 11.00000000
4.59967375 9.04687691 2.34309030 55 13 2695 10.41600000 1893109905 1893109905 13.00000000
3.52000260 6.92033339 2.08038759 45 15 2696 8.03800000 1893109910 1893109910 15.00000000
1.03281462 2.02351928 -0.60874242 3 0 2704 2.35200000 1893109931 1893109931 -15.00000000
1.22961342 2.40701747 -0.62401420 3 2 2706 2.77400000 1893109935 1893109935 -13.00000000
1.47327483 2.88275242 -0.62928808 2 4 2707 3.29800000 1893109940 1893109940 -11.00000000
1.87469530 3.66505289 -0.65201885 2 6 2709 4.16800000 1893109945 1893109945 -9.00000000
2.51933074 4.92108583 -0.67881227 4 8 2711 5.57000000 1893109949 1893109949 -7.00000000
3.77465343 7.36997461 -0.72443855 17 10 2712 8.31200000 1893109954 1893109954 -5.00000000
5.34204912 10.42581463 2.27711463 65 11 2713 11.93400000 1893109956 1893109956 11.00000000
4.63389301 9.03596783 2.34443998 59 13 2715 10.42200000 1893109961 1893109961 13.00000000
3.54325581 6.90628529 2.07986975 45 15 2716 8.03600000 1893109965 1893109965 15.00000000
1.04747474 2.03554320 -0.61340111 4 0 2723 2.37000000 1893109986 1893109986 -15.00000000
1.23401952 2.39599681 -0.62221462 3 2 2725 2.76600000 1893109991 1893109991 -13.00000000
1.49541545 2.90228391 -0.63463074 4 4 2726 3.32600000 1893109995 1893109995 -11.00000000
1.88502789 3.65530467 -0.65139312 2 6 2728 4.16400000 1893110000 1893110000 -9.00000000
2.53381491 4.90917635 -0.67832476 4 8 2730 5.56600000 1893110004 1893110004 -7.00000000
3.81369829 7.38574171 -0.72722751 13 10 2731 8.34400000 1893110009 1893110009 -5.00000000
5.38830709 10.43071842 2.28207564 62 11 2732 11.96000000 1893110011 1893110011 11.00000000
4.66025209 9.01362801 2.34264016 57 13 2734 10.41400000 1893110016 1893110016 13.00000000
3.57057595 6.90307713 2.08245802 45 15 2735 8.04600000 1893110021 1893110021 15.00000000
1.04656434 2.01644230 -0.60874242 3 0 2743 2.35200000 1893110041 1893110041 -15.00000000
1.24776542 2.40205073 -0.62491405 3 2 2745 2.77800000 1893110046 1893110046 -13.00000000
1.49829471 2.88310981 -0.63157779 4 4 2746 3.31000000 1893110051 1893110051 -11.00000000
1.90142190 3.65571260 -0.65264457 4 6 2748 4.17200000 1893110055 1893110055 -9.00000000
2.56101847 4.91967058 -0.68100590 2 8 2750 5.58800000 1893110060 1893110060 -7.00000000
3.84313726 7.37945318 -0.72792476 8 10 2751 8.35200000 1893110064 1893110064 -5.00000000
5.43919802 10.43970394 2.28818154 62 11 2752 11.99200000 1893110067 1893110067 11.00000000
4.69348907 9.00076103 2.34354019 59 13 2754 10.41800000 1893110071 1893110071 13.00000000
3.59049010 6.87966776 2.07935214 45 15 2756 8.03400000 1893110076 1893110076 15.00000000
1.05449259 2.01448846 -0.60926002 4 0 2763 2.35400000 1893110097 1893110097 -15.00000000
1.25614262 2.39768052 -0.62491405 3 2 2765 2.77800000 1893110101 1893110101 -13.00000000
1.50834954 2.87786222 -0.63157779 4 4 2766 3.31000000 1893110106 1893110106 -11.00000000
1.92610025 3.67179394 -0.65671188 2 6 2768 4.19800000 1893110110 1893110110 -9.00000000
2.57540751 4.90542841 -0.68027467 4 8 2770 5.58200000 1893110115 1893110115 -7.00000000
3.85682893 7.34306240 -0.72565871 8 10 2771 8.32600000 1893110120 1893110120 -5.00000000
4.72669315 8.98777294 2.34443998 59 13 2774 10.42200000 1893110127 1893110127 13.00000000
3.61148524 6.86430407 2.07831693 45 15 2775 8.03000000 1893110131 1893110131 15.00000000
1.05971420 2.00737858 -0.60822475 4 0 2783 2.35000000 1893110152 1893110152 -15.00000000
1.26632512 2.39672732 -0.62581384 3 2 2785 2.78200000 1893110156 1893110156 -13.00000000
1.52572560 2.88646531 -0.63463074 4 4 2786 3.32600000 1893110161 1893110161 -11.00000000
1.92504954 3.63885689 -0.65201885 2 6 2788 4.16800000 1893110166 1893110166 -9.00000000
2.59344387 4.89816284 -0.68051839 4 8 2790 5.58400000 1893110170 1893110170 -7.00000000
3.89176369 7.34716129 -0.72740185 8 10 2791 8.34600000 1893110175 1893110175 -5.00000000
4.75803757 8.97121906 2.34443998 56 13 2794 10.42200000 1893110182 1893110182 13.00000000
3.63904595 6.85848188 2.08038759 45 15 2795 8.03800000 1893110186 1893110186 15.00000000
1.07125401 2.01219344 -0.61081296 4 0 2803 2.36000000 1893110207 1893110207 -15.00000000
1.26918530 2.38197327 -0.62311441 3 2 2805 2.77000000 1893110212 1893110212 -13.00000000
1.54317999 2.89498162 -0.63768369 4 4 2806 3.34200000 1893110216 1893110216 -11.00000000
1.93402052 3.62514353 -0.65076739 2 6 2808 4.16000000 1893110221 1893110221 -9.00000000
2.61146069 4.89083147 -0.68076217 4 8 2810 5.58600000 1893110226 1893110226 -7.00000000
3.92395759 7.34583330 -0.72862202 8 10 2811 8.36000000 1893110230 1893110230 -5.00000000
4.78932381 8.95455551 2.34443998 57 13 2814 10.42200000 1893110237 1893110237 13.00000000
3.66324735 6.84339523 2.07986975 45 15 2816 8.03600000 1893110242 1893110242 15.00000000
