# .PCD v0.7 - Point Cloud Data file format
VERSION 0.7
FIELDS x y z intensity laser_id azimuth distance_m adjustedtime timestamp vertical_angle
SIZE 4 4 4 1 1 2 8 8 4 8
TYPE F F F U U U F U U F
COUNT 1 1 1 1 1 1 1 1 1 1
WIDTH 542
HEIGHT 1
VIEWPOINT 0 0 0 1 0 0 0
POINTS 542
DATA ascii
3.02931452 2.81895638 1.10878074 10 15 4706 4.28400000 1892815569 1892815569 15.00000000
1.67832887 1.55687225 -0.61340111 4 0 4715 2.37000000 1892815590 1892815590 -15.00000000
3.01175427 2.79282308 0.07169449 8 1 4716 4.10800000 1892815592 1892815592 1.00000000
1.99367177 1.84810019 -0.62761343 3 2 4717 2.79000000 1892815595 1892815595 -13.00000000
3.00612831 2.78565526 0.21478677 7 3 4718 4.10400000 1892815597 1892815597 3.00000000
2.40053439 2.22447634 -0.63615721 4 4 4718 3.33400000 1892815599 1892815599 -11.00000000
3.01390028 2.79187942 0.35943028 6 5 4719 4.12400000 1892815602 1892815602 5.00000000
2.99009752 2.76886058 -0.64544863 9 6 4720 4.12600000 1892815604 1892815604 -9.00000000
3.02859759 2.80353045 0.50673270 7 7 4721 4.15800000 1892815606 1892815606 7.00000000
2.98392010 2.76120615 -0.49917683 10 8 4722 4.09600000 1892815609 1892815609 -7.00000000
3.01716137 2.79196644 0.65108025 68 9 4722 4.16200000 1892815611 1892815611 9.00000000
2.99244738 2.76812768 -0.35664129 9 10 4723 4.09200000 1892815613 1892815613 -5.00000000
3.02844286 2.80044413 0.80177939 22 11 4724 4.20200000 1892815616 1892815616 11.00000000
2.99486303 2.76842308 -0.21374005 7 12 4725 4.08400000 1892815618 1892815618 -3.00000000
3.01417994 2.78530383 0.94749385 11 13 4726 4.21200000 1892815620 1892815620 13.00000000
2.99507713 2.76668262 -0.07117091 7 14 4727 4.07800000 1892815622 1892815622 -1.00000000
3.02734256 2.79550838 1.10412204 10 15 4728 4.26600000 1892815625 1892815625 15.00000000
1.67806959 1.54576886 -0.61133057 4 0 4735 2.36200000 1892815645 1892815645 -15.00000000
3.00089025 2.76332903 0.07120582 8 1 4736 4.08000000 1892815648 1892815648 1.00000000
2.00011063 1.84112978 -0.62761343 3 2 4737 2.79000000 1892815650 1892815650 -13.00000000
3.01388001 2.77431846 0.21468209 8 3 4737 4.10200000 1892815652 1892815652 3.00000000
2.40684009 2.21475387 -0.63577557 4 4 4738 3.33200000 1892815655 1892815655 -11.00000000
3.00896382 2.76785350 0.35768718 6 5 4739 4.10400000 1892815657 1892815657 5.00000000
2.97647929 2.73701310 -0.64044273 9 6 4740 4.09400000 1892815659 1892815659 -9.00000000
3.02521205 2.78085089 0.50453907 7 7 4741 4.14000000 1892815662 1892815662 7.00000000
2.99207854 2.74943042 -0.49893311 10 8 4742 4.09400000 1892815664 1892815664 -7.00000000
3.02010036 2.77420759 0.64951593 54 9 4743 4.15200000 1892815666 1892815666 9.00000000
2.98741865 2.74418688 -0.35489818 9 10 4743 4.07200000 1892815669 1892815669 -5.00000000
3.02229309 2.77524924 0.79758161 14 11 4744 4.18000000 1892815671 1892815671 11.00000000
2.99715161 2.75119901 -0.21321669 7 12 4745 4.07400000 1892815673 1892815673 -3.00000000
2.99440098 2.74674869 -0.07092658 7 14 4747 4.06400000 1892815678 1892815678 -1.00000000
3.00290966 2.75358868 1.09169877 20 15 4748 4.21800000 1892815680 1892815680 15.00000000
1.68345511 1.53990185 -0.61133057 4 0 4755 2.36200000 1892815701 1892815701 -15.00000000
3.00313902 2.74608994 0.07103129 10 1 4756 4.07000000 1892815703 1892815703 1.00000000
2.00652528 1.83413684 -0.62761343 3 2 4757 2.79000000 1892815705 1892815705 -13.00000000
3.02059746 2.76108623 0.21447276 8 3 4757 4.09800000 1892815708 1892815708 3.00000000
2.43194795 2.22223091 -0.64035499 4 4 4758 3.35600000 1892815710 1892815710 -11.00000000
3.01419401 2.75330210 0.35716423 6 5 4759 4.09800000 1892815712 1892815712 5.00000000
2.97434521 2.71595049 -0.63793975 9 6 4760 4.07800000 1892815715 1892815715 -9.00000000
3.02023935 2.75689101 0.50210172 8 7 4761 4.12000000 1892815717 1892815717 7.00000000
2.99285936 2.73094106 -0.49747065 10 8 4762 4.08200000 1892815719 1892815719 -7.00000000
3.02490568 2.76018286 0.64857727 36 9 4762 4.14600000 1892815722 1892815722 9.00000000
2.98667550 2.72434306 -0.35367802 11 10 4763 4.05800000 1892815724 1892815724 -5.00000000
3.02325773 2.75674582 0.79529190 16 11 4764 4.16800000 1892815726 1892815726 11.00000000
2.98902416 2.72457457 -0.21196063 7 12 4765 4.05000000 1892815728 1892815728 -3.00000000
3.02346849 2.75500560 0.94434452 57 13 4766 4.19800000 1892815731 1892815731 13.00000000
2.99805737 2.73089314 -0.07078696 7 14 4767 4.05600000 1892815733 1892815733 -1.00000000
3.01250315 2.74308991 1.09169877 18 15 4768 4.21800000 1892815735 1892815735 15.00000000
1.69168007 1.53661394 -0.61236584 4 0 4775 2.36600000 1892815756 1892815756 -15.00000000
3.00086284 2.72483611 0.07075205 8 1 4776 4.05400000 1892815758 1892815758 1.00000000
2.00714350 1.82188249 -0.62581384 3 2 4777 2.78200000 1892815761 1892815761 -13.00000000
3.01394939 2.73575926 0.21332136 8 3 4777 4.07600000 1892815763 1892815763 3.00000000
2.42805886 2.20317411 -0.63730204 4 4 4778 3.34000000 1892815765 1892815765 -11.00000000
3.01493192 2.73473239 0.35611835 6 5 4779 4.08600000 1892815768 1892815768 5.00000000
2.97795415 2.70024395 -0.63668829 9 6 4780 4.07000000 1892815770 1892815770 -9.00000000
3.01807785 2.73566628 0.50015181 7 7 4781 4.10400000 1892815772 1892815772 7.00000000
2.98766375 2.70714831 -0.49503326 10 8 4782 4.06200000 1892815775 1892815775 -7.00000000
3.01988387 2.73634315 0.64544863 18 9 4782 4.12600000 1892815777 1892815777 9.00000000
2.99026036 2.70855093 -0.35298076 11 10 4783 4.05000000 1892815779 1892815779 -5.00000000
3.01685381 2.73168063 0.79109412 24 11 4784 4.14600000 1892815781 1892815781 11.00000000
2.98963213 2.70608258 -0.21133259 7 12 4785 4.03800000 1892815784 1892815784 -3.00000000
3.01139188 2.72482252 0.93759602 32 13 4786 4.16800000 1892815786 1892815786 13.00000000
3.00163960 2.71504569 -0.07064734 8 14 4787 4.04800000 1892815788 1892815788 -1.00000000
3.01202941 2.72348785 1.08807528 46 15 4788 4.20400000 1892815791 1892815791 15.00000000
1.70564067 1.53846300 -0.61547166 4 0 4795 2.37800000 1892815811 1892815811 -15.00000000
3.00441551 2.70898819 0.07061244 8 1 4796 4.04600000 1892815814 1892815814 1.00000000
2.01638579 1.81747460 -0.62671363 3 2 4797 2.78600000 1892815816 1892815816 -13.00000000
3.00864506 2.71184993 0.21227464 8 3 4797 4.05600000 1892815818 1892815818 3.00000000
2.43573451 2.19468522 -0.63730204 4 4 4798 3.34000000 1892815821 1892815821 -11.00000000
3.01705766 2.71752453 0.35524681 6 5 4799 4.07600000 1892815823 1892815823 5.00000000
2.97855377 2.68190169 -0.63481104 9 6 4800 4.05800000 1892815825 1892815825 -9.00000000
3.01875615 2.71714640 0.49868935 7 7 4801 4.09200000 1892815827 1892815827 7.00000000
2.97938704 2.68076968 -0.49210840 12 8 4802 4.03800000 1892815830 1892815830 -7.00000000
3.01766944 2.71521497 0.64294565 10 9 4802 4.11000000 1892815832 1892815832 9.00000000
2.99969673 2.69809651 -0.35298076 11 10 4803 4.05000000 1892815834 1892815834 -5.00000000
3.01907134 2.71456981 0.78918600 44 11 4804 4.13600000 1892815837 1892815837 11.00000000
2.99014735 2.68761945 -0.21070457 7 12 4805 4.02600000 1892815839 1892815839 -3.00000000
3.00928831 2.70387459 0.93399680 12 13 4806 4.15200000 1892815841 1892815841 13.00000000
2.99919701 2.69386148 -0.07036810 7 14 4807 4.03200000 1892815844 1892815844 -1.00000000
3.01816988 2.71090293 1.08703995 56 15 4807 4.20000000 1892815846 1892815846 15.00000000
1.70812249 1.52992213 -0.61443639 4 0 4815 2.37400000 1892815867 1892815867 -15.00000000
3.00044513 2.68647933 0.07029829 8 1 4816 4.02800000 1892815869 1892815869 1.00000000
2.02852607 1.81562364 -0.62851322 3 2 4817 2.79400000 1892815871 1892815871 -13.00000000
3.00618720 2.69067526 0.21143727 10 3 4817 4.04000000 1892815874 1892815874 3.00000000
2.43606496 2.17962408 -0.63539398 5 4 4818 3.33000000 1892815876 1892815876 -11.00000000
3.02058482 2.70166349 0.35454956 8 5 4819 4.06800000 1892815878 1892815878 5.00000000
2.98495197 2.66885495 -0.63418531 9 6 4820 4.05400000 1892815880 1892815880 -9.00000000
3.02378225 2.70262384 0.49795812 8 7 4821 4.08600000 1892815883 1892815883 7.00000000
2.98576593 2.66770816 -0.49162093 12 8 4822 4.03400000 1892815885 1892815885 -7.00000000
3.01534438 2.69413567 0.64044273 8 9 4822 4.09400000 1892815887 1892815887 9.00000000
2.99423671 2.67433691 -0.35123765 13 10 4823 4.03000000 1892815890 1892815890 -5.00000000
3.02267075 2.69878459 0.78765953 68 11 4824 4.12800000 1892815892 1892815892 11.00000000
2.99504042 2.67317581 -0.21039054 9 12 4825 4.02000000 1892815894 1892815894 -3.00000000
3.00852966 2.68427205 0.93084747 35 13 4826 4.13800000 1892815897 1892815897 13.00000000
2.99067378 2.66740346 -0.06994925 8 14 4827 4.00800000 1892815899 1892815899 -1.00000000
3.02087593 2.69339442 1.08445179 68 15 4828 4.19000000 1892815901 1892815901 15.00000000
1.70164013 1.51397634 -0.61029530 4 0 4834 2.35800000 1892815922 1892815922 -15.00000000
3.00037217 2.66854095 0.07008886 7 1 4835 4.01600000 1892815924 1892815924 1.00000000
2.02871013 1.80370748 -0.62671363 3 2 4836 2.78600000 1892815927 1892815927 -13.00000000
3.01854682 2.68281889 0.21164660 10 3 4837 4.04400000 1892815929 1892815929 3.00000000
2.44474697 2.17283821 -0.63577557 4 4 4837 3.33200000 1892815931 1892815931 -11.00000000
3.00867510 2.67310548 0.35210919 8 5 4838 4.04000000 1892815933 1892815933 5.00000000
2.97606230 2.64320064 -0.63043088 9 6 4839 4.03000000 1892815936 1892815936 -9.00000000
3.03124332 2.69126368 0.49771440 8 7 4840 4.08400000 1892815938 1892815938 7.00000000
2.99014187 2.65383911 -0.49088973 10 8 4841 4.02800000 1892815940 1892815940 -7.00000000
3.01244259 2.67363167 0.63793975 8 9 4841 4.07800000 1892815943 1892815943 9.00000000
2.98520446 2.64852571 -0.34914592 11 10 4842 4.00600000 1892815945 1892815945 -5.00000000
3.01397800 2.67311406 0.78308010 66 11 4843 4.10400000 1892815947 1892815947 11.00000000
2.99940515 2.65925431 -0.21007653 9 12 4844 4.01400000 1892815950 1892815950 -3.00000000
3.01012254 2.66781807 0.92859793 59 13 4845 4.12800000 1892815952 1892815952 13.00000000
2.99950290 2.65747142 -0.06994925 7 14 4846 4.00800000 1892815954 1892815954 -1.00000000
3.01486278 2.67107987 1.07927537 76 15 4846 4.17000000 1892815957 1892815957 15.00000000
1.71270561 1.51314366 -0.61236584 4 0 4854 2.36600000 1892815977 1892815977 -15.00000000
2.99318147 2.64349031 0.06970491 6 1 4855 3.99400000 1892815980 1892815980 1.00000000
2.04083753 1.80177402 -0.62851322 3 2 4856 2.79400000 1892815982 1892815982 -13.00000000
3.01441598 2.66037154 0.21070457 10 3 4857 4.02600000 1892815984 1892815984 3.00000000
2.46409249 2.17468381 -0.63882852 4 4 4857 3.34800000 1892815986 1892815986 -11.00000000
3.01051736 2.65599632 0.35123765 6 5 4858 4.03000000 1892815989 1892815989 5.00000000
2.97638154 2.62495661 -0.62855369 9 6 4859 4.01800000 1892815991 1892815991 -9.00000000
3.01530552 2.65834928 0.49357083 8 7 4860 4.05000000 1892815993 1892815993 7.00000000
2.99194098 2.63682294 -0.48967102 10 8 4861 4.01800000 1892815996 1892815996 -7.00000000
3.01481080 2.65604353 0.63637543 8 9 4862 4.06800000 1892815998 1892815998 9.00000000
2.99443126 2.63808918 -0.34914592 11 10 4862 4.00600000 1892816000 1892816000 -5.00000000
3.01150370 2.65219665 0.78002715 66 11 4863 4.08800000 1892816003 1892816003 11.00000000
2.99367857 2.63557053 -0.20902981 8 12 4864 3.99400000 1892816005 1892816005 -3.00000000
3.01795363 2.65600705 0.92814803 60 13 4865 4.12600000 1892816007 1892816007 13.00000000
3.00125384 2.64038062 -0.06977472 8 14 4866 3.99800000 1892816010 1892816010 -1.00000000
3.01592851 2.65235710 1.07616961 68 15 4867 4.15800000 1892816012 1892816012 15.00000000
1.72378588 1.51225197 -0.61443639 4 0 4874 2.37400000 1892816033 1892816033 -15.00000000
2.98585296 2.61852264 0.06932096 6 1 4875 3.97200000 1892816035 1892816035 1.00000000
2.03539157 1.78436208 -0.62491405 3 2 4876 2.77800000 1892816037 1892816037 -13.00000000
3.01166725 2.63930202 0.20986718 7 3 4877 4.01000000 1892816039 1892816039 3.00000000
2.47462153 2.16865730 -0.63959175 4 4 4877 3.35200000 1892816042 1892816042 -11.00000000
3.01827168 2.64415860 0.35106334 8 5 4878 4.02800000 1892816044 1892816044 5.00000000
2.98255396 2.61194825 -0.62792796 9 6 4879 4.01400000 1892816046 1892816046 -9.00000000
3.01112390 2.63603973 0.49137720 7 7 4880 4.03200000 1892816049 1892816049 7.00000000
2.98917627 2.61590457 -0.48772112 10 8 4881 4.00200000 1892816051 1892816051 -7.00000000
3.02508831 2.64733219 0.63668829 8 9 4881 4.07000000 1892816053 1892816053 9.00000000
2.98862600 2.61450219 -0.34740278 10 10 4882 3.98600000 1892816056 1892816056 -5.00000000
3.01483178 2.63649869 0.77850068 68 11 4883 4.08000000 1892816058 1892816058 11.00000000
2.98481584 2.60933018 -0.20777375 8 12 4884 3.97000000 1892816060 1892816060 -3.00000000
3.00813055 2.62878585 0.92229933 57 13 4885 4.10000000 1892816063 1892816063 13.00000000
3.00292253 2.62331033 -0.06960019 9 14 4886 3.98800000 1892816065 1892816065 -1.00000000
3.01306844 2.63217354 1.07202852 72 15 4886 4.14200000 1892816067 1892816067 15.00000000
1.73196745 1.50876355 -0.61547166 4 0 4894 2.37800000 1892816088 1892816088 -15.00000000
2.99497509 2.60808420 0.06932096 6 1 4895 3.97200000 1892816090 1892816090 1.00000000
2.05042672 1.78492343 -0.62761343 3 2 4896 2.79000000 1892816092 1892816092 -13.00000000
3.00730181 2.61697340 0.20892514 9 3 4897 3.99200000 1892816095 1892816095 3.00000000
2.47625256 2.15485072 -0.63806528 4 4 4897 3.34400000 1892816097 1892816097 -11.00000000
3.02447653 2.63099146 0.35071471 8 5 4898 4.02400000 1892816099 1892816099 5.00000000
2.98569083 2.59633636 -0.62667644 9 6 4899 4.00600000 1892816102 1892816102 -9.00000000
3.01281619 2.61900115 0.49015850 7 7 4900 4.02200000 1892816104 1892816104 7.00000000
2.98180699 2.59113169 -0.48503998 7 8 4901 3.98000000 1892816106 1892816106 -7.00000000
3.01985812 2.62327242 0.63355958 8 9 4902 4.05000000 1892816109 1892816109 9.00000000
2.99623013 2.60274744 -0.34722847 8 10 4902 3.98400000 1892816111 1892816111 -5.00000000
3.02105188 2.62338448 0.77773744 66 11 4903 4.07600000 1892816113 1892816113 11.00000000
2.99239779 2.59758615 -0.20766908 8 12 4904 3.96800000 1892816115 1892816115 -3.00000000
3.00256991 2.60549736 0.91780031 55 13 4905 4.08000000 1892816118 1892816118 13.00000000
2.99091339 2.59446740 -0.06911153 9 14 4906 3.96000000 1892816120 1892816120 -1.00000000
3.02561450 2.62364364 1.07306373 76 15 4907 4.14600000 1892816122 1892816122 15.00000000
1.72819602 1.49542725 -0.61236584 4 0 4913 2.36600000 1892816143 1892816143 -15.00000000
2.99604535 2.59159708 0.06914643 6 1 4914 3.96200000 1892816145 1892816145 1.00000000
2.05633450 1.77811420 -0.62761343 3 2 4915 2.79000000 1892816148 1892816148 -13.00000000
3.00538659 2.59784365 0.20819244 8 3 4916 3.97800000 1892816150 1892816150 3.00000000
2.46853185 2.13378882 -0.63424909 4 4 4916 3.32400000 1892816152 1892816152 -11.00000000
3.01509404 2.60531569 0.34862298 8 5 4917 4.00000000 1892816155 1892816155 5.00000000
2.98232508 2.57609105 -0.62417352 8 6 4918 3.99000000 1892816157 1892816157 -9.00000000
3.01697707 2.60510373 0.48942727 8 7 4919 4.01600000 1892816159 1892816159 7.00000000
2.97235060 2.56566429 -0.48211512 7 8 4920 3.95600000 1892816162 1892816162 -7.00000000
3.00714970 2.59570193 0.62917942 8 9 4920 4.02200000 1892816164 1892816164 9.00000000
2.99277687 2.58238435 -0.34583399 6 10 4921 3.96800000 1892816166 1892816166 -5.00000000
3.02378821 2.60822272 0.77621096 66 11 4922 4.06800000 1892816168 1892816168 11.00000000
2.98889446 2.57721472 -0.20683169 5 12 4923 3.95200000 1892816171 1892816171 -3.00000000
3.00676537 2.59170914 0.91645062 57 13 4924 4.07400000 1892816173 1892816173 13.00000000
2.98283648 2.57017636 -0.06872758 4 14 4925 3.93800000 1892816175 1892816175 -1.00000000
3.01335311 2.59647107 1.06581688 70 15 4925 4.11800000 1892816178 1892816178 15.00000000
1.72461390 1.48183167 -0.60926002 4 0 4933 2.35400000 1892816198 1892816198 -15.00000000
2.98687005 2.56548786 0.06872758 6 1 4934 3.93800000 1892816201 1892816201 1.00000000
2.07139969 1.77854228 -0.63031286 3 2 4935 2.80200000 1892816203 1892816203 -13.00000000
2.99928093 2.57432890 0.20714572 4 3 4936 3.95800000 1892816205 1892816205 3.00000000
2.47894454 2.12771630 -0.63501233 4 4 4936 3.32800000 1892816208 1892816208 -11.00000000
2.98334360 2.55974555 0.34391657 4 5 4937 3.94600000 1892816210 1892816210 5.00000000
2.98230267 2.55794883 -0.62229627 8 6 4938 3.97800000 1892816212 1892816212 -9.00000000
3.00947523 2.58034348 0.48674616 6 7 4939 3.99400000 1892816215 1892816215 7.00000000
2.97073770 2.54623032 -0.48040897 24 8 4940 3.94200000 1892816217 1892816217 -7.00000000
3.02414346 2.59108901 0.63074374 8 9 4941 4.03200000 1892816219 1892816219 9.00000000
2.97302604 2.54729152 -0.34252205 31 10 4941 3.93000000 1892816221 1892816221 -5.00000000
3.02690983 2.59254336 0.77468455 64 11 4942 4.06000000 1892816224 1892816224 11.00000000
2.97663236 2.54858017 -0.20536630 21 12 4943 3.92400000 1892816226 1892816226 -3.00000000
3.01431322 2.57993078 0.91600066 55 13 4944 4.07200000 1892816228 1892816228 13.00000000
2.97203708 2.54284835 -0.06827381 19 14 4945 3.91200000 1892816231 1892816231 -1.00000000
3.01404071 2.57787514 1.06271100 72 15 4946 4.10600000 1892816233 1892816233 15.00000000
1.74447250 1.48834121 -0.61443639 4 0 4953 2.37400000 1892816254 1892816254 -15.00000000
2.98819971 2.54855776 0.06855305 32 1 4954 3.92800000 1892816256 1892816256 1.00000000
2.06573200 1.76118636 -0.62671363 3 2 4955 2.78600000 1892816258 1892816258 -13.00000000
3.00672865 2.56254816 0.20704104 29 3 4956 3.95600000 1892816261 1892816261 3.00000000
2.50279284 2.13305831 -0.63921010 5 4 4956 3.35000000 1892816263 1892816263 -11.00000000
2.99984384 2.55577683 0.34478810 22 5 4957 3.95600000 1892816265 1892816265 5.00000000
2.97316694 2.53215337 -0.61854190 8 6 4958 3.95400000 1892816268 1892816268 -9.00000000
3.00486064 2.55824113 0.48455250 19 7 4959 3.97600000 1892816270 1892816270 7.00000000
3.02218890 2.57208443 0.62855369 8 9 4960 4.01800000 1892816274 1892816274 9.00000000
2.98038220 2.53560734 -0.34234777 4 10 4961 3.92800000 1892816277 1892816277 -5.00000000
3.02098560 2.56924248 0.77086836 70 11 4962 4.04000000 1892816279 1892816279 11.00000000
2.99464035 2.54593635 -0.20599432 5 12 4963 3.93600000 1892816281 1892816281 -3.00000000
3.01142120 2.55929732 0.91240150 54 13 4964 4.05600000 1892816284 1892816284 13.00000000
3.01079440 2.55785990 1.05856991 68 15 4965 4.09000000 1892816288 1892816288 15.00000000
1.74818313 1.48099411 -0.61391878 3 0 4973 2.37200000 1892816309 1892816309 -15.00000000
2.05699372 1.74137366 -0.62221462 3 2 4975 2.76600000 1892816314 1892816314 -13.00000000
2.50123167 2.11669946 -0.63692045 5 4 4976 3.33800000 1892816318 1892816318 -11.00000000
2.98198771 2.52175975 -0.61854190 8 6 4978 3.95400000 1892816323 1892816323 -9.00000000
2.98086023 2.51902223 -0.47919026 5 8 4980 3.93200000 1892816327 1892816327 -7.00000000
3.02405071 2.55461645 0.62698936 8 9 4981 4.00800000 1892816330 1892816330 9.00000000
2.96638489 2.50590229 -0.33973309 2 10 4981 3.89800000 1892816332 1892816332 -5.00000000
3.02543569 2.55488157 0.76972347 44 11 4982 4.03400000 1892816334 1892816334 11.00000000
2.97603798 2.51227713 -0.20411023 1 12 4983 3.90000000 1892816337 1892816337 -3.00000000
3.01288986 2.54248595 0.91015196 28 13 4984 4.04600000 1892816339 1892816339 13.00000000
2.98666000 2.51945901 -0.06820401 1 14 4985 3.90800000 1892816341 1892816341 -1.00000000
3.01719546 2.54431677 1.05753458 40 15 4986 4.08600000 1892816344 1892816344 15.00000000
1.75777721 1.47861350 -0.61547166 4 0 4993 2.37800000 1892816364 1892816364 -15.00000000
2.97836995 2.50446868 0.06792477 3 1 4994 3.89200000 1892816367 1892816367 1.00000000
2.07499337 1.74421418 -0.62581384 3 2 4995 2.78200000 1892816369 1892816369 -13.00000000
2.98631787 2.50937295 0.20442425 1 3 4996 3.90600000 1892816371 1892816371 3.00000000
2.51010799 2.10921884 -0.63730204 5 4 4996 3.34000000 1892816374 1892816374 -11.00000000
2.99930620 2.51939392 0.34269637 4 5 4997 3.93200000 1892816376 1892816376 5.00000000
2.99077201 2.51133513 -0.61854190 8 6 4998 3.95400000 1892816378 1892816378 -9.00000000
3.01504493 2.53081989 0.48333383 3 7 4999 3.96600000 1892816380 1892816380 7.00000000
2.97138715 2.49328971 -0.47626540 7 8 5000 3.90800000 1892816383 1892816383 -7.00000000
3.01888657 2.53314662 0.62417352 11 9 5000 3.99000000 1892816385 1892816385 9.00000000
2.98427296 2.50321484 -0.34077895 10 10 5001 3.91000000 1892816387 1892816387 -5.00000000
3.02982235 2.54052114 0.76857865 12 11 5002 4.02800000 1892816390 1892816390 11.00000000
2.98478937 2.50187349 -0.20411023 14 12 5003 3.90000000 1892816392 1892816392 -3.00000000
3.00979686 2.52194071 0.90655273 10 13 5004 4.03000000 1892816394 1892816394 13.00000000
2.97857356 2.49489379 -0.06782005 13 14 5005 3.88600000 1892816397 1892816397 -1.00000000
3.03005910 2.53801870 1.05908751 10 15 5005 4.09200000 1892816399 1892816399 15.00000000
1.75996244 1.46999192 -0.61443639 4 0 5013 2.37400000 1892816420 1892816420 -15.00000000
2.99169898 2.49790192 0.06802948 6 1 5014 3.89800000 1892816422 1892816422 1.00000000
2.07508492 1.73196566 -0.62401420 3 2 5015 2.77400000 1892816424 1892816424 -13.00000000
3.00272679 2.50533128 0.20494761 6 3 5016 3.91600000 1892816427 1892816427 3.00000000
2.50690317 2.09163976 -0.63463074 5 4 5016 3.32600000 1892816429 1892816429 -11.00000000
3.00196195 2.50380445 0.34199914 4 5 5017 3.92400000 1892816431 1892816431 5.00000000
3.00558877 2.50594020 -0.61979336 8 6 5018 3.96200000 1892816433 1892816433 -9.00000000
3.02233577 2.51900911 0.48309007 4 7 5019 3.96400000 1892816436 1892816436 7.00000000
3.00142384 2.50069213 -0.47967774 1 8 5020 3.93600000 1892816438 1892816438 -7.00000000
3.02467513 2.52006435 0.62354779 13 9 5020 3.98600000 1892816440 1892816440 9.00000000
3.00983310 2.50680852 -0.34269637 2 10 5021 3.93200000 1892816443 1892816443 -5.00000000
3.05225086 2.54123521 0.77201319 14 11 5022 4.04600000 1892816445 1892816445 11.00000000
3.03056622 2.52139020 0.91015196 9 13 5024 4.04600000 1892816450 1892816450 13.00000000
3.00417638 2.49854708 -0.06820401 1 14 5025 3.90800000 1892816452 1892816452 -1.00000000
3.03592944 2.52495575 1.05805230 10 15 5025 4.08800000 1892816454 1892816454 15.00000000
1.75293303 1.45427966 -0.61029530 4 0 5032 2.35800000 1892816475 1892816475 -15.00000000
3.04614282 2.52626324 0.06907663 1 1 5033 3.95800000 1892816477 1892816477 1.00000000
2.09581923 1.73751235 -0.62851322 3 2 5034 2.79400000 1892816480 1892816480 -13.00000000
3.01101828 2.49535990 0.20494761 1 3 5035 3.91600000 1892816482 1892816482 3.00000000
2.51836038 2.08707333 -0.63577557 5 4 5035 3.33200000 1892816484 1892816484 -11.00000000
3.01024842 2.49383593 0.34199914 1 5 5036 3.92400000 1892816486 1892816486 5.00000000
3.01844645 2.49973941 -0.62073195 8 6 5037 3.96800000 1892816489 1892816489 -9.00000000
3.05055070 2.52542925 0.48625869 4 7 5038 3.99000000 1892816491 1892816491 7.00000000
3.01275849 2.49325633 -0.48016521 11 8 5039 3.94000000 1892816493 1892816493 -7.00000000
3.05019593 2.52334166 0.62698936 8 9 5040 4.00800000 1892816496 1892816496 9.00000000
3.00277758 2.48411369 -0.34095326 6 10 5040 3.91200000 1892816498 1892816498 -5.00000000
3.05460954 2.52609491 0.77048671 8 11 5041 4.03800000 1892816500 1892816500 11.00000000
3.01406455 2.49167943 -0.20494761 3 12 5042 3.91600000 1892816503 1892816503 -3.00000000
3.05243039 2.52249908 0.91420108 8 13 5043 4.06400000 1892816505 1892816505 13.00000000
3.01398683 2.48984456 -0.06823891 4 14 5044 3.91000000 1892816507 1892816507 -1.00000000
3.04577518 2.51610494 1.05856991 8 15 5044 4.09000000 1892816509 1892816509 15.00000000
1.75799870 1.44815195 -0.61029530 4 0 5052 2.35800000 1892816530 1892816530 -15.00000000
3.02406883 2.49019194 0.06837853 14 1 5053 3.91800000 1892816533 1892816533 1.00000000
2.09284401 1.72275496 -0.62581384 3 2 5054 2.78200000 1892816535 1892816535 -13.00000000
3.04130173 2.50260139 0.20641302 9 3 5055 3.94400000 1892816537 1892816537 3.00000000
2.53321004 2.08450723 -0.63768369 5 4 5055 3.34200000 1892816539 1892816539 -11.00000000
3.04970908 2.50862694 0.34548536 9 5 5056 3.96400000 1892816542 1892816542 5.00000000
3.03173113 2.49295163 -0.62167054 8 6 5057 3.97400000 1892816544 1892816544 -9.00000000
3.06088114 2.51602602 0.48650241 6 7 5058 3.99200000 1892816546 1892816546 7.00000000
3.02604437 2.48650551 -0.48089644 16 8 5059 3.94600000 1892816549 1892816549 -7.00000000
3.07730269 2.52772498 0.63074374 8 9 5060 4.03200000 1892816551 1892816551 9.00000000
3.02836609 2.48752785 -0.34287068 31 10 5060 3.93400000 1892816553 1892816553 -5.00000000
3.07251239 2.52289224 0.77277642 8 11 5061 4.05000000 1892816556 1892816556 11.00000000
3.02891898 2.48621202 -0.20536630 21 12 5062 3.92400000 1892816558 1892816558 -3.00000000
3.07778835 2.52542615 0.91914999 8 13 5063 4.08600000 1892816560 1892816560 13.00000000
3.03657484 2.49072242 -0.06855305 17 14 5064 3.92800000 1892816562 1892816562 -1.00000000
3.07290316 2.51962352 1.06478155 8 15 5065 4.11400000 1892816565 1892816565 15.00000000
1.77475262 1.45210099 -0.61443639 4 0 5071 2.37400000 1892816586 1892816586 -15.00000000
3.04314518 2.48901224 0.06862286 14 1 5072 3.93200000 1892816588 1892816588 1.00000000
2.10458016 1.72073936 -0.62761343 3 2 5073 2.79000000 1892816590 1892816590 -13.00000000
3.06350183 2.50387788 0.20735505 19 3 5074 3.96200000 1892816592 1892816592 3.00000000
2.53250813 2.06988311 -0.63577557 5 4 5074 3.33200000 1892816595 1892816595 -11.00000000
3.06726861 2.50606370 0.34653124 13 5 5075 3.97600000 1892816597 1892816597 5.00000000
3.05681062 2.49662948 -0.62511212 8 6 5076 3.99600000 1892816599 1892816599 -9.00000000
3.07228303 2.50837278 0.48698989 8 7 5077 3.99600000 1892816602 1892816602 7.00000000
3.07579660 2.51034689 -0.48747736 8 8 5078 4.00000000 1892816604 1892816604 -7.00000000
3.09638214 2.52624774 0.63293386 8 9 5079 4.04600000 1892816606 1892816606 9.00000000
3.08291149 2.51525736 -0.34810004 6 10 5079 3.99400000 1892816609 1892816609 -5.00000000
3.08694720 2.51765275 0.77430290 8 11 5080 4.05800000 1892816611 1892816611 11.00000000
3.06346273 2.49760914 -0.20714572 5 12 5081 3.95800000 1892816613 1892816613 -3.00000000
3.09218860 2.52013063 0.92094964 8 13 5082 4.09400000 1892816615 1892816615 13.00000000
3.08202505 2.51095247 -0.06939077 6 14 5083 3.97600000 1892816618 1892816618 -1.00000000
3.08529687 2.51361775 1.06633449 8 15 5083 4.12000000 1892816620 1892816620 15.00000000
1.77981055 1.44589710 -0.61443639 4 0 5091 2.37400000 1892816641 1892816641 -15.00000000
3.08441329 2.50484753 0.06935586 8 1 5092 3.97400000 1892816643 1892816643 1.00000000
2.09846997 1.70355678 -0.62401420 3 2 5093 2.77400000 1892816645 1892816645 -13.00000000
3.08618093 2.50449586 0.20829710 6 3 5094 3.98000000 1892816648 1892816648 3.00000000
2.53209567 2.05484486 -0.63386750 5 4 5094 3.32200000 1892816650 1892816650 -11.00000000
3.09920692 2.51416969 0.34914592 6 5 5095 4.00600000 1892816652 1892816652 5.00000000
3.07931542 2.49714208 -0.62792796 9 6 5096 4.01400000 1892816655 1892816655 -9.00000000
3.10877705 2.52013445 0.49137720 7 7 5097 4.03200000 1892816657 1892816657 7.00000000
3.08454061 2.49959493 -0.48747736 8 8 5098 4.00000000 1892816659 1892816659 -7.00000000
3.11132145 2.52039766 0.63418531 8 9 5099 4.05400000 1892816662 1892816662 9.00000000
3.09476876 2.50698876 -0.34844866 8 10 5099 3.99800000 1892816664 1892816664 -5.00000000
3.11402559 2.52168822 0.77888232 8 11 5100 4.08200000 1892816666 1892816666 11.00000000
3.09079099 2.50198007 -0.20840178 7 12 5101 3.98200000 1892816668 1892816668 -3.00000000
3.10854101 2.51545072 0.92319912 8 13 5102 4.10400000 1892816671 1892816671 13.00000000
3.10320902 2.51023984 -0.06967001 6 14 5103 3.99200000 1892816673 1892816673 -1.00000000
3.13160133 2.53320694 1.07927537 8 15 5103 4.17000000 1892816675 1892816675 15.00000000
1.78183949 1.43724978 -0.61340111 4 0 5111 2.37000000 1892816696 1892816696 -15.00000000
3.11181831 2.50912786 0.06977472 6 1 5112 3.99800000 1892816698 1892816698 1.00000000
2.11957622 1.70845079 -0.62851322 3 2 5113 2.79400000 1892816701 1892816701 -13.00000000
3.11468434 2.51054192 0.20965785 7 3 5113 4.00600000 1892816703 1892816703 3.00000000
2.54078174 2.04722548 -0.63424909 5 4 5114 3.32400000 1892816705 1892816705 -11.00000000
3.12348080 2.51583409 0.35088903 6 5 5115 4.02600000 1892816708 1892816708 5.00000000
3.11263132 2.50619960 -0.63293386 11 6 5116 4.04600000 1892816710 1892816710 -9.00000000
3.13456559 2.52295876 0.49405831 7 7 5117 4.05400000 1892816712 1892816712 7.00000000
3.11025977 2.50250125 -0.49015850 8 8 5118 4.02200000 1892816714 1892816714 -7.00000000
3.12889647 2.51749611 0.63606256 8 9 5118 4.06600000 1892816717 1892816717 9.00000000
3.10971117 2.50116563 -0.34914592 9 10 5119 4.00600000 1892816719 1892816719 -5.00000000
3.13657928 2.52187443 0.78231686 8 11 5120 4.10000000 1892816721 1892816721 11.00000000
3.12130022 2.50869298 -0.20986718 7 12 5121 4.01000000 1892816724 1892816724 -3.00000000
3.12793660 2.51312852 0.92634845 7 13 5122 4.11800000 1892816726 1892816726 13.00000000
3.11351156 2.50064468 -0.06970491 6 14 5123 3.99400000 1892816728 1892816728 -1.00000000
3.13138771 2.51500201 1.07616961 8 15 5123 4.15800000 1892816731 1892816731 15.00000000
1.77779830 1.42377555 -0.61029530 4 0 5131 2.35800000 1892816751 1892816751 -15.00000000
3.12524104 2.50199962 0.06987944 8 1 5132 4.00400000 1892816754 1892816754 1.00000000
2.12856984 1.70347691 -0.62941307 3 2 5133 2.79800000 1892816756 1892816756 -13.00000000
3.14569926 2.51657677 0.21112324 8 3 5134 4.03400000 1892816758 1892816758 3.00000000
2.54791236 2.03834391 -0.63424909 5 4 5134 3.32400000 1892816761 1892816761 -11.00000000
3.13846779 2.50989318 0.35158625 6 5 5135 4.03400000 1892816763 1892816763 5.00000000
3.12136078 2.49531937 -0.63293386 11 6 5136 4.04600000 1892816765 1892816765 -9.00000000
3.15575910 2.52191591 0.49600822 7 7 5137 4.07000000 1892816767 1892816767 7.00000000
3.14068961 2.50897503 -0.49357083 10 8 5138 4.05000000 1892816770 1892816770 -7.00000000
3.15199494 2.51710534 0.63887835 8 9 5139 4.08400000 1892816772 1892816772 9.00000000
3.12776423 2.49775529 -0.35019177 9 10 5139 4.01800000 1892816774 1892816774 -5.00000000
3.15456915 2.51825953 0.78460658 8 11 5140 4.11200000 1892816777 1892816777 11.00000000
3.14721036 2.51148582 -0.21101858 7 12 5141 4.03200000 1892816779 1892816779 -3.00000000
3.15649438 2.51799273 0.93219715 9 13 5142 4.14400000 1892816781 1892816781 13.00000000
3.14410973 2.50721574 -0.07019358 7 14 5143 4.02200000 1892816784 1892816784 -1.00000000
3.15418005 2.51434565 1.08082831 8 15 5144 4.17600000 1892816786 1892816786 15.00000000
1.78099799 1.41666973 -0.60977769 3 0 5150 2.35600000 1892816807 1892816807 -15.00000000
3.14291191 2.49908948 0.07008886 7 1 5151 4.01600000 1892816809 1892816809 1.00000000
2.12200284 1.68670821 -0.62581384 3 2 5152 2.78200000 1892816811 1892816811 -13.00000000
3.16922498 2.51910973 0.21216996 8 3 5152 4.05400000 1892816814 1892816814 3.00000000
2.56541753 2.03843307 -0.63692045 5 4 5153 3.33800000 1892816816 1892816816 -11.00000000
3.15925455 2.50938535 0.35298076 6 5 5154 4.05000000 1892816818 1892816818 5.00000000
3.13890028 2.49232483 -0.63481104 11 6 5155 4.05800000 1892816820 1892816820 -9.00000000
3.17032409 2.51637363 0.49698317 7 7 5156 4.07800000 1892816823 1892816823 7.00000000
3.16143298 2.50841713 -0.49552074 10 8 5157 4.06600000 1892816825 1892816825 -7.00000000
3.18353939 2.52505207 0.64357138 8 9 5158 4.11400000 1892816827 1892816827 9.00000000
3.15320063 2.50098872 -0.35210919 9 10 5158 4.04000000 1892816830 1892816830 -5.00000000
3.17674804 2.51876235 0.78804117 8 11 5159 4.13000000 1892816832 1892816832 11.00000000
3.15239096 2.49855447 -0.21080923 7 12 5160 4.02800000 1892816834 1892816834 -3.00000000
3.18315601 2.52203393 0.93759602 8 13 5161 4.16800000 1892816837 1892816837 13.00000000
3.16965008 2.51043272 -0.07057753 7 14 5162 4.04400000 1892816839 1892816839 -1.00000000
3.17417884 2.51401949 1.08496940 8 15 5162 4.19200000 1892816841 1892816841 15.00000000
1.79654479 1.41882551 -0.61340111 4 0 5170 2.37000000 1892816862 1892816862 -15.00000000
3.16888094 2.50173354 0.07047281 7 1 5171 4.03800000 1892816864 1892816864 1.00000000
2.12328839 1.67566907 -0.62446415 3 2 5172 2.77600000 1892816866 1892816866 -13.00000000
3.18270254 2.51174355 0.21248399 7 3 5172 4.06000000 1892816869 1892816869 3.00000000
2.55864525 2.01852179 -0.63348585 5 4 5173 3.32000000 1892816871 1892816871 -11.00000000
3.18989682 2.51561475 0.35542113 6 5 5174 4.07800000 1892816873 1892816873 5.00000000
3.16154289 2.49235940 -0.63762689 9 6 5175 4.07600000 1892816876 1892816876 -9.00000000
3.19156170 2.51512122 0.49893311 7 7 5176 4.09400000 1892816878 1892816878 7.00000000
3.17640710 2.50228000 -0.49649569 8 8 5177 4.07400000 1892816880 1892816880 -7.00000000
3.20630169 2.52492332 0.64638722 8 9 5178 4.13200000 1892816883 1892816883 9.00000000
3.18069530 2.50475860 -0.35420093 9 10 5178 4.06400000 1892816885 1892816885 -5.00000000
3.19323397 2.51372981 0.78994924 8 11 5179 4.14000000 1892816887 1892816887 11.00000000
3.17051077 2.49494600 -0.21143727 7 12 5180 4.04000000 1892816890 1892816890 -3.00000000
3.20725656 2.52295589 0.94209504 8 13 5181 4.18800000 1892816892 1892816892 13.00000000
3.18625331 2.50553370 -0.07075205 7 14 5182 4.05400000 1892816894 1892816894 -1.00000000
3.20571375 2.52083635 1.09273398 8 15 5182 4.22200000 1892816896 1892816896 15.00000000
1.80502069 1.41429985 -0.61443639 4 0 5192 2.37400000 1892816917 1892816917 -15.00000000
3.19420648 2.50187802 0.07082187 7 1 5193 4.05800000 1892816919 1892816919 1.00000000
2.12970686 1.66750383 -0.62446415 3 2 5194 2.77600000 1892816922 1892816922 -13.00000000
3.20376897 2.50756431 0.21321669 7 3 5195 4.07400000 1892816924 1892816924 3.00000000
2.56637692 2.00868249 -0.63348585 5 4 5195 3.32000000 1892816926 1892816926 -11.00000000
3.21522427 2.51562524 0.35716423 6 5 5196 4.09800000 1892816929 1892816929 5.00000000
3.18042541 2.48750353 -0.63950408 9 6 5197 4.08800000 1892816931 1892816931 -9.00000000
3.22152567 2.51874304 0.50210172 7 7 5198 4.12000000 1892816933 1892816933 7.00000000
3.19537616 2.49739957 -0.49795812 10 8 5199 4.08600000 1892816936 1892816936 -7.00000000
3.22176003 2.51802039 0.64763868 8 9 5199 4.14000000 1892816938 1892816938 9.00000000
3.20598960 2.50479364 -0.35594407 9 10 5200 4.08400000 1892816940 1892816940 -5.00000000
3.22607136 2.51957655 0.79567349 8 11 5201 4.17000000 1892816943 1892816943 11.00000000
3.19266176 2.49258637 -0.21227464 7 12 5202 4.05600000 1892816945 1892816945 -3.00000000
3.21845675 2.51182127 0.94254494 8 13 5203 4.19000000 1892816947 1892816947 13.00000000
3.20373368 2.49943113 -0.07092658 7 14 5204 4.06400000 1892816949 1892816949 -1.00000000
3.24018073 2.52695632 1.10101616 8 15 5205 4.25400000 1892816952 1892816952 15.00000000
1.80079770 1.40087354 -0.61133057 4 0 5212 2.36200000 1892816972 1892816972 -15.00000000
3.22186303 2.50544357 0.07124072 7 1 5213 4.08200000 1892816975 1892816975 1.00000000
2.15090013 1.67201972 -0.62896317 3 2 5214 2.79600000 1892816977 1892816977 -13.00000000
3.23098922 2.51163578 0.21447276 7 3 5214 4.09800000 1892816979 1892816979 3.00000000
2.57647324 2.00212121 -0.63424909 5 4 5215 3.32400000 1892816982 1892816982 -11.00000000
3.23814678 2.51538706 0.35873303 6 5 5216 4.11600000 1892816984 1892816984 5.00000000
3.20937181 2.49213648 -0.64357138 9 6 5217 4.11400000 1892816986 1892816986 -9.00000000
3.24597907 2.51965475 0.50453907 7 7 5218 4.14000000 1892816989 1892816989 7.00000000
3.22289395 2.50083399 -0.50088298 10 8 5219 4.11000000 1892816991 1892816991 -7.00000000
3.23877168 2.51224875 0.64920300 8 9 5220 4.15000000 1892816993 1892816993 9.00000000
3.21943617 2.49725080 -0.35646698 9 10 5220 4.09000000 1892816996 1892816996 -5.00000000
3.25036168 2.52033043 0.79948968 8 11 5221 4.19000000 1892816998 1892816998 11.00000000
3.22975731 2.50345135 -0.21415873 7 12 5222 4.09200000 1892817000 1892817000 -3.00000000
3.25185180 2.51966882 0.94974333 8 13 5223 4.22200000 1892817002 1892817002 13.00000000
3.22508621 2.49802899 -0.07120582 7 14 5224 4.08000000 1892817005 1892817005 -1.00000000
3.26120162 2.52509212 1.10515738 8 15 5225 4.27000000 1892817007 1892817007 15.00000000
1.79907572 1.39048374 -0.60926002 4 0 5230 2.35400000 1892817028 1892817028 -15.00000000
3.23921251 2.50264502 0.07145015 7 1 5231 4.09400000 1892817030 1892817030 1.00000000
2.16231155 1.67001891 -0.63076276 3 2 5232 2.80400000 1892817032 1892817032 -13.00000000
3.25941300 2.51734376 0.21583349 7 3 5232 4.12400000 1892817035 1892817035 3.00000000
2.58741236 1.99761641 -0.63539398 5 4 5233 3.33000000 1892817037 1892817037 -11.00000000
3.24918771 2.50763631 0.35908166 6 5 5234 4.12000000 1892817039 1892817039 5.00000000
3.21249318 2.47842193 -0.64263278 9 6 5235 4.10800000 1892817042 1892817042 -9.00000000
3.27588558 2.52641678 0.50795144 7 7 5236 4.16800000 1892817044 1892817044 7.00000000
3.24488401 2.50160480 -0.50307667 8 8 5237 4.12800000 1892817046 1892817046 -7.00000000
3.26967788 2.52071929 0.65389609 8 9 5237 4.18000000 1892817049 1892817049 9.00000000
3.23673439 2.49442148 -0.35751286 9 10 5238 4.10200000 1892817051 1892817051 -5.00000000
3.26759505 2.51729560 0.80177939 8 11 5239 4.20200000 1892817053 1892817053 11.00000000
3.25501251 2.50669718 -0.21531013 7 12 5240 4.11400000 1892817055 1892817055 -3.00000000
3.27828169 2.52370548 0.95514220 8 13 5241 4.24600000 1892817058 1892817058 13.00000000
3.24718094 2.49886084 -0.07151996 7 14 5242 4.09800000 1892817060 1892817060 -1.00000000
3.27524328 2.51954603 1.10722792 8 15 5243 4.27800000 1892817062 1892817062 15.00000000
1.81004894 1.38889945 -0.61133057 4 0 5250 2.36200000 1892817083 1892817083 -15.00000000
3.25744891 2.49862528 0.07165958 7 1 5251 4.10600000 1892817085 1892817085 1.00000000
2.15575624 1.65297461 -0.62716353 3 2 5252 2.78800000 1892817088 1892817088 -13.00000000
3.27927494 2.51445794 0.21656619 7 3 5252 4.13800000 1892817090 1892817090 3.00000000
2.59281158 1.98737812 -0.63501233 6 4 5253 3.32800000 1892817092 1892817092 -11.00000000
3.28006244 2.51324415 0.36152202 6 5 5254 4.14800000 1892817095 1892817095 5.00000000
3.22896600 2.47319889 -0.64419711 9 6 5255 4.11800000 1892817097 1892817097 -9.00000000
3.29256535 2.52100062 0.50917011 7 7 5256 4.17800000 1892817099 1892817099 7.00000000
3.27724171 2.50836062 -0.50673270 8 8 5257 4.15800000 1892817102 1892817102 -7.00000000
3.29728055 2.52369809 0.65765047 8 9 5257 4.20400000 1892817104 1892817104 9.00000000
3.26441026 2.49763608 -0.35960460 9 10 5258 4.12600000 1892817106 1892817106 -5.00000000
3.28415918 2.51183772 0.80368751 8 11 5259 4.21200000 1892817108 1892817108 11.00000000
3.27008939 2.50017214 -0.21572880 7 12 5260 4.12200000 1892817111 1892817111 -3.00000000
3.30255413 2.52408004 0.95964122 8 13 5261 4.26600000 1892817113 1892817113 13.00000000
3.27495193 2.50207877 -0.07193882 7 14 5262 4.12200000 1892817115 1892817115 -1.00000000
3.29783583 2.51865101 1.11188662 8 15 5263 4.29600000 1892817118 1892817118 15.00000000
1.81795955 1.38491404 -0.61236584 4 0 5270 2.36600000 1892817138 1892817138 -15.00000000
3.28683281 2.50298905 0.07211334 7 1 5271 4.13200000 1892817141 1892817141 1.00000000
2.16151309 1.64543962 -0.62716353 3 2 5272 2.78800000 1892817143 1892817143 -13.00000000
3.30074549 2.51267385 0.21740356 7 3 5272 4.15400000 1892817145 1892817145 3.00000000
2.60129523 1.97950435 -0.63539398 6 4 5273 3.33000000 1892817148 1892817148 -11.00000000
3.30308700 2.51263571 0.36309081 7 5 5274 4.16600000 1892817150 1892817150 5.00000000
3.24544144 2.46789098 -0.64576149 9 6 5275 4.12800000 1892817152 1892817152 -9.00000000
3.30766654 2.51429701 0.51014507 7 7 5276 4.18600000 1892817154 1892817154 7.00000000
3.29388022 2.50291061 -0.50795144 8 8 5277 4.16800000 1892817157 1892817157 -7.00000000
3.32651663 2.52770996 0.66171777 8 9 5277 4.23000000 1892817159 1892817159 9.00000000
3.29214764 2.50068784 -0.36169633 9 10 5278 4.15000000 1892817161 1892817161 -5.00000000
3.31636095 2.51816726 0.80941176 8 11 5279 4.24200000 1892817164 1892817164 11.00000000
3.29470539 2.50081754 -0.21677554 7 12 5280 4.14200000 1892817166 1892817166 -3.00000000
3.32221174 2.52078223 0.96279049 8 13 5281 4.28000000 1892817168 1892817168 13.00000000
3.30278468 2.50513339 -0.07235768 7 14 5282 4.14600000 1892817171 1892817171 -1.00000000
3.32156181 2.51937556 1.11706305 8 15 5282 4.31600000 1892817173 1892817173 15.00000000
1.82586443 1.38089037 -0.61340111 4 0 5290 2.37000000 1892817194 1892817194 -15.00000000
3.31150103 2.50356030 0.07246239 7 1 5291 4.15200000 1892817196 1892817196 1.00000000
2.16102481 1.63318467 -0.62536395 3 2 5292 2.78000000 1892817198 1892817198 -13.00000000
3.30949640 2.50113678 0.21740356 7 3 5292 4.15400000 1892817201 1892817201 3.00000000
2.60818911 1.97041202 -0.63539398 6 4 5293 3.33000000 1892817203 1892817203 -11.00000000
3.33091688 2.51549888 0.36518255 7 5 5294 4.19000000 1892817205 1892817205 5.00000000
3.26507211 2.46487856 -0.64795154 11 6 5295 4.14200000 1892817207 1892817207 -9.00000000
3.33068371 2.51349783 0.51233870 7 7 5296 4.20400000 1892817210 1892817210 7.00000000
3.30735135 2.49498415 -0.50868267 8 8 5297 4.17400000 1892817212 1892817212 -7.00000000
3.33216572 2.51370358 0.66109204 8 9 5297 4.22600000 1892817214 1892817214 9.00000000
3.31676435 2.50117683 -0.36343944 9 10 5298 4.17000000 1892817217 1892817217 -5.00000000
3.34394336 2.52075720 0.81399119 8 11 5299 4.26600000 1892817219 1892817219 11.00000000
3.31617546 2.49891758 -0.21761291 7 12 5300 4.15800000 1892817221 1892817221 -3.00000000
3.33410382 2.51151514 0.96369034 7 13 5301 4.28400000 1892817224 1892817224 13.00000000
3.32748365 2.50561810 -0.07270672 7 14 5302 4.16600000 1892817226 1892817226 -1.00000000
3.35083842 2.52228808 1.12379229 8 15 5303 4.34200000 1892817228 1892817228 15.00000000
1.82318795 1.36839068 -0.61081296 3 0 5311 2.36000000 1892817249 1892817249 -15.00000000
3.34304857 2.50820756 0.07295106 7 1 5312 4.18000000 1892817251 1892817251 1.00000000
2.17011404 1.62759161 -0.62626374 3 2 5313 2.78400000 1892817254 1892817254 -13.00000000
3.34464383 2.50758028 0.21907832 7 3 5314 4.18600000 1892817256 1892817256 3.00000000
2.61068106 1.95730627 -0.63424909 5 4 5314 3.32400000 1892817258 1892817258 -11.00000000
3.34808588 2.50924802 0.36605412 7 5 5315 4.20000000 1892817260 1892817260 5.00000000
3.28198910 2.45881701 -0.64951593 9 6 5316 4.15200000 1892817263 1892817263 -9.00000000
3.36529613 2.52031255 0.51623851 7 7 5317 4.23600000 1892817265 1892817265 7.00000000
3.33554292 2.49712133 -0.51160753 8 8 5318 4.19800000 1892817267 1892817267 -7.00000000
3.35716987 2.51331210 0.66422075 8 9 5318 4.24600000 1892817270 1892817270 9.00000000
3.34186101 2.50094128 -0.36518255 9 10 5319 4.19000000 1892817272 1892817272 -5.00000000
3.36730838 2.51906848 0.81742573 8 11 5320 4.28400000 1892817274 1892817274 11.00000000
3.33970761 2.49751139 -0.21855496 7 12 5321 4.17600000 1892817277 1892817277 -3.00000000
3.36201644 2.51327991 0.96908915 8 13 5322 4.30800000 1892817279 1892817279 13.00000000
3.34305215 2.49819350 -0.07284635 7 14 5323 4.17400000 1892817281 1892817281 -1.00000000
3.36581230 2.51520181 1.12586284 8 15 5323 4.35000000 1892817284 1892817284 15.00000000
1.82175696 1.35740125 -0.60874242 4 0 5331 2.35200000 1892817304 1892817304 -15.00000000
3.35980201 2.50249529 0.07312559 7 1 5332 4.19000000 1892817307 1892817307 1.00000000
2.17890835 1.62233424 -0.62716353 3 2 5333 2.78800000 1892817309 1892817309 -13.00000000
3.36939836 2.50781488 0.22012503 7 3 5334 4.20600000 1892817311 1892817311 3.00000000
2.61907244 1.94935358 -0.63463074 5 4 5334 3.32600000 1892817313 1892817313 -11.00000000
3.36961222 2.50706029 0.36744860 7 5 5335 4.21600000 1892817316 1892817316 5.00000000
3.28579688 2.44380903 -0.64857727 9 6 5336 4.14600000 1892817318 1892817318 -9.00000000
3.39000368 2.52039409 0.51867592 7 7 5337 4.25600000 1892817320 1892817320 7.00000000
3.36017179 2.49730420 -0.51404488 8 8 5338 4.21800000 1892817323 1892817323 -7.00000000
3.38221574 2.51277113 0.66734940 8 9 5339 4.26600000 1892817325 1892817325 9.00000000
3.35536838 2.49282527 -0.36570549 9 10 5339 4.19600000 1892817327 1892817327 -5.00000000
3.39026618 2.51783395 0.82086033 8 11 5340 4.30200000 1892817330 1892817330 11.00000000
3.37566710 2.50607753 -0.22033438 8 12 5341 4.21000000 1892817332 1892817332 -3.00000000
3.38798285 2.51430368 0.97403806 8 13 5342 4.33000000 1892817334 1892817334 13.00000000
3.37102437 2.50080609 -0.07326520 7 14 5343 4.19800000 1892817337 1892817337 -1.00000000
3.38587046 2.51090384 1.12948632 8 15 5344 4.36400000 1892817339 1892817339 15.00000000
1.83401299 1.35709822 -0.61133057 4 0 5350 2.36200000 1892817360 1892817360 -15.00000000
3.37933588 2.49966431 0.07336992 7 1 5351 4.20400000 1892817362 1892817362 1.00000000
2.17487478 1.60814810 -0.62446415 3 2 5352 2.77600000 1892817364 1892817364 -13.00000000
3.40339422 2.51562262 0.22179978 7 3 5353 4.23800000 1892817366 1892817366 3.00000000
2.62867999 1.94299161 -0.63539398 8 4 5353 3.33000000 1892817369 1892817369 -11.00000000
3.38912439 2.50416040 0.36866879 7 5 5354 4.23000000 1892817371 1892817371 5.00000000
3.30023861 2.43759394 -0.64982879 9 6 5355 4.15400000 1892817373 1892817373 -9.00000000
3.40153694 2.51149678 0.51916343 7 7 5356 4.26000000 1892817376 1892817376 7.00000000
3.39398932 2.50500894 -0.51794469 8 8 5357 4.25000000 1892817378 1892817378 -7.00000000
3.41393328 2.51972890 0.67204249 8 9 5357 4.29600000 1892817380 1892817380 9.00000000
3.38285542 2.49587941 -0.36779723 9 10 5358 4.22000000 1892817383 1892817383 -5.00000000
3.40807700 2.51356936 0.82314998 8 11 5359 4.31400000 1892817385 1892817385 11.00000000
3.39199686 2.50079584 -0.22085774 8 12 5360 4.22000000 1892817387 1892817387 -3.00000000
3.41669536 2.51808476 0.97988677 8 13 5361 4.35600000 1892817390 1892817390 13.00000000
3.39539838 2.50147462 -0.07361425 7 14 5362 4.21800000 1892817392 1892817392 -1.00000000
3.41085076 2.51285863 1.13518035 8 15 5362 4.38600000 1892817394 1892817394 15.00000000
1.84029579 1.35183167 -0.61184824 4 0 5370 2.36400000 1892817415 1892817415 -15.00000000
3.40738249 2.50205588 0.07378878 7 1 5371 4.22800000 1892817417 1892817417 1.00000000
2.18361688 1.60285282 -0.62536395 3 2 5372 2.78000000 1892817419 1892817419 -13.00000000
3.41537523 2.50609040 0.22200912 7 3 5373 4.24200000 1892817422 1892817422 3.00000000
2.63228059 1.93148112 -0.63463074 5 4 5373 3.32600000 1892817424 1892817424 -11.00000000
3.42033648 2.50881243 0.37110916 7 5 5374 4.25800000 1892817426 1892817426 5.00000000
3.30872726 2.42605925 -0.64982879 9 6 5375 4.15400000 1892817429 1892817429 -9.00000000
3.42309165 2.50899601 0.52111334 7 7 5376 4.27600000 1892817431 1892817431 7.00000000
3.40591526 2.49549294 -0.51843220 8 8 5377 4.25400000 1892817433 1892817433 -7.00000000
3.43748856 2.51770449 0.67485827 8 9 5378 4.31400000 1892817436 1892817436 9.00000000
3.41244292 2.49936032 -0.37006328 9 10 5378 4.24600000 1892817438 1892817438 -5.00000000
3.43108678 2.51209569 0.82658458 8 11 5379 4.33200000 1892817440 1892817440 11.00000000
3.40876412 2.49483824 -0.22138110 8 12 5380 4.23000000 1892817442 1892817442 -3.00000000
3.43961906 2.51649880 0.98393589 9 13 5381 4.37400000 1892817445 1892817445 13.00000000
3.42025042 2.50141191 -0.07396330 7 14 5382 4.23800000 1892817447 1892817447 -1.00000000
3.44343066 2.51744270 1.14294493 8 15 5383 4.41600000 1892817449 1892817449 15.00000000
1.84789002 1.34799862 -0.61288351 4 0 5389 2.36800000 1892817470 1892817470 -15.00000000
3.43343401 2.50370312 0.07417273 7 1 5390 4.25000000 1892817472 1892817472 1.00000000
2.19521928 1.60019457 -0.62716353 3 2 5391 2.78800000 1892817475 1892817475 -13.00000000
3.43980861 2.50651288 0.22305584 7 3 5392 4.26200000 1892817477 1892817477 3.00000000
2.63867116 1.92274153 -0.63463074 5 4 5392 3.32600000 1892817479 1892817479 -11.00000000
