# .PCD v0.7 - Point Cloud Data file format
VERSION 0.7
FIELDS x y z intensity laser_id azimuth distance_m adjustedtime timestamp vertical_angle
SIZE 4 4 4 1 1 2 8 8 4 8
TYPE F F F U U U F U U F
COUNT 1 1 1 1 1 1 1 1 1 1
WIDTH 537
HEIGHT 1
VIEWPOINT 0 0 0 1 0 0 0
POINTS 537
DATA ascii
5.03354073 7.21541119 2.35732388 40 15 3490 9.10800000 1891912198 1891912198 15.00000000
1.30907929 1.87094867 -0.61184824 4 0 3498 2.36400000 1891912218 1891912218 -15.00000000
1.55143893 2.21568441 -0.62446415 3 2 3500 2.77600000 1891912223 1891912223 -13.00000000
1.88890088 2.69662809 -0.63997334 4 4 3501 3.35400000 1891912227 1891912227 -11.00000000
2.37660527 3.39036465 -0.65577328 2 6 3503 4.19200000 1891912232 1891912232 -9.00000000
3.20687842 4.57140112 -0.68563694 6 8 3505 5.62600000 1891912237 1891912237 -7.00000000
4.82519531 6.87575722 -0.73489720 8 10 3506 8.43200000 1891912241 1891912241 -5.00000000
5.81749725 8.28053284 2.33634162 59 13 3509 10.38600000 1891912248 1891912248 13.00000000
5.05995274 7.19691372 2.35732388 42 15 3511 9.10800000 1891912253 1891912253 15.00000000
1.32228041 1.87584174 -0.61495405 4 0 3518 2.37600000 1891912274 1891912274 -15.00000000
1.56702697 2.22140217 -0.62761343 4 2 3520 2.79000000 1891912278 1891912278 -13.00000000
1.89151061 2.68039393 -0.63768369 4 4 3521 3.34200000 1891912283 1891912283 -11.00000000
2.39526248 3.39172959 -0.65765047 2 6 3523 4.20400000 1891912287 1891912287 -9.00000000
3.22281599 4.56017923 -0.68563694 6 8 3525 5.62600000 1891912292 1891912292 -7.00000000
4.86066866 6.87514114 -0.73664033 13 10 3526 8.45200000 1891912297 1891912297 -5.00000000
5.84411478 8.25699425 2.33544183 60 13 3529 10.38200000 1891912304 1891912304 13.00000000
5.08602333 7.18324804 2.35835910 40 15 3530 9.11200000 1891912308 1891912308 15.00000000
1.32099044 1.86018896 -0.61133057 4 0 3538 2.36200000 1891912329 1891912329 -15.00000000
1.57815814 2.22068429 -0.62896317 4 2 3540 2.79600000 1891912333 1891912333 -13.00000000
1.89630520 2.66737461 -0.63615721 2 4 3541 3.33400000 1891912338 1891912338 -11.00000000
2.39907146 3.37208080 -0.65546042 2 6 3543 4.19000000 1891912343 1891912343 -9.00000000
3.24101710 4.55213594 -0.68612438 6 8 3545 5.63000000 1891912347 1891912347 -7.00000000
4.86845589 6.83541250 -0.73420000 13 10 3546 8.42400000 1891912352 1891912352 -5.00000000
5.87516403 8.23971748 2.33634162 57 13 3549 10.38600000 1891912359 1891912359 13.00000000
5.11007261 7.16141367 2.35732388 42 15 3551 9.10800000 1891912363 1891912363 15.00000000
1.32458091 1.85288668 -0.61029530 4 0 3556 2.35800000 1891912384 1891912384 -15.00000000
1.58059144 2.20937562 -0.62716353 3 2 3558 2.78800000 1891912389 1891912389 -13.00000000
1.90239048 2.65821099 -0.63539398 2 4 3559 3.33000000 1891912393 1891912393 -11.00000000
2.40390229 3.35649729 -0.65389609 2 6 3561 4.18000000 1891912398 1891912398 -9.00000000
3.25530195 4.54193163 -0.68612438 6 8 3563 5.63000000 1891912403 1891912403 -7.00000000
4.89687157 6.82979918 -0.73524582 13 10 3564 8.43600000 1891912407 1891912407 -5.00000000
5.90556622 8.22755241 2.33814120 53 13 3567 10.39400000 1891912414 1891912414 13.00000000
5.12679148 7.13994312 2.35525322 42 15 3568 9.10000000 1891912419 1891912419 15.00000000
1.33104062 1.84825170 -0.61029530 4 0 3576 2.35800000 1891912439 1891912439 -15.00000000
1.58601511 2.20068288 -0.62626374 3 2 3578 2.78400000 1891912444 1891912444 -13.00000000
1.91854656 2.66110921 -0.63768369 2 4 3579 3.34200000 1891912449 1891912449 -11.00000000
2.42022705 3.35449338 -0.65514755 2 6 3581 4.18800000 1891912453 1891912453 -9.00000000
3.27578473 4.53697824 -0.68709934 6 8 3583 5.63800000 1891912458 1891912458 -7.00000000
4.92301559 6.81589460 -0.73559445 13 10 3584 8.44000000 1891912462 1891912462 -5.00000000
5.93082428 8.20215034 2.33679152 23 13 3587 10.38800000 1891912469 1891912469 13.00000000
5.15745640 7.12736511 2.35732388 45 15 3589 9.10800000 1891912474 1891912474 15.00000000
1.34202182 1.84984899 -0.61236584 4 0 3596 2.36600000 1891912495 1891912495 -15.00000000
1.58910775 2.18882561 -0.62446415 3 2 3598 2.77600000 1891912499 1891912499 -13.00000000
1.93013132 2.65757298 -0.63844693 4 4 3599 3.34600000 1891912504 1891912504 -11.00000000
2.44585824 3.36519980 -0.65890199 4 6 3601 4.21200000 1891912509 1891912509 -9.00000000
3.28459573 4.51588392 -0.68563694 6 8 3603 5.62600000 1891912513 1891912513 -7.00000000
4.95029402 6.80350161 -0.73611742 8 10 3604 8.44600000 1891912518 1891912518 -5.00000000
4.98645258 6.84565973 1.95527458 14 13 3607 8.69200000 1891912525 1891912525 13.00000000
5.18106318 7.11022329 2.35732388 40 15 3608 9.10800000 1891912529 1891912529 15.00000000
1.35303032 1.85139215 -0.61443639 4 0 3616 2.37400000 1891912550 1891912550 -15.00000000
1.60134006 2.18955708 -0.62626374 3 2 3618 2.78400000 1891912555 1891912555 -13.00000000
1.93244076 2.64131260 -0.63615721 2 4 3619 3.33400000 1891912559 1891912559 -11.00000000
2.45292234 3.35026622 -0.65765047 6 6 3621 4.20400000 1891912564 1891912564 -9.00000000
3.29799271 4.50118876 -0.68514943 6 8 3623 5.62200000 1891912568 1891912568 -7.00000000
4.97283459 6.78457355 -0.73594308 8 10 3624 8.44400000 1891912573 1891912573 -5.00000000
5.01492929 6.83449650 1.95707417 20 13 3627 8.70000000 1891912580 1891912580 13.00000000
5.21051884 7.09585714 2.35887671 45 15 3629 9.11400000 1891912585 1891912585 15.00000000
1.35458219 1.84067142 -0.61236584 4 0 3635 2.36600000 1891912605 1891912605 -15.00000000
1.61205888 2.18894219 -0.62761343 3 2 3637 2.79000000 1891912610 1891912610 -13.00000000
1.94584703 2.64121246 -0.63768369 2 4 3638 3.34200000 1891912615 1891912615 -11.00000000
2.47105217 3.35165358 -0.65952772 6 6 3640 4.21600000 1891912619 1891912619 -9.00000000
3.31525803 4.49342203 -0.68563694 6 8 3642 5.62600000 1891912624 1891912624 -7.00000000
5.00477123 6.78086996 -0.73733759 13 10 3643 8.46000000 1891912628 1891912628 -5.00000000
5.05146265 6.83663654 1.96247303 25 13 3646 8.72400000 1891912635 1891912635 13.00000000
5.22704411 7.07168531 2.35628867 40 15 3647 9.10400000 1891912640 1891912640 15.00000000
1.35869813 1.83282793 -0.61133057 4 0 3655 2.36200000 1891912661 1891912661 -15.00000000
1.62433422 2.18956208 -0.62941307 3 2 3657 2.79800000 1891912665 1891912665 -13.00000000
1.94803476 2.62494469 -0.63539398 2 4 3658 3.33000000 1891912670 1891912670 -11.00000000
2.47095871 3.32714891 -0.65639901 6 6 3660 4.19600000 1891912674 1891912674 -9.00000000
3.33092284 4.48182201 -0.68563694 6 8 3662 5.62600000 1891912679 1891912679 -7.00000000
5.02127790 6.75376558 -0.73629171 13 10 3663 8.44800000 1891912684 1891912684 -5.00000000
5.08809471 6.83615828 1.96742189 22 13 3666 8.74600000 1891912691 1891912691 13.00000000
5.24708223 7.04719830 2.35421801 40 15 3667 9.09600000 1891912695 1891912695 15.00000000
1.36971116 1.83426571 -0.61340111 4 0 3675 2.37000000 1891912716 1891912716 -15.00000000
1.62613463 2.17607355 -0.62716353 3 2 3677 2.78800000 1891912721 1891912721 -13.00000000
1.96188760 2.62441874 -0.63692045 2 4 3678 3.33800000 1891912725 1891912725 -11.00000000
2.47545791 3.30901289 -0.65452182 6 6 3680 4.18400000 1891912730 1891912730 -9.00000000
3.35130572 4.47652435 -0.68661189 6 8 3682 5.63400000 1891912734 1891912734 -7.00000000
5.04482222 6.73619699 -0.73629171 13 10 3683 8.44800000 1891912739 1891912739 -5.00000000
5.12829208 6.84018421 1.97372055 21 13 3686 8.77400000 1891912746 1891912746 13.00000000
5.27860403 7.03811264 2.35732388 45 15 3687 9.10800000 1891912750 1891912750 15.00000000
1.37610555 1.82947326 -0.61340111 4 0 3695 2.37000000 1891912771 1891912771 -15.00000000
1.63372064 2.17038393 -0.62716353 3 2 3697 2.78800000 1891912776 1891912776 -13.00000000
1.97103655 2.61755443 -0.63692045 4 4 3698 3.33800000 1891912780 1891912780 -11.00000000
2.48699331 3.30035162 -0.65452182 4 6 3700 4.18400000 1891912785 1891912785 -9.00000000
3.36213040 4.45845890 -0.68563694 6 8 3702 5.62600000 1891912790 1891912790 -7.00000000
5.07550430 6.72808933 -0.73733759 8 10 3703 8.46000000 1891912794 1891912794 -5.00000000
5.16623068 6.84090281 1.97911942 16 13 3706 8.79800000 1891912801 1891912801 13.00000000
5.30436468 7.01871824 2.35732388 45 15 3708 9.10800000 1891912806 1891912806 15.00000000
1.38481653 1.82773829 -0.61443639 4 0 3715 2.37400000 1891912827 1891912827 -15.00000000
1.64599633 2.17087936 -0.62896317 3 2 3717 2.79600000 1891912831 1891912831 -13.00000000
1.97660220 2.60596561 -0.63577557 4 4 3718 3.33200000 1891912836 1891912836 -11.00000000
2.50088716 3.29479718 -0.65514755 4 6 3720 4.18800000 1891912840 1891912840 -9.00000000
3.37767291 4.44669580 -0.68563694 6 8 3722 5.62600000 1891912845 1891912845 -7.00000000
5.10378075 6.71667719 -0.73803484 8 10 3723 8.46800000 1891912850 1891912850 -5.00000000
5.19833708 6.83368444 1.98226869 6 13 3726 8.81200000 1891912856 1891912856 13.00000000
5.32994986 7.00416422 2.35835910 42 15 3727 9.11200000 1891912861 1891912861 15.00000000
1.38181198 1.81060743 -0.61029530 4 0 3735 2.35800000 1891912882 1891912882 -15.00000000
1.65356410 2.16512060 -0.62896317 3 2 3737 2.79600000 1891912886 1891912886 -13.00000000
1.98687863 2.60061026 -0.63615721 4 4 3738 3.33400000 1891912891 1891912891 -11.00000000
2.51957178 3.29546309 -0.65702474 4 6 3740 4.20000000 1891912896 1891912896 -9.00000000
3.39558673 4.43803167 -0.68612438 6 8 3742 5.63000000 1891912900 1891912900 -7.00000000
5.12235117 6.69249201 -0.73733759 8 10 3743 8.46000000 1891912905 1891912905 -5.00000000
5.35201597 6.98245001 2.35732388 45 15 3747 9.10800000 1891912916 1891912916 15.00000000
1.38780856 1.80601525 -0.61029530 4 0 3754 2.35800000 1891912937 1891912937 -15.00000000
1.66548657 2.16580439 -0.63076276 3 2 3756 2.80400000 1891912942 1891912942 -13.00000000
2.00267386 2.60334373 -0.63844693 4 4 3757 3.34600000 1891912946 1891912946 -11.00000000
2.53048611 3.28708982 -0.65702474 6 6 3759 4.20000000 1891912951 1891912951 -9.00000000
3.41028500 4.42674685 -0.68612438 6 8 3761 5.63000000 1891912955 1891912955 -7.00000000
5.14451647 6.67546892 -0.73733759 8 10 3762 8.46000000 1891912960 1891912960 -5.00000000
6.17678452 8.00625515 2.33454204 51 13 3765 10.37800000 1891912967 1891912967 13.00000000
5.37278080 6.96160507 2.35628867 45 15 3766 9.10400000 1891912972 1891912972 15.00000000
1.39883399 1.80727077 -0.61236584 4 0 3774 2.36600000 1891912992 1891912992 -15.00000000
1.67064977 2.15689635 -0.62986296 3 2 3776 2.80000000 1891912997 1891912997 -13.00000000
2.00934410 2.59323335 -0.63768369 2 4 3777 3.34200000 1891913002 1891913002 -11.00000000
2.53468204 3.26887035 -0.65514755 4 6 3779 4.18800000 1891913006 1891913006 -9.00000000
3.43058443 4.42108917 -0.68709934 6 8 3781 5.63800000 1891913011 1891913011 -7.00000000
5.15801287 6.64487982 -0.73594308 8 10 3782 8.44400000 1891913015 1891913015 -5.00000000
6.21426010 7.99695587 2.33814120 55 13 3785 10.39400000 1891913022 1891913022 13.00000000
5.39944601 6.94339132 2.35680628 45 15 3787 9.10600000 1891913027 1891913027 15.00000000
1.40457487 1.80036306 -0.61184824 4 0 3796 2.36400000 1891913048 1891913048 -15.00000000
1.66213012 2.12896109 -0.62356430 3 2 3798 2.77200000 1891913052 1891913052 -13.00000000
2.02895403 2.59787726 -0.64073658 4 4 3799 3.35800000 1891913057 1891913057 -11.00000000
2.55208063 3.26533937 -0.65639901 4 6 3801 4.19600000 1891913061 1891913061 -9.00000000
3.43285918 4.38912058 -0.68417448 6 8 3803 5.61400000 1891913066 1891913066 -7.00000000
5.17857838 6.61874866 -0.73524582 8 10 3804 8.43600000 1891913071 1891913071 -5.00000000
6.24612188 7.97457027 2.33859110 64 13 3807 10.39600000 1891913078 1891913078 13.00000000
5.43439054 6.93571997 2.36094737 45 15 3808 9.12200000 1891913082 1891913082 15.00000000
1.41681874 1.80304420 -0.61443639 3 0 3816 2.37400000 1891913103 1891913103 -15.00000000
1.67436981 2.12927341 -0.62536395 3 2 3818 2.78000000 1891913107 1891913107 -13.00000000
2.01858878 2.56609035 -0.63463074 4 4 3819 3.32600000 1891913112 1891913112 -11.00000000
2.55857587 3.25020242 -0.65514755 4 6 3821 4.18800000 1891913117 1891913117 -9.00000000
3.45798659 4.38958549 -0.68612438 6 8 3823 5.63000000 1891913121 1891913121 -7.00000000
5.21644926 6.61941004 -0.73733759 8 10 3824 8.46000000 1891913126 1891913126 -5.00000000
6.27150631 7.94965839 2.33769131 62 13 3827 10.39200000 1891913133 1891913133 13.00000000
5.45258379 6.90912580 2.35835910 45 15 3828 9.11200000 1891913137 1891913137 15.00000000
1.41768265 1.79252338 -0.61236584 4 0 3834 2.36600000 1891913158 1891913158 -15.00000000
1.69072592 2.13622737 -0.62896317 3 2 3836 2.79600000 1891913163 1891913163 -13.00000000
2.03151512 2.56589293 -0.63615721 5 4 3837 3.33400000 1891913167 1891913167 -11.00000000
2.57613420 3.25143814 -0.65702474 4 6 3839 4.20000000 1891913172 1891913172 -9.00000000
3.47422624 4.38181162 -0.68661189 6 8 3841 5.63400000 1891913177 1891913177 -7.00000000
5.23226643 6.59674549 -0.73664033 8 10 3842 8.45200000 1891913181 1891913181 -5.00000000
6.30372047 7.93907404 2.34039068 64 13 3845 10.40400000 1891913188 1891913188 13.00000000
5.47546530 6.89100599 2.35835910 45 15 3847 9.11200000 1891913193 1891913193 15.00000000
1.41550553 1.77698648 -0.60874242 3 0 3854 2.35200000 1891913213 1891913213 -15.00000000
1.70060194 2.13336015 -0.62986296 3 2 3856 2.80000000 1891913218 1891913218 -13.00000000
2.04780364 2.56799579 -0.63844693 2 4 3857 3.34600000 1891913223 1891913223 -11.00000000
2.58993244 3.24551415 -0.65765047 4 6 3859 4.20400000 1891913227 1891913227 -9.00000000
3.49197793 4.37275982 -0.68709934 6 8 3861 5.63800000 1891913232 1891913232 -7.00000000
5.24780035 6.56910133 -0.73559445 8 10 3862 8.44000000 1891913237 1891913237 -5.00000000
6.33139467 7.91702127 2.34039068 62 13 3865 10.40400000 1891913243 1891913243 13.00000000
5.49707174 6.86883450 2.35732388 45 15 3867 9.10800000 1891913248 1891913248 15.00000000
1.42442739 1.77479970 -0.60977769 3 0 3875 2.35600000 1891913269 1891913269 -15.00000000
1.69864738 2.11495781 -0.62626374 3 2 3877 2.78400000 1891913273 1891913273 -13.00000000
2.05720186 2.56047297 -0.63844693 2 4 3878 3.34600000 1891913278 1891913278 -11.00000000
2.59685946 3.22984171 -0.65639901 4 6 3880 4.19600000 1891913283 1891913283 -9.00000000
3.51047039 4.36302471 -0.68758684 6 8 3882 5.64200000 1891913287 1891913287 -7.00000000
5.28433418 6.56534433 -0.73733759 8 10 3883 8.46000000 1891913292 1891913292 -5.00000000
6.37015104 7.90590191 2.34399009 60 13 3886 10.42000000 1891913299 1891913299 13.00000000
5.52221060 6.84864092 2.35732388 42 15 3888 9.10800000 1891913303 1891913303 15.00000000
1.43668604 1.77732861 -0.61236584 4 0 3895 2.36600000 1891913324 1891913324 -15.00000000
1.70847070 2.11204576 -0.62716353 3 2 3897 2.78800000 1891913329 1891913329 -13.00000000
2.06859708 2.55632877 -0.63921010 4 4 3898 3.35000000 1891913333 1891913333 -11.00000000
2.61309052 3.22689795 -0.65765047 4 6 3900 4.20400000 1891913338 1891913338 -9.00000000
3.51568031 4.33840656 -0.68563694 6 8 3902 5.62600000 1891913343 1891913343 -7.00000000
5.30220079 6.54066753 -0.73664033 13 10 3903 8.45200000 1891913347 1891913347 -5.00000000
6.39525318 7.88059139 2.34309030 62 13 3906 10.41600000 1891913354 1891913354 13.00000000
5.55095434 6.83532143 2.35939431 42 15 3908 9.11600000 1891913359 1891913359 15.00000000
1.44623029 1.77704978 -0.61391878 4 0 3914 2.37200000 1891913379 1891913379 -15.00000000
1.71300387 2.10334659 -0.62626374 3 2 3916 2.78400000 1891913384 1891913384 -13.00000000
2.06714249 2.53727841 -0.63615721 2 4 3917 3.33400000 1891913389 1891913389 -11.00000000
2.62502503 3.21974587 -0.65796334 4 6 3919 4.20600000 1891913393 1891913393 -9.00000000
3.53757715 4.33595276 -0.68709934 6 8 3921 5.63800000 1891913398 1891913398 -7.00000000
5.33141994 6.53231001 -0.73768622 8 10 3922 8.46400000 1891913402 1891913402 -5.00000000
6.41395283 7.85028648 2.34039068 57 13 3925 10.40400000 1891913409 1891913409 13.00000000
5.58095884 6.82831955 2.36301780 47 15 3926 9.13000000 1891913414 1891913414 15.00000000
1.44875062 1.76750839 -0.61236584 4 0 3934 2.36600000 1891913435 1891913435 -15.00000000
1.72280729 2.10036778 -0.62716353 3 2 3936 2.78800000 1891913439 1891913439 -13.00000000
2.64000869 3.21514320 -0.65890199 4 6 3939 4.21200000 1891913448 1891913448 -9.00000000
3.54512930 4.31437540 -0.68563694 6 8 3941 5.62600000 1891913453 1891913453 -7.00000000
5.35165930 6.51058197 -0.73733759 8 10 3942 8.46000000 1891913458 1891913458 -5.00000000
5.65874958 6.87683058 2.05605268 15 13 3945 9.14000000 1891913465 1891913465 13.00000000
5.58875561 6.78694010 2.35577106 40 15 3947 9.10200000 1891913469 1891913469 15.00000000
1.45245183 1.75946093 -0.61133057 4 0 3954 2.36200000 1891913490 1891913490 -15.00000000
1.73509300 2.10035086 -0.62896317 3 2 3956 2.79600000 1891913495 1891913495 -13.00000000
2.07730174 2.51370502 -0.63386750 4 4 3957 3.32200000 1891913499 1891913499 -11.00000000
2.64618015 3.19981909 -0.65765047 4 6 3959 4.20400000 1891913504 1891913504 -9.00000000
3.56269884 4.30503321 -0.68612438 6 8 3961 5.63000000 1891913508 1891913508 -7.00000000
5.36164761 6.47651434 -0.73559445 8 10 3962 8.44000000 1891913513 1891913513 -5.00000000
6.45243645 7.78581190 2.33454204 45 13 3965 10.37800000 1891913520 1891913520 13.00000000
5.60136747 6.75647211 2.35162973 31 15 3966 9.08600000 1891913525 1891913525 15.00000000
1.45611453 1.75140917 -0.61029530 4 0 3974 2.35800000 1891913545 1891913545 -15.00000000
1.73493576 2.08529305 -0.62626374 3 2 3976 2.78400000 1891913550 1891913550 -13.00000000
2.10113454 2.52454662 -0.63844693 4 4 3977 3.34600000 1891913554 1891913554 -11.00000000
2.66239023 3.19663429 -0.65890199 4 6 3979 4.21200000 1891913559 1891913559 -9.00000000
3.58278823 4.29867029 -0.68709934 6 8 3981 5.63800000 1891913564 1891913564 -7.00000000
5.37529087 6.44704723 -0.73437428 4 10 3982 8.42600000 1891913568 1891913568 -5.00000000
6.49580765 7.78269053 2.34039068 53 13 3985 10.40400000 1891913575 1891913575 13.00000000
5.60504055 6.71069050 2.34282994 20 15 3987 9.05200000 1891913580 1891913580 15.00000000
1.46563435 1.75101507 -0.61184824 4 0 3993 2.36400000 1891913601 1891913601 -15.00000000
1.74434400 2.08251619 -0.62716353 3 2 3995 2.78800000 1891913605 1891913605 -13.00000000
2.11201644 2.52057481 -0.63921010 2 4 3996 3.35000000 1891913610 1891913610 -11.00000000
2.67043757 3.18476057 -0.65827620 4 6 3998 4.20800000 1891913614 1891913614 -9.00000000
3.59447145 4.28372431 -0.68661189 6 8 4000 5.63400000 1891913619 1891913619 -7.00000000
5.44403553 6.48565006 -0.74082381 4 10 4001 8.50000000 1891913624 1891913624 -5.00000000
6.52659512 7.76707458 2.34219027 60 13 4004 10.41200000 1891913631 1891913631 13.00000000
5.62858152 6.69600630 2.34386516 13 15 4005 9.05600000 1891913635 1891913635 15.00000000
1.47547293 1.75031960 -0.61340111 4 0 4013 2.37000000 1891913656 1891913656 -15.00000000
1.74657655 2.07045650 -0.62536395 3 2 4015 2.78000000 1891913660 1891913660 -13.00000000
2.11826968 2.51018620 -0.63844693 4 4 4016 3.34600000 1891913665 1891913665 -11.00000000
2.67898917 3.17240119 -0.65765047 6 6 4018 4.20400000 1891913670 1891913670 -9.00000000
3.60171485 4.26205397 -0.68514943 6 8 4020 5.62200000 1891913674 1891913674 -7.00000000
5.44863415 6.44530535 -0.73838347 4 10 4021 8.47200000 1891913679 1891913679 -5.00000000
6.54863214 7.73829460 2.34039068 60 13 4024 10.40400000 1891913686 1891913686 13.00000000
5.64434624 6.66501188 2.34024191 18 15 4026 9.04200000 1891913690 1891913690 15.00000000
1.48157370 1.74515855 -0.61340111 4 0 4033 2.37000000 1891913711 1891913711 -15.00000000
1.76641035 2.07919860 -0.62986296 3 2 4035 2.80000000 1891913716 1891913716 -13.00000000
2.11176252 2.48482513 -0.63386750 4 4 4036 3.32200000 1891913720 1891913720 -11.00000000
2.69772506 3.17205906 -0.65952772 6 6 4038 4.21600000 1891913725 1891913725 -9.00000000
3.61914349 4.25247908 -0.68563694 6 8 4040 5.62600000 1891913730 1891913730 -7.00000000
5.45172548 6.40349102 -0.73576880 4 10 4041 8.44200000 1891913734 1891913734 -5.00000000
5.65060759 6.63474751 1.69400227 37 11 4042 8.87800000 1891913736 1891913736 11.00000000
5.63514853 6.61191893 2.00566363 23 13 4044 8.91600000 1891913741 1891913741 13.00000000
5.66015053 6.63890743 2.33765364 20 15 4045 9.03200000 1891913746 1891913746 15.00000000
1.48012400 1.73116624 -0.61029530 4 0 4053 2.35800000 1891913766 1891913766 -15.00000000
1.77112365 2.07005858 -0.62896317 3 2 4055 2.79600000 1891913771 1891913771 -13.00000000
2.13829565 2.49831986 -0.63921010 4 4 4056 3.35000000 1891913776 1891913776 -11.00000000
2.70107126 3.15362120 -0.65765047 6 6 4058 4.20400000 1891913780 1891913780 -9.00000000
3.64171648 4.24886322 -0.68709934 6 8 4060 5.63800000 1891913785 1891913785 -7.00000000
5.49349737 6.40711021 -0.73838347 4 10 4061 8.47200000 1891913789 1891913789 -5.00000000
6.59614944 7.68499470 2.33814120 51 13 4064 10.39400000 1891913796 1891913796 13.00000000
5.73353624 6.67527151 2.35784149 31 15 4066 9.11000000 1891913801 1891913801 15.00000000
1.49119997 1.73184490 -0.61236584 4 0 4073 2.36600000 1891913822 1891913822 -15.00000000
1.77579451 2.06091094 -0.62806332 3 2 4075 2.79200000 1891913826 1891913826 -13.00000000
2.14700317 2.49084067 -0.63921010 4 4 4076 3.35000000 1891913831 1891913831 -11.00000000
2.71722388 3.15015650 -0.65890199 6 6 4078 4.21200000 1891913836 1891913836 -9.00000000
3.27777219 3.79733562 -0.61592764 6 8 4080 5.05400000 1891913840 1891913840 -7.00000000
5.51843309 6.39091110 -0.73873210 4 10 4081 8.47600000 1891913845 1891913845 -5.00000000
6.63440418 7.67519188 2.34219027 51 13 4084 10.41200000 1891913852 1891913852 13.00000000
5.76448584 6.66645050 2.36146498 47 15 4085 9.12400000 1891913856 1891913856 15.00000000
1.49217367 1.72079098 -0.61029530 4 0 4093 2.35800000 1891913877 1891913877 -15.00000000
1.77531445 2.04586864 -0.62536395 3 2 4095 2.78000000 1891913882 1891913882 -13.00000000
2.14281511 2.46850514 -0.63539398 2 4 4096 3.33000000 1891913886 1891913886 -11.00000000
2.72043085 3.13170481 -0.65702474 6 6 4098 4.20000000 1891913891 1891913891 -9.00000000
3.27277470 3.76489663 -0.61251533 8 8 4100 5.02600000 1891913895 1891913895 -7.00000000
5.53809357 6.36860228 -0.73838347 4 10 4101 8.47200000 1891913900 1891913900 -5.00000000
6.66371441 7.65492630 2.34309030 62 13 4104 10.41600000 1891913907 1891913907 13.00000000
5.79522514 6.65256119 2.36405325 45 15 4106 9.13400000 1891913912 1891913912 15.00000000
1.50579548 1.72430241 -0.61340111 4 0 4113 2.37000000 1891913932 1891913932 -15.00000000
1.79142141 2.04993081 -0.62851322 3 2 4115 2.79400000 1891913937 1891913937 -13.00000000
2.15400290 2.46396661 -0.63615721 4 4 4116 3.33400000 1891913942 1891913942 -11.00000000
2.72614336 3.11624265 -0.65577328 4 6 4118 4.19200000 1891913946 1891913946 -9.00000000
3.28066659 3.74747515 -0.61154038 14 8 4120 5.01800000 1891913951 1891913951 -7.00000000
5.56947851 6.35972404 -0.73960364 4 10 4121 8.48600000 1891913955 1891913955 -5.00000000
6.68525553 7.62575769 2.34129047 59 13 4124 10.40800000 1891913962 1891913962 13.00000000
5.82107544 6.63766432 2.36560607 47 15 4125 9.14000000 1891913967 1891913967 15.00000000
1.50670218 1.71323311 -0.61133057 4 0 4133 2.36200000 1891913988 1891913988 -15.00000000
1.80114090 2.04659104 -0.62941307 3 2 4135 2.79800000 1891913992 1891913992 -13.00000000
2.16518521 2.45937967 -0.63692045 2 4 4136 3.33800000 1891913997 1891913997 -11.00000000
2.74745107 3.11856532 -0.65827620 6 6 4138 4.20800000 1891914001 1891914001 -9.00000000
3.28453827 3.72557735 -0.60983419 17 8 4140 5.00400000 1891914006 1891914006 -7.00000000
3.31044316 3.75363970 -0.43787044 3 10 4141 5.02400000 1891914011 1891914011 -5.00000000
6.71441317 7.60529709 2.34219027 60 13 4144 10.41200000 1891914018 1891914018 13.00000000
5.83909464 6.61151266 2.36353540 47 15 4145 9.13200000 1891914022 1891914022 15.00000000
1.51267326 1.70796323 -0.61133057 4 0 4153 2.36200000 1891914043 1891914043 -15.00000000
1.80956650 2.04174972 -0.62986296 3 2 4155 2.80000000 1891914048 1891914048 -13.00000000
2.17636180 2.45474505 -0.63768369 2 4 4156 3.34200000 1891914052 1891914052 -11.00000000
2.75569820 3.10600066 -0.65765047 6 6 4158 4.20400000 1891914057 1891914057 -9.00000000
3.28434348 3.69924498 -0.60739678 19 8 4160 4.98400000 1891914061 1891914061 -7.00000000
3.31029510 3.72716451 -0.43612733 15 10 4161 5.00400000 1891914066 1891914066 -5.00000000
5.62140799 6.32709408 1.64515519 3 11 4162 8.62200000 1891914068 1891914068 11.00000000
3.30376816 3.71720147 -0.26063305 10 12 4163 4.98000000 1891914071 1891914071 -3.00000000
6.75127840 7.59346390 2.34578967 57 13 4164 10.42800000 1891914073 1891914073 13.00000000
5.85828590 6.58675957 2.36198258 45 15 4165 9.12600000 1891914077 1891914077 15.00000000
1.51605415 1.69978917 -0.61029530 4 0 4173 2.35800000 1891914098 1891914098 -15.00000000
1.81149197 2.02960515 -0.62806332 3 2 4175 2.79200000 1891914103 1891914103 -13.00000000
2.19276261 2.45591998 -0.63997334 2 4 4176 3.35400000 1891914107 1891914107 -11.00000000
2.76652336 3.09636259 -0.65765047 4 6 4178 4.20400000 1891914112 1891914112 -9.00000000
3.29459000 3.68479824 -0.60690933 19 8 4180 4.98000000 1891914117 1891914117 -7.00000000
3.31133080 3.70222139 -0.43455854 15 10 4181 4.98600000 1891914121 1891914121 -5.00000000
5.62382317 6.28548670 1.63943088 12 11 4182 8.59200000 1891914124 1891914124 11.00000000
6.77774334 7.56985140 2.34578967 59 13 4184 10.42800000 1891914128 1891914128 13.00000000
5.88238811 6.56524372 2.36198258 47 15 4186 9.12600000 1891914133 1891914133 15.00000000
1.52267718 1.69645572 -0.61081296 3 0 4191 2.36000000 1891914154 1891914154 -15.00000000
3.29975295 3.67376328 -1.14005196 59 2 4193 5.06800000 1891914158 1891914158 -13.00000000
2.20309138 2.45193982 -0.64073658 2 4 4194 3.35800000 1891914163 1891914163 -11.00000000
2.76831269 3.07884240 -0.65577328 6 6 4196 4.19200000 1891914167 1891914167 -9.00000000
3.29154420 3.65819740 -0.60422820 19 8 4198 4.95800000 1891914172 1891914172 -7.00000000
3.31894660 3.68735766 -0.43403560 21 10 4199 4.98000000 1891914177 1891914177 -5.00000000
5.62646389 6.24882126 1.63446987 28 11 4200 8.56600000 1891914179 1891914179 11.00000000
6.80018711 7.54707336 2.34533978 60 13 4202 10.42600000 1891914183 1891914183 13.00000000
5.90701532 6.55350113 2.36405325 45 15 4203 9.13400000 1891914188 1891914188 15.00000000
1.53506672 1.69829595 -0.61340111 4 0 4211 2.37000000 1891914209 1891914209 -15.00000000
2.19846463 2.42967701 -0.63692045 2 4 4214 3.33800000 1891914218 1891914218 -11.00000000
2.78699827 3.07794619 -0.65765047 6 6 4216 4.20400000 1891914223 1891914223 -9.00000000
3.29629636 3.63785934 -0.60276580 29 8 4218 4.94600000 1891914227 1891914227 -7.00000000
3.32243109 3.66541648 -0.43281543 27 10 4219 4.96600000 1891914232 1891914232 -5.00000000
5.64428568 6.22478008 1.63332498 31 11 4220 8.56000000 1891914234 1891914234 11.00000000
6.82125187 7.51751757 2.34354019 62 13 4222 10.41800000 1891914239 1891914239 13.00000000
3.38422227 3.72835231 -0.08789032 2 14 4223 5.03600000 1891914241 1891914241 -1.00000000
5.93115377 6.53427267 2.36457086 45 15 4223 9.13600000 1891914243 1891914243 15.00000000
1.53838468 1.69007003 -0.61236584 4 0 4231 2.36600000 1891914264 1891914264 -15.00000000
2.20428777 2.41908574 -0.63615721 2 4 4234 3.33400000 1891914273 1891914273 -11.00000000
2.80571103 3.07695699 -0.65952772 6 6 4236 4.21600000 1891914278 1891914278 -9.00000000
3.30094647 3.61753273 -0.60130334 68 8 4238 4.93400000 1891914282 1891914282 -7.00000000
3.31102777 3.62730932 -0.42967781 42 10 4239 4.93000000 1891914287 1891914287 -5.00000000
5.67392302 6.21373844 1.63561475 12 11 4240 8.57200000 1891914289 1891914289 11.00000000
3.32577753 3.64091468 -0.25843495 235 12 4241 4.93800000 1891914292 1891914292 -3.00000000
6.84482193 7.49078369 2.34264016 60 13 4242 10.41400000 1891914294 1891914294 13.00000000
3.35134411 3.66633320 -0.08670355 10 14 4243 4.96800000 1891914296 1891914296 -1.00000000
5.95653343 6.51638079 2.36560607 47 15 4243 9.14000000 1891914299 1891914299 15.00000000
1.54166400 1.68184161 -0.61133057 4 0 4251 2.36200000 1891914319 1891914319 -15.00000000
3.32355261 3.62321067 -1.13510299 176 2 4253 5.04600000 1891914324 1891914324 -13.00000000
2.22068262 2.42005587 -0.63844693 2 4 4254 3.34600000 1891914329 1891914329 -11.00000000
2.80841827 3.05841446 -0.65765047 6 6 4256 4.20400000 1891914333 1891914333 -9.00000000
3.31624007 3.60891151 -0.60179085 40 8 4258 4.93800000 1891914338 1891914338 -7.00000000
3.31827593 3.60986209 -0.42898056 51 10 4259 4.92200000 1891914342 1891914342 -5.00000000
3.34387493 3.63516307 -0.25885364 235 12 4261 4.94600000 1891914347 1891914347 -3.00000000
6.87356710 7.46971321 2.34354019 60 13 4262 10.41800000 1891914349 1891914349 13.00000000
3.34245253 3.63107228 -0.08614508 6 14 4263 4.93600000 1891914352 1891914352 -1.00000000
5.97121668 6.48455763 2.36198258 45 15 4264 9.12600000 1891914354 1891914354 15.00000000
1.55014598 1.67928898 -0.61236584 4 0 4271 2.36600000 1891914375 1891914375 -15.00000000
3.33353519 3.60872436 -1.13420320 175 2 4273 5.04200000 1891914379 1891914379 -13.00000000
2.24510550 2.42959213 -0.64302629 4 4 4274 3.37000000 1891914384 1891914384 -11.00000000
2.81773591 3.04714227 -0.65733761 6 6 4276 4.20200000 1891914388 1891914388 -9.00000000
3.34095168 3.61042666 -0.60398448 23 8 4278 4.95600000 1891914393 1891914393 -7.00000000
3.35657215 3.62603736 -0.43229249 30 10 4279 4.96000000 1891914398 1891914398 -5.00000000
3.34840012 3.61467743 -0.25822562 235 12 4281 4.93400000 1891914402 1891914402 -3.00000000
6.90754700 7.45425081 2.34623957 60 13 4282 10.43000000 1891914405 1891914405 13.00000000
3.37277985 3.63844752 -0.08659884 8 14 4283 4.96200000 1891914407 1891914407 -1.00000000
5.99531412 6.46755409 2.36301780 45 15 4283 9.13000000 1891914409 1891914409 15.00000000
1.56389022 1.68235731 -0.61547166 4 0 4291 2.37800000 1891914430 1891914430 -15.00000000
3.34345698 3.59421229 -1.13330340 172 2 4293 5.03800000 1891914434 1891914434 -13.00000000
2.24287343 2.41024256 -0.63997334 4 4 4294 3.35400000 1891914439 1891914439 -11.00000000
2.82566285 3.03439665 -0.65671188 6 6 4296 4.19800000 1891914444 1891914444 -9.00000000
3.34000087 3.58421993 -0.60154706 21 8 4298 4.93600000 1891914448 1891914448 -7.00000000
3.37192607 3.61721349 -0.43264112 30 10 4299 4.96400000 1891914453 1891914453 -5.00000000
3.35282302 3.59420443 -0.25759757 235 12 4301 4.92200000 1891914458 1891914458 -3.00000000
6.92820692 7.42439461 2.34443998 60 13 4302 10.42200000 1891914460 1891914460 13.00000000
3.38136625 3.62226701 -0.08649413 22 14 4303 4.95600000 1891914462 1891914462 -1.00000000
6.02312660 6.45223570 2.36508846 45 15 4303 9.13800000 1891914464 1891914464 15.00000000
1.56740487 1.67379391 -0.61443639 4 0 4312 2.37400000 1891914485 1891914485 -15.00000000
3.35927296 3.58477783 -1.13420320 146 2 4314 5.04200000 1891914490 1891914490 -13.00000000
2.24632144 2.39627647 -0.63844693 4 4 4315 3.34600000 1891914494 1891914494 -11.00000000
2.84757733 3.03554535 -0.65921485 6 6 4317 4.21400000 1891914499 1891914499 -9.00000000
3.35447383 3.57340145 -0.60179085 19 8 4319 4.93800000 1891914504 1891914504 -7.00000000
3.39607215 3.61644959 -0.43403560 27 10 4320 4.98000000 1891914508 1891914508 -5.00000000
3.38648963 3.60372353 -0.25916764 192 12 4322 4.95200000 1891914513 1891914513 -3.00000000
6.95003319 7.39327192 2.34264016 66 13 4323 10.41400000 1891914515 1891914515 13.00000000
3.41379833 3.63024378 -0.08698279 88 14 4324 4.98400000 1891914517 1891914517 -1.00000000
6.04785681 6.42906141 2.36508846 47 15 4325 9.13800000 1891914520 1891914520 15.00000000
1.56793642 1.66269052 -0.61236584 4 0 4332 2.36600000 1891914540 1891914540 -15.00000000
2.25197697 2.38556552 -0.63768369 4 4 4335 3.34200000 1891914550 1891914550 -11.00000000
2.85544300 3.02271509 -0.65858912 6 6 4337 4.21000000 1891914554 1891914554 -9.00000000
3.38056374 3.57609582 -0.60422820 19 8 4339 4.95800000 1891914559 1891914559 -7.00000000
3.40456843 3.60023022 -0.43351266 18 10 4340 4.97400000 1891914564 1891914564 -5.00000000
3.42513156 3.61944342 -0.26115641 168 12 4342 4.99000000 1891914568 1891914568 -3.00000000
6.98115683 7.37462759 2.34443998 60 13 4343 10.42200000 1891914570 1891914570 13.00000000
6.06760454 6.40510607 2.36405325 45 15 4345 9.13400000 1891914575 1891914575 15.00000000
1.56517339 1.64934850 -0.60926002 4 0 4350 2.35400000 1891914596 1891914596 -15.00000000
2.25675607 2.37563229 -0.63692045 4 4 4353 3.33800000 1891914605 1891914605 -11.00000000
2.86356401 3.01229787 -0.65827620 6 6 4355 4.20800000 1891914610 1891914610 -9.00000000
3.40546370 3.57984042 -0.60666561 17 8 4357 4.97800000 1891914614 1891914614 -7.00000000
3.42959690 3.60394979 -0.43525577 12 10 4358 4.99400000 1891914619 1891914619 -5.00000000
7.00697851 7.35548162 2.34533978 59 13 4361 10.42600000 1891914626 1891914626 13.00000000
6.08636379 6.38461447 2.36353540 47 15 4363 9.13200000 1891914630 1891914630 15.00000000
1.57625985 1.64946175 -0.61133057 4 0 4370 2.36200000 1891914651 1891914651 -15.00000000
1.87884462 1.96472502 -0.62761343 2 2 4372 2.79000000 1891914656 1891914656 -13.00000000
2.26774907 2.37057757 -0.63768369 4 4 4373 3.34200000 1891914660 1891914660 -11.00000000
2.87269545 3.00085688 -0.65796334 6 6 4375 4.20600000 1891914665 1891914665 -9.00000000
7.04070568 7.33941555 2.34803915 59 13 4381 10.43800000 1891914681 1891914681 13.00000000
6.10995102 6.36472368 2.36405325 45 15 4383 9.13400000 1891914686 1891914686 15.00000000
1.59004521 1.65230143 -0.61443639 4 0 4390 2.37400000 1891914706 1891914706 -15.00000000
3.02470660 3.14203739 0.07612740 1 1 4391 4.36200000 1891914709 1891914709 1.00000000
1.87352550 1.94552135 -0.62356430 3 2 4392 2.77200000 1891914711 1891914711 -13.00000000
2.28282046 2.36971664 -0.63959175 4 4 4393 3.35200000 1891914716 1891914716 -11.00000000
2.89137864 2.99934387 -0.65984058 9 6 4395 4.21800000 1891914720 1891914720 -9.00000000
2.97418380 3.08308649 -0.52598810 12 8 4397 4.31600000 1891914725 1891914725 -7.00000000
2.97458863 3.08242917 -0.37476969 4 10 4398 4.30000000 1891914729 1891914729 -5.00000000
8.17990398 8.47349739 2.28932643 37 11 4399 11.99800000 1891914732 1891914732 11.00000000
7.05815840 7.30638456 2.34533978 55 13 4401 10.42600000 1891914736 1891914736 13.00000000
2.98626590 3.09020925 -0.07501044 5 14 4402 4.29800000 1891914739 1891914739 -1.00000000
6.13236618 6.34581661 2.36457086 33 15 4402 9.13600000 1891914741 1891914741 15.00000000
1.60252512 1.65367770 -0.61702460 5 0 4410 2.38400000 1891914762 1891914762 -15.00000000
2.99668360 3.09125781 0.07515007 16 1 4411 4.30600000 1891914764 1891914764 1.00000000
1.88844514 1.94736350 -0.62626374 3 2 4412 2.78400000 1891914766 1891914766 -13.00000000
2.98800993 3.08123398 0.22493994 12 3 4412 4.29800000 1891914769 1891914769 3.00000000
2.28424335 2.35468793 -0.63768369 2 4 4413 3.34200000 1891914771 1891914771 -11.00000000
3.01232290 3.10413671 0.37843025 13 5 4414 4.34200000 1891914773 1891914773 5.00000000
2.91008639 2.99773693 -0.66171777 9 6 4415 4.23000000 1891914775 1891914775 -9.00000000
3.00928450 3.09884071 0.53037536 1 7 4416 4.35200000 1891914778 1891914778 7.00000000
2.97524548 3.06271887 -0.52428192 18 8 4417 4.30200000 1891914780 1891914780 -7.00000000
2.99227285 3.07917142 -0.37564126 32 10 4418 4.31000000 1891914785 1891914785 -5.00000000
2.99091673 3.07562709 -0.22483526 22 12 4420 4.29600000 1891914789 1891914789 -3.00000000
2.99563980 3.07833338 -0.07497554 17 14 4422 4.29600000 1891914794 1891914794 -1.00000000
1.59209692 1.63148236 -0.61081296 4 0 4430 2.36000000 1891914817 1891914817 -15.00000000
3.00466228 3.07791686 0.07508025 15 1 4431 4.30200000 1891914819 1891914819 1.00000000
1.89795423 1.94354820 -0.62716353 3 2 4432 2.78800000 1891914822 1891914822 -13.00000000
3.00626135 3.07740521 0.22546330 15 3 4433 4.30800000 1891914824 1891914824 3.00000000
2.28421736 2.33827400 -0.63539398 4 4 4433 3.33000000 1891914826 1891914826 -11.00000000
3.01339245 3.08362818 0.37721005 18 5 4434 4.32800000 1891914828 1891914828 5.00000000
2.91777086 2.98473549 -0.66109204 9 6 4435 4.22600000 1891914831 1891914831 -9.00000000
2.98869443 3.05515265 -0.52476937 6 8 4437 4.30600000 1891914835 1891914835 -7.00000000
2.98070693 3.04592371 -0.37285227 7 10 4438 4.27800000 1891914840 1891914840 -5.00000000
2.97927594 3.04233646 -0.22316052 6 12 4440 4.26400000 1891914845 1891914845 -3.00000000
3.01378798 3.07650471 0.99428368 51 13 4441 4.42000000 1891914847 1891914847 13.00000000
2.98677230 3.04786253 -0.07448687 3 14 4442 4.26800000 1891914849 1891914849 -1.00000000
1.59778225 1.62591493 -0.61081296 4 0 4450 2.36000000 1891914872 1891914872 -15.00000000
3.00557494 3.05742764 0.07483592 5 1 4451 4.28800000 1891914875 1891914875 1.00000000
1.91019237 1.94246912 -0.62896317 3 2 4452 2.79600000 1891914877 1891914877 -13.00000000
3.00998187 3.05977368 0.22493994 3 3 4453 4.29800000 1891914879 1891914879 3.00000000
2.29511929 2.33308554 -0.63615721 4 4 4453 3.33400000 1891914881 1891914881 -11.00000000
2.92401433 2.97030926 -0.66015345 11 6 4455 4.22000000 1891914886 1891914886 -9.00000000
3.03502345 3.08199978 0.53110659 65 7 4456 4.35800000 1891914888 1891914888 7.00000000
2.99934077 3.04470158 -0.52476937 8 8 4457 4.30600000 1891914891 1891914891 -7.00000000
3.01985312 3.06445408 0.68142855 60 9 4458 4.35600000 1891914893 1891914893 9.00000000
2.99132085 3.03550076 -0.37285227 11 10 4458 4.27800000 1891914895 1891914895 -5.00000000
3.02114820 3.06469846 0.83650666 44 11 4459 4.38400000 1891914898 1891914898 11.00000000
2.99548697 3.03760672 -0.22357920 8 12 4460 4.27200000 1891914900 1891914900 -3.00000000
3.01492882 3.05625463 0.99113435 52 13 4461 4.40600000 1891914902 1891914902 13.00000000
2.99458408 3.03457141 -0.07441706 7 14 4462 4.26400000 1891914905 1891914905 -1.00000000
3.01971555 3.05897069 1.15174472 50 15 4463 4.45000000 1891914907 1891914907 15.00000000
1.60616565 1.62307405 -0.61184824 4 0 4470 2.36400000 1891914928 1891914928 -15.00000000
3.00216079 3.03270626 0.07448687 7 1 4471 4.26800000 1891914930 1891914930 1.00000000
1.90873396 1.92748141 -0.62626374 3 2 4472 2.78400000 1891914932 1891914932 -13.00000000
3.02064419 3.04924822 0.22493994 7 3 4473 4.29800000 1891914934 1891914934 3.00000000
2.31844759 2.34040213 -0.64035499 4 4 4473 3.35600000 1891914937 1891914937 -11.00000000
3.01381016 3.04128766 0.37459537 7 5 4474 4.29800000 1891914939 1891914939 5.00000000
2.93297410 2.95868158 -0.65984058 11 6 4475 4.21800000 1891914941 1891914941 -9.00000000
3.01780748 3.04319596 0.52623183 61 7 4476 4.31800000 1891914944 1891914944 7.00000000
2.99876618 3.02293897 -0.52281946 8 8 4477 4.29000000 1891914946 1891914946 -7.00000000
3.03138971 3.05582547 0.68174142 68 9 4477 4.35800000 1891914948 1891914948 9.00000000
2.99768829 3.02079773 -0.37232932 9 10 4478 4.27200000 1891914951 1891914951 -5.00000000
3.02214575 3.04438066 0.83383530 65 11 4479 4.37000000 1891914953 1891914953 11.00000000
2.99903536 3.02004600 -0.22305584 8 12 4480 4.26200000 1891914955 1891914955 -3.00000000
3.02420545 3.04432940 0.99068445 54 13 4481 4.40400000 1891914958 1891914958 13.00000000
2.99952030 3.01842618 -0.07427744 7 14 4482 4.25600000 1891914960 1891914960 -1.00000000
3.02984285 3.04894018 1.15174472 58 15 4482 4.45000000 1891914962 1891914962 15.00000000
1.62000334 1.62566805 -0.61495405 4 0 4490 2.37600000 1891914983 1891914983 -15.00000000
3.00284600 3.01229477 0.07424254 7 1 4491 4.25400000 1891914985 1891914985 1.00000000
1.91545045 1.92080688 -0.62626374 3 2 4492 2.78400000 1891914987 1891914987 -13.00000000
3.01575375 3.02313161 0.22378854 7 3 4493 4.27600000 1891914990 1891914990 3.00000000
2.32244349 2.32812524 -0.63921010 4 4 4493 3.35000000 1891914992 1891914992 -11.00000000
3.02440786 3.03074884 0.37459537 7 5 4494 4.29800000 1891914994 1891914994 5.00000000
2.94607520 2.95122170 -0.66046631 13 6 4495 4.22200000 1891914997 1891914997 -9.00000000
3.01719046 3.02140617 0.52428192 67 7 4496 4.30200000 1891914999 1891914999 7.00000000
2.99106193 2.99419570 -0.51965088 8 8 4497 4.26400000 1891915001 1891915001 -7.00000000
3.03139901 3.03351593 0.67923844 70 9 4498 4.34200000 1891915004 1891915004 9.00000000
2.99976468 3.00185966 -0.37128347 9 10 4498 4.26000000 1891915006 1891915006 -5.00000000
3.02303815 3.02409363 0.83116400 63 11 4499 4.35600000 1891915008 1891915008 11.00000000
2.99402380 2.99402380 -0.22190446 8 12 4500 4.24000000 1891915010 1891915010 -3.00000000
3.02516627 3.02411032 0.98753512 57 13 4501 4.39000000 1891915013 1891915013 13.00000000
3.00296569 3.00086999 -0.07410292 7 14 4502 4.24600000 1891915015 1891915015 -1.00000000
3.02869678 3.02552700 1.14708602 62 15 4503 4.43200000 1891915017 1891915017 15.00000000
1.62429965 1.61863971 -0.61443639 4 0 4510 2.37400000 1891915038 1891915038 -15.00000000
3.00484252 2.99332666 0.07403311 7 1 4511 4.24200000 1891915040 1891915040 1.00000000
1.92214370 1.91410899 -0.62626374 3 2 4512 2.78400000 1891915043 1891915043 -13.00000000
3.00647140 2.99285936 0.22232315 7 3 4513 4.24800000 1891915045 1891915045 3.00000000
2.31942487 2.30892348 -0.63615721 4 4 4513 3.33400000 1891915047 1891915047 -11.00000000
3.02508283 3.01033568 0.37337521 7 5 4514 4.28400000 1891915050 1891915050 5.00000000
2.95075727 2.93534732 -0.65921485 11 6 4515 4.21400000 1891915052 1891915052 -9.00000000
3.01927304 3.00245714 0.52281946 67 7 4516 4.29000000 1891915054 1891915054 7.00000000
2.98178577 2.96414375 -0.51623851 8 8 4517 4.23600000 1891915057 1891915057 -7.00000000
3.02182865 3.00394964 0.67485827 70 9 4517 4.31400000 1891915059 1891915059 9.00000000
3.00315857 2.98434806 -0.37041190 9 10 4518 4.25000000 1891915061 1891915061 -5.00000000
3.03079009 3.01075554 0.83040076 72 11 4519 4.35200000 1891915063 1891915063 11.00000000
2.99878788 2.97792530 -0.22148576 8 12 4520 4.23200000 1891915066 1891915066 -3.00000000
3.01357579 2.99156570 0.98033667 59 13 4521 4.35800000 1891915068 1891915068 13.00000000
3.00774479 2.98473525 -0.07396330 7 14 4522 4.23800000 1891915070 1891915070 -1.00000000
3.03597069 3.01274514 1.14605069 60 15 4522 4.42800000 1891915073 1891915073 15.00000000
1.62444723 1.60752451 -0.61236584 4 0 4530 2.36600000 1891915093 1891915093 -15.00000000
3.00816464 2.97578812 0.07385858 9 1 4531 4.23200000 1891915096 1891915096 1.00000000
1.93712735 1.91560936 -0.62896317 3 2 4532 2.79600000 1891915098 1891915098 -13.00000000
3.01263881 2.97813416 0.22200912 7 3 4533 4.24200000 1891915100 1891915100 3.00000000
2.33305526 2.30633402 -0.63768369 4 4 4533 3.34200000 1891915103 1891915103 -11.00000000
3.01148057 2.97595024 0.37041190 7 5 4534 4.25000000 1891915105 1891915105 5.00000000
2.96239066 2.92641759 -0.65952772 13 6 4535 4.21600000 1891915107 1891915107 -9.00000000
3.02126050 2.98353076 0.52135706 65 7 4536 4.27800000 1891915110 1891915110 7.00000000
2.98787618 2.94953346 -0.51550734 8 8 4537 4.23000000 1891915112 1891915112 -7.00000000
3.01875806 2.97897887 0.67172956 70 9 4538 4.29400000 1891915114 1891915114 9.00000000
2.99653983 2.95705342 -0.36832017 9 10 4538 4.22600000 1891915116 1891915116 -5.00000000
3.03010011 2.98912787 0.82734782 63 11 4539 4.33600000 1891915119 1891915119 11.00000000
2.99778771 2.95622039 -0.22064839 8 12 4540 4.21600000 1891915121 1891915121 -3.00000000
3.01428533 2.97145152 0.97718740 57 13 4541 4.34400000 1891915123 1891915123 13.00000000
2.99962902 2.95597124 -0.07350954 7 14 4542 4.21200000 1891915126 1891915126 -1.00000000
3.02772522 2.98261738 1.13880384 64 15 4543 4.40000000 1891915128 1891915128 15.00000000
1.62425840 1.59671164 -0.61029530 4 0 4549 2.35800000 1891915149 1891915149 -15.00000000
3.00232697 2.95037866 0.07347463 7 1 4550 4.21000000 1891915151 1891915151 1.00000000
1.94068873 1.90644372 -0.62806332 3 2 4551 2.79200000 1891915153 1891915153 -13.00000000
3.01679802 2.96252990 0.22159044 7 3 4552 4.23400000 1891915156 1891915156 3.00000000
2.34349203 2.30133581 -0.63844693 2 4 4552 3.34600000 1891915158 1891915158 -11.00000000
3.01280189 2.95757294 0.36936605 7 5 4553 4.23800000 1891915160 1891915160 5.00000000
2.96220946 2.90689278 -0.65733761 11 6 4554 4.20200000 1891915163 1891915163 -9.00000000
3.02121806 2.96376467 0.51965088 63 7 4555 4.26400000 1891915165 1891915165 7.00000000
2.99480605 2.93682933 -0.51501983 10 8 4556 4.22600000 1891915167 1891915167 -7.00000000
3.01822901 2.95979905 0.66953951 72 9 4556 4.28000000 1891915169 1891915169 9.00000000
2.98925591 2.93036342 -0.36622843 9 10 4557 4.20200000 1891915172 1891915172 -5.00000000
3.02036476 2.95982575 0.82200515 59 11 4558 4.30800000 1891915174 1891915174 11.00000000
3.00900126 2.94766068 -0.22075306 8 12 4559 4.21800000 1891915176 1891915176 -3.00000000
3.01576853 2.95325875 0.97448796 57 13 4560 4.33200000 1891915179 1891915179 13.00000000
2.99655414 2.93341827 -0.07319539 8 14 4561 4.19400000 1891915181 1891915181 -1.00000000
3.01775360 2.95417094 1.13155687 66 15 4561 4.37200000 1891915183 1891915183 15.00000000
1.63811636 1.59912908 -0.61340111 4 0 4569 2.37000000 1891915204 1891915204 -15.00000000
2.99543357 2.92312121 0.07305577 7 1 4570 4.18600000 1891915206 1891915206 1.00000000
1.94175184 1.89421475 -0.62626374 3 2 4571 2.78400000 1891915209 1891915209 -13.00000000
3.01711154 2.94222021 0.22085774 7 3 4572 4.22000000 1891915211 1891915211 3.00000000
2.35432220 2.29588270 -0.63921010 4 4 4572 3.35000000 1891915213 1891915213 -11.00000000
3.00884080 2.93313050 0.36762291 7 5 4573 4.21800000 1891915216 1891915216 5.00000000
2.96667957 2.89102054 -0.65608615 11 6 4574 4.19400000 1891915218 1891915218 -9.00000000
3.01590395 2.93796349 0.51696974 40 7 4575 4.24200000 1891915220 1891915220 7.00000000
2.99508405 2.91666317 -0.51331365 8 8 4576 4.21200000 1891915222 1891915222 -7.00000000
3.02339530 2.94320512 0.66828805 74 9 4577 4.27200000 1891915225 1891915225 9.00000000
2.99946666 2.91991115 -0.36622843 9 10 4577 4.20200000 1891915227 1891915227 -5.00000000
3.02223611 2.94104934 0.81971544 10 11 4578 4.29600000 1891915229 1891915229 11.00000000
3.00209284 2.92042732 -0.21949700 8 12 4579 4.19400000 1891915232 1891915232 -3.00000000
3.01907372 2.93592072 0.97223848 46 13 4580 4.32200000 1891915234 1891915234 13.00000000
3.00677538 2.92294049 -0.07319539 8 14 4581 4.19400000 1891915236 1891915236 -1.00000000
3.01747751 2.93231988 1.12741578 38 15 4582 4.35600000 1891915239 1891915239 15.00000000
1.64646256 1.59609056 -0.61443639 4 0 4589 2.37400000 1891915259 1891915259 -15.00000000
2.99843860 2.90568924 0.07288125 7 1 4590 4.17600000 1891915262 1891915262 1.00000000
1.95954955 1.89827251 -0.62986296 3 2 4591 2.80000000 1891915264 1891915264 -13.00000000
3.01588511 2.92055535 0.22002035 7 3 4592 4.20400000 1891915266 1891915266 3.00000000
2.36796331 2.29311371 -0.64073658 2 4 4592 3.35800000 1891915269 1891915269 -11.00000000
3.01762938 2.92122412 0.36744860 7 5 4593 4.21600000 1891915271 1891915271 5.00000000
2.97675300 2.88064718 -0.65608615 9 6 4594 4.19400000 1891915273 1891915273 -9.00000000
3.01187348 2.91361618 0.51453239 31 7 4595 4.22200000 1891915275 1891915275 7.00000000
2.98669600 2.88825107 -0.51014507 8 8 4596 4.18600000 1891915278 1891915278 -7.00000000
3.02319860 2.92355061 0.66609794 70 9 4596 4.25800000 1891915280 1891915280 9.00000000
3.00104594 2.90111446 -0.36518255 9 10 4597 4.19000000 1891915282 1891915282 -5.00000000
3.01836610 2.91683912 0.81589925 10 11 4598 4.27600000 1891915285 1891915285 11.00000000
3.00077701 2.89882898 -0.21865962 7 12 4599 4.17800000 1891915287 1891915287 -3.00000000
3.02229452 2.91859579 0.96998894 10 13 4600 4.31200000 1891915289 1891915289 13.00000000
3.00545049 2.90131617 -0.07291616 8 14 4601 4.17800000 1891915292 1891915292 -1.00000000
3.02579474 2.92095566 1.12689817 28 15 4601 4.35400000 1891915294 1891915294 15.00000000
1.65202391 1.59033358 -0.61443639 4 0 4609 2.37400000 1891915315 1891915315 -15.00000000
2.99991775 2.88688540 0.07267182 8 1 4610 4.16400000 1891915317 1891915317 1.00000000
1.95492852 1.88061273 -0.62626374 3 2 4611 2.78400000 1891915319 1891915319 -13.00000000
