# .PCD v0.7 - Point Cloud Data file format
VERSION 0.7
FIELDS x y z intensity laser_id azimuth distance_m adjustedtime timestamp vertical_angle
SIZE 4 4 4 1 1 2 8 8 4 8
TYPE F F F U U U F U U F
COUNT 1 1 1 1 1 1 1 1 1 1
WIDTH 541
HEIGHT 1
VIEWPOINT 0 0 0 1 0 0 0
POINTS 541
DATA ascii
3.30308938 2.49810696 -0.07228786 7 14 5290 4.14200000 1897617090 1897617090 -1.00000000
3.32551503 2.51415515 1.11706305 8 15 5291 4.31600000 1897617093 1897617093 15.00000000
1.82162094 1.37368703 -0.61133057 4 0 5298 2.36200000 1897617113 1897617113 -15.00000000
3.31499362 2.49893403 0.07246239 7 1 5299 4.15200000 1897617116 1897617116 1.00000000
2.15863395 1.62664735 -0.62401420 3 2 5300 2.77400000 1897617118 1897617118 -13.00000000
3.33212638 2.51093721 0.21865962 7 3 5300 4.17800000 1897617120 1897617120 3.00000000
2.61877847 1.97267461 -0.63730204 6 4 5301 3.34000000 1897617123 1897617123 -11.00000000
3.33283424 2.50964713 0.36500826 7 5 5302 4.18800000 1897617125 1897617125 5.00000000
3.26693249 2.45912933 -0.64763868 11 6 5303 4.14000000 1897617127 1897617127 -9.00000000
3.34370708 2.51600599 0.51380116 7 7 5304 4.21600000 1897617130 1897617130 7.00000000
3.32352304 2.49990988 -0.51063257 8 8 5305 4.19000000 1897617132 1897617132 -7.00000000
3.35031962 2.51915073 0.66390789 8 9 5306 4.24400000 1897617134 1897617134 9.00000000
3.32343841 2.49893808 -0.36378807 9 10 5306 4.17400000 1897617137 1897617137 -5.00000000
3.34902906 2.51726532 0.81437278 8 11 5307 4.26800000 1897617139 1897617139 11.00000000
3.32604837 2.49908376 -0.21803160 7 12 5308 4.16600000 1897617141 1897617141 -3.00000000
3.35007262 2.51622009 0.96728951 8 13 5309 4.30000000 1897617143 1897617143 13.00000000
3.34537101 2.51177549 -0.07302087 7 14 5310 4.18400000 1897617146 1897617146 -1.00000000
3.35590196 2.51876664 1.12430990 8 15 5311 4.34400000 1897617148 1897617148 15.00000000
1.84211040 1.37857616 -0.61650699 4 0 5319 2.38200000 1897617169 1897617169 -15.00000000
3.34654737 2.50353718 0.07295106 7 1 5320 4.18000000 1897617171 1897617171 1.00000000
2.17082381 1.62339294 -0.62581384 3 2 5321 2.78200000 1897617173 1897617173 -13.00000000
3.34770489 2.50349212 0.21907832 7 3 5321 4.18600000 1897617176 1897617176 3.00000000
2.61970139 1.95836115 -0.63577557 5 4 5322 3.33200000 1897617178 1897617178 -11.00000000
3.36275816 2.51291943 0.36727431 7 5 5323 4.21400000 1897617180 1897617180 5.00000000
3.28225398 2.45186758 -0.64889014 9 6 5324 4.14800000 1897617183 1897617183 -9.00000000
3.37199306 2.51798677 0.51672602 7 7 5325 4.24000000 1897617185 1897617185 7.00000000
3.34220791 2.49483657 -0.51209497 8 8 5326 4.20200000 1897617187 1897617187 -7.00000000
3.36700773 2.51334882 0.66547221 8 9 5326 4.25400000 1897617190 1897617190 9.00000000
3.35173702 2.50103879 -0.36587980 9 10 5327 4.19800000 1897617192 1897617192 -5.00000000
3.36924863 2.51319051 0.81704414 8 11 5328 4.28200000 1897617194 1897617194 11.00000000
3.35600066 2.50239706 -0.21939233 8 12 5329 4.19200000 1897617196 1897617196 -3.00000000
3.37020969 2.51207685 0.97043884 8 13 5330 4.31400000 1897617199 1897617199 13.00000000
3.36257219 2.50547123 -0.07319539 7 14 5331 4.19400000 1897617201 1897617201 -1.00000000
3.38215351 2.51914358 1.13000393 8 15 5332 4.36600000 1897617203 1897617203 15.00000000
1.83605623 1.36407304 -0.61288351 3 0 5339 2.36800000 1897617224 1897617224 -15.00000000
3.37453055 2.50614762 0.07336992 7 1 5340 4.20400000 1897617226 1897617226 1.00000000
2.17960668 1.61812866 -0.62671363 3 2 5341 2.78600000 1897617229 1897617229 -13.00000000
3.37406349 2.50488710 0.22022970 7 3 5341 4.20800000 1897617231 1897617231 3.00000000
2.62021518 1.94452477 -0.63424909 5 4 5342 3.32400000 1897617233 1897617233 -11.00000000
3.38591051 2.51184964 0.36884311 7 5 5343 4.23200000 1897617236 1897617236 5.00000000
3.29713917 2.44510221 -0.65014166 9 6 5344 4.15600000 1897617238 1897617238 -9.00000000
3.39670897 2.51802254 0.51916343 7 7 5345 4.26000000 1897617240 1897617240 7.00000000
3.36684513 2.49497366 -0.51453239 8 8 5346 4.22200000 1897617243 1897617243 -7.00000000
3.38528299 2.50863695 0.66734940 8 9 5346 4.26600000 1897617245 1897617245 9.00000000
3.37485552 2.49999738 -0.36744860 9 10 5347 4.21600000 1897617247 1897617247 -5.00000000
3.39851165 2.51660275 0.82200515 8 11 5348 4.30800000 1897617249 1897617249 11.00000000
3.37755752 2.50017357 -0.22022970 8 12 5349 4.20800000 1897617252 1897617252 -3.00000000
3.39775610 2.51420736 0.97583765 8 13 5350 4.33800000 1897617254 1897617254 13.00000000
3.37933588 2.49966431 -0.07336992 7 14 5351 4.20400000 1897617256 1897617256 -1.00000000
3.40024638 2.51421380 1.13310981 8 15 5352 4.37800000 1897617259 1897617259 15.00000000
1.83124244 1.35109532 -0.60977769 3 0 5358 2.35600000 1897617279 1897617279 -15.00000000
3.39247870 2.50206518 0.07357935 7 1 5359 4.21600000 1897617282 1897617282 1.00000000
2.19123483 1.61551762 -0.62851322 3 2 5360 2.79400000 1897617284 1897617284 -13.00000000
3.39199686 2.50079584 0.22085774 7 3 5360 4.22000000 1897617286 1897617286 3.00000000
2.62822938 1.93698990 -0.63463074 6 4 5361 3.32600000 1897617289 1897617289 -11.00000000
3.40063787 2.50533462 0.36954036 7 5 5362 4.24000000 1897617291 1897617291 5.00000000
3.29886699 2.42946935 -0.64889014 9 6 5363 4.14800000 1897617293 1897617293 -9.00000000
3.42102647 2.51851368 0.52160078 7 7 5364 4.28000000 1897617295 1897617295 7.00000000
3.38789082 2.49320793 -0.51648229 8 8 5365 4.23800000 1897617298 1897617298 -7.00000000
3.41585732 2.51378894 0.67172956 8 9 5365 4.29400000 1897617300 1897617300 9.00000000
3.39115191 2.49469543 -0.36832017 9 10 5366 4.22600000 1897617302 1897617302 -5.00000000
3.41949153 2.51462388 0.82505810 8 11 5367 4.32400000 1897617305 1897617305 11.00000000
3.40192223 2.50078917 -0.22127642 8 12 5368 4.22800000 1897617307 1897617307 -3.00000000
3.42334867 2.51561952 0.98078662 8 13 5369 4.36000000 1897617309 1897617309 13.00000000
3.40211105 2.49909902 -0.07368406 7 14 5370 4.22200000 1897617312 1897617312 -1.00000000
3.41435599 2.50809383 1.13518035 8 15 5370 4.38600000 1897617314 1897617314 15.00000000
1.84374011 1.35040236 -0.61236584 4 0 5378 2.36600000 1897617335 1897617335 -15.00000000
3.40764570 2.49493313 0.07371897 7 1 5379 4.22400000 1897617337 1897617337 1.00000000
2.19371557 1.60555708 -0.62761343 3 2 5380 2.79000000 1897617339 1897617339 -13.00000000
3.42971635 2.51017284 0.22274183 7 3 5380 4.25600000 1897617342 1897617342 3.00000000
2.63022137 1.92432618 -0.63348585 5 4 5381 3.32000000 1897617344 1897617344 -11.00000000
3.42383623 2.50403428 0.37110916 7 5 5382 4.25800000 1897617346 1897617346 5.00000000
3.30573273 2.41677356 -0.64857727 9 6 5383 4.14600000 1897617348 1897617348 -9.00000000
3.44101572 2.51475573 0.52330697 7 7 5384 4.29400000 1897617351 1897617351 7.00000000
3.42863131 2.50478697 -0.52135706 8 8 5385 4.27800000 1897617353 1897617353 -7.00000000
3.44534707 2.51699853 0.67579687 8 9 5385 4.32000000 1897617355 1897617355 9.00000000
3.41592932 2.49459338 -0.37006328 9 10 5386 4.24600000 1897617358 1897617358 -5.00000000
3.44251943 2.51309037 0.82849264 8 11 5387 4.34200000 1897617360 1897617360 11.00000000
3.41547084 2.49243093 -0.22159044 8 12 5388 4.23400000 1897617362 1897617362 -3.00000000
3.45572424 2.52088141 0.98753512 9 13 5389 4.39000000 1897617365 1897617365 13.00000000
3.43020248 2.50134683 -0.07410292 7 14 5390 4.24600000 1897617367 1897617367 -1.00000000
3.44225907 2.50921845 1.14139199 8 15 5391 4.41000000 1897617369 1897617369 15.00000000
1.84797347 1.34460342 -0.61236584 4 0 5396 2.36600000 1897617390 1897617390 -15.00000000
3.43325591 2.49715400 0.07410292 7 1 5397 4.24600000 1897617392 1897617392 1.00000000
2.18929172 1.59178150 -0.62491405 3 2 5398 2.77800000 1897617395 1897617395 -13.00000000
3.44933081 2.50700545 0.22347453 7 3 5399 4.27000000 1897617397 1897617397 3.00000000
2.64419436 1.92182481 -0.63539398 5 4 5399 3.33000000 1897617399 1897617399 -11.00000000
3.46069956 2.51434541 0.37424675 7 5 5400 4.29400000 1897617401 1897617401 5.00000000
3.31650567 2.40869808 -0.64920300 9 6 5401 4.15000000 1897617404 1897617404 -9.00000000
3.45853734 2.51093054 0.52476937 7 7 5402 4.30600000 1897617406 1897617406 7.00000000
3.43969655 2.49633527 -0.52184451 8 8 5403 4.28200000 1897617408 1897617408 -7.00000000
3.46602726 2.51544452 0.67829984 8 9 5403 4.33600000 1897617411 1897617411 9.00000000
3.44310188 2.49788928 -0.37215501 9 10 5404 4.27000000 1897617413 1897617413 -5.00000000
3.45993352 2.50917864 0.83078235 8 11 5405 4.35400000 1897617415 1897617415 11.00000000
3.43622065 2.49106669 -0.22242782 8 12 5406 4.25000000 1897617418 1897617418 -3.00000000
3.47625065 2.51916075 0.99113435 9 13 5407 4.40600000 1897617420 1897617420 13.00000000
3.44614100 2.49642372 -0.07427744 7 14 5408 4.25600000 1897617422 1897617422 -1.00000000
3.47628522 2.51826048 1.15019178 8 15 5408 4.44400000 1897617425 1897617425 15.00000000
1.85891998 1.34266913 -0.61443639 4 0 5416 2.37400000 1897617445 1897617445 -15.00000000
3.46789193 2.50388384 0.07466140 7 1 5417 4.27800000 1897617448 1897617448 1.00000000
2.19483471 1.58412969 -0.62491405 3 2 5418 2.77800000 1897617450 1897617450 -13.00000000
3.46939874 2.50312996 0.22420724 7 3 5419 4.28400000 1897617452 1897617452 3.00000000
2.64133382 1.90569103 -0.63310426 5 4 5419 3.31800000 1897617454 1897617454 -11.00000000
3.48884678 2.51623559 0.37633851 7 5 5420 4.31800000 1897617457 1897617457 5.00000000
3.33130264 2.40172744 -0.65045452 9 6 5421 4.15800000 1897617459 1897617459 -9.00000000
3.48338556 2.51044893 0.52720678 7 7 5422 4.32600000 1897617461 1897617461 7.00000000
3.46449590 2.49591684 -0.52428192 8 8 5423 4.30200000 1897617464 1897617464 -7.00000000
3.49125314 2.51426792 0.68142855 8 9 5424 4.35600000 1897617466 1897617466 9.00000000
3.46796775 2.49749875 -0.37389815 9 10 5424 4.29000000 1897617468 1897617468 -5.00000000
3.49416423 2.51543832 0.83688825 8 11 5425 4.38600000 1897617471 1897617471 11.00000000
3.45462203 2.48605657 -0.22305584 8 12 5426 4.26200000 1897617473 1897617473 -3.00000000
3.48976874 2.51042509 0.99248403 8 13 5427 4.41200000 1897617475 1897617475 13.00000000
3.46782207 2.49371910 -0.07455668 7 14 5428 4.27200000 1897617478 1897617478 -1.00000000
3.50431514 2.51903343 1.15640354 8 15 5429 4.46800000 1897617480 1897617480 15.00000000
1.86045539 1.33392084 -0.61340111 4 0 5436 2.37000000 1897617501 1897617501 -15.00000000
3.49611521 2.50574255 0.07508025 7 1 5437 4.30200000 1897617503 1897617503 1.00000000
2.20985579 1.58326840 -0.62761343 3 2 5438 2.79000000 1897617505 1897617505 -13.00000000
3.50247169 2.50844812 0.22577731 7 3 5439 4.31400000 1897617507 1897617507 3.00000000
2.64318156 1.89303005 -0.63195938 5 4 5439 3.31200000 1897617510 1897617510 -11.00000000
3.50894880 2.51216078 0.37755868 7 5 5440 4.33200000 1897617512 1897617512 5.00000000
3.33966589 2.39008451 -0.65045452 9 6 5441 4.15800000 1897617514 1897617514 -9.00000000
3.51795912 2.51675439 0.53110659 7 7 5442 4.35800000 1897617517 1897617517 7.00000000
3.48610473 2.49304605 -0.52623183 8 8 5443 4.31800000 1897617519 1897617519 -7.00000000
3.51242590 2.51186919 0.68393147 8 9 5443 4.37200000 1897617521 1897617521 9.00000000
3.48963118 2.49464750 -0.37529263 9 10 5444 4.30600000 1897617524 1897617524 -5.00000000
3.53327250 2.52491379 0.84413898 8 11 5445 4.42400000 1897617526 1897617526 11.00000000
3.49903297 2.49952340 -0.22535862 8 12 5446 4.30600000 1897617528 1897617528 -3.00000000
3.52547097 2.51748013 1.00013244 8 13 5447 4.44600000 1897617531 1897617531 13.00000000
3.49278164 2.49321675 -0.07490573 7 14 5448 4.29200000 1897617533 1897617533 -1.00000000
3.52837300 2.51862264 1.16157985 8 15 5448 4.48800000 1897617535 1897617535 15.00000000
1.85565674 1.32069743 -0.61029530 4 0 5456 2.35800000 1897617556 1897617556 -15.00000000
3.50972867 2.49700117 0.07518496 7 1 5457 4.30800000 1897617558 1897617558 1.00000000
2.21854520 1.57780373 -0.62851322 3 2 5458 2.79400000 1897617560 1897617560 -13.00000000
3.53074026 2.51009417 0.22703338 7 3 5459 4.33800000 1897617563 1897617563 3.00000000
2.65617371 1.88834226 -0.63348585 5 4 5459 3.32000000 1897617565 1897617565 -11.00000000
3.52094460 2.50220513 0.37790731 7 5 5460 4.33600000 1897617567 1897617567 5.00000000
3.34154701 2.37383628 -0.64920300 9 6 5461 4.15000000 1897617570 1897617570 -9.00000000
3.54128933 2.51480341 0.53330022 7 7 5462 4.37600000 1897617572 1897617572 7.00000000
3.52392244 2.50154543 -0.53061914 8 8 5463 4.35400000 1897617574 1897617574 -7.00000000
3.53610754 2.50926709 0.68674731 8 9 5464 4.39000000 1897617577 1897617577 9.00000000
3.50806689 2.48936939 -0.37633851 10 10 5464 4.31800000 1897617579 1897617579 -5.00000000
3.55647635 2.52278805 0.84757358 8 11 5465 4.44200000 1897617581 1897617581 11.00000000
3.52565813 2.50000238 -0.22651002 8 12 5466 4.32800000 1897617583 1897617583 -3.00000000
3.55331516 2.51868176 1.00553119 8 13 5467 4.47000000 1897617586 1897617586 13.00000000
3.51941109 2.49372673 -0.07528968 7 14 5468 4.31400000 1897617588 1897617588 -1.00000000
3.54388642 2.51014018 1.16365039 8 15 5469 4.49600000 1897617590 1897617590 15.00000000
1.86679697 1.31834483 -0.61236584 4 0 5477 2.36600000 1897617611 1897617611 -15.00000000
3.53192616 2.49334669 0.07546420 7 1 5478 4.32400000 1897617613 1897617613 1.00000000
2.22112870 1.56741464 -0.62761343 3 2 5479 2.79000000 1897617616 1897617616 -13.00000000
3.55297303 2.50634670 0.22787075 7 3 5480 4.35400000 1897617618 1897617618 3.00000000
2.66307712 1.87859416 -0.63348585 5 4 5480 3.32000000 1897617620 1897617620 -11.00000000
3.55451608 2.50650644 0.38052198 7 5 5481 4.36600000 1897617623 1897617623 5.00000000
3.33730865 2.35246801 -0.64670008 9 6 5482 4.13400000 1897617625 1897617625 -9.00000000
3.56346440 2.51095438 0.53525013 7 7 5483 4.39200000 1897617627 1897617627 7.00000000
3.54442787 2.49661469 -0.53232527 8 8 5484 4.36800000 1897617630 1897617630 -7.00000000
3.56422448 2.51055908 0.69050175 8 9 5484 4.41400000 1897617632 1897617632 9.00000000
3.54323268 2.49484777 -0.37912747 10 10 5485 4.35000000 1897617634 1897617634 -5.00000000
3.57051516 2.51312590 0.84871840 9 11 5486 4.44800000 1897617636 1897617636 11.00000000
3.55113196 2.49855614 -0.22755674 8 12 5487 4.34800000 1897617639 1897617639 -3.00000000
3.57846260 2.51685214 1.01003027 8 13 5488 4.49000000 1897617641 1897617641 13.00000000
3.54652166 2.49346209 -0.07567363 7 14 5489 4.33600000 1897617643 1897617643 -1.00000000
3.57317138 2.51219869 1.17037976 8 15 5489 4.52200000 1897617646 1897617646 15.00000000
1.87771511 1.31625605 -0.61443639 4 0 5497 2.37400000 1897617666 1897617666 -15.00000000
3.56026006 2.49477339 0.07588306 7 1 5498 4.34800000 1897617669 1897617669 1.00000000
2.22020197 1.55517972 -0.62581384 3 2 5499 2.78200000 1897617671 1897617671 -13.00000000
3.57969666 2.50653076 0.22902215 7 3 5500 4.37600000 1897617673 1897617673 3.00000000
2.67765927 1.87491727 -0.63539398 5 4 5500 3.33000000 1897617676 1897617676 -11.00000000
3.57956648 2.50550842 0.38226509 7 5 5501 4.38600000 1897617678 1897617678 5.00000000
3.34549999 2.34080434 -0.64670008 9 6 5502 4.13400000 1897617680 1897617680 -9.00000000
3.58522105 2.50760221 0.53720009 7 7 5503 4.40800000 1897617683 1897617683 7.00000000
3.57101679 2.49673939 -0.53500640 8 8 5504 4.39000000 1897617685 1897617685 -7.00000000
3.59283161 2.51105809 0.69425613 8 9 5505 4.43800000 1897617687 1897617687 9.00000000
3.57804871 2.50072622 -0.38191646 10 10 5505 4.38200000 1897617689 1897617689 -5.00000000
3.59696913 2.51301551 0.85291618 9 11 5506 4.47000000 1897617692 1897617692 11.00000000
3.56474447 2.48957586 -0.22787075 8 12 5507 4.35400000 1897617694 1897617694 -3.00000000
3.60160708 2.51438546 1.01407933 9 13 5508 4.50800000 1897617696 1897617696 13.00000000
3.58636117 2.50281096 -0.07633682 7 14 5509 4.37400000 1897617699 1897617699 -1.00000000
3.59503031 2.50792789 1.17452085 8 15 5510 4.53800000 1897617701 1897617701 15.00000000
1.88546979 1.31190026 -0.61547166 4 0 5517 2.37800000 1897617722 1897617722 -15.00000000
3.59192991 2.49831629 0.07637173 7 1 5518 4.37600000 1897617724 1897617724 1.00000000
2.22881722 1.54964519 -0.62671363 3 2 5519 2.78600000 1897617726 1897617726 -13.00000000
3.59498453 2.49857926 0.22944084 7 3 5520 4.38400000 1897617729 1897617729 3.00000000
2.67129064 1.85659540 -0.63234103 5 4 5520 3.31400000 1897617731 1897617731 -11.00000000
3.60628939 2.50550294 0.38418251 7 5 5521 4.40800000 1897617733 1897617733 5.00000000
3.35365057 2.32911205 -0.64670008 9 6 5522 4.13400000 1897617736 1897617736 -9.00000000
3.61352038 2.50865698 0.54012495 7 7 5523 4.43200000 1897617738 1897617738 7.00000000
3.58949542 2.49104953 -0.53646886 8 8 5524 4.40200000 1897617740 1897617740 -7.00000000
3.61249900 2.50701380 0.69644624 8 9 5524 4.45200000 1897617742 1897617742 9.00000000
3.60148931 2.49844217 -0.38348526 10 10 5525 4.40000000 1897617745 1897617745 -5.00000000
3.62669206 2.51498842 0.85787725 9 11 5526 4.49600000 1897617747 1897617747 11.00000000
3.59639311 2.49304748 -0.22933616 8 12 5527 4.38200000 1897617749 1897617749 -3.00000000
3.62157416 2.50956774 1.01722872 9 13 5528 4.52200000 1897617752 1897617752 13.00000000
3.60658264 2.49824762 -0.07658116 7 14 5529 4.38800000 1897617754 1897617754 -1.00000000
3.63985276 2.52129340 1.18642652 8 15 5529 4.58400000 1897617756 1897617756 15.00000000
1.87732089 1.29652822 -0.61133057 4 0 5537 2.36200000 1897617777 1897617777 -15.00000000
3.62366748 2.50166798 0.07686040 7 1 5538 4.40400000 1897617779 1897617779 1.00000000
2.22458959 1.53521454 -0.62401420 3 2 5539 2.77400000 1897617782 1897617782 -13.00000000
3.62341261 2.49962497 0.23069690 7 3 5540 4.40800000 1897617784 1897617784 3.00000000
2.66805911 1.84057069 -0.63005131 5 4 5540 3.30200000 1897617786 1897617786 -11.00000000
3.62649465 2.50081706 0.38540271 7 5 5541 4.42200000 1897617789 1897617789 5.00000000
3.37802410 2.32860279 -0.64982879 9 6 5542 4.15400000 1897617791 1897617791 -9.00000000
3.64513946 2.51179743 0.54353726 7 7 5543 4.46000000 1897617793 1897617793 7.00000000
3.60634279 2.48413515 -0.53768754 8 8 5544 4.41200000 1897617795 1897617795 -7.00000000
3.63305235 2.50159836 0.69863629 8 9 5545 4.46600000 1897617798 1897617798 9.00000000
3.61839366 2.49150491 -0.38435683 10 10 5545 4.41000000 1897617800 1897617800 -5.00000000
3.65808964 2.51789737 0.86321992 9 11 5546 4.52400000 1897617802 1897617802 11.00000000
3.62317300 2.49293184 -0.23048756 8 12 5547 4.40400000 1897617805 1897617805 -3.00000000
3.64636850 2.50795412 1.02172768 9 13 5548 4.54200000 1897617807 1897617807 13.00000000
3.62681580 2.49357367 -0.07682549 7 14 5549 4.40200000 1897617809 1897617809 -1.00000000
3.65066123 2.50903010 1.18694413 8 15 5550 4.58600000 1897617812 1897617812 15.00000000
1.87819862 1.28843832 -0.61029530 4 0 5555 2.35800000 1897617832 1897617832 -15.00000000
3.64800072 2.50158072 0.07720944 7 1 5556 4.42400000 1897617835 1897617835 1.00000000
2.24226046 1.53703284 -0.62761343 4 2 5557 2.79000000 1897617837 1897617837 -13.00000000
3.65596104 2.50516367 0.23226698 7 3 5558 4.43800000 1897617839 1897617839 3.00000000
2.68678427 1.84105754 -0.63310426 5 4 5558 3.31800000 1897617842 1897617842 -11.00000000
3.64748335 2.49841905 0.38679719 7 5 5559 4.43800000 1897617844 1897617844 5.00000000
3.37065387 2.30793476 -0.64701295 6 6 5560 4.13600000 1897617846 1897617846 -9.00000000
3.67103171 2.51266694 0.54621840 7 7 5561 4.48200000 1897617848 1897617848 7.00000000
3.64034224 2.49072838 -0.54158735 8 8 5562 4.44400000 1897617851 1897617851 -7.00000000
3.66002226 2.50419331 0.70239073 8 9 5562 4.49000000 1897617853 1897617853 9.00000000
3.63935947 2.48912334 -0.38575131 10 10 5563 4.42600000 1897617855 1897617855 -5.00000000
3.67894721 2.51525712 0.86627287 9 11 5564 4.54000000 1897617858 1897617858 11.00000000
3.65737009 2.49956822 -0.23216230 8 12 5565 4.43600000 1897617860 1897617860 -3.00000000
3.68158388 2.51517415 1.02937603 9 13 5566 4.57600000 1897617862 1897617862 13.00000000
3.65775061 2.49795580 -0.07731416 7 14 5567 4.43000000 1897617865 1897617865 -1.00000000
3.67882895 2.51235056 1.19367349 8 15 5567 4.61200000 1897617867 1897617867 15.00000000
1.88268471 1.28187442 -0.61029530 4 0 5575 2.35800000 1897617888 1897617888 -15.00000000
3.66332293 2.49333215 0.07734907 7 1 5576 4.43200000 1897617890 1897617890 1.00000000
2.23794484 1.52261925 -0.62491405 3 2 5577 2.77800000 1897617892 1897617892 -13.00000000
3.68450141 2.50586510 0.23352304 7 3 5578 4.46200000 1897617895 1897617895 3.00000000
2.69644117 1.83387589 -0.63386750 5 4 5578 3.32200000 1897617897 1897617897 -11.00000000
3.68254495 2.50359464 0.38958618 8 5 5579 4.47000000 1897617899 1897617899 5.00000000
3.37542176 2.29393435 -0.64638722 6 6 5580 4.13200000 1897617901 1897617901 -9.00000000
3.68634844 2.50429940 0.54719335 7 7 5581 4.49000000 1897617904 1897617904 7.00000000
3.67200541 2.49361897 -0.54499972 8 8 5582 4.47200000 1897617906 1897617906 -7.00000000
3.69488811 2.50915837 0.70739663 8 9 5582 4.52200000 1897617908 1897617908 9.00000000
3.66780734 2.48983288 -0.38784304 10 10 5583 4.45000000 1897617911 1897617911 -5.00000000
3.69745207 2.50901413 0.86856252 9 11 5584 4.55200000 1897617913 1897617913 11.00000000
3.68425441 2.49911952 -0.23331369 8 12 5585 4.45800000 1897617915 1897617915 -3.00000000
3.70969582 2.51543188 1.03477490 9 13 5586 4.60000000 1897617918 1897617918 13.00000000
3.68465590 2.49751425 -0.07769811 7 14 5587 4.45200000 1897617920 1897617920 -1.00000000
3.71316218 2.51683617 1.20195568 8 15 5587 4.64400000 1897617922 1897617922 15.00000000
1.89355040 1.27962148 -0.61236584 4 0 5595 2.36600000 1897617943 1897617943 -15.00000000
3.69023156 2.49284267 0.07773302 8 1 5596 4.45400000 1897617945 1897617945 1.00000000
2.23194098 1.50716412 -0.62176472 4 2 5597 2.76400000 1897617948 1897617948 -13.00000000
3.71474648 2.50751519 0.23488377 7 3 5598 4.48800000 1897617950 1897617950 3.00000000
2.70933509 1.82884598 -0.63539398 6 4 5598 3.33000000 1897617952 1897617952 -11.00000000
3.71603513 2.50744104 0.39220083 8 5 5599 4.50000000 1897617954 1897617954 5.00000000
3.38013339 2.27992868 -0.64576149 6 6 5600 4.12800000 1897617957 1897617957 -9.00000000
3.71317244 2.50362372 0.54987448 8 7 5601 4.51200000 1897617959 1897617959 7.00000000
3.69879460 2.49299026 -0.54768085 8 8 5602 4.49400000 1897617961 1897617961 -7.00000000
3.72371864 2.50884414 0.71115106 8 9 5603 4.54600000 1897617964 1897617964 9.00000000
3.69630432 2.49037385 -0.38993478 10 10 5603 4.47400000 1897617966 1897617966 -5.00000000
3.72409964 2.50815606 0.87276036 9 11 5604 4.57400000 1897617968 1897617968 11.00000000
3.68301487 2.47955132 -0.23268566 8 12 5605 4.44600000 1897617971 1897617971 -3.00000000
3.74432135 2.51987576 1.04197323 9 13 5606 4.63200000 1897617973 1897617973 13.00000000
3.71658015 2.50026393 -0.07818678 7 14 5607 4.48000000 1897617975 1897617975 -1.00000000
3.74917436 2.52219105 1.21075547 8 15 5607 4.67800000 1897617977 1897617977 15.00000000
1.90442312 1.27730834 -0.61443639 4 0 5615 2.37400000 1897617998 1897617998 -15.00000000
3.73046851 2.50110435 0.07839621 8 1 5616 4.49200000 1897618001 1897618001 1.00000000
2.24528241 1.50478864 -0.62401420 4 2 5617 2.77400000 1897618003 1897618003 -13.00000000
3.72513604 2.49564457 0.23498844 7 3 5618 4.49000000 1897618005 1897618005 3.00000000
2.69449878 1.80517209 -0.63043290 5 4 5618 3.30400000 1897618007 1897618007 -11.00000000
3.74131966 2.50554085 0.39394397 8 5 5619 4.52000000 1897618010 1897618010 5.00000000
3.39956164 2.27580810 -0.64795154 9 6 5620 4.14200000 1897618012 1897618012 -9.00000000
3.74993539 2.50941515 0.55401802 8 7 5621 4.54600000 1897618014 1897618014 7.00000000
3.72232389 2.48999739 -0.54987448 8 8 5622 4.51200000 1897618017 1897618017 -7.00000000
3.74723220 2.50571299 0.71396691 8 9 5623 4.56400000 1897618019 1897618019 9.00000000
3.72981811 2.49406838 -0.39254946 10 10 5623 4.50400000 1897618021 1897618021 -5.00000000
3.76057959 2.51368833 0.87924784 9 11 5624 4.60800000 1897618024 1897618024 11.00000000
3.71987891 2.48554373 -0.23446508 8 12 5625 4.48000000 1897618026 1897618026 -3.00000000
3.75957656 2.51111984 1.04377294 9 13 5626 4.64000000 1897618028 1897618028 13.00000000
3.73193717 2.49171686 -0.07832640 7 14 5627 4.48800000 1897618030 1897618030 -1.00000000
3.77124810 2.51701212 1.21489656 8 15 5628 4.69400000 1897618033 1897618033 15.00000000
1.90909195 1.27031970 -0.61443639 4 0 5636 2.37400000 1897618054 1897618054 -15.00000000
3.75126553 2.49516702 0.07864054 8 1 5637 4.50600000 1897618056 1897618056 1.00000000
2.25402832 1.49870718 -0.62491405 3 2 5638 2.77800000 1897618058 1897618058 -13.00000000
3.76419854 2.50187469 0.23687254 7 3 5639 4.52600000 1897618060 1897618060 3.00000000
2.70763731 1.79963112 -0.63195938 5 4 5639 3.31200000 1897618063 1897618063 -11.00000000
3.76707292 2.50283718 0.39568707 8 5 5640 4.54000000 1897618065 1897618065 5.00000000
3.40788007 2.26333284 -0.64795154 9 6 5641 4.14200000 1897618067 1897618067 -9.00000000
3.77895331 2.50882959 0.55694288 8 7 5642 4.57000000 1897618070 1897618070 7.00000000
3.74961925 2.48841214 -0.55255562 8 8 5643 4.53400000 1897618072 1897618072 -7.00000000
3.76626754 2.49851394 0.71584409 8 9 5644 4.57600000 1897618074 1897618074 9.00000000
3.75885749 2.49359822 -0.39464119 10 10 5644 4.52800000 1897618077 1897618077 -5.00000000
3.79431009 2.51616359 0.88497210 9 11 5645 4.63800000 1897618079 1897618079 11.00000000
3.75726414 2.49065280 -0.23624450 8 12 5646 4.51400000 1897618081 1897618081 -3.00000000
8.30100822 5.50056982 2.29899979 16 13 5647 10.22000000 1897618083 1897618083 13.00000000
3.75938320 2.49016905 -0.07871035 7 14 5648 4.51000000 1897618086 1897618086 -1.00000000
3.79128504 2.51130056 1.21852005 6 15 5648 4.70800000 1897618088 1897618088 15.00000000
1.89416981 1.25087309 -0.60822475 4 0 5656 2.35000000 1897618109 1897618109 -15.00000000
3.78498530 2.49858260 0.07916412 8 1 5657 4.53600000 1897618111 1897618111 1.00000000
2.26575208 1.49512327 -0.62671363 3 2 5658 2.78600000 1897618113 1897618113 -13.00000000
8.25438404 5.44483089 0.51823062 44 3 5659 9.90200000 1897618116 1897618116 3.00000000
2.70898604 1.78692567 -0.63081455 6 4 5659 3.30600000 1897618118 1897618118 -11.00000000
8.25017643 5.43998909 0.86458498 46 5 5660 9.92000000 1897618120 1897618120 5.00000000
3.41575980 2.25142336 -0.64795154 9 6 5661 4.14200000 1897618123 1897618123 -9.00000000
3.81420994 2.51309824 0.56084269 6 7 5662 4.60200000 1897618125 1897618125 7.00000000
3.77486062 2.48622704 -0.55499297 8 8 5663 4.55400000 1897618127 1897618127 -7.00000000
3.77585959 2.48594022 -0.39551276 10 10 5664 4.53800000 1897618132 1897618132 -5.00000000
8.65735531 5.69764042 2.01456141 28 11 5665 10.55800000 1897618134 1897618134 11.00000000
3.79930639 2.49947643 -0.23833795 6 12 5666 4.55400000 1897618136 1897618136 -3.00000000
8.23624420 5.41431808 -0.17204583 6 14 5668 9.85800000 1897618141 1897618141 -1.00000000
6.25858498 4.11424971 2.00688291 11 15 5668 7.75400000 1897618143 1897618143 15.00000000
1.90476978 1.24882174 -0.61029530 4 0 5675 2.35800000 1897618165 1897618165 -15.00000000
8.22874355 5.39294767 0.17173168 13 1 5676 9.84000000 1897618167 1897618167 1.00000000
2.26417732 1.48332989 -0.62491405 3 2 5677 2.77800000 1897618170 1897618170 -13.00000000
8.26142502 5.41230488 0.51760262 86 3 5677 9.89000000 1897618172 1897618172 3.00000000
2.71489692 1.77793252 -0.63081455 9 4 5678 3.30600000 1897618174 1897618174 -11.00000000
8.25150108 5.40168810 0.86284184 77 5 5679 9.90000000 1897618177 1897618177 5.00000000
3.39841318 2.22385931 -0.64325851 6 6 5680 4.11200000 1897618179 1897618179 -9.00000000
8.33279991 5.45075464 1.22259331 2 7 5681 10.03200000 1897618181 1897618181 7.00000000
4.60715580 3.01254177 -0.67588741 4 8 5682 5.54600000 1897618183 1897618183 -7.00000000
7.04783249 4.60670376 -0.73664033 8 10 5683 8.45200000 1897618188 1897618188 -5.00000000
8.67620182 5.66890049 2.01456141 37 11 5684 10.55800000 1897618190 1897618190 11.00000000
8.23385811 5.37782907 -0.51540452 12 12 5685 9.84800000 1897618193 1897618193 -3.00000000
8.32030678 5.43222094 2.29405093 72 13 5686 10.19800000 1897618195 1897618195 13.00000000
8.23908234 5.37713957 -0.17173168 12 14 5687 9.84000000 1897618197 1897618197 -1.00000000
6.34499454 4.14098549 2.03017664 2 15 5687 7.84400000 1897618200 1897618200 15.00000000
1.91883302 1.24848676 -0.61340111 4 0 5695 2.37000000 1897618220 1897618220 -15.00000000
8.24081326 5.35982990 0.17159206 13 1 5696 9.83200000 1897618223 1897618223 1.00000000
2.25953865 1.46904409 -0.62221462 3 2 5697 2.76600000 1897618225 1897618225 -13.00000000
8.25608635 5.36566353 0.51603252 78 3 5698 9.86000000 1897618227 1897618227 3.00000000
2.72602487 1.77165449 -0.63195938 9 4 5698 3.31200000 1897618230 1897618230 -11.00000000
8.25861073 5.36525393 0.86162168 73 5 5699 9.88600000 1897618232 1897618232 5.00000000
3.41609526 2.21843839 -0.64513576 6 6 5700 4.12400000 1897618234 1897618234 -9.00000000
8.34178638 5.41514969 1.22113085 2 7 5701 10.02000000 1897618236 1897618236 7.00000000
4.60432148 2.98779702 -0.67393744 6 8 5702 5.53000000 1897618239 1897618239 -7.00000000
7.08392859 4.59508514 -0.73873210 13 10 5703 8.47600000 1897618243 1897618243 -5.00000000
8.68275833 5.63003540 2.01150846 37 11 5704 10.54200000 1897618246 1897618246 11.00000000
8.22911644 5.33384657 -0.51393908 12 12 5705 9.82000000 1897618248 1897618248 -3.00000000
8.30978012 5.38407087 2.28595257 75 13 5706 10.16200000 1897618250 1897618250 13.00000000
8.24605274 5.34073782 -0.17148735 10 14 5707 9.82600000 1897618253 1897618253 -1.00000000
7.40285349 4.79278708 2.36301780 29 15 5708 9.13000000 1897618255 1897618255 15.00000000
1.91971707 1.24002039 -0.61236584 4 0 5714 2.36600000 1897618276 1897618276 -15.00000000
8.23670292 5.31837177 0.17113830 13 1 5715 9.80600000 1897618278 1897618278 1.00000000
2.26439762 1.46154308 -0.62221462 3 2 5716 2.76600000 1897618280 1897618280 -13.00000000
8.24773121 5.32345343 0.51446247 99 3 5716 9.83000000 1897618283 1897618283 3.00000000
2.71538806 1.75196111 -0.62814319 11 4 5717 3.29200000 1897618285 1897618285 -11.00000000
8.25459099 5.32379961 0.85935563 77 5 5718 9.86000000 1897618287 1897618287 5.00000000
3.42509341 2.20816827 -0.64544863 6 6 5719 4.12600000 1897618289 1897618289 -9.00000000
8.34634876 5.37885475 1.21918094 2 7 5720 10.00400000 1897618292 1897618292 7.00000000
4.60919762 2.96928692 -0.67320627 4 8 5721 5.52400000 1897618294 1897618294 -7.00000000
7.08907652 4.56509686 -0.73768622 13 10 5722 8.46400000 1897618299 1897618299 -5.00000000
8.70138073 5.60121107 2.01150846 43 11 5723 10.54200000 1897618301 1897618301 11.00000000
8.23668098 5.30004358 -0.51331109 12 12 5724 9.80800000 1897618303 1897618303 -3.00000000
8.29808712 5.33750916 2.27785444 78 13 5725 10.12600000 1897618306 1897618306 13.00000000
8.23848820 5.29714108 -0.17096378 12 14 5726 9.79600000 1897618308 1897618308 -1.00000000
7.42924833 4.77682018 2.36664128 40 15 5726 9.14400000 1897618310 1897618310 15.00000000
1.92403376 1.23331177 -0.61236584 4 0 5734 2.36600000 1897618331 1897618331 -15.00000000
8.24343109 5.28203583 0.17089397 13 1 5735 9.79200000 1897618333 1897618333 1.00000000
2.28917742 1.46624279 -0.62761343 3 2 5736 2.79000000 1897618335 1897618335 -13.00000000
8.25785446 5.28924465 0.51393908 100 3 5736 9.82000000 1897618338 1897618338 3.00000000
2.72644711 1.74564779 -0.62928808 8 4 5737 3.29800000 1897618340 1897618340 -11.00000000
8.24962997 5.27991676 0.85691524 77 5 5738 9.83200000 1897618342 1897618342 5.00000000
3.43610835 2.19832802 -0.64607435 6 6 5739 4.13000000 1897618345 1897618345 -9.00000000
8.33831596 5.33257532 1.21528113 2 7 5740 9.97200000 1897618347 1897618347 7.00000000
4.62622452 2.95745659 -0.67418122 4 8 5741 5.53200000 1897618349 1897618349 -7.00000000
7.09489536 4.53388643 -0.73664033 13 10 5742 8.45200000 1897618354 1897618354 -5.00000000
8.72253418 5.57186031 2.01188993 40 11 5743 10.54400000 1897618356 1897618356 11.00000000
8.22988129 5.25513649 -0.51174098 12 12 5744 9.77800000 1897618359 1897618359 -3.00000000
8.30024147 5.29802608 2.27335525 80 13 5745 10.10600000 1897618361 1897618361 13.00000000
8.22658443 5.24899006 -0.17033549 14 14 5746 9.76000000 1897618363 1897618363 -1.00000000
7.43936300 4.74670172 2.36457086 45 15 5746 9.13600000 1897618365 1897618365 15.00000000
1.91528690 1.21829331 -0.60822475 4 0 5754 2.35000000 1897618386 1897618386 -15.00000000
8.23819447 5.23820734 0.17040530 13 1 5755 9.76400000 1897618388 1897618388 1.00000000
2.28770304 1.45406187 -0.62581384 3 2 5756 2.78200000 1897618391 1897618391 -13.00000000
8.24852657 5.24073458 0.51215965 94 3 5757 9.78600000 1897618393 1897618393 3.00000000
2.73252392 1.73612010 -0.62928808 6 4 5757 3.29800000 1897618395 1897618395 -11.00000000
8.24278259 5.23506594 0.85430062 81 5 5758 9.80200000 1897618398 1897618398 5.00000000
3.44709659 2.18843794 -0.64670008 6 6 5759 4.13400000 1897618400 1897618400 -9.00000000
8.34179497 5.29386377 1.21308744 2 7 5760 9.95400000 1897618402 1897618402 7.00000000
4.64657736 2.94767022 -0.67564362 4 8 5761 5.54400000 1897618405 1897618405 -7.00000000
7.11067820 4.50909281 -0.73664033 13 10 5762 8.45200000 1897618409 1897618409 -5.00000000
8.72700691 5.53191948 2.00845551 34 11 5763 10.52600000 1897618412 1897618412 11.00000000
8.24648762 5.22530794 -0.51163632 17 12 5764 9.77600000 1897618414 1897618414 -3.00000000
8.30222225 5.25859308 2.26885629 76 13 5765 10.08600000 1897618416 1897618416 13.00000000
8.23303032 5.21275377 -0.17009115 14 14 5766 9.74600000 1897618418 1897618418 -1.00000000
7.44528389 4.71217108 2.36094737 45 15 5767 9.12200000 1897618421 1897618421 15.00000000
1.92769611 1.21675611 -0.61081296 4 0 5774 2.36000000 1897618441 1897618441 -15.00000000
8.22260475 5.18807745 0.16970719 13 1 5775 9.72400000 1897618444 1897618444 1.00000000
2.28946805 1.44398820 -0.62491405 3 2 5776 2.77800000 1897618446 1897618446 -13.00000000
8.25572395 5.20695972 0.51153165 94 3 5776 9.77400000 1897618448 1897618448 3.00000000
2.74521065 1.73075938 -0.63081455 5 4 5777 3.30600000 1897618451 1897618451 -11.00000000
8.24415016 5.19563818 0.85255748 81 5 5778 9.78200000 1897618453 1897618453 5.00000000
3.43967223 2.16691566 -0.64388424 6 6 5779 4.11600000 1897618455 1897618455 -9.00000000
8.34510517 5.25519323 1.21089375 2 7 5780 9.93600000 1897618458 1897618458 7.00000000
4.66691828 2.93777776 -0.67710608 4 8 5781 5.55600000 1897618460 1897618460 -7.00000000
7.12974739 4.48636675 -0.73698896 13 10 5782 8.45600000 1897618465 1897618465 -5.00000000
8.73130703 5.49201488 2.00502086 21 11 5783 10.50800000 1897618467 1897618467 11.00000000
8.21902561 5.16778660 -0.50881016 17 12 5784 9.72200000 1897618469 1897618469 -3.00000000
8.30237770 5.21817350 2.26390743 74 13 5785 10.06400000 1897618471 1897618471 13.00000000
8.24270916 5.17866421 -0.16991663 16 14 5786 9.73600000 1897618474 1897618474 -1.00000000
7.46332312 4.68718100 2.36146498 45 15 5787 9.12400000 1897618476 1897618476 15.00000000
1.93356884 1.21104515 -0.61133057 4 0 5794 2.36200000 1897618497 1897618497 -15.00000000
8.23219013 5.15403748 0.16953267 13 1 5795 9.71400000 1897618499 1897618499 1.00000000
2.28127933 1.42771709 -0.62131482 3 2 5796 2.76200000 1897618501 1897618501 -13.00000000
8.24506760 5.16009760 0.50975221 89 3 5796 9.74000000 1897618504 1897618504 3.00000000
2.75123525 1.72116625 -0.63081455 5 4 5797 3.30600000 1897618506 1897618506 -11.00000000
8.24703312 5.15732145 0.85098869 77 5 5798 9.76400000 1897618508 1897618508 5.00000000
3.46061540 2.16327238 -0.64638722 4 6 5799 4.13200000 1897618511 1897618511 -9.00000000
4.65020609 2.90464306 -0.67320627 4 8 5801 5.52400000 1897618515 1897618515 -7.00000000
7.12846422 4.45089960 -0.73524582 13 10 5802 8.43600000 1897618520 1897618520 -5.00000000
8.22345829 5.13060760 -0.50797278 17 12 5804 9.70600000 1897618524 1897618524 -3.00000000
8.30235386 5.17781782 2.25895858 68 13 5805 10.04200000 1897618527 1897618527 13.00000000
8.23867607 5.13610744 -0.16946286 14 14 5806 9.71000000 1897618529 1897618529 -1.00000000
7.48291826 4.66314411 2.36250019 42 15 5807 9.12800000 1897618531 1897618531 15.00000000
1.94106603 1.20632780 -0.61236584 4 0 5814 2.36600000 1897618552 1897618552 -15.00000000
8.23654175 5.11682844 0.16925344 13 1 5815 9.69800000 1897618554 1897618554 1.00000000
2.29287124 1.42385745 -0.62311441 3 2 5816 2.77000000 1897618557 1897618557 -13.00000000
8.24436569 5.11969519 0.50860083 84 3 5816 9.71800000 1897618559 1897618559 3.00000000
2.75555849 1.71051681 -0.63043290 5 4 5817 3.30400000 1897618561 1897618561 -11.00000000
8.25482750 5.12219954 0.84994280 77 5 5818 9.75200000 1897618564 1897618564 5.00000000
3.47486043 2.15534449 -0.64763868 4 6 5819 4.14000000 1897618566 1897618566 -9.00000000
4.66369152 2.89048457 -0.67369372 4 8 5821 5.52800000 1897618571 1897618571 -7.00000000
7.16258764 4.43753195 -0.73716325 13 10 5822 8.45800000 1897618575 1897618575 -5.00000000
8.21584415 5.08610201 -0.50640273 17 12 5824 9.67600000 1897618580 1897618580 -3.00000000
8.30049133 5.13649988 2.25355959 70 13 5825 10.01800000 1897618582 1897618582 13.00000000
8.22934437 5.09048653 -0.16890439 14 14 5826 9.67800000 1897618584 1897618584 -1.00000000
7.50243616 4.63902760 2.36353540 45 15 5827 9.13200000 1897618587 1897618587 15.00000000
1.94197631 1.19751692 -0.61133057 4 0 5834 2.36200000 1897618607 1897618607 -15.00000000
8.23732948 5.07755375 0.16890439 13 1 5835 9.67800000 1897618610 1897618610 1.00000000
2.29782748 1.41584516 -0.62311441 3 2 5836 2.77000000 1897618612 1897618612 -13.00000000
8.24348259 5.07936096 0.50744945 81 3 5836 9.69600000 1897618614 1897618614 3.00000000
2.75148273 1.69471014 -0.62814319 5 4 5837 3.29200000 1897618617 1897618617 -11.00000000
8.24890423 5.07872963 0.84750247 77 5 5838 9.72400000 1897618619 1897618619 5.00000000
3.47563362 2.13906026 -0.64638722 4 6 5839 4.13200000 1897618621 1897618621 -9.00000000
4.67713499 2.87626743 -0.67418122 4 8 5841 5.53200000 1897618626 1897618626 -7.00000000
7.18312597 4.41563320 -0.73768622 13 10 5842 8.46400000 1897618630 1897618630 -5.00000000
8.22333717 5.05112028 -0.50577468 12 12 5844 9.66400000 1897618635 1897618635 -3.00000000
8.30010319 5.09627819 2.24861073 74 13 5845 9.99600000 1897618637 1897618637 13.00000000
8.22149849 5.04603910 -0.16838081 16 14 5846 9.64800000 1897618640 1897618640 -1.00000000
7.51283884 4.61109114 2.36198258 45 15 5846 9.12600000 1897618642 1897618642 15.00000000
1.93625736 1.18468142 -0.60822475 4 0 5854 2.35000000 1897618663 1897618663 -15.00000000
8.22941494 5.03311872 0.16838081 13 1 5855 9.64800000 1897618665 1897618665 1.00000000
2.31273150 1.41391444 -0.62581384 3 2 5856 2.78200000 1897618667 1897618667 -13.00000000
8.25264263 5.04534578 0.50692606 76 3 5856 9.68600000 1897618670 1897618670 3.00000000
2.76073217 1.68714285 -0.62890643 5 4 5857 3.29600000 1897618672 1897618672 -11.00000000
8.23937798 5.03328657 0.84471345 73 5 5858 9.69200000 1897618674 1897618674 5.00000000
3.47970724 2.12485600 -0.64576149 6 6 5859 4.12800000 1897618676 1897618676 -9.00000000
4.69053555 2.86199141 -0.67466867 4 8 5861 5.53600000 1897618681 1897618681 -7.00000000
7.17808390 4.37808275 -0.73559445 8 10 5862 8.44000000 1897618686 1897618686 -5.00000000
8.24262428 5.02342415 -0.50587934 12 12 5864 9.66600000 1897618690 1897618690 -3.00000000
8.30619240 5.06017733 2.24546146 75 13 5865 9.98200000 1897618693 1897618693 13.00000000
8.23393822 5.01418972 -0.16827610 14 14 5866 9.64200000 1897618695 1897618695 -1.00000000
7.52803898 4.58252001 2.36146498 45 15 5867 9.12400000 1897618697 1897618697 15.00000000
1.94017529 1.17825401 -0.60822475 4 0 5873 2.35000000 1897618718 1897618718 -15.00000000
8.21870995 4.98919821 0.16782235 13 1 5874 9.61600000 1897618720 1897618720 1.00000000
2.31074357 1.40219355 -0.62401420 3 2 5875 2.77400000 1897618723 1897618723 -13.00000000
8.25141907 5.00511408 0.50577468 81 3 5876 9.66400000 1897618725 1897618725 3.00000000
2.76631165 1.67797863 -0.62890643 5 4 5876 3.29600000 1897618727 1897618727 -11.00000000
8.23728371 4.99457312 0.84279603 81 5 5877 9.67000000 1897618729 1897618729 5.00000000
3.46646261 2.10101867 -0.64200705 6 6 5878 4.10400000 1897618732 1897618732 -9.00000000
4.70169830 2.84744978 -0.67491245 4 8 5880 5.53800000 1897618736 1897618736 -7.00000000
6.68806076 4.04883862 -0.68399829 8 10 5881 7.84800000 1897618741 1897618741 -5.00000000
8.23018551 4.97848940 -0.50409991 17 12 5883 9.63200000 1897618746 1897618746 -3.00000000
8.30958652 5.02453852 2.24186230 75 13 5884 9.96600000 1897618748 1897618748 13.00000000
8.23340702 4.97651339 -0.16792706 16 14 5885 9.62200000 1897618750 1897618750 -1.00000000
7.54405165 4.55984688 2.36198258 45 15 5885 9.12600000 1897618753 1897618753 15.00000000
1.95751393 1.17945039 -0.61236584 4 0 5893 2.36600000 1897618773 1897618773 -15.00000000
8.22579765 4.95428896 0.16761291 13 1 5894 9.60400000 1897618776 1897618776 1.00000000
2.30894589 1.39009845 -0.62221462 3 2 5895 2.76600000 1897618778 1897618778 -13.00000000
8.23461533 4.95568323 0.50368124 60 3 5896 9.62400000 1897618780 1897618780 3.00000000
2.77888060 1.67236149 -0.63043290 5 4 5896 3.30400000 1897618782 1897618782 -11.00000000
8.24783802 4.96168089 0.84209877 81 5 5897 9.66200000 1897618785 1897618785 5.00000000
3.49070430 2.09908557 -0.64513576 6 6 5898 4.12400000 1897618787 1897618787 -9.00000000
4.70650434 2.82795310 -0.67418122 4 8 5900 5.53200000 1897618792 1897618792 -7.00000000
8.32478333 5.00005722 1.53806365 2 9 5901 9.83200000 1897618794 1897618794 9.00000000
6.69190550 4.01931286 -0.68295240 12 10 5901 7.83600000 1897618796 1897618796 -5.00000000
8.30654430 4.98712969 1.88328481 3 11 5902 9.87000000 1897618799 1897618799 11.00000000
8.22182560 4.93431377 -0.50252986 17 12 5903 9.60200000 1897618801 1897618801 -3.00000000
8.29699421 4.97745705 2.23376393 82 13 5904 9.93000000 1897618803 1897618803 13.00000000
8.23357868 4.93745899 -0.16757801 16 14 5905 9.60200000 1897618806 1897618806 -1.00000000
7.56237030 4.53315878 2.36250019 42 15 5906 9.12800000 1897618808 1897618808 15.00000000
1.97115660 1.17924571 -0.61547166 4 0 5911 2.37800000 1897618829 1897618829 -15.00000000
8.23102379 4.92226458 0.16740349 13 1 5912 9.59200000 1897618831 1897618831 1.00000000
2.31330156 1.38283789 -0.62221462 3 2 5913 2.76600000 1897618833 1897618833 -13.00000000
8.22614002 4.91544676 0.50221586 49 3 5914 9.59600000 1897618835 1897618835 3.00000000
2.77737951 1.65959501 -0.62890643 5 4 5914 3.29600000 1897618838 1897618838 -11.00000000
8.24628067 4.92552805 0.84035569 81 5 5915 9.64200000 1897618840 1897618840 5.00000000
3.49728155 2.08810878 -0.64513576 4 6 5916 4.12400000 1897618842 1897618842 -9.00000000
8.34733963 4.98193836 1.19358838 2 7 5917 9.79400000 1897618845 1897618845 7.00000000
4.70854664 2.80908513 -0.67320627 4 8 5918 5.52400000 1897618847 1897618847 -7.00000000
6.69423199 3.99214697 -0.68190652 12 10 5919 7.82400000 1897618852 1897618852 -5.00000000
8.33903408 4.97106218 1.88710093 3 11 5920 9.89000000 1897618854 1897618854 11.00000000
8.22527599 4.90130329 -0.50179714 12 12 5921 9.58800000 1897618856 1897618856 -3.00000000
8.28077984 4.93241882 2.22521591 75 13 5922 9.89200000 1897618859 1897618859 13.00000000
8.22843170 4.89929199 -0.16715916 14 14 5923 9.57800000 1897618861 1897618861 -1.00000000
1.95698678 1.16151178 -0.60977769 4 0 5931 2.35600000 1897618884 1897618884 -15.00000000
8.22751808 4.88125896 0.16698462 13 1 5932 9.56800000 1897618886 1897618886 1.00000000
2.33487606 1.38469493 -0.62671363 3 2 5933 2.78600000 1897618888 1897618888 -13.00000000
8.22091293 4.87346172 0.50085509 28 3 5934 9.57000000 1897618891 1897618891 3.00000000
2.77640057 1.64588547 -0.62737995 5 4 5934 3.28800000 1897618893 1897618893 -11.00000000
8.24456882 4.88554049 0.83843827 81 5 5935 9.62000000 1897618895 1897618895 5.00000000
3.52154493 2.08595562 -0.64826441 4 6 5936 4.14400000 1897618898 1897618898 -9.00000000
4.72173977 2.79465437 -0.67369372 4 8 5938 5.52800000 1897618902 1897618902 -7.00000000
6.68754959 3.95658135 -0.67981482 42 10 5939 7.80000000 1897618907 1897618907 -5.00000000
8.33267784 4.92793179 1.88175833 3 11 5940 9.86200000 1897618909 1897618909 11.00000000
8.22170353 4.86036491 -0.50054109 12 12 5941 9.56400000 1897618911 1897618911 -3.00000000
8.28955841 4.89852667 2.22296643 75 13 5942 9.88200000 1897618914 1897618914 13.00000000
8.22137833 4.85630131 -0.16667049 14 14 5943 9.55000000 1897618916 1897618916 -1.00000000
7.59393263 4.48388624 2.36301780 33 15 5944 9.13000000 1897618918 1897618918 15.00000000
1.95956600 1.15335143 -0.60926002 4 0 5952 2.35400000 1897618939 1897618939 -15.00000000
8.23156548 4.84295893 0.16670538 13 1 5953 9.55200000 1897618941 1897618941 1.00000000
2.33993554 1.37612784 -0.62671363 3 2 5954 2.78600000 1897618944 1897618944 -13.00000000
8.23355484 4.84026146 0.50054109 23 3 5955 9.56400000 1897618946 1897618946 3.00000000
2.78579926 1.63768828 -0.62814319 5 4 5955 3.29200000 1897618948 1897618948 -11.00000000
8.23150063 4.83712053 0.83530062 81 5 5956 9.58400000 1897618951 1897618951 5.00000000
3.51554060 2.06503057 -0.64576149 4 6 5957 4.12800000 1897618953 1897618953 -9.00000000
8.33655643 4.89494085 1.18700743 18 7 5958 9.74000000 1897618955 1897618955 7.00000000
4.74051094 2.78235364 -0.67491245 6 8 5959 5.53800000 1897618958 1897618958 -7.00000000
8.33408451 4.89153337 1.53055477 2 9 5959 9.78400000 1897618960 1897618960 9.00000000
8.35407066 4.89934444 1.88252151 3 11 5961 9.86600000 1897618964 1897618964 11.00000000
8.23256969 4.82615805 -0.50012237 17 12 5962 9.55600000 1897618967 1897618967 -3.00000000
8.29232502 4.85924339 2.21891713 74 13 5963 9.86400000 1897618969 1897618969 13.00000000
8.21841621 4.81400728 -0.16625163 14 14 5964 9.52600000 1897618971 1897618971 -1.00000000
7.60953808 4.45735121 2.36301780 42 15 5964 9.13000000 1897618974 1897618974 15.00000000
1.96191168 1.14553010 -0.60874242 4 0 5972 2.35200000 1897618994 1897618994 -15.00000000
8.21387863 4.79403591 0.16600730 13 1 5973 9.51200000 1897618997 1897618997 1.00000000
2.33125901 1.36009538 -0.62311441 3 2 5974 2.77000000 1897618999 1897618999 -13.00000000
8.24004841 4.80545425 0.49991307 21 3 5975 9.55200000 1897619001 1897619001 3.00000000
2.79319477 1.62894309 -0.62852484 5 4 5975 3.29400000 1897619004 1897619004 -11.00000000
8.23456478 4.80033016 0.83390617 81 5 5976 9.56800000 1897619006 1897619006 5.00000000
3.52272749 2.05274630 -0.64576149 4 6 5977 4.12800000 1897619008 1897619008 -9.00000000
4.75362539 2.76778698 -0.67539990 6 8 5979 5.54200000 1897619013 1897619013 -7.00000000
8.22174168 4.78132677 -0.49844766 17 12 5982 9.52400000 1897619022 1897619022 -3.00000000
8.29744339 4.82341290 2.21576786 70 13 5983 9.85000000 1897619024 1897619024 13.00000000
8.22479630 4.77926207 -0.16604219 14 14 5984 9.51400000 1897619027 1897619027 -1.00000000
7.62749434 4.43040133 2.36353540 45 15 5985 9.13200000 1897619029 1897619029 15.00000000
1.97592843 1.14448440 -0.61184824 4 0 5992 2.36400000 1897619050 1897619050 -15.00000000
8.22017956 4.75932312 0.16579786 13 1 5993 9.50000000 1897619052 1897619052 1.00000000
2.33599257 1.35194957 -0.62311441 3 2 5994 2.77000000 1897619054 1897619054 -13.00000000
8.23775578 4.76566029 0.49876165 15 3 5995 9.53000000 1897619057 1897619057 3.00000000
2.79716444 1.61819994 -0.62814319 5 4 5995 3.29200000 1897619059 1897619059 -11.00000000
8.23402309 4.76158285 0.83216304 81 5 5996 9.54800000 1897619061 1897619061 5.00000000
3.51618981 2.03252864 -0.64325851 4 6 5997 4.11200000 1897619064 1897619064 -9.00000000
4.74950600 2.74323392 -0.67344999 6 8 5999 5.52600000 1897619068 1897619068 -7.00000000
8.21243095 4.73762798 -0.49687758 17 12 6002 9.49400000 1897619077 1897619077 -3.00000000
8.29059505 4.78079128 2.20946932 70 13 6003 9.82200000 1897619080 1897619080 13.00000000
8.22756958 4.74253416 -0.16576296 16 14 6004 9.49800000 1897619082 1897619082 -1.00000000
7.64381790 4.40604782 2.36405325 45 15 6004 9.13400000 1897619084 1897619084 15.00000000
