# .PCD v0.7 - Point Cloud Data file format
VERSION 0.7
FIELDS x y z intensity laser_id azimuth distance_m adjustedtime timestamp vertical_angle
SIZE 4 4 4 1 1 2 8 8 4 8
TYPE F F F U U U F U U F
COUNT 1 1 1 1 1 1 1 1 1 1
WIDTH 536
HEIGHT 1
VIEWPOINT 0 0 0 1 0 0 0
POINTS 536
DATA ascii
1.28712630 2.37454367 -0.62356430 3 2 2846 2.77200000 2887607967 2887607967 -13.00000000
1.55730522 2.87178421 -0.63501233 2 4 2847 3.32800000 2887607972 2887607972 -11.00000000
1.96273863 3.61641979 -0.65170598 2 6 2849 4.16600000 2887607976 2887607976 -9.00000000
2.65018177 4.87899637 -0.68173712 4 8 2851 5.59400000 2887607981 2887607981 -7.00000000
3.98117876 7.32631922 -0.72949356 8 10 2852 8.37000000 2887607986 2887607986 -5.00000000
4.84862137 8.91149616 2.34219027 55 13 2855 10.41200000 2887607993 2887607993 13.00000000
3.70816278 6.81256390 2.07831693 45 15 2856 8.03000000 2887607997 2887607997 15.00000000
1.09446764 2.00406551 -0.61184824 4 0 2864 2.36400000 2887608018 2887608018 -15.00000000
1.29727650 2.37345624 -0.62446415 3 2 2866 2.77600000 2887608022 2887608022 -13.00000000
1.56543624 2.86288548 -0.63424909 2 4 2867 3.32400000 2887608027 2887608027 -11.00000000
1.98293686 3.62340951 -0.65420896 2 6 2869 4.18200000 2887608032 2887608032 -9.00000000
2.66624284 4.86797476 -0.68149334 6 8 2871 5.59200000 2887608036 2887608036 -7.00000000
4.00577068 7.31063032 -0.72931927 4 10 2872 8.36800000 2887608041 2887608041 -5.00000000
4.87782431 8.89109993 2.34129047 56 13 2875 10.40800000 2887608048 2887608048 13.00000000
3.73589659 6.80400705 2.07986975 40 15 2877 8.03600000 2887608052 2887608052 15.00000000
1.09772909 1.99346387 -0.60977769 4 0 2884 2.35600000 2887608073 2887608073 -15.00000000
1.31119704 2.37915373 -0.62716353 3 2 2886 2.78800000 2887608078 2887608078 -13.00000000
1.58110750 2.86771917 -0.63653880 2 4 2887 3.33600000 2887608082 2887608082 -11.00000000
1.99270976 3.61127710 -0.65327030 2 6 2889 4.17600000 2887608087 2887608087 -9.00000000
2.68321896 4.85863829 -0.68149334 6 8 2891 5.59200000 2887608092 2887608092 -7.00000000
4.03126526 7.29660320 -0.72931927 8 10 2892 8.36800000 2887608096 2887608096 -5.00000000
4.91071701 8.87742901 2.34219027 55 13 2895 10.41200000 2887608103 2887608103 13.00000000
3.75563288 6.78650999 2.07831693 42 15 2896 8.03000000 2887608108 2887608108 15.00000000
1.10655642 1.99299788 -0.61081296 4 0 2904 2.36000000 2887608128 2887608128 -15.00000000
1.31949389 2.37456226 -0.62716353 3 2 2906 2.78800000 2887608133 2887608133 -13.00000000
1.58729243 2.85531878 -0.63501233 2 4 2907 3.32800000 2887608138 2887608138 -11.00000000
2.00914478 3.61120391 -0.65452182 2 6 2909 4.18400000 2887608142 2887608142 -9.00000000
2.69823098 4.84577370 -0.68100590 6 8 2911 5.58800000 2887608147 2887608147 -7.00000000
4.05380201 7.27726555 -0.72879630 8 10 2912 8.36200000 2887608151 2887608151 -5.00000000
4.94547176 8.86704159 2.34399009 56 13 2915 10.42000000 2887608158 2887608158 13.00000000
3.78236461 6.77607346 2.07935214 40 15 2917 8.03400000 2887608163 2887608163 15.00000000
1.10784459 1.97900891 -0.60770714 4 0 2924 2.34800000 2887608184 2887608184 -15.00000000
1.32586968 2.36654162 -0.62626374 3 2 2926 2.78400000 2887608188 2887608188 -13.00000000
1.59916949 2.85318589 -0.63577557 2 4 2927 3.33200000 2887608193 2887608193 -11.00000000
2.01593971 3.59383178 -0.65264457 2 6 2929 4.17200000 2887608198 2887608198 -9.00000000
2.71901655 4.84324980 -0.68198085 6 8 2931 5.59600000 2887608202 2887608202 -7.00000000
4.08698463 7.27696800 -0.73019081 4 10 2932 8.37800000 2887608207 2887608207 -5.00000000
4.97448301 8.84632683 2.34309030 56 13 2935 10.41600000 2887608214 2887608214 13.00000000
3.80102539 6.75675821 2.07728171 42 15 2936 8.02600000 2887608218 2887608218 15.00000000
1.12139261 1.98690653 -0.61133057 4 0 2944 2.36200000 2887608239 2887608239 -15.00000000
1.32837176 2.35171843 -0.62356430 3 2 2946 2.77200000 2887608244 2887608244 -13.00000000
1.61491442 2.85784197 -0.63806528 4 4 2947 3.34400000 2887608248 2887608248 -11.00000000
2.03041697 3.59021187 -0.65327030 2 6 2949 4.17600000 2887608253 2887608253 -9.00000000
2.73003936 4.82336378 -0.68051839 6 8 2951 5.58400000 2887608257 2887608257 -7.00000000
4.10058069 7.24185228 -0.72809905 8 10 2952 8.35400000 2887608262 2887608262 -5.00000000
5.00244904 8.82382298 2.34174037 54 13 2955 10.41000000 2887608269 2887608269 13.00000000
3.82671785 6.74446154 2.07779932 40 15 2957 8.02800000 2887608274 2887608274 15.00000000
1.13118756 1.98801732 -0.61288351 4 0 2964 2.36800000 2887608294 2887608294 -15.00000000
1.33850145 2.35045409 -0.62446415 3 2 2966 2.77600000 2887608299 2887608299 -13.00000000
1.60544395 2.81807041 -0.63043290 2 4 2967 3.30400000 2887608304 2887608304 -11.00000000
2.04587197 3.58825064 -0.65420896 2 6 2969 4.18200000 2887608308 2887608308 -9.00000000
2.74882698 4.81725311 -0.68100590 6 8 2971 5.58800000 2887608313 2887608313 -7.00000000
4.13669968 7.24652815 -0.73001653 8 10 2972 8.37600000 2887608317 2887608317 -5.00000000
5.03031826 8.80123234 2.34039068 57 13 2975 10.40400000 2887608324 2887608324 13.00000000
3.84906220 6.73173475 2.07779932 40 15 2976 8.02800000 2887608329 2887608329 15.00000000
1.13427508 1.97735369 -0.61081296 4 0 2984 2.36000000 2887608350 2887608350 -15.00000000
1.34863842 2.34914756 -0.62536395 3 2 2986 2.78000000 2887608354 2887608354 -13.00000000
1.62504864 2.82947350 -0.63424909 4 4 2987 3.32400000 2887608359 2887608359 -11.00000000
2.05641603 3.57766199 -0.65358317 2 6 2989 4.17800000 2887608363 2887608363 -9.00000000
2.76958489 4.81451130 -0.68198085 6 8 2991 5.59600000 2887608368 2887608368 -7.00000000
4.15600681 7.22168303 -0.72897065 8 10 2992 8.36400000 2887608373 2887608373 -5.00000000
5.06295586 8.78699589 2.34129047 55 13 2995 10.40800000 2887608380 2887608380 13.00000000
3.86964273 6.71323681 2.07624626 40 15 2996 8.02200000 2887608384 2887608384 15.00000000
1.13889241 1.97023630 -0.60977769 4 0 3003 2.35600000 2887608405 2887608405 -15.00000000
1.36032438 2.35140967 -0.62716353 3 2 3005 2.78800000 2887608410 2887608410 -13.00000000
1.62852216 2.81387401 -0.63195938 2 4 3006 3.31200000 2887608414 2887608414 -11.00000000
2.06727862 3.56911373 -0.65327030 2 6 3008 4.17600000 2887608419 2887608419 -9.00000000
2.78752637 4.80873537 -0.68246830 6 8 3010 5.60000000 2887608423 2887608423 -7.00000000
4.16893768 7.18890238 -0.72705323 4 10 3011 8.34200000 2887608428 2887608428 -5.00000000
5.09500217 8.77521420 2.34264016 54 13 3014 10.41400000 2887608435 2887608435 13.00000000
3.88606143 6.69034481 2.07314062 40 15 3015 8.01000000 2887608439 2887608439 15.00000000
1.15062606 1.97459459 -0.61236584 4 0 3023 2.36600000 2887608460 2887608460 -15.00000000
1.36852407 2.34664702 -0.62716353 3 2 3025 2.78800000 2887608465 2887608465 -13.00000000
1.65614247 2.83869576 -0.63882852 2 4 3026 3.34800000 2887608469 2887608469 -11.00000000
2.08271265 3.56699347 -0.65420896 2 6 3028 4.18200000 2887608474 2887608474 -9.00000000
2.80229187 4.79554796 -0.68198085 6 8 3030 5.59600000 2887608479 2887608479 -7.00000000
4.20104456 7.18634653 -0.72827339 8 10 3031 8.35600000 2887608483 2887608483 -5.00000000
5.12658644 8.75905800 2.34309030 55 13 3034 10.41600000 2887608490 2887608490 13.00000000
3.91446233 6.68272448 2.07521105 40 15 3036 8.01800000 2887608495 2887608495 15.00000000
1.15457630 1.96556890 -0.61081296 4 0 3043 2.36000000 2887608516 2887608516 -15.00000000
1.36880624 2.32841587 -0.62356430 3 2 3045 2.77200000 2887608520 2887608520 -13.00000000
1.65807939 2.81935930 -0.63577557 2 4 3046 3.33200000 2887608525 2887608525 -11.00000000
2.09715509 3.56310654 -0.65483469 2 6 3048 4.18600000 2887608529 2887608529 -9.00000000
2.81901431 4.78573656 -0.68198085 6 8 3050 5.59600000 2887608534 2887608534 -7.00000000
4.23015022 7.17850447 -0.72897065 8 10 3051 8.36400000 2887608539 2887608539 -5.00000000
5.15415955 8.73607445 2.34174037 54 13 3054 10.41000000 2887608545 2887608545 13.00000000
3.93758345 6.67137051 2.07572865 33 15 3055 8.02000000 2887608550 2887608550 15.00000000
1.16536736 1.96817601 -0.61288351 4 0 3063 2.36800000 2887608571 2887608571 -15.00000000
1.38288629 2.33368278 -0.62626374 3 2 3065 2.78400000 2887608575 2887608575 -13.00000000
1.67391753 2.82368708 -0.63806528 2 4 3066 3.34400000 2887608580 2887608580 -11.00000000
2.10050869 3.54047441 -0.65201885 2 6 3068 4.16800000 2887608585 2887608585 -9.00000000
2.82556772 4.75879860 -0.67954344 6 8 3070 5.57600000 2887608589 2887608589 -7.00000000
4.26840973 7.18596363 -0.73123670 8 10 3071 8.39000000 2887608594 2887608594 -5.00000000
5.17964220 8.70965481 2.33949089 55 13 3074 10.40000000 2887608601 2887608601 13.00000000
4.49521542 7.55577803 2.35577106 38 15 3075 9.10200000 2887608605 2887608605 15.00000000
1.17188776 1.96430063 -0.61288351 4 0 3082 2.36800000 2887608626 2887608626 -15.00000000
1.39061749 2.32908416 -0.62626374 3 2 3084 2.78400000 2887608631 2887608631 -13.00000000
1.67723155 2.80800772 -0.63577557 2 4 3085 3.33200000 2887608635 2887608635 -11.00000000
2.11629200 3.54027152 -0.65327030 2 6 3087 4.17600000 2887608640 2887608640 -9.00000000
2.85356259 4.76984453 -0.68246830 6 8 3089 5.60000000 2887608644 2887608644 -7.00000000
4.28914595 7.16664076 -0.73071373 8 10 3090 8.38400000 2887608649 2887608649 -5.00000000
5.21049929 8.69577408 2.34039068 55 13 3093 10.40400000 2887608656 2887608656 13.00000000
4.51925373 7.53917313 2.35525322 42 15 3094 9.10000000 2887608661 2887608661 15.00000000
1.17276394 1.95026457 -0.60977769 4 0 3102 2.35600000 2887608681 2887608681 -15.00000000
1.40476811 2.33423400 -0.62896317 3 2 3104 2.79600000 2887608686 2887608686 -13.00000000
1.68297267 2.79540825 -0.63424909 2 4 3105 3.32400000 2887608691 2887608691 -11.00000000
2.13169527 3.53793859 -0.65420896 2 6 3107 4.18200000 2887608695 2887608695 -9.00000000
2.86814499 4.75645494 -0.68198085 6 8 3109 5.59600000 2887608700 2887608700 -7.00000000
4.31722355 7.15674305 -0.73123670 8 10 3110 8.39000000 2887608704 2887608704 -5.00000000
5.24082136 8.67753315 2.34039068 56 13 3113 10.40400000 2887608711 2887608711 13.00000000
4.54085970 7.51263857 2.35214758 40 15 3115 9.08800000 2887608716 2887608716 15.00000000
1.18122685 1.94966936 -0.61081296 4 0 3121 2.36000000 2887608737 2887608737 -15.00000000
1.40441799 2.31623197 -0.62536395 3 2 3123 2.78000000 2887608741 2887608741 -13.00000000
1.70037878 2.80324054 -0.63730204 2 4 3124 3.34000000 2887608746 2887608746 -11.00000000
2.14034057 3.52578449 -0.65327030 2 6 3126 4.17600000 2887608750 2887608750 -9.00000000
2.89214778 4.76048994 -0.68393075 9 8 3128 5.61200000 2887608755 2887608755 -7.00000000
4.34403658 7.14749527 -0.73175961 8 10 3129 8.39600000 2887608760 2887608760 -5.00000000
5.27159452 8.66343594 2.34129047 55 13 3132 10.40800000 2887608767 2887608767 13.00000000
4.57147026 7.50988722 2.35577106 40 15 3133 9.10200000 2887608771 2887608771 15.00000000
1.19003892 1.94883180 -0.61184824 4 0 3141 2.36400000 2887608792 2887608792 -15.00000000
1.41147840 2.30965257 -0.62491405 3 2 3143 2.77800000 2887608796 2887608796 -13.00000000
1.71220171 2.80063820 -0.63806528 2 4 3144 3.34400000 2887608801 2887608801 -11.00000000
2.15366578 3.51997685 -0.65358317 2 6 3146 4.17800000 2887608806 2887608806 -9.00000000
2.90667415 4.74697971 -0.68344325 9 8 3148 5.60800000 2887608810 2887608810 -7.00000000
4.37416315 7.14078283 -0.73263115 8 10 3149 8.40600000 2887608815 2887608815 -5.00000000
5.29772806 8.63833618 2.33949089 56 13 3152 10.40000000 2887608822 2887608822 13.00000000
4.59765720 7.49388409 2.35577106 42 15 3153 9.10200000 2887608826 2887608826 15.00000000
1.19919944 1.94774711 -0.61288351 4 0 3162 2.36800000 2887608847 2887608847 -15.00000000
1.42504561 2.31275916 -0.62716353 3 2 3164 2.78800000 2887608852 2887608852 -13.00000000
1.72245502 2.79434371 -0.63806528 2 4 3165 3.34400000 2887608856 2887608856 -11.00000000
2.16758990 3.51374078 -0.65389609 2 6 3167 4.18000000 2887608861 2887608861 -9.00000000
2.92196751 4.73291588 -0.68295580 9 8 3169 5.60400000 2887608866 2887608866 -7.00000000
4.39402437 7.11453199 -0.73158532 8 10 3170 8.39400000 2887608870 2887608870 -5.00000000
5.32422924 8.61057377 2.33724141 54 13 3173 10.39000000 2887608877 2887608877 13.00000000
4.63046360 7.48274612 2.35784149 40 15 3175 9.11000000 2887608882 2887608882 15.00000000
1.20395386 1.94026613 -0.61184824 4 0 3182 2.36400000 2887608902 2887608902 -15.00000000
1.43105388 2.30445981 -0.62626374 3 2 3184 2.78400000 2887608907 2887608907 -13.00000000
1.72391057 2.77497315 -0.63501233 2 4 3185 3.32800000 2887608912 2887608912 -11.00000000
2.18401384 3.51286340 -0.65514755 2 6 3187 4.18800000 2887608916 2887608916 -9.00000000
2.93742180 4.72100210 -0.68271208 6 8 3189 5.60200000 2887608921 2887608921 -7.00000000
4.42514944 7.10929966 -0.73263115 4 10 3190 8.40600000 2887608926 2887608926 -5.00000000
5.35528374 8.59359074 2.33769131 55 13 3193 10.39200000 2887608932 2887608932 13.00000000
4.65246582 7.45998049 2.35577106 40 15 3195 9.10200000 2887608937 2887608937 15.00000000
1.20662212 1.92949998 -0.60977769 4 0 3202 2.35600000 2887608958 2887608958 -15.00000000
1.44115686 2.30275416 -0.62716353 3 2 3204 2.78800000 2887608962 2887608962 -13.00000000
1.73150289 2.76561046 -0.63424909 2 4 3205 3.32400000 2887608967 2887608967 -11.00000000
2.18787193 3.49182701 -0.65264457 2 6 3207 4.17200000 2887608972 2887608972 -9.00000000
2.95493793 4.71240139 -0.68295580 6 8 3209 5.60400000 2887608976 2887608976 -7.00000000
4.45629072 7.10393667 -0.73367703 4 10 3210 8.41800000 2887608981 2887608981 -5.00000000
5.38939428 8.58144569 2.33949089 57 13 3213 10.40000000 2887608988 2887608988 13.00000000
4.67539406 7.43878794 2.35421801 40 15 3215 9.09600000 2887608992 2887608992 15.00000000
1.21129000 1.92200768 -0.60874242 4 0 3222 2.35200000 2887609013 2887609013 -15.00000000
1.44918621 2.29770970 -0.62716353 3 2 3224 2.78800000 2887609018 2887609018 -13.00000000
1.75162232 2.77615333 -0.63806528 2 4 3225 3.34400000 2887609022 2887609022 -11.00000000
2.19899273 3.48249841 -0.65233171 2 6 3227 4.17000000 2887609027 2887609027 -9.00000000
2.98091340 4.71716118 -0.68514943 4 8 3229 5.62200000 2887609032 2887609032 -7.00000000
4.46935034 7.06981277 -0.73175961 4 10 3230 8.39600000 2887609036 2887609036 -5.00000000
5.42140055 8.56587410 2.34039068 56 13 3233 10.40400000 2887609043 2887609043 13.00000000
4.70236540 7.42405462 2.35473561 42 15 3235 9.09800000 2887609048 2887609048 15.00000000
1.22767353 1.93450391 -0.61391878 4 0 3240 2.37200000 2887609068 2887609068 -15.00000000
1.45012891 2.28327537 -0.62446415 3 2 3242 2.77600000 2887609073 2887609073 -13.00000000
1.76244092 2.77395105 -0.63882852 2 4 3243 3.34800000 2887609078 2887609078 -11.00000000
2.21416211 3.48224044 -0.65358317 2 6 3245 4.17800000 2887609082 2887609082 -9.00000000
2.97866654 4.68097687 -0.68124962 4 8 3247 5.59000000 2887609087 2887609087 -7.00000000
4.49367857 7.05909872 -0.73210824 4 10 3248 8.40000000 2887609091 2887609091 -5.00000000
5.44200039 8.53894043 2.33769131 56 13 3251 10.39200000 2887609098 2887609098 13.00000000
4.72644949 7.41332769 2.35577106 40 15 3252 9.10200000 2887609103 2887609103 15.00000000
1.23233712 1.92695177 -0.61288351 4 0 3260 2.36800000 2887609124 2887609124 -15.00000000
1.45809019 2.27819967 -0.62446415 3 2 3262 2.77600000 2887609128 2887609128 -13.00000000
1.77634752 2.77439570 -0.64035499 2 4 3263 3.35600000 2887609133 2887609133 -11.00000000
2.22310662 3.46950078 -0.65264457 2 6 3265 4.17200000 2887609137 2887609137 -9.00000000
3.00141740 4.68057728 -0.68271208 4 8 3267 5.60200000 2887609142 2887609142 -7.00000000
4.53120136 7.06349373 -0.73420000 4 10 3268 8.42400000 2887609147 2887609147 -5.00000000
5.46334887 8.50677395 2.33409214 56 13 3271 10.37600000 2887609154 2887609154 13.00000000
4.41725492 6.87266350 2.18909144 27 15 3273 8.45800000 2887609158 2887609158 15.00000000
1.23696291 1.91939068 -0.61184824 4 0 3280 2.36400000 2887609179 2887609179 -15.00000000
1.47237098 2.28292203 -0.62716353 3 2 3282 2.78800000 2887609184 2887609184 -13.00000000
1.77537739 2.75168133 -0.63653880 2 4 3283 3.33600000 2887609188 2887609188 -11.00000000
2.24056172 3.47001696 -0.65420896 2 6 3285 4.18200000 2887609193 2887609193 -9.00000000
3.01665998 4.66840458 -0.68246830 6 8 3287 5.60000000 2887609197 2887609197 -7.00000000
4.52770758 7.00412989 -0.72966790 4 10 3288 8.37200000 2887609202 2887609202 -5.00000000
5.49300957 8.48765182 2.33409214 55 13 3291 10.37600000 2887609209 2887609209 13.00000000
4.78228807 7.38663673 2.35784149 40 15 3292 9.11000000 2887609214 2887609214 15.00000000
1.23523796 1.90209973 -0.60770714 4 0 3300 2.34800000 2887609234 2887609234 -15.00000000
1.48457861 2.28430462 -0.62896317 3 2 3302 2.79600000 2887609239 2887609239 -13.00000000
1.78711200 2.74875927 -0.63730204 2 4 3303 3.34000000 2887609243 2887609243 -11.00000000
2.25589252 3.46714211 -0.65514755 2 6 3305 4.18800000 2887609248 2887609248 -9.00000000
3.03727007 4.66449976 -0.68344325 6 8 3307 5.60800000 2887609253 2887609253 -7.00000000
4.56082869 7.00163794 -0.73106235 4 10 3308 8.38800000 2887609257 2887609257 -5.00000000
5.52899075 8.47821999 2.33679152 57 13 3311 10.38800000 2887609264 2887609264 13.00000000
4.79982662 7.35449934 2.35318279 40 15 3313 9.09200000 2887609269 2887609269 15.00000000
1.24821687 1.90747535 -0.61081296 4 0 3320 2.36000000 2887609290 2887609290 -15.00000000
1.48613751 2.26932693 -0.62626374 3 2 3322 2.78400000 2887609294 2887609294 -13.00000000
1.80530298 2.75564194 -0.64035499 2 4 3323 3.35600000 2887609299 2887609299 -11.00000000
2.25823355 3.44437861 -0.65233171 2 6 3325 4.17000000 2887609303 2887609303 -9.00000000
3.05353379 4.65386963 -0.68344325 9 8 3327 5.60800000 2887609308 2887609308 -7.00000000
4.58961439 6.99233770 -0.73175961 4 10 3328 8.39600000 2887609313 2887609313 -5.00000000
5.56283236 8.46538258 2.33859110 55 13 3331 10.39600000 2887609320 2887609320 13.00000000
4.82737255 7.34338474 2.35473561 42 15 3332 9.09800000 2887609324 2887609324 15.00000000
1.25912142 1.90955782 -0.61288351 4 0 3340 2.36800000 2887609345 2887609345 -15.00000000
1.49190331 2.26087260 -0.62536395 3 2 3342 2.78000000 2887609349 2887609349 -13.00000000
1.81274784 2.74604654 -0.63959175 2 4 3343 3.35200000 2887609354 2887609354 -11.00000000
2.27786493 3.44801235 -0.65452182 2 6 3345 4.18400000 2887609359 2887609359 -9.00000000
3.06976032 4.64318228 -0.68344325 6 8 3347 5.60800000 2887609363 2887609363 -7.00000000
4.63267851 7.00452518 -0.73472291 4 10 3348 8.43000000 2887609368 2887609368 -5.00000000
5.58804464 8.43941402 2.33679152 56 13 3351 10.38800000 2887609375 2887609375 13.00000000
4.85425472 7.32564211 2.35473561 40 15 3353 9.09800000 2887609379 2887609379 15.00000000
1.26611185 1.90493011 -0.61288351 4 0 3361 2.36800000 2887609400 2887609400 -15.00000000
1.49802125 2.25214410 -0.62446415 3 2 3363 2.77600000 2887609405 2887609405 -13.00000000
1.82062519 2.73611522 -0.63882852 2 4 3364 3.34800000 2887609409 2887609409 -11.00000000
2.28282309 3.42813110 -0.65233171 2 6 3366 4.17000000 2887609414 2887609414 -9.00000000
3.08455610 4.62859583 -0.68295580 6 8 3368 5.60400000 2887609419 2887609419 -7.00000000
4.66826677 7.00241852 -0.73629171 4 10 3369 8.44800000 2887609423 2887609423 -5.00000000
5.61461210 8.41239262 2.33499193 57 13 3372 10.38000000 2887609430 2887609430 13.00000000
4.88194180 7.31186628 2.35577106 40 15 3373 9.10200000 2887609435 2887609435 15.00000000
1.27060366 1.89728868 -0.61184824 4 0 3381 2.36400000 2887609455 2887609455 -15.00000000
1.51021326 2.25337648 -0.62626374 3 2 3383 2.78400000 2887609460 2887609460 -13.00000000
1.82141864 2.71669793 -0.63577557 4 4 3384 3.33200000 2887609465 2887609465 -11.00000000
2.30688214 3.43818545 -0.65577328 2 6 3386 4.19200000 2887609469 2887609469 -9.00000000
3.10069418 4.61780071 -0.68295580 6 8 3388 5.60400000 2887609474 2887609474 -7.00000000
4.67490625 6.95961809 -0.73350275 4 10 3389 8.41600000 2887609478 2887609478 -5.00000000
5.65046740 8.40244484 2.33769131 56 13 3392 10.39200000 2887609485 2887609485 13.00000000
4.90655136 7.29071856 2.35473561 42 15 3394 9.09800000 2887609490 2887609490 15.00000000
1.27505755 1.88963902 -0.61081296 4 0 3401 2.36000000 2887609511 2887609511 -15.00000000
1.52461326 2.25778127 -0.62896317 3 2 3403 2.79600000 2887609515 2887609515 -13.00000000
1.82649469 2.70381618 -0.63424909 2 4 3404 3.32400000 2887609520 2887609520 -11.00000000
2.31001902 3.41702008 -0.65327030 2 6 3406 4.17600000 2887609525 2887609525 -9.00000000
3.12569308 4.62010241 -0.68490571 6 8 3408 5.62000000 2887609529 2887609529 -7.00000000
4.70810509 6.95645714 -0.73489720 4 10 3409 8.43200000 2887609534 2887609534 -5.00000000
5.67757654 8.37944317 2.33679152 59 13 3412 10.38800000 2887609541 2887609541 13.00000000
4.92636538 7.26801157 2.35266519 42 15 3413 9.09000000 2887609545 2887609545 15.00000000
1.27947354 1.88198161 -0.60977769 4 0 3421 2.35600000 2887609566 2887609566 -15.00000000
1.52590787 2.24277830 -0.62626374 3 2 3423 2.78400000 2887609571 2887609571 -13.00000000
1.84475875 2.71040797 -0.63730204 4 4 3424 3.34000000 2887609575 2887609575 -11.00000000
2.32526875 3.41383362 -0.65420896 2 6 3426 4.18200000 2887609580 2887609580 -9.00000000
3.14180112 4.60916376 -0.68490571 6 8 3428 5.62000000 2887609584 2887609584 -7.00000000
4.71552181 6.91528893 -0.73228258 4 10 3429 8.40200000 2887609589 2887609589 -5.00000000
5.70898914 8.36279297 2.33769131 55 13 3432 10.39200000 2887609596 2887609596 13.00000000
4.95733023 7.25628710 2.35473561 42 15 3434 9.09800000 2887609601 2887609601 15.00000000
1.28756201 1.88114107 -0.61081296 4 0 3439 2.36000000 2887609621 2887609621 -15.00000000
1.53294623 2.23797345 -0.62626374 3 2 3441 2.78400000 2887609626 2887609626 -13.00000000
1.85326469 2.70459914 -0.63730204 4 4 3442 3.34000000 2887609631 2887609631 -11.00000000
2.32927918 3.39673686 -0.65233171 2 6 3444 4.17000000 2887609635 2887609635 -9.00000000
3.16075873 4.60581779 -0.68588066 6 8 3446 5.62800000 2887609640 2887609640 -7.00000000
4.74737215 6.91522360 -0.73385137 4 10 3447 8.42000000 2887609644 2887609644 -5.00000000
5.73081827 8.33839226 2.33589172 59 13 3450 10.38400000 2887609651 2887609651 13.00000000
4.97883797 7.24154663 2.35473561 40 15 3451 9.09800000 2887609656 2887609656 15.00000000
1.29631400 1.87981594 -0.61184824 4 0 3459 2.36400000 2887609677 2887609677 -15.00000000
1.54296267 2.23581672 -0.62716353 3 2 3461 2.78800000 2887609681 2887609681 -13.00000000
1.86269414 2.69811344 -0.63730204 4 4 3462 3.34000000 2887609686 2887609686 -11.00000000
3.17230105 4.58822536 -0.68490571 6 8 3466 5.62000000 2887609695 2887609695 -7.00000000
4.77941561 6.91008043 -0.73507154 8 10 3467 8.43400000 2887609700 2887609700 -5.00000000
5.75545216 8.31192875 2.33409214 55 13 3470 10.37600000 2887609707 2887609707 13.00000000
5.00628567 7.22729921 2.35577106 42 15 3471 9.10200000 2887609711 2887609711 15.00000000
1.30319512 1.87505209 -0.61184824 4 0 3480 2.36400000 2887609732 2887609732 -15.00000000
1.54669607 2.22374725 -0.62536395 3 2 3482 2.78000000 2887609737 2887609737 -13.00000000
1.86135781 2.67515278 -0.63348585 4 4 3483 3.32000000 2887609741 2887609741 -11.00000000
2.38174558 3.42050958 -0.66015345 2 6 3485 4.22000000 2887609746 2887609746 -9.00000000
3.19590592 4.58633947 -0.68636817 6 8 3487 5.63200000 2887609750 2887609750 -7.00000000
4.80812836 6.89741993 -0.73559445 8 10 3488 8.44000000 2887609755 2887609755 -5.00000000
5.78810883 8.29397392 2.33499193 56 13 3491 10.38000000 2887609762 2887609762 13.00000000
5.03495312 7.21206951 2.35680628 40 15 3492 9.10600000 2887609766 2887609766 15.00000000
1.30308390 1.86099672 -0.60874242 4 0 3500 2.35200000 2887609787 2887609787 -15.00000000
1.56115878 2.22791028 -0.62806332 3 2 3502 2.79200000 2887609792 2887609792 -13.00000000
1.87744594 2.67828488 -0.63577557 4 4 3503 3.33200000 2887609796 2887609796 -11.00000000
2.37098217 3.37983203 -0.65389609 2 6 3505 4.18000000 2887609801 2887609801 -9.00000000
3.21417689 4.57840490 -0.68685561 6 8 3507 5.63600000 2887609806 2887609806 -7.00000000
4.82072496 6.86428976 -0.73385137 8 10 3508 8.42000000 2887609810 2887609810 -5.00000000
5.81926680 8.27690792 2.33589172 56 13 3511 10.38400000 2887609817 2887609817 13.00000000
5.05468273 7.18408728 2.35370040 42 15 3513 9.09400000 2887609822 2887609822 15.00000000
1.31291282 1.86117256 -0.61029530 4 0 3520 2.35800000 2887609843 2887609843 -15.00000000
1.56892610 2.22244716 -0.62806332 3 2 3522 2.79200000 2887609847 2887609847 -13.00000000
1.89357865 2.68133712 -0.63806528 2 4 3523 3.34400000 2887609852 2887609852 -11.00000000
2.39872646 3.39411950 -0.65827620 2 6 3525 4.20800000 2887609856 2887609856 -9.00000000
3.26911139 4.62226152 -0.69514275 9 8 3527 5.70400000 2887609861 2887609861 -7.00000000
4.86536980 6.87669706 -0.73698896 13 10 3528 8.45600000 2887609866 2887609866 -5.00000000
5.85600758 8.26767635 2.33904099 54 13 3531 10.39800000 2887609872 2887609872 13.00000000
5.08294582 7.17359114 2.35577106 42 15 3532 9.10200000 2887609877 2887609877 15.00000000
1.31940150 1.85657835 -0.61029530 4 0 3540 2.35800000 2887609898 2887609898 -15.00000000
1.57102728 2.20901656 -0.62581384 4 2 3542 2.78200000 2887609902 2887609902 -13.00000000
1.90747917 2.68110967 -0.63959175 2 4 3543 3.35200000 2887609907 2887609907 -11.00000000
2.39337397 3.36158800 -0.65358317 2 6 3545 4.17800000 2887609912 2887609912 -9.00000000
3.28868198 4.61567211 -0.69587398 9 8 3547 5.71000000 2887609916 2887609916 -7.00000000
4.87315464 6.83695745 -0.73454863 13 10 3548 8.42800000 2887609921 2887609921 -5.00000000
5.87917185 8.23925304 2.33679152 56 13 3551 10.38800000 2887609928 2887609928 13.00000000
5.11244488 7.16209412 2.35784149 42 15 3552 9.11000000 2887609932 2887609932 15.00000000
1.33646786 1.86813605 -0.61547166 4 0 3558 2.37800000 2887609953 2887609953 -15.00000000
1.57909369 2.20565462 -0.62626374 4 2 3560 2.78400000 2887609958 2887609958 -13.00000000
1.91132009 2.66871953 -0.63806528 4 4 3561 3.34400000 2887609962 2887609962 -11.00000000
2.41312909 3.36689711 -0.65608615 2 6 3563 4.19400000 2887609967 2887609967 -9.00000000
3.32167792 4.63112688 -0.69977379 9 8 3565 5.74200000 2887609971 2887609971 -7.00000000
3.46130419 4.82401752 -0.51944822 3 10 3566 5.96000000 2887609976 2887609976 -5.00000000
5.90047979 8.21441174 2.33499193 48 13 3569 10.38000000 2887609983 2887609983 13.00000000
5.14055681 7.15384150 2.36042976 45 15 3570 9.12000000 2887609988 2887609988 15.00000000
1.33733332 1.85562325 -0.61288351 4 0 3578 2.36800000 2887610008 2887610008 -15.00000000
1.58450341 2.19696808 -0.62536395 3 2 3580 2.78000000 2887610013 2887610013 -13.00000000
1.91143453 2.64929461 -0.63501233 2 4 3581 3.32800000 2887610018 2887610018 -11.00000000
2.42717957 3.36165619 -0.65671188 2 6 3583 4.19800000 2887610022 2887610022 -9.00000000
3.32968521 4.60824060 -0.69806761 9 8 3585 5.72800000 2887610027 2887610027 -7.00000000
3.47462058 4.80706215 -0.51892531 15 10 3586 5.95400000 2887610031 2887610031 -5.00000000
5.93482924 8.20165825 2.33724141 15 13 3589 10.39000000 2887610038 2887610038 13.00000000
5.15994406 7.12556410 2.35732388 45 15 3591 9.10800000 2887610043 2887610043 15.00000000
1.33245277 1.83531082 -0.60770714 4 0 3598 2.34800000 2887610064 2887610064 -15.00000000
1.59903526 2.20088315 -0.62806332 3 2 3600 2.79200000 2887610068 2887610068 -13.00000000
3.47313571 4.77860689 -1.14828849 10 4 3601 6.01800000 2887610073 2887610073 -11.00000000
2.44006109 3.35476089 -0.65702474 4 6 3603 4.20000000 2887610077 2887610077 -9.00000000
3.34691882 4.59819460 -0.69831133 11 8 3605 5.73000000 2887610082 2887610082 -7.00000000
3.47730589 4.77557611 -0.51683354 15 10 3606 5.93000000 2887610087 2887610087 -5.00000000
3.49806166 4.80055904 -0.31129426 3 12 3608 5.94800000 2887610091 2887610091 -3.00000000
4.98998976 6.84549332 1.95572448 16 13 3609 8.69400000 2887610094 2887610094 13.00000000
5.17671537 7.09904861 2.35421801 45 15 3610 9.09600000 2887610098 2887610098 15.00000000
1.34569359 1.84000444 -0.61081296 4 0 3618 2.36000000 2887610119 2887610119 -15.00000000
1.60785890 2.19686055 -0.62851322 3 2 3620 2.79400000 2887610123 2887610123 -13.00000000
2.44708657 3.33984923 -0.65577328 6 6 3623 4.19200000 2887610133 2887610133 -9.00000000
3.36294913 4.58648396 -0.69831133 18 8 3625 5.73000000 2887610137 2887610137 -7.00000000
3.48806238 4.75537634 -0.51596200 15 10 3626 5.92000000 2887610142 2887610142 -5.00000000
3.50061536 4.76899815 -0.31003821 25 12 3628 5.92400000 2887610147 2887610147 -3.00000000
5.03000212 6.85002375 1.96202314 21 13 3629 8.72200000 2887610149 2887610149 13.00000000
5.20375156 7.08404922 2.35525322 45 15 3630 9.10000000 2887610153 2887610153 15.00000000
1.35669160 1.84151721 -0.61288351 4 0 3638 2.36800000 2887610174 2887610174 -15.00000000
1.60857916 2.18182373 -0.62581384 3 2 3640 2.78200000 2887610179 2887610179 -13.00000000
3.48660159 4.72738361 -1.14180100 111 4 3641 5.98400000 2887610183 2887610183 -11.00000000
2.46342206 3.33764434 -0.65702474 6 6 3643 4.20000000 2887610188 2887610188 -9.00000000
3.37186217 4.56513643 -0.69684893 13 8 3645 5.71800000 2887610193 2887610193 -7.00000000
3.49872065 4.73515940 -0.51509047 30 10 3646 5.91000000 2887610197 2887610197 -5.00000000
3.50180387 4.73587275 -0.30867746 37 12 3648 5.89800000 2887610202 2887610202 -3.00000000
5.06083584 6.84182453 1.96472251 26 13 3649 8.73400000 2887610204 2887610204 13.00000000
5.23657703 7.07424545 2.35835910 40 15 3651 9.11200000 2887610209 2887610209 15.00000000
1.37001908 1.84607816 -0.61598933 4 0 3658 2.38000000 2887610229 2887610229 -15.00000000
1.61386156 2.17306638 -0.62491405 3 2 3660 2.77800000 2887610234 2887610234 -13.00000000
3.49254465 4.70100117 -1.13836646 136 4 3661 5.96600000 2887610239 2887610239 -11.00000000
2.47623634 3.33061028 -0.65733761 6 6 3663 4.20200000 2887610243 2887610243 -9.00000000
3.38777685 4.55333853 -0.69684893 13 8 3665 5.71800000 2887610248 2887610248 -7.00000000
3.50690103 4.71173000 -0.51387024 56 10 3666 5.89600000 2887610253 2887610253 -5.00000000
3.51473475 4.71881533 -0.30836347 62 12 3668 5.89200000 2887610257 2887610257 -3.00000000
5.08701611 6.82724237 1.96562231 21 13 3669 8.73800000 2887610259 2887610259 13.00000000
3.54696250 4.75861549 -0.10359748 2 14 3670 5.93600000 2887610262 2887610262 -1.00000000
5.25777435 7.05127716 2.35680628 45 15 3671 9.10600000 2887610264 2887610264 15.00000000
1.36951470 1.83200097 -0.61288351 4 0 3678 2.36800000 2887610285 2887610285 -15.00000000
1.62727380 2.17522168 -0.62716353 3 2 3680 2.78800000 2887610289 2887610289 -13.00000000
3.50893283 4.68878126 -1.13836646 170 4 3681 5.96600000 2887610294 2887610294 -11.00000000
2.48666310 3.32036519 -0.65702474 4 6 3683 4.20000000 2887610299 2887610299 -9.00000000
3.40603137 4.54466248 -0.69733638 11 8 3685 5.72200000 2887610303 2887610303 -7.00000000
3.51974106 4.69467735 -0.51334733 41 10 3686 5.89000000 2887610308 2887610308 -5.00000000
3.53118515 4.70651770 -0.30836347 96 12 3688 5.89200000 2887610312 2887610312 -3.00000000
5.12836361 6.83282232 1.97237086 19 13 3689 8.76800000 2887610315 2887610315 13.00000000
3.54434109 4.72061920 -0.10303900 6 14 3690 5.90400000 2887610317 2887610317 -1.00000000
5.28467655 7.03597021 2.35784149 45 15 3691 9.11000000 2887610319 2887610319 15.00000000
1.36660457 1.81486320 -0.60874242 4 0 3698 2.35200000 2887610340 2887610340 -15.00000000
1.63720238 2.17264104 -0.62806332 3 2 3700 2.79200000 2887610345 2887610345 -13.00000000
3.53473282 4.68904591 -1.14141941 169 4 3701 5.98200000 2887610349 2887610349 -11.00000000
2.50299668 3.31797290 -0.65827620 6 6 3703 4.20800000 2887610354 2887610354 -9.00000000
3.43263888 4.54700422 -0.69953001 11 8 3705 5.74000000 2887610359 2887610359 -7.00000000
3.54331136 4.69190216 -0.51439321 26 10 3706 5.90200000 2887610363 2887610363 -5.00000000
3.55361342 4.70212984 -0.30888683 100 12 3708 5.90200000 2887610368 2887610368 -3.00000000
5.17333746 6.84286022 1.98046911 15 13 3709 8.80400000 2887610370 2887610370 13.00000000
3.55959129 4.70662355 -0.10300411 24 14 3710 5.90200000 2887610372 2887610372 -1.00000000
5.30337667 7.00977755 2.35525322 42 15 3711 9.10000000 2887610375 2887610375 15.00000000
1.37728417 1.81647897 -0.61081296 4 0 3717 2.36000000 2887610395 2887610395 -15.00000000
1.63733053 2.15788531 -0.62536395 3 2 3719 2.78000000 2887610400 2887610400 -13.00000000
3.54670167 4.67260695 -1.14027452 140 4 3720 5.97600000 2887610405 2887610405 -11.00000000
2.50681663 3.30021620 -0.65639901 4 6 3722 4.19600000 2887610409 2887610409 -9.00000000
3.45250344 4.54191780 -0.70050496 11 8 3724 5.74800000 2887610414 2887610414 -7.00000000
3.56608677 4.68964195 -0.51543903 26 10 3725 5.91400000 2887610418 2887610418 -5.00000000
3.57281518 4.69508791 -0.30920082 62 12 3727 5.90800000 2887610423 2887610423 -3.00000000
5.21488667 6.85047674 1.98766756 3 13 3728 8.83600000 2887610425 2887610425 13.00000000
3.58366013 4.70592976 -0.10324844 58 14 3729 5.91600000 2887610428 2887610428 -1.00000000
5.32888317 6.99769258 2.35680628 45 15 3729 9.10600000 2887610430 2887610430 15.00000000
1.38361645 1.81166029 -0.61081296 4 0 3737 2.36000000 2887610451 2887610451 -15.00000000
1.64485300 2.15215683 -0.62536395 3 2 3739 2.78000000 2887610455 2887610455 -13.00000000
3.57729983 4.67891407 -1.14485395 91 4 3740 6.00000000 2887610460 2887610460 -11.00000000
2.51592064 3.28830791 -0.65577328 4 6 3742 4.19200000 2887610464 2887610464 -9.00000000
3.47316384 4.53614330 -0.70147991 9 8 3744 5.75600000 2887610469 2887610469 -7.00000000
3.59091544 4.68823767 -0.51665926 22 10 3745 5.92800000 2887610474 2887610474 -5.00000000
3.60011744 4.69685459 -0.31014287 37 12 3747 5.92600000 2887610478 2887610478 -3.00000000
5.35802364 6.98271227 2.35835910 45 15 3750 9.11200000 2887610485 2887610485 15.00000000
1.39935517 1.81906915 -0.61495405 4 0 3757 2.37600000 2887610506 2887610506 -15.00000000
1.65711033 2.15257883 -0.62716353 3 2 3759 2.78800000 2887610511 2887610511 -13.00000000
2.53702998 3.29202294 -0.65827620 4 6 3762 4.20800000 2887610520 2887610520 -9.00000000
3.47442937 4.50512886 -0.69855505 9 8 3764 5.73200000 2887610524 2887610524 -7.00000000
3.62308002 4.69618177 -0.51892531 15 10 3765 5.95400000 2887610529 2887610529 -5.00000000
6.16787291 7.98605490 2.32959318 46 13 3768 10.35600000 2887610536 2887610536 13.00000000
5.38233089 6.96643448 2.35887671 45 15 3769 9.11400000 2887610541 2887610541 15.00000000
1.39859688 1.80501091 -0.61184824 4 0 3777 2.36400000 2887610561 2887610561 -15.00000000
1.66461420 2.14678121 -0.62716353 3 2 3779 2.78800000 2887610566 2887610566 -13.00000000
2.54123831 3.27378440 -0.65639901 4 6 3782 4.19600000 2887610575 2887610575 -9.00000000
3.48160958 4.48199940 -0.69684893 9 8 3784 5.71800000 2887610580 2887610580 -7.00000000
5.16515923 6.64689779 -0.73646605 8 10 3785 8.45000000 2887610584 2887610584 -5.00000000
6.21126699 7.98447227 2.33544183 55 13 3788 10.38200000 2887610591 2887610591 13.00000000
5.40545416 6.94361210 2.35784149 45 15 3790 9.11000000 2887610596 2887610596 15.00000000
1.40219820 1.79731679 -0.61081296 4 0 3796 2.36000000 2887610617 2887610617 -15.00000000
1.67172396 2.14124942 -0.62716353 3 2 3798 2.78800000 2887610621 2887610621 -13.00000000
2.01566124 2.58085728 -0.63653880 2 4 3799 3.33600000 2887610626 2887610626 -11.00000000
2.54721475 3.25911379 -0.65514755 4 6 3801 4.18800000 2887610630 2887610630 -9.00000000
3.48300076 4.45322943 -0.69416779 9 8 3803 5.69600000 2887610635 2887610635 -7.00000000
5.17857838 6.61874866 -0.73524582 8 10 3804 8.43600000 2887610640 2887610640 -5.00000000
6.24612188 7.97457027 2.33859110 62 13 3807 10.39600000 2887610647 2887610647 13.00000000
5.42485857 6.92355442 2.35680628 45 15 3808 9.10600000 2887610651 2887610651 15.00000000
1.41323793 1.79848731 -0.61288351 4 0 3816 2.36800000 2887610672 2887610672 -15.00000000
1.67677903 2.13233709 -0.62626374 3 2 3818 2.78400000 2887610676 2887610676 -13.00000000
2.03194094 2.58306384 -0.63882852 4 4 3819 3.34800000 2887610681 2887610681 -11.00000000
2.55124450 3.24088955 -0.65327030 4 6 3821 4.17600000 2887610686 2887610686 -9.00000000
3.46904230 4.40361977 -0.68831807 6 8 3823 5.64800000 2887610690 2887610690 -7.00000000
5.20165062 6.60063171 -0.73524582 8 10 3824 8.43600000 2887610695 2887610695 -5.00000000
6.27874804 7.95883846 2.34039068 60 13 3827 10.40400000 2887610702 2887610702 13.00000000
5.45259237 6.90665770 2.35784149 45 15 3829 9.11000000 2887610706 2887610706 15.00000000
1.41982019 1.79329538 -0.61288351 4 0 3837 2.36800000 2887610727 2887610727 -15.00000000
1.68216276 2.12312222 -0.62536395 3 2 3839 2.78000000 2887610732 2887610732 -13.00000000
2.04871154 2.58483052 -0.64111823 5 4 3840 3.36000000 2887610736 2887610736 -11.00000000
2.57538128 3.24699354 -0.65639901 4 6 3842 4.19600000 2887610741 2887610741 -9.00000000
3.47775435 4.38154650 -0.68685561 6 8 3844 5.63600000 2887610746 2887610746 -7.00000000
5.24067545 6.60024643 -0.73733759 8 10 3845 8.46000000 2887610750 2887610750 -5.00000000
6.30545139 7.93272114 2.33949089 60 13 3848 10.40000000 2887610757 2887610757 13.00000000
5.47907257 6.89060640 2.35887671 45 15 3849 9.11400000 2887610762 2887610762 15.00000000
1.42968464 1.79285955 -0.61443639 3 0 3857 2.37400000 2887610782 2887610782 -15.00000000
1.68956363 2.11723757 -0.62536395 3 2 3859 2.78000000 2887610787 2887610787 -13.00000000
2.05037260 2.56845760 -0.63882852 2 4 3860 3.34800000 2887610792 2887610792 -11.00000000
2.59409738 3.24724436 -0.65827620 4 6 3862 4.20800000 2887610796 2887610796 -9.00000000
3.49798560 4.37558222 -0.68783057 6 8 3864 5.64400000 2887610801 2887610801 -7.00000000
5.25870514 6.57568884 -0.73664033 8 10 3865 8.45200000 2887610805 2887610805 -5.00000000
6.33553934 7.91370535 2.34039068 62 13 3868 10.40400000 2887610812 2887610812 13.00000000
5.51153851 6.87952471 2.36198258 45 15 3870 9.12600000 2887610817 2887610817 15.00000000
1.43714392 1.78936434 -0.61495405 4 0 3877 2.37600000 2887610838 2887610838 -15.00000000
1.70182717 2.11740279 -0.62716353 3 2 3879 2.78800000 2887610842 2887610842 -13.00000000
2.04948425 2.54904437 -0.63577557 4 4 3880 3.33200000 2887610847 2887610847 -11.00000000
2.60541654 3.23816943 -0.65827620 4 6 3882 4.20800000 2887610852 2887610852 -9.00000000
3.50825834 4.35716057 -0.68685561 6 8 3884 5.63600000 2887610856 2887610856 -7.00000000
5.28162670 6.55729246 -0.73664033 8 10 3885 8.45200000 2887610861 2887610861 -5.00000000
6.36312437 7.89154196 2.34039068 62 13 3888 10.40400000 2887610868 2887610868 13.00000000
5.52461863 6.84918070 2.35784149 42 15 3889 9.11000000 2887610872 2887610872 15.00000000
1.42880166 1.76631331 -0.60874242 4 0 3897 2.35200000 2887610893 2887610893 -15.00000000
1.71166015 2.11447859 -0.62806332 3 2 3899 2.79200000 2887610898 2887610898 -13.00000000
2.07566690 2.56323504 -0.64111823 4 4 3900 3.36000000 2887610902 2887610902 -11.00000000
2.61421657 3.22598553 -0.65765047 4 6 3902 4.20400000 2887610907 2887610907 -9.00000000
3.51594424 4.33563709 -0.68539321 6 8 3904 5.62400000 2887610911 2887610911 -7.00000000
5.30699396 6.54191065 -0.73698896 8 10 3905 8.45600000 2887610916 2887610916 -5.00000000
6.39554644 7.87533331 2.34219027 59 13 3908 10.41200000 2887610923 2887610923 13.00000000
5.54846668 6.82738638 2.35732388 45 15 3910 9.10800000 2887610928 2887610928 15.00000000
1.43922234 1.76780844 -0.61081296 4 0 3915 2.36000000 2887610948 2887610948 -15.00000000
1.71337104 2.10304761 -0.62626374 3 2 3917 2.78400000 2887610953 2887610953 -13.00000000
2.62433839 3.21775699 -0.65765047 4 6 3920 4.20400000 2887610962 2887610962 -9.00000000
3.53958893 4.33687305 -0.68734312 6 8 3922 5.64000000 2887610967 2887610967 -7.00000000
5.33256006 6.53137922 -0.73768622 8 10 3923 8.46400000 2887610971 2887610971 -5.00000000
6.41902256 7.85369349 2.34174037 54 13 3926 10.41000000 2887610978 2887610978 13.00000000
5.57114506 6.81388521 2.35835910 47 15 3927 9.11200000 2887610983 2887610983 15.00000000
1.44538438 1.76277387 -0.61081296 4 0 3935 2.36000000 2887611004 2887611004 -15.00000000
1.71822929 2.09404111 -0.62536395 3 2 3937 2.78000000 2887611008 2887611008 -13.00000000
2.64558530 3.22078824 -0.66015345 4 6 3940 4.22000000 2887611017 2887611017 -9.00000000
3.54714274 4.31529045 -0.68588066 6 8 3942 5.62800000 2887611022 2887611022 -7.00000000
5.35153008 6.50810862 -0.73716325 8 10 3943 8.45800000 2887611027 2887611027 -5.00000000
5.67109632 6.88938379 2.06010175 14 13 3946 9.15800000 2887611034 2887611034 13.00000000
5.59489584 6.79439640 2.35835910 40 15 3947 9.11200000 2887611038 2887611038 15.00000000
1.46136963 1.76963449 -0.61495405 4 0 3955 2.37600000 2887611059 2887611059 -15.00000000
1.73049390 2.09403920 -0.62716353 3 2 3957 2.78800000 2887611064 2887611064 -13.00000000
2.09400201 2.53301358 -0.63882852 2 4 3958 3.34800000 2887611068 2887611068 -11.00000000
2.64422011 3.19631314 -0.65702474 4 6 3960 4.20000000 2887611073 2887611073 -9.00000000
3.56218433 4.30288219 -0.68588066 6 8 3962 5.62800000 2887611077 2887611077 -7.00000000
5.38565207 6.50319910 -0.73873210 8 10 3963 8.47600000 2887611082 2887611082 -5.00000000
6.45876980 7.79068613 2.33634162 52 13 3966 10.38600000 2887611089 2887611089 13.00000000
5.60377979 6.75698137 2.35214758 33 15 3967 9.08800000 2887611093 2887611093 15.00000000
1.46259677 1.75858140 -0.61288351 4 0 3975 2.36800000 2887611114 2887611114 -15.00000000
1.73529971 2.08499026 -0.62626374 3 2 3977 2.78400000 2887611119 2887611119 -13.00000000
2.10283113 2.52568865 -0.63882852 2 4 3978 3.34800000 2887611123 2887611123 -11.00000000
2.65789032 3.19009900 -0.65765047 4 6 3980 4.20400000 2887611128 2887611128 -9.00000000
3.56955528 4.28127337 -0.68441826 6 8 3982 5.61600000 2887611133 2887611133 -7.00000000
5.38534927 6.45681906 -0.73559445 4 10 3983 8.44000000 2887611137 2887611137 -5.00000000
6.48842335 7.77108526 2.33724141 55 13 3986 10.39000000 2887611144 2887611144 13.00000000
5.60745049 6.71119499 2.34334755 20 15 3988 9.05400000 2887611149 2887611149 15.00000000
1.45662510 1.73840141 -0.60770714 4 0 3996 2.34800000 2887611170 2887611170 -15.00000000
1.74543417 2.08160257 -0.62716353 3 2 3998 2.78800000 2887611174 2887611174 -13.00000000
2.10955071 2.51495600 -0.63806528 4 4 3999 3.34400000 2887611179 2887611179 -11.00000000
2.66956472 3.18033576 -0.65765047 4 6 4001 4.20400000 2887611183 2887611183 -9.00000000
3.59799075 4.28336191 -0.68685561 6 8 4003 5.63600000 2887611188 2887611188 -7.00000000
5.42948627 6.46144342 -0.73838347 4 10 4004 8.47200000 2887611193 2887611193 -5.00000000
6.52062559 7.75172567 2.33859110 51 13 4007 10.39600000 2887611199 2887611199 13.00000000
5.61840439 6.67679882 2.33817124 11 15 4008 9.03400000 2887611204 2887611204 15.00000000
1.47514331 1.74807036 -0.61288351 4 0 4016 2.36800000 2887611225 2887611225 -15.00000000
1.75017500 2.07251954 -0.62626374 3 2 4018 2.78400000 2887611229 2887611229 -13.00000000
2.12591839 2.51657557 -0.64035499 4 4 4019 3.35600000 2887611234 2887611234 -11.00000000
2.67809939 3.16798091 -0.65702474 6 6 4021 4.20000000 2887611239 2887611239 -9.00000000
3.61292052 4.27077627 -0.68685561 6 8 4023 5.63600000 2887611243 2887611243 -7.00000000
5.45844316 6.45005608 -0.73925501 4 10 4024 8.48200000 2887611248 2887611248 -5.00000000
6.56024075 7.74378633 2.34309030 57 13 4027 10.41600000 2887611255 2887611255 13.00000000
5.63543177 6.64977741 2.33558297 20 15 4028 9.02400000 2887611259 2887611259 15.00000000
1.48123622 1.74291050 -0.61288351 4 0 4036 2.36800000 2887611280 2887611280 -15.00000000
1.75739884 2.06639767 -0.62626374 3 2 4038 2.78400000 2887611285 2887611285 -13.00000000
2.13469005 2.50913930 -0.64035499 4 4 4039 3.35600000 2887611289 2887611289 -11.00000000
2.69682455 3.16763783 -0.65890199 6 6 4041 4.21200000 2887611294 2887611294 -9.00000000
3.61750746 4.24605036 -0.68490571 6 8 4043 5.62000000 2887611298 2887611298 -7.00000000
5.49255610 6.44461060 -0.74082381 4 10 4044 8.50000000 2887611303 2887611303 -5.00000000
5.64643812 6.62282419 1.69171250 37 11 4045 8.86600000 2887611305 2887611305 11.00000000
5.64493370 6.61638021 2.00791311 16 13 4047 8.92600000 2887611310 2887611310 13.00000000
5.66989660 6.64329004 2.34024191 15 15 4048 9.04200000 2887611315 2887611315 15.00000000
1.48982346 1.74066472 -0.61391878 4 0 4056 2.37200000 2887611335 2887611335 -15.00000000
1.76460123 2.06025052 -0.62626374 3 2 4058 2.78400000 2887611340 2887611340 -13.00000000
2.14343548 2.50167251 -0.64035499 4 4 4059 3.35600000 2887611345 2887611345 -11.00000000
2.71043682 3.16120410 -0.65952772 6 6 4061 4.21600000 2887611349 2887611349 -9.00000000
3.64006257 4.24243641 -0.68636817 6 8 4063 5.63200000 2887611354 2887611354 -7.00000000
5.51501846 6.42539883 -0.74082381 4 10 4064 8.50000000 2887611358 2887611358 -5.00000000
6.58620214 7.66528130 2.33319235 46 13 4067 10.37200000 2887611365 2887611365 13.00000000
5.74584675 6.68252230 2.36146498 31 15 4069 9.12400000 2887611370 2887611370 15.00000000
1.49276304 1.73304832 -0.61288351 4 0 4074 2.36800000 2887611391 2887611391 -15.00000000
1.77106500 2.05469680 -0.62626374 3 2 4076 2.78400000 2887611395 2887611395 -13.00000000
2.14359188 2.48600531 -0.63806528 2 4 4077 3.34400000 2887611400 2887611400 -11.00000000
2.71519279 3.14669108 -0.65827620 4 6 4079 4.20800000 2887611404 2887611404 -9.00000000
3.65077806 4.22797489 -0.68588066 6 8 4081 5.62800000 2887611409 2887611409 -7.00000000
5.51954842 6.38994789 -0.73873210 4 10 4082 8.47600000 2887611414 2887611414 -5.00000000
6.62937021 7.66666365 2.33994079 50 13 4085 10.40200000 2887611421 2887611421 13.00000000
5.76438522 6.66398335 2.36094737 45 15 4086 9.12200000 2887611425 2887611425 15.00000000
1.49120808 1.71907115 -0.60977769 4 0 4094 2.35600000 2887611446 2887611446 -15.00000000
1.78205872 2.05291700 -0.62761343 3 2 4096 2.79000000 2887611450 2887611450 -13.00000000
2.14453316 2.46961355 -0.63577557 2 4 4097 3.33200000 2887611455 2887611455 -11.00000000
2.72097731 3.13122988 -0.65702474 6 6 4099 4.20000000 2887611460 2887611460 -9.00000000
3.66811943 4.21820164 -0.68636817 6 8 4101 5.63200000 2887611464 2887611464 -7.00000000
5.55097342 6.38116455 -0.73995227 4 10 4102 8.49000000 2887611469 2887611469 -5.00000000
6.65737152 7.64494562 2.34039068 53 13 4105 10.40400000 2887611476 2887611476 13.00000000
5.79141855 6.64819145 2.36250019 45 15 4106 9.12800000 2887611480 2887611480 15.00000000
1.49974155 1.71676517 -0.61081296 4 0 4114 2.36000000 2887611501 2887611501 -15.00000000
1.78664875 2.04374957 -0.62671363 3 2 4116 2.78600000 2887611506 2887611506 -13.00000000
2.16089511 2.47097993 -0.63806528 2 4 4117 3.34400000 2887611510 2887611510 -11.00000000
2.72668719 3.11576676 -0.65577328 4 6 4119 4.19200000 2887611515 2887611515 -9.00000000
3.69328380 4.21731853 -0.68831807 6 8 4121 5.64800000 2887611520 2887611520 -7.00000000
5.57321405 6.36174917 -0.73995227 8 10 4122 8.49000000 2887611524 2887611524 -5.00000000
6.69943571 7.63924217 2.34578967 57 13 4125 10.42800000 2887611531 2887611531 13.00000000
5.81447220 6.62546825 2.36198258 47 15 4127 9.12600000 2887611536 2887611536 15.00000000
1.50572515 1.71151960 -0.61081296 4 0 4134 2.36000000 2887611556 2887611556 -15.00000000
1.79119647 2.03457522 -0.62581384 3 2 4136 2.78200000 2887611561 2887611561 -13.00000000
2.74538302 3.11512184 -0.65765047 6 6 4139 4.20400000 2887611570 2887611570 -9.00000000
3.69747829 4.19249058 -0.68636817 6 8 4141 5.63200000 2887611575 2887611575 -7.00000000
5.58352375 6.32880974 -0.73838347 8 10 4142 8.47200000 2887611580 2887611580 -5.00000000
6.72090054 7.60996771 2.34399009 59 13 4145 10.42000000 2887611586 2887611586 13.00000000
5.83884335 6.60657883 2.36250019 47 15 4147 9.12800000 2887611591 2887611591 15.00000000
1.52223873 1.71755540 -0.61495405 4 0 4155 2.37600000 2887611612 2887611612 -15.00000000
1.80639982 2.03674412 -0.62851322 3 2 4157 2.79400000 2887611616 2887611616 -13.00000000
2.75415921 3.10208416 -0.65702474 6 6 4160 4.20000000 2887611626 2887611626 -9.00000000
3.70754576 4.17297459 -0.68539321 6 8 4162 5.62400000 2887611630 2887611630 -7.00000000
