# .PCD v0.7 - Point Cloud Data file format
VERSION 0.7
FIELDS x y z intensity laser_id azimuth distance_m adjustedtime timestamp vertical_angle
SIZE 4 4 4 1 1 2 8 8 4 8
TYPE F F F U U U F U U F
COUNT 1 1 1 1 1 1 1 1 1 1
WIDTH 525
HEIGHT 1
VIEWPOINT 0 0 0 1 0 0 0
POINTS 525
DATA ascii
-2.25106263 1.69076002 -0.54724020 3 4 30691 2.86800000 2887285208 2887285208 -11.00000000
-4.12870741 3.10217547 0.45181537 10 5 30692 5.18400000 2887285211 2887285211 5.00000000
-2.75545478 2.07111096 -0.54595625 3 6 30693 3.49000000 2887285213 2887285213 -9.00000000
-4.12678671 3.10298657 0.63396430 9 7 30694 5.20200000 2887285215 2887285215 7.00000000
-3.57734799 2.69083381 -0.54963076 16 8 30695 4.51000000 2887285218 2887285218 -7.00000000
-4.10762835 3.08970380 0.81408495 76 9 30695 5.20400000 2887285220 2887285220 9.00000000
-4.00873041 3.01640964 -0.43891633 9 10 30696 5.03600000 2887285222 2887285222 -5.00000000
-4.10644579 3.09105921 0.99907589 63 11 30697 5.23600000 2887285224 2887285224 11.00000000
-4.15149498 3.12610435 -0.27235630 10 12 30698 5.20400000 2887285227 2887285227 -3.00000000
-4.09058094 3.08135486 1.18234277 62 13 30699 5.25600000 2887285229 2887285229 13.00000000
-4.13789892 3.11813045 -0.09043837 12 14 30700 5.18200000 2887285231 2887285231 -1.00000000
-4.08183193 3.07699800 1.36967039 51 15 30701 5.29200000 2887285234 2887285234 15.00000000
-1.64491606 1.24223590 -0.55231982 4 0 30706 2.13400000 2887285254 2887285254 -15.00000000
-4.12451315 3.11595106 0.09022894 9 1 30707 5.17000000 2887285257 2887285257 1.00000000
-1.91227365 1.44519222 -0.55337960 3 2 30708 2.46000000 2887285259 2887285259 -13.00000000
-4.13328505 3.12371159 0.27151895 8 3 30708 5.18800000 2887285261 2887285261 3.00000000
-2.25826836 1.70729542 -0.55029315 3 4 30709 2.88400000 2887285264 2887285264 -11.00000000
-4.12529802 3.11993814 0.45251262 10 5 30710 5.19200000 2887285266 2887285266 5.00000000
-2.75523591 2.08452463 -0.54720777 1 6 30711 3.49800000 2887285268 2887285268 -9.00000000
-4.12334919 3.12072778 0.63493925 9 7 30712 5.21000000 2887285270 2887285270 7.00000000
-3.57837296 2.70924854 -0.55109316 14 8 30713 4.52200000 2887285273 2887285273 -7.00000000
-4.11050081 3.11213207 0.81658792 76 9 30713 5.22000000 2887285275 2887285275 9.00000000
-4.06752968 3.08071470 -0.44641173 9 10 30714 5.12200000 2887285277 2887285277 -5.00000000
-4.10297394 3.10868716 1.00060236 15 11 30715 5.24400000 2887285280 2887285280 11.00000000
-4.14483690 3.14154410 -0.27256566 10 12 30716 5.20800000 2887285282 2887285282 -3.00000000
-4.09951496 3.10831928 1.18774152 67 13 30717 5.28000000 2887285284 2887285284 13.00000000
-4.12967587 3.13232303 -0.09047327 14 14 30718 5.18400000 2887285287 2887285287 -1.00000000
-4.09115458 3.10310483 1.37588203 14 15 30718 5.31600000 2887285289 2887285289 15.00000000
-1.64056981 1.24797022 -0.55231982 4 0 30726 2.13400000 2887285310 2887285310 -15.00000000
-4.13270712 3.14486098 0.09064780 9 1 30727 5.19400000 2887285312 2887285312 1.00000000
-1.90721738 1.45185840 -0.55337960 3 2 30728 2.46000000 2887285314 2887285314 -13.00000000
-4.13030243 3.14416933 0.27204230 8 3 30728 5.19800000 2887285317 2887285317 3.00000000
-2.24604726 1.71041012 -0.54876667 3 4 30729 2.87600000 2887285319 2887285319 -11.00000000
-4.13181591 3.14760017 0.45443004 12 5 30730 5.21400000 2887285321 2887285321 5.00000000
-2.73694468 2.08574820 -0.54501766 3 6 30731 3.48400000 2887285323 2887285323 -9.00000000
-4.11558819 3.13750887 0.63542676 9 7 30732 5.21400000 2887285326 2887285326 7.00000000
-3.55468798 2.71088910 -0.54889953 14 8 30733 4.50400000 2887285328 2887285328 -7.00000000
-4.11846113 3.14083600 0.82034236 76 9 30733 5.24400000 2887285330 2887285330 9.00000000
-4.14545774 3.16256881 -0.45617315 9 10 30734 5.23400000 2887285333 2887285333 -5.00000000
-4.09990120 3.12894559 1.00251043 36 11 30735 5.25400000 2887285335 2887285335 11.00000000
-4.13543320 3.15720510 -0.27267033 10 12 30736 5.21000000 2887285337 2887285337 -3.00000000
-4.08554220 3.12024474 1.18684173 65 13 30737 5.27600000 2887285340 2887285340 13.00000000
-4.14255190 3.16492939 -0.09099685 12 14 30738 5.21400000 2887285342 2887285342 -1.00000000
-4.08435822 3.12159824 1.37743497 14 15 30739 5.32200000 2887285344 2887285344 15.00000000
-1.64233744 1.25838912 -0.55439037 4 0 30746 2.14200000 2887285365 2887285365 -15.00000000
-4.13440132 3.16899967 0.09092703 9 1 30747 5.21000000 2887285367 2887285367 1.00000000
-1.90059137 1.45732129 -0.55292970 4 2 30748 2.45800000 2887285370 2887285370 -13.00000000
-4.12033510 3.16050196 0.27214697 8 3 30749 5.20000000 2887285372 2887285372 3.00000000
-2.23071671 1.71107054 -0.54647696 3 4 30749 2.86400000 2887285374 2887285374 -11.00000000
-4.13661003 3.17413259 0.45617315 13 5 30750 5.23400000 2887285376 2887285376 5.00000000
-2.72808051 2.09408641 -0.54470479 1 6 30751 3.48200000 2887285379 2887285379 -9.00000000
-4.11720705 3.16152787 0.63737667 9 7 30752 5.23000000 2887285381 2887285381 7.00000000
-3.53890657 2.71844363 -0.54792458 16 8 30753 4.49600000 2887285383 2887285383 -7.00000000
-4.11060572 3.15759969 0.82096809 76 9 30753 5.24800000 2887285386 2887285386 9.00000000
-4.15493107 3.19280171 -0.45843920 13 10 30754 5.26000000 2887285388 2887285388 -5.00000000
-4.10763216 3.15759587 1.00708985 76 11 30755 5.27800000 2887285390 2887285390 11.00000000
-4.14338636 3.18623137 -0.27392641 10 12 30756 5.23400000 2887285393 2887285393 -3.00000000
-4.08698225 3.14399242 1.19044101 65 13 30757 5.29200000 2887285395 2887285395 13.00000000
-4.13623333 3.18302894 -0.09110156 10 14 30758 5.22000000 2887285397 2887285397 -1.00000000
-4.10154200 3.15633249 1.38675249 23 15 30758 5.35800000 2887285400 2887285400 15.00000000
-1.62875867 1.25703239 -0.55128455 4 0 30766 2.13000000 2887285420 2887285420 -15.00000000
-4.13439417 3.19196630 0.09117137 11 1 30767 5.22400000 2887285423 2887285423 1.00000000
-1.89703512 1.46513784 -0.55337960 3 2 30768 2.46000000 2887285425 2887285425 -13.00000000
-4.11560011 3.17974997 0.27256566 8 3 30769 5.20800000 2887285427 2887285427 3.00000000
-2.22783732 1.72124743 -0.54724020 3 4 30769 2.86800000 2887285429 2887285429 -11.00000000
-4.12077570 3.18489766 0.45565021 10 5 30770 5.22800000 2887285432 2887285432 5.00000000
-2.74107003 2.11930394 -0.54877210 3 6 30771 3.50800000 2887285434 2887285434 -9.00000000
-4.12184811 3.18802524 0.63981408 9 7 30772 5.25000000 2887285436 2887285436 7.00000000
-3.50584555 2.71255875 -0.54426849 6 8 30773 4.46600000 2887285439 2887285439 -7.00000000
-4.10212898 3.17506266 0.82159382 78 9 30774 5.25200000 2887285441 2887285441 9.00000000
-4.14376068 3.20728564 -0.45843920 9 10 30774 5.26000000 2887285443 2887285443 -5.00000000
-4.10589886 3.17912674 1.00937963 76 11 30775 5.29000000 2887285446 2887285446 11.00000000
-4.14171314 3.20801330 -0.27455443 10 12 30776 5.24600000 2887285448 2887285448 -3.00000000
-4.08676577 3.16659474 1.19359028 69 13 30777 5.30600000 2887285450 2887285450 13.00000000
-4.12983894 3.20112300 -0.09120627 10 14 30778 5.22600000 2887285453 2887285453 -1.00000000
-4.08078575 3.16424155 1.38364661 42 15 30779 5.34600000 2887285455 2887285455 15.00000000
-1.62436092 1.26271021 -0.55128455 4 0 30786 2.13000000 2887285476 2887285476 -15.00000000
-4.12638378 3.20883369 0.09124118 11 1 30787 5.22800000 2887285478 2887285478 1.00000000
-1.89498556 1.47414386 -0.55427939 3 2 30788 2.46400000 2887285480 2887285480 -13.00000000
-4.12654257 3.21126914 0.27403107 8 3 30789 5.23600000 2887285482 2887285482 3.00000000
-2.22801304 1.73383641 -0.54876667 3 4 30789 2.87600000 2887285485 2887285485 -11.00000000
-4.11592197 3.20415783 0.45634747 10 5 30790 5.23600000 2887285487 2887285487 5.00000000
-2.73988962 2.13371396 -0.55002356 3 6 30791 3.51600000 2887285489 2887285489 -9.00000000
-4.12635469 3.21459341 0.64225143 9 7 30792 5.27000000 2887285492 2887285492 7.00000000
-3.46504021 2.70037532 -0.53939372 8 8 30793 4.42600000 2887285494 2887285494 -7.00000000
-4.10715866 3.20079112 0.82472253 76 9 30793 5.27200000 2887285496 2887285496 9.00000000
-4.13253975 3.22173047 -0.45843920 13 10 30794 5.26000000 2887285499 2887285499 -5.00000000
-4.09632492 3.19464684 1.00976121 70 11 30795 5.29200000 2887285501 2887285501 11.00000000
-4.14781189 3.23596478 -0.27570581 10 12 30796 5.26800000 2887285503 2887285503 -3.00000000
-4.09565878 3.19642735 1.19943905 67 13 30797 5.33200000 2887285506 2887285506 13.00000000
-4.12809706 3.22290277 -0.09141570 12 14 30798 5.23800000 2887285508 2887285508 -1.00000000
-4.07788420 3.18370056 1.38623476 65 15 30798 5.35600000 2887285510 2887285510 15.00000000
-1.61994326 1.26837254 -0.55128455 4 0 30806 2.13000000 2887285531 2887285531 -15.00000000
-4.12460375 3.23061633 0.09145061 11 1 30807 5.24000000 2887285533 2887285533 1.00000000
-1.89443004 1.48435533 -0.55562907 4 2 30808 2.47000000 2887285535 2887285535 -13.00000000
-4.13259935 3.23920703 0.27518246 8 3 30809 5.25800000 2887285538 2887285538 3.00000000
-2.21885705 1.73918080 -0.54800344 3 4 30809 2.87200000 2887285540 2887285540 -11.00000000
-4.11568737 3.22711134 0.45756766 10 5 30810 5.25000000 2887285542 2887285542 5.00000000
-2.71843624 2.13229251 -0.54720777 1 6 30811 3.49800000 2887285545 2887285545 -9.00000000
-4.11667013 3.23020291 0.64249516 9 7 30812 5.27200000 2887285547 2887285547 7.00000000
-3.45715451 2.71367979 -0.53963745 10 8 30813 4.42800000 2887285549 2887285549 -7.00000000
-4.10938263 3.22680283 0.82753831 81 9 30814 5.29000000 2887285552 2887285552 9.00000000
-4.14007282 3.25090170 -0.46053094 13 10 30814 5.28400000 2887285554 2887285554 -5.00000000
-4.09132433 3.21377730 1.01128769 68 11 30815 5.30000000 2887285556 2887285556 11.00000000
-4.12863874 3.24425364 -0.27518246 10 12 30816 5.25800000 2887285558 2887285558 -3.00000000
-4.09366894 3.21793032 1.20213842 65 13 30817 5.34400000 2887285561 2887285561 13.00000000
-4.12625313 3.24470949 -0.09162513 8 14 30818 5.25000000 2887285563 2887285563 -1.00000000
-4.08289003 3.21176386 1.39192879 70 15 30819 5.37800000 2887285565 2887285565 15.00000000
-1.61853981 1.27641201 -0.55231982 4 0 30826 2.13400000 2887285586 2887285586 -15.00000000
-4.12272120 3.25242543 0.09166004 9 1 30827 5.25200000 2887285588 2887285588 1.00000000
-1.88311815 1.48613012 -0.55382949 4 2 30828 2.46200000 2887285591 2887285591 -13.00000000
-4.12283468 3.25485039 0.27528712 8 3 30829 5.26000000 2887285593 2887285593 3.00000000
-2.21585441 1.74934852 -0.54876667 3 4 30829 2.87600000 2887285595 2887285595 -11.00000000
-4.11847019 3.25257158 0.45913646 10 5 30830 5.26800000 2887285598 2887285598 5.00000000
-2.72647691 2.15401435 -0.55033642 1 6 30831 3.51800000 2887285600 2887285600 -9.00000000
-4.11782885 3.25440001 0.64444506 9 7 30832 5.28800000 2887285602 2887285602 7.00000000
-3.44610381 2.72449970 -0.53939372 10 8 30833 4.42600000 2887285605 2887285605 -7.00000000
-4.11260557 3.25143814 0.83035415 78 9 30833 5.30800000 2887285607 2887285607 9.00000000
-4.15370369 3.28510857 -0.46331993 13 10 30834 5.31600000 2887285609 2887285609 -5.00000000
-4.09393787 3.23900223 1.01472223 76 11 30835 5.31800000 2887285611 2887285611 11.00000000
-4.12668562 3.26608253 -0.27581048 10 12 30836 5.27000000 2887285614 2887285614 -3.00000000
-4.09005022 3.23824859 1.20438790 69 13 30837 5.35400000 2887285616 2887285616 13.00000000
-4.13371277 3.27399182 -0.09204399 8 14 30838 5.27400000 2887285618 2887285618 -1.00000000
-4.09038973 3.23967886 1.39814043 65 15 30838 5.40200000 2887285621 2887285621 15.00000000
-1.62315083 1.28926325 -0.55542564 4 0 30846 2.14600000 2887285641 2887285641 -15.00000000
-4.12386799 3.27674890 0.09193928 11 1 30847 5.26800000 2887285644 2887285644 1.00000000
-1.87639368 1.49148178 -0.55337960 3 2 30848 2.46000000 2887285646 2887285646 -13.00000000
-4.11613798 3.27295113 0.27560115 8 3 30849 5.26600000 2887285648 2887285648 3.00000000
-2.20973468 1.75707269 -0.54876667 3 4 30849 2.87600000 2887285651 2887285651 -11.00000000
-4.12112474 3.27809048 0.46070525 10 5 30850 5.28600000 2887285653 2887285653 5.00000000
-2.72203279 2.16597843 -0.55096221 1 6 30851 3.52200000 2887285655 2887285655 -9.00000000
-4.12197495 3.28111696 0.64688247 14 7 30852 5.30800000 2887285658 2887285658 7.00000000
-3.43501973 2.73527575 -0.53915000 10 8 30853 4.42400000 2887285660 2887285660 -7.00000000
-4.10993147 3.27387452 0.83223134 78 9 30854 5.32000000 2887285662 2887285662 9.00000000
-4.14844465 3.30455303 -0.46401718 9 10 30854 5.32400000 2887285664 2887285664 -5.00000000
-4.10103130 3.26795506 1.01930165 79 11 30855 5.34200000 2887285667 2887285667 11.00000000
-4.13400078 3.29540682 -0.27706656 11 12 30856 5.29400000 2887285669 2887285669 -3.00000000
-4.08633995 3.25858068 1.20663750 67 13 30857 5.36400000 2887285671 2887285671 13.00000000
-4.12694883 3.29214215 -0.09214871 8 14 30858 5.28000000 2887285674 2887285674 -1.00000000
-4.09056807 3.26428890 1.40228164 65 15 30859 5.41800000 2887285676 2887285676 15.00000000
-1.61260641 1.29009402 -0.55335510 4 0 30866 2.13800000 2887285697 2887285697 -15.00000000
-4.13270140 3.30736709 0.09239304 16 1 30867 5.29400000 2887285699 2887285699 1.00000000
-1.87726104 1.50289416 -0.55517918 3 2 30868 2.46800000 2887285701 2887285701 -13.00000000
-4.11871862 3.29853559 0.27654320 10 3 30869 5.28400000 2887285704 2887285704 3.00000000
-2.19745827 1.75986636 -0.54724020 3 4 30869 2.86800000 2887285706 2887285706 -11.00000000
-4.12520599 3.30491328 0.46244836 10 5 30870 5.30600000 2887285708 2887285708 5.00000000
-2.72370410 2.18287897 -0.55283940 1 6 30871 3.53400000 2887285711 2887285711 -9.00000000
-4.12598467 3.30790234 0.64931989 21 7 30872 5.32800000 2887285713 2887285713 7.00000000
-3.42390227 2.74600768 -0.53890622 8 8 30873 4.42200000 2887285715 2887285715 -7.00000000
-4.10675716 3.29366493 0.83379573 81 9 30873 5.33000000 2887285717 2887285717 9.00000000
-4.14931679 3.32898831 -0.46541166 13 10 30874 5.34000000 2887285720 2887285720 -5.00000000
-4.10337925 3.29330993 1.02273619 71 11 30875 5.36000000 2887285722 2887285722 11.00000000
-4.13804674 3.32232118 -0.27811328 11 12 30876 5.31400000 2887285724 2887285724 -3.00000000
-4.09013414 3.28502774 1.21113646 63 13 30877 5.38400000 2887285727 2887285727 13.00000000
-4.12166786 3.31153774 -0.09228832 6 14 30878 5.28800000 2887285729 2887285729 -1.00000000
-4.08273268 3.28025579 1.40331686 63 15 30878 5.42200000 2887285731 2887285731 15.00000000
-1.61110198 1.29813933 -0.55439037 4 0 30886 2.14200000 2887285752 2887285752 -15.00000000
-4.12735939 3.32679248 0.09253266 16 1 30887 5.30200000 2887285754 2887285754 1.00000000
-1.87503767 1.51188433 -0.55607903 3 2 30888 2.47200000 2887285757 2887285757 -13.00000000
-4.12583447 3.32793975 0.27779925 14 3 30889 5.30800000 2887285759 2887285759 3.00000000
-2.20047045 1.77492177 -0.54952991 3 4 30889 2.88000000 2887285761 2887285761 -11.00000000
-4.10899305 3.31553936 0.46192545 7 5 30890 5.30000000 2887285764 2887285764 5.00000000
-2.69915962 2.17872524 -0.54939783 1 6 30891 3.51200000 2887285766 2887285766 -9.00000000
-4.11595726 3.32353163 0.64956361 28 7 30892 5.33000000 2887285768 2887285768 7.00000000
-3.42047286 2.76293206 -0.53988117 8 8 30893 4.43000000 2887285770 2887285770 -7.00000000
-4.10234022 3.31490254 0.83536005 76 9 30894 5.34000000 2887285773 2887285773 9.00000000
-4.14851904 3.35221744 -0.46663186 13 10 30894 5.35400000 2887285775 2887285775 -5.00000000
-4.10101938 3.31501842 1.02502596 71 11 30895 5.37200000 2887285777 2887285777 11.00000000
-4.13729572 3.34553623 -0.27884597 11 12 30896 5.32800000 2887285780 2887285780 -3.00000000
-4.09682369 3.31399202 1.21653533 62 13 30897 5.40800000 2887285782 2887285782 13.00000000
-4.12096453 3.33471012 -0.09253266 8 14 30898 5.30200000 2887285784 2887285784 -1.00000000
-4.07668877 3.30005956 1.40538740 65 15 30899 5.43000000 2887285787 2887285787 15.00000000
-1.60678828 1.30347478 -0.55439037 4 0 30905 2.14200000 2887285807 2887285807 -15.00000000
-4.11475182 3.33920097 0.09249775 9 1 30906 5.30000000 2887285810 2887285810 1.00000000
-1.86396194 1.51318085 -0.55427939 3 2 30907 2.46400000 2887285812 2887285812 -13.00000000
-4.13648129 3.35923052 0.27926466 24 3 30908 5.33600000 2887285814 2887285814 3.00000000
-2.19457245 1.78220904 -0.54952991 3 4 30908 2.88000000 2887285817 2887285817 -11.00000000
-4.10725403 3.33668470 0.46297130 7 5 30909 5.31200000 2887285819 2887285819 5.00000000
-4.14212275 3.36621189 -0.84537184 4 6 30910 5.40400000 2887285821 2887285821 -9.00000000
-4.10799408 3.33966684 0.65005106 42 7 30911 5.33400000 2887285823 2887285823 7.00000000
-3.41591215 2.77801704 -0.54061240 8 8 30912 4.43600000 2887285826 2887285826 -7.00000000
-4.11489391 3.34646940 0.84005308 69 9 30912 5.37000000 2887285828 2887285828 9.00000000
-4.14974403 3.37601471 -0.46802634 13 10 30913 5.37000000 2887285830 2887285830 -5.00000000
-4.09304905 3.33107805 1.02578914 71 11 30914 5.37600000 2887285833 2887285833 11.00000000
-4.13082552 3.36302066 -0.27915999 11 12 30915 5.33400000 2887285835 2887285835 -3.00000000
-4.09487772 3.33494306 1.21923470 62 13 30916 5.42000000 2887285837 2887285837 13.00000000
-4.11608505 3.35340977 -0.09267228 8 14 30917 5.31000000 2887285840 2887285840 -1.00000000
-4.07678556 3.32139206 1.40901089 61 15 30917 5.44400000 2887285842 2887285842 15.00000000
-1.60222852 1.30907559 -0.55439037 4 0 30925 2.14200000 2887285863 2887285863 -15.00000000
-4.10926390 3.35860562 0.09263737 16 1 30926 5.30800000 2887285865 2887285865 1.00000000
-1.85866857 1.51967812 -0.55427939 3 2 30927 2.46400000 2887285867 2887285867 -13.00000000
-4.11236238 3.36353302 0.27842727 12 3 30928 5.32000000 2887285870 2887285870 3.00000000
-2.18225932 1.78488684 -0.54800344 3 4 30928 2.87200000 2887285872 2887285872 -11.00000000
-4.12025404 3.37118816 0.46576029 13 5 30929 5.34400000 2887285874 2887285874 5.00000000
-2.68732429 2.19954944 -0.55002356 3 6 30930 3.51600000 2887285876 2887285876 -9.00000000
-4.10706282 3.36278915 0.65175724 61 7 30931 5.34800000 2887285879 2887285879 7.00000000
-3.39851570 2.78363442 -0.53939372 8 8 30932 4.42600000 2887285881 2887285881 -7.00000000
-4.11235666 3.36832285 0.84193027 65 9 30932 5.38200000 2887285883 2887285883 9.00000000
-4.14718103 3.39805603 -0.46907219 13 10 30933 5.38200000 2887285886 2887285886 -5.00000000
-4.09050655 3.35281253 1.02807891 68 11 30934 5.38800000 2887285888 2887285888 11.00000000
-4.10979414 3.36982107 -0.27853197 33 12 30935 5.32200000 2887285890 2887285890 -3.00000000
-4.08923817 3.35416007 1.22103429 58 13 30936 5.42800000 2887285893 2887285893 13.00000000
-4.11362982 3.37536788 -0.09288171 23 14 30937 5.32200000 2887285895 2887285895 -1.00000000
-4.07562065 3.34418035 1.41263437 68 15 30937 5.45800000 2887285897 2887285897 15.00000000
-1.60361624 1.31957054 -0.55646098 4 0 30945 2.15000000 2887285918 2887285918 -15.00000000
-4.11449814 3.38690901 0.09302133 35 1 30946 5.33000000 2887285920 2887285920 1.00000000
-1.85335255 1.52615678 -0.55427939 3 2 30947 2.46400000 2887285923 2887285923 -13.00000000
-4.10367966 3.38040709 0.27863663 21 3 30948 5.32400000 2887285925 2887285925 3.00000000
-2.19419956 1.80747247 -0.55258286 3 4 30948 2.89600000 2887285927 2887285927 -11.00000000
-4.11307430 3.38935113 0.46628323 26 5 30949 5.35000000 2887285929 2887285929 5.00000000
-2.67658162 2.20640349 -0.54939783 3 6 30950 3.51200000 2887285932 2887285932 -9.00000000
-4.10908318 3.38847160 0.65395087 52 7 30951 5.36600000 2887285934 2887285934 7.00000000
-3.38724709 2.79421735 -0.53915000 8 8 30952 4.42400000 2887285936 2887285936 -7.00000000
-4.10760164 3.38965917 0.84349465 72 9 30953 5.39200000 2887285939 2887285939 9.00000000
-4.14605141 3.42138863 -0.47029239 3 10 30953 5.39600000 2887285941 2887285941 -5.00000000
-4.09694672 3.38206887 1.03265834 63 11 30954 5.41200000 2887285943 2887285943 11.00000000
-4.08051014 3.37089586 1.22193408 58 13 30956 5.43200000 2887285948 2887285948 13.00000000
-4.07881451 3.37069297 1.41781068 65 15 30957 5.47800000 2887285952 2887285952 15.00000000
-1.58858812 1.31653118 -0.55283749 4 0 30965 2.13600000 2887285973 2887285973 -15.00000000
-1.85401404 1.53759301 -0.55607903 3 2 30967 2.47200000 2887285978 2887285978 -13.00000000
-4.09646606 3.39853692 0.27895066 6 3 30968 5.33000000 2887285980 2887285980 3.00000000
-2.16974521 1.80007815 -0.54800344 3 4 30968 2.87200000 2887285982 2887285982 -11.00000000
-4.09048605 3.39478087 0.46506304 10 5 30969 5.33600000 2887285985 2887285985 5.00000000
-2.67798257 2.22330403 -0.55127507 3 6 30970 3.52400000 2887285987 2887285987 -9.00000000
-3.39121485 2.81744099 -0.54134363 8 8 30972 4.44200000 2887285992 2887285992 -7.00000000
-4.09574461 3.40397692 0.84349465 33 9 30973 5.39200000 2887285994 2887285994 9.00000000
-4.64126682 3.85736084 -0.52798951 3 10 30973 6.05800000 2887285996 2887285996 -5.00000000
-4.10172224 3.41015553 1.03685606 44 11 30974 5.43400000 2887285999 2887285999 11.00000000
-7.40761995 6.16085243 -0.50493729 8 12 30975 9.64800000 2887286001 2887286001 -3.00000000
-4.08070278 3.39508986 1.22553337 44 13 30976 5.44800000 2887286003 2887286003 13.00000000
-4.07088661 3.38932800 1.41936362 57 15 30978 5.48400000 2887286008 2887286008 15.00000000
-1.58398294 1.32206833 -0.55283749 4 0 30985 2.13600000 2887286029 2887286029 -15.00000000
-1.84863555 1.54405534 -0.55607903 3 2 30987 2.47200000 2887286033 2887286033 -13.00000000
-2.17851448 1.82022905 -0.55181962 3 4 30988 2.89200000 2887286038 2887286038 -11.00000000
-2.67323637 2.23517251 -0.55190080 5 6 30990 3.52800000 2887286042 2887286042 -9.00000000
-3.37070227 2.82034421 -0.53963745 8 8 30992 4.42800000 2887286047 2887286047 -7.00000000
-4.63541317 3.87993264 -0.52886105 3 10 30993 6.06800000 2887286052 2887286052 -5.00000000
-7.40138054 6.19949722 -0.50598401 8 12 30995 9.66800000 2887286056 2887286056 -3.00000000
-8.66791630 7.26293898 2.61078191 55 13 30996 11.60600000 2887286058 2887286058 13.00000000
-7.45004797 6.24468803 2.60475492 35 15 30997 10.06400000 2887286063 2887286063 15.00000000
-1.58083725 1.32883251 -0.55335510 4 0 31005 2.13800000 2887286084 2887286084 -15.00000000
-1.84323454 1.55049884 -0.55607903 3 2 31007 2.47200000 2887286088 2887286088 -13.00000000
-2.17815614 1.83287871 -0.55334610 3 4 31008 2.90000000 2887286093 2887286093 -11.00000000
-2.65332985 2.23431110 -0.54939783 3 6 31010 3.51200000 2887286098 2887286098 -9.00000000
-3.37601686 2.84488487 -0.54207486 8 8 31012 4.44800000 2887286102 2887286102 -7.00000000
-4.63402796 3.90636277 -0.53025556 3 10 31013 6.08400000 2887286107 2887286107 -5.00000000
-7.38732862 6.23173428 -0.50650740 12 12 31015 9.67800000 2887286111 2887286111 -3.00000000
-8.65591431 7.30446291 2.61483097 57 13 31016 11.62400000 2887286114 2887286114 13.00000000
-7.41934776 6.26317883 2.60164905 45 15 31017 10.05200000 2887286118 2887286118 15.00000000
-1.58356130 1.34058368 -0.55594331 4 0 31025 2.14800000 2887286140 2887286140 -15.00000000
-1.83929789 1.55818307 -0.55652893 4 2 31027 2.47400000 2887286145 2887286145 -13.00000000
-2.17474031 1.84300923 -0.55410933 3 4 31028 2.90400000 2887286149 2887286149 -11.00000000
-2.65756702 2.25378060 -0.55190080 3 6 31030 3.52800000 2887286154 2887286154 -9.00000000
-3.35698462 2.84894514 -0.54061240 8 8 31032 4.43600000 2887286158 2887286158 -7.00000000
-4.63555241 3.93540907 -0.53199863 3 10 31033 6.10400000 2887286163 2887286163 -5.00000000
-7.39901733 6.28593206 -0.50881016 12 12 31035 9.72200000 2887286168 2887286168 -3.00000000
-8.62442493 7.32958508 2.61303139 57 13 31036 11.61600000 2887286170 2887286170 13.00000000
-7.40185547 6.29279280 2.60320187 42 15 31037 10.05800000 2887286175 2887286175 15.00000000
-1.57887220 1.34610307 -0.55594331 4 0 31045 2.14800000 2887286195 2887286195 -15.00000000
-1.83088267 1.56206429 -0.55562907 4 2 31047 2.47000000 2887286200 2887286200 -13.00000000
-2.16530728 1.84804022 -0.55334610 3 4 31048 2.90000000 2887286205 2887286205 -11.00000000
-2.65869617 2.27074099 -0.55377799 3 6 31050 3.54000000 2887286209 2887286209 -9.00000000
-3.34852862 2.86193562 -0.54085612 8 8 31052 4.43800000 2887286214 2887286214 -7.00000000
-4.61118698 3.94250298 -0.53077847 7 10 31053 6.09000000 2887286218 2887286218 -5.00000000
-7.40282917 6.33379459 -0.51058960 12 12 31055 9.75600000 2887286223 2887286223 -3.00000000
-8.58694363 7.34950781 2.60943222 62 13 31056 11.60000000 2887286225 2887286225 13.00000000
-7.37433958 6.31610966 2.60164905 42 15 31058 10.05200000 2887286230 2887286230 15.00000000
-1.57416379 1.35160625 -0.55594331 4 0 31065 2.14800000 2887286251 2887286251 -15.00000000
-1.83133113 1.57352579 -0.55742872 4 2 31067 2.47800000 2887286255 2887286255 -13.00000000
-2.14693236 1.84534967 -0.55029315 2 4 31068 2.88400000 2887286260 2887286260 -11.00000000
-2.65374875 2.28258395 -0.55440372 3 6 31070 3.54400000 2887286264 2887286264 -9.00000000
-3.36860847 2.89950681 -0.54573095 18 8 31072 4.47800000 2887286269 2887286269 -7.00000000
-4.60494614 3.96507525 -0.53165001 3 10 31073 6.10000000 2887286274 2887286274 -5.00000000
-7.41093636 6.38567114 -0.51268303 12 12 31075 9.79600000 2887286278 2887286278 -3.00000000
-8.56123638 7.37943745 2.60943222 59 13 31076 11.60000000 2887286281 2887286281 13.00000000
-7.34750175 6.33548307 2.59957838 42 15 31077 10.04400000 2887286285 2887286285 15.00000000
-1.55774581 1.34698415 -0.55180222 4 0 31085 2.13200000 2887286306 2887286306 -15.00000000
-1.83024824 1.58373415 -0.55877841 4 2 31087 2.48400000 2887286310 2887286310 -13.00000000
-2.14344645 1.85540235 -0.55105639 3 4 31088 2.88800000 2887286315 2887286315 -11.00000000
-2.64576483 2.29183340 -0.55440372 3 6 31090 3.54400000 2887286320 2887286320 -9.00000000
-3.37496662 2.92555046 -0.54841202 8 8 31092 4.50000000 2887286324 2887286324 -7.00000000
-4.59559298 3.98504114 -0.53217298 3 10 31093 6.10600000 2887286329 2887286329 -5.00000000
-7.42933035 6.44684458 -0.51550919 17 12 31095 9.85000000 2887286334 2887286334 -3.00000000
-8.53836823 7.41183138 2.61033201 59 13 31096 11.60400000 2887286336 2887286336 13.00000000
-7.31659031 6.35349226 2.59647274 42 15 31097 10.03200000 2887286340 2887286340 15.00000000
-1.56347024 1.36102140 -0.55542564 4 0 31104 2.14600000 2887286361 2887286361 -15.00000000
-1.81763935 1.58339465 -0.55652893 4 2 31106 2.47400000 2887286366 2887286366 -13.00000000
-2.14616275 1.87023902 -0.55334610 3 4 31107 2.90000000 2887286370 2887286370 -11.00000000
-2.62028480 2.28501487 -0.55064934 3 6 31109 3.52000000 2887286375 2887286375 -9.00000000
-3.37870741 2.94847298 -0.55060571 2 8 31111 4.51800000 2887286380 2887286380 -7.00000000
-4.61237144 4.02646446 -0.53565919 3 10 31112 6.14600000 2887286384 2887286384 -5.00000000
-7.42596054 6.48721361 -0.51676524 17 12 31114 9.87400000 2887286389 2887286389 -3.00000000
-8.51374340 7.44010496 2.61033201 57 13 31115 11.60400000 2887286391 2887286391 13.00000000
-7.29873037 6.38280821 2.59802556 45 15 31117 10.03800000 2887286396 2887286396 15.00000000
-1.55725718 1.36519718 -0.55490804 4 0 31124 2.14400000 2887286416 2887286416 -15.00000000
-1.81649601 1.59358513 -0.55787861 3 2 31126 2.48000000 2887286421 2887286421 -13.00000000
-2.14847493 1.88548899 -0.55563581 3 4 31127 2.91200000 2887286426 2887286426 -11.00000000
-2.63010383 2.30978942 -0.55440372 3 6 31129 3.54400000 2887286430 2887286430 -9.00000000
-3.37734151 2.96811152 -0.55206811 2 8 31131 4.53000000 2887286435 2887286435 -7.00000000
-4.59529591 4.03990889 -0.53531057 3 10 31132 6.14200000 2887286440 2887286440 -5.00000000
-7.36578226 6.48011446 -0.51414841 8 12 31134 9.82400000 2887286444 2887286444 -3.00000000
-8.47747993 7.46076584 2.60718274 54 13 31135 11.59000000 2887286446 2887286446 13.00000000
-7.27205658 6.40441608 2.59647274 47 15 31137 10.03200000 2887286451 2887286451 15.00000000
-1.55827510 1.37573898 -0.55697858 4 0 31144 2.15200000 2887286472 2887286472 -15.00000000
-1.81092227 1.59991622 -0.55787861 3 2 31146 2.48000000 2887286476 2887286476 -13.00000000
-2.14482236 1.89557731 -0.55639905 3 4 31147 2.91600000 2887286481 2887286481 -11.00000000
-2.61906552 2.31633878 -0.55377799 3 6 31149 3.54000000 2887286486 2887286486 -9.00000000
-3.45466471 3.05750418 -0.56644869 6 8 31151 4.64800000 2887286490 2887286490 -7.00000000
-4.59160805 4.06516981 -0.53653073 3 10 31152 6.15600000 2887286495 2887286495 -5.00000000
-7.35507679 6.51638222 -0.51498580 8 12 31154 9.84000000 2887286499 2887286499 -3.00000000
-8.43971825 7.47997236 2.60358357 51 13 31155 11.57400000 2887286502 2887286502 13.00000000
-7.24965668 6.42976141 2.59647274 42 15 31157 10.03200000 2887286506 2887286506 15.00000000
-1.54913211 1.37731910 -0.55542564 4 0 31164 2.14600000 2887286527 2887286527 -15.00000000
-1.81260610 1.61270452 -0.56012815 4 2 31166 2.49000000 2887286532 2887286532 -13.00000000
-2.12352729 1.89000010 -0.55258286 3 4 31167 2.89600000 2887286536 2887286536 -11.00000000
-2.61686468 2.33072209 -0.55502951 5 6 31169 3.54800000 2887286541 2887286541 -9.00000000
-3.46471786 3.08803582 -0.56986105 8 8 31171 4.67600000 2887286546 2887286546 -7.00000000
-4.56549311 4.07056570 -0.53513628 3 10 31172 6.14000000 2887286550 2887286550 -5.00000000
-7.32632446 6.53669739 -0.51456714 8 12 31174 9.83200000 2887286555 2887286555 -3.00000000
-8.40774155 7.50419617 2.60178399 45 13 31175 11.56600000 2887286557 2887286557 13.00000000
-7.21131945 6.44087267 2.59077859 42 15 31177 10.01000000 2887286562 2887286562 15.00000000
-1.53999722 1.37885225 -0.55387276 4 0 31184 2.14000000 2887286582 2887286582 -15.00000000
-1.80551422 1.61772144 -0.55967820 3 2 31186 2.48800000 2887286587 2887286587 -13.00000000
-2.12276483 1.90264249 -0.55410933 3 4 31187 2.90400000 2887286592 2887286592 -11.00000000
-2.60577178 2.33720469 -0.55440372 5 6 31189 3.54400000 2887286596 2887286596 -9.00000000
-3.45244002 3.09878516 -0.56961733 10 8 31191 4.67400000 2887286601 2887286601 -7.00000000
-4.56608105 4.09978819 -0.53687936 3 10 31192 6.16000000 2887286605 2887286605 -5.00000000
-7.31237650 6.57024050 -0.51519513 8 12 31194 9.84400000 2887286610 2887286610 -3.00000000
-8.37569809 7.52828836 2.59998417 42 13 31195 11.55800000 2887286612 2887286612 13.00000000
-7.19135761 6.46604252 2.59129620 42 15 31196 10.01200000 2887286617 2887286617 15.00000000
-1.53660953 1.38551307 -0.55439037 4 0 31204 2.14200000 2887286638 2887286638 -15.00000000
-1.79406905 1.61879206 -0.55787861 3 2 31206 2.48000000 2887286642 2887286642 -13.00000000
-2.11028075 1.90477896 -0.55258286 3 4 31207 2.89600000 2887286647 2887286647 -11.00000000
-2.59759760 2.34628630 -0.55440372 5 6 31209 3.54400000 2887286651 2887286651 -9.00000000
-3.41951251 3.09085083 -0.56596124 10 8 31211 4.64400000 2887286656 2887286656 -7.00000000
-4.56060934 4.12371922 -0.53792524 3 10 31212 6.17200000 2887286661 2887286661 -5.00000000
-7.27754974 6.58500528 -0.51435781 12 12 31214 9.82800000 2887286665 2887286665 -3.00000000
-8.34936905 7.55747890 2.59998417 41 13 31215 11.55800000 2887286668 2887286668 13.00000000
-7.16331482 6.48846579 2.58974338 45 15 31217 10.00600000 2887286672 2887286672 15.00000000
-1.54320550 1.40125775 -0.55853152 4 0 31224 2.15800000 2887286693 2887286693 -15.00000000
-1.78263843 1.61980259 -0.55607903 3 2 31226 2.47200000 2887286698 2887286698 -13.00000000
-2.11524129 1.92269790 -0.55563581 3 4 31227 2.91200000 2887286702 2887286702 -11.00000000
-2.58939171 2.35533929 -0.55440372 3 6 31229 3.54400000 2887286707 2887286707 -9.00000000
-3.40870261 3.10276842 -0.56596124 10 8 31231 4.64400000 2887286711 2887286711 -7.00000000
-4.54766035 4.14095545 -0.53809953 3 10 31232 6.17400000 2887286716 2887286716 -5.00000000
-7.26632977 6.62112999 -0.51519513 8 12 31234 9.84400000 2887286721 2887286721 -3.00000000
-8.31717682 7.58132648 2.59818459 43 13 31235 11.55000000 2887286723 2887286723 13.00000000
-7.14175892 6.51218462 2.58974338 47 15 31236 10.00600000 2887286728 2887286728 15.00000000
-1.54115617 1.40924323 -0.55956680 4 0 31244 2.16200000 2887286748 2887286748 -15.00000000
-1.78272402 1.63127756 -0.55787861 3 2 31246 2.48000000 2887286753 2887286753 -13.00000000
-2.10851693 1.93006980 -0.55563581 2 4 31247 2.91200000 2887286757 2887286757 -11.00000000
-2.58989406 2.37236929 -0.55628097 3 6 31249 3.55600000 2887286762 2887286762 -9.00000000
-3.38321781 3.10123444 -0.56352383 10 8 31251 4.62400000 2887286767 2887286767 -7.00000000
-4.53464651 4.15815067 -0.53827387 3 10 31252 6.17600000 2887286771 2887286771 -5.00000000
-7.25788927 6.65995741 -0.51624185 8 12 31254 9.86400000 2887286776 2887286776 -3.00000000
-8.27917671 7.59977007 2.59458542 41 13 31255 11.53400000 2887286778 2887286778 13.00000000
-7.11215162 6.53308916 2.58767271 42 15 31257 9.99800000 2887286783 2887286783 15.00000000
-1.52770090 1.40676260 -0.55646098 4 0 31264 2.15000000 2887286804 2887286804 -15.00000000
-1.78848362 1.64805484 -0.56147784 3 2 31266 2.49600000 2887286808 2887286808 -13.00000000
-2.08733177 1.92411160 -0.55181962 3 4 31267 2.89200000 2887286813 2887286813 -11.00000000
-2.59030890 2.38943148 -0.55815816 3 6 31269 3.56800000 2887286817 2887286817 -9.00000000
-3.36507869 3.10629272 -0.56230515 10 8 31271 4.61400000 2887286822 2887286822 -7.00000000
-4.53474188 4.18747091 -0.54001701 3 10 31272 6.19600000 2887286827 2887286827 -5.00000000
-7.26246786 6.71100616 -0.51823062 8 12 31274 9.90200000 2887286831 2887286831 -3.00000000
-8.24401283 7.62068701 2.59188604 43 13 31275 11.52200000 2887286834 2887286834 13.00000000
-7.08193779 6.54876852 2.58456707 45 15 31276 9.98600000 2887286838 2887286838 15.00000000
-1.51711488 1.40683246 -0.55439037 4 0 31284 2.14200000 2887286859 2887286859 -15.00000000
-1.78557682 1.65693891 -0.56237763 3 2 31286 2.50000000 2887286863 2887286863 -13.00000000
-2.10074663 1.95008552 -0.55716228 3 4 31287 2.92000000 2887286868 2887286868 -11.00000000
-2.57616353 2.39308095 -0.55690670 3 6 31289 3.56000000 2887286873 2887286873 -9.00000000
-3.34839940 3.11261392 -0.56133020 12 8 31291 4.60600000 2887286877 2887286877 -7.00000000
-4.52155638 4.20463133 -0.54019129 7 10 31292 6.19800000 2887286882 2887286882 -5.00000000
-7.26531601 6.76080656 -0.52011472 8 12 31294 9.93800000 2887286886 2887286886 -3.00000000
-8.22021389 7.65207291 2.59278584 41 13 31295 11.52600000 2887286889 2887286889 13.00000000
-7.05506039 6.57204771 2.58353162 42 15 31297 9.98200000 2887286893 2887286893 15.00000000
-1.51643074 1.41607511 -0.55594331 4 0 31304 2.14800000 2887286914 2887286914 -15.00000000
-1.76839161 1.65251744 -0.55877841 4 2 31306 2.48400000 2887286919 2887286919 -13.00000000
-2.09392691 1.95740664 -0.55716228 3 4 31307 2.92000000 2887286923 2887286923 -11.00000000
-2.56779432 2.40205884 -0.55690670 3 6 31309 3.56000000 2887286928 2887286928 -9.00000000
-3.33751392 3.12428308 -0.56133020 14 8 31311 4.60600000 2887286933 2887286933 -7.00000000
-4.51266909 4.22583675 -0.54088855 3 10 31312 6.20600000 2887286937 2887286937 -5.00000000
-7.23292828 6.77793217 -0.51948673 4 12 31314 9.92600000 2887286942 2887286942 -3.00000000
-8.19345284 7.68072033 2.59278584 39 13 31315 11.52600000 2887286944 2887286944 13.00000000
-7.02759123 6.59012079 2.58146119 45 15 31316 9.97400000 2887286949 2887286949 15.00000000
-1.51570046 1.42533016 -0.55749625 4 0 31324 2.15400000 2887286969 2887286969 -15.00000000
-1.76261246 1.65868020 -0.55877841 3 2 31326 2.48400000 2887286974 2887286974 -13.00000000
-2.08136344 1.95932114 -0.55563581 3 4 31327 2.91200000 2887286979 2887286979 -11.00000000
-2.56226969 2.41371655 -0.55753243 3 6 31329 3.56400000 2887286983 2887286983 -9.00000000
-3.30492091 3.11548924 -0.55767411 16 8 31331 4.57600000 2887286988 2887286988 -7.00000000
-4.48194551 4.22652674 -0.53897113 3 10 31332 6.18400000 2887286992 2887286992 -5.00000000
-7.24408674 6.83603668 -0.52199882 4 12 31334 9.97400000 2887286997 2887286997 -3.00000000
-8.15242195 7.69589663 2.58828688 42 13 31335 11.50600000 2887286999 2887286999 13.00000000
-7.00339031 6.61583424 2.58146119 45 15 31337 9.97400000 2887287004 2887287004 15.00000000
-1.51632679 1.43592548 -0.55956680 4 0 31344 2.16200000 2887287025 2887287025 -15.00000000
-1.75964081 1.66750360 -0.55967820 3 2 31346 2.48800000 2887287029 2887287029 -13.00000000
-2.07451153 1.96657443 -0.55563581 3 4 31347 2.91200000 2887287034 2887287034 -11.00000000
-2.54522991 2.41448879 -0.55565524 3 6 31349 3.55200000 2887287039 2887287039 -9.00000000
-3.27674937 3.11060619 -0.55474925 16 8 31351 4.55200000 2887287043 2887287043 -7.00000000
-4.48883629 4.26272535 -0.54158580 3 10 31352 6.21400000 2887287048 2887287048 -5.00000000
-7.23755407 6.87779188 -0.52325487 4 12 31354 9.99800000 2887287052 2887287052 -3.00000000
-8.11703396 7.71625137 2.58558750 43 13 31355 11.49400000 2887287055 2887287055 13.00000000
-6.98141289 6.63902187 2.58146119 45 15 31356 9.97400000 2887287059 2887287059 15.00000000
-1.50291681 1.43321049 -0.55646098 4 0 31364 2.15000000 2887287080 2887287080 -15.00000000
-1.75380945 1.67363572 -0.55967820 3 2 31366 2.48800000 2887287085 2887287085 -13.00000000
-2.06763411 1.97380388 -0.55563581 3 4 31367 2.91200000 2887287089 2887287089 -11.00000000
-2.55535507 2.44109726 -0.55972254 1 6 31369 3.57800000 2887287094 2887287094 -9.00000000
-3.26443648 3.12065339 -0.55450553 14 8 31371 4.55000000 2887287098 2887287098 -7.00000000
-4.48832893 4.29213858 -0.54332888 3 10 31372 6.23400000 2887287103 2887287103 -5.00000000
-7.23370409 6.92234612 -0.52472031 4 12 31374 10.02600000 2887287108 2887287108 -3.00000000
-8.08723450 7.74184275 2.58468771 43 13 31375 11.49000000 2887287110 2887287110 13.00000000
-6.94866228 6.65654707 2.57835531 45 15 31377 9.96200000 2887287115 2887287115 15.00000000
-1.50487185 1.44513834 -0.55904913 4 0 31384 2.16000000 2887287135 2887287135 -15.00000000
-1.75919759 1.69054973 -0.56327742 3 2 31386 2.50400000 2887287140 2887287140 -13.00000000
-2.06922364 1.98917282 -0.55792552 3 4 31387 2.92400000 2887287145 2887287145 -11.00000000
-2.53258252 2.43630743 -0.55659384 3 6 31389 3.55800000 2887287149 2887287149 -9.00000000
-3.20346928 3.08384442 -0.54597467 20 8 31391 4.48000000 2887287154 2887287154 -7.00000000
-4.45896769 4.29395962 -0.54158580 3 10 31392 6.21400000 2887287158 2887287158 -5.00000000
-7.21812534 6.95586967 -0.52534831 4 12 31394 10.03800000 2887287163 2887287163 -3.00000000
-8.06016064 7.77002525 2.58468771 41 13 31395 11.49000000 2887287165 2887287165 13.00000000
-6.91681623 6.67016602 2.57473183 45 15 31396 9.94800000 2887287170 2887287170 15.00000000
-1.49704075 1.44769657 -0.55801386 4 0 31404 2.15600000 2887287191 2887287191 -15.00000000
-1.74488342 1.68854916 -0.56057805 3 2 31406 2.49200000 2887287195 2887287195 -13.00000000
-2.07355237 2.00730777 -0.56097847 2 4 31407 2.94000000 2887287200 2887287200 -11.00000000
-2.52831912 2.44925618 -0.55753243 3 6 31409 3.56400000 2887287204 2887287204 -9.00000000
-4.43966103 4.30533695 -0.54106283 3 10 31412 6.20800000 2887287214 2887287214 -5.00000000
-7.21386719 7.00049591 -0.52681375 4 12 31414 10.06600000 2887287218 2887287218 -3.00000000
-8.03019333 7.79539824 2.58378792 45 13 31415 11.48600000 2887287221 2887287221 13.00000000
-6.89487648 6.69561529 2.57524943 45 15 31416 9.95000000 2887287225 2887287225 15.00000000
-1.49361610 1.45400059 -0.55853152 4 0 31423 2.15800000 2887287246 2887287246 -15.00000000
-1.73369086 1.68888688 -0.55877841 3 2 31425 2.48400000 2887287251 2887287251 -13.00000000
-2.06126022 2.00869203 -0.55945200 2 4 31426 2.93200000 2887287255 2887287255 -11.00000000
-2.51311207 2.45073128 -0.55596811 1 6 31428 3.55400000 2887287260 2887287260 -9.00000000
-3.14120340 3.06537199 -0.53890622 100 8 31430 4.42200000 2887287264 2887287264 -7.00000000
-4.44246769 4.33673668 -0.54315460 3 10 31431 6.23200000 2887287269 2887287269 -5.00000000
-7.19489908 7.02856636 -0.52712774 4 12 31433 10.07200000 2887287274 2887287274 -3.00000000
-7.99593592 7.81381273 2.58108830 46 13 31434 11.47400000 2887287276 2887287276 13.00000000
-6.87677956 6.72249413 2.57680249 45 15 31435 9.95600000 2887287280 2887287280 15.00000000
-1.49956799 1.47002435 -0.56267262 4 0 31443 2.17400000 2887287301 2887287301 -15.00000000
-1.73334944 1.70038700 -0.56057805 3 2 31445 2.49200000 2887287306 2887287306 -13.00000000
-2.05143356 2.01312470 -0.55868876 3 4 31446 2.92800000 2887287310 2887287310 -11.00000000
-2.50031376 2.45533657 -0.55502951 1 6 31448 3.54800000 2887287315 2887287315 -9.00000000
-3.12623644 3.07214403 -0.53817505 78 8 31450 4.41600000 2887287320 2887287320 -7.00000000
-4.42161942 4.34663057 -0.54245734 3 10 31451 6.22400000 2887287324 2887287324 -5.00000000
-7.15465927 7.03823137 -0.52597636 4 12 31453 10.05000000 2887287329 2887287329 -3.00000000
-7.96305609 7.83620882 2.57928872 42 13 31454 11.46600000 2887287331 2887287331 13.00000000
-6.85622358 6.75171995 2.57835531 45 15 31456 9.96200000 2887287336 2887287336 15.00000000
-1.48342896 1.46439242 -0.55853152 4 0 31463 2.15800000 2887287357 2887287357 -15.00000000
-1.73572159 1.71464431 -0.56327742 3 2 31465 2.50400000 2887287361 2887287361 -13.00000000
-2.04718685 2.02303338 -0.55945200 2 4 31466 2.93200000 2887287366 2887287366 -11.00000000
-2.51420116 2.48627281 -0.56003541 3 6 31468 3.58000000 2887287370 2887287370 -9.00000000
-3.07598567 3.04394150 -0.53135031 82 8 31470 4.36000000 2887287375 2887287375 -7.00000000
-4.41916323 4.37465334 -0.54402614 3 10 31471 6.24200000 2887287380 2887287380 -5.00000000
-7.18680429 7.11938715 -0.53016323 4 12 31473 10.13000000 2887287384 2887287384 -3.00000000
-7.93288565 7.86121368 2.57838893 42 13 31474 11.46200000 2887287386 2887287386 13.00000000
-6.82556486 6.76625872 2.57524943 42 15 31475 9.95000000 2887287391 2887287391 15.00000000
-1.47282791 1.46411383 -0.55646098 4 0 31483 2.15000000 2887287412 2887287412 -15.00000000
-1.72972584 1.72069263 -0.56327742 3 2 31485 2.50400000 2887287416 2887287416 -13.00000000
-2.04567909 2.03570628 -0.56097847 3 4 31486 2.94000000 2887287421 2887287421 -11.00000000
-2.51110601 2.50060940 -0.56128687 1 6 31488 3.58800000 2887287426 2887287426 -9.00000000
-3.05549860 3.04485154 -0.52964419 68 8 31490 4.34600000 2887287430 2887287430 -7.00000000
-4.40386629 4.39005280 -0.54402614 7 10 31491 6.24200000 2887287435 2887287435 -5.00000000
-7.16190910 7.14443064 -0.53016323 4 12 31493 10.13000000 2887287439 2887287439 -3.00000000
-7.90815544 7.89160967 2.57928872 43 13 31494 11.46600000 2887287442 2887287442 13.00000000
-6.78959942 6.77775955 2.57059073 45 15 31495 9.93200000 2887287446 2887287446 15.00000000
-1.47368419 1.47419870 -0.55853152 4 0 31501 2.15800000 2887287467 2887287467 -15.00000000
-1.72431159 1.72611821 -0.56327742 3 2 31503 2.50400000 2887287472 2887287472 -13.00000000
-2.03649902 2.03934455 -0.56021523 3 4 31504 2.93600000 2887287476 2887287476 -11.00000000
-2.50044703 2.50568938 -0.56066114 1 6 31506 3.58400000 2887287481 2887287481 -9.00000000
-3.02909732 3.03756809 -0.52671933 78 8 31508 4.32200000 2887287485 2887287485 -7.00000000
-4.40693188 4.42079878 -0.54611790 3 10 31509 6.26600000 2887287490 2887287490 -5.00000000
-7.17325830 7.20085478 -0.53267539 4 12 31511 10.17800000 2887287495 2887287495 -3.00000000
-7.88194895 7.91503429 2.57883883 51 13 31512 11.46400000 2887287497 2887287497 13.00000000
-6.77508783 6.80590200 2.57317901 45 15 31513 9.94200000 2887287502 2887287502 15.00000000
-1.47397327 1.48481786 -0.56060207 4 0 31521 2.16600000 2887287522 2887287522 -15.00000000
-1.71004128 1.72382569 -0.56057805 3 2 31523 2.49200000 2887287527 2887287527 -13.00000000
-2.02936816 2.04644084 -0.56021523 3 4 31524 2.93600000 2887287532 2887287532 -11.00000000
-2.48612356 2.50878978 -0.55940962 1 6 31526 3.57600000 2887287536 2887287536 -9.00000000
-3.00869823 3.03824949 -0.52501315 60 8 31528 4.30800000 2887287541 2887287541 -7.00000000
-3.54205370 3.57809234 -0.44048512 3 10 31529 5.05400000 2887287545 2887287545 -5.00000000
-7.19583559 7.27412653 -0.53623420 4 12 31531 10.24600000 2887287550 2887287550 -3.00000000
-7.84742117 7.93557072 2.57658935 40 13 31532 11.45400000 2887287552 2887287552 13.00000000
-6.74873924 6.82931423 2.57266140 45 15 31534 9.94000000 2887287557 2887287557 15.00000000
-1.46878135 1.48995399 -0.56060207 4 0 31541 2.16600000 2887287578 2887287578 -15.00000000
-1.71221912 1.73811400 -0.56327742 3 2 31543 2.50400000 2887287582 2887287582 -13.00000000
-2.01945734 2.05071449 -0.55945200 3 4 31544 2.93200000 2887287587 2887287587 -11.00000000
-2.47458005 2.51463675 -0.55878389 1 6 31546 3.57200000 2887287591 2887287591 -9.00000000
-2.99250698 3.04307175 -0.52403820 60 8 31548 4.30000000 2887287596 2887287596 -7.00000000
-4.37037516 4.44577360 -0.54542065 3 10 31549 6.25800000 2887287601 2887287601 -5.00000000
-7.16900063 7.29777575 -0.53612953 4 12 31551 10.24400000 2887287605 2887287605 -3.00000000
-7.80874968 7.95179176 2.57299018 50 13 31552 11.43800000 2887287608 2887287608 13.00000000
-6.73958874 6.86544228 2.57783771 45 15 31553 9.96000000 2887287612 2887287612 15.00000000
-1.46357143 1.49507189 -0.56060207 4 0 31561 2.16600000 2887287633 2887287633 -15.00000000
-1.71431792 1.75243843 -0.56597686 3 2 31563 2.51600000 2887287637 2887287637 -13.00000000
-2.02326775 2.06898046 -0.56250495 3 4 31564 2.94800000 2887287642 2887287642 -11.00000000
-2.48097396 2.53880024 -0.56222546 3 6 31566 3.59400000 2887287647 2887287647 -9.00000000
-2.97215819 3.04355741 -0.52233201 68 8 31568 4.28600000 2887287651 2887287651 -7.00000000
-4.37988138 4.48666430 -0.54855824 3 10 31569 6.29400000 2887287656 2887287656 -5.00000000
-7.16440296 7.34420061 -0.53769964 4 12 31571 10.27400000 2887287661 2887287661 -3.00000000
-7.78502703 7.98318672 2.57433987 53 13 31572 11.44400000 2887287663 2887287663 13.00000000
-6.70479488 6.87785959 2.57369661 45 15 31573 9.94400000 2887287667 2887287667 15.00000000
-1.45026433 1.49186039 -0.55749625 4 0 31581 2.15400000 2887287688 2887287688 -15.00000000
-1.70547462 1.75561631 -0.56507707 3 2 31583 2.51200000 2887287693 2887287693 -13.00000000
-2.00782681 2.06757975 -0.56021523 2 4 31584 2.93600000 2887287697 2887287697 -11.00000000
-2.46246696 2.53752160 -0.56003541 1 6 31586 3.58000000 2887287702 2887287702 -9.00000000
-2.96013403 3.05248857 -0.52208829 74 8 31588 4.28400000 2887287707 2887287707 -7.00000000
-4.36419344 4.50192595 -0.54855824 3 10 31589 6.29400000 2887287711 2887287711 -5.00000000
-7.13455439 7.36486053 -0.53738558 4 12 31591 10.26800000 2887287716 2887287716 -3.00000000
-7.75846863 8.01171303 2.57478976 52 13 31592 11.44600000 2887287718 2887287718 13.00000000
-6.66610670 6.88850498 2.56852031 45 15 31594 9.92400000 2887287723 2887287723 15.00000000
-1.45578182 1.50803280 -0.56163734 4 0 31601 2.17000000 2887287743 2887287743 -15.00000000
-1.69798291 1.76015627 -0.56462717 4 2 31603 2.51000000 2887287748 2887287748 -13.00000000
-2.00604868 2.08022857 -0.56174171 3 4 31604 2.94400000 2887287753 2887287753 -11.00000000
-2.45907736 2.55179143 -0.56128687 1 6 31606 3.58800000 2887287757 2887287757 -9.00000000
-2.96047664 3.07424188 -0.52403820 86 8 31608 4.30000000 2887287762 2887287762 -7.00000000
-4.34016132 4.50852013 -0.54751235 3 10 31609 6.28200000 2887287767 2887287767 -5.00000000
-7.13372660 7.41562891 -0.53926969 8 12 31611 10.30400000 2887287771 2887287771 -3.00000000
-7.72370148 8.03172302 2.57254028 51 13 31612 11.43600000 2887287773 2887287773 13.00000000
-6.65272951 6.92287540 2.57266140 45 15 31614 9.94000000 2887287778 2887287778 15.00000000
-1.44757152 1.51056874 -0.56060207 4 0 31622 2.16600000 2887287799 2887287799 -15.00000000
-1.68478119 1.75933051 -0.56237763 3 2 31624 2.50000000 2887287803 2887287803 -13.00000000
-2.00655651 2.09607625 -0.56403136 3 4 31625 2.95600000 2887287808 2887287808 -11.00000000
-2.45926666 2.57077932 -0.56347692 1 6 31627 3.60200000 2887287813 2887287813 -9.00000000
-2.94233036 3.07789731 -0.52281946 86 8 31629 4.29000000 2887287817 2887287817 -7.00000000
-4.34700823 4.54888439 -0.55047566 3 10 31630 6.31600000 2887287822 2887287822 -5.00000000
-7.26098824 7.60350180 -0.55099297 8 12 31632 10.52800000 2887287826 2887287826 -3.00000000
