# .PCD v0.7 - Point Cloud Data file format
VERSION 0.7
FIELDS x y z intensity laser_id azimuth distance_m adjustedtime timestamp vertical_angle
SIZE 4 4 4 1 1 2 8 8 4 8
TYPE F F F U U U F U U F
COUNT 1 1 1 1 1 1 1 1 1 1
WIDTH 526
HEIGHT 1
VIEWPOINT 0 0 0 1 0 0 0
POINTS 526
DATA ascii
-4.12490034 2.95313859 0.98610091 78 11 30560 5.16800000 2886484759 2886484759 11.00000000
-4.13898945 2.96431828 -0.26680872 10 12 30561 5.09800000 2886484762 2886484762 -3.00000000
-4.10288620 2.93954492 1.16524649 65 13 30562 5.18000000 2886484764 2886484764 13.00000000
-4.12187290 2.95423675 -0.08851860 8 14 30563 5.07200000 2886484766 2886484766 -1.00000000
-4.09822464 2.93728757 1.35103536 21 15 30563 5.22000000 2886484768 2886484768 15.00000000
-1.66410565 1.19666219 -0.54921401 4 0 30572 2.12200000 2886484789 2886484789 -15.00000000
-4.13781309 2.97660708 0.08897237 13 1 30573 5.09800000 2886484791 2886484791 1.00000000
-1.94554698 1.40007794 -0.55337960 3 2 30574 2.46000000 2886484794 2886484794 -13.00000000
-4.13497591 2.97675657 0.26701805 10 3 30575 5.10200000 2886484796 2886484796 3.00000000
-2.27845645 1.64025390 -0.54571372 2 4 30575 2.86000000 2886484798 2886484798 -11.00000000
-4.12114239 2.96789002 0.44431996 10 5 30576 5.09800000 2886484801 2886484801 5.00000000
-2.79361296 2.01259446 -0.54533052 1 6 30577 3.48600000 2886484803 2886484803 -9.00000000
-4.13722515 2.98166585 0.62616467 9 7 30578 5.13800000 2886484805 2886484805 7.00000000
-3.65041232 2.63179183 -0.55255562 38 8 30579 4.53400000 2886484808 2886484808 -7.00000000
-4.11485577 2.96663594 0.80344743 78 9 30579 5.13600000 2886484810 2886484810 9.00000000
-3.77971864 2.72601914 -0.40771458 11 10 30580 4.67800000 2886484812 2886484812 -5.00000000
-4.10768032 2.96364236 0.98457444 31 11 30581 5.16000000 2886484815 2886484815 11.00000000
-4.15724802 3.00050831 -0.26869279 10 12 30582 5.13400000 2886484817 2886484817 -3.00000000
-4.10788441 2.96597052 1.16974545 65 13 30583 5.20000000 2886484819 2886484819 13.00000000
-4.13371229 2.98571634 -0.08900727 8 14 30584 5.10000000 2886484821 2886484821 -1.00000000
-4.08065271 2.94847631 1.34896481 29 15 30585 5.21200000 2886484824 2886484824 15.00000000
-1.66304731 1.20473039 -0.55024928 4 0 30592 2.12600000 2886484844 2886484844 -15.00000000
-4.12901688 2.99220586 0.08900727 9 1 30593 5.10000000 2886484847 2886484847 1.00000000
-1.92802584 1.39771032 -0.54978037 3 2 30594 2.44400000 2886484849 2886484849 -13.00000000
-4.14772034 3.00686407 0.26848346 12 3 30594 5.13000000 2886484851 2886484851 3.00000000
-2.28543139 1.65741789 -0.54876667 3 4 30595 2.87600000 2886484854 2886484854 -11.00000000
-4.12204599 2.99044728 0.44554016 10 5 30596 5.11200000 2886484856 2886484856 5.00000000
-2.78816938 2.02349401 -0.54564339 1 6 30597 3.48800000 2886484858 2886484858 -9.00000000
-4.13482380 3.00192070 0.62738335 9 7 30598 5.14800000 2886484861 2886484861 7.00000000
-3.65084028 2.65151739 -0.55401802 32 8 30599 4.54600000 2886484863 2886484863 -7.00000000
-4.11673975 2.99098659 0.80595034 76 9 30600 5.15200000 2886484865 2886484865 9.00000000
-4.15703058 3.02025938 -0.44954932 12 10 30600 5.15800000 2886484868 2886484868 -5.00000000
-4.11001492 2.98719692 0.98762739 18 11 30601 5.17600000 2886484870 2886484870 11.00000000
-4.15482569 3.02087402 -0.26921615 10 12 30602 5.14400000 2886484872 2886484872 -3.00000000
-4.11011410 2.98946190 1.17334473 63 13 30603 5.21600000 2886484874 2886484874 13.00000000
-4.13458347 3.00836325 -0.08925161 8 14 30604 5.11400000 2886484877 2886484877 -1.00000000
-4.08907843 2.97634506 1.35517657 61 15 30605 5.23600000 2886484879 2886484879 15.00000000
-1.66195297 1.21280575 -0.55128455 4 0 30612 2.13000000 2886484900 2886484900 -15.00000000
-4.12662268 3.01249599 0.08918180 9 1 30613 5.11000000 2886484902 2886484902 1.00000000
-1.92628264 1.40673041 -0.55068016 3 2 30614 2.44800000 2886484904 2886484904 -13.00000000
-4.13074732 3.01661229 0.26806477 10 3 30614 5.12200000 2886484907 2886484907 3.00000000
-2.27963209 1.66538548 -0.54876667 2 4 30615 2.87600000 2886484909 2886484909 -11.00000000
-4.13088560 3.01892471 0.44763190 10 5 30616 5.13600000 2886484911 2886484911 5.00000000
-2.77471066 2.02855086 -0.54439193 1 6 30617 3.48000000 2886484914 2886484914 -9.00000000
-4.12432003 3.01633549 0.62738335 9 7 30618 5.14800000 2886484916 2886484916 7.00000000
-3.68642139 2.69706464 -0.56084269 36 8 30619 4.60200000 2886484918 2886484918 -7.00000000
-4.12274122 3.01628566 0.80907905 74 9 30619 5.17200000 2886484921 2886484921 9.00000000
-4.16254044 3.04651904 -0.45129243 12 10 30620 5.17800000 2886484923 2886484923 -5.00000000
-4.10589886 3.00616431 0.98915380 84 11 30621 5.18400000 2886484925 2886484925 11.00000000
-4.14425564 3.03535867 -0.26921615 10 12 30622 5.14400000 2886484927 2886484927 -3.00000000
-4.10279751 3.00609422 1.17424452 62 13 30623 5.22000000 2886484930 2886484930 13.00000000
-4.14663696 3.03932738 -0.08974028 8 14 30624 5.14200000 2886484932 2886484932 -1.00000000
-4.08956957 2.99859667 1.35879993 23 15 30625 5.25000000 2886484934 2886484934 15.00000000
-1.65770936 1.21859968 -0.55128455 4 0 30632 2.13000000 2886484955 2886484955 -15.00000000
-4.13219166 3.03872919 0.08953085 9 1 30633 5.13000000 2886484957 2886484957 1.00000000
-1.92449999 1.41575539 -0.55158001 3 2 30634 2.45200000 2886484960 2886484960 -13.00000000
-4.11536598 3.02746248 0.26775074 10 3 30634 5.11600000 2886484962 2886484962 3.00000000
-2.26431751 1.66635084 -0.54647696 3 4 30635 2.86400000 2886484964 2886484964 -11.00000000
-4.13155365 3.04159427 0.44885206 10 5 30636 5.15000000 2886484967 2886484967 5.00000000
-2.76920319 2.03939557 -0.54470479 1 6 30637 3.48200000 2886484969 2886484969 -9.00000000
-4.12335491 3.03777838 0.62884581 9 7 30638 5.16000000 2886484971 2886484971 7.00000000
-3.67698431 2.70991611 -0.56084269 46 8 30639 4.60200000 2886484974 2886484974 -7.00000000
-4.11695814 3.03417420 0.81001765 69 9 30639 5.17800000 2886484976 2886484976 9.00000000
-4.16310644 3.06930661 -0.45251262 12 10 30640 5.19200000 2886484978 2886484978 -5.00000000
-4.10170031 3.02513957 0.99068028 57 11 30641 5.19200000 2886484980 2886484980 11.00000000
-4.14970684 3.06166410 -0.27026287 10 12 30642 5.16400000 2886484983 2886484983 -3.00000000
-4.09541512 3.02271175 1.17514431 60 13 30643 5.22400000 2886484985 2886484985 13.00000000
-4.13600254 3.05378342 -0.08974028 8 14 30644 5.14200000 2886484987 2886484987 -1.00000000
-4.10238695 3.03006983 1.36656451 17 15 30645 5.28000000 2886484990 2886484990 15.00000000
-1.65655053 1.22667801 -0.55231982 4 0 30652 2.13400000 2886485010 2886485010 -15.00000000
-4.14084148 3.06741834 0.08994970 9 1 30653 5.15400000 2886485013 2886485013 1.00000000
-1.91954637 1.42246449 -0.55158001 3 2 30654 2.45200000 2886485015 2886485015 -13.00000000
-4.12723875 3.05845714 0.26921615 8 3 30654 5.14400000 2886485017 2886485017 3.00000000
-2.25217843 1.66956794 -0.54495049 2 4 30655 2.85600000 2886485020 2886485020 -11.00000000
-4.12731266 3.06074476 0.44954932 10 5 30656 5.15800000 2886485022 2886485022 5.00000000
-2.76524043 2.05140328 -0.54533052 1 6 30657 3.48600000 2886485024 2886485024 -9.00000000
-4.12866688 3.06398296 0.63128322 9 7 30658 5.18000000 2886485026 2886485026 7.00000000
-3.66750264 2.72273469 -0.56084269 38 8 30659 4.60200000 2886485029 2886485029 -7.00000000
-4.10951376 3.05088162 0.81064337 69 9 30659 5.18200000 2886485031 2886485031 9.00000000
-4.15396643 3.08500767 -0.45268694 12 10 30660 5.19400000 2886485033 2886485033 -5.00000000
-4.11002684 3.05348849 0.99525970 68 11 30661 5.21600000 2886485036 2886485036 11.00000000
-4.15342140 3.08685303 -0.27120492 10 12 30662 5.18200000 2886485038 2886485038 -3.00000000
-4.09109449 3.04163980 1.17694390 58 13 30663 5.23200000 2886485040 2886485040 13.00000000
-4.13334036 3.07416916 -0.08991480 12 14 30664 5.15200000 2886485043 2886485043 -1.00000000
-4.09076595 3.04250431 1.36604691 21 15 30664 5.27800000 2886485045 2886485045 15.00000000
-1.64141905 1.22436750 -0.54869640 4 0 30672 2.12000000 2886485066 2886485066 -15.00000000
-4.12690401 3.07946205 0.08987989 9 1 30673 5.15000000 2886485068 2886485068 1.00000000
-1.91456938 1.42915630 -0.55158001 3 2 30674 2.45200000 2886485070 2886485070 -13.00000000
-4.13254261 3.08479261 0.27026287 10 3 30674 5.16400000 2886485073 2886485073 3.00000000
-2.24948311 1.67976868 -0.54571372 2 4 30675 2.86000000 2886485075 2886485075 -11.00000000
-4.11979628 3.07751775 0.44989794 10 5 30676 5.16200000 2886485077 2886485077 5.00000000
-2.76597476 2.06695557 -0.54689491 3 6 30677 3.49600000 2886485079 2886485079 -9.00000000
-4.12589598 3.08431888 0.63250190 9 7 30678 5.19000000 2886485082 2886485082 7.00000000
-3.63095069 2.71530986 -0.55669916 12 8 30679 4.56800000 2886485084 2886485084 -7.00000000
-4.11149454 3.07467198 0.81314635 69 9 30679 5.19800000 2886485086 2886485086 9.00000000
-4.13838625 3.09590864 -0.45216399 12 10 30680 5.18800000 2886485089 2886485089 -5.00000000
-4.10877419 3.07487440 0.99754941 65 11 30681 5.22800000 2886485091 2886485091 11.00000000
-4.15381289 3.10971117 -0.27193764 10 12 30682 5.19600000 2886485093 2886485093 -3.00000000
-4.09293079 3.06524706 1.18054318 62 13 30683 5.24800000 2886485096 2886485096 13.00000000
-4.13378716 3.09697127 -0.09015913 14 14 30684 5.16600000 2886485098 2886485098 -1.00000000
-4.08422470 3.06095314 1.36759984 63 15 30685 5.28400000 2886485100 2886485100 15.00000000
-1.64485753 1.23589206 -0.55128455 4 0 30692 2.13000000 2886485121 2886485121 -15.00000000
-4.12572050 3.10105777 0.09008932 9 1 30693 5.16200000 2886485123 2886485123 1.00000000
-1.90956903 1.43583071 -0.55158001 3 2 30694 2.45200000 2886485126 2886485126 -13.00000000
-4.13397741 3.10952306 0.27110025 8 3 30695 5.18000000 2886485128 2886485128 3.00000000
-2.25615740 1.69705176 -0.54876667 3 4 30695 2.87600000 2886485130 2886485130 -11.00000000
-4.12654066 3.10505724 0.45181537 10 5 30696 5.18400000 2886485132 2886485132 5.00000000
-2.75085187 2.07065821 -0.54533052 1 6 30697 3.48600000 2886485135 2886485135 -9.00000000
-4.11827612 3.10109043 0.63298935 9 7 30698 5.19400000 2886485137 2886485137 7.00000000
-3.58339643 2.69930243 -0.55084944 16 8 30699 4.52000000 2886485139 2886485139 -7.00000000
-4.10862637 3.09494781 0.81471068 74 9 30699 5.20800000 2886485142 2886485142 9.00000000
-3.93024659 2.96165323 -0.43054938 12 10 30700 4.94000000 2886485144 2886485144 -5.00000000
-4.10115147 3.09156156 0.99831265 60 11 30701 5.23200000 2886485146 2886485146 11.00000000
-4.14612198 3.12659669 -0.27214697 10 12 30702 5.20000000 2886485149 2886485149 -3.00000000
-4.09776306 3.09125137 1.18504214 65 13 30703 5.26800000 2886485151 2886485151 13.00000000
-4.12933636 3.11620021 -0.09029875 14 14 30704 5.17400000 2886485153 2886485153 -1.00000000
-4.07867813 3.07797098 1.36915278 42 15 30704 5.29000000 2886485156 2886485156 15.00000000
-1.64361429 1.24395776 -0.55231982 4 0 30712 2.13400000 2886485176 2886485176 -15.00000000
-4.12603045 3.12388992 0.09033366 9 1 30713 5.17600000 2886485179 2886485179 1.00000000
-1.89833152 1.43778121 -0.54978037 4 2 30714 2.44400000 2886485181 2886485181 -13.00000000
-4.12787390 3.12755299 0.27141428 8 3 30715 5.18600000 2886485183 2886485183 3.00000000
-2.24865508 1.70373130 -0.54838502 3 4 30715 2.87400000 2886485185 2886485185 -11.00000000
-4.12837982 3.12907052 0.45320988 10 5 30716 5.20000000 2886485188 2886485188 5.00000000
-2.75619960 2.08979559 -0.54783350 3 6 30717 3.50200000 2886485190 2886485190 -9.00000000
-4.11375284 3.12024546 0.63396430 9 7 30718 5.20200000 2886485192 2886485192 7.00000000
-3.56604528 2.70579505 -0.54963076 14 8 30719 4.51000000 2886485195 2886485195 -7.00000000
-4.11298943 3.12192893 0.81783938 74 9 30720 5.22800000 2886485197 2886485197 9.00000000
-4.08175802 3.09822321 -0.44832915 9 10 30720 5.14400000 2886485199 2886485199 -5.00000000
-4.09346199 3.10823298 0.99907589 15 11 30721 5.23600000 2886485202 2886485202 11.00000000
-4.13677359 3.14225841 -0.27225164 10 12 30722 5.20200000 2886485204 2886485204 -3.00000000
-4.08694792 3.10553646 1.18504214 63 13 30723 5.26800000 2886485206 2886485206 13.00000000
-4.13753700 3.14511681 -0.09071761 12 14 30724 5.19800000 2886485209 2886485209 -1.00000000
-4.07659578 3.09991550 1.37225854 17 15 30725 5.30200000 2886485211 2886485211 15.00000000
-1.64277160 1.25145662 -0.55335510 4 0 30730 2.13800000 2886485232 2886485232 -15.00000000
-4.12732983 3.14532113 0.09057799 9 1 30731 5.19000000 2886485234 2886485234 1.00000000
-1.90930283 1.45555246 -0.55427939 3 2 30732 2.46400000 2886485236 2886485236 -13.00000000
-4.12438059 3.14535022 0.27183294 8 3 30733 5.19400000 2886485238 2886485238 3.00000000
-2.24329162 1.71078718 -0.54838502 3 4 30733 2.87400000 2886485241 2886485241 -11.00000000
-4.13595343 3.15531778 0.45512730 12 5 30734 5.22200000 2886485243 2886485243 5.00000000
-2.74333954 2.09365058 -0.54658204 3 6 30735 3.49400000 2886485245 2886485245 -9.00000000
-4.11655235 3.14279056 0.63591421 9 7 30736 5.21800000 2886485248 2886485248 7.00000000
-3.54648399 2.70855045 -0.54792458 16 8 30737 4.49600000 2886485250 2886485250 -7.00000000
-4.10370827 3.13411856 0.81783938 78 9 30737 5.22800000 2886485252 2886485252 9.00000000
-4.14799881 3.16909075 -0.45669609 9 10 30738 5.24000000 2886485255 2886485255 -5.00000000
-4.10863447 3.14015222 1.00518179 42 11 30739 5.26800000 2886485257 2886485257 11.00000000
-4.14274788 3.16736984 -0.27329835 10 12 30740 5.22200000 2886485259 2886485259 -3.00000000
-4.08336306 3.12309623 1.18684173 67 13 30741 5.27600000 2886485262 2886485262 13.00000000
-4.13716507 3.16539049 -0.09092703 12 14 30742 5.21000000 2886485264 2886485264 -1.00000000
-4.08886003 3.12843204 1.37950552 14 15 30742 5.33000000 2886485266 2886485266 15.00000000
-1.64452374 1.26188743 -0.55542564 4 0 30750 2.14600000 2886485287 2886485287 -15.00000000
-4.13218784 3.17188525 0.09092703 9 1 30751 5.21000000 2886485289 2886485289 1.00000000
-1.90730166 1.46458209 -0.55517918 3 2 30752 2.46800000 2886485291 2886485291 -13.00000000
-4.12129545 3.16581130 0.27235630 8 3 30753 5.20400000 2886485294 2886485294 3.00000000
-2.22640753 1.71023548 -0.54571372 3 4 30753 2.86000000 2886485296 2886485296 -11.00000000
-4.12965393 3.17337775 0.45565021 15 5 30754 5.22800000 2886485298 2886485298 5.00000000
-2.74541140 2.11043715 -0.54845923 1 6 30755 3.50600000 2886485301 2886485301 -9.00000000
-4.11814594 3.16682172 0.63786417 9 7 30756 5.23400000 2886485303 2886485303 7.00000000
-3.53858113 2.72212386 -0.54816830 12 8 30757 4.49800000 2886485305 2886485305 -7.00000000
-4.10471773 3.15877628 0.82034236 76 9 30758 5.24400000 2886485308 2886485308 9.00000000
-4.14638519 3.19084120 -0.45774198 13 10 30758 5.25200000 2886485310 2886485310 -5.00000000
-4.11164951 3.16525316 1.00861633 76 11 30759 5.28600000 2886485312 2886485312 11.00000000
-4.13799620 3.18668604 -0.27371705 10 12 30760 5.23000000 2886485314 2886485314 -3.00000000
-4.08787394 3.14922357 1.19134080 65 13 30761 5.29600000 2886485317 2886485317 13.00000000
-4.13084221 3.18347454 -0.09103175 10 14 30762 5.21600000 2886485319 2886485319 -1.00000000
-4.09572601 3.15755153 1.38571715 23 15 30763 5.35400000 2886485321 2886485321 15.00000000
-1.62482369 1.25580645 -0.55024928 4 0 30770 2.12600000 2886485342 2886485342 -15.00000000
-4.12741852 3.19118261 0.09106666 14 1 30771 5.21800000 2886485344 2886485344 1.00000000
-1.89601171 1.46646190 -0.55337960 4 2 30772 2.46000000 2886485347 2886485347 -13.00000000
-4.11811781 3.18628883 0.27287969 8 3 30773 5.21400000 2886485349 2886485349 3.00000000
-2.22663522 1.72280228 -0.54724020 3 4 30773 2.86800000 2886485351 2886485351 -11.00000000
-4.10909796 3.18045664 0.45460436 10 5 30774 5.21600000 2886485354 2886485354 5.00000000
-2.73178005 2.11517024 -0.54720777 3 6 30775 3.49800000 2886485356 2886485356 -9.00000000
-4.12589931 3.19576430 0.64078903 9 7 30776 5.25800000 2886485358 2886485358 7.00000000
-3.50708938 2.71743727 -0.54475594 6 8 30777 4.47000000 2886485361 2886485361 -7.00000000
-4.10827351 3.18325973 0.82315814 81 9 30777 5.26200000 2886485363 2886485363 9.00000000
-4.14152050 3.21017766 -0.45843920 13 10 30778 5.26000000 2886485365 2886485365 -5.00000000
-4.10212708 3.18078923 1.00899792 73 11 30779 5.28800000 2886485367 2886485367 11.00000000
-4.14894104 3.21824884 -0.27518246 10 12 30780 5.25800000 2886485370 2886485370 -3.00000000
-4.09379196 3.17661500 1.19628966 69 13 30781 5.31800000 2886485372 2886485372 13.00000000
-4.12602329 3.20277929 -0.09117137 10 14 30782 5.22400000 2886485374 2886485374 -1.00000000
-4.07302427 3.16163945 1.38157606 44 15 30782 5.33800000 2886485377 2886485377 15.00000000
-1.62957656 1.26859069 -0.55335510 4 0 30790 2.13800000 2886485397 2886485397 -15.00000000
-4.12256527 3.21048498 0.09120627 14 1 30791 5.22600000 2886485400 2886485400 1.00000000
-1.89549315 1.47666407 -0.55472928 4 2 30792 2.46600000 2886485402 2886485402 -13.00000000
-4.12587500 3.21537709 0.27413574 8 3 30793 5.23800000 2886485404 2886485404 3.00000000
-2.23919034 1.74504590 -0.55181962 3 4 30793 2.89200000 2886485407 2886485407 -11.00000000
-4.11211300 3.20580554 0.45617315 10 5 30794 5.23400000 2886485409 2886485409 5.00000000
-2.73684168 2.13441133 -0.54971069 3 6 30795 3.51400000 2886485411 2886485411 -9.00000000
-4.11471844 3.21014690 0.64078903 9 7 30796 5.25800000 2886485414 2886485414 7.00000000
-3.46002436 2.70035100 -0.53890622 8 8 30797 4.42200000 2886485416 2886485416 -7.00000000
-4.11370611 3.21166778 0.82659972 72 9 30798 5.28400000 2886485418 2886485418 9.00000000
-4.13971233 3.23197126 -0.45948508 13 10 30798 5.27200000 2886485420 2886485420 -5.00000000
-4.09409380 3.19750595 1.00976121 70 11 30799 5.29200000 2886485423 2886485423 11.00000000
-4.13925600 3.23394132 -0.27528712 10 12 30800 5.26000000 2886485425 2886485425 -3.00000000
-4.09496164 3.20048594 1.19988894 69 13 30801 5.33400000 2886485427 2886485427 13.00000000
-4.13214731 3.23071074 -0.09155533 12 14 30802 5.24600000 2886485430 2886485430 -1.00000000
-4.07814789 3.18963838 1.38727009 63 15 30803 5.36000000 2886485432 2886485432 15.00000000
-1.63121939 1.27903938 -0.55542564 4 0 30810 2.14600000 2886485453 2886485453 -15.00000000
-4.12234735 3.23349500 0.09145061 11 1 30811 5.24000000 2886485455 2886485455 1.00000000
-1.88112843 1.47605371 -0.55202991 4 2 30812 2.45400000 2886485457 2886485457 -13.00000000
-4.11933947 3.23345900 0.27444977 8 3 30813 5.24400000 2886485460 2886485460 3.00000000
-2.22999692 1.75042713 -0.55105639 3 4 30813 2.88800000 2886485462 2886485462 -11.00000000
-4.11500072 3.23121428 0.45774198 10 5 30814 5.25200000 2886485464 2886485464 5.00000000
-2.72782111 2.14273143 -0.54939783 1 6 30815 3.51200000 2886485467 2886485467 -9.00000000
-4.11285305 3.23184943 0.64225143 9 7 30816 5.27000000 2886485469 2886485469 7.00000000
-3.44901657 2.71118546 -0.53866249 12 8 30817 4.42000000 2886485471 2886485471 -7.00000000
-4.11390448 3.23383713 0.82878977 81 9 30817 5.29800000 2886485473 2886485473 9.00000000
-4.14093494 3.25625443 -0.46087956 13 10 30818 5.28800000 2886485476 2886485476 -5.00000000
-4.09216547 3.21906042 1.01205087 68 11 30819 5.30400000 2886485478 2886485478 11.00000000
-4.13422060 3.25331068 -0.27570581 10 12 30820 5.26800000 2886485480 2886485480 -3.00000000
-4.08835888 3.21837664 1.20123863 70 13 30821 5.34000000 2886485483 2886485483 13.00000000
-4.13184214 3.25377512 -0.09179966 8 14 30822 5.26000000 2886485485 2886485485 -1.00000000
-4.08727884 3.21868205 1.39399934 70 15 30822 5.38600000 2886485487 2886485487 15.00000000
-1.62826085 1.28592288 -0.55594331 4 0 30830 2.14800000 2886485508 2886485508 -15.00000000
-4.12515688 3.25902176 0.09176476 9 1 30831 5.25800000 2886485510 2886485510 1.00000000
-1.88055134 1.48623610 -0.55337960 4 2 30832 2.46000000 2886485513 2886485513 -13.00000000
-4.11586094 3.25401187 0.27497312 8 3 30833 5.25400000 2886485515 2886485515 3.00000000
-2.21463251 1.75089502 -0.54876667 3 4 30833 2.87600000 2886485517 2886485517 -11.00000000
-4.12557459 3.26286173 0.46018231 10 5 30834 5.28000000 2886485520 2886485520 5.00000000
-2.71412826 2.14733768 -0.54814637 1 6 30835 3.50400000 2886485522 2886485522 -9.00000000
-4.11711264 3.25850582 0.64468884 9 7 30836 5.29000000 2886485524 2886485524 7.00000000
-3.43953180 2.72320819 -0.53866249 10 8 30837 4.42000000 2886485526 2886485526 -7.00000000
-4.10666990 3.25257301 0.82972842 78 9 30838 5.30400000 2886485529 2886485529 9.00000000
-4.15140915 3.28800750 -0.46331993 13 10 30838 5.31600000 2886485531 2886485531 -5.00000000
-4.09629202 3.24551725 1.01586711 73 11 30839 5.32400000 2886485533 2886485533 11.00000000
-4.13066530 3.27392507 -0.27622917 11 12 30840 5.27800000 2886485536 2886485536 -3.00000000
-4.09236956 3.24473524 1.20573771 67 13 30841 5.36000000 2886485538 2886485538 13.00000000
-4.11889267 3.26693559 -0.09176476 8 14 30842 5.25800000 2886485540 2886485540 -1.00000000
-4.08756113 3.24324703 1.39814043 65 15 30843 5.40200000 2886485543 2886485543 15.00000000
-1.62051344 1.28947639 -0.55490804 4 0 30851 2.14400000 2886485563 2886485563 -15.00000000
-4.13195896 3.28906393 0.09218361 11 1 30852 5.28200000 2886485566 2886485566 1.00000000
-1.88881159 1.50404394 -0.55742872 4 2 30853 2.47800000 2886485568 2886485568 -13.00000000
-4.11171770 3.27529740 0.27549648 8 3 30854 5.26400000 2886485570 2886485570 3.00000000
-2.20512915 1.75655389 -0.54800344 3 4 30854 2.87200000 2886485573 2886485573 -11.00000000
-4.12449503 3.28665233 0.46140251 10 5 30855 5.29400000 2886485575 2886485575 5.00000000
-2.72014165 2.16835308 -0.55096221 1 6 30856 3.52200000 2886485577 2886485577 -9.00000000
-4.12687063 3.29090095 0.64810115 14 7 30857 5.31800000 2886485579 2886485579 7.00000000
-3.42797589 2.73455858 -0.53841877 10 8 30858 4.41800000 2886485582 2886485582 -7.00000000
-4.10146809 3.27181554 0.83097988 78 9 30858 5.31200000 2886485584 2886485584 9.00000000
-4.14244461 3.30568647 -0.46366856 13 10 30859 5.32000000 2886485586 2886485586 -5.00000000
-4.10278082 3.27520704 1.02044654 74 11 30860 5.34800000 2886485589 2886485589 11.00000000
-4.13736629 3.30399847 -0.27748525 11 12 30861 5.30200000 2886485591 2886485591 -3.00000000
-4.08958483 3.26701069 1.20843709 67 13 30862 5.37200000 2886485593 2886485593 13.00000000
-4.11938810 3.29199719 -0.09204399 8 14 30863 5.27400000 2886485596 2886485596 -1.00000000
-4.08526993 3.26473188 1.40124631 63 15 30863 5.41400000 2886485598 2886485598 15.00000000
-1.61298752 1.29270887 -0.55387276 4 0 30871 2.14000000 2886485619 2886485619 -15.00000000
-4.12357330 3.30596900 0.09225342 16 1 30872 5.28600000 2886485621 2886485621 1.00000000
-1.87594891 1.50453186 -0.55517918 3 2 30873 2.46800000 2886485623 2886485623 -13.00000000
-4.11895418 3.30462837 0.27675253 10 3 30874 5.28800000 2886485626 2886485626 3.00000000
-2.20510960 1.76915479 -0.54952991 3 4 30874 2.88000000 2886485628 2886485628 -11.00000000
-4.10833597 3.29728818 0.46087956 10 5 30875 5.28800000 2886485630 2886485630 5.00000000
-2.70793486 2.17412472 -0.55002356 1 6 30876 3.51600000 2886485632 2886485632 -9.00000000
-4.12154865 3.31025863 0.64907610 23 7 30877 5.32600000 2886485635 2886485635 7.00000000
-3.42769456 2.75396776 -0.53988117 8 8 30878 4.43000000 2886485637 2886485637 -7.00000000
-4.10234165 3.29601026 0.83348280 76 9 30878 5.32800000 2886485639 2886485639 9.00000000
-4.14175129 3.32886338 -0.46488872 13 10 30879 5.33400000 2886485642 2886485642 -5.00000000
-4.10050344 3.29688954 1.02273619 71 11 30880 5.36000000 2886485644 2886485644 11.00000000
-4.13825846 3.32843471 -0.27832261 11 12 30881 5.31800000 2886485646 2886485646 -3.00000000
-4.09333897 3.29348230 1.21293604 65 13 30882 5.39200000 2886485649 2886485649 13.00000000
-4.11877632 3.31513333 -0.09228832 6 14 30883 5.28800000 2886485651 2886485651 -1.00000000
-4.07685900 3.28139472 1.40228164 65 15 30883 5.41800000 2886485653 2886485653 15.00000000
-1.61169875 1.30047691 -0.55490804 4 0 30890 2.14400000 2886485674 2886485674 -15.00000000
-4.11569929 3.32213712 0.09232323 16 1 30891 5.29000000 2886485676 2886485676 1.00000000
-1.87246549 1.51196861 -0.55562907 4 2 30892 2.47000000 2886485679 2886485679 -13.00000000
-4.13593960 3.34085941 0.27863663 19 3 30893 5.32400000 2886485681 2886485681 3.00000000
-2.21450305 1.78879404 -0.55334610 3 4 30893 2.90000000 2886485683 2886485683 -11.00000000
-4.10357809 3.31590271 0.46157682 7 5 30894 5.29600000 2886485685 2886485685 5.00000000
-2.69917417 2.18185091 -0.54971069 1 6 30895 3.51400000 2886485688 2886485688 -9.00000000
-4.10746193 3.32141161 0.64858866 30 7 30896 5.32200000 2886485690 2886485690 7.00000000
-3.41854310 2.76531935 -0.53988117 8 8 30897 4.43000000 2886485692 2886485692 -7.00000000
-4.11077404 3.32646394 0.83755010 69 9 30898 5.35400000 2886485695 2886485695 9.00000000
-4.15082407 3.35887265 -0.46715477 13 10 30898 5.36000000 2886485697 2886485697 -5.00000000
-4.08954811 3.31046915 1.02273619 71 11 30899 5.36000000 2886485699 2886485699 11.00000000
-4.13961554 3.35219455 -0.27915999 11 12 30900 5.33400000 2886485702 2886485702 -3.00000000
-4.09450912 3.31685138 1.21653533 62 13 30901 5.40800000 2886485704 2886485704 13.00000000
-4.12174273 3.34010434 -0.09260247 8 14 30902 5.30600000 2886485706 2886485706 -1.00000000
-4.07646132 3.30341005 1.40590501 61 15 30902 5.43200000 2886485708 2886485708 15.00000000
-1.61014783 1.30853164 -0.55594331 4 0 30910 2.14800000 2886485729 2886485729 -15.00000000
-4.11338758 3.34405184 0.09253266 11 1 30911 5.30200000 2886485732 2886485732 1.00000000
-1.85961688 1.51234782 -0.55337960 3 2 30912 2.46000000 2886485734 2886485734 -13.00000000
-4.12425232 3.35527635 0.27863663 21 3 30913 5.32400000 2886485736 2886485736 3.00000000
-2.19910789 1.78907931 -0.55105639 3 4 30913 2.88800000 2886485738 2886485738 -11.00000000
-4.11361265 3.34781361 0.46401718 7 5 30914 5.32400000 2886485741 2886485741 5.00000000
-4.13305616 3.36483645 -0.84412038 4 6 30915 5.39600000 2886485743 2886485743 -9.00000000
-4.10661745 3.34450412 0.65029484 49 7 30916 5.33600000 2886485745 2886485745 7.00000000
-3.40271354 2.77222013 -0.53890622 8 8 30917 4.42200000 2886485748 2886485748 -7.00000000
-4.11444998 3.35327268 0.84067881 69 9 30918 5.37400000 2886485750 2886485750 9.00000000
-4.15606308 3.38718724 -0.46907219 13 10 30918 5.38200000 2886485752 2886485752 -5.00000000
-4.09622717 3.33961105 1.02731562 68 11 30919 5.38400000 2886485755 2886485755 11.00000000
-4.12788916 3.36662412 -0.27915999 11 12 30920 5.33400000 2886485757 2886485757 -3.00000000
-4.08894587 3.33605123 1.21833491 63 13 30921 5.41600000 2886485759 2886485759 13.00000000
-4.12400150 3.36585116 -0.09291662 8 14 30922 5.32400000 2886485761 2886485761 -1.00000000
-4.08228350 3.33299017 1.41211677 61 15 30923 5.45600000 2886485764 2886485764 15.00000000
-1.61178041 1.31875718 -0.55801386 4 0 30929 2.15600000 2886485785 2886485785 -15.00000000
-4.12084532 3.37287283 0.09295151 11 1 30930 5.32600000 2886485787 2886485787 1.00000000
-1.85157597 1.51603711 -0.55247980 3 2 30931 2.45600000 2886485789 2886485789 -13.00000000
-4.11155844 3.36766887 0.27853197 12 3 30932 5.32200000 2886485791 2886485791 3.00000000
-2.19620085 1.79885006 -0.55181962 3 4 30932 2.89200000 2886485794 2886485794 -11.00000000
-4.11481714 3.37153840 0.46541166 15 5 30933 5.34000000 2886485796 2886485796 5.00000000
-2.68731594 2.20267725 -0.55033642 1 6 30934 3.51800000 2886485798 2886485798 -9.00000000
-4.11085415 3.37069035 0.65273219 61 7 30935 5.35600000 2886485801 2886485801 7.00000000
-3.39350200 2.78348851 -0.53890622 8 8 30936 4.42200000 2886485803 2886485803 -7.00000000
-4.10483456 3.36815119 0.84099168 72 9 30937 5.37600000 2886485805 2886485805 9.00000000
-4.15250874 3.40726972 -0.46994376 13 10 30937 5.39200000 2886485808 2886485808 -5.00000000
-4.09727001 3.36314106 1.03036857 68 11 30938 5.40000000 2886485810 2886485810 11.00000000
-4.11361504 3.37775922 -0.27895066 27 12 30939 5.33000000 2886485812 2886485812 -3.00000000
-4.08388376 3.35454011 1.22013450 60 13 30940 5.42400000 2886485814 2886485814 13.00000000
-4.10509205 3.37316084 -0.09274209 23 14 30941 5.31400000 2886485817 2886485817 -1.00000000
-4.07925558 3.35193086 1.41470492 68 15 30941 5.46600000 2886485819 2886485819 15.00000000
-1.60120368 1.31946111 -0.55594331 4 0 30949 2.14800000 2886485840 2886485840 -15.00000000
-4.11367559 3.39105248 0.09305623 30 1 30950 5.33200000 2886485842 2886485842 1.00000000
-1.85529363 1.52993000 -0.55517918 3 2 30951 2.46800000 2886485844 2886485844 -13.00000000
-4.10748148 3.38835502 0.27905533 27 3 30952 5.33200000 2886485847 2886485847 3.00000000
-2.18385029 1.80150795 -0.55029315 3 4 30952 2.88400000 2886485849 2886485849 -11.00000000
-4.11531687 3.39602613 0.46680614 28 5 30953 5.35600000 2886485851 2886485851 5.00000000
-2.69027424 2.22084737 -0.55252653 3 6 30954 3.53200000 2886485854 2886485854 -9.00000000
-4.11436987 3.39765930 0.65516961 57 7 30955 5.37600000 2886485856 2886485856 7.00000000
-3.38835645 2.79910994 -0.53963745 8 8 30956 4.42800000 2886485858 2886485858 -7.00000000
-4.10066605 3.38875103 0.84255600 63 9 30957 5.38600000 2886485861 2886485861 9.00000000
-4.50765276 3.72508097 -0.51160419 3 10 30957 5.87000000 2886485863 2886485863 -5.00000000
-4.10063696 3.38993168 1.03418481 63 11 30958 5.42000000 2886485865 2886485865 11.00000000
-4.08115864 3.37622809 1.22283387 62 13 30960 5.43600000 2886485870 2886485870 13.00000000
-4.07348347 3.37107635 1.41677547 68 15 30961 5.47400000 2886485874 2886485874 15.00000000
-1.59361506 1.32257485 -0.55490804 4 0 30969 2.14400000 2886485895 2886485895 -15.00000000
-1.85294008 1.53888690 -0.55607903 3 2 30971 2.47200000 2886485900 2886485900 -13.00000000
-2.17452836 1.80661094 -0.54952991 3 4 30972 2.88000000 2886485904 2886485904 -11.00000000
-2.67035389 2.22012162 -0.55002356 3 6 30974 3.51600000 2886485909 2886485909 -9.00000000
-3.38314295 2.81472945 -0.54036868 8 8 30976 4.43400000 2886485913 2886485913 -7.00000000
-4.09396172 3.40612078 0.84349465 18 9 30976 5.39200000 2886485916 2886485916 9.00000000
-4.64776087 3.86824751 -0.52903533 3 10 30977 6.07000000 2886485918 2886485918 -5.00000000
-4.09934044 3.41301823 1.03685606 27 11 30978 5.43400000 2886485920 2886485920 11.00000000
-7.39564371 6.15963173 -0.50441396 8 12 30979 9.63800000 2886485923 2886485923 -3.00000000
-4.07982874 3.39918542 1.22598326 26 13 30980 5.45000000 2886485925 2886485925 13.00000000
-4.06614351 3.38898540 1.41832840 42 15 30981 5.48000000 2886485930 2886485930 15.00000000
-1.58454180 1.32441282 -0.55335510 4 0 30989 2.13800000 2886485950 2886485950 -15.00000000
-1.85054672 1.54784608 -0.55697882 3 2 30991 2.47600000 2886485955 2886485955 -13.00000000
-2.17122030 1.81671011 -0.55029315 3 4 30992 2.88400000 2886485960 2886485960 -11.00000000
-2.66258788 2.22942924 -0.55002356 5 6 30994 3.51600000 2886485964 2886485964 -9.00000000
-3.38090491 2.83289623 -0.54158735 8 8 30996 4.44400000 2886485969 2886485969 -7.00000000
-4.61437988 3.86780906 -0.52676928 3 10 30997 6.04400000 2886485973 2886485973 -5.00000000
-7.39093018 6.19952869 -0.50556535 12 12 30999 9.66000000 2886485978 2886485978 -3.00000000
-8.66582870 7.27149391 2.61168170 60 13 31000 11.61000000 2886485980 2886485980 13.00000000
-7.44163704 6.24870253 2.60371971 40 15 31002 10.06000000 2886485985 2886485985 15.00000000
-1.58286500 1.33242404 -0.55439037 4 0 31009 2.14200000 2886486006 2886486006 -15.00000000
-1.83917081 1.54927433 -0.55517918 4 2 31011 2.46800000 2886486010 2886486010 -13.00000000
-2.17387342 1.83186865 -0.55258286 3 4 31012 2.89600000 2886486015 2886486015 -11.00000000
-2.65478969 2.23870993 -0.55002356 3 6 31014 3.51600000 2886486019 2886486019 -9.00000000
-3.36492729 2.83955956 -0.54061240 8 8 31016 4.43600000 2886486024 2886486024 -7.00000000
-4.63129997 3.90959692 -0.53025556 3 10 31017 6.08400000 2886486029 2886486029 -5.00000000
-7.38450193 6.23817873 -0.50661206 12 12 31019 9.68000000 2886486033 2886486033 -3.00000000
-8.65081310 7.31050396 2.61483097 59 13 31020 11.62400000 2886486036 2886486036 13.00000000
-7.41939926 6.27209854 2.60320187 47 15 31021 10.05800000 2886486040 2886486040 15.00000000
-1.58115149 1.34043956 -0.55542564 4 0 31029 2.14600000 2886486061 2886486061 -15.00000000
-1.83523762 1.55694544 -0.55562907 4 2 31031 2.47000000 2886486065 2886486065 -13.00000000
-2.15848446 1.83182371 -0.55029315 3 4 31032 2.88400000 2886486070 2886486070 -11.00000000
-2.65298152 2.25307798 -0.55127507 3 6 31034 3.52400000 2886486075 2886486075 -9.00000000
-3.34894443 2.84614611 -0.53963745 8 8 31036 4.42800000 2886486079 2886486079 -7.00000000
-4.62673235 3.93348241 -0.53130138 3 10 31037 6.09600000 2886486084 2886486084 -5.00000000
-7.39158440 6.28850746 -0.50860083 12 12 31039 9.71800000 2886486089 2886486089 -3.00000000
-8.61336994 7.33055210 2.61123180 59 13 31040 11.60800000 2886486091 2886486091 13.00000000
-7.39746046 6.29795885 2.60320187 45 15 31041 10.05800000 2886486095 2886486095 15.00000000
-1.57646286 1.34595072 -0.55542564 4 0 31049 2.14600000 2886486116 2886486116 -15.00000000
-1.82682848 1.56081045 -0.55472928 4 2 31051 2.46600000 2886486121 2886486121 -13.00000000
-2.14610744 1.83424485 -0.54876667 3 4 31052 2.87600000 2886486125 2886486125 -11.00000000
-2.66011262 2.27516460 -0.55440372 3 6 31054 3.54400000 2886486130 2886486130 -9.00000000
-3.35105395 2.86814499 -0.54158735 8 8 31056 4.44400000 2886486135 2886486135 -7.00000000
-4.62054062 3.95608783 -0.53217298 3 10 31057 6.10600000 2886486139 2886486139 -5.00000000
-7.41205597 6.35065651 -0.51153165 12 12 31059 9.77400000 2886486144 2886486144 -3.00000000
-8.58772850 7.36057377 2.61123180 59 13 31060 11.60800000 2886486146 2886486146 13.00000000
-7.36259651 6.31496763 2.59906077 45 15 31062 10.04200000 2886486151 2886486151 15.00000000
-1.56296611 1.34388840 -0.55231982 4 0 31069 2.13400000 2886486171 2886486171 -15.00000000
-1.82284629 1.56844878 -0.55517918 4 2 31071 2.46800000 2886486176 2886486176 -13.00000000
-2.15159535 1.85197103 -0.55181962 3 4 31072 2.89200000 2886486181 2886486181 -11.00000000
-2.64916110 2.28185773 -0.55377799 3 6 31074 3.54000000 2886486185 2886486185 -9.00000000
-3.36959052 2.90444994 -0.54621840 18 8 31076 4.48200000 2886486190 2886486190 -7.00000000
-4.59161425 3.95918155 -0.53042984 3 10 31077 6.08600000 2886486195 2886486195 -5.00000000
-7.40950060 6.39345312 -0.51289237 12 12 31079 9.80000000 2886486199 2886486199 -3.00000000
-8.56493378 7.39305258 2.61213160 59 13 31080 11.61200000 2886486201 2886486201 13.00000000
-7.33319855 6.33431530 2.59647274 42 15 31082 10.03200000 2886486206 2886486206 15.00000000
-1.56434357 1.35412133 -0.55439037 4 0 31088 2.14200000 2886486227 2886486227 -15.00000000
-1.82647288 1.58214045 -0.55787861 3 2 31090 2.48000000 2886486231 2886486231 -13.00000000
-2.15137696 1.86423850 -0.55334610 3 4 31091 2.90000000 2886486236 2886486236 -11.00000000
-2.63561010 2.28545356 -0.55252653 3 6 31093 3.53200000 2886486241 2886486241 -9.00000000
-3.38692808 2.93902636 -0.55060571 6 8 31095 4.51800000 2886486245 2886486245 -7.00000000
-4.61156082 4.00311995 -0.53426468 3 10 31096 6.13000000 2886486250 2886486250 -5.00000000
-7.42293787 6.44811392 -0.51529980 17 12 31098 9.84600000 2886486254 2886486254 -3.00000000
-8.54036999 7.42141390 2.61213160 59 13 31099 11.61200000 2886486257 2886486257 13.00000000
-7.31798410 6.36366892 2.59854317 42 15 31101 10.04000000 2886486261 2886486261 15.00000000
-1.56980073 1.36845982 -0.55801386 4 0 31108 2.15600000 2886486282 2886486282 -15.00000000
-1.81212807 1.58082008 -0.55517918 3 2 31110 2.46800000 2886486287 2886486287 -13.00000000
-2.15077329 1.87690032 -0.55487257 3 4 31111 2.90800000 2886486291 2886486291 -11.00000000
-2.63356781 2.29983711 -0.55377799 3 6 31113 3.54000000 2886486296 2886486296 -9.00000000
-3.36469030 2.94038105 -0.54865581 2 8 31115 4.50200000 2886486301 2886486301 -7.00000000
-4.59755945 4.01919270 -0.53426468 3 10 31116 6.13000000 2886486305 2886486305 -5.00000000
-7.41391373 6.48582077 -0.51624185 12 12 31118 9.86400000 2886486310 2886486310 -3.00000000
-8.50561333 7.44348001 2.60943222 59 13 31119 11.60000000 2886486312 2886486312 13.00000000
-7.29427290 6.38790226 2.59802556 45 15 31121 10.03800000 2886486317 2886486317 15.00000000
-1.56041992 1.37037992 -0.55646098 4 0 31129 2.15000000 2886486337 2886486337 -15.00000000
-1.81217706 1.59259689 -0.55697882 3 2 31131 2.47600000 2886486342 2886486342 -13.00000000
-2.13798189 1.87958562 -0.55334610 3 4 31132 2.90000000 2886486347 2886486347 -11.00000000
-2.61918831 2.30425501 -0.55252653 3 6 31134 3.53200000 2886486351 2886486351 -9.00000000
-3.38368964 2.97892809 -0.55353057 2 8 31136 4.54200000 2886486356 2886486356 -7.00000000
-4.58279705 4.03601646 -0.53426468 3 10 31137 6.13000000 2886486360 2886486360 -5.00000000
-7.35712767 6.48389864 -0.51393908 8 12 31139 9.82000000 2886486365 2886486365 -3.00000000
-8.46511936 7.46300650 2.60538316 54 13 31140 11.58200000 2886486367 2886486367 13.00000000
-7.26903248 6.41076946 2.59699035 47 15 31141 10.03400000 2886486372 2886486372 15.00000000
-1.55707395 1.37709820 -0.55697858 4 0 31149 2.15200000 2886486393 2886486393 -15.00000000
-1.81536257 1.60666203 -0.55967820 3 2 31151 2.48800000 2886486397 2886486397 -13.00000000
-2.13140774 1.88703704 -0.55334610 2 4 31152 2.90000000 2886486402 2886486402 -11.00000000
-2.62295747 2.32386327 -0.55502951 3 6 31154 3.54800000 2886486406 2886486406 -9.00000000
-3.46387815 3.07105303 -0.56839859 8 8 31156 4.66400000 2886486411 2886486411 -7.00000000
-4.58805895 4.06917524 -0.53653073 3 10 31157 6.15600000 2886486416 2886486416 -5.00000000
-7.36133766 6.53340435 -0.51582319 8 12 31159 9.85600000 2886486420 2886486420 -3.00000000
-8.43173027 7.48604059 2.60313368 49 13 31160 11.57200000 2886486423 2886486423 13.00000000
-7.23971033 6.43223619 2.59491968 42 15 31162 10.02600000 2886486427 2886486427 15.00000000
-1.55105591 1.38096952 -0.55646098 4 0 31168 2.15000000 2886486448 2886486448 -15.00000000
-1.80565965 1.60878408 -0.55832851 4 2 31170 2.48200000 2886486453 2886486453 -13.00000000
-2.12806964 1.89670730 -0.55410933 3 4 31171 2.90400000 2886486457 2886486457 -11.00000000
-2.62113357 2.33780789 -0.55628097 5 6 31173 3.55600000 2886486462 2886486462 -9.00000000
-3.46848512 3.09574127 -0.57083601 8 8 31175 4.68400000 2886486466 2886486466 -7.00000000
-4.56413603 4.07507896 -0.53531057 3 10 31176 6.14200000 2886486471 2886486471 -5.00000000
-7.33665276 6.55511808 -0.51561385 8 12 31178 9.85200000 2886486476 2886486476 -3.00000000
-8.40250015 7.51006413 2.60178399 45 13 31179 11.56600000 2886486478 2886486478 13.00000000
-7.21082640 6.44722271 2.59181380 45 15 31180 10.01400000 2886486483 2886486483 15.00000000
-1.54766428 1.38766491 -0.55697858 4 0 31188 2.15200000 2886486503 2886486503 -15.00000000
-1.80438435 1.61898148 -0.55967820 3 2 31190 2.48800000 2886486508 2886486508 -13.00000000
-2.12143588 1.90412402 -0.55410933 3 4 31191 2.90400000 2886486512 2886486512 -11.00000000
-2.60413957 2.33902311 -0.55440372 5 6 31193 3.54400000 2886486517 2886486517 -9.00000000
-3.44879961 3.09986758 -0.56937355 10 8 31195 4.67200000 2886486522 2886486522 -7.00000000
-4.55580997 4.09631443 -0.53600782 3 10 31196 6.15000000 2886486526 2886486526 -5.00000000
-7.29590988 6.56465673 -0.51435781 8 12 31198 9.82800000 2886486531 2886486531 -3.00000000
-8.37333775 7.53674126 2.60088420 43 13 31199 11.56200000 2886486533 2886486533 13.00000000
-7.18571234 6.47231531 2.59129620 42 15 31201 10.01200000 2886486538 2886486538 15.00000000
-1.54854643 1.39823747 -0.55904913 4 0 31208 2.16000000 2886486559 2886486559 -15.00000000
-1.78715479 1.61481822 -0.55607903 3 2 31210 2.47200000 2886486563 2886486563 -13.00000000
-2.13807964 1.93258119 -0.56021523 3 4 31211 2.93600000 2886486568 2886486568 -11.00000000
-2.59595895 2.34809899 -0.55440372 5 6 31213 3.54400000 2886486572 2886486572 -9.00000000
-3.42324066 3.09856582 -0.56693619 10 8 31215 4.65200000 2886486577 2886486577 -7.00000000
-4.55182171 4.12155294 -0.53722799 3 10 31216 6.16400000 2886486582 2886486582 -5.00000000
-7.26111031 6.57935572 -0.51352042 12 12 31218 9.81200000 2886486586 2886486586 -3.00000000
-8.34120274 7.56068850 2.59908438 44 13 31219 11.55400000 2886486589 2886486589 13.00000000
-7.15991640 6.49221563 2.58974338 45 15 31220 10.00600000 2886486593 2886486593 15.00000000
-1.54651487 1.40623379 -0.56008440 4 0 31228 2.16400000 2886486614 2886486614 -15.00000000
-1.78727245 1.62629282 -0.55787861 3 2 31230 2.48000000 2886486618 2886486618 -13.00000000
-2.11099482 1.92153108 -0.55487257 3 4 31231 2.90800000 2886486623 2886486623 -11.00000000
-2.59942961 2.36778808 -0.55690670 3 6 31233 3.56000000 2886486628 2886486628 -9.00000000
-3.40066719 3.09979820 -0.56498629 10 8 31235 4.63600000 2886486632 2886486632 -7.00000000
-4.55212927 4.15084124 -0.53897113 3 10 31236 6.18400000 2886486637 2886486637 -5.00000000
-7.27940989 6.64235640 -0.51645124 8 12 31238 9.86800000 2886486641 2886486641 -3.00000000
-8.30612469 7.58187580 2.59638500 41 13 31239 11.54200000 2886486644 2886486644 13.00000000
-7.13322020 6.51580858 2.58870816 45 15 31241 10.00200000 2886486648 2886486648 15.00000000
-1.53304815 1.40379560 -0.55697858 4 0 31248 2.15200000 2886486669 2886486669 -15.00000000
-1.78445828 1.63515484 -0.55877841 3 2 31250 2.48400000 2886486674 2886486674 -13.00000000
-2.10427451 1.92888808 -0.55487257 3 4 31251 2.90800000 2886486678 2886486678 -11.00000000
-2.58823729 2.37417674 -0.55628097 3 6 31253 3.55600000 2886486683 2886486683 -9.00000000
-3.38105178 3.10359550 -0.56352383 12 8 31255 4.62400000 2886486688 2886486688 -7.00000000
-4.52880716 4.15862036 -0.53792524 3 10 31256 6.17200000 2886486692 2886486692 -5.00000000
-7.25764990 6.66907692 -0.51655591 8 12 31258 9.87000000 2886486697 2886486697 -3.00000000
-8.28247738 7.61346102 2.59728479 41 13 31259 11.54600000 2886486699 2886486699 13.00000000
-7.10019779 6.52896643 2.58456707 47 15 31260 9.98600000 2886486704 2886486704 15.00000000
-1.52103758 1.40259039 -0.55439037 4 0 31268 2.14200000 2886486724 2886486724 -15.00000000
-1.78733265 1.64930308 -0.56147784 4 2 31270 2.49600000 2886486729 2886486729 -13.00000000
-2.10041380 1.93888497 -0.55563581 3 4 31271 2.91200000 2886486734 2886486734 -11.00000000
-2.57848310 2.38185668 -0.55596811 3 6 31273 3.55400000 2886486738 2886486738 -9.00000000
-3.37019777 3.11537862 -0.56352383 10 8 31275 4.62400000 2886486743 2886486743 -7.00000000
-4.51280069 4.17305088 -0.53775096 3 10 31276 6.17000000 2886486747 2886486747 -5.00000000
-7.26657629 6.72421360 -0.51885867 8 12 31278 9.91400000 2886486752 2886486752 -3.00000000
-8.25013065 7.63703060 2.59548521 41 13 31279 11.53800000 2886486754 2886486754 13.00000000
-7.06771660 6.54706907 2.58146119 42 15 31281 9.97400000 2886486759 2886486759 15.00000000
-1.52179492 1.41314948 -0.55646098 4 0 31288 2.15000000 2886486780 2886486780 -15.00000000
-1.77728200 1.65155232 -0.56012815 4 2 31290 2.49000000 2886486784 2886486784 -13.00000000
-2.10226059 1.95422494 -0.55792552 3 4 31291 2.92400000 2886486789 2886486789 -11.00000000
-2.57015300 2.39084268 -0.55596811 3 6 31293 3.55400000 2886486794 2886486794 -9.00000000
-3.34186673 3.11089325 -0.56059897 10 8 31295 4.60000000 2886486798 2886486798 -7.00000000
-4.50841331 4.19828272 -0.53897113 3 10 31296 6.18400000 2886486803 2886486803 -5.00000000
-7.23575449 6.74272966 -0.51833528 8 12 31298 9.90400000 2886486807 2886486807 -3.00000000
-8.21486950 7.65780973 2.59278584 41 13 31299 11.52600000 2886486810 2886486810 13.00000000
-7.05020571 6.57442331 2.58301401 40 15 31300 9.98000000 2886486814 2886486814 15.00000000
-1.52108586 1.42241144 -0.55801386 4 0 31308 2.15600000 2886486835 2886486835 -15.00000000
-1.76154590 1.64842546 -0.55697882 3 2 31310 2.47600000 2886486840 2886486840 -13.00000000
-2.10689235 1.97228491 -0.56097847 3 4 31311 2.94000000 2886486844 2886486844 -11.00000000
-2.56467509 2.40250063 -0.55659384 3 6 31313 3.55800000 2886486849 2886486849 -9.00000000
-3.32664251 3.11846662 -0.55986774 14 8 31315 4.59400000 2886486853 2886486853 -7.00000000
-4.49954414 4.21944571 -0.53966838 3 10 31316 6.19200000 2886486858 2886486858 -5.00000000
-7.21799946 6.77341270 -0.51875401 4 12 31318 9.91200000 2886486863 2886486863 -3.00000000
-8.18240547 7.68110323 2.59098625 41 13 31319 11.51800000 2886486865 2886486865 13.00000000
-7.02183771 6.59625101 2.58146119 45 15 31321 9.97400000 2886486870 2886486870 15.00000000
-1.51611149 1.42771232 -0.55801386 4 0 31328 2.15600000 2886486890 2886486890 -15.00000000
-1.76429057 1.66258335 -0.55967820 3 2 31330 2.48800000 2886486895 2886486895 -13.00000000
-2.08856654 1.96885383 -0.55792552 3 4 31331 2.92400000 2886486900 2886486900 -11.00000000
-2.55914712 2.41414928 -0.55721956 3 6 31333 3.56200000 2886486904 2886486904 -9.00000000
-3.29119706 3.10689425 -0.55572420 16 8 31335 4.56000000 2886486909 2886486909 -7.00000000
-4.49927425 4.24880600 -0.54141146 3 10 31336 6.21200000 2886486913 2886486913 -5.00000000
-7.21608639 6.81914377 -0.52032405 4 12 31338 9.94200000 2886486918 2886486918 -3.00000000
-8.13854980 7.69355392 2.58558750 43 13 31339 11.49400000 2886486920 2886486920 13.00000000
-7.00834703 6.62746429 2.58456707 45 15 31340 9.98600000 2886486925 2886486925 15.00000000
-1.51111865 1.43299580 -0.55801386 4 0 31348 2.15600000 2886486946 2886486946 -15.00000000
-1.75282204 1.66336596 -0.55787861 3 2 31350 2.48000000 2886486950 2886486950 -13.00000000
-2.07029033 1.96531892 -0.55487257 3 4 31351 2.90800000 2886486955 2886486955 -11.00000000
-2.55070448 2.42306757 -0.55721956 3 6 31353 3.56200000 2886486959 2886486959 -9.00000000
-3.28033185 3.11836386 -0.55572420 14 8 31355 4.56000000 2886486964 2886486964 -7.00000000
-4.46709013 4.24800968 -0.53931975 3 10 31356 6.18800000 2886486969 2886486969 -5.00000000
-7.21249485 6.86356688 -0.52178949 4 12 31358 9.97000000 2886486973 2886486973 -3.00000000
-8.11164474 7.72191620 2.58558750 44 13 31359 11.49400000 2886486976 2886486976 13.00000000
-6.97117996 6.63856506 2.57939053 45 15 31360 9.96600000 2886486980 2886486980 15.00000000
-1.50051880 1.43292511 -0.55594331 4 0 31368 2.14800000 2886487001 2886487001 -15.00000000
-1.76391160 1.68563056 -0.56327742 3 2 31370 2.50400000 2886487006 2886487006 -13.00000000
-2.07193232 1.98067343 -0.55716228 3 4 31371 2.92000000 2886487010 2886487010 -11.00000000
-2.54080343 2.43059111 -0.55690670 1 6 31373 3.56000000 2886487015 2886487015 -9.00000000
-3.26799297 3.12842250 -0.55548048 14 8 31375 4.55800000 2886487019 2886487019 -7.00000000
-4.46950245 4.28011274 -0.54141146 3 10 31376 6.21200000 2886487024 2886487024 -5.00000000
-7.20002890 6.89975643 -0.52262688 4 12 31378 9.98600000 2886487029 2886487029 -3.00000000
-8.08182812 7.74748659 2.58468771 44 13 31379 11.49000000 2886487031 2886487031 13.00000000
-6.93541574 6.65082455 2.57473183 45 15 31380 9.94800000 2886487035 2886487035 15.00000000
-1.49829268 1.44083226 -0.55697858 4 0 31388 2.15200000 2886487056 2886487056 -15.00000000
-1.74678361 1.68096745 -0.55967820 3 2 31390 2.48800000 2886487061 2886487061 -13.00000000
-2.07066321 1.99334002 -0.55868876 3 4 31391 2.92800000 2886487065 2886487065 -11.00000000
-2.52803564 2.43533397 -0.55596811 1 6 31393 3.55400000 2886487070 2886487070 -9.00000000
-3.19131136 3.07643604 -0.54426849 32 8 31395 4.46600000 2886487075 2886487075 -7.00000000
-4.44306135 4.28462410 -0.54001701 3 10 31396 6.19600000 2886487079 2886487079 -5.00000000
-7.19314671 6.94149017 -0.52388293 4 12 31398 10.01000000 2886487084 2886487084 -3.00000000
-8.05473423 7.77565050 2.58468771 42 13 31399 11.49000000 2886487086 2886487086 13.00000000
-6.91516113 6.68022633 2.57628489 45 15 31401 9.95400000 2886487091 2886487091 15.00000000
-1.49931180 1.45090592 -0.55904913 4 0 31406 2.16000000 2886487112 2886487112 -15.00000000
-1.73309457 1.67831278 -0.55697882 3 2 31408 2.47600000 2886487116 2886487116 -13.00000000
-2.06157064 1.99710333 -0.55792552 3 4 31409 2.92400000 2886487121 2886487121 -11.00000000
