# .PCD v0.7 - Point Cloud Data file format
VERSION 0.7
FIELDS x y z intensity laser_id azimuth distance_m adjustedtime timestamp vertical_angle
SIZE 4 4 4 1 1 2 8 8 4 8
TYPE F F F U U U F U U F
COUNT 1 1 1 1 1 1 1 1 1 1
WIDTH 523
HEIGHT 1
VIEWPOINT 0 0 0 1 0 0 0
POINTS 523
DATA ascii
-6.15004778 9.13500595 2.54239678 56 13 32605 11.30200000 3055389955 3055389955 13.00000000
-4.66804838 6.93893766 2.24085522 40 15 32607 8.65800000 3055389960 3055389960 15.00000000
-1.18430519 1.76442707 -0.56940192 4 0 32613 2.20000000 3055389981 3055389981 -15.00000000
-1.39593804 2.08129597 -0.57857412 4 2 32615 2.57200000 3055389985 3055389985 -13.00000000
-1.64867902 2.45905185 -0.57547992 2 4 32616 3.01600000 3055389990 3055389990 -11.00000000
-2.04720616 3.05577230 -0.58256197 2 6 32618 3.72400000 3055389994 3055389994 -9.00000000
-2.63927245 3.94249821 -0.58253545 4 8 32620 4.78000000 3055389999 3055389999 -7.00000000
-3.70870519 5.54208994 -0.58342052 8 10 32621 6.69400000 3055390004 3055390004 -5.00000000
-6.22043562 9.30250835 -0.58647674 8 12 32623 11.20600000 3055390008 3055390008 -3.00000000
-6.12405300 9.16183090 2.54419637 57 13 32624 11.31000000 3055390011 3055390011 13.00000000
-4.64407921 6.95035601 2.23982000 40 15 32625 8.65400000 3055390015 3055390015 15.00000000
-1.18456519 1.77819693 -0.57250774 4 0 32633 2.21200000 3055390036 3055390036 -15.00000000
-1.38218546 2.07642293 -0.57587469 4 2 32635 2.56000000 3055390040 3055390040 -13.00000000
-1.64226043 2.46806073 -0.57624316 2 4 32636 3.02000000 3055390045 3055390045 -11.00000000
-2.01246500 3.02671075 -0.57567883 1 6 32638 3.68000000 3055390050 3055390050 -9.00000000
-2.63538146 3.96656799 -0.58472914 12 8 32640 4.79800000 3055390054 3055390054 -7.00000000
-3.68933725 5.55500221 -0.58342052 4 10 32641 6.69400000 3055390059 3055390059 -5.00000000
-6.18350840 9.31750870 -0.58605802 8 12 32643 11.19800000 3055390063 3055390063 -3.00000000
-6.09418917 9.18639946 2.54509616 56 13 32644 11.31400000 3055390066 3055390066 13.00000000
-4.62070847 6.97055101 2.24085522 40 15 32646 8.65800000 3055390070 3055390070 15.00000000
-1.17941630 1.78393245 -0.57302535 4 0 32653 2.21400000 3055390091 3055390091 -15.00000000
-1.37063229 2.07473111 -0.57407510 4 2 32655 2.55200000 3055390096 3055390096 -13.00000000
-1.63579905 2.47705483 -0.57700640 4 4 32656 3.02400000 3055390100 3055390100 -11.00000000
-2.02038336 3.06174612 -0.58099759 1 6 32658 3.71400000 3055390105 3055390105 -9.00000000
-2.60403538 3.94922686 -0.58082926 6 8 32660 4.76600000 3055390110 3055390110 -7.00000000
-3.68527484 5.59113598 -0.58586091 4 10 32661 6.72200000 3055390114 3055390114 -5.00000000
-6.15863657 9.35071182 -0.58679074 8 12 32663 11.21200000 3055390119 3055390119 -3.00000000
-6.06208563 9.20761681 2.54509616 59 13 32664 11.31400000 3055390121 3055390121 13.00000000
-4.59862995 6.98744917 2.24137282 40 15 32665 8.66000000 3055390126 3055390126 15.00000000
-1.17636144 1.79288411 -0.57457829 4 0 32673 2.22000000 3055390146 3055390146 -15.00000000
-1.36872423 2.08765125 -0.57632458 4 2 32675 2.56200000 3055390151 3055390151 -13.00000000
-1.62714255 2.48274970 -0.57700640 2 4 32676 3.02400000 3055390156 3055390156 -11.00000000
-2.00210810 3.05721211 -0.57880753 1 6 32678 3.70000000 3055390160 3055390160 -9.00000000
-2.58262539 3.94666529 -0.57912314 2 8 32680 4.75200000 3055390165 3055390165 -7.00000000
-3.66791701 5.60730028 -0.58620954 4 10 32681 6.72600000 3055390169 3055390169 -5.00000000
-6.14125729 9.39555836 -0.58825612 8 12 32683 11.24000000 3055390174 3055390174 -3.00000000
-6.02777624 9.22545815 2.54419637 56 13 32684 11.31000000 3055390176 3055390176 13.00000000
-4.57298899 7.00425720 2.24137282 42 15 32686 8.66000000 3055390181 3055390181 15.00000000
-1.16830063 1.79353786 -0.57354301 4 0 32692 2.21600000 3055390202 3055390202 -15.00000000
-1.36498296 2.09707832 -0.57767433 4 2 32694 2.56800000 3055390206 3055390206 -13.00000000
-1.61247635 2.47825837 -0.57471669 4 4 32695 3.01200000 3055390211 3055390211 -11.00000000
-2.00057268 3.07708359 -0.58131045 2 6 32697 3.71600000 3055390216 3055390216 -9.00000000
-2.57384944 3.96186638 -0.58009809 2 8 32699 4.76000000 3055390220 3055390220 -7.00000000
-3.66449428 5.64282656 -0.58864987 4 10 32700 6.75400000 3055390225 3055390225 -5.00000000
-6.11876440 9.42927551 -0.58909351 8 12 32702 11.25600000 3055390229 3055390229 -3.00000000
-5.99715042 9.24539661 2.54419637 56 13 32703 11.31000000 3055390232 3055390232 13.00000000
-4.54675770 7.01210546 2.23930240 45 15 32704 8.65200000 3055390236 3055390236 15.00000000
-1.15783787 1.79111552 -0.57147247 4 0 32712 2.20800000 3055390257 3055390257 -15.00000000
-1.35659707 2.10019326 -0.57722443 4 2 32714 2.56600000 3055390262 3055390262 -13.00000000
-1.61020553 2.49376774 -0.57700640 2 4 32715 3.02400000 3055390266 3055390266 -11.00000000
-1.99089050 3.08570790 -0.58162332 2 6 32717 3.71800000 3055390271 3055390271 -9.00000000
-2.56430674 3.97750044 -0.58107305 2 8 32719 4.76800000 3055390275 3055390275 -7.00000000
-3.63506126 5.64051104 -0.58708107 4 10 32720 6.73600000 3055390280 3055390280 -5.00000000
-6.10635853 9.48248100 -0.59108227 8 12 32722 11.29400000 3055390285 3055390285 -3.00000000
-5.96695089 9.26955128 2.54509616 57 13 32723 11.31400000 3055390287 3055390287 13.00000000
-4.51475620 7.01897430 2.23619652 42 15 32725 8.64000000 3055390292 3055390292 15.00000000
-1.15397871 1.79819691 -0.57250774 4 0 32731 2.21200000 3055390312 3055390312 -15.00000000
-1.34752131 2.10139966 -0.57632458 3 2 32733 2.56200000 3055390317 3055390317 -13.00000000
-1.59980810 2.49578810 -0.57624316 4 4 32734 3.02000000 3055390322 3055390322 -11.00000000
-1.97212350 3.07898569 -0.57912040 1 6 32736 3.70200000 3055390326 3055390326 -9.00000000
-2.55966353 3.99935794 -0.58302295 2 8 32738 4.78400000 3055390331 3055390331 -7.00000000
-3.62814760 5.67099524 -0.58899850 4 10 32739 6.75800000 3055390335 3055390335 -5.00000000
-6.07380390 9.50099564 -0.59097761 8 12 32741 11.29200000 3055390340 3055390340 -3.00000000
-5.94247532 9.29913998 2.54779553 59 13 32742 11.32600000 3055390342 3055390342 13.00000000
-4.49268293 7.03312349 2.23619652 45 15 32743 8.64000000 3055390347 3055390347 15.00000000
-1.14561939 1.79895508 -0.57147247 4 0 32751 2.20800000 3055390368 3055390368 -15.00000000
-1.34227026 2.10937881 -0.57722443 3 2 32753 2.56600000 3055390372 3055390372 -13.00000000
-1.59530115 2.50798345 -0.57776964 4 4 32754 3.02800000 3055390377 3055390377 -11.00000000
-1.96030414 3.08418369 -0.57880753 1 6 32756 3.70000000 3055390381 3055390381 -9.00000000
-2.54143047 4.00156546 -0.58204800 2 8 32758 4.77600000 3055390386 3055390386 -7.00000000
-3.61046576 5.68698978 -0.58934712 4 10 32759 6.76200000 3055390391 3055390391 -5.00000000
-6.06200027 9.55587006 -0.59307104 8 12 32761 11.33200000 3055390395 3055390395 -3.00000000
-5.90997934 9.31982613 2.54779553 59 13 32762 11.32600000 3055390398 3055390398 13.00000000
-4.47327709 7.05692101 2.23878479 45 15 32763 8.65000000 3055390402 3055390402 15.00000000
-1.14552498 1.81274164 -0.57457829 4 0 32771 2.22000000 3055390423 3055390423 -15.00000000
-1.33906078 2.12064219 -0.57902402 3 2 32773 2.57400000 3055390428 3055390428 -13.00000000
-1.57815373 2.50025511 -0.57471669 2 4 32774 3.01200000 3055390432 3055390432 -11.00000000
-1.95479548 3.09936166 -0.58037186 1 6 32776 3.71000000 3055390437 3055390437 -9.00000000
-2.53803086 4.02720642 -0.58448535 2 8 32778 4.79600000 3055390441 3055390441 -7.00000000
-3.60227442 5.71810102 -0.59126455 4 10 32779 6.78400000 3055390446 3055390446 -5.00000000
-6.01903105 9.56175995 -0.59212899 8 12 32781 11.31400000 3055390451 3055390451 -3.00000000
-5.87118387 9.33050251 2.54509616 60 13 32782 11.31400000 3055390453 3055390453 13.00000000
-4.44655943 7.06922245 2.23774958 45 15 32783 8.64600000 3055390457 3055390457 15.00000000
-1.14329553 1.82327604 -0.57664883 4 0 32791 2.22800000 3055390478 3055390478 -15.00000000
-1.32958078 2.12200069 -0.57812423 3 2 32793 2.57000000 3055390483 3055390483 -13.00000000
-1.57566917 2.51573181 -0.57700640 2 4 32794 3.02400000 3055390487 3055390487 -11.00000000
-1.95758820 3.12793469 -0.58443916 2 6 32796 3.73600000 3055390492 3055390492 -9.00000000
-2.52395797 4.03604126 -0.58448535 2 8 32798 4.79600000 3055390497 3055390497 -7.00000000
-3.57384372 5.71712494 -0.58987010 8 10 32799 6.76800000 3055390501 3055390501 -5.00000000
-6.00466299 9.61320305 -0.59401309 4 12 32801 11.35000000 3055390506 3055390506 -3.00000000
-5.84064245 9.35424614 2.54599595 62 13 32802 11.31800000 3055390508 3055390508 13.00000000
-4.41857433 7.08219433 2.23671412 45 15 32804 8.64200000 3055390513 3055390513 15.00000000
-1.13048339 1.81761158 -0.57354301 4 0 32812 2.21600000 3055390534 3055390534 -15.00000000
-1.32796609 2.13679051 -0.58082360 3 2 32814 2.58200000 3055390538 3055390538 -13.00000000
-1.56851006 2.52482533 -0.57776964 4 4 32815 3.02800000 3055390543 3055390543 -11.00000000
-1.93881786 3.12334037 -0.58224910 2 6 32817 3.72200000 3055390547 3055390547 -9.00000000
-2.50287008 4.03514338 -0.58302295 2 8 32819 4.78400000 3055390552 3055390552 -7.00000000
-3.56126475 5.74373198 -0.59126455 4 10 32820 6.78400000 3055390557 3055390557 -5.00000000
-5.99358177 9.67419624 -0.59642059 4 12 32822 11.39600000 3055390561 3055390561 -3.00000000
-5.81247473 9.38553143 2.54869556 60 13 32823 11.33000000 3055390563 3055390563 13.00000000
-4.39179230 7.09428978 2.23567891 45 15 32824 8.63800000 3055390568 3055390568 15.00000000
-1.12616098 1.82483459 -0.57457829 4 0 32832 2.22000000 3055390589 3055390589 -15.00000000
-1.31436217 2.13146067 -0.57812423 3 2 32834 2.57000000 3055390593 3055390593 -13.00000000
-1.56174755 2.53362751 -0.57853287 4 4 32835 3.03200000 3055390598 3055390598 -11.00000000
-1.92893958 3.13177109 -0.58256197 2 6 32837 3.72400000 3055390603 3055390603 -9.00000000
-2.48876953 4.04385567 -0.58302295 2 8 32839 4.78400000 3055390607 3055390607 -7.00000000
-3.55476546 5.77818871 -0.59353060 4 10 32840 6.81000000 3055390612 3055390612 -5.00000000
-5.96709776 9.70696926 -0.59715325 4 12 32842 11.41000000 3055390616 3055390616 -3.00000000
-5.77967739 9.40576267 2.54869556 62 13 32843 11.33000000 3055390619 3055390619 13.00000000
-4.36700153 7.10957670 2.23567891 45 15 32844 8.63800000 3055390623 3055390623 15.00000000
-1.11877549 1.82710695 -0.57406062 4 0 32852 2.21800000 3055390644 3055390644 -15.00000000
-1.30691397 2.13603568 -0.57812423 3 2 32854 2.57000000 3055390649 3055390649 -13.00000000
-1.55289400 2.53906369 -0.57853287 4 4 32855 3.03200000 3055390653 3055390653 -11.00000000
-1.91078532 3.12668633 -0.58037186 1 6 32857 3.71000000 3055390658 3055390658 -9.00000000
-2.49739861 4.08979034 -0.58838516 2 8 32859 4.82800000 3055390662 3055390662 -7.00000000
-3.54080248 5.80076551 -0.59457648 4 10 32860 6.82200000 3055390667 3055390667 -5.00000000
-5.93733740 9.73456001 -0.59757197 4 12 32862 11.41800000 3055390672 3055390672 -3.00000000
-5.74275208 9.41922474 2.54689574 59 13 32863 11.32200000 3055390674 3055390674 13.00000000
-4.34215784 7.12477684 2.23567891 45 15 32864 8.63800000 3055390679 3055390679 15.00000000
-1.11339390 1.83265209 -0.57457829 4 0 32872 2.22000000 3055390699 3055390699 -15.00000000
-1.29540491 2.13392138 -0.57632458 3 2 32874 2.56200000 3055390704 3055390704 -13.00000000
-1.54402149 2.54446864 -0.57853287 4 4 32875 3.03200000 3055390709 3055390709 -11.00000000
-1.90498042 3.14178300 -0.58193618 2 6 32877 3.72000000 3055390713 3055390713 -9.00000000
-2.48516464 4.10187864 -0.58887267 2 8 32879 4.83200000 3055390718 3055390718 -7.00000000
-3.49782586 5.77559710 -0.59074163 4 10 32880 6.77800000 3055390722 3055390722 -5.00000000
-5.91779804 9.77914810 -0.59903735 4 12 32882 11.44600000 3055390727 3055390727 -3.00000000
-5.70580339 9.43254375 2.54509616 60 13 32883 11.31400000 3055390729 3055390729 13.00000000
-4.31401682 7.13733721 2.23464370 45 15 32885 8.63400000 3055390734 3055390734 15.00000000
-1.10763097 1.83614087 -0.57457829 4 0 32890 2.22000000 3055390755 3055390755 -15.00000000
-1.29674268 2.15133238 -0.57992381 3 2 32892 2.57800000 3055390759 3055390759 -13.00000000
-1.53399384 2.54594374 -0.57776964 2 4 32893 3.02800000 3055390764 3055390764 -11.00000000
-1.90732729 3.16806006 -0.58569062 2 6 32895 3.74400000 3055390768 3055390768 -9.00000000
-2.45998645 4.08925343 -0.58594781 2 8 32897 4.80800000 3055390773 3055390773 -7.00000000
-3.49814558 5.81729126 -0.59387922 4 10 32898 6.81400000 3055390778 3055390778 -5.00000000
-5.89836216 9.81652260 -0.60018873 8 12 32900 11.46800000 3055390782 3055390782 -3.00000000
-5.67814875 9.45376396 2.54599595 60 13 32901 11.31800000 3055390785 3055390785 13.00000000
-4.28884315 7.14348078 2.23257303 45 15 32902 8.62600000 3055390789 3055390789 15.00000000
-1.10121489 1.83999610 -0.57457829 4 0 32910 2.22000000 3055390810 3055390810 -15.00000000
-1.29222572 2.16086316 -0.58127350 4 2 32912 2.58400000 3055390814 3055390814 -13.00000000
-1.52509749 2.55128288 -0.57776964 2 4 32913 3.02800000 3055390819 3055390819 -11.00000000
-1.87903678 3.14586854 -0.58037186 1 6 32915 3.71000000 3055390824 3055390824 -9.00000000
-2.45790553 4.11827087 -0.58887267 2 8 32917 4.83200000 3055390828 3055390828 -7.00000000
-3.49210930 5.85342121 -0.59631962 4 10 32918 6.84200000 3055390833 3055390833 -5.00000000
-5.87837744 9.86107063 -0.60165417 8 12 32920 11.49600000 3055390838 3055390838 -3.00000000
-5.64112425 9.46683025 2.54419637 59 13 32921 11.31000000 3055390840 3055390840 13.00000000
-4.25794983 7.14844990 2.22946715 45 15 32922 8.61400000 3055390844 3055390844 15.00000000
-1.09281290 1.84050655 -0.57354301 4 0 32930 2.21600000 3055390865 3055390865 -15.00000000
-1.28268635 2.16200876 -0.58037370 4 2 32932 2.58000000 3055390870 3055390870 -13.00000000
-1.52018833 2.56334543 -0.57929611 4 4 32933 3.03600000 3055390874 3055390874 -11.00000000
-1.87509346 3.16430426 -0.58256197 2 6 32935 3.72400000 3055390879 3055390879 -9.00000000
-2.44958353 4.13707399 -0.59033507 2 8 32937 4.84400000 3055390884 3055390884 -7.00000000
-3.45541883 5.83814192 -0.59353060 8 10 32938 6.81000000 3055390888 3055390888 -5.00000000
-5.87238741 9.92966461 -0.60458499 4 12 32940 11.55200000 3055390893 3055390893 -3.00000000
-5.61002827 9.48981953 2.54509616 56 13 32941 11.31400000 3055390895 3055390895 13.00000000
-4.22779083 7.15735435 2.22739673 47 15 32943 8.60600000 3055390900 3055390900 15.00000000
-1.09618652 1.86095536 -0.57871938 4 0 32950 2.23600000 3055390920 3055390920 -15.00000000
-1.26722395 2.15303755 -0.57677448 3 2 32952 2.56400000 3055390925 3055390925 -13.00000000
-1.51720452 2.57878900 -0.58158582 4 4 32953 3.04800000 3055390930 3055390930 -11.00000000
-1.86303544 3.16912746 -0.58224910 2 6 32955 3.72200000 3055390934 3055390934 -9.00000000
-2.44115996 4.15586948 -0.59179753 2 8 32957 4.85600000 3055390939 3055390939 -7.00000000
-3.44308925 5.86391306 -0.59492511 8 10 32958 6.82600000 3055390944 3055390944 -5.00000000
-5.82960510 9.93632126 -0.60374761 4 12 32960 11.53600000 3055390948 3055390948 -3.00000000
-5.57292509 9.50261974 2.54329658 62 13 32961 11.30600000 3055390950 3055390950 13.00000000
-4.20668840 7.17873573 2.22946715 45 15 32963 8.61400000 3055390955 3055390955 15.00000000
-1.08773458 1.86143458 -0.57768410 4 0 32970 2.23200000 3055390976 3055390976 -15.00000000
-1.26166594 2.16081357 -0.57767433 3 2 32972 2.56800000 3055390980 3055390980 -13.00000000
-1.50027668 2.57050467 -0.57853287 2 4 32973 3.03200000 3055390985 3055390985 -11.00000000
-1.85892785 3.18755627 -0.58443916 2 6 32975 3.73600000 3055390990 3055390990 -9.00000000
-2.41264629 4.14035320 -0.58838516 2 8 32977 4.82800000 3055390994 3055390994 -7.00000000
-3.43764162 5.90172005 -0.59753978 4 10 32978 6.85600000 3055390999 3055390999 -5.00000000
-5.82301617 10.00494289 -0.60667843 4 12 32980 11.59200000 3055391003 3055391003 -3.00000000
-5.53580093 9.51527786 2.54149699 59 13 32981 11.29800000 3055391006 3055391006 13.00000000
-4.18063307 7.19170570 2.22894955 45 15 32983 8.61200000 3055391010 3055391010 15.00000000
-1.07541728 1.85519207 -0.57457829 4 0 32990 2.22000000 3055391031 3055391031 -15.00000000
-1.25997591 2.17532229 -0.58037370 3 2 32992 2.58000000 3055391036 3055391036 -13.00000000
-1.48736000 2.56892967 -0.57700640 4 4 32993 3.02400000 3055391040 3055391040 -11.00000000
-1.85570323 3.20770454 -0.58694214 2 6 32995 3.75200000 3055391045 3055391045 -9.00000000
-2.40612650 4.16249847 -0.59033507 2 8 32997 4.84400000 3055391050 3055391050 -7.00000000
-3.41602302 5.91195869 -0.59736544 4 10 32998 6.85400000 3055391054 3055391054 -5.00000000
-5.79005384 10.02866745 -0.60688776 4 12 33000 11.59600000 3055391059 3055391059 -3.00000000
-4.80706263 8.32943344 2.22026682 26 13 33001 9.87000000 3055391061 3055391061 13.00000000
-4.15453911 7.20458174 2.22843194 45 15 33003 8.61000000 3055391066 3055391066 15.00000000
-1.07438660 1.86917055 -0.57768410 4 0 33011 2.23200000 3055391086 3055391086 -15.00000000
-1.25781775 2.19006491 -0.58307314 3 2 33013 2.59200000 3055391091 3055391091 -13.00000000
-1.48575413 2.58798480 -0.58005935 4 4 33014 3.04000000 3055391096 3055391096 -11.00000000
-1.84983146 3.22476530 -0.58881932 2 6 33016 3.76400000 3055391100 3055391100 -9.00000000
-2.40664840 4.19884539 -0.59423494 2 8 33018 4.87600000 3055391105 3055391105 -7.00000000
-3.40423632 5.94172716 -0.59910858 4 10 33019 6.87400000 3055391109 3055391109 -5.00000000
-5.75226593 10.04808903 -0.60678309 4 12 33021 11.59400000 3055391114 3055391114 -3.00000000
-4.78521252 8.36221886 2.22431612 64 13 33022 9.88800000 3055391116 3055391116 13.00000000
-4.12169123 7.20562458 2.22429085 45 15 33023 8.59400000 3055391121 3055391121 15.00000000
-1.06020057 1.85948360 -0.57354301 4 0 33031 2.21600000 3055391142 3055391142 -15.00000000
-1.24534214 2.18597603 -0.58082360 4 2 33033 2.58200000 3055391146 3055391146 -13.00000000
-1.47865438 2.59656739 -0.58082259 2 4 33034 3.04400000 3055391151 3055391151 -11.00000000
-1.83465600 3.22433519 -0.58756787 2 6 33036 3.75600000 3055391155 3055391155 -9.00000000
-2.39982605 4.22102642 -0.59618485 2 8 33038 4.89200000 3055391160 3055391160 -7.00000000
-3.39135051 5.96743155 -0.60050309 4 10 33039 6.89000000 3055391165 3055391165 -5.00000000
-5.72011518 10.07331657 -0.60709709 4 12 33041 11.60000000 3055391169 3055391169 -3.00000000
-4.75118351 8.37039757 2.22206640 59 13 33042 9.87800000 3055391172 3055391172 13.00000000
-4.09144163 7.21396160 2.22222042 45 15 33044 8.58600000 3055391176 3055391176 15.00000000
-1.06386948 1.87961745 -0.57871938 4 0 33049 2.23600000 3055391197 3055391197 -15.00000000
-1.23175347 2.17800355 -0.57767433 3 2 33051 2.56800000 3055391202 3055391202 -13.00000000
-1.46855736 2.59778190 -0.58005935 2 4 33052 3.04000000 3055391206 3055391206 -11.00000000
-1.81285906 3.20944357 -0.58381343 2 6 33054 3.73200000 3055391211 3055391211 -9.00000000
-2.37874794 4.21471453 -0.59423494 2 8 33056 4.87600000 3055391215 3055391215 -7.00000000
-3.37062860 5.97458553 -0.60015446 4 10 33057 6.88600000 3055391220 3055391220 -5.00000000
-5.70413303 10.11907578 -0.60877186 4 12 33059 11.63200000 3055391225 3055391225 -3.00000000
-4.72295046 8.38188744 2.22116661 56 13 33060 9.87400000 3055391227 3055391227 13.00000000
-4.06907129 7.22438574 2.22170258 42 15 33061 8.58400000 3055391232 3055391232 15.00000000
-1.05541050 1.87995052 -0.57768410 4 0 33069 2.23200000 3055391252 3055391252 -15.00000000
-1.22700346 2.18738890 -0.57902402 4 2 33071 2.57400000 3055391257 3055391257 -13.00000000
-1.46332121 2.60974193 -0.58158582 2 4 33072 3.04800000 3055391261 3055391261 -11.00000000
-1.80550706 3.22264528 -0.58506489 2 6 33074 3.74000000 3055391266 3055391266 -9.00000000
-2.34850669 4.19527769 -0.59033507 2 8 33076 4.84400000 3055391271 3055391271 -7.00000000
-3.34975290 5.98631477 -0.60015446 4 10 33077 6.88600000 3055391275 3055391275 -5.00000000
-5.67072535 10.14241123 -0.60898119 4 12 33079 11.63600000 3055391280 3055391280 -3.00000000
-4.68986082 8.39151764 2.21936703 59 13 33080 9.86600000 3055391282 3055391282 13.00000000
-4.01713419 7.19371080 2.20772648 24 15 33082 8.53000000 3055391287 3055391287 15.00000000
-1.04884183 1.88362312 -0.57768410 4 0 33089 2.23200000 3055391308 3055391308 -15.00000000
-1.22599268 2.20357895 -0.58217335 4 2 33091 2.58800000 3055391312 3055391312 -13.00000000
-1.45420265 2.61483407 -0.58158582 2 4 33092 3.04800000 3055391317 3055391317 -11.00000000
-1.80767977 3.25310183 -0.58944505 2 6 33094 3.76800000 3055391321 3055391321 -9.00000000
-2.34926581 4.23121881 -0.59423494 2 8 33096 4.87600000 3055391326 3055391326 -7.00000000
-3.31143332 5.96661377 -0.59701681 4 10 33097 6.85000000 3055391331 3055391331 -5.00000000
-5.65175343 10.19183731 -0.61076063 4 12 33099 11.67000000 3055391335 3055391335 -3.00000000
-4.66054058 8.40783691 2.21936703 57 13 33100 9.86600000 3055391338 3055391338 13.00000000
-3.94737911 7.12419224 2.18236208 15 15 33101 8.43200000 3055391342 3055391342 15.00000000
-1.03478897 1.87374389 -0.57354301 4 0 33109 2.21600000 3055391363 3055391363 -15.00000000
-1.21546876 2.20272636 -0.58082360 4 2 33111 2.58200000 3055391367 3055391367 -13.00000000
-1.44316983 2.61645603 -0.58082259 2 4 33112 3.04400000 3055391372 3055391372 -11.00000000
-1.79726684 3.26112223 -0.58975792 2 6 33114 3.77000000 3055391377 3055391377 -9.00000000
-2.33831191 4.24634886 -0.59520990 2 8 33116 4.88400000 3055391381 3055391381 -7.00000000
-3.33478045 6.05842686 -0.60503519 4 10 33117 6.94200000 3055391386 3055391386 -5.00000000
-5.63443041 10.24475479 -0.61274940 4 12 33119 11.70800000 3055391390 3055391390 -3.00000000
-4.63491821 8.43088531 2.22116661 60 13 33120 9.87400000 3055391393 3055391393 13.00000000
-3.88682795 7.07596350 2.16320968 15 15 33122 8.35800000 3055391397 3055391397 15.00000000
-1.02731407 1.87565029 -0.57302535 4 0 33129 2.21400000 3055391418 3055391418 -15.00000000
-1.21057904 2.21208429 -0.58217335 3 2 33131 2.58800000 3055391423 3055391423 -13.00000000
-1.43968117 2.63181186 -0.58311230 2 4 33132 3.05600000 3055391427 3055391427 -11.00000000
-1.78208280 3.26044250 -0.58850646 2 6 33134 3.76200000 3055391432 3055391432 -9.00000000
-2.31966925 4.24751616 -0.59423494 2 8 33136 4.87600000 3055391437 3055391437 -7.00000000
-3.29451919 6.03505468 -0.60154891 4 10 33137 6.90200000 3055391441 3055391441 -5.00000000
-5.60246038 10.27137375 -0.61316806 4 12 33139 11.71600000 3055391446 3055391446 -3.00000000
-4.60732651 8.45043468 2.22206640 60 13 33140 9.87800000 3055391448 3055391448 13.00000000
-3.84947491 7.06336927 2.15544510 15 15 33141 8.32800000 3055391453 3055391453 15.00000000
-1.02998149 1.89620066 -0.57820177 4 0 33149 2.23400000 3055391473 3055391473 -15.00000000
-1.19913173 2.20944548 -0.58037370 3 2 33151 2.58000000 3055391478 3055391478 -13.00000000
-1.43048561 2.63682127 -0.58311230 2 4 33152 3.05600000 3055391483 3055391483 -11.00000000
-1.76598406 3.25796008 -0.58694214 2 6 33154 3.75200000 3055391487 3055391487 -9.00000000
-2.30482864 4.25558758 -0.59423494 2 8 33156 4.87600000 3055391492 3055391492 -7.00000000
-3.27343273 6.04651785 -0.60154891 4 10 33157 6.90200000 3055391496 3055391496 -5.00000000
-5.55897045 10.27681351 -0.61233068 4 12 33159 11.70000000 3055391501 3055391501 -3.00000000
-4.57223988 8.45618057 2.21936703 56 13 33160 9.86600000 3055391503 3055391503 13.00000000
-3.81896925 7.06893253 2.15285683 18 15 33162 8.31800000 3055391508 3055391508 15.00000000
-1.02610469 1.90488672 -0.57975465 4 0 33169 2.24000000 3055391529 3055391529 -15.00000000
-1.18864131 2.20846987 -0.57902402 4 2 33171 2.57400000 3055391533 3055391533 -13.00000000
-1.42499328 2.64871430 -0.58463877 2 4 33172 3.06400000 3055391538 3055391538 -11.00000000
-1.75273037 3.26062465 -0.58631635 2 6 33174 3.74800000 3055391543 3055391543 -9.00000000
-2.28995991 4.26360703 -0.59423494 2 8 33176 4.87600000 3055391547 3055391547 -7.00000000
-3.28434896 6.11759138 -0.60747552 4 10 33177 6.97000000 3055391552 3055391552 -5.00000000
-5.54572248 10.33839607 -0.61484283 4 12 33179 11.74800000 3055391556 3055391556 -3.00000000
-4.54085255 8.46865463 2.21846724 56 13 33180 9.86200000 3055391559 3055391559 13.00000000
-3.79185629 7.07474709 2.15078616 20 15 33181 8.31000000 3055391563 3055391563 15.00000000
-1.01580834 1.90164101 -0.57768410 4 0 33189 2.23200000 3055391584 3055391584 -15.00000000
-1.18643057 2.22292066 -0.58172345 4 2 33191 2.58600000 3055391589 3055391589 -13.00000000
-1.40834606 2.63981509 -0.58158582 2 4 33192 3.04800000 3055391593 3055391593 -11.00000000
-1.74412560 3.27195263 -0.58725500 2 6 33194 3.75400000 3055391598 3055391598 -9.00000000
-2.28066206 4.28208685 -0.59569734 2 8 33196 4.88800000 3055391602 3055391602 -7.00000000
-3.25922942 6.12198400 -0.60677826 4 10 33197 6.96200000 3055391607 3055391607 -5.00000000
-5.50772524 10.35416412 -0.61463344 4 12 33199 11.74400000 3055391612 3055391612 -3.00000000
-4.51309347 8.48789406 2.21936703 62 13 33200 9.86600000 3055391614 3055391614 13.00000000
-3.75683713 7.07153702 2.14560986 20 15 33202 8.29000000 3055391619 3055391619 15.00000000
-1.00587833 1.89817119 -0.57561356 4 0 33208 2.22400000 3055391639 3055391639 -15.00000000
-1.17996442 2.22856498 -0.58217335 3 2 33210 2.58800000 3055391644 3055391644 -13.00000000
-1.39591086 2.63752985 -0.58005935 2 4 33211 3.04000000 3055391649 3055391649 -11.00000000
-1.73234236 3.27597213 -0.58694214 2 6 33213 3.75200000 3055391653 3055391653 -9.00000000
-2.26088548 4.27909517 -0.59423494 2 8 33215 4.87600000 3055391658 3055391658 -7.00000000
-3.22588396 6.10809326 -0.60433793 4 10 33216 6.93400000 3055391662 3055391662 -5.00000000
-5.51250792 10.44656086 -0.61902970 4 12 33218 11.82800000 3055391667 3055391667 -3.00000000
-4.48855829 8.50970840 2.22116661 59 13 33219 9.87400000 3055391669 3055391669 13.00000000
-3.72198892 7.05938005 2.13836288 20 15 33220 8.26200000 3055391674 3055391674 15.00000000
-1.00284076 1.90851128 -0.57768410 4 0 33228 2.23200000 3055391695 3055391695 -15.00000000
-1.16855466 2.22576880 -0.58037370 3 2 33230 2.58000000 3055391699 3055391699 -13.00000000
-1.39216948 2.65281701 -0.58234906 2 4 33231 3.05200000 3055391704 3055391704 -11.00000000
-1.72181380 3.28374863 -0.58725500 2 6 33233 3.75400000 3055391708 3055391708 -9.00000000
-2.24961972 4.29399490 -0.59520990 2 8 33235 4.88400000 3055391713 3055391713 -7.00000000
-3.21193743 6.13343668 -0.60573244 4 10 33236 6.95000000 3055391718 3055391718 -5.00000000
-5.47600889 10.46574020 -0.61902970 4 12 33238 11.82800000 3055391722 3055391722 -3.00000000
-4.45702028 8.52187061 2.22026682 62 13 33239 9.87000000 3055391725 3055391725 13.00000000
-3.69463921 7.06719303 2.13681006 20 15 33240 8.25600000 3055391729 3055391729 15.00000000
-0.99795800 1.91542673 -0.57871938 4 0 33248 2.23600000 3055391750 3055391750 -15.00000000
-1.15897858 2.22637701 -0.57947391 3 2 33250 2.57600000 3055391755 3055391755 -13.00000000
-1.38471341 2.66114354 -0.58311230 2 4 33251 3.05600000 3055391759 3055391759 -11.00000000
-1.71307456 3.29499674 -0.58819360 2 6 33253 3.76000000 3055391764 3055391764 -9.00000000
-3.98424387 7.66999578 -1.06123829 6 8 33255 8.70800000 3055391768 3055391768 -7.00000000
-3.21437955 6.19058514 -0.61026454 4 10 33256 7.00200000 3055391773 3055391773 -5.00000000
-5.42840624 10.46351624 -0.61777365 4 12 33258 11.80400000 3055391778 3055391778 -3.00000000
-4.42186356 8.52699661 2.21756744 60 13 33259 9.85800000 3055391780 3055391780 13.00000000
-3.99024463 7.69796228 -0.15134726 2 14 33260 8.67200000 3055391782 3055391782 -1.00000000
-3.66550255 7.07147121 2.13422179 20 15 33260 8.24600000 3055391784 3055391784 15.00000000
-0.99215251 1.92061496 -0.57923704 4 0 33268 2.23800000 3055391805 3055391805 -15.00000000
-1.15656269 2.24079919 -0.58217335 3 2 33270 2.58800000 3055391810 3055391810 -13.00000000
-1.37901640 2.67293978 -0.58463877 2 4 33271 3.06400000 3055391814 3055391814 -11.00000000
-1.69432175 3.28690982 -0.58569062 2 6 33273 3.74400000 3055391819 3055391819 -9.00000000
-3.92290735 7.61679506 -1.05197620 9 8 33275 8.63200000 3055391824 3055391824 -7.00000000
-3.91957808 7.61359549 -0.74919075 4 10 33276 8.59600000 3055391828 3055391828 -5.00000000
-3.92558026 7.63179922 -0.44977522 8 12 33278 8.59400000 3055391833 3055391833 -3.00000000
-4.38850784 8.53544807 2.21576786 59 13 33279 9.85000000 3055391835 3055391835 13.00000000
-3.94689655 7.67983007 -0.15071899 68 14 33280 8.63600000 3055391837 3055391837 -1.00000000
-3.64044237 7.08657694 2.13473940 18 15 33281 8.24800000 3055391840 3055391840 15.00000000
-0.98510641 1.92423856 -0.57923704 4 0 33289 2.23800000 3055391861 3055391861 -15.00000000
-1.14479220 2.23808336 -0.58037370 3 2 33291 2.58000000 3055391865 3055391865 -13.00000000
-1.36027288 2.66049600 -0.58082259 2 4 33292 3.04400000 3055391870 3055391870 -11.00000000
-3.91988897 7.67333984 -1.36473429 2 6 33294 8.72400000 3055391874 3055391874 -9.00000000
-3.88684201 7.61520910 -1.04978251 11 8 33296 8.61400000 3055391879 3055391879 -7.00000000
-3.89074111 7.62613535 -0.74901646 8 10 33297 8.59400000 3055391884 3055391884 -5.00000000
-5.00807142 9.82041740 2.14278507 9 11 33298 11.23000000 3055391886 3055391886 11.00000000
-3.89032555 7.63190079 -0.44893783 17 12 33299 8.57800000 3055391888 3055391888 -3.00000000
-4.35719442 8.55147552 2.21576786 59 13 33300 9.85000000 3055391890 3055391890 13.00000000
-3.88060570 7.61940479 -0.14925298 96 14 33301 8.55200000 3055391893 3055391893 -1.00000000
-3.60516262 7.07858372 2.12852788 15 15 33301 8.22400000 3055391895 3055391895 15.00000000
-0.96789151 1.90699339 -0.57302535 4 0 33309 2.21400000 3055391916 3055391916 -15.00000000
-1.14226115 2.25249410 -0.58307314 3 2 33311 2.59200000 3055391920 3055391920 -13.00000000
-1.35630357 2.67573476 -0.58311230 2 4 33312 3.05600000 3055391925 3055391925 -11.00000000
-3.87880015 7.65878010 -1.35972834 4 6 33314 8.69200000 3055391930 3055391930 -9.00000000
-3.86830258 7.64467144 -1.05197620 22 8 33316 8.63200000 3055391934 3055391934 -7.00000000
-3.84791064 7.60766792 -0.74587888 8 10 33317 8.55800000 3055391939 3055391939 -5.00000000
-4.96224546 9.81506157 2.13782406 12 11 33318 11.20400000 3055391941 3055391941 11.00000000
-3.85465312 7.62760830 -0.44789112 25 12 33319 8.55800000 3055391943 3055391943 -3.00000000
-4.32731771 8.56663227 2.21576786 60 13 33320 9.85000000 3055391946 3055391946 13.00000000
-3.84587359 7.61683846 -0.14893883 58 14 33321 8.53400000 3055391948 3055391948 -1.00000000
-3.56911230 7.06870651 2.12179852 11 15 33321 8.19800000 3055391950 3055391950 15.00000000
-0.96677411 1.92054594 -0.57613117 4 0 33328 2.22600000 3055391972 3055391972 -15.00000000
-1.13303411 2.25278759 -0.58217335 3 2 33330 2.58800000 3055391977 3055391977 -13.00000000
-1.34742308 2.68021774 -0.58311230 2 4 33331 3.05600000 3055391981 3055391981 -11.00000000
-1.66512895 3.31506348 -0.58756787 2 6 33333 3.75600000 3055391986 3055391986 -9.00000000
-3.81908822 7.61326265 -0.74518162 13 10 33336 8.55000000 3055391995 3055391995 -5.00000000
-4.91471052 9.80162907 2.13133645 12 11 33337 11.17000000 3055391997 3055391997 11.00000000
-3.82038879 7.62249327 -0.44684440 42 12 33338 8.53800000 3055392000 3055392000 -3.00000000
-4.30063152 8.58442020 2.21666765 59 13 33339 9.85400000 3055392002 3055392002 13.00000000
-3.81880331 7.62597418 -0.14886902 100 14 33340 8.53000000 3055392004 3055392004 -1.00000000
-3.54651690 7.08223057 2.12231612 9 15 33340 8.20000000 3055392007 3055392007 15.00000000
-0.96092683 1.92563748 -0.57664883 4 0 33348 2.22800000 3055392027 3055392027 -15.00000000
-1.12168539 2.24975300 -0.58037370 3 2 33350 2.58000000 3055392032 3055392032 -13.00000000
-1.34331334 2.69544768 -0.58540201 2 4 33351 3.06800000 3055392037 3055392037 -11.00000000
-1.66235185 3.33853865 -0.59069651 2 6 33353 3.77600000 3055392041 3055392041 -9.00000000
-3.81087255 7.66016102 -1.05051374 109 8 33355 8.62000000 3055392046 3055392046 -7.00000000
-3.80047393 7.64260340 -0.74675041 13 10 33356 8.56800000 3055392050 3055392050 -5.00000000
-4.87347603 9.80465984 2.12828350 18 11 33357 11.15400000 3055392053 3055392053 11.00000000
-3.78309393 7.61431837 -0.44558832 55 12 33358 8.51400000 3055392055 3055392055 -3.00000000
-4.26543951 8.58890724 2.21396828 57 13 33359 9.84200000 3055392057 3055392057 13.00000000
-3.51280737 7.07960701 2.11765742 6 15 33361 8.18200000 3055392062 3055392062 15.00000000
-0.96156883 1.94473207 -0.58130759 4 0 33369 2.24600000 3055392083 3055392083 -15.00000000
-1.11688459 2.26083755 -0.58217335 3 2 33371 2.58800000 3055392087 3055392087 -13.00000000
-1.32994795 2.69331169 -0.58387554 2 4 33372 3.06000000 3055392092 3055392092 -11.00000000
-1.65010440 3.34460902 -0.59069651 2 6 33374 3.77600000 3055392096 3055392096 -9.00000000
-3.79067016 7.69010210 -1.05270743 40 8 33376 8.63800000 3055392101 3055392101 -7.00000000
-3.77860093 7.66899204 -0.74797058 8 10 33377 8.58200000 3055392106 3055392106 -5.00000000
-4.83143568 9.81012726 2.12561226 21 11 33378 11.14000000 3055392108 3055392108 11.00000000
-3.77280307 7.66397142 -0.44768175 21 12 33379 8.55400000 3055392110 3055392110 -3.00000000
-4.23048925 8.59748936 2.21216869 57 13 33380 9.83400000 3055392113 3055392113 13.00000000
-3.78355217 7.69258213 -0.14963694 181 14 33381 8.57400000 3055392115 3055392115 -1.00000000
-3.48722100 7.09009218 2.11713982 2 15 33381 8.18000000 3055392117 3055392117 15.00000000
-0.94882321 1.93593383 -0.57768410 4 0 33389 2.23200000 3055392138 3055392138 -15.00000000
-1.11241412 2.27172327 -0.58397293 3 2 33391 2.59600000 3055392142 3055392142 -13.00000000
-1.31881225 2.69441104 -0.58311230 2 4 33392 3.05600000 3055392147 3055392147 -11.00000000
-1.64189065 3.35744667 -0.59194803 2 6 33394 3.78400000 3055392152 3055392152 -9.00000000
-3.78036118 7.73717499 -1.05733848 13 8 33396 8.67600000 3055392156 3055392156 -7.00000000
-3.75443125 7.68750620 -0.74849349 8 10 33397 8.58800000 3055392161 3055392161 -5.00000000
-4.78941107 9.81105423 2.12217760 21 11 33398 11.12200000 3055392163 3055392163 11.00000000
-3.75478625 7.69504356 -0.44872850 17 12 33399 8.57400000 3055392166 3055392166 -3.00000000
-4.20045280 8.61220455 2.21216869 57 13 33400 9.83400000 3055392168 3055392168 13.00000000
-3.92636824 8.05381489 2.40080547 45 15 33401 9.27600000 3055392172 3055392172 15.00000000
-0.94239819 1.93906951 -0.57768410 4 0 33408 2.23200000 3055392193 3055392193 -15.00000000
-1.10827959 2.28241158 -0.58577257 3 2 33410 2.60400000 3055392198 3055392198 -13.00000000
-1.31158447 2.70230198 -0.58387554 2 4 33411 3.06000000 3055392202 3055392202 -11.00000000
-1.63074791 3.36287308 -0.59194803 2 6 33413 3.78400000 3055392207 3055392207 -9.00000000
-3.76247287 7.76574707 -1.05953205 9 8 33415 8.69400000 3055392212 3055392212 -7.00000000
-3.73499656 7.71246624 -0.74971372 13 10 33416 8.60200000 3055392216 3055392216 -5.00000000
-4.74059772 9.79330730 2.11492682 18 11 33417 11.08400000 3055392219 3055392219 11.00000000
-3.74838567 7.74700594 -0.45103127 38 12 33418 8.61800000 3055392221 3055392221 -3.00000000
-4.17187071 8.62608624 2.21216869 55 13 33419 9.83400000 3055392223 3055392223 13.00000000
-3.74502826 7.74696350 -0.15019540 48 14 33420 8.60600000 3055392225 3055392225 -1.00000000
-3.91756272 8.10747910 2.41271114 42 15 33421 9.32200000 3055392228 3055392228 15.00000000
-0.93394709 1.93886638 -0.57664883 4 0 33428 2.22800000 3055392248 3055392248 -15.00000000
-1.09523511 2.27573061 -0.58307314 3 2 33430 2.59200000 3055392253 3055392253 -13.00000000
-1.30725014 2.71747875 -0.58616525 2 4 33431 3.07200000 3055392258 3055392258 -11.00000000
-1.62071085 3.37210560 -0.59257376 2 6 33433 3.78800000 3055392262 3055392262 -9.00000000
-2.12416983 4.42357397 -0.60252202 2 8 33435 4.94400000 3055392267 3055392267 -7.00000000
-3.71753597 7.74521494 -0.75163114 17 10 33436 8.62400000 3055392272 3055392272 -5.00000000
-4.69619322 9.78855515 2.11034751 18 11 33437 11.06000000 3055392274 3055392274 11.00000000
-3.71959352 7.75644112 -0.45082194 46 12 33438 8.61400000 3055392276 3055392276 -3.00000000
-4.14173460 8.64059639 2.21216869 56 13 33439 9.83400000 3055392278 3055392278 13.00000000
-3.91760898 8.18034458 2.43031073 45 15 33441 9.39000000 3055392283 3055392283 15.00000000
-0.93050265 1.94908822 -0.57871938 4 0 33448 2.23600000 3055392304 3055392304 -15.00000000
-1.08728468 2.27953982 -0.58307314 3 2 33450 2.59200000 3055392308 3055392308 -13.00000000
-1.30113602 2.72911406 -0.58769172 2 4 33451 3.08000000 3055392313 3055392313 -11.00000000
-1.59873629 3.35634184 -0.58881932 2 6 33453 3.76400000 3055392318 3055392318 -9.00000000
-2.10189152 4.41662216 -0.60057211 2 8 33455 4.92800000 3055392322 3055392322 -7.00000000
-3.71016216 7.79952574 -0.75564027 4 10 33456 8.67000000 3055392327 3055392327 -5.00000000
-4.65356541 9.78715801 2.10653138 21 11 33457 11.04000000 3055392329 3055392329 11.00000000
-3.71135688 7.80906343 -0.45312470 12 12 33458 8.65800000 3055392331 3055392331 -3.00000000
-4.10987568 8.65148067 2.21126890 57 13 33459 9.83000000 3055392334 3055392334 13.00000000
-3.91470861 8.24807262 2.44635773 42 15 33461 9.45200000 3055392338 3055392338 15.00000000
-0.92699820 1.95930946 -0.58078992 4 0 33468 2.24400000 3055392359 3055392359 -15.00000000
-1.07765543 2.27979755 -0.58217335 3 2 33470 2.58800000 3055392364 3055392364 -13.00000000
-1.28656948 2.72298861 -0.58540201 2 4 33471 3.06800000 3055392368 3055392368 -11.00000000
-1.59038377 3.36904740 -0.59007078 2 6 33473 3.77200000 3055392373 3055392373 -9.00000000
-2.09154248 4.43470478 -0.60203457 2 8 33475 4.94000000 3055392378 3055392378 -7.00000000
-3.00325298 6.37068892 -0.61619109 4 10 33476 7.07000000 3055392382 3055392382 -5.00000000
-4.61937380 9.80334187 2.10653138 18 11 33477 11.04000000 3055392384 3055392384 11.00000000
-4.07633114 8.65872097 2.20946932 59 13 33479 9.82200000 3055392389 3055392389 13.00000000
-3.91138291 8.31587887 2.46240449 47 15 33481 9.51400000 3055392394 3055392394 15.00000000
-0.92015326 1.96253335 -0.58078992 4 0 33488 2.24400000 3055392414 3055392414 -15.00000000
-1.07465076 2.29413366 -0.58487272 3 2 33490 2.60000000 3055392419 3055392419 -13.00000000
-1.27872157 2.73101902 -0.58616525 2 4 33491 3.07200000 3055392424 3055392424 -11.00000000
-1.59033215 3.39962816 -0.59445095 2 6 33493 3.80000000 3055392428 3055392428 -9.00000000
-2.06932569 4.42759132 -0.60008466 2 8 33495 4.92400000 3055392433 3055392433 -7.00000000
-2.98942971 6.39918470 -0.61793423 4 10 33496 7.09000000 3055392437 3055392437 -5.00000000
-4.57848024 9.80517578 2.10347843 21 11 33497 11.02400000 3055392440 3055392440 11.00000000
-4.04443359 8.66936588 2.20856953 56 13 33499 9.81800000 3055392444 3055392444 13.00000000
-3.91154385 8.38833332 2.48000407 47 15 33500 9.58200000 3055392449 3055392449 15.00000000
-0.90841323 1.95522130 -0.57768410 4 0 33508 2.23200000 3055392470 3055392470 -15.00000000
-1.06499517 2.29433584 -0.58397293 3 2 33510 2.59600000 3055392474 3055392474 -13.00000000
-1.26257050 2.72121882 -0.58311230 2 4 33511 3.05600000 3055392479 3055392479 -11.00000000
-1.57014787 3.38723683 -0.59132230 2 6 33513 3.78000000 3055392483 3055392483 -9.00000000
-2.04551554 4.41677475 -0.59764725 2 8 33515 4.90400000 3055392488 3055392488 -7.00000000
-2.95033455 6.37341976 -0.61444801 4 10 33516 7.05000000 3055392493 3055392493 -5.00000000
-4.53433275 9.79971695 2.09889889 21 11 33517 11.00000000 3055392495 3055392495 11.00000000
-4.01414728 8.68343067 2.20856953 59 13 33519 9.81800000 3055392500 3055392500 13.00000000
-3.90183306 8.44821262 2.49346256 47 15 33521 9.63400000 3055392504 3055392504 15.00000000
-0.90077484 1.95662558 -0.57716650 4 0 33528 2.23000000 3055392525 3055392525 -15.00000000
-1.05209410 2.28741670 -0.58127350 3 2 33530 2.58400000 3055392530 3055392530 -13.00000000
-1.26618505 2.75414991 -0.58921820 2 4 33531 3.08800000 3055392534 3055392534 -11.00000000
-1.55831456 3.39269710 -0.59132230 2 6 33533 3.78000000 3055392539 3055392539 -9.00000000
-2.04333258 4.45275497 -0.60154706 2 8 33535 4.93600000 3055392543 3055392543 -7.00000000
-2.94966626 6.43076468 -0.61898011 4 10 33536 7.10200000 3055392548 3055392548 -5.00000000
-4.49355221 9.80120754 2.09584594 21 11 33537 10.98400000 3055392550 3055392550 11.00000000
-3.98543525 8.70093346 2.20946932 57 13 33539 9.82200000 3055392555 3055392555 13.00000000
-3.88746762 8.49096584 2.50226259 45 15 33540 9.66800000 3055392560 3055392560 15.00000000
-0.89874989 1.97030377 -0.58027232 4 0 33548 2.24200000 3055392580 3055392580 -15.00000000
-1.04975998 2.30348825 -0.58442283 3 2 33550 2.59800000 3055392585 3055392585 -13.00000000
-1.25168049 2.74783301 -0.58692849 2 4 33551 3.07600000 3055392589 3055392589 -11.00000000
-1.54155302 3.38732839 -0.58944505 2 6 33553 3.76800000 3055392594 3055392594 -9.00000000
-2.05571246 4.52130127 -0.60983419 2 8 33555 5.00400000 3055392599 3055392599 -7.00000000
-2.92720079 6.44102192 -0.61898011 4 10 33556 7.10200000 3055392603 3055392603 -5.00000000
-4.45038080 9.79717159 2.09164810 15 11 33557 10.96200000 3055392606 3055392606 11.00000000
-3.95020700 8.70414448 2.20676994 57 13 33559 9.81000000 3055392610 3055392610 13.00000000
-3.85951161 8.51219463 2.50433302 42 15 33561 9.67600000 3055392615 3055392615 15.00000000
-0.89504915 1.98047066 -0.58234286 4 0 33568 2.25000000 3055392636 3055392636 -15.00000000
-1.04171300 2.30713844 -0.58442283 3 2 33570 2.59800000 3055392640 3055392640 -13.00000000
-1.23885083 2.74502778 -0.58540201 2 4 33571 3.06800000 3055392645 3055392645 -11.00000000
-1.53621519 3.40709496 -0.59194803 2 6 33573 3.78400000 3055392649 3055392649 -9.00000000
-2.01545835 4.47415161 -0.60252202 2 8 33575 4.94400000 3055392654 3055392654 -7.00000000
-2.93251133 6.51296902 -0.62490666 4 10 33576 7.17000000 3055392659 3055392659 -5.00000000
-4.41051531 9.80011368 2.08897686 18 11 33577 10.94800000 3055392661 3055392661 11.00000000
-4.84732389 10.77572346 -0.61923903 4 12 33578 11.83200000 3055392663 3055392663 -3.00000000
-3.92619300 8.73209858 2.21036911 60 13 33579 9.82600000 3055392666 3055392666 13.00000000
-4.81832123 10.72125053 -0.20517050 2 14 33580 11.75600000 3055392668 3055392668 -1.00000000
-3.83601451 8.53551960 2.50743890 45 15 33580 9.68800000 3055392670 3055392670 15.00000000
-0.88497275 1.97653008 -0.58027232 4 0 33588 2.24200000 3055392691 3055392691 -15.00000000
-4.81127644 10.75070953 0.20558935 3 1 33589 11.78000000 3055392693 3055392693 1.00000000
-1.03842759 2.32143402 -0.58712226 3 2 33590 2.61000000 3055392695 3055392695 -13.00000000
-4.80085135 10.73746490 0.61641288 2 3 33591 11.77800000 3055392698 3055392698 3.00000000
-1.22765863 2.74575090 -0.58463877 2 4 33591 3.06400000 3055392700 3055392700 -11.00000000
-1.52431285 3.41243672 -0.59194803 2 6 33593 3.78400000 3055392705 3055392705 -9.00000000
-4.78599691 10.72432804 -1.44195807 2 8 33595 11.83200000 3055392709 3055392709 -7.00000000
-2.89352608 6.48677444 -0.62142044 4 10 33596 7.13000000 3055392714 3055392714 -5.00000000
-4.39626598 9.86027718 2.09851742 18 11 33597 10.99800000 3055392716 3055392716 11.00000000
-4.78772926 10.74332237 -0.61641288 8 12 33598 11.77800000 3055392718 3055392718 -3.00000000
-3.91154695 8.78135300 2.21936703 64 13 33599 9.86600000 3055392721 3055392721 13.00000000
-4.77924109 10.73435116 -0.20510069 8 14 33600 11.75200000 3055392723 3055392723 -1.00000000
-3.79999185 8.53893185 2.50433302 42 15 33601 9.67600000 3055392725 3055392725 15.00000000
-0.87650144 1.97607529 -0.57923704 4 0 33608 2.23800000 3055392746 3055392746 -15.00000000
-4.76075268 10.73818874 0.20503087 13 1 33609 11.74800000 3055392748 3055392748 1.00000000
-1.03189695 2.32860780 -0.58802205 3 2 33610 2.61400000 3055392751 3055392751 -13.00000000
-4.76334143 10.75415707 0.61641288 15 3 33611 11.77800000 3055392753 3055392753 3.00000000
-1.21965683 2.75360966 -0.58540201 2 4 33611 3.06800000 3055392755 3055392755 -11.00000000
-4.75146818 10.73240948 1.02686894 12 5 33612 11.78200000 3055392758 3055392758 5.00000000
-1.50919449 3.41051102 -0.59069651 2 6 33613 3.77600000 3055392760 3055392760 -9.00000000
-4.76164913 10.76555634 1.44537044 19 7 33614 11.86000000 3055392762 3055392762 7.00000000
-4.74532223 10.73370647 -1.44098306 2 8 33615 11.82400000 3055392765 3055392765 -7.00000000
-4.75883865 10.76428127 1.86407304 9 9 33615 11.91600000 3055392767 3055392767 9.00000000
-2.88374996 6.52599335 -0.62420940 4 10 33616 7.16200000 3055392769 3055392769 -5.00000000
-4.50063086 10.18984318 2.16530037 31 11 33617 11.34800000 3055392771 3055392771 11.00000000
-4.74697256 10.75266075 -0.61599422 8 12 33618 11.77000000 3055392774 3055392774 -3.00000000
-3.90447187 8.84844017 2.23286414 64 13 33619 9.92600000 3055392776 3055392776 13.00000000
-4.72963762 10.72352409 -0.20457710 8 14 33620 11.72200000 3055392778 3055392778 -1.00000000
-3.77009559 8.54795074 2.50329781 40 15 33620 9.67200000 3055392781 3055392781 15.00000000
-0.86959827 1.97912288 -0.57923704 4 0 33628 2.23800000 3055392801 3055392801 -15.00000000
-4.71198320 10.72910881 0.20454220 16 1 33629 11.72000000 3055392804 3055392804 1.00000000
-1.02219570 2.32862687 -0.58712226 3 2 33630 2.61000000 3055392806 3055392806 -13.00000000
-4.71855068 10.75425816 0.61547083 18 3 33631 11.76000000 3055392808 3055392808 3.00000000
-1.21319282 2.76504135 -0.58692849 2 4 33631 3.07600000 3055392811 3055392811 -11.00000000
-4.70597410 10.73068333 1.02512586 17 5 33632 11.76200000 3055392813 3055392813 5.00000000
-1.50679708 3.43746853 -0.59445095 2 6 33633 3.80000000 3055392815 3055392815 -9.00000000
-4.71288824 10.75665665 1.44195807 19 7 33634 11.83200000 3055392818 3055392818 7.00000000
-4.69667721 10.72474861 -1.43757081 2 8 33635 11.79600000 3055392820 3055392820 -7.00000000
-4.70984840 10.75993538 1.86031866 12 9 33636 11.89200000 3055392822 3055392822 9.00000000
-2.86894178 6.55427170 -0.62595254 4 10 33636 7.18200000 3055392824 3055392824 -5.00000000
-4.51697159 10.32420158 2.19048738 34 11 33637 11.48000000 3055392827 3055392827 11.00000000
-4.69660616 10.73988628 -0.61431944 8 12 33638 11.73800000 3055392829 3055392829 -3.00000000
-3.90790296 8.94058228 2.25265980 60 13 33639 10.01400000 3055392831 3055392831 13.00000000
-4.68577194 10.72530842 -0.20429787 8 14 33640 11.70600000 3055392834 3055392834 -1.00000000
-3.73951340 8.56348228 2.50381541 40 15 33641 9.67400000 3055392836 3055392836 15.00000000
-0.86491954 1.98538721 -0.58027232 4 0 33646 2.24200000 3055392857 3055392857 -15.00000000
-4.67106819 10.72735786 0.20422806 20 1 33647 11.70200000 3055392859 3055392859 1.00000000
-1.01020908 2.32110572 -0.58442283 3 2 33648 2.59800000 3055392861 3055392861 -13.00000000
-4.67677498 10.75071430 0.61442411 23 3 33649 11.74000000 3055392864 3055392864 3.00000000
-1.20763278 2.77604032 -0.58845496 2 4 33649 3.08400000 3055392866 3055392866 -11.00000000
-4.66906166 10.73810673 1.02442861 17 5 33650 11.75400000 3055392868 3055392868 5.00000000
-1.48496747 3.41682196 -0.59007078 2 6 33651 3.77200000 3055392871 3055392871 -9.00000000
-4.66879034 10.74773979 1.43878949 19 7 33652 11.80600000 3055392873 3055392873 7.00000000
-4.67244864 10.76130104 -1.44049561 2 8 33653 11.82000000 3055392875 3055392875 -7.00000000
-4.67082167 10.75755501 1.85750282 15 9 33653 11.87400000 3055392877 3055392877 9.00000000
-4.65204573 10.71943092 -1.02233684 4 10 33654 11.73000000 3055392880 3055392880 -5.00000000
-4.48607731 10.34194279 2.19125056 43 11 33655 11.48400000 3055392882 3055392882 11.00000000
-4.64854193 10.72160339 -0.61243534 8 12 33656 11.70200000 3055392884 3055392884 -3.00000000
-3.90149236 9.00288105 2.26525712 59 13 33657 10.07000000 3055392887 3055392887 13.00000000
-4.64728546 10.72896671 -0.20408843 8 14 33658 11.69400000 3055392889 3055392889 -1.00000000
-3.71792793 8.58340263 2.50640368 42 15 33658 9.68400000 3055392891 3055392891 15.00000000
-0.86410695 2.00258446 -0.58441341 4 0 33666 2.25800000 3055392912 3055392912 -15.00000000
-4.62884283 10.73258114 0.20401864 16 1 33667 11.69000000 3055392914 3055392914 1.00000000
