# .PCD v0.7 - Point Cloud Data file format
VERSION 0.7
FIELDS x y z intensity laser_id azimuth distance_m adjustedtime timestamp vertical_angle
SIZE 4 4 4 1 1 2 8 8 4 8
TYPE F F F U U U F U U F
COUNT 1 1 1 1 1 1 1 1 1 1
WIDTH 526
HEIGHT 1
VIEWPOINT 0 0 0 1 0 0 0
POINTS 526
DATA ascii
-4.12635279 2.97164249 0.26649469 10 3 30576 5.09200000 3056284568 3056284568 3.00000000
-2.27817011 1.64065158 -0.54571372 3 4 30576 2.86000000 3056284570 3056284570 -11.00000000
-4.13355684 2.97792625 0.44571447 10 5 30577 5.11400000 3056284573 3056284573 5.00000000
-2.78204393 2.00499749 -0.54314047 1 6 30578 3.47200000 3056284575 3056284575 -9.00000000
-4.12865305 2.97658348 0.62494600 9 7 30579 5.12800000 3056284577 3056284577 7.00000000
-3.64190269 2.62662315 -0.55133688 40 8 30580 4.52400000 3056284580 3056284580 -7.00000000
-4.12234879 2.97313166 0.80501175 74 9 30580 5.14600000 3056284582 3056284582 9.00000000
-3.82771540 2.76165104 -0.41294390 11 10 30581 4.73800000 3056284584 3056284584 -5.00000000
-4.11512232 2.97010422 0.98648250 21 11 30582 5.17000000 3056284586 3056284586 11.00000000
-4.15024710 2.99655724 -0.26827410 10 12 30583 5.12600000 3056284589 3056284589 -3.00000000
-4.09630823 2.95870018 1.16659617 65 13 30584 5.18600000 3056284591 3056284591 13.00000000
-4.13643265 2.98878002 -0.08907709 8 14 30585 5.10400000 3056284593 3056284593 -1.00000000
-4.09161377 2.95639610 1.35258830 38 15 30585 5.22600000 3056284596 3056284596 15.00000000
-1.66440129 1.20615423 -0.55076694 4 0 30593 2.12800000 3056284616 3056284616 -15.00000000
-4.13982773 3.00114250 0.08925161 9 1 30594 5.11400000 3056284619 3056284619 1.00000000
-1.93093693 1.40033495 -0.55068016 3 2 30595 2.44800000 3056284621 3056284621 -13.00000000
-4.13212109 2.99775624 0.26754141 10 3 30596 5.11200000 3056284623 3056284623 3.00000000
-2.27560759 1.65089953 -0.54647696 3 4 30596 2.86400000 3056284626 3056284626 -11.00000000
-4.12636137 2.99467731 0.44606310 10 5 30597 5.11800000 3056284628 3056284628 5.00000000
-2.77822518 2.01701736 -0.54376620 1 6 30598 3.47600000 3056284630 3056284630 -9.00000000
-4.13269329 3.00147557 0.62713963 9 7 30599 5.14600000 3056284633 3056284633 7.00000000
-3.64234757 2.64632058 -0.55279934 28 8 30600 4.53600000 3056284635 3056284635 -7.00000000
-4.10822821 2.98589826 0.80438602 76 9 30601 5.14200000 3056284637 3056284637 9.00000000
-4.16133833 3.02449918 -0.45007226 12 10 30601 5.16400000 3056284639 3056284639 -5.00000000
-4.12219667 2.99715042 0.99068028 23 11 30602 5.19200000 3056284642 3056284642 11.00000000
-4.15429878 3.02159929 -0.26921615 10 12 30603 5.14400000 3056284644 3056284644 -3.00000000
-4.10171318 2.98444653 1.17109513 62 13 30604 5.20600000 3056284646 3056284646 13.00000000
-4.13890886 3.01261520 -0.08935632 8 14 30605 5.12000000 3056284649 3056284649 -1.00000000
-4.09012079 2.97819567 1.35569417 65 15 30606 5.23800000 3056284651 3056284651 15.00000000
-1.65706027 1.20967865 -0.54973167 4 0 30613 2.12400000 3056284672 3056284672 -15.00000000
-4.13417149 3.01911283 0.08935632 9 1 30614 5.12000000 3056284674 3056284674 1.00000000
-1.93233132 1.41166484 -0.55247980 3 2 30615 2.45600000 3056284676 3056284676 -13.00000000
-4.13936949 3.02512503 0.26869279 12 3 30616 5.13400000 3056284679 3056284679 3.00000000
-2.26983094 1.65883291 -0.54647696 3 4 30616 2.86400000 3056284681 3056284681 -11.00000000
-4.11909962 3.01141453 0.44641173 10 5 30617 5.12200000 3056284683 3056284683 5.00000000
-2.76957297 2.02553678 -0.54345334 1 6 30618 3.47400000 3056284686 3056284686 -9.00000000
-4.13340569 3.02408814 0.62884581 9 7 30619 5.16000000 3056284688 3056284688 7.00000000
-3.69235802 2.70239758 -0.56181765 38 8 30620 4.61000000 3056284690 3056284690 -7.00000000
-4.12062073 3.01583838 0.80876619 74 9 30620 5.17000000 3056284692 3056284692 9.00000000
-4.15397072 3.04136038 -0.45042089 12 10 30621 5.16800000 3056284695 3056284695 -5.00000000
-4.12121296 3.01848149 0.99296999 94 11 30622 5.20400000 3056284697 3056284697 11.00000000
-4.15983677 3.04788637 -0.27026287 10 12 30623 5.16400000 3056284699 3056284699 -3.00000000
-4.10070133 3.00565815 1.17379463 62 13 30624 5.21800000 3056284702 3056284702 13.00000000
-4.13481808 3.03177404 -0.08949594 8 14 30625 5.12800000 3056284704 3056284704 -1.00000000
-4.09424353 3.00202370 1.36035287 17 15 30625 5.25600000 3056284706 3056284706 15.00000000
-1.65594029 1.21774447 -0.55076694 4 0 30633 2.12800000 3056284727 3056284727 -15.00000000
-4.12521839 3.03471041 0.08939122 9 1 30634 5.12200000 3056284729 3056284729 1.00000000
-1.93053102 1.42071140 -0.55337960 3 2 30635 2.46000000 3056284732 3056284732 -13.00000000
-4.13360977 3.04310775 0.26900682 10 3 30636 5.14000000 3056284734 3056284734 3.00000000
-2.26402664 1.66674590 -0.54647696 2 4 30636 2.86400000 3056284736 3056284736 -11.00000000
-4.12941837 3.04113388 0.44867778 10 5 30637 5.14800000 3056284739 3056284739 5.00000000
-2.77838945 2.04690886 -0.54658204 1 6 30638 3.49400000 3056284741 3056284741 -9.00000000
-4.12602043 3.04085326 0.62933332 9 7 30639 5.16400000 3056284743 3056284743 7.00000000
-3.67970681 2.71291399 -0.56133020 46 8 30640 4.60600000 3056284745 3056284745 -7.00000000
-4.11748838 3.03678370 0.81033051 69 9 30641 5.18000000 3056284748 3056284748 9.00000000
-4.15936375 3.06766796 -0.45216399 12 10 30641 5.18800000 3056284750 3056284750 -5.00000000
-4.09643316 3.02235866 0.98953545 63 11 30642 5.18600000 3056284752 3056284752 11.00000000
-4.15560007 3.06713247 -0.27068156 10 12 30643 5.17200000 3056284755 3056284755 -3.00000000
-4.10272598 3.02921391 1.17739379 60 13 30644 5.23400000 3056284757 3056284757 13.00000000
-4.14512062 3.06163359 -0.08994970 8 14 30645 5.15400000 3056284759 3056284759 -1.00000000
-4.09253550 3.02389765 1.36345875 14 15 30646 5.26800000 3056284762 3056284762 15.00000000
-1.65767443 1.22840643 -0.55283749 4 0 30654 2.13600000 3056284782 3056284782 -15.00000000
-4.13334513 3.06410003 0.08981008 9 1 30655 5.14600000 3056284785 3056284785 1.00000000
-1.91591907 1.42081285 -0.55068016 3 2 30656 2.44800000 3056284787 3056284787 -13.00000000
-4.13526106 3.06775761 0.26984420 8 3 30657 5.15600000 3056284789 3056284789 3.00000000
-2.26420951 1.67971170 -0.54800344 3 4 30657 2.87200000 3056284792 3056284792 -11.00000000
-4.13904381 3.07168412 0.45094383 12 5 30658 5.17400000 3056284794 3056284794 5.00000000
-2.76611042 2.05354595 -0.54564339 3 6 30659 3.48800000 3056284796 3056284796 -9.00000000
-4.12440968 3.06305695 0.63079572 9 7 30660 5.17600000 3056284798 3056284798 7.00000000
-3.66336489 2.72164702 -0.56035525 36 8 30661 4.59800000 3056284801 3056284801 -7.00000000
-4.11796236 3.05938411 0.81252062 74 9 30661 5.19400000 3056284803 3056284803 9.00000000
-4.15129042 3.08526921 -0.45251262 12 10 30662 5.19200000 3056284805 3056284805 -5.00000000
-4.10580969 3.05258036 0.99449646 63 11 30663 5.21200000 3056284808 3056284808 11.00000000
-4.14753580 3.08472681 -0.27089092 10 12 30664 5.17600000 3056284810 3056284810 -3.00000000
-4.09472275 3.04655743 1.17829359 62 13 30665 5.23800000 3056284812 3056284812 13.00000000
-4.14830875 3.08755112 -0.09026384 12 14 30666 5.17200000 3056284815 3056284815 -1.00000000
-4.09435272 3.04739237 1.36759984 23 15 30666 5.28400000 3056284817 3056284817 15.00000000
-1.65647256 1.23649645 -0.55387276 4 0 30674 2.14000000 3056284838 3056284838 -15.00000000
-4.13223791 3.08568835 0.09001951 9 1 30675 5.15800000 3056284840 3056284840 1.00000000
-1.91094792 1.42749202 -0.55068016 3 2 30676 2.44800000 3056284842 3056284842 -13.00000000
-4.12452745 3.08217382 0.26984420 10 3 30677 5.15600000 3056284845 3056284845 3.00000000
-2.25518703 1.68525457 -0.54724020 3 4 30677 2.86800000 3056284847 3056284847 -11.00000000
-4.12989187 3.08730626 0.45111811 12 5 30678 5.17600000 3056284849 3056284849 5.00000000
-2.74626970 2.05372477 -0.54314047 1 6 30679 3.47200000 3056284851 3056284851 -9.00000000
-4.11687136 3.07981348 0.63128322 9 7 30680 5.18000000 3056284854 3056284854 7.00000000
-3.61093068 2.70230436 -0.55377430 12 8 30681 4.54400000 3056284856 3056284856 -7.00000000
-4.11358452 3.07847404 0.81377208 74 9 30681 5.20200000 3056284858 3056284858 9.00000000
-4.14846992 3.10571122 -0.45338416 9 10 30682 5.20200000 3056284861 3056284861 -5.00000000
-4.10770082 3.07630849 0.99754941 57 11 30683 5.22800000 3056284863 3056284863 11.00000000
-4.14793205 3.10756826 -0.27162361 10 12 30684 5.19000000 3056284865 3056284865 -3.00000000
-4.09030104 3.06550694 1.18009329 65 13 30685 5.24600000 3056284868 3056284868 13.00000000
-4.13270569 3.09841394 -0.09015913 14 14 30686 5.16600000 3056284870 3056284870 -1.00000000
-4.09141922 3.06746006 1.37018800 53 15 30686 5.29400000 3056284872 3056284872 15.00000000
-1.64927459 1.23966134 -0.55283749 4 0 30693 2.13600000 3056284893 3056284893 -15.00000000
-4.13476896 3.10898852 0.09029875 9 1 30694 5.17400000 3056284895 3056284895 1.00000000
-1.90931833 1.43616402 -0.55158001 3 2 30695 2.45200000 3056284898 3056284898 -13.00000000
-4.12385941 3.10303950 0.27047223 8 3 30696 5.16800000 3056284900 3056284900 3.00000000
-2.24958634 1.69272375 -0.54724020 3 4 30696 2.86800000 3056284902 3056284902 -11.00000000
-4.13236618 3.11057019 0.45251262 10 5 30697 5.19200000 3056284904 3056284904 5.00000000
-2.75364637 2.07351470 -0.54595625 1 6 30698 3.49000000 3056284907 3056284907 -9.00000000
-4.12249136 3.10539222 0.63372058 9 7 30699 5.20000000 3056284909 3056284909 7.00000000
-3.57341313 2.69275999 -0.54938698 14 8 30700 4.50800000 3056284911 3056284911 -7.00000000
-4.10281324 3.09281445 0.81377208 76 9 30701 5.20200000 3056284914 3056284914 9.00000000
-3.98223209 3.00191689 -0.43630165 9 10 30701 5.00600000 3056284916 3056284916 -5.00000000
-4.11158419 3.10055184 1.00098395 52 11 30702 5.24600000 3056284918 3056284918 11.00000000
-4.15354872 3.13333440 -0.27267033 10 12 30703 5.21000000 3056284921 3056284921 -3.00000000
-4.08944607 3.08609724 1.18279266 65 13 30704 5.25800000 3056284923 3056284923 13.00000000
-4.12719631 3.11571598 -0.09026384 14 14 30705 5.17200000 3056284925 3056284925 -1.00000000
-4.08276606 3.08217478 1.37070560 36 15 30705 5.29600000 3056284927 3056284927 15.00000000
-1.63569605 1.23841405 -0.54973167 4 0 30713 2.12400000 3056284948 3056284948 -15.00000000
-4.12867355 3.12702465 0.09040347 9 1 30714 5.18000000 3056284951 3056284951 1.00000000
-1.92137945 1.45576537 -0.55652893 4 2 30715 2.47400000 3056284953 3056284953 -13.00000000
-4.12732792 3.12827325 0.27141428 8 3 30716 5.18600000 3056284955 3056284955 3.00000000
-2.24053454 1.69819427 -0.54647696 3 4 30716 2.86400000 3056284957 3056284957 -11.00000000
-4.12307072 3.12617970 0.45268694 10 5 30717 5.19400000 3056284960 3056284960 5.00000000
-2.75111318 2.08669543 -0.54689491 1 6 30718 3.49600000 3056284962 3056284962 -9.00000000
-4.12744045 3.13176274 0.63615799 9 7 30719 5.22000000 3056284964 3056284964 7.00000000
-3.57980371 2.71721888 -0.55182439 16 8 30720 4.52800000 3056284967 3056284967 -7.00000000
-4.10772467 3.11906290 0.81690079 78 9 30721 5.22200000 3056284969 3056284969 9.00000000
-4.10819292 3.11941838 -0.45129243 6 10 30721 5.17800000 3056284971 3056284971 -5.00000000
-4.10542631 3.11844754 1.00212884 15 11 30722 5.25200000 3056284974 3056284974 11.00000000
-4.14894676 3.15264750 -0.27308902 10 12 30723 5.21800000 3056284976 3056284976 -3.00000000
-4.09106016 3.10978746 1.18639183 63 13 30724 5.27400000 3056284978 3056284978 13.00000000
-4.13221312 3.14220762 -0.09061290 14 14 30725 5.19200000 3056284980 3056284980 -1.00000000
-4.07605457 3.10062695 1.37225854 17 15 30726 5.30200000 3056284983 3056284983 15.00000000
-1.63882565 1.25025964 -0.55231982 4 0 30734 2.13400000 3056285004 3056285004 -15.00000000
-4.12036371 3.14456224 0.09047327 9 1 30735 5.18400000 3056285006 3056285006 1.00000000
-1.90054154 1.45097244 -0.55202991 4 2 30736 2.45400000 3056285008 3056285008 -13.00000000
-4.13329458 3.15671444 0.27256566 8 3 30737 5.20800000 3056285010 3056285010 3.00000000
-2.23897624 1.70996964 -0.54762185 3 4 30737 2.87000000 3056285013 3056285013 -11.00000000
-4.12583399 3.15215659 0.45425573 10 5 30738 5.21200000 3056285015 3056285015 5.00000000
-2.74344659 2.09676480 -0.54689491 3 6 30739 3.49600000 3056285017 3056285017 -9.00000000
-4.11908817 3.14928079 0.63664544 9 7 30740 5.22400000 3056285020 3056285020 7.00000000
-3.55089927 2.71584964 -0.54889953 16 8 30741 4.50400000 3056285022 3056285022 -7.00000000
-4.11352253 3.14730144 0.82034236 81 9 30742 5.24400000 3056285024 3056285024 9.00000000
-4.14420271 3.17077518 -0.45652178 9 10 30742 5.23800000 3056285027 3056285027 -5.00000000
-4.10176420 3.13944006 1.00403690 49 11 30743 5.26200000 3056285029 3056285029 11.00000000
-4.14212132 3.17147541 -0.27340305 10 12 30744 5.22400000 3056285031 3056285031 -3.00000000
-4.09510517 3.13661075 1.19089091 67 13 30745 5.29400000 3056285033 3056285033 13.00000000
-4.13177967 3.16584563 -0.09085723 10 14 30746 5.20600000 3056285036 3056285036 -1.00000000
-4.08360815 3.12893581 1.37847018 17 15 30746 5.32600000 3056285038 3056285038 15.00000000
-1.63904691 1.25950396 -0.55387276 4 0 30754 2.14000000 3056285059 3056285059 -15.00000000
-4.12204552 3.16867566 0.09075251 9 1 30755 5.20000000 3056285061 3056285061 1.00000000
-1.89700985 1.45878565 -0.55247980 3 2 30756 2.45600000 3056285063 3056285063 -13.00000000
-4.11591816 3.16625214 0.27214697 8 3 30757 5.20000000 3056285066 3056285066 3.00000000
-2.24077415 1.72376001 -0.54952991 3 4 30757 2.88000000 3056285068 3056285068 -11.00000000
-4.13217402 3.17990541 0.45617315 15 5 30758 5.23400000 3056285070 3056285070 5.00000000
-2.73298025 2.10391831 -0.54626918 3 6 30759 3.49200000 3056285073 3056285073 -9.00000000
-4.11121559 3.16606236 0.63713294 9 7 30760 5.22800000 3056285075 3056285075 7.00000000
-3.53196216 2.72095919 -0.54743707 10 8 30761 4.49200000 3056285077 3056285077 -7.00000000
-4.10720539 3.16525841 0.82128096 78 9 30762 5.25000000 3056285080 3056285080 9.00000000
-4.14889097 3.19738364 -0.45826489 13 10 30762 5.25800000 3056285082 3056285082 -5.00000000
-4.10477400 3.16452694 1.00747144 70 11 30763 5.28000000 3056285084 3056285084 11.00000000
-4.13102579 3.18591499 -0.27340305 10 12 30764 5.22400000 3056285086 3056285086 -3.00000000
-4.08721733 3.15326691 1.19179070 65 13 30765 5.29800000 3056285089 3056285089 13.00000000
-4.13653421 3.19246650 -0.09120627 10 14 30766 5.22600000 3056285091 3056285091 -1.00000000
-4.09254313 3.15851521 1.38519955 23 15 30766 5.35200000 3056285093 3056285093 15.00000000
-1.63180542 1.26256788 -0.55283749 4 0 30773 2.13600000 3056285114 3056285114 -15.00000000
-4.12258434 3.19089532 0.09099685 11 1 30774 5.21400000 3056285116 3056285116 1.00000000
-1.89216197 1.46506834 -0.55247980 3 2 30775 2.45600000 3056285119 3056285119 -13.00000000
-4.11858463 3.18894911 0.27298436 8 3 30775 5.21600000 3056285121 3056285121 3.00000000
-2.24125409 1.73599005 -0.55105639 3 4 30776 2.88800000 3056285123 3056285123 -11.00000000
-4.11845684 3.19114995 0.45582452 10 5 30777 5.23000000 3056285126 3056285126 5.00000000
-2.74472380 2.12749195 -0.55002356 3 6 30778 3.51600000 3056285128 3056285128 -9.00000000
-4.11795044 3.19305873 0.63981408 9 7 30779 5.25000000 3056285130 3056285130 7.00000000
-3.48527503 2.70345640 -0.54158735 8 8 30780 4.44400000 3056285132 3056285132 -7.00000000
-4.10972786 3.18783188 0.82378387 74 9 30780 5.26600000 3056285135 3056285135 9.00000000
-4.15400600 3.22333860 -0.46000800 9 10 30781 5.27800000 3056285137 3056285137 -5.00000000
-4.10046101 3.18293667 1.00899792 70 11 30782 5.28800000 3056285139 3056285139 11.00000000
-4.13621330 3.21184587 -0.27444977 10 12 30783 5.24400000 3056285142 3056285142 -3.00000000
-4.08135509 3.17038989 1.19314039 69 13 30784 5.30400000 3056285144 3056285144 13.00000000
-4.13066196 3.20984721 -0.09131099 8 14 30785 5.23200000 3056285146 3056285146 -1.00000000
-4.08357191 3.17325473 1.38571715 46 15 30785 5.35400000 3056285149 3056285149 15.00000000
-1.63043582 1.27063131 -0.55387276 4 0 30793 2.14000000 3056285169 3056285169 -15.00000000
-4.13192320 3.22124958 0.09145061 11 1 30794 5.24000000 3056285172 3056285172 1.00000000
-1.88396299 1.46926749 -0.55158001 3 2 30795 2.45200000 3056285174 3056285174 -13.00000000
-4.11631727 3.21139407 0.27361238 8 3 30796 5.22800000 3056285176 3056285176 3.00000000
-2.21660566 1.72931147 -0.54647696 3 4 30796 2.86400000 3056285179 3056285179 -11.00000000
-4.12142849 3.21653891 0.45739335 10 5 30797 5.24800000 3056285181 3056285181 5.00000000
-2.74817991 2.14556909 -0.55221367 1 6 30798 3.53000000 3056285183 3056285183 -9.00000000
-4.11929512 3.21718860 0.64176399 9 7 30799 5.26600000 3056285185 3056285185 7.00000000
-3.45704579 2.70094013 -0.53866249 8 8 30800 4.42000000 3056285188 3056285188 -7.00000000
-4.10112906 3.20530629 0.82440960 76 9 30801 5.27000000 3056285190 3056285190 9.00000000
-4.14586878 3.24027300 -0.46035662 13 10 30801 5.28200000 3056285192 3056285192 -5.00000000
-4.10479212 3.20932317 1.01281416 70 11 30802 5.30800000 3056285195 3056285195 11.00000000
-4.13913536 3.23733854 -0.27539179 10 12 30803 5.26200000 3056285197 3056285197 -3.00000000
-4.08561134 3.19662547 1.19763947 69 13 30804 5.32400000 3056285199 3056285199 13.00000000
-4.12100697 3.22547889 -0.09134590 12 14 30805 5.23400000 3056285202 3056285202 -1.00000000
-4.08408260 3.19772792 1.38985825 63 15 30806 5.37000000 3056285204 3056285204 15.00000000
-1.62295139 1.27392924 -0.55283749 4 0 30813 2.13600000 3056285225 3056285225 -15.00000000
-4.11750793 3.23318315 0.09138080 9 1 30814 5.23600000 3056285227 3056285227 1.00000000
-1.89568019 1.48907638 -0.55652893 4 2 30815 2.47400000 3056285229 3056285229 -13.00000000
-4.12763405 3.24229932 0.27507779 8 3 30815 5.25600000 3056285232 3056285232 3.00000000
-2.21364307 1.73946440 -0.54724020 3 4 30816 2.86800000 3056285234 3056285234 -11.00000000
-4.10547638 3.22721195 0.45687041 10 5 30817 5.24200000 3056285236 3056285236 5.00000000
-2.71272349 2.13317013 -0.54658204 1 6 30818 3.49400000 3056285238 3056285238 -9.00000000
-4.12520218 3.24504852 0.64444506 9 7 30819 5.28800000 3056285241 3056285241 7.00000000
-3.44759655 2.71299100 -0.53866249 12 8 30820 4.42000000 3056285243 3056285243 -7.00000000
-4.10698938 3.23304272 0.82785118 81 9 30821 5.29200000 3056285245 3056285245 9.00000000
-4.13453293 3.25472498 -0.46035662 13 10 30821 5.28200000 3056285248 3056285248 -5.00000000
-4.10590363 3.23334885 1.01586711 73 11 30822 5.32400000 3056285250 3056285250 11.00000000
-4.14349890 3.26412654 -0.27643853 11 12 30823 5.28200000 3056285252 3056285252 -3.00000000
-4.09126472 3.22413540 1.20258832 67 13 30824 5.34600000 3056285255 3056285255 13.00000000
-4.12385654 3.25098610 -0.09166004 8 14 30825 5.25200000 3056285257 3056285257 -1.00000000
-4.07800722 3.21484184 1.39141119 68 15 30825 5.37600000 3056285259 3056285259 15.00000000
-1.62455642 1.28437901 -0.55490804 4 0 30833 2.14400000 3056285280 3056285280 -15.00000000
-4.11874485 3.25745988 0.09166004 9 1 30834 5.25200000 3056285282 3056285282 1.00000000
-1.88588595 1.49205709 -0.55517918 3 2 30835 2.46800000 3056285284 3056285284 -13.00000000
-4.12725544 3.26536226 0.27581048 8 3 30835 5.27000000 3056285287 3056285287 3.00000000
-2.22141266 1.75814641 -0.55067474 3 4 30836 2.88600000 3056285289 3056285289 -11.00000000
-4.11136913 3.25512743 0.45878783 10 5 30837 5.26400000 3056285291 3056285291 5.00000000
-2.70680952 2.14385271 -0.54689491 1 6 30838 3.49600000 3056285294 3056285294 -9.00000000
-4.12162971 3.26559210 0.64566380 9 7 30839 5.29800000 3056285296 3056285296 7.00000000
-3.44743967 2.73240709 -0.54012495 10 8 30840 4.43200000 3056285298 3056285298 -7.00000000
-4.11115742 3.25963187 0.83097988 81 9 30841 5.31200000 3056285301 3056285301 9.00000000
-4.14188099 3.28399158 -0.46244836 9 10 30841 5.30600000 3056285303 3056285303 -5.00000000
-4.09459209 3.24766159 1.01586711 68 11 30842 5.32400000 3056285305 3056285305 11.00000000
-4.13677359 3.28229451 -0.27675253 11 12 30843 5.28800000 3056285308 3056285308 -3.00000000
-4.09830189 3.25293517 1.20798719 65 13 30844 5.37000000 3056285310 3056285310 13.00000000
-4.12814379 3.27779603 -0.09200909 8 14 30845 5.27200000 3056285312 3056285312 -1.00000000
-4.08189011 3.24106979 1.39658761 68 15 30845 5.39600000 3056285314 3056285314 15.00000000
-1.62006319 1.29004204 -0.55490804 4 0 30853 2.14400000 3056285335 3056285335 -15.00000000
-4.12611818 3.28676844 0.09207889 11 1 30854 5.27600000 3056285337 3056285337 1.00000000
-1.86542583 1.48648643 -0.55068016 3 2 30855 2.44800000 3056285340 3056285340 -13.00000000
-4.12463045 3.28793716 0.27643853 8 3 30856 5.28200000 3056285342 3056285342 3.00000000
-2.21679735 1.76711357 -0.55105639 3 4 30856 2.88800000 3056285344 3056285344 -11.00000000
-4.11711645 3.28312302 0.46070525 10 5 30857 5.28600000 3056285347 3056285347 5.00000000
-2.72864985 2.17669344 -0.55283940 1 6 30858 3.53400000 3056285349 3056285349 -9.00000000
-4.11486006 3.28367400 0.64639497 16 7 30859 5.30400000 3056285351 3056285351 7.00000000
-3.43322659 2.74070883 -0.53939372 10 8 30860 4.42600000 3056285354 3056285354 -7.00000000
-4.11113214 3.28187370 0.83316994 78 9 30860 5.32600000 3056285356 3056285356 9.00000000
-4.15218878 3.31583524 -0.46488872 13 10 30861 5.33400000 3056285358 3056285358 -5.00000000
-4.09396791 3.27051210 1.01853848 79 11 30862 5.33800000 3056285361 3056285361 11.00000000
-4.12217045 3.29422069 -0.27654320 11 12 30863 5.28400000 3056285363 3056285363 -3.00000000
-4.09301090 3.27208853 1.20978677 65 13 30864 5.37800000 3056285365 3056285365 13.00000000
-4.12292385 3.29718184 -0.09214871 8 14 30865 5.28000000 3056285367 3056285367 -1.00000000
-4.08205128 3.26566362 1.40072870 68 15 30866 5.41200000 3056285370 3056285370 15.00000000
-1.61555028 1.29568923 -0.55490804 4 0 30873 2.14400000 3056285390 3056285390 -15.00000000
-4.12865782 3.31241369 0.09239304 16 1 30874 5.29400000 3056285393 3056285393 1.00000000
-1.86934435 1.50030744 -0.55337960 3 2 30875 2.46000000 3056285395 3056285395 -13.00000000
-4.11370420 3.30159688 0.27643853 10 3 30875 5.28200000 3056285397 3056285397 3.00000000
-2.21367717 1.77729917 -0.55181962 3 4 30876 2.89200000 3056285400 3056285400 -11.00000000
-4.11805868 3.30745554 0.46209976 10 5 30877 5.30200000 3056285402 3056285402 5.00000000
-2.71641541 2.18249321 -0.55190080 1 6 30878 3.52800000 3056285404 3056285404 -9.00000000
-4.11420393 3.30672264 0.64810115 26 7 30879 5.31800000 3056285407 3056285407 7.00000000
-3.41435647 2.74521327 -0.53793126 8 8 30880 4.41400000 3056285409 3056285409 -7.00000000
-4.11139011 3.30682421 0.83567291 72 9 30881 5.34200000 3056285411 3056285411 9.00000000
-4.16232443 3.34779096 -0.46732908 13 10 30881 5.36200000 3056285414 3056285414 -5.00000000
-4.09935236 3.29832077 1.02273619 71 11 30882 5.36000000 3056285416 3056285416 11.00000000
-4.13554049 3.32862663 -0.27821794 11 12 30883 5.31600000 3056285418 3056285418 -3.00000000
-4.09067106 3.29368877 1.21248615 65 13 30884 5.39000000 3056285420 3056285420 13.00000000
-4.11917591 3.31782532 -0.09232323 6 14 30885 5.29000000 3056285423 3056285423 -1.00000000
-4.09018326 3.29564977 1.40745795 61 15 30886 5.43800000 3056285425 3056285425 15.00000000
-1.61101758 1.30132067 -0.55490804 4 0 30893 2.14400000 3056285446 3056285446 -15.00000000
-4.12018108 3.32931876 0.09246285 14 1 30894 5.29800000 3056285448 3056285448 1.00000000
-1.86409593 1.50682354 -0.55337960 4 2 30895 2.46000000 3056285450 3056285450 -13.00000000
-4.12390041 3.33351398 0.27790391 19 3 30895 5.31000000 3056285453 3056285453 3.00000000
-2.19830012 1.77760875 -0.54952991 3 4 30896 2.88000000 3056285455 3056285455 -11.00000000
-4.10958624 3.32431602 0.46244836 7 5 30897 5.30600000 3056285457 3056285457 5.00000000
-2.69803143 2.18326378 -0.54971069 1 6 30898 3.51400000 3056285460 3056285460 -9.00000000
-4.11497974 3.33105588 0.65005106 38 7 30899 5.33400000 3056285462 3056285462 7.00000000
-3.41400933 2.76461029 -0.53939372 8 8 30900 4.42600000 3056285464 3056285464 -7.00000000
-4.10040188 3.32043982 0.83567291 72 9 30900 5.34200000 3056285467 3056285467 9.00000000
-4.14596844 3.35853744 -0.46680614 13 10 30901 5.35600000 3056285469 3056285469 -5.00000000
-4.10306740 3.32497048 1.02655244 71 11 30902 5.38000000 3056285471 3056285471 11.00000000
-4.14561749 3.36065030 -0.27968335 11 12 30903 5.34400000 3056285473 3056285473 -3.00000000
-4.09125805 3.31776738 1.21608543 62 13 30904 5.40600000 3056285476 3056285476 13.00000000
-4.11688757 3.33974242 -0.09253266 8 14 30905 5.30200000 3056285478 3056285478 -1.00000000
-4.08315468 3.31355906 1.40901089 63 15 30906 5.44400000 3056285480 3056285480 15.00000000
-1.60946250 1.30937457 -0.55594331 4 0 30913 2.14800000 3056285501 3056285501 -15.00000000
-4.12249327 3.35504079 0.09277699 14 1 30914 5.31600000 3056285503 3056285503 1.00000000
-1.87091470 1.52316403 -0.55697882 3 2 30915 2.47600000 3056285506 3056285506 -13.00000000
-4.11998320 3.35419369 0.27842727 19 3 30915 5.32000000 3056285508 3056285508 3.00000000
-2.18903732 1.78279185 -0.54876667 3 4 30916 2.87600000 3056285510 3056285510 -11.00000000
-4.10568047 3.34493327 0.46331993 10 5 30917 5.31600000 3056285513 3056285513 5.00000000
-4.13129377 3.36700010 -0.84412038 4 6 30918 5.39600000 3056285515 3056285515 -9.00000000
-4.11101961 3.35167122 0.65126979 47 7 30919 5.34400000 3056285517 3056285517 7.00000000
-3.40433836 2.77651048 -0.53939372 8 8 30920 4.42600000 3056285520 3056285520 -7.00000000
-4.11021757 3.35221171 0.84005308 72 9 30920 5.37000000 3056285522 3056285522 9.00000000
-4.14656973 3.38306522 -0.46820065 13 10 30921 5.37200000 3056285524 3056285524 -5.00000000
-4.10968781 3.35416889 1.03113186 63 11 30922 5.40400000 3056285526 3056285526 11.00000000
-4.12922001 3.37131119 -0.27936932 11 12 30923 5.33800000 3056285529 3056285529 -3.00000000
-4.08568907 3.33695912 1.21788502 62 13 30924 5.41400000 3056285531 3056285531 13.00000000
-4.12378693 3.36927533 -0.09295151 8 14 30925 5.32600000 3056285533 3056285533 -1.00000000
-4.07605076 3.33145952 1.41056383 55 15 30926 5.45000000 3056285536 3056285536 15.00000000
-1.60212255 1.31225622 -0.55490804 4 0 30932 2.14400000 3056285556 3056285556 -15.00000000
-4.10670424 3.36489081 0.09267228 11 1 30933 5.31000000 3056285559 3056285559 1.00000000
-1.85982478 1.52441847 -0.55517918 3 2 30934 2.46800000 3056285561 3056285561 -13.00000000
-4.12119532 3.37796640 0.27926466 11 3 30934 5.33600000 3056285563 3056285563 3.00000000
-2.19525862 1.79999971 -0.55181962 3 4 30935 2.89200000 3056285566 3056285566 -11.00000000
-4.10842991 3.36990166 0.46488872 13 5 30936 5.33400000 3056285568 3056285568 5.00000000
-2.68463516 2.20283103 -0.55002356 3 6 30937 3.51600000 3056285570 3056285570 -9.00000000
-4.11676073 3.37913966 0.65395087 61 7 30938 5.36600000 3056285572 3056285572 7.00000000
-3.40738559 2.79786229 -0.54134363 8 8 30939 4.44200000 3056285575 3056285575 -7.00000000
-4.10976505 3.37459803 0.84224313 69 9 30939 5.38400000 3056285577 3056285577 9.00000000
-4.14302635 3.40312028 -0.46907219 13 10 30940 5.38200000 3056285579 3056285579 -5.00000000
-4.09247494 3.36279321 1.02960539 68 11 30941 5.39600000 3056285582 3056285582 11.00000000
-4.11184597 3.37991261 -0.27895066 19 12 30942 5.33000000 3056285584 3056285584 -3.00000000
-4.08965302 3.36286664 1.22238398 60 13 30943 5.43400000 3056285586 3056285586 13.00000000
-4.10641384 3.37785029 -0.09281190 21 14 30944 5.31800000 3056285589 3056285589 -1.00000000
-4.07600784 3.35283899 1.41418731 63 15 30944 5.46400000 3056285591 3056285591 15.00000000
-1.60051262 1.32029939 -0.55594331 4 0 30952 2.14800000 3056285612 3056285612 -15.00000000
-4.10110331 3.38429666 0.09281190 23 1 30953 5.31800000 3056285614 3056285614 1.00000000
-1.85148668 1.52841997 -0.55427939 4 2 30954 2.46400000 3056285616 3056285616 -13.00000000
-4.11245918 3.39487457 0.27947402 31 3 30954 5.34000000 3056285619 3056285619 3.00000000
-2.18896198 1.80765164 -0.55181962 3 4 30955 2.89200000 3056285621 3056285621 -11.00000000
-4.11046600 3.39564252 0.46645755 34 5 30956 5.35200000 3056285623 3056285623 5.00000000
-2.66779304 2.20463872 -0.54814637 3 6 30957 3.50400000 3056285625 3056285625 -9.00000000
-4.10188055 3.39095950 0.65346342 54 7 30958 5.36200000 3056285628 3056285628 7.00000000
-3.39300919 2.80594397 -0.54061240 8 8 30959 4.43600000 3056285630 3056285630 -7.00000000
-4.10709429 3.39647675 0.84412038 63 9 30959 5.39600000 3056285632 3056285632 9.00000000
-4.64847183 3.84555030 -0.52781516 3 10 30960 6.05600000 3056285635 3056285635 -5.00000000
-4.09583664 3.38957500 1.03342152 63 11 30961 5.41600000 3056285637 3056285637 11.00000000
-4.08389282 3.38209343 1.22418368 63 13 30963 5.44200000 3056285642 3056285642 13.00000000
-4.07559156 3.37761736 1.41832840 68 15 30965 5.48000000 3056285646 3056285646 15.00000000
-1.60207009 1.33053660 -0.55801386 4 0 30971 2.15600000 3056285667 3056285667 -15.00000000
-1.84940541 1.53704250 -0.55517918 3 2 30973 2.46800000 3056285672 3056285672 -13.00000000
-2.17087841 1.80485964 -0.54876667 3 4 30974 2.87600000 3056285676 3056285676 -11.00000000
-2.67261577 2.22358036 -0.55064934 3 6 30976 3.52000000 3056285681 3056285681 -9.00000000
-3.37758350 2.81209970 -0.53963745 8 8 30978 4.42800000 3056285685 3056285685 -7.00000000
-4.65712690 3.87879515 -0.53025556 3 10 30979 6.08400000 3056285690 3056285690 -5.00000000
-4.09513235 3.41193557 1.03609288 19 11 30980 5.43000000 3056285692 3056285692 11.00000000
-7.39349318 6.16221285 -0.50441396 8 12 30981 9.63800000 3056285695 3056285695 -3.00000000
-8.69312096 7.24797726 2.61303139 26 13 30982 11.61600000 3056285697 3056285697 13.00000000
-4.07979584 3.40277839 1.42350471 36 15 30983 5.50000000 3056285702 3056285702 15.00000000
-1.58704305 1.32744467 -0.55439037 4 0 30991 2.14200000 3056285722 3056285722 -15.00000000
-1.84402895 1.54348874 -0.55517918 3 2 30993 2.46800000 3056285727 3056285727 -13.00000000
-2.16757560 1.81494713 -0.54952991 3 4 30994 2.88000000 3056285731 3056285731 -11.00000000
-2.67089438 2.23797083 -0.55190080 5 6 30996 3.52800000 3056285736 3056285736 -9.00000000
-3.37231016 2.82769895 -0.54036868 8 8 30998 4.43400000 3056285741 3056285741 -7.00000000
-4.63897991 3.89118671 -0.52973258 3 10 30999 6.07800000 3056285745 3056285745 -5.00000000
-7.38723564 6.20082426 -0.50546068 8 12 31001 9.65800000 3056285750 3056285750 -3.00000000
-8.65284348 7.26574659 2.60853243 60 13 31002 11.59600000 3056285752 3056285752 13.00000000
-7.43649721 6.24881411 2.60268426 42 15 31004 10.05600000 3056285757 3056285757 15.00000000
-1.57921255 1.33076286 -0.55335510 4 0 31012 2.13800000 3056285778 3056285778 -15.00000000
-1.84431839 1.55526221 -0.55697882 3 2 31014 2.47600000 3056285782 3056285782 -13.00000000
-2.16090894 1.82287955 -0.54952991 3 4 31015 2.88000000 3056285787 3056285787 -11.00000000
-2.65965486 2.24519658 -0.55127507 3 6 31017 3.52400000 3056285791 3056285791 -9.00000000
-3.36647296 2.84388304 -0.54109991 8 8 31019 4.44000000 3056285796 3056285796 -7.00000000
-4.63229561 3.91459322 -0.53060418 3 10 31020 6.08800000 3056285801 3056285801 -5.00000000
-7.39648485 6.25494146 -0.50765878 12 12 31022 9.70000000 3056285805 3056285805 -3.00000000
-8.64252090 7.31125641 2.61348128 59 13 31023 11.61800000 3056285808 3056285808 13.00000000
-7.40874100 6.26974249 2.60061383 42 15 31024 10.04800000 3056285812 3056285812 15.00000000
-1.58044946 1.34126735 -0.55542564 4 0 31032 2.14600000 3056285833 3056285833 -15.00000000
-1.84036362 1.56295204 -0.55742872 4 2 31034 2.47800000 3056285837 3056285837 -13.00000000
-2.16650224 1.84058034 -0.55258286 3 4 31035 2.89600000 3056285842 3056285842 -11.00000000
-2.65782142 2.25958490 -0.55252653 3 6 31037 3.53200000 3056285847 3056285847 -9.00000000
-3.36408520 2.86204863 -0.54231858 8 8 31039 4.45000000 3056285851 3056285851 -7.00000000
-4.61708546 3.92944789 -0.53042984 3 10 31040 6.08600000 3056285856 3056285856 -5.00000000
-7.39285278 6.29626179 -0.50891483 12 12 31042 9.72400000 3056285860 3056285860 -3.00000000
-8.61991405 7.34390783 2.61438107 56 13 31043 11.62200000 3056285863 3056285863 13.00000000
-7.38571119 6.29685497 2.60061383 42 15 31045 10.04800000 3056285867 3056285867 15.00000000
-1.57575786 1.34677589 -0.55542564 4 0 31052 2.14600000 3056285888 3056285888 -15.00000000
-1.82749188 1.56303334 -0.55517918 4 2 31054 2.46800000 3056285893 3056285893 -13.00000000
-2.15708065 1.84557903 -0.55181962 3 4 31055 2.89200000 3056285897 3056285897 -11.00000000
-2.64991784 2.26884866 -0.55252653 3 6 31057 3.53200000 3056285902 3056285902 -9.00000000
-3.35105920 2.87119079 -0.54183108 8 8 31059 4.44600000 3056285907 3056285907 -7.00000000
-4.62149429 3.96109962 -0.53252161 3 10 31060 6.11000000 3056285911 3056285911 -5.00000000
-7.38598967 6.33503246 -0.50996155 12 12 31062 9.74400000 3056285916 3056285916 -3.00000000
-8.58535290 7.36633825 2.61168170 60 13 31063 11.61000000 3056285918 3056285918 13.00000000
-7.36332369 6.32005405 2.60009623 42 15 31064 10.04600000 3056285923 3056285923 15.00000000
-1.57690382 1.35730922 -0.55749625 4 0 31072 2.15400000 3056285943 3056285943 -15.00000000
-1.82793093 1.57449019 -0.55697882 3 2 31074 2.47600000 3056285948 3056285948 -13.00000000
-2.16549826 1.86591268 -0.55563581 3 4 31075 2.91200000 3056285953 3056285953 -11.00000000
-2.64497399 2.28066468 -0.55315226 3 6 31077 3.53600000 3056285957 3056285957 -9.00000000
-3.36205769 2.90102649 -0.54524344 18 8 31079 4.47400000 3056285962 3056285962 -7.00000000
-4.61970520 3.98762250 -0.53391606 3 10 31080 6.12600000 3056285966 3056285966 -5.00000000
-7.39557171 6.38819265 -0.51215965 12 12 31082 9.78600000 3056285971 3056285971 -3.00000000
-8.55368900 7.39116526 2.60988212 59 13 31083 11.60200000 3056285973 3056285973 13.00000000
-7.33864880 6.34573603 2.59957838 42 15 31085 10.04400000 3056285978 3056285978 15.00000000
-1.56923676 1.36027467 -0.55646098 4 0 31092 2.15000000 3056285999 3056285999 -15.00000000
-1.82536793 1.58341515 -0.55787861 3 2 31094 2.48000000 3056286003 3056286003 -13.00000000
-2.14710927 1.86316657 -0.55258286 3 4 31095 2.89600000 3056286008 3056286008 -11.00000000
-2.65489507 2.30542564 -0.55690670 3 6 31097 3.56000000 3056286013 3056286013 -9.00000000
-3.37588501 2.93357778 -0.54914325 6 8 31099 4.50600000 3056286017 3056286017 -7.00000000
-4.59673548 3.99588132 -0.53287023 3 10 31100 6.11400000 3056286022 3056286022 -5.00000000
-7.42898273 6.46247053 -0.51603252 17 12 31102 9.86000000 3056286026 3056286026 -3.00000000
-8.52489662 7.41841984 2.60898232 60 13 31103 11.59800000 3056286029 3056286029 13.00000000
-7.31465101 6.36749983 2.59854317 42 15 31104 10.04000000 3056286033 3056286033 15.00000000
-1.55574703 1.35812128 -0.55335510 4 0 31112 2.13800000 3056286054 3056286054 -15.00000000
-1.82570004 1.59490550 -0.55967820 3 2 31114 2.48800000 3056286059 3056286059 -13.00000000
-2.14650583 1.87581754 -0.55410933 2 4 31115 2.90400000 3056286063 3056286063 -11.00000000
-2.61709166 2.28867126 -0.55064934 3 6 31117 3.52000000 3056286068 3056286068 -9.00000000
-3.37309361 2.95188046 -0.55036193 2 8 31119 4.51600000 3056286072 3056286072 -7.00000000
-4.58725643 4.01583958 -0.53339314 3 10 31120 6.12000000 3056286077 3056286077 -5.00000000
-7.40788174 6.48967934 -0.51613718 12 12 31122 9.86200000 3056286082 3056286082 -3.00000000
-8.50188065 7.45070076 2.60988212 57 13 31123 11.60200000 3056286084 3056286084 13.00000000
-7.27964401 6.38407660 2.59440207 45 15 31125 10.02400000 3056286089 3056286089 15.00000000
-1.55849028 1.36964917 -0.55594331 4 0 31131 2.14800000 3056286109 3056286109 -15.00000000
-1.80576766 1.58808160 -0.55517918 3 2 31133 2.46800000 3056286114 3056286114 -13.00000000
-2.12848139 1.87255108 -0.55105639 3 4 31134 2.88800000 3056286119 3056286119 -11.00000000
-2.62727976 2.31300092 -0.55440372 3 6 31136 3.54400000 3056286123 3056286123 -9.00000000
-3.38413906 2.98142123 -0.55377430 2 8 31138 4.54400000 3056286128 3056286128 -7.00000000
-4.57391453 4.03102922 -0.53339314 3 10 31139 6.12000000 3056286132 3056286132 -5.00000000
-7.38332462 6.51156664 -0.51592785 8 12 31141 9.85800000 3056286137 3056286137 -3.00000000
-8.47274303 7.47498560 2.60853243 54 13 31142 11.59600000 3056286139 3056286139 13.00000000
-7.25955200 6.40691471 2.59440207 45 15 31143 10.02400000 3056286144 3056286144 15.00000000
-1.55514646 1.37636137 -0.55646098 4 0 31151 2.15000000 3056286165 3056286165 -15.00000000
-1.79729545 1.59179115 -0.55427939 3 2 31153 2.46400000 3056286169 3056286169 -13.00000000
-2.13956594 1.89559245 -0.55563581 2 4 31154 2.91200000 3056286174 3056286174 -11.00000000
-2.62214613 2.32477880 -0.55502951 3 6 31156 3.54800000 3056286178 3056286178 -9.00000000
-3.46577573 3.07489705 -0.56888610 8 8 31158 4.66800000 3056286183 3056286183 -7.00000000
-4.58216763 4.06680870 -0.53600782 3 10 31159 6.15000000 3056286188 3056286188 -5.00000000
-7.33367014 6.51342630 -0.51404375 8 12 31161 9.82200000 3056286192 3056286192 -3.00000000
-8.42474651 7.48510027 2.60178399 48 13 31162 11.56600000 3056286195 3056286195 13.00000000
-7.23858738 6.43349981 2.59491968 42 15 31163 10.02600000 3056286199 3056286199 15.00000000
-1.55634332 1.38665140 -0.55853152 4 0 31170 2.15800000 3056286220 3056286220 -15.00000000
-1.80800712 1.61200809 -0.55922830 4 2 31172 2.48600000 3056286225 3056286225 -13.00000000
-2.12154675 1.89222288 -0.55258286 3 4 31173 2.89600000 3056286229 3056286229 -11.00000000
-2.60852742 2.32819986 -0.55377799 5 6 31175 3.54000000 3056286234 3056286234 -9.00000000
-3.46740413 3.09695172 -0.57083601 8 8 31177 4.68400000 3056286238 3056286238 -7.00000000
-4.56568480 4.07932663 -0.53565919 3 10 31178 6.14600000 3056286243 3056286243 -5.00000000
-7.31798649 6.54303503 -0.51446247 8 12 31180 9.83000000 3056286248 3056286248 -3.00000000
-8.39261627 7.50650072 2.59953427 46 13 31181 11.55600000 3056286250 3056286250 13.00000000
-7.21145487 6.45231581 2.59284925 42 15 31182 10.01800000 3056286254 3056286254 15.00000000
-1.54717982 1.38820505 -0.55697858 4 0 31190 2.15200000 3056286275 3056286275 -15.00000000
-1.80671918 1.62221515 -0.56057805 3 2 31192 2.49200000 3056286280 3056286280 -13.00000000
-2.12369227 1.90748823 -0.55487257 2 4 31193 2.90800000 3056286284 3056286284 -11.00000000
-2.61213779 2.34785509 -0.55628097 5 6 31195 3.55600000 3056286289 3056286289 -9.00000000
-3.43886185 3.09310627 -0.56791115 10 8 31197 4.66000000 3056286294 3056286294 -7.00000000
-4.56474733 4.10723305 -0.53722799 3 10 31198 6.16400000 3056286298 3056286298 -5.00000000
-7.29658651 6.56987619 -0.51456714 12 12 31200 9.83200000 3056286303 3056286303 -3.00000000
-8.36636257 7.53575087 2.59953427 42 13 31201 11.55600000 3056286305 3056286305 13.00000000
-7.18488741 6.47611666 2.59181380 40 15 31203 10.01400000 3056286310 3056286310 15.00000000
-1.54232466 1.39359725 -0.55697858 4 0 31210 2.15200000 3056286331 3056286331 -15.00000000
-1.80393648 1.63112593 -0.56147784 3 2 31212 2.49600000 3056286335 3056286335 -13.00000000
-2.11702108 1.91488969 -0.55487257 3 4 31213 2.90800000 3056286340 3056286340 -11.00000000
-2.59513927 2.34900522 -0.55440372 5 6 31215 3.54400000 3056286344 3056286344 -9.00000000
-3.42657256 3.10375857 -0.56766742 10 8 31217 4.65800000 3056286349 3056286349 -7.00000000
-4.54890633 4.12180376 -0.53705370 3 10 31218 6.16200000 3056286354 3056286354 -5.00000000
-7.27360868 6.59530592 -0.51456714 12 12 31220 9.83200000 3056286358 3056286358 -3.00000000
-8.34000683 7.56490898 2.59953427 42 13 31221 11.55600000 3056286360 3056286360 13.00000000
-7.15335751 6.49081993 2.58819056 47 15 31222 10.00000000 3056286365 3056286365 15.00000000
-1.53745067 1.39897251 -0.55697858 4 0 31230 2.15200000 3056286386 3056286386 -15.00000000
-1.79246831 1.63216472 -0.55967820 3 2 31232 2.48800000 3056286390 3056286390 -13.00000000
-2.11612940 1.92755604 -0.55639905 3 4 31233 2.91600000 3056286395 3056286395 -11.00000000
-2.58400416 2.35538816 -0.55377799 3 6 31235 3.54000000 3056286400 3056286400 -9.00000000
-3.42011738 3.11971402 -0.56839859 12 8 31237 4.66400000 3056286404 3056286404 -7.00000000
-4.54037809 4.14302921 -0.53775096 3 10 31238 6.17000000 3056286409 3056286409 -5.00000000
-7.26971626 6.63816309 -0.51592785 8 12 31240 9.85800000 3056286413 3056286413 -3.00000000
-8.31354904 7.59397507 2.59953427 41 13 31241 11.55600000 3056286416 3056286416 13.00000000
-7.12780476 6.51314402 2.58715510 42 15 31242 9.99600000 3056286420 3056286420 15.00000000
-1.52401221 1.39649987 -0.55387276 4 0 31250 2.14000000 3056286441 3056286441 -15.00000000
-1.78532374 1.63709462 -0.55922830 4 2 31252 2.48600000 3056286446 3056286446 -13.00000000
-2.11517525 1.94023943 -0.55792552 3 4 31253 2.92400000 3056286450 3056286450 -11.00000000
-2.57867694 2.36706519 -0.55440372 5 6 31255 3.54400000 3056286455 3056286455 -9.00000000
-3.38873982 3.11283302 -0.56498629 10 8 31257 4.63600000 3056286459 3056286459 -7.00000000
-4.53175688 4.16424513 -0.53844815 3 10 31258 6.17800000 3056286464 3056286464 -5.00000000
-7.25091076 6.66755438 -0.51624185 8 12 31260 9.86400000 3056286469 3056286469 -3.00000000
-8.27264881 7.60975552 2.59503531 43 13 31261 11.53600000 3056286471 3056286471 13.00000000
-7.09933996 6.53275251 2.58508468 47 15 31262 9.98800000 3056286476 3056286476 15.00000000
-1.53332567 1.41491222 -0.55904913 4 0 31270 2.16000000 3056286496 3056286496 -15.00000000
-1.77816665 1.64199460 -0.55877841 3 2 31272 2.48400000 3056286501 3056286501 -13.00000000
-2.09685254 1.93695366 -0.55487257 3 4 31273 2.90800000 3056286506 3056286506 -11.00000000
-2.58490419 2.38946104 -0.55753243 3 6 31275 3.56400000 3056286510 3056286510 -9.00000000
-3.37202454 3.11925101 -0.56401134 10 8 31277 4.62800000 3056286515 3056286515 -7.00000000
-4.52304268 4.18545151 -0.53914541 3 10 31278 6.18600000 3056286519 3056286519 -5.00000000
-7.24957418 6.71317959 -0.51781195 4 12 31280 9.89400000 3056286524 3056286524 -3.00000000
-8.23459816 7.62799168 2.59143615 42 13 31281 11.52000000 3056286526 3056286526 13.00000000
-7.08101559 6.56398249 2.58715510 45 15 31283 9.99600000 3056286531 3056286531 15.00000000
-1.51871741 1.41078544 -0.55542564 4 0 31289 2.14600000 3056286552 3056286552 -15.00000000
-1.78127563 1.65584290 -0.56147784 3 2 31291 2.49600000 3056286556 3056286556 -13.00000000
-2.08179164 1.93587482 -0.55258286 3 4 31292 2.89600000 3056286561 3056286561 -11.00000000
-2.57118177 2.39263678 -0.55628097 3 6 31294 3.55600000 3056286565 3056286565 -9.00000000
-3.35294557 3.12229896 -0.56254888 10 8 31296 4.61600000 3056286570 3056286570 -7.00000000
-4.51642752 4.20721769 -0.54001701 7 10 31297 6.19600000 3056286575 3056286575 -5.00000000
-7.25941324 6.76714420 -0.52011472 4 12 31299 9.93800000 3056286579 3056286579 -3.00000000
-8.20925713 7.65525627 2.59143615 40 13 31300 11.52000000 3056286582 3056286582 13.00000000
-7.04905796 6.57565355 2.58301401 40 15 31301 9.98000000 3056286586 3056286586 15.00000000
-1.51237285 1.41475844 -0.55490804 4 0 31309 2.14400000 3056286607 3056286607 -15.00000000
-1.77833009 1.66471422 -0.56237763 4 2 31311 2.50000000 3056286611 3056286611 -13.00000000
-2.08648586 1.95386541 -0.55563581 3 4 31312 2.91200000 3056286616 3056286616 -11.00000000
-2.57146287 2.40970182 -0.55815816 3 6 31314 3.56800000 3056286621 3056286621 -9.00000000
-3.33913040 3.13126802 -0.56206143 10 8 31316 4.61200000 3056286625 3056286625 -7.00000000
-4.49299526 4.21477842 -0.53897113 3 10 31317 6.18400000 3056286630 3056286630 -5.00000000
-7.24739695 6.80337858 -0.52095211 4 12 31319 9.95400000 3056286635 3056286635 -3.00000000
-8.17964458 7.68119764 2.59053636 44 13 31320 11.51600000 3056286637 3056286637 13.00000000
-7.01479769 6.58963776 2.57887292 42 15 31321 9.96400000 3056286641 3056286641 15.00000000
-1.51445615 1.42665231 -0.55749625 4 0 31329 2.15400000 3056286662 3056286662 -15.00000000
-1.76683629 1.66556466 -0.56057805 3 2 31331 2.49200000 3056286667 3056286667 -13.00000000
-2.07965279 1.96113670 -0.55563581 3 4 31332 2.91200000 3056286671 3056286671 -11.00000000
-2.54292226 2.39968252 -0.55377799 3 6 31334 3.54000000 3056286676 3056286676 -9.00000000
-3.32529330 3.14017892 -0.56157392 14 8 31336 4.60800000 3056286681 3056286681 -7.00000000
-4.46811724 4.22085905 -0.53775096 3 10 31337 6.17000000 3056286685 3056286685 -5.00000000
-7.22505617 6.83000755 -0.52105677 4 12 31339 9.95600000 3056286690 3056286690 -3.00000000
-8.14995003 7.70702505 2.58963656 43 13 31340 11.51200000 3056286692 3056286692 13.00000000
-6.99340439 6.61795950 2.57990813 42 15 31342 9.96800000 3056286697 3056286697 15.00000000
-1.50526226 1.42794132 -0.55594331 4 0 31349 2.14800000 3056286717 3056286717 -15.00000000
-1.75253165 1.66367185 -0.55787861 3 2 31351 2.48000000 3056286722 3056286722 -13.00000000
-2.08703065 1.98190320 -0.55945200 3 4 31352 2.93200000 3056286727 3056286727 -11.00000000
-2.54168987 2.41534829 -0.55534238 1 6 31354 3.55000000 3056286731 3056286731 -9.00000000
-3.29992676 3.13808775 -0.55913657 14 8 31356 4.58800000 3056286736 3056286736 -7.00000000
-4.48655844 4.26801443 -0.54176009 3 10 31357 6.21600000 3056286741 3056286741 -5.00000000
-7.20695734 6.86069441 -0.52147549 4 12 31359 9.96400000 3056286745 3056286745 -3.00000000
-8.11735344 7.73005104 2.58783698 43 13 31360 11.50400000 3056286747 3056286747 13.00000000
-6.97026110 6.64233065 2.57990813 45 15 31362 9.96800000 3056286752 3056286752 15.00000000
-1.50560522 1.43878758 -0.55801386 4 0 31370 2.15600000 3056286773 3056286773 -15.00000000
-1.74923909 1.67277777 -0.55877841 3 2 31372 2.48400000 3056286777 3056286777 -13.00000000
-2.07407808 1.98411071 -0.55792552 3 4 31373 2.92400000 3056286782 3056286782 -11.00000000
-2.53424716 2.42601371 -0.55565524 1 6 31375 3.55200000 3056286787 3056286787 -9.00000000
-3.27120113 3.13368273 -0.55621171 16 8 31377 4.56400000 3056286791 3056286791 -7.00000000
-4.48095465 4.29407930 -0.54298025 3 10 31378 6.23000000 3056286796 3056286796 -5.00000000
-7.19329548 6.89812231 -0.52231282 4 12 31380 9.98000000 3056286800 3056286800 -3.00000000
-8.07490349 7.74626017 2.58333802 42 13 31381 11.48400000 3056286803 3056286803 13.00000000
-6.95004988 6.67184687 2.58146119 45 15 31383 9.97400000 3056286807 3056286807 15.00000000
-1.50196564 1.44537389 -0.55853152 4 0 31390 2.15800000 3056286828 3056286828 -15.00000000
-1.75461888 1.68968749 -0.56237763 3 2 31392 2.50000000 3056286833 3056286833 -13.00000000
-2.06148386 1.98589027 -0.55639905 3 4 31393 2.91600000 3056286837 3056286837 -11.00000000
-2.53145194 2.44032907 -0.55690670 1 6 31395 3.56000000 3056286842 3056286842 -9.00000000
-3.26309991 3.14783883 -0.55669916 16 8 31397 4.56800000 3056286847 3056286847 -7.00000000
-4.46593809 4.30969477 -0.54298025 3 10 31398 6.23000000 3056286851 3056286851 -5.00000000
-7.20652723 6.95926237 -0.52503431 4 12 31400 10.03200000 3056286856 3056286856 -3.00000000
-8.04501247 7.77169180 2.58243799 44 13 31401 11.48000000 3056286858 3056286858 13.00000000
-6.92394018 6.69338131 2.58042598 45 15 31403 9.97000000 3056286863 3056286863 15.00000000
-1.48720002 1.44119716 -0.55490804 4 0 31410 2.14400000 3056286883 3056286883 -15.00000000
-1.74871004 1.69580197 -0.56237763 3 2 31412 2.50000000 3056286888 3056286888 -13.00000000
-2.06017590 1.99854207 -0.55792552 3 4 31413 2.92400000 3056286893 3056286893 -11.00000000
-2.52150083 2.44777465 -0.55659384 1 6 31415 3.55800000 3056286897 3056286897 -9.00000000
-3.24782038 3.15506029 -0.55596793 18 8 31417 4.56200000 3056286902 3056286902 -7.00000000
-4.43515015 4.30998373 -0.54106283 3 10 31418 6.20800000 3056286906 3056286906 -5.00000000
-7.20796394 7.00943899 -0.52691841 4 12 31420 10.06800000 3056286911 3056286911 -3.00000000
-8.01504135 7.79700899 2.58153820 41 13 31421 11.47600000 3056286913 3056286913 13.00000000
-6.88786125 6.70283222 2.57524943 45 15 31422 9.95000000 3056286918 3056286918 15.00000000
-1.48907328 1.45312583 -0.55749625 4 0 31430 2.15400000 3056286939 3056286939 -15.00000000
-1.73162615 1.69100368 -0.55877841 3 2 31432 2.48400000 3056286943 3056286943 -13.00000000
-2.05599594 2.00846505 -0.55868876 3 4 31433 2.92800000 3056286948 3056286948 -11.00000000
