# .PCD v0.7 - Point Cloud Data file format
VERSION 0.7
FIELDS x y z intensity laser_id azimuth distance_m adjustedtime timestamp vertical_angle
SIZE 4 4 4 1 1 2 8 8 4 8
TYPE F F F U U U F U U F
COUNT 1 1 1 1 1 1 1 1 1 1
WIDTH 523
HEIGHT 1
VIEWPOINT 0 0 0 1 0 0 0
POINTS 523
DATA ascii
-0.79516190 2.97797728 -0.59914023 4 4 34505 3.14000000 3057095321 3057095321 -11.00000000
-0.99191153 3.72003794 -0.60978156 2 6 34507 3.89800000 3057095325 3057095325 -9.00000000
-1.31471455 4.93759251 -0.62738335 2 8 34509 5.14800000 3057095330 3057095330 -7.00000000
-2.84883213 10.71422291 2.15499687 46 11 34511 11.29400000 3057095337 3057095337 11.00000000
-2.74804330 10.34971142 2.47221208 59 13 34513 10.99000000 3057095342 3057095342 13.00000000
-2.36522555 8.91421127 2.47120428 40 15 34514 9.54800000 3057095346 3057095346 15.00000000
-0.56232053 2.13130975 -0.59062505 4 0 34522 2.28200000 3057095367 3057095367 -15.00000000
-0.65436321 2.48368478 -0.59297097 3 2 34524 2.63600000 3057095371 3057095371 -13.00000000
-0.78576165 2.98453188 -0.59990346 2 4 34525 3.14400000 3057095376 3057095376 -11.00000000
-0.97992468 3.72729850 -0.61040729 2 6 34527 3.90200000 3057095381 3057095381 -9.00000000
-1.29343867 4.92679119 -0.62543344 2 8 34529 5.13200000 3057095385 3057095385 -7.00000000
-2.80743217 10.70890999 2.15194392 43 11 34531 11.27800000 3057095392 3057095392 11.00000000
-2.71189928 10.35924053 2.47221208 57 13 34533 10.99000000 3057095397 3057095397 13.00000000
-2.32814002 8.90599918 2.46654558 40 15 34535 9.53000000 3057095401 3057095401 15.00000000
-0.55562204 2.13306594 -0.59062505 4 0 34540 2.28200000 3057095422 3057095422 -15.00000000
-0.64753836 2.48950028 -0.59387076 3 2 34542 2.64000000 3057095427 3057095427 -13.00000000
-0.77934492 2.99838638 -0.60219318 4 4 34543 3.15600000 3057095431 3057095431 -11.00000000
-0.97069156 3.73991871 -0.61197162 2 6 34545 3.91200000 3057095436 3057095436 -9.00000000
-1.27197790 4.90777111 -0.62250859 2 8 34547 5.10800000 3057095441 3057095441 -7.00000000
-2.77475929 10.72147751 2.15270710 43 11 34549 11.28200000 3057095447 3057095447 11.00000000
-2.67641592 10.35638905 2.46951270 60 13 34551 10.97800000 3057095452 3057095452 13.00000000
-2.30170536 8.91286755 2.46654558 40 15 34552 9.53000000 3057095457 3057095457 15.00000000
-0.54913372 2.13873482 -0.59166032 4 0 34560 2.28600000 3057095477 3057095477 -15.00000000
-0.63690853 2.48419476 -0.59207118 3 2 34562 2.63200000 3057095482 3057095482 -13.00000000
-0.76789933 2.99728489 -0.60142994 2 4 34563 3.15200000 3057095487 3057095487 -11.00000000
-0.95861006 3.74711180 -0.61259735 2 6 34565 3.91600000 3057095491 3057095491 -9.00000000
-1.25680411 4.91987467 -0.62348354 2 8 34567 5.11600000 3057095496 3057095496 -7.00000000
-2.73828793 10.73490334 2.15347028 43 11 34569 11.28600000 3057095503 3057095503 11.00000000
-2.63351488 10.33922958 2.46321416 60 13 34571 10.95000000 3057095507 3057095507 13.00000000
-2.26807022 8.91749954 2.46551013 40 15 34573 9.52600000 3057095512 3057095512 15.00000000
-0.54034406 2.13698721 -0.59062505 4 0 34581 2.28200000 3057095533 3057095533 -15.00000000
-0.63352388 2.50918579 -0.59746999 3 2 34583 2.65600000 3057095537 3057095537 -13.00000000
-0.75498748 2.99246478 -0.59990346 2 4 34584 3.14400000 3057095542 3057095542 -11.00000000
-0.94873029 3.76592445 -0.61510032 2 6 34586 3.93200000 3057095547 3057095547 -9.00000000
-1.24554324 4.95139980 -0.62689590 2 8 34588 5.14400000 3057095551 3057095551 -7.00000000
-2.69892406 10.74486732 2.15347028 40 11 34590 11.28600000 3057095558 3057095558 11.00000000
-2.59655023 10.35259342 2.46411395 57 13 34592 10.95400000 3057095563 3057095563 13.00000000
-2.23551941 8.91974068 2.46395731 42 15 34593 9.52000000 3057095567 3057095567 15.00000000
-0.53007913 2.12761307 -0.58751923 4 0 34601 2.27000000 3057095588 3057095588 -15.00000000
-0.62664312 2.51894617 -0.59926963 3 2 34603 2.66400000 3057095593 3057095593 -13.00000000
-0.74832624 3.01032424 -0.60295641 2 4 34604 3.16000000 3057095597 3057095597 -11.00000000
-0.92986846 3.74620676 -0.61134589 2 6 34606 3.90800000 3057095602 3057095602 -9.00000000
-1.22347653 4.93644953 -0.62445849 2 8 34608 5.12400000 3057095606 3057095606 -7.00000000
-2.66092944 10.75231647 2.15308881 43 11 34610 11.28400000 3057095613 3057095613 11.00000000
-2.56039715 10.36159420 2.46411395 57 13 34612 10.95400000 3057095618 3057095618 13.00000000
-2.19772148 8.90724277 2.45826340 38 15 34614 9.49800000 3057095623 3057095623 15.00000000
-0.52264911 2.12945032 -0.58751923 4 0 34621 2.27000000 3057095643 3057095643 -15.00000000
-0.61506343 2.50976205 -0.59657019 3 2 34623 2.65200000 3057095648 3057095648 -13.00000000
-0.73687977 3.00910401 -0.60219318 4 4 34624 3.15600000 3057095653 3057095653 -11.00000000
-0.91772443 3.75326753 -0.61197162 2 6 34626 3.91200000 3057095657 3057095657 -9.00000000
-1.21565402 4.97925901 -0.62933332 2 8 34628 5.16400000 3057095662 3057095662 -7.00000000
-2.61919594 10.74437332 2.14965415 40 11 34630 11.26600000 3057095669 3057095669 11.00000000
-2.52421284 10.37046814 2.46411395 59 13 34632 10.95400000 3057095673 3057095673 13.00000000
-2.16908503 8.91823578 2.45929861 40 15 34633 9.50200000 3057095678 3057095678 15.00000000
-0.51793635 2.14252830 -0.59062505 4 0 34641 2.28200000 3057095699 3057095699 -15.00000000
-0.60584176 2.50999928 -0.59612030 3 2 34643 2.65000000 3057095703 3057095703 -13.00000000
-0.72729218 3.01547503 -0.60295641 2 4 34644 3.16000000 3057095708 3057095708 -11.00000000
-0.90415502 3.75452757 -0.61165875 2 6 34646 3.91000000 3057095712 3057095712 -9.00000000
-1.19269681 4.96031094 -0.62640840 2 8 34648 5.14000000 3057095717 3057095717 -7.00000000
-2.58030009 10.74772358 2.14850926 43 11 34650 11.26000000 3057095724 3057095724 11.00000000
-2.48527217 10.36784554 2.46141434 56 13 34652 10.94200000 3057095729 3057095729 13.00000000
-2.13704133 8.92199516 2.45826340 40 15 34653 9.49800000 3057095733 3057095733 15.00000000
-0.51351488 2.15550971 -0.59373087 4 0 34660 2.29400000 3057095754 3057095754 -15.00000000
-0.59571117 2.50441122 -0.59432071 3 2 34662 2.64200000 3057095759 3057095759 -13.00000000
-0.71728849 3.01787019 -0.60295641 2 4 34663 3.16000000 3057095763 3057095763 -11.00000000
-0.89033127 3.75173926 -0.61072016 2 6 34665 3.90400000 3057095768 3057095768 -9.00000000
-1.17074907 4.94105959 -0.62348354 2 8 34667 5.11600000 3057095772 3057095772 -7.00000000
-2.54600120 10.76195240 2.14965415 40 11 34669 11.26600000 3057095779 3057095779 11.00000000
-2.44639778 10.35706425 2.45691538 57 13 34671 10.92200000 3057095784 3057095784 13.00000000
-2.10744333 8.92903328 2.45826340 40 15 34672 9.49800000 3057095788 3057095788 15.00000000
-0.50510532 2.15352750 -0.59269559 4 0 34680 2.29000000 3057095809 3057095809 -15.00000000
-0.59052014 2.52165461 -0.59791988 3 2 34682 2.65800000 3057095814 3057095814 -13.00000000
-0.70406592 3.00888586 -0.60066670 2 4 34683 3.14800000 3057095818 3057095818 -11.00000000
-0.87902743 3.76251841 -0.61197162 2 6 34685 3.91200000 3057095823 3057095823 -9.00000000
-1.15980756 4.97218084 -0.62689590 2 8 34687 5.14400000 3057095828 3057095828 -7.00000000
-2.50574756 10.75930119 2.14736438 40 11 34689 11.25400000 3057095835 3057095835 11.00000000
-2.40846443 10.35794830 2.45511580 57 13 34691 10.91400000 3057095839 3057095839 13.00000000
-2.07208133 8.92540646 2.45515752 40 15 34693 9.48600000 3057095844 3057095844 15.00000000
-0.49491686 2.14201474 -0.58907217 4 0 34699 2.27600000 3057095865 3057095865 -15.00000000
-0.58215481 2.52359891 -0.59791988 3 2 34701 2.65800000 3057095869 3057095869 -13.00000000
-0.69673002 3.02268267 -0.60295641 2 4 34702 3.16000000 3057095874 3057095874 -11.00000000
-0.87319088 3.79428864 -0.61666465 2 6 34704 3.94200000 3057095878 3057095878 -9.00000000
-1.13664496 4.94697952 -0.62323982 4 8 34706 5.11400000 3057095883 3057095883 -7.00000000
-2.46785975 10.75798416 2.14545631 37 11 34708 11.24400000 3057095890 3057095890 11.00000000
-2.37584329 10.37347698 2.45691538 55 13 34710 10.92200000 3057095894 3057095894 13.00000000
-2.04144549 8.92057323 2.45205164 38 15 34711 9.47400000 3057095899 3057095899 15.00000000
-0.48872182 2.14938068 -0.59062505 4 0 34719 2.28200000 3057095920 3057095920 -15.00000000
-0.57334226 2.52561569 -0.59791988 3 2 34721 2.65800000 3057095924 3057095924 -13.00000000
-0.68791181 3.03275490 -0.60448289 2 4 34722 3.16800000 3057095929 3057095929 -11.00000000
-0.85601437 3.77997422 -0.61384887 2 6 34724 3.92400000 3057095934 3057095934 -9.00000000
-1.12243426 4.96447039 -0.62494600 2 8 34726 5.12800000 3057095938 3057095938 -7.00000000
-2.42683411 10.75121212 2.14240336 40 11 34728 11.22800000 3057095945 3057095945 11.00000000
-2.34004712 10.38360786 2.45736527 52 13 34730 10.92400000 3057095950 3057095950 13.00000000
-2.01029444 8.92764473 2.45205164 42 15 34731 9.47400000 3057095954 3057095954 15.00000000
-0.48037261 2.14730287 -0.58958977 4 0 34739 2.27800000 3057095976 3057095976 -15.00000000
-0.56367320 2.52379775 -0.59702009 3 2 34741 2.65400000 3057095981 3057095981 -13.00000000
-0.67646611 3.03130531 -0.60371965 2 4 34742 3.16400000 3057095985 3057095985 -11.00000000
-0.84109628 3.77522683 -0.61259735 2 6 34744 3.91600000 3057095990 3057095990 -9.00000000
-1.12233829 5.04586792 -0.63469553 2 8 34746 5.20800000 3057095994 3057095994 -7.00000000
-2.39014173 10.76345158 2.14316654 40 11 34748 11.23200000 3057096001 3057096001 11.00000000
-2.29956937 10.37268734 2.45286632 55 13 34750 10.90400000 3057096006 3057096006 13.00000000
-1.97744763 8.92706299 2.44998097 40 15 34751 9.46600000 3057096011 3057096011 15.00000000
-0.47453484 2.15651345 -0.59166032 4 0 34759 2.28600000 3057096031 3057096031 -15.00000000
-0.55486006 2.52575016 -0.59702009 3 2 34761 2.65400000 3057096036 3057096036 -13.00000000
-0.66419715 3.02597785 -0.60219318 2 4 34762 3.15600000 3057096041 3057096041 -11.00000000
-0.83045018 3.78971744 -0.61447459 2 6 34764 3.92800000 3057096045 3057096045 -9.00000000
-1.09453642 5.00321341 -0.62884581 2 8 34766 5.16000000 3057096050 3057096050 -7.00000000
-2.35171795 10.76789284 2.14240336 34 11 34768 11.22800000 3057096057 3057096057 11.00000000
-2.26085711 10.36922741 2.45016694 51 13 34770 10.89200000 3057096061 3057096061 13.00000000
-1.94553673 8.93802547 2.45101643 40 15 34772 9.47000000 3057096066 3057096066 15.00000000
-0.46819881 2.16185141 -0.59269559 4 0 34778 2.29000000 3057096087 3057096087 -15.00000000
-0.54648131 2.52757621 -0.59702009 3 2 34780 2.65400000 3057096091 3057096091 -13.00000000
-0.65498805 3.03200173 -0.60295641 2 4 34781 3.16000000 3057096096 3057096096 -11.00000000
-0.82120997 3.80789828 -0.61697751 2 6 34783 3.94400000 3057096100 3057096100 -9.00000000
-1.07459664 4.99129057 -0.62689590 2 8 34785 5.14400000 3057096105 3057096105 -7.00000000
-2.31475973 10.76987362 2.14125848 40 11 34787 11.22200000 3057096112 3057096112 11.00000000
-2.22523260 10.37095165 2.44881725 53 13 34789 10.88600000 3057096117 3057096117 13.00000000
-1.91582775 8.93653774 2.44894576 38 15 34790 9.46200000 3057096121 3057096121 15.00000000
-0.45823580 2.15213561 -0.58958977 4 0 34798 2.27800000 3057096142 3057096142 -15.00000000
-0.54089642 2.54471755 -0.60061932 3 2 34800 2.67000000 3057096146 3057096146 -13.00000000
-0.64603180 3.04195118 -0.60448289 2 4 34801 3.16800000 3057096151 3057096151 -11.00000000
-0.80627412 3.80301189 -0.61572605 2 6 34803 3.93600000 3057096156 3057096156 -9.00000000
-1.06045556 5.01054764 -0.62884581 2 8 34805 5.16000000 3057096160 3057096160 -7.00000000
-2.27877522 10.78557205 2.14278507 40 11 34807 11.23000000 3057096167 3057096167 11.00000000
-2.19022417 10.38437557 2.45016694 52 13 34809 10.89200000 3057096172 3057096172 13.00000000
-1.88302827 8.93560982 2.44687533 40 15 34810 9.45400000 3057096176 3057096176 15.00000000
-0.45190778 2.15939474 -0.59114271 3 0 34818 2.28400000 3057096197 3057096197 -15.00000000
-0.52882230 2.53132963 -0.59702009 3 2 34820 2.65400000 3057096202 3057096202 -13.00000000
-0.63460720 3.04034400 -0.60371965 2 4 34821 3.16400000 3057096206 3057096206 -11.00000000
-0.79380012 3.80967093 -0.61635178 2 6 34823 3.94000000 3057096211 3057096211 -9.00000000
-1.05104399 5.05308867 -0.63372058 2 8 34825 5.20000000 3057096216 3057096216 -7.00000000
-2.23712134 10.77423763 2.13896894 40 11 34827 11.21000000 3057096223 3057096223 11.00000000
-2.15396261 10.39195824 2.45016694 53 13 34829 10.89200000 3057096227 3057096227 13.00000000
-1.85065651 8.94434357 2.44739294 36 15 34831 9.45600000 3057096232 3057096232 15.00000000
-0.44475645 2.16285133 -0.59166032 4 0 34838 2.28600000 3057096252 3057096252 -15.00000000
-0.52155048 2.54079604 -0.59881973 3 2 34840 2.66200000 3057096257 3057096257 -13.00000000
-0.62872374 3.06561947 -0.60829908 2 4 34841 3.18800000 3057096262 3057096262 -11.00000000
-0.77891231 3.80467749 -0.61510032 2 6 34843 3.93200000 3057096266 3057096266 -9.00000000
-1.03180909 5.04894733 -0.63274562 2 8 34845 5.19200000 3057096271 3057096271 -7.00000000
-2.19753647 10.77236271 2.13706064 37 11 34847 11.20000000 3057096278 3057096278 11.00000000
-2.11689711 10.39559460 2.44926715 51 13 34849 10.88800000 3057096282 3057096282 13.00000000
-1.81865394 8.94696236 2.44635773 38 15 34851 9.45200000 3057096287 3057096287 15.00000000
-0.43796900 2.16817784 -0.59269559 4 0 34858 2.29000000 3057096308 3057096308 -15.00000000
-0.51113755 2.53495979 -0.59702009 3 2 34860 2.65400000 3057096312 3057096312 -13.00000000
-0.61491716 3.05239868 -0.60524613 2 4 34861 3.17200000 3057096317 3057096317 -11.00000000
-0.76835281 3.82092953 -0.61729038 2 6 34863 3.94600000 3057096322 3057096322 -9.00000000
-1.01105332 5.03694773 -0.63079572 2 8 34865 5.17600000 3057096326 3057096326 -7.00000000
-2.15992045 10.77996826 2.13706064 37 11 34867 11.20000000 3057096333 3057096333 11.00000000
-2.07792163 10.38954449 2.44611788 53 13 34869 10.87400000 3057096338 3057096338 13.00000000
-1.78854680 8.95893955 2.44791055 40 15 34871 9.45800000 3057096342 3057096342 15.00000000
-0.42889440 2.16211367 -0.59062505 4 0 34878 2.28200000 3057096363 3057096363 -15.00000000
-0.50379986 2.54437518 -0.59881973 3 2 34880 2.66200000 3057096368 3057096368 -13.00000000
-0.60273457 3.04682279 -0.60371965 2 4 34881 3.16400000 3057096372 3057096372 -11.00000000
-0.75386256 3.81777453 -0.61635178 2 6 34883 3.94000000 3057096377 3057096377 -9.00000000
-0.99807149 5.06381798 -0.63372058 2 8 34885 5.20000000 3057096382 3057096382 -7.00000000
-2.12265730 10.78936863 2.13744235 37 11 34887 11.20200000 3057096388 3057096388 11.00000000
-2.04276919 10.40247059 2.44746757 52 13 34889 10.88000000 3057096393 3057096393 13.00000000
-1.75763488 8.96702385 2.44842815 38 15 34891 9.46000000 3057096398 3057096398 15.00000000
-0.42246142 2.16731644 -0.59166032 4 0 34897 2.28600000 3057096418 3057096418 -15.00000000
-0.49535963 2.54603171 -0.59881973 3 2 34899 2.66200000 3057096423 3057096423 -13.00000000
-0.59187841 3.04495049 -0.60295641 2 4 34900 3.16000000 3057096428 3057096428 -11.00000000
-0.73969322 3.81249642 -0.61510032 2 6 34902 3.93200000 3057096432 3057096432 -9.00000000
-0.97900927 5.05540657 -0.63225818 2 8 34904 5.18800000 3057096437 3057096437 -7.00000000
-2.08537650 10.78863811 2.13591599 40 11 34906 11.19400000 3057096444 3057096444 11.00000000
-2.00863123 10.41110134 2.44791746 53 13 34908 10.88200000 3057096448 3057096448 13.00000000
-1.72579920 8.95353222 2.44325185 40 15 34909 9.44000000 3057096453 3057096453 15.00000000
-0.41489351 2.16877794 -0.59166032 4 0 34917 2.28600000 3057096474 3057096474 -15.00000000
-0.48866224 2.55923033 -0.60151911 3 2 34919 2.67400000 3057096478 3057096478 -13.00000000
-0.58492470 3.06628275 -0.60677260 2 4 34920 3.18000000 3057096483 3057096483 -11.00000000
-0.72379434 3.80147171 -0.61291021 2 6 34922 3.91800000 3057096487 3057096487 -9.00000000
-0.97025126 5.10559750 -0.63810790 2 8 34924 5.23600000 3057096492 3057096492 -7.00000000
-2.04843616 10.79970932 2.13667917 43 11 34926 11.19800000 3057096499 3057096499 11.00000000
-1.97336495 10.42379284 2.44926715 54 13 34928 10.88800000 3057096504 3057096504 13.00000000
-1.69404733 8.96549225 2.44480467 40 15 34930 9.44600000 3057096508 3057096508 15.00000000
-0.40803325 2.17401028 -0.59269559 4 0 34937 2.29000000 3057096529 3057096529 -15.00000000
-0.47685543 2.54559708 -0.59791988 3 2 34939 2.65800000 3057096534 3057096534 -13.00000000
-0.57494015 3.07216525 -0.60753584 2 4 34940 3.18400000 3057096538 3057096538 -11.00000000
-0.71450996 3.82533479 -0.61635178 2 6 34942 3.94000000 3057096543 3057096543 -9.00000000
-0.94369233 5.06211805 -0.63225818 2 8 34944 5.18800000 3057096547 3057096547 -7.00000000
-2.01072550 10.80679321 2.13667917 43 11 34946 11.19800000 3057096554 3057096554 11.00000000
-1.93483233 10.41912174 2.44656777 52 13 34948 10.87600000 3057096559 3057096559 13.00000000
-1.66465974 8.97295952 2.44532228 38 15 34949 9.44800000 3057096564 3057096564 15.00000000
-0.40184098 2.18302107 -0.59476614 4 0 34957 2.29800000 3057096584 3057096584 -15.00000000
-0.46796674 2.54724622 -0.59791988 3 2 34959 2.65800000 3057096589 3057096589 -13.00000000
-0.56350392 3.07029152 -0.60677260 2 4 34960 3.18000000 3057096593 3057096593 -11.00000000
-0.70684737 3.85889435 -0.62135768 2 6 34962 3.97200000 3057096598 3057096598 -9.00000000
-0.93172824 5.09662485 -0.63615799 2 8 34964 5.22000000 3057096603 3057096603 -7.00000000
-1.37848151 7.54784632 -0.67127353 4 10 34965 7.70200000 3057096607 3057096607 -5.00000000
-1.97369528 10.81760883 2.13744235 43 11 34966 11.20200000 3057096610 3057096610 11.00000000
-1.89705455 10.41814327 2.44476795 53 13 34968 10.86800000 3057096614 3057096614 13.00000000
-1.62968850 8.96759701 2.44221640 40 15 34970 9.43600000 3057096619 3057096619 15.00000000
-0.39284599 2.17680597 -0.59269559 4 0 34977 2.29000000 3057096640 3057096640 -15.00000000
-0.46252659 2.56804299 -0.60241890 3 2 34979 2.67800000 3057096644 3057096644 -13.00000000
-0.55139256 3.06451106 -0.60524613 2 4 34980 3.17200000 3057096649 3057096649 -11.00000000
-0.69197649 3.85356116 -0.62010622 2 6 34982 3.96400000 3057096653 3057096653 -9.00000000
-0.91043037 5.08030653 -0.63372058 2 8 34984 5.20000000 3057096658 3057096658 -7.00000000
-1.33737957 7.47024155 -0.66395247 4 10 34985 7.61800000 3057096663 3057096663 -5.00000000
-1.93592274 10.82443333 2.13744235 43 11 34986 11.20200000 3057096665 3057096665 11.00000000
-1.86033452 10.42278385 2.44431806 56 13 34988 10.86600000 3057096670 3057096670 13.00000000
-1.60062015 8.97675514 2.44325185 42 15 34989 9.44000000 3057096674 3057096674 15.00000000
-0.38322636 2.16674995 -0.58958977 4 0 34997 2.27800000 3057096695 3057096695 -15.00000000
-0.45220470 2.56196547 -0.60061932 3 2 34999 2.67000000 3057096699 3057096699 -13.00000000
-0.54137391 3.07028389 -0.60600936 2 4 35000 3.17600000 3057096704 3057096704 -11.00000000
-0.67578208 3.84038925 -0.61760324 2 6 35002 3.94800000 3057096709 3057096709 -9.00000000
-0.89337790 5.08736420 -0.63420808 2 8 35004 5.20400000 3057096713 3057096713 -7.00000000
-1.32575440 7.55728579 -0.67127353 4 10 35005 7.70200000 3057096718 3057096718 -5.00000000
-1.89812672 10.83112431 2.13744235 43 11 35006 11.20200000 3057096720 3057096720 11.00000000
-1.82394087 10.42921352 2.44431806 56 13 35008 10.86600000 3057096725 3057096725 13.00000000
-1.56505084 8.96733665 2.43911076 42 15 35010 9.42400000 3057096729 3057096729 15.00000000
-0.37697992 2.17568851 -0.59166032 4 0 35017 2.28600000 3057096750 3057096750 -15.00000000
-0.44624728 2.58081055 -0.60466844 3 2 35019 2.68800000 3057096755 3057096755 -13.00000000
-0.53332663 3.08763170 -0.60906231 2 4 35020 3.19200000 3057096759 3057096759 -11.00000000
-0.66438580 3.85440469 -0.61948049 2 6 35022 3.96000000 3057096764 3057096764 -9.00000000
-0.88099849 5.12175322 -0.63810790 2 8 35024 5.23600000 3057096769 3057096769 -7.00000000
-1.85366464 10.79898548 2.12981009 46 11 35026 11.16200000 3057096775 3057096775 11.00000000
-1.78818297 10.43935871 2.44521785 55 13 35028 10.87000000 3057096780 3057096780 13.00000000
-1.53465378 8.96866894 2.43807530 42 15 35029 9.42000000 3057096785 3057096785 15.00000000
-0.37035257 2.18270493 -0.59321326 4 0 35037 2.29200000 3057096805 3057096805 -15.00000000
-0.43463326 2.56698155 -0.60106921 3 2 35039 2.67200000 3057096810 3057096810 -13.00000000
-0.52320033 3.09334612 -0.60982555 2 4 35040 3.19600000 3057096815 3057096815 -11.00000000
-0.65092736 3.85670042 -0.61948049 2 6 35042 3.96000000 3057096819 3057096819 -9.00000000
-0.85520244 5.07781649 -0.63225818 2 8 35044 5.18800000 3057096824 3057096824 -7.00000000
-1.27296281 7.56635714 -0.67127353 4 10 35045 7.70200000 3057096828 3057096828 -5.00000000
-1.81791019 10.81700611 2.13209963 40 11 35046 11.17400000 3057096831 3057096831 11.00000000
-1.75044274 10.43784904 2.44341826 59 13 35048 10.86200000 3057096835 3057096835 13.00000000
-1.50304711 8.98185539 2.44014597 40 15 35050 9.42800000 3057096840 3057096840 15.00000000
-0.36381078 2.18576336 -0.59373087 4 0 35055 2.29400000 3057096861 3057096861 -15.00000000
-0.42528957 2.56064463 -0.59926963 3 2 35057 2.66400000 3057096865 3057096865 -13.00000000
-0.51155180 3.08335376 -0.60753584 2 4 35058 3.18400000 3057096870 3057096870 -11.00000000
-0.63913059 3.86067510 -0.61979336 2 6 35060 3.96200000 3057096875 3057096875 -9.00000000
-0.84442234 5.11181498 -0.63615799 2 8 35062 5.22000000 3057096879 3057096879 -7.00000000
-1.78328001 10.81879044 2.13133645 40 11 35064 11.17000000 3057096886 3057096886 11.00000000
-1.71574509 10.43175983 2.44071889 55 13 35066 10.85000000 3057096891 3057096891 13.00000000
-1.47513807 8.97865009 2.43807530 45 15 35067 9.42000000 3057096895 3057096895 15.00000000
-0.35493669 2.17939305 -0.59166032 4 0 35075 2.28600000 3057096916 3057096916 -15.00000000
-0.41822413 2.57365465 -0.60196900 3 2 35077 2.67600000 3057096921 3057096921 -13.00000000
-0.50078577 3.08512068 -0.60753584 4 4 35078 3.18400000 3057096925 3057096925 -11.00000000
-0.62659794 3.86873245 -0.62073195 2 6 35080 3.96800000 3057096930 3057096930 -9.00000000
-0.83544111 5.16960239 -0.64298266 2 8 35082 5.27600000 3057096934 3057096934 -7.00000000
-1.74800479 10.84045506 2.13438940 43 11 35084 11.18600000 3057096941 3057096941 11.00000000
-1.67994010 10.44153309 2.44161868 55 13 35086 10.85400000 3057096946 3057096946 13.00000000
-1.44038248 8.97255135 2.43496966 42 15 35088 9.40800000 3057096951 3057096951 15.00000000
-0.34717223 2.18455553 -0.59269559 4 0 35097 2.29000000 3057096971 3057096971 -15.00000000
-0.41078043 2.59063911 -0.60556823 3 2 35099 2.69200000 3057096976 3057096976 -13.00000000
-0.48770759 3.07926440 -0.60600936 2 4 35100 3.17600000 3057096981 3057096981 -11.00000000
-0.60988849 3.85940289 -0.61885476 2 6 35102 3.95600000 3057096985 3057096985 -9.00000000
-0.81558514 5.17277193 -0.64298266 2 8 35104 5.27600000 3057096990 3057096990 -7.00000000
-1.19365966 7.57927275 -0.67127353 4 10 35105 7.70200000 3057096994 3057096994 -5.00000000
-1.70514727 10.83932877 2.13286304 43 11 35106 11.17800000 3057096997 3057096997 11.00000000
-1.63953304 10.44598198 2.44116879 53 13 35108 10.85200000 3057097001 3057097001 13.00000000
-1.40539229 8.96441078 2.43134618 45 15 35109 9.39400000 3057097006 3057097006 15.00000000
-0.33954459 2.18575430 -0.59269559 4 0 35117 2.29000000 3057097027 3057097027 -15.00000000
-0.39785483 2.56702232 -0.59971952 3 2 35119 2.66600000 3057097031 3057097031 -13.00000000
-0.47695598 3.08094811 -0.60600936 2 4 35120 3.17600000 3057097036 3057097036 -11.00000000
-0.59882510 3.87712622 -0.62135768 2 6 35122 3.97200000 3057097040 3057097040 -9.00000000
-0.79752386 5.17558718 -0.64298266 2 8 35124 5.27600000 3057097045 3057097045 -7.00000000
-1.66312420 10.81804848 2.12752032 43 11 35126 11.15000000 3057097052 3057097052 11.00000000
-1.60276425 10.44971466 2.44071889 55 13 35128 10.85000000 3057097057 3057097057 13.00000000
-1.37379956 8.96735287 2.43082857 42 15 35129 9.39200000 3057097061 3057097061 15.00000000
-0.33287495 2.19068789 -0.59373087 4 0 35136 2.29400000 3057097082 3057097082 -15.00000000
-0.39050841 2.57603455 -0.60151911 3 2 35138 2.67400000 3057097087 3057097087 -13.00000000
-0.46791223 3.09027743 -0.60753584 2 4 35139 3.18400000 3057097091 3057097091 -11.00000000
-0.58419454 3.86737132 -0.61948049 2 6 35141 3.96000000 3057097096 3057097096 -9.00000000
-0.77562356 5.14679670 -0.63908285 2 8 35143 5.24400000 3057097100 3057097100 -7.00000000
-1.14204192 7.58722210 -0.67127353 4 10 35144 7.70200000 3057097105 3057097105 -5.00000000
-1.62811673 10.82932854 2.12866521 43 11 35145 11.15600000 3057097107 3057097107 11.00000000
-1.56752491 10.45111752 2.43981910 55 13 35147 10.84600000 3057097112 3057097112 13.00000000
-1.34405518 8.97185898 2.43082857 42 15 35148 9.39200000 3057097116 3057097116 15.00000000
-0.32579309 2.19565845 -0.59476614 4 0 35156 2.29800000 3057097137 3057097137 -15.00000000
-0.38037258 2.56967092 -0.59971952 3 2 35158 2.66600000 3057097142 3057097142 -13.00000000
-0.45769656 3.09577608 -0.60829908 2 4 35159 3.18800000 3057097146 3057097146 -11.00000000
-0.57501471 3.89870048 -0.62417352 2 6 35161 3.99000000 3057097151 3057097151 -9.00000000
-0.75765318 5.14947271 -0.63908285 2 8 35163 5.24400000 3057097156 3057097156 -7.00000000
-1.11555064 7.59116220 -0.67127353 4 10 35164 7.70200000 3057097160 3057097160 -5.00000000
-1.59087563 10.83883095 2.12942839 40 11 35165 11.16000000 3057097163 3057097163 11.00000000
-1.52962255 10.44688511 2.43756962 53 13 35167 10.83600000 3057097167 3057097167 13.00000000
-1.31116271 8.97672462 2.43082857 45 15 35169 9.39200000 3057097172 3057097172 15.00000000
-0.31701931 2.18913460 -0.59269559 4 0 35176 2.29000000 3057097193 3057097193 -15.00000000
-0.37362942 2.58641291 -0.60331875 3 2 35178 2.68200000 3057097197 3057097197 -13.00000000
-0.44744822 3.10124135 -0.60906231 2 4 35179 3.19200000 3057097202 3057097202 -11.00000000
-0.55661833 3.86744499 -0.61885476 2 6 35181 3.95600000 3057097206 3057097206 -9.00000000
-0.74136615 5.16387606 -0.64054525 2 8 35183 5.25600000 3057097211 3057097211 -7.00000000
-1.08904576 7.59500980 -0.67127353 4 10 35184 7.70200000 3057097216 3057097216 -5.00000000
-1.55303133 10.84431744 2.12942839 43 11 35185 11.16000000 3057097218 3057097218 11.00000000
-1.49314678 10.45216084 2.43756962 54 13 35187 10.83600000 3057097222 3057097222 13.00000000
-1.28166044 8.98293591 2.43134618 45 15 35188 9.39400000 3057097227 3057097227 15.00000000
-0.30883551 2.18640232 -0.59166032 4 0 35196 2.28600000 3057097248 3057097248 -15.00000000
-0.36514264 2.59156060 -0.60421854 3 2 35198 2.68600000 3057097252 3057097252 -13.00000000
-0.43607298 3.09889603 -0.60829908 2 4 35199 3.18800000 3057097257 3057097257 -11.00000000
-0.54640996 3.89283872 -0.62260920 2 6 35201 3.98000000 3057097262 3057097262 -9.00000000
-0.72333634 5.16643238 -0.64054525 2 8 35203 5.25600000 3057097266 3057097266 -7.00000000
-1.06252766 7.59876490 -0.67127353 4 10 35204 7.70200000 3057097271 3057097271 -5.00000000
-1.51516807 10.84967327 2.12942839 40 11 35205 11.16000000 3057097273 3057097273 11.00000000
-1.45665276 10.45730877 2.43756962 54 13 35207 10.83600000 3057097278 3057097278 13.00000000
-1.24790061 8.97013378 2.42668748 42 15 35208 9.37600000 3057097282 3057097282 15.00000000
-0.30158341 2.18741441 -0.59166032 4 0 35215 2.28600000 3057097303 3057097303 -15.00000000
-0.35548475 2.58503509 -0.60241890 3 2 35217 2.67800000 3057097308 3057097308 -13.00000000
-0.42686278 3.10810494 -0.60982555 2 4 35218 3.19600000 3057097312 3057097312 -11.00000000
-0.53242552 3.88680100 -0.62135768 2 6 35220 3.97200000 3057097317 3057097317 -9.00000000
-0.70888704 5.18847084 -0.64298266 2 8 35222 5.27600000 3057097321 3057097321 -7.00000000
-1.03732336 7.60224676 -0.67127353 4 10 35223 7.70200000 3057097326 3057097326 -5.00000000
-1.47573483 10.82934952 2.12446737 40 11 35224 11.13400000 3057097328 3057097328 11.00000000
-1.42196715 10.46208191 2.43756962 53 13 35226 10.83600000 3057097333 3057097333 13.00000000
-1.21866739 8.97805214 2.42772269 42 15 35227 9.38000000 3057097338 3057097338 15.00000000
-0.29548910 2.19994164 -0.59476614 4 0 35235 2.29800000 3057097358 3057097358 -15.00000000
-0.34594166 2.58239722 -0.60151911 3 2 35237 2.67400000 3057097363 3057097363 -13.00000000
-0.41601086 3.10957623 -0.60982555 2 4 35238 3.19600000 3057097368 3057097368 -11.00000000
-0.51676476 3.87297153 -0.61885476 2 6 35240 3.95600000 3057097372 3057097372 -9.00000000
-0.68658191 5.15942955 -0.63908285 2 8 35242 5.24400000 3057097377 3057097377 -7.00000000
-1.01078022 7.60582161 -0.67127353 4 10 35243 7.70200000 3057097381 3057097381 -5.00000000
-1.43714952 10.82859612 2.12332249 43 11 35244 11.12800000 3057097384 3057097384 11.00000000
-1.38364899 10.45345879 2.43442035 50 13 35246 10.82200000 3057097388 3057097388 13.00000000
-1.18474174 8.97479725 2.42565203 45 15 35248 9.37200000 3057097393 3057097393 15.00000000
-0.28819221 2.20090938 -0.59476614 4 0 35254 2.29800000 3057097414 3057097414 -15.00000000
-0.33788088 2.58739471 -0.60241890 3 2 35256 2.67800000 3057097418 3057097418 -13.00000000
-0.40468132 3.10315156 -0.60829908 2 4 35257 3.18800000 3057097423 3057097423 -11.00000000
-0.50799483 3.90600610 -0.62386066 2 6 35259 3.98800000 3057097427 3057097427 -9.00000000
-0.66946888 5.16167784 -0.63908285 2 8 35261 5.24400000 3057097432 3057097432 -7.00000000
-1.40022528 10.82551384 2.12179613 40 11 35263 11.12000000 3057097439 3057097439 11.00000000
-1.34723139 10.44446087 2.43127108 50 13 35265 10.80800000 3057097444 3057097444 13.00000000
-1.15752792 8.98613930 2.42772269 42 15 35266 9.38000000 3057097448 3057097448 15.00000000
-0.27953133 2.19423652 -0.59269559 4 0 35274 2.29000000 3057097469 3057097469 -15.00000000
-0.33081189 2.60402417 -0.60601813 3 2 35276 2.69400000 3057097473 3057097473 -13.00000000
-0.39285854 3.09675455 -0.60677260 2 4 35277 3.18000000 3057097478 3057097478 -11.00000000
-0.49485311 3.91167498 -0.62448639 2 6 35279 3.99200000 3057097483 3057097483 -9.00000000
-0.64995646 5.15216684 -0.63762039 2 8 35281 5.23200000 3057097487 3057097487 -7.00000000
-1.36316383 10.83617973 2.12294078 43 11 35283 11.12600000 3057097494 3057097494 11.00000000
-1.31100774 10.45103264 2.43172097 53 13 35285 10.81000000 3057097499 3057097499 13.00000000
-1.12375224 8.97095585 2.42254615 42 15 35286 9.36000000 3057097503 3057097503 15.00000000
-0.27187032 2.19519901 -0.59269559 4 0 35294 2.29000000 3057097524 3057097524 -15.00000000
-0.32243663 2.61096501 -0.60736787 3 2 35296 2.70000000 3057097529 3057097529 -13.00000000
-0.38348812 3.10979795 -0.60906231 2 4 35297 3.19200000 3057097533 3057097533 -11.00000000
-0.48216012 3.92122102 -0.62573785 2 6 35299 4.00000000 3057097538 3057097538 -9.00000000
-0.63438386 5.17410755 -0.64005780 2 8 35301 5.25200000 3057097543 3057097543 -7.00000000
-1.32318604 10.82333279 2.11950636 40 11 35303 11.10800000 3057097550 3057097550 11.00000000
-1.27640522 10.47102070 2.43532014 55 13 35305 10.82600000 3057097554 3057097554 13.00000000
-1.08899975 8.95967293 2.41840506 45 15 35307 9.34400000 3057097559 3057097559 15.00000000
-0.26374447 2.19229865 -0.59166032 4 0 35314 2.28600000 3057097579 3057097579 -15.00000000
-0.31007147 2.58498645 -0.60106921 3 2 35316 2.67200000 3057097584 3057097584 -13.00000000
-0.37543231 3.13450956 -0.61364174 2 4 35317 3.21600000 3057097589 3057097589 -11.00000000
-0.46659568 3.90718865 -0.62323493 2 6 35319 3.98400000 3057097593 3057097593 -9.00000000
-0.61913538 5.19994450 -0.64298266 2 8 35321 5.27600000 3057097598 3057097598 -7.00000000
-1.28493464 10.82398701 2.11874318 40 11 35323 11.10400000 3057097605 3057097605 11.00000000
-1.24007583 10.47734833 2.43577003 54 13 35325 10.82800000 3057097609 3057097609 13.00000000
-1.05726528 8.95958233 2.41736984 42 15 35327 9.34000000 3057097614 3057097614 15.00000000
-0.25660241 2.20092583 -0.59373087 4 0 35335 2.29400000 3057097635 3057097635 -15.00000000
-0.30059493 2.58610559 -0.60106921 3 2 35337 2.67200000 3057097639 3057097639 -13.00000000
-0.36348855 3.13196421 -0.61287850 2 4 35338 3.21200000 3057097644 3057097644 -11.00000000
-0.45227197 3.90887260 -0.62323493 2 6 35340 3.98400000 3057097649 3057097649 -9.00000000
-0.59779775 5.18245840 -0.64054525 2 8 35342 5.25600000 3057097653 3057097653 -7.00000000
-0.87788641 7.62230349 -0.67127353 4 10 35343 7.70200000 3057097658 3057097658 -5.00000000
-1.24458122 10.82277203 2.11759830 43 11 35344 11.09800000 3057097660 3057097660 11.00000000
-1.20055640 10.47214222 2.43352056 57 13 35346 10.81800000 3057097665 3057097665 13.00000000
-1.02485836 8.96723557 2.41840506 45 15 35348 9.34400000 3057097669 3057097669 15.00000000
-0.24935220 2.20564747 -0.59476614 4 0 35355 2.29800000 3057097690 3057097690 -15.00000000
-0.29222062 2.59294868 -0.60241890 3 2 35357 2.67800000 3057097695 3057097695 -13.00000000
-0.35211471 3.12931204 -0.61211526 2 4 35358 3.20800000 3057097699 3057097699 -11.00000000
-0.43774393 3.90257525 -0.62198341 2 6 35360 3.97600000 3057097704 3057097704 -9.00000000
-0.58014512 5.18845940 -0.64103276 2 8 35362 5.26000000 3057097709 3057097709 -7.00000000
-0.85348475 7.64512253 -0.67301667 4 10 35363 7.72200000 3057097713 3057097713 -5.00000000
-1.20592523 10.81924629 2.11607170 40 11 35364 11.09000000 3057097715 3057097715 11.00000000
-1.16270328 10.46464825 2.43082118 57 13 35366 10.80600000 3057097720 3057097720 13.00000000
-0.99440128 8.97843933 2.42047572 40 15 35368 9.35200000 3057097725 3057097725 15.00000000
-0.24249279 2.21418595 -0.59683675 4 0 35375 2.30600000 3057097745 3057097745 -15.00000000
-0.28401366 2.60170174 -0.60421854 3 2 35377 2.68600000 3057097750 3057097750 -13.00000000
-0.33991295 3.11881185 -0.60982555 2 4 35378 3.19600000 3057097755 3057097755 -11.00000000
-0.42881221 3.94728351 -0.62886655 2 6 35380 4.02000000 3057097759 3057097759 -9.00000000
-0.56074828 5.17861128 -0.63957030 2 8 35382 5.24800000 3057097764 3057097764 -7.00000000
-0.83021933 7.67974854 -0.67580563 4 10 35383 7.75400000 3057097768 3057097768 -5.00000000
-1.16941559 10.83510113 2.11836147 43 11 35384 11.10200000 3057097771 3057097771 11.00000000
-1.12575090 10.46476841 2.42992139 57 13 35386 10.80200000 3057097775 3057097775 13.00000000
-0.96297193 8.96632099 2.41633463 42 15 35387 9.33600000 3057097780 3057097780 15.00000000
-0.23354070 2.20349240 -0.59373087 4 0 35395 2.29400000 3057097801 3057097801 -15.00000000
-0.27656800 2.61818099 -0.60781777 3 2 35397 2.70200000 3057097805 3057097805 -13.00000000
-0.32943600 3.12388444 -0.61058879 2 4 35398 3.20000000 3057097810 3057097810 -11.00000000
-0.41131431 3.91339421 -0.62323493 2 6 35400 3.98400000 3057097814 3057097814 -9.00000000
-0.54225451 5.17658854 -0.63908285 2 8 35402 5.24400000 3057097819 3057097819 -7.00000000
-0.79801917 7.63107872 -0.67127353 4 10 35403 7.70200000 3057097824 3057097824 -5.00000000
-1.12975228 10.82154369 2.11492682 43 11 35404 11.08400000 3057097826 3057097826 11.00000000
-1.08961844 10.47251034 2.43082118 57 13 35406 10.80600000 3057097831 3057097831 13.00000000
-0.93030149 8.97171116 2.41685224 45 15 35408 9.33800000 3057097835 3057097835 15.00000000
-0.22623238 2.20425463 -0.59373087 4 0 35414 2.29400000 3057097856 3057097856 -15.00000000
-0.26649627 2.60551333 -0.60466844 3 2 35416 2.68800000 3057097861 3057097861 -13.00000000
-0.31907502 3.12495971 -0.61058879 2 4 35417 3.20000000 3057097865 3057097865 -11.00000000
-0.39913464 3.92259765 -0.62448639 2 6 35419 3.99200000 3057097870 3057097870 -9.00000000
-0.52588642 5.18625832 -0.64005780 2 8 35421 5.25200000 3057097874 3057097874 -7.00000000
-1.09287369 10.81546402 2.11301875 37 11 35423 11.07400000 3057097881 3057097881 11.00000000
-1.05488443 10.47606659 2.43082118 56 13 35425 10.80600000 3057097886 3057097886 13.00000000
-0.90153182 8.96882343 2.41529942 45 15 35426 9.33200000 3057097891 3057097891 15.00000000
-0.21891777 2.20887589 -0.59476614 4 0 35434 2.29800000 3057097911 3057097911 -15.00000000
-0.25701669 2.60254908 -0.60376865 3 2 35436 2.68400000 3057097916 3057097916 -13.00000000
-0.30932054 3.13777709 -0.61287850 2 4 35437 3.21200000 3057097920 3057097920 -11.00000000
-0.38466737 3.91610336 -0.62323493 2 6 35439 3.98400000 3057097925 3057097925 -9.00000000
-0.50855327 5.19596481 -0.64103276 2 8 35441 5.26000000 3057097930 3057097930 -7.00000000
-0.75535703 7.73151541 -0.67964047 4 10 35442 7.79800000 3057097934 3057097934 -5.00000000
-1.05473292 10.81530476 2.11225557 40 11 35443 11.07000000 3057097937 3057097937 11.00000000
-1.01680195 10.46416759 2.42722178 60 13 35445 10.79000000 3057097941 3057097941 13.00000000
-0.86939806 8.97975922 2.41736984 42 15 35447 9.34000000 3057097946 3057097946 15.00000000
-0.21175748 2.21539569 -0.59631908 4 0 35454 2.30400000 3057097967 3057097967 -15.00000000
-0.24700679 2.59373069 -0.60151911 3 2 35456 2.67400000 3057097971 3057097971 -13.00000000
-0.29762265 3.13101983 -0.61135203 2 4 35457 3.20400000 3057097976 3057097976 -11.00000000
-0.37360266 3.94495440 -0.62761509 2 6 35459 4.01200000 3057097980 3057097980 -9.00000000
-0.49003989 5.19375563 -0.64054525 2 8 35461 5.25600000 3057097985 3057097985 -7.00000000
-0.72836441 7.73410463 -0.67964047 4 10 35462 7.79800000 3057097990 3057097990 -5.00000000
-1.01752520 10.82478428 2.11340046 43 11 35463 11.07600000 3057097992 3057097992 11.00000000
-0.97990555 10.46377277 2.42632198 60 13 35465 10.78600000 3057097997 3057097997 13.00000000
-0.83997488 8.98643970 2.41840506 45 15 35466 9.34400000 3057098001 3057098001 15.00000000
-0.20331460 2.20842648 -0.59424853 4 0 35474 2.29600000 3057098022 3057098022 -15.00000000
-0.23973122 2.61398292 -0.60601813 3 2 35476 2.69400000 3057098026 3057098026 -13.00000000
-0.28597569 3.12421942 -0.60982555 2 4 35477 3.19600000 3057098031 3057098031 -11.00000000
-0.35803616 3.92656231 -0.62448639 2 6 35479 3.99200000 3057098036 3057098036 -9.00000000
-0.47118905 5.18752670 -0.63957030 2 8 35481 5.24800000 3057098040 3057098040 -7.00000000
-0.97937959 10.82435989 2.11263728 40 11 35483 11.07200000 3057098047 3057098047 11.00000000
-0.94267452 10.45936584 2.42452240 60 13 35485 10.77800000 3057098052 3057098052 13.00000000
-0.80616862 8.97983742 2.41581702 45 15 35487 9.33400000 3057098056 3057098056 15.00000000
-0.19475257 2.19950128 -0.59166032 4 0 35494 2.28600000 3057098077 3057098077 -15.00000000
-0.23163246 2.62645102 -0.60871756 3 2 35496 2.70600000 3057098082 3057098082 -13.00000000
-0.27610120 3.13693285 -0.61211526 4 4 35497 3.20800000 3057098086 3057098086 -11.00000000
-0.34605280 3.94746637 -0.62761509 2 6 35499 4.01200000 3057098091 3057098091 -9.00000000
-0.45480499 5.20891571 -0.64200771 2 8 35501 5.26800000 3057098096 3057098096 -7.00000000
-0.94022888 10.81206512 2.10958433 37 11 35503 11.05600000 3057098102 3057098102 11.00000000
-0.90649503 10.46647549 2.42542219 57 13 35505 10.78200000 3057098107 3057098107 13.00000000
-0.77538782 8.97091293 2.41271114 45 15 35506 9.32200000 3057098112 3057098112 15.00000000
-0.18789203 2.20979214 -0.59424853 3 0 35514 2.29600000 3057098132 3057098132 -15.00000000
-0.22147648 2.61559296 -0.60601813 3 2 35516 2.69400000 3057098137 3057098137 -13.00000000
-0.26614141 3.14961505 -0.61440498 2 4 35517 3.22000000 3057098142 3057098142 -11.00000000
-0.33260274 3.95258713 -0.62824082 2 6 35519 4.01600000 3057098146 3057098146 -9.00000000
-0.43728277 5.21838427 -0.64298266 2 8 35521 5.27600000 3057098151 3057098151 -7.00000000
-0.64733458 7.74130821 -0.67964047 4 10 35522 7.79800000 3057098155 3057098155 -5.00000000
-0.90084946 10.79571724 2.10576797 40 11 35523 11.03600000 3057098158 3057098158 11.00000000
-0.86930925 10.46180820 2.42362261 56 13 35525 10.77400000 3057098162 3057098162 13.00000000
-0.74266189 8.97562027 2.41322875 42 15 35527 9.32400000 3057098167 3057098167 15.00000000
-0.18087764 2.21425390 -0.59528381 3 0 35533 2.30000000 3057098188 3057098188 -15.00000000
-0.21216972 2.60854363 -0.60421854 3 2 35535 2.68600000 3057098192 3057098192 -13.00000000
-0.25569543 3.15048027 -0.61440498 2 4 35536 3.22000000 3057098197 3057098197 -11.00000000
-0.31758434 3.93004084 -0.62448639 2 6 35538 3.99200000 3057098202 3057098202 -9.00000000
-0.41997558 5.21980572 -0.64298266 2 8 35540 5.27600000 3057098206 3057098206 -7.00000000
-0.86551493 10.80451584 2.10691285 37 11 35542 11.04200000 3057098213 3057098213 11.00000000
-0.83368224 10.45297813 2.42092323 59 13 35544 10.76200000 3057098218 3057098218 13.00000000
-0.71492028 8.98368645 2.41478181 45 15 35545 9.33000000 3057098222 3057098222 15.00000000
-0.17374961 2.22257566 -0.59735435 3 0 35553 2.30800000 3057098243 3057098243 -15.00000000
-0.20245811 2.60149693 -0.60241890 3 2 35555 2.67800000 3057098248 3057098248 -13.00000000
-0.24439268 3.14743900 -0.61364174 2 4 35556 3.21600000 3057098252 3057098252 -11.00000000
-0.30386400 3.93112540 -0.62448639 2 6 35558 3.99200000 3057098257 3057098257 -9.00000000
-0.40083873 5.20936441 -0.64152020 2 8 35560 5.26400000 3057098261 3057098261 -7.00000000
-0.60225195 7.84486198 -0.68835604 4 10 35561 7.89800000 3057098266 3057098266 -5.00000000
-0.82704514 10.79768372 2.10500479 40 11 35562 11.03200000 3057098268 3057098268 11.00000000
-0.79600430 10.44027996 2.41732407 57 13 35564 10.74600000 3057098273 3057098273 13.00000000
-0.68286580 8.99780369 2.41788745 45 15 35566 9.34200000 3057098278 3057098278 15.00000000
-0.16604377 2.21347833 -0.59476614 3 0 35571 2.29800000 3057098298 3057098298 -15.00000000
-0.19573525 2.62155342 -0.60691792 3 2 35573 2.69800000 3057098303 3057098303 -13.00000000
-0.23392019 3.14035988 -0.61211526 2 4 35574 3.20800000 3057098308 3057098308 -11.00000000
-0.29530978 3.98327994 -0.63262099 2 6 35576 4.04400000 3057098312 3057098312 -9.00000000
-0.38534755 5.22247601 -0.64298266 2 8 35578 5.27600000 3057098317 3057098317 -7.00000000
-0.79369438 10.80806065 2.10653138 40 11 35580 11.04000000 3057098324 3057098324 11.00000000
-0.76320130 10.44272900 2.41732407 56 13 35582 10.74600000 3057098328 3057098328 13.00000000
-0.65476102 8.98052311 2.41271114 45 15 35583 9.32200000 3057098333 3057098333 15.00000000
-0.15762734 2.20440984 -0.59217799 3 0 35591 2.28800000 3057098354 3057098354 -15.00000000
-0.18658312 2.62222075 -0.60691792 3 2 35593 2.69800000 3057098358 3057098358 -13.00000000
-0.22267886 3.13724065 -0.61135203 2 4 35594 3.20400000 3057098363 3057098363 -11.00000000
-0.28001204 3.96458173 -0.62949228 2 6 35596 4.02400000 3057098367 3057098367 -9.00000000
-0.36878532 5.24755192 -0.64590752 2 8 35598 5.30000000 3057098372 3057098372 -7.00000000
-0.55021000 7.84868383 -0.68835604 4 10 35599 7.89800000 3057098377 3057098377 -5.00000000
-0.75390810 10.78138828 2.10080695 37 11 35600 11.01000000 3057098379 3057098379 11.00000000
-0.72674471 10.44532967 2.41732407 55 13 35602 10.74600000 3057098384 3057098384 13.00000000
-0.14994420 2.21656346 -0.59528381 3 0 35613 2.30000000 3057098409 3057098409 -15.00000000
-0.17546639 2.60736299 -0.60331875 3 2 35615 2.68200000 3057098414 3057098414 -13.00000000
-0.21115702 3.14590788 -0.61287850 2 4 35616 3.21200000 3057098418 3057098418 -11.00000000
-0.26136541 3.91438198 -0.62135768 2 6 35618 3.97200000 3057098423 3057098423 -9.00000000
-0.34837037 5.24496794 -0.64542001 2 8 35620 5.29600000 3057098427 3057098427 -7.00000000
-0.52006924 7.85073853 -0.68835604 4 10 35621 7.89800000 3057098432 3057098432 -5.00000000
-0.71198738 10.77636719 2.09928060 34 11 35622 11.00200000 3057098434 3057098434 11.00000000
-0.68637669 10.44415379 2.41642427 56 13 35624 10.74200000 3057098439 3057098439 13.00000000
-0.44121119 6.73158216 1.80759215 2 15 35625 6.98400000 3057098443 3057098443 15.00000000
-0.14220604 2.21707344 -0.59528381 3 0 35633 2.30000000 3057098464 3057098464 -15.00000000
-0.16636392 2.60795975 -0.60331875 3 2 35635 2.68200000 3057098469 3057098469 -13.00000000
-0.20092233 3.15838170 -0.61516821 2 4 35636 3.22400000 3057098473 3057098473 -11.00000000
-0.25019452 3.95469928 -0.62761509 2 6 35638 4.01200000 3057098478 3057098478 -9.00000000
-0.33080778 5.25803900 -0.64688247 2 8 35640 5.30800000 3057098483 3057098483 -7.00000000
-0.48642409 7.75308228 -0.67964047 4 10 35641 7.79800000 3057098487 3057098487 -5.00000000
-0.67485684 10.78662491 2.10080695 34 11 35642 11.01000000 3057098490 3057098490 11.00000000
-0.64906859 10.43287086 2.41327500 53 13 35644 10.72800000 3057098494 3057098494 13.00000000
-0.41653576 6.73315430 1.80759215 2 15 35646 6.98400000 3057098499 3057098499 15.00000000
-0.13532223 2.22524595 -0.59735435 3 0 35652 2.30800000 3057098520 3057098520 -15.00000000
-0.15794992 2.61238742 -0.60421854 3 2 35654 2.68600000 3057098524 3057098524 -13.00000000
-0.19068393 3.16294980 -0.61593145 2 4 35655 3.22800000 3057098529 3057098529 -11.00000000
-0.23707891 3.95550728 -0.62761509 2 6 35657 4.01200000 3057098533 3057098533 -9.00000000
-0.31455040 5.27892256 -0.64931989 2 8 35659 5.32800000 3057098538 3057098538 -7.00000000
-0.46661934 7.85409689 -0.68835604 4 10 35660 7.89800000 3057098543 3057098543 -5.00000000
-0.63908339 10.78880310 2.10080695 34 11 35661 11.01000000 3057098545 3057098545 11.00000000
-0.56956315 9.67238140 2.23691320 30 13 35663 9.94400000 3057098549 3057098549 13.00000000
-0.39889088 6.79421377 1.82363904 4 15 35664 7.04600000 3057098554 3057098554 15.00000000
-0.12700118 2.21606135 -0.59476614 3 0 35672 2.29800000 3057098575 3057098575 -15.00000000
-0.14905167 2.61681390 -0.60511833 3 2 35674 2.69000000 3057098579 3057098579 -13.00000000
-0.17875159 3.14791536 -0.61287850 2 4 35675 3.21200000 3057098584 3057098584 -11.00000000
-0.22371536 3.96419954 -0.62886655 2 6 35677 4.02000000 3057098589 3057098589 -9.00000000
-0.29323155 5.22845697 -0.64298266 2 8 35679 5.27600000 3057098593 3057098593 -7.00000000
-0.43630889 7.80395651 -0.68382394 4 10 35680 7.84600000 3057098598 3057098598 -5.00000000
-0.60098255 10.78312778 2.09928060 34 11 35681 11.00200000 3057098600 3057098600 11.00000000
-0.39434081 7.14276934 1.91681385 22 15 35684 7.40600000 3057098609 3057098609 15.00000000
-0.11954763 2.21454120 -0.59424853 3 0 35691 2.29600000 3057098630 3057098630 -15.00000000
-0.14204304 2.64842892 -0.61231679 3 2 35693 2.72200000 3057098635 3057098635 -13.00000000
-0.16831174 3.14849091 -0.61287850 2 4 35694 3.21200000 3057098639 3057098639 -11.00000000
-0.21056837 3.96491957 -0.62886655 2 6 35696 4.02000000 3057098644 3057098644 -9.00000000
-0.27714673 5.25318909 -0.64590752 2 8 35698 5.30000000 3057098648 3057098648 -7.00000000
-0.41021842 7.80138111 -0.68347532 4 10 35699 7.84200000 3057098653 3057098653 -5.00000000
-0.56522113 10.78506184 2.09928060 34 11 35700 11.00200000 3057098655 3057098655 11.00000000
-0.39997134 7.68322229 1.77621353 1 13 35702 7.89600000 3057098660 3057098660 13.00000000
-0.46544251 8.97104454 2.40701723 40 15 35703 9.30000000 3057098665 3057098665 15.00000000
-0.11171931 2.21301579 -0.59373087 3 0 35711 2.29400000 3057098685 3057098685 -15.00000000
-0.13143140 2.62166047 -0.60601813 3 2 35713 2.69400000 3057098690 3057098690 -13.00000000
-0.15751636 3.15298080 -0.61364174 2 4 35714 3.21600000 3057098695 3057098695 -11.00000000
-0.19574820 3.94590092 -0.62573785 2 6 35716 4.00000000 3057098699 3057098699 -9.00000000
-0.25958931 5.26998568 -0.64785743 2 8 35718 5.31600000 3057098704 3057098704 -7.00000000
-0.38220260 7.78684568 -0.68208086 4 10 35719 7.82600000 3057098708 3057098708 -5.00000000
-0.52689946 10.77324200 2.09660935 37 11 35720 10.98800000 3057098711 3057098711 11.00000000
-0.37674108 7.75853682 1.79330981 3 13 35722 7.97200000 3057098715 3057098715 13.00000000
-0.10453776 2.22497058 -0.59683675 3 0 35731 2.30600000 3057098741 3057098741 -15.00000000
-0.12191619 2.61431670 -0.60421854 3 2 35733 2.68600000 3057098745 3057098745 -13.00000000
-0.14687389 3.16135597 -0.61516821 2 4 35734 3.22400000 3057098750 3057098750 -11.00000000
-0.18233719 3.95445347 -0.62698936 2 6 35736 4.00800000 3057098754 3057098754 -9.00000000
-0.24010314 5.24706364 -0.64493257 2 8 35738 5.29200000 3057098759 3057098759 -7.00000000
-0.35556349 7.80007410 -0.68312669 4 10 35739 7.83800000 3057098764 3057098764 -5.00000000
