# .PCD v0.7 - Point Cloud Data file format
VERSION 0.7
FIELDS x y z intensity laser_id azimuth distance_m adjustedtime timestamp vertical_angle
SIZE 4 4 4 1 1 2 8 8 4 8
TYPE F F F U U U F U U F
COUNT 1 1 1 1 1 1 1 1 1 1
WIDTH 527
HEIGHT 1
VIEWPOINT 0 0 0 1 0 0 0
POINTS 527
DATA ascii
-4.05439234 1.52394593 0.07560383 5 1 29060 4.33200000 3055680122 3055680122 1.00000000
-2.16875625 0.81561393 -0.53493363 4 2 29061 2.37800000 3055680124 3055680124 -13.00000000
-4.11835575 1.54880857 0.23059222 7 3 29061 4.40600000 3055680127 3055680127 3.00000000
-2.55409956 0.96104056 -0.53044903 3 4 29062 2.78000000 3055680129 3055680129 -11.00000000
-3.08343887 1.16144598 -0.52186537 3 6 29064 3.33600000 3055680134 3055680134 -9.00000000
-3.84859943 1.45119488 -0.50502658 6 8 29066 4.14400000 3055680138 3055680138 -7.00000000
-5.14129066 1.93965602 -0.48075107 3 10 29067 5.51600000 3055680143 3055680143 -5.00000000
-9.89093494 3.73352790 2.05501294 25 11 29068 10.77000000 3055680145 3055680145 11.00000000
-4.07882023 1.54044425 -0.22849879 6 12 29069 4.36600000 3055680148 3055680148 -3.00000000
-3.95419407 1.49495423 -0.07378878 57 14 29071 4.22800000 3055680152 3055680152 -1.00000000
-8.28518581 3.13236356 2.37337065 45 15 29071 9.17000000 3055680154 3055680154 15.00000000
-1.87457037 0.71208251 -0.53730834 4 0 29080 2.07600000 3055680175 3055680175 -15.00000000
-4.05438709 1.54092705 0.07570854 5 1 29081 4.33800000 3055680177 3055680177 1.00000000
-2.16575241 0.82355732 -0.53493363 3 2 29082 2.37800000 3055680180 3055680180 -13.00000000
-4.11611176 1.56603098 0.23080157 7 3 29083 4.41000000 3055680182 3055680182 3.00000000
-2.54872513 0.96969724 -0.53006738 3 4 29083 2.77800000 3055680184 3055680184 -11.00000000
-3.08285332 1.17414570 -0.52249110 3 6 29085 3.34000000 3055680189 3055680189 -9.00000000
-3.83954501 1.46387661 -0.50453907 6 8 29087 4.14000000 3055680194 3055680194 -7.00000000
-5.14159298 1.96132731 -0.48144832 3 10 29088 5.52400000 3055680198 3055680198 -5.00000000
-9.89552593 3.77675533 2.05882907 25 11 29089 10.79000000 3055680201 3055680201 11.00000000
-4.10859823 1.56892109 -0.23048756 6 12 29090 4.40400000 3055680203 3055680203 -3.00000000
-3.95429182 1.51157904 -0.07389349 63 14 29092 4.23400000 3055680207 3055680207 -1.00000000
-8.28031540 3.16691375 2.37544131 45 15 29093 9.17800000 3055680210 3055680210 15.00000000
-1.87207341 0.71862161 -0.53730834 4 0 29100 2.07600000 3055680230 3055680230 -15.00000000
-4.06765127 1.56223965 0.07605759 3 1 29101 4.35800000 3055680233 3055680233 1.00000000
-2.17377877 0.83530623 -0.53763300 3 2 29102 2.39000000 3055680235 3055680235 -13.00000000
-4.11276054 1.58038819 0.23090623 7 3 29102 4.41200000 3055680237 3055680237 3.00000000
-2.53799486 0.97576994 -0.52854091 3 4 29103 2.77000000 3055680240 3055680240 -11.00000000
-5.21791649 2.00715113 0.48911804 2 5 29104 5.61200000 3055680242 3055680242 5.00000000
-3.08242321 1.18631876 -0.52311683 3 6 29105 3.34400000 3055680244 3055680244 -9.00000000
-3.83811641 1.47869754 -0.50502658 6 8 29107 4.14400000 3055680249 3055680249 -7.00000000
-5.12913799 1.97711301 -0.48092538 6 10 29108 5.51800000 3055680254 3055680254 -5.00000000
-9.90060043 3.81833863 2.06264520 25 11 29109 10.81000000 3055680256 3055680256 11.00000000
-4.09564304 1.58037710 -0.23006886 6 12 29110 4.39600000 3055680258 3055680258 -3.00000000
-3.96018362 1.52969611 -0.07410292 26 14 29112 4.24600000 3055680263 3055680263 -1.00000000
-8.25659657 3.19092321 2.37181783 47 15 29113 9.16400000 3055680265 3055680265 15.00000000
-1.85887265 0.72063595 -0.53420252 4 0 29119 2.06400000 3055680286 3055680286 -15.00000000
-4.06617689 1.57716608 0.07612740 5 1 29120 4.36200000 3055680288 3055680288 1.00000000
-2.17463040 0.84392017 -0.53853285 3 2 29121 2.39400000 3055680290 3055680290 -13.00000000
-4.12984085 1.60268891 0.23216230 7 3 29121 4.43600000 3055680293 3055680293 3.00000000
-2.53108478 0.98275965 -0.52777767 3 4 29122 2.76600000 3055680295 3055680295 -11.00000000
-5.23723221 2.03454399 0.49155840 2 5 29123 5.64000000 3055680297 3055680297 5.00000000
-3.07847214 1.19653392 -0.52311683 3 6 29124 3.34400000 3055680300 3055680300 -9.00000000
-3.83689189 1.49285662 -0.50551403 6 8 29126 4.14800000 3055680304 3055680304 -7.00000000
-5.12441015 1.99483371 -0.48109969 6 10 29127 5.52000000 3055680309 3055680309 -5.00000000
-9.89154243 3.85257411 2.06340837 25 11 29128 10.81400000 3055680311 3055680311 11.00000000
-4.10898924 1.60120189 -0.23111558 6 12 29129 4.41600000 3055680313 3055680313 -3.00000000
-3.96999311 1.54863381 -0.07438216 28 14 29131 4.26200000 3055680318 3055680318 -1.00000000
-8.23157215 3.21266651 2.36767673 47 15 29132 9.14800000 3055680320 3055680320 15.00000000
-1.86354101 0.72993857 -0.53627306 4 0 29139 2.07200000 3055680341 3055680341 -15.00000000
-4.06809425 1.59426868 0.07626702 3 1 29140 4.37000000 3055680343 3055680343 1.00000000
-2.16441417 0.84866047 -0.53673321 3 2 29141 2.38600000 3055680346 3055680346 -13.00000000
-4.12979937 1.61928225 0.23247632 7 3 29141 4.44200000 3055680348 3055680348 3.00000000
-2.53129411 0.99302280 -0.52854091 3 4 29142 2.77000000 3055680350 3055680350 -11.00000000
-5.24122620 2.05718064 0.49260426 2 5 29143 5.65200000 3055680353 3055680353 5.00000000
-3.05589008 1.20005190 -0.51998818 3 6 29144 3.32400000 3055680355 3055680355 -9.00000000
-3.85197949 1.51422954 -0.50819516 6 8 29146 4.17000000 3055680360 3055680360 -7.00000000
-5.13595724 2.02000165 -0.48284280 7 10 29147 5.54000000 3055680364 3055680364 -5.00000000
-9.87620735 3.88635969 2.06302691 28 11 29148 10.81200000 3055680366 3055680366 11.00000000
-4.10151672 1.61480355 -0.23101091 4 12 29149 4.41400000 3055680369 3055680369 -3.00000000
-3.97572565 1.56688154 -0.07459158 26 14 29151 4.27400000 3055680373 3055680373 -1.00000000
-8.22210503 3.24208927 2.36819434 47 15 29152 9.15000000 3055680376 3055680376 15.00000000
-1.86444545 0.73818618 -0.53730834 4 0 29160 2.07600000 3055680396 3055680396 -15.00000000
-4.05850554 1.60769534 0.07619721 5 1 29161 4.36600000 3055680399 3055680399 1.00000000
-2.15766597 0.85515171 -0.53583342 3 2 29162 2.38200000 3055680401 3055680401 -13.00000000
-4.11826658 1.63220024 0.23216230 7 3 29162 4.43600000 3055680403 3055680403 3.00000000
-2.53858757 1.00663579 -0.53083062 3 4 29163 2.78200000 3055680406 3055680406 -11.00000000
-5.25217104 2.08372426 0.49434736 2 5 29164 5.67200000 3055680408 3055680408 5.00000000
-3.07350326 1.21998978 -0.52374262 3 6 29165 3.34800000 3055680410 3055680410 -9.00000000
-3.83717990 1.52467251 -0.50697649 6 8 29167 4.16000000 3055680415 3055680415 -7.00000000
-5.14888477 2.04690862 -0.48476025 7 10 29168 5.56200000 3055680419 3055680419 -5.00000000
-9.87649059 3.92833638 2.06607985 28 11 29169 10.82800000 3055680422 3055680422 11.00000000
-4.10113764 1.63204098 -0.23132493 6 12 29170 4.42000000 3055680424 3055680424 -3.00000000
-3.97924471 1.58514297 -0.07476611 22 14 29172 4.28400000 3055680429 3055680429 -1.00000000
-8.21432781 3.27219987 2.36922956 45 15 29172 9.15400000 3055680431 3055680431 15.00000000
-1.86544478 0.74612468 -0.53834361 4 0 29180 2.08000000 3055680452 3055680452 -15.00000000
-4.07143450 1.62928188 0.07654625 3 1 29181 4.38600000 3055680454 3055680454 1.00000000
-2.15104938 0.86122948 -0.53493363 3 2 29182 2.37800000 3055680456 3055680456 -13.00000000
-4.11068964 1.64582336 0.23205763 7 3 29182 4.43400000 3055680459 3055680459 3.00000000
-2.53870320 1.01695108 -0.53159386 3 4 29183 2.78600000 3055680461 3055680461 -11.00000000
-5.28185320 2.11686897 0.49783361 3 5 29184 5.71200000 3055680463 3055680463 5.00000000
-3.05822515 1.22629964 -0.52186537 3 6 29185 3.33600000 3055680465 3055680465 -9.00000000
-3.84104538 1.54175472 -0.50819516 6 8 29187 4.17000000 3055680470 3055680470 -7.00000000
-5.13246441 2.06115651 -0.48388869 3 10 29188 5.55200000 3055680475 3055680475 -5.00000000
-9.87364864 3.96717954 2.06836963 28 11 29189 10.84000000 3055680477 3055680477 11.00000000
-4.09912205 1.64783657 -0.23153427 6 12 29190 4.42400000 3055680479 3055680479 -3.00000000
-3.97183204 1.59827697 -0.07473120 21 14 29192 4.28200000 3055680484 3055680484 -1.00000000
-8.20227909 3.30228496 2.36922956 45 15 29193 9.15400000 3055680486 3055680486 15.00000000
-1.87012553 0.75520009 -0.54041415 4 0 29199 2.08800000 3055680507 3055680507 -15.00000000
-4.07342529 1.64577067 0.07668588 3 1 29200 4.39400000 3055680509 3055680509 1.00000000
-2.15902185 0.87273985 -0.53763300 3 2 29201 2.39000000 3055680512 3055680512 -13.00000000
-4.11602926 1.66465533 0.23268566 5 3 29202 4.44600000 3055680514 3055680514 3.00000000
-2.53167701 1.02389205 -0.53083062 3 4 29202 2.78200000 3055680516 3055680516 -11.00000000
-5.28219175 2.13736200 0.49853083 3 5 29203 5.72000000 3055680518 3055680518 5.00000000
-3.08343816 1.24829459 -0.52687126 3 6 29204 3.36800000 3055680521 3055680521 -9.00000000
-3.81567430 1.54628241 -0.50551403 4 8 29206 4.14800000 3055680525 3055680525 -7.00000000
-5.11452246 2.07367349 -0.48284280 3 10 29207 5.54000000 3055680530 3055680530 -5.00000000
-9.87499237 4.00580406 2.07142234 28 11 29208 10.85600000 3055680532 3055680532 11.00000000
-4.08068085 1.65616298 -0.23080157 4 12 29209 4.41000000 3055680535 3055680535 -3.00000000
-3.96280479 1.60993397 -0.07466140 21 14 29211 4.27800000 3055680539 3055680539 -1.00000000
-8.18112564 3.32367396 2.36612368 47 15 29211 9.14200000 3055680542 3055680542 15.00000000
-1.86032283 0.75880498 -0.53834361 4 0 29219 2.08000000 3055680562 3055680562 -15.00000000
-4.07691288 1.66375744 0.07686040 5 1 29220 4.40400000 3055680565 3055680565 1.00000000
-2.17039561 0.88616395 -0.54123223 3 2 29221 2.40600000 3055680567 3055680567 -13.00000000
-4.13238049 1.68807626 0.23394172 5 3 29222 4.47000000 3055680569 3055680569 3.00000000
-2.52445245 1.03123808 -0.53006738 3 4 29222 2.77800000 3055680571 3055680571 -11.00000000
-5.25994444 2.14975715 0.49713635 3 5 29223 5.70400000 3055680574 3055680574 5.00000000
-3.05346417 1.24858308 -0.52249110 3 6 29224 3.34000000 3055680576 3055680576 -9.00000000
-3.82495070 1.56560802 -0.50746393 4 8 29226 4.16400000 3055680581 3055680581 -7.00000000
-5.12569094 2.09906435 -0.48458594 7 10 29227 5.56000000 3055680585 3055680585 -5.00000000
-9.87366676 4.04546022 2.07409382 31 11 29228 10.87000000 3055680588 3055680588 11.00000000
-4.04900265 1.65979147 -0.22933616 6 12 29229 4.38200000 3055680590 3055680590 -3.00000000
-3.96826100 1.62831163 -0.07487082 19 14 29231 4.29000000 3055680595 3055680595 -1.00000000
-8.16174030 3.35070229 2.36405325 45 15 29232 9.13400000 3055680597 3055680597 15.00000000
-1.85766280 0.76529408 -0.53834361 4 0 29239 2.08000000 3055680618 3055680618 -15.00000000
-4.07108068 1.67797828 0.07686040 5 1 29240 4.40400000 3055680620 3055680620 1.00000000
-2.15287662 0.88779128 -0.53763300 3 2 29241 2.39000000 3055680622 3055680622 -13.00000000
-4.14123344 1.70858455 0.23477910 5 3 29242 4.48600000 3055680624 3055680624 3.00000000
-2.53898597 1.04753149 -0.53388357 3 4 29242 2.79800000 3055680627 3055680627 -11.00000000
-5.45867395 2.25324750 0.51665926 3 5 29243 5.92800000 3055680629 3055680629 5.00000000
-3.05639029 1.26225019 -0.52374262 3 6 29244 3.34800000 3055680631 3055680631 -9.00000000
-3.82680058 1.58198357 -0.50843889 4 8 29246 4.17200000 3055680636 3055680636 -7.00000000
-5.09623861 2.10780573 -0.48249421 6 10 29247 5.53600000 3055680641 3055680641 -5.00000000
-9.86129951 4.08065176 2.07447529 25 11 29248 10.87200000 3055680643 3055680643 11.00000000
-4.04687500 1.67544293 -0.22954550 14 12 29249 4.38600000 3055680645 3055680645 -3.00000000
-3.98102641 1.64980924 -0.07521987 19 14 29251 4.31000000 3055680650 3055680650 -1.00000000
-8.15593815 3.37996793 2.36560607 45 15 29251 9.14000000 3055680652 3055680652 15.00000000
-1.85854733 0.77325803 -0.53937888 4 0 29259 2.08400000 3055680673 3055680673 -15.00000000
-4.07812166 1.69755816 0.07710473 13 1 29260 4.41800000 3055680675 3055680675 1.00000000
-2.14616656 0.89380240 -0.53673321 3 2 29261 2.38600000 3055680677 3055680677 -13.00000000
-4.15368032 1.73071158 0.23582582 5 3 29262 4.50600000 3055680680 3055680680 3.00000000
-2.52806497 1.05336750 -0.53235710 3 4 29262 2.79000000 3055680682 3055680682 -11.00000000
-5.42319059 2.26078868 0.51404458 9 5 29263 5.89800000 3055680684 3055680684 5.00000000
-3.04102683 1.26834893 -0.52186537 3 6 29264 3.33600000 3055680687 3055680687 -9.00000000
-3.81942320 1.59456718 -0.50819516 6 8 29266 4.17000000 3055680691 3055680691 -7.00000000
-4.86639690 2.03266454 -0.46140251 9 10 29267 5.29400000 3055680696 3055680696 -5.00000000
-9.86148643 4.12110519 2.07752824 31 11 29268 10.88800000 3055680698 3055680698 11.00000000
-4.04100180 1.68955898 -0.22954550 8 12 29269 4.38600000 3055680700 3055680700 -3.00000000
-3.98631120 1.66832769 -0.07542930 19 14 29271 4.32200000 3055680705 3055680705 -1.00000000
-8.14171314 3.40909219 2.36508846 45 15 29272 9.13800000 3055680707 3055680707 15.00000000
-1.86296105 0.78273416 -0.54144943 4 0 29279 2.09200000 3055680728 3055680728 -15.00000000
-4.07770157 1.71410787 0.07720944 30 1 29280 4.42400000 3055680730 3055680730 1.00000000
-2.14662623 0.90279943 -0.53763300 3 2 29281 2.39000000 3055680733 3055680733 -13.00000000
-4.14024973 1.74210167 0.23540713 5 3 29282 4.49800000 3055680735 3055680735 3.00000000
-2.52437282 1.06218565 -0.53235710 3 4 29282 2.79000000 3055680737 3055680737 -11.00000000
-5.41710234 2.28047848 0.51421887 12 5 29283 5.90000000 3055680740 3055680740 5.00000000
-3.05478573 1.28662395 -0.52499408 3 6 29284 3.35600000 3055680742 3055680742 -9.00000000
-3.80468798 1.60403395 -0.50697649 6 8 29286 4.16000000 3055680747 3055680747 -7.00000000
-4.80419874 2.02640939 -0.45617315 6 10 29287 5.23400000 3055680751 3055680751 -5.00000000
-9.86512852 4.16313601 2.08134460 28 11 29288 10.90800000 3055680753 3055680753 11.00000000
-4.04979944 1.70986938 -0.23038287 6 12 29289 4.40200000 3055680756 3055680756 -3.00000000
-3.97862148 1.68145382 -0.07539440 19 14 29291 4.32000000 3055680760 3055680760 -1.00000000
-8.12858391 3.43532014 2.36457086 40 15 29291 9.13600000 3055680763 3055680763 15.00000000
-1.85310376 0.78621423 -0.53937888 4 0 29299 2.08400000 3055680783 3055680783 -15.00000000
-4.07537460 1.72989392 0.07727925 60 1 29300 4.42800000 3055680786 3055680786 1.00000000
-2.14884281 0.91257232 -0.53898275 4 2 29301 2.39600000 3055680788 3055680788 -13.00000000
-4.14517307 1.76122940 0.23603517 5 3 29302 4.51000000 3055680790 3055680790 3.00000000
-2.52064967 1.07099080 -0.53235710 3 4 29302 2.79000000 3055680793 3055680793 -11.00000000
-5.42194414 2.30482984 0.51543903 9 5 29303 5.91400000 3055680795 3055680795 5.00000000
-3.06118274 1.30191791 -0.52687126 3 6 29304 3.36800000 3055680797 3055680797 -9.00000000
-3.80454493 1.61963761 -0.50770766 6 8 29306 4.16600000 3055680802 3055680802 -7.00000000
-4.74577045 2.02130651 -0.45129243 6 10 29307 5.17800000 3055680806 3055680806 -5.00000000
-9.87762833 4.20909071 2.08706880 31 11 29308 10.93800000 3055680809 3055680809 11.00000000
-4.08238840 1.74044418 -0.23258099 6 12 29309 4.44400000 3055680811 3055680811 -3.00000000
-3.97640634 1.69690132 -0.07546420 17 14 29311 4.32400000 3055680816 3055680816 -1.00000000
-8.11060810 3.46281433 2.36301780 24 15 29312 9.13000000 3055680818 3055680818 15.00000000
-1.84693456 0.79083419 -0.53834361 4 0 29318 2.08000000 3055680839 3055680839 -15.00000000
-2.15296936 0.92276388 -0.54078233 4 2 29320 2.40400000 3055680843 3055680843 -13.00000000
-4.15032339 1.77968836 0.23666319 5 3 29321 4.52200000 3055680846 3055680846 3.00000000
-2.50986671 1.07624888 -0.53083062 3 4 29321 2.78200000 3055680848 3055680848 -11.00000000
-5.41610241 2.32358265 0.51561338 9 5 29322 5.91600000 3055680850 3055680850 5.00000000
-3.03869629 1.30427074 -0.52374262 3 6 29323 3.34800000 3055680853 3055680853 -9.00000000
-3.81009650 1.63694668 -0.50917011 6 8 29325 4.17800000 3055680857 3055680857 -7.00000000
-4.71707630 2.02759123 -0.44920069 6 10 29326 5.15400000 3055680862 3055680862 -5.00000000
-9.86722374 4.24337435 2.08783197 28 11 29327 10.94200000 3055680864 3055680864 11.00000000
-4.08760262 1.75870848 -0.23320901 6 12 29328 4.45600000 3055680866 3055680866 -3.00000000
-3.98728681 1.71719694 -0.07577835 15 14 29330 4.34200000 3055680871 3055680871 -1.00000000
-8.08726883 3.48292828 2.35939431 6 15 29330 9.11600000 3055680873 3055680873 15.00000000
-1.84593606 0.79804295 -0.53886127 4 0 29338 2.08200000 3055680894 3055680894 -15.00000000
-4.15527391 1.79728651 0.07902449 6 1 29339 4.52800000 3055680896 3055680896 1.00000000
-2.14436984 0.92795169 -0.53943264 4 2 29340 2.39800000 3055680899 3055680899 -13.00000000
-4.15141726 1.79733896 0.23708189 5 3 29341 4.53000000 3055680901 3055680901 3.00000000
-2.50969791 1.08656335 -0.53159386 3 4 29341 2.78600000 3055680903 3055680903 -11.00000000
-5.42624092 2.35039330 0.51735651 9 5 29342 5.93600000 3055680906 3055680906 5.00000000
-3.04862499 1.32115352 -0.52624553 3 6 29343 3.36400000 3055680908 3055680908 -9.00000000
-3.81164384 1.65339625 -0.51014507 6 8 29345 4.18600000 3055680912 3055680912 -7.00000000
-4.68986511 2.03531957 -0.44728327 6 10 29346 5.13200000 3055680917 3055680917 -5.00000000
-9.85955429 4.28091908 2.08935857 28 11 29347 10.95000000 3055680919 3055680919 11.00000000
-4.07960653 1.77217042 -0.23310435 6 12 29348 4.45400000 3055680922 3055680922 -3.00000000
-3.99777293 1.73828113 -0.07609249 15 14 29350 4.36000000 3055680926 3055680926 -1.00000000
-8.00004673 3.48017979 2.33765364 2 15 29351 9.03200000 3055680929 3055680929 15.00000000
-1.85185075 0.80866885 -0.54144943 4 0 29359 2.09200000 3055680949 3055680949 -15.00000000
-4.17981005 1.82611418 0.07961788 8 1 29360 4.56200000 3055680952 3055680952 1.00000000
-2.13381195 0.93268305 -0.53763300 3 2 29361 2.39000000 3055680954 3055680954 -13.00000000
-4.15212154 1.81574357 0.23750056 5 3 29362 4.53800000 3055680956 3055680956 3.00000000
-2.51829004 1.10126090 -0.53426516 3 4 29362 2.80000000 3055680959 3055680959 -11.00000000
-5.44131899 2.38064742 0.51962256 9 5 29363 5.96200000 3055680961 3055680961 5.00000000
-3.04376245 1.33231843 -0.52624553 3 6 29364 3.36400000 3055680963 3055680963 -9.00000000
-3.80192184 1.66576231 -0.50965762 6 8 29366 4.18200000 3055680968 3055680968 -7.00000000
-4.63857937 2.03329778 -0.44309980 6 10 29367 5.08400000 3055680972 3055680972 -5.00000000
-9.85818100 4.32333565 2.09241152 25 11 29368 10.96600000 3055680975 3055680975 11.00000000
-4.08222866 1.79112339 -0.23362771 6 12 29369 4.46400000 3055680977 3055680977 -3.00000000
-3.99503684 1.75453019 -0.07616230 14 14 29371 4.36400000 3055680982 3055680982 -1.00000000
-7.98785019 3.50808382 2.33765364 2 15 29371 9.03200000 3055680984 3055680984 15.00000000
-1.84901667 0.81512809 -0.54144943 4 0 29379 2.09200000 3055681005 3055681005 -15.00000000
-4.21549225 1.85925353 0.08042069 56 1 29380 4.60800000 3055681007 3055681007 1.00000000
-2.13589191 0.94248587 -0.53898275 4 2 29381 2.39600000 3055681009 3055681009 -13.00000000
-4.14941216 1.83183932 0.23770991 5 3 29382 4.54200000 3055681012 3055681012 3.00000000
-2.51263475 1.10925174 -0.53388357 3 4 29382 2.79800000 3055681014 3055681014 -11.00000000
-3.02825212 1.33814454 -0.52436835 3 6 29384 3.35200000 3055681018 3055681018 -9.00000000
-3.78882217 1.67581141 -0.50868267 6 8 29386 4.17400000 3055681023 3055681023 -7.00000000
-4.64967346 2.05753970 -0.44484290 3 10 29387 5.10400000 3055681028 3055681028 -5.00000000
-9.87354851 4.37123156 2.09889889 25 11 29388 11.00000000 3055681030 3055681030 11.00000000
-4.08873463 1.81102407 -0.23436041 6 12 29389 4.47800000 3055681032 3055681032 -3.00000000
-3.99437237 1.77089632 -0.07626702 14 14 29391 4.37000000 3055681037 3055681037 -1.00000000
-7.95436287 3.52654958 2.33144188 2 15 29391 9.00800000 3055681039 3055681039 15.00000000
-1.84277320 0.81968486 -0.54041415 4 0 29398 2.08800000 3055681060 3055681060 -15.00000000
-2.13987565 0.95273405 -0.54078233 4 2 29400 2.40400000 3055681065 3055681065 -13.00000000
-4.14331484 1.84558916 0.23770991 5 3 29401 4.54200000 3055681067 3055681067 3.00000000
-2.49638867 1.11198604 -0.53121227 3 4 29401 2.78400000 3055681069 3055681069 -11.00000000
-3.04183984 1.35622323 -0.52749699 3 6 29403 3.37200000 3055681074 3055681074 -9.00000000
-3.79774642 1.69483829 -0.51063257 6 8 29405 4.19000000 3055681078 3055681078 -7.00000000
-4.60461950 2.05588913 -0.44118237 6 10 29406 5.06200000 3055681083 3055681083 -5.00000000
-9.88409424 4.41515970 2.10424161 18 11 29407 11.02800000 3055681085 3055681085 11.00000000
-4.09364748 1.82946229 -0.23498844 4 12 29408 4.49000000 3055681088 3055681088 -3.00000000
-3.99212861 1.78576541 -0.07633682 14 14 29410 4.37400000 3055681092 3055681092 -1.00000000
-7.97436714 3.56710672 2.34075952 2 15 29410 9.04400000 3055681094 3055681094 15.00000000
-1.82932663 0.82136458 -0.53730834 4 0 29418 2.07600000 3055681115 3055681115 -15.00000000
-2.13475966 0.95939898 -0.54033244 3 2 29420 2.40200000 3055681120 3055681120 -13.00000000
-4.15506315 1.86823130 0.23875663 5 3 29421 4.56200000 3055681122 3055681122 3.00000000
-2.50144482 1.12471867 -0.53312033 3 4 29421 2.79400000 3055681124 3055681124 -11.00000000
-3.02627897 1.36196876 -0.52561980 3 6 29423 3.36000000 3055681129 3055681129 -9.00000000
-3.78637743 1.70563865 -0.50990134 6 8 29425 4.18400000 3055681134 3055681134 -7.00000000
-4.60831404 2.07686162 -0.44222823 6 10 29426 5.07400000 3055681138 3055681138 -5.00000000
-9.87220192 4.45124865 2.10500479 18 11 29427 11.03200000 3055681141 3055681141 11.00000000
-4.10726309 1.85277462 -0.23613983 4 12 29428 4.51200000 3055681143 3055681143 -3.00000000
-4.00409603 1.80791867 -0.07668588 12 14 29430 4.39400000 3055681147 3055681147 -1.00000000
-7.93659163 3.58517623 2.33351254 2 15 29431 9.01600000 3055681150 3055681150 15.00000000
-1.83700585 0.83252978 -0.54041415 4 0 29438 2.08800000 3055681171 3055681171 -15.00000000
-4.24347544 1.92403281 0.08132821 115 1 29439 4.66000000 3055681173 3055681173 1.00000000
-2.13317227 0.96764988 -0.54078233 4 2 29440 2.40400000 3055681175 3055681175 -13.00000000
-4.16306639 1.88932693 0.23959401 5 3 29441 4.57800000 3055681177 3055681177 3.00000000
-2.50107908 1.13506627 -0.53388357 3 4 29441 2.79800000 3055681180 3055681180 -11.00000000
-3.02510357 1.37415814 -0.52624553 3 6 29443 3.36400000 3055681184 3055681184 -9.00000000
-3.79305005 1.72459650 -0.51160753 8 8 29445 4.19800000 3055681189 3055681189 -7.00000000
-4.60466337 2.09458494 -0.44257686 6 10 29446 5.07800000 3055681194 3055681194 -5.00000000
-9.86375141 4.48893452 2.10653138 18 11 29447 11.04000000 3055681196 3055681196 11.00000000
-4.10077047 1.86710036 -0.23613983 4 12 29448 4.51200000 3055681198 3055681198 -3.00000000
-10.63874054 4.84611130 2.69896269 57 13 29449 11.99800000 3055681200 3055681200 13.00000000
-4.01231813 1.82851863 -0.07696512 13 14 29450 4.41000000 3055681203 3055681203 -1.00000000
-7.95102787 3.62349200 2.34127712 2 15 29450 9.04600000 3055681205 3055681205 15.00000000
-1.83760226 0.84054422 -0.54144943 4 0 29458 2.09200000 3055681226 3055681226 -15.00000000
-2.12269425 0.97184527 -0.53898275 4 2 29460 2.39600000 3055681230 3055681230 -13.00000000
-4.17097282 1.91050112 0.24043138 5 3 29461 4.59400000 3055681233 3055681233 3.00000000
-2.50067163 1.14542484 -0.53464681 3 4 29461 2.80200000 3055681235 3055681235 -11.00000000
-3.02387977 1.38635588 -0.52687126 3 6 29463 3.36800000 3055681240 3055681240 -9.00000000
-3.78339863 1.73617041 -0.51112002 8 8 29465 4.19400000 3055681244 3055681244 -7.00000000
-4.60456657 2.11397052 -0.44327411 6 10 29466 5.08600000 3055681249 3055681249 -5.00000000
-9.85694218 4.52743530 2.10843945 25 11 29467 11.05000000 3055681251 3055681251 11.00000000
-4.09604311 1.88223720 -0.23624450 4 12 29468 4.51400000 3055681253 3055681253 -3.00000000
-10.61467743 4.87996197 2.69716311 57 13 29469 11.99000000 3055681256 3055681256 13.00000000
-4.01499462 1.84669113 -0.07713964 11 14 29470 4.42000000 3055681258 3055681258 -1.00000000
-7.96816778 3.66494775 2.35007691 2 15 29470 9.08000000 3055681260 3055681260 15.00000000
-1.83816493 0.84857291 -0.54248470 4 0 29478 2.09600000 3055681281 3055681281 -15.00000000
-4.24083233 1.95864153 0.08153764 19 1 29479 4.67200000 3055681283 3055681283 1.00000000
-2.11398172 0.97679669 -0.53763300 3 2 29480 2.39000000 3055681286 3055681286 -13.00000000
-4.16824055 1.92599750 0.24064073 5 3 29480 4.59800000 3055681288 3055681288 3.00000000
-2.49487615 1.15332305 -0.53426516 3 4 29481 2.80000000 3055681290 3055681290 -11.00000000
-3.01543641 1.39524364 -0.52624553 3 6 29483 3.36400000 3055681295 3055681295 -9.00000000
-3.78091764 1.75103486 -0.51160753 8 8 29485 4.19800000 3055681299 3055681299 -7.00000000
-4.61885262 2.14008188 -0.44536585 9 10 29486 5.11000000 3055681304 3055681304 -5.00000000
-4.10031891 1.90156531 -0.23687254 4 12 29488 4.52600000 3055681309 3055681309 -3.00000000
-10.57990170 4.90878248 2.69266415 59 13 29489 11.97000000 3055681311 3055681311 13.00000000
-4.00852394 1.86069489 -0.07713964 11 14 29490 4.42000000 3055681313 3055681313 -1.00000000
-9.04699326 4.19947433 2.67256546 28 15 29490 10.32600000 3055681316 3055681316 15.00000000
-1.83168936 0.85335249 -0.54144943 4 0 29498 2.09200000 3055681336 3055681336 -15.00000000
-4.26659441 1.98863912 0.08216593 36 1 29499 4.70800000 3055681339 3055681339 1.00000000
-2.12468839 0.99075854 -0.54123223 4 2 29500 2.40600000 3055681341 3055681341 -13.00000000
-4.17201328 1.94632828 0.24126875 5 3 29501 4.61000000 3055681343 3055681343 3.00000000
-2.49083495 1.16202474 -0.53426516 3 4 29501 2.80000000 3055681346 3055681346 -11.00000000
-3.02307677 1.41161144 -0.52843565 1 6 29503 3.37800000 3055681350 3055681350 -9.00000000
-3.77478242 1.76422203 -0.51160753 6 8 29505 4.19800000 3055681355 3055681355 -7.00000000
-4.61135435 2.15619159 -0.44536585 6 10 29506 5.11000000 3055681359 3055681359 -5.00000000
-4.11355495 1.92517924 -0.23802392 6 12 29508 4.54800000 3055681364 3055681364 -3.00000000
-10.56623173 4.94733620 2.69356394 57 13 29509 11.97400000 3055681366 3055681366 13.00000000
-4.01468039 1.88061380 -0.07738397 9 14 29510 4.43400000 3055681369 3055681369 -1.00000000
-9.03503895 4.23424482 2.67360067 45 15 29511 10.33000000 3055681371 3055681371 15.00000000
-1.81820977 0.85480952 -0.53834361 4 0 29518 2.08000000 3055681392 3055681392 -15.00000000
-4.26686478 2.00692463 0.08230555 8 1 29519 4.71600000 3055681394 3055681394 1.00000000
-2.12121725 0.99816900 -0.54123223 3 2 29520 2.40600000 3055681396 3055681396 -13.00000000
-4.18902922 1.97120762 0.24262950 5 3 29520 4.63600000 3055681399 3055681399 3.00000000
-2.49209237 1.17322099 -0.53541005 3 4 29521 2.80600000 3055681401 3055681401 -11.00000000
-3.02885246 1.42720735 -0.53031284 3 6 29523 3.39000000 3055681405 3055681405 -9.00000000
-3.78296447 1.78416193 -0.51355743 6 8 29525 4.21400000 3055681410 3055681410 -7.00000000
-4.60920525 2.17482567 -0.44588879 6 10 29526 5.11600000 3055681415 3055681415 -5.00000000
-4.12125778 1.94634974 -0.23886131 6 12 29528 4.56400000 3055681419 3055681419 -3.00000000
-10.54889774 4.98418903 2.69356394 62 13 29529 11.97400000 3055681422 3055681422 13.00000000
-4.02617025 1.90316200 -0.07773302 11 14 29530 4.45400000 3055681424 3055681424 -1.00000000
-9.01046848 4.25922918 2.67049479 47 15 29530 10.31800000 3055681426 3055681426 15.00000000
-1.82568729 0.86611921 -0.54144943 4 0 29538 2.09200000 3055681447 3055681447 -15.00000000
-2.12300110 1.00807500 -0.54258192 4 2 29540 2.41200000 3055681451 3055681451 -13.00000000
-4.21820688 2.00295186 0.24472293 6 3 29540 4.67600000 3055681454 3055681454 3.00000000
-2.49152851 1.18359768 -0.53617328 3 4 29541 2.81000000 3055681456 3055681456 -11.00000000
-3.00779629 1.43013716 -0.52749699 3 6 29543 3.37200000 3055681461 3055681461 -9.00000000
-3.78029847 1.79906213 -0.51404488 6 8 29545 4.21800000 3055681465 3055681465 -7.00000000
-4.62497139 2.20203590 -0.44815484 6 10 29546 5.14200000 3055681470 3055681470 -5.00000000
-4.11443853 1.96072376 -0.23886131 6 12 29548 4.56400000 3055681475 3055681475 -3.00000000
-10.52439976 5.01762629 2.69176435 60 13 29549 11.96600000 3055681477 3055681477 13.00000000
-4.03033209 1.92236972 -0.07794245 9 14 29550 4.46600000 3055681479 3055681479 -1.00000000
-9.00252151 4.29398251 2.67256546 47 15 29550 10.32600000 3055681481 3055681481 15.00000000
-1.82265282 0.87248677 -0.54144943 4 0 29558 2.09200000 3055681502 3055681502 -15.00000000
-4.24012518 2.03061771 0.08206122 100 1 29559 4.70200000 3055681504 3055681504 1.00000000
-2.11068201 1.01126945 -0.54033244 3 2 29560 2.40200000 3055681507 3055681507 -13.00000000
-4.22524595 2.02530551 0.24556030 4 3 29561 4.69200000 3055681509 3055681509 3.00000000
-2.48915219 1.19313610 -0.53655487 3 4 29561 2.81200000 3055681511 3055681511 -11.00000000
-2.99922395 1.43891871 -0.52687126 3 6 29563 3.36800000 3055681516 3055681516 -9.00000000
-3.75967979 1.80537260 -0.51209497 8 8 29565 4.20200000 3055681521 3055681521 -7.00000000
-5.01235437 2.40797496 -0.48650336 7 10 29566 5.58200000 3055681525 3055681525 -5.00000000
-4.10756922 1.97507393 -0.23886131 9 12 29568 4.56400000 3055681530 3055681530 -3.00000000
-10.50682068 5.05433273 2.69176435 60 13 29569 11.96600000 3055681532 3055681532 13.00000000
-4.03801203 1.94336402 -0.07822169 7 14 29570 4.48200000 3055681534 3055681534 -1.00000000
-8.98324108 4.32527304 2.67153025 49 15 29571 10.32200000 3055681537 3055681537 15.00000000
-1.83003366 0.88388485 -0.54455525 4 0 29578 2.10400000 3055681557 3055681557 -15.00000000
-2.11064816 1.02032721 -0.54123223 3 2 29580 2.40600000 3055681562 3055681562 -13.00000000
-4.25626802 2.05756044 0.24775842 2 3 29580 4.73400000 3055681564 3055681564 3.00000000
-2.47083306 1.19497943 -0.53350192 3 4 29581 2.79600000 3055681567 3055681567 -11.00000000
-3.00485086 1.45454323 -0.52874851 3 6 29583 3.38000000 3055681571 3055681571 -9.00000000
-3.75335503 1.81848526 -0.51209497 6 8 29585 4.20200000 3055681576 3055681576 -7.00000000
-5.04156876 2.44370627 -0.49016389 10 10 29586 5.62400000 3055681581 3055681581 -5.00000000
-4.11682224 1.99724603 -0.23980336 6 12 29588 4.58200000 3055681585 3055681585 -3.00000000
-10.48210144 5.08757401 2.68996477 57 13 29589 11.95800000 3055681587 3055681587 13.00000000
-4.03839922 1.96094131 -0.07836130 7 14 29590 4.49000000 3055681590 3055681590 -1.00000000
-8.96982574 4.35744858 2.67204785 49 15 29591 10.32400000 3055681592 3055681592 15.00000000
-1.81999063 0.88688242 -0.54248470 4 0 29598 2.09600000 3055681613 3055681613 -15.00000000
-2.11407995 1.03110564 -0.54303187 4 2 29600 2.41400000 3055681617 3055681617 -13.00000000
-2.47017550 1.20531881 -0.53426516 3 4 29601 2.80000000 3055681622 3055681622 -11.00000000
-3.00330544 1.46675694 -0.52937424 3 6 29603 3.38400000 3055681627 3055681627 -9.00000000
-3.75768495 1.83680642 -0.51355743 8 8 29605 4.21400000 3055681631 3055681631 -7.00000000
-5.01510954 2.45253682 -0.48842078 10 10 29606 5.60400000 3055681636 3055681636 -5.00000000
-4.14570379 2.02916503 -0.24189679 2 12 29608 4.62200000 3055681640 3055681640 -3.00000000
-10.46427822 5.12413263 2.68996477 57 13 29609 11.95800000 3055681643 3055681643 13.00000000
-4.02973413 1.97414625 -0.07832640 7 14 29610 4.48800000 3055681645 3055681645 -1.00000000
-8.95282650 4.38788223 2.67153025 47 15 29611 10.32200000 3055681647 3055681647 15.00000000
-1.80994904 0.88982069 -0.54041415 4 0 29618 2.08800000 3055681668 3055681668 -15.00000000
-4.15761900 2.04490089 0.08087445 4 1 29619 4.63400000 3055681670 3055681670 1.00000000
-2.11396480 1.04019964 -0.54393166 3 2 29620 2.41800000 3055681673 3055681673 -13.00000000
-2.46595311 1.21393406 -0.53426516 3 4 29621 2.80000000 3055681677 3055681677 -11.00000000
-3.00525498 1.48072386 -0.53062570 3 6 29623 3.39200000 3055681682 3055681682 -9.00000000
-3.75481129 1.85166800 -0.51404488 8 8 29625 4.21800000 3055681687 3055681687 -7.00000000
-5.01187849 2.47267246 -0.48894373 10 10 29626 5.61000000 3055681691 3055681691 -5.00000000
-7.58951378 3.74767566 -0.44359955 4 12 29628 8.47600000 3055681696 3055681696 -3.00000000
-10.44108677 5.15803909 2.68861508 36 13 29629 11.95200000 3055681698 3055681698 13.00000000
-4.05329418 2.00326276 -0.07891978 5 14 29630 4.52200000 3055681700 3055681700 -1.00000000
-8.92360115 4.41225672 2.66738915 47 15 29631 10.30600000 3055681703 3055681703 15.00000000
-1.81375468 0.89956665 -0.54248470 4 0 29638 2.09600000 3055681723 3055681723 -15.00000000
-4.14149904 2.05495715 0.08069993 8 1 29639 4.62400000 3055681726 3055681726 1.00000000
-2.10682988 1.04583943 -0.54303187 3 2 29640 2.41400000 3055681728 3055681728 -13.00000000
-2.46521735 1.22428083 -0.53502840 3 4 29641 2.80400000 3055681733 3055681733 -11.00000000
-2.99299240 1.48768806 -0.52937424 3 6 29643 3.38400000 3055681737 3055681737 -9.00000000
-3.75898862 1.87006855 -0.51550734 6 8 29645 4.23000000 3055681742 3055681742 -7.00000000
-5.00678396 2.49192762 -0.48929235 10 10 29646 5.61400000 3055681746 3055681746 -5.00000000
-7.56744719 3.76969242 -0.44307619 8 12 29648 8.46600000 3055681751 3055681751 -3.00000000
-9.08525753 4.52776289 2.34354019 15 13 29649 10.41800000 3055681753 3055681753 13.00000000
-4.07133102 2.02989078 -0.07940845 5 14 29650 4.55000000 3055681756 3055681756 -1.00000000
-8.91583633 4.44527197 2.66945958 47 15 29650 10.31400000 3055681758 3055681758 15.00000000
-1.81405890 0.90762115 -0.54351997 4 0 29658 2.10000000 3055681779 3055681779 -15.00000000
-4.18794632 2.09625316 0.08174707 2 1 29659 4.68400000 3055681781 3055681781 1.00000000
-2.08574176 1.04446161 -0.53853285 3 2 29660 2.39400000 3055681783 3055681783 -13.00000000
-2.46795011 1.23639607 -0.53655487 3 4 29661 2.81200000 3055681788 3055681788 -11.00000000
-2.99131274 1.49989736 -0.52999997 3 6 29663 3.38800000 3055681792 3055681792 -9.00000000
-3.74534106 1.87961698 -0.51453239 6 8 29665 4.22200000 3055681797 3055681797 -7.00000000
-5.01586056 2.51832914 -0.49103546 10 10 29666 5.63400000 3055681802 3055681802 -5.00000000
-7.55781174 3.79787827 -0.44328555 8 12 29668 8.47000000 3055681806 3055681806 -3.00000000
-10.35955334 5.20804739 2.67691755 40 13 29669 11.90000000 3055681809 3055681809 13.00000000
-4.08923149 2.05666900 -0.07989711 1 14 29670 4.57800000 3055681811 3055681811 -1.00000000
-8.89948368 4.47792053 2.66945958 47 15 29671 10.31400000 3055681813 3055681813 15.00000000
-1.81432903 0.91568875 -0.54455525 4 0 29678 2.10400000 3055681834 3055681834 -15.00000000
-2.09947729 1.06052232 -0.54303187 4 2 29680 2.41400000 3055681839 3055681839 -13.00000000
-2.46712351 1.24677432 -0.53731811 3 4 29681 2.81600000 3055681843 3055681843 -11.00000000
-2.97900796 1.50676358 -0.52874851 3 6 29683 3.38000000 3055681848 3055681848 -9.00000000
-3.74938369 1.89805865 -0.51599479 6 8 29685 4.23400000 3055681852 3055681852 -7.00000000
-5.00348473 2.53402209 -0.49068683 10 10 29686 5.63000000 3055681857 3055681857 -5.00000000
-10.16799068 5.15182400 2.21567416 25 11 29687 11.61200000 3055681859 3055681859 11.00000000
-7.56588602 3.83507299 -0.44454160 8 12 29688 8.49400000 3055681862 3055681862 -3.00000000
-8.82052994 4.47297478 2.28325319 12 13 29689 10.15000000 3055681864 3055681864 13.00000000
-8.88113976 4.50565958 2.66842437 47 15 29690 10.31000000 3055681869 3055681869 15.00000000
-1.80767834 0.92026347 -0.54351997 4 0 29698 2.10000000 3055681889 3055681889 -15.00000000
-2.09402633 1.06695962 -0.54258192 4 2 29700 2.41200000 3055681894 3055681894 -13.00000000
-2.45576000 1.25181222 -0.53579164 3 4 29701 2.80800000 3055681898 3055681898 -11.00000000
-2.99484539 1.52792573 -0.53250289 3 6 29703 3.40400000 3055681903 3055681903 -9.00000000
-3.73212790 1.90571833 -0.51453239 6 8 29705 4.22200000 3055681908 3055681908 -7.00000000
-4.99815750 2.55328488 -0.49103546 10 10 29706 5.63400000 3055681912 3055681912 -5.00000000
-10.17267227 5.19890022 2.22063518 28 11 29707 11.63800000 3055681915 3055681915 11.00000000
-7.57379293 3.87237024 -0.44579768 8 12 29708 8.51800000 3055681917 3055681917 -3.00000000
-8.74934483 4.47533894 2.26885629 15 13 29709 10.08600000 3055681919 3055681919 13.00000000
-8.86456585 4.53818035 2.66842437 47 15 29711 10.31000000 3055681924 3055681924 15.00000000
-1.80461669 0.92625290 -0.54351997 4 0 29717 2.10000000 3055681945 3055681945 -15.00000000
-2.09741020 1.07745969 -0.54438156 4 2 29719 2.42000000 3055681949 3055681949 -13.00000000
-2.46207237 1.26533329 -0.53808135 3 4 29720 2.82000000 3055681954 3055681954 -11.00000000
-2.96516967 1.52519882 -0.52812278 3 6 29722 3.37600000 3055681958 3055681958 -9.00000000
-3.73637724 1.92353570 -0.51599479 6 8 29724 4.23400000 3055681963 3055681963 -7.00000000
-4.98612022 2.56802082 -0.49068683 10 10 29725 5.63000000 3055681968 3055681968 -5.00000000
-7.56446028 3.89929461 -0.44600701 8 12 29727 8.52200000 3055681972 3055681972 -3.00000000
-8.67903137 4.47574615 2.25445938 15 13 29728 10.02200000 3055681975 3055681975 13.00000000
-8.84339809 4.56246376 2.66635370 47 15 29729 10.30200000 3055681979 3055681979 15.00000000
-1.79794133 0.93077028 -0.54248470 4 0 29737 2.09600000 3055682000 3055682000 -15.00000000
-2.08671522 1.08118844 -0.54258192 4 2 29739 2.41200000 3055682004 3055682004 -13.00000000
-2.45764041 1.27391982 -0.53808135 3 4 29740 2.82000000 3055682009 3055682009 -11.00000000
-2.97560859 1.54372704 -0.53093857 1 6 29742 3.39400000 3055682014 3055682014 -9.00000000
-3.73316360 1.93839598 -0.51648229 6 8 29744 4.23800000 3055682018 3055682018 -7.00000000
-4.99303865 2.59367585 -0.49225563 14 10 29745 5.64800000 3055682023 3055682023 -5.00000000
-7.59156084 3.94686580 -0.44841447 4 12 29747 8.56800000 3055682027 3055682027 -3.00000000
-8.62532043 4.48623180 2.24456167 15 13 29748 9.97800000 3055682030 3055682030 13.00000000
-8.82147598 4.59216928 2.66480088 47 15 29750 10.29600000 3055682034 3055682034 15.00000000
-1.79827023 0.93851495 -0.54351997 4 0 29756 2.10000000 3055682055 3055682055 -15.00000000
-5.03779173 2.63033628 0.09919948 2 1 29757 5.68400000 3055682057 3055682057 1.00000000
-2.07966375 1.08629775 -0.54168212 4 2 29758 2.40800000 3055682060 3055682060 -13.00000000
-2.44992256 1.28024411 -0.53731811 3 4 29759 2.81600000 3055682064 3055682064 -11.00000000
-2.97047305 1.55358601 -0.53093857 1 6 29761 3.39400000 3055682069 3055682069 -9.00000000
-3.74078488 1.95812976 -0.51843220 6 8 29763 4.25400000 3055682074 3055682074 -7.00000000
-5.00029516 2.61853790 -0.49382445 14 10 29764 5.66600000 3055682078 3055682078 -5.00000000
-5.03636646 2.63966775 -0.29800093 9 12 29766 5.69400000 3055682083 3055682083 -3.00000000
-8.56379795 4.49037600 2.23241425 10 13 29767 9.92400000 3055682085 3055682085 13.00000000
-5.02387857 2.63535857 -0.09902495 6 14 29768 5.67400000 3055682087 3055682087 -1.00000000
-8.80871582 4.62075758 2.66531849 49 15 29768 10.29800000 3055682090 3055682090 15.00000000
-1.80182123 0.94838560 -0.54559052 4 0 29776 2.10800000 3055682110 3055682110 -15.00000000
-5.02504063 2.64604187 0.09912967 10 1 29777 5.68000000 3055682113 3055682113 1.00000000
-2.07413507 1.09264231 -0.54123223 3 2 29778 2.40600000 3055682115 3055682115 -13.00000000
-5.00916147 2.63991404 0.29674488 7 3 29779 5.67000000 3055682117 3055682117 3.00000000
-2.44196510 1.28695750 -0.53655487 3 4 29779 2.81200000 3055682120 3055682120 -11.00000000
-5.01235008 2.64271259 0.49574187 2 5 29780 5.68800000 3055682122 3055682122 5.00000000
-2.95454860 1.55841589 -0.52906138 1 6 29781 3.38200000 3055682124 3055682124 -9.00000000
-3.72339416 1.96561515 -0.51696974 8 8 29783 4.24200000 3055682129 3055682129 -7.00000000
-4.97703028 2.62853241 -0.49242994 14 10 29784 5.65000000 3055682133 3055682133 -5.00000000
-4.98827457 2.63669848 -0.29569817 9 12 29786 5.65000000 3055682138 3055682138 -3.00000000
-4.97929716 2.63417721 -0.09832685 6 14 29788 5.63400000 3055682143 3055682143 -1.00000000
-8.78318405 4.64849377 2.66273022 14 15 29789 10.28800000 3055682145 3055682145 15.00000000
-1.78826165 0.94923478 -0.54248470 4 0 29796 2.09600000 3055682166 3055682166 -15.00000000
-4.97691917 2.64293313 0.09836176 7 1 29797 5.63600000 3055682168 3055682168 1.00000000
-2.07891321 1.10444713 -0.54348177 4 2 29798 2.41600000 3055682170 3055682170 -13.00000000
-4.97522497 2.64426017 0.29527947 6 3 29799 5.64200000 3055682173 3055682173 3.00000000
-2.43052340 1.29178810 -0.53502840 3 4 29799 2.80400000 3055682175 3055682175 -11.00000000
-4.97494793 2.64522672 0.49295288 8 5 29800 5.65600000 3055682177 3055682177 5.00000000
-2.96129870 1.57521355 -0.53125143 3 6 29801 3.39600000 3055682180 3055682180 -9.00000000
-4.98384571 2.65218973 0.69319284 7 7 29802 5.68800000 3055682182 3055682182 7.00000000
-3.72001457 1.98046601 -0.51745725 6 8 29803 4.24600000 3055682184 3055682184 -7.00000000
-4.96596718 2.64378786 0.89105070 9 9 29803 5.69600000 3055682186 3055682186 9.00000000
-4.94672251 2.63465047 -0.49033821 14 10 29804 5.62600000 3055682189 3055682189 -5.00000000
-4.97442579 2.65052009 1.09562528 8 11 29805 5.74200000 3055682191 3055682191 11.00000000
-4.95612812 2.64188123 -0.29433742 8 12 29806 5.62400000 3055682193 3055682193 -3.00000000
-4.95220709 2.64090109 1.29571807 5 13 29807 5.76000000 3055682196 3055682196 13.00000000
-4.93654966 2.63365793 -0.09766366 6 14 29808 5.59600000 3055682198 3055682198 -1.00000000
-4.97189760 2.65251613 1.50995028 6 15 29808 5.83400000 3055682200 3055682200 15.00000000
-1.79175007 0.95911801 -0.54455525 4 0 29816 2.10400000 3055682221 3055682221 -15.00000000
-4.91830397 2.63385677 0.09738443 7 1 29817 5.58000000 3055682223 3055682223 1.00000000
-2.07848072 1.11353767 -0.54438156 4 2 29818 2.42000000 3055682226 3055682226 -13.00000000
-4.92019510 2.63707995 0.29255798 6 3 29819 5.59000000 3055682228 3055682228 3.00000000
-2.43638182 1.30582893 -0.53731811 3 4 29819 2.81600000 3055682230 3055682230 -11.00000000
-4.92178679 2.63903880 0.48859510 8 5 29820 5.60600000 3055682233 3055682233 5.00000000
-2.96622658 1.59114337 -0.53312868 3 6 29821 3.40800000 3055682235 3055682235 -9.00000000
-4.93432713 2.64798093 0.68758684 7 7 29822 5.64200000 3055682237 3055682237 7.00000000
-3.72357273 1.99907303 -0.51891965 6 8 29823 4.25800000 3055682239 3055682239 -7.00000000
-4.92840004 2.64701629 0.88604480 9 9 29824 5.66400000 3055682242 3055682242 9.00000000
-4.90765667 2.63587523 -0.48737490 10 10 29824 5.59200000 3055682244 3055682244 -5.00000000
-4.92536688 2.64649510 1.08684802 8 11 29825 5.69600000 3055682246 3055682246 11.00000000
-4.92400646 2.64687181 -0.29297668 8 12 29826 5.59800000 3055682249 3055682249 -3.00000000
-4.92064667 2.64617276 1.28986931 8 13 29827 5.73400000 3055682251 3055682251 13.00000000
-4.89034510 2.63097811 -0.09693067 6 14 29828 5.55400000 3055682253 3055682253 -1.00000000
-4.90940762 2.64233851 1.49390352 6 15 29829 5.77200000 3055682256 3055682256 15.00000000
-1.78482294 0.96384281 -0.54351997 4 0 29837 2.10000000 3055682276 3055682276 -15.00000000
-4.88046789 2.63665771 0.09682595 7 1 29838 5.54800000 3055682279 3055682279 1.00000000
-2.06924248 1.11836851 -0.54303187 3 2 29839 2.41400000 3055682281 3055682281 -13.00000000
-4.88062954 2.63894653 0.29077858 6 3 29840 5.55600000 3055682283 3055682283 3.00000000
-2.43157935 1.31474996 -0.53731811 3 4 29840 2.81600000 3055682286 3055682286 -11.00000000
-4.86476517 2.63146615 0.48388869 8 5 29841 5.55200000 3055682288 3055682288 5.00000000
-2.94647646 1.59448326 -0.53062570 3 6 29842 3.39200000 3055682290 3055682290 -9.00000000
-4.89665747 2.65092731 0.68368703 7 7 29843 5.61000000 3055682292 3055682292 7.00000000
-3.72145724 2.01554322 -0.51965088 6 8 29844 4.26400000 3055682295 3055682295 -7.00000000
-4.88786411 2.64726996 0.88041317 9 9 29844 5.62800000 3055682297 3055682297 9.00000000
-4.86818218 2.63770914 -0.48441163 10 10 29845 5.55800000 3055682299 3055682299 -5.00000000
-4.87766218 2.64394712 1.07845247 8 11 29846 5.65200000 3055682302 3055682302 11.00000000
-4.86335611 2.63729072 -0.28994119 11 12 29847 5.54000000 3055682304 3055682304 -3.00000000
-4.87836933 2.64653397 1.28132117 7 13 29848 5.69600000 3055682306 3055682306 13.00000000
-4.83848858 2.62599158 -0.09609295 8 14 29849 5.50600000 3055682309 3055682309 -1.00000000
-4.86280012 2.63918638 1.48251545 6 15 29849 5.72800000 3055682311 3055682311 15.00000000
-1.78823411 0.97376263 -0.54559052 4 0 29857 2.10800000 3055682332 3055682332 -15.00000000
-4.84313774 2.63837171 0.09626748 7 1 29858 5.51600000 3055682334 3055682334 1.00000000
-2.06532598 1.12558472 -0.54303187 3 2 29859 2.41400000 3055682336 3055682336 -13.00000000
-4.84508467 2.64162588 0.28920850 6 3 29860 5.52600000 3055682339 3055682339 3.00000000
-2.43731737 1.32886851 -0.53960782 3 4 29860 2.82800000 3055682341 3055682341 -11.00000000
-4.83980799 2.63984489 0.48231989 8 5 29861 5.53400000 3055682343 3055682343 5.00000000
-2.95649886 1.61327457 -0.53344154 1 6 29862 3.41000000 3055682345 3055682345 -9.00000000
-4.85078430 2.64802933 0.67856848 7 7 29863 5.56800000 3055682348 3055682348 7.00000000
-3.71091461 2.02661848 -0.51916343 6 8 29864 4.26000000 3055682350 3055682350 -7.00000000
-4.85432243 2.65106034 0.87603301 9 9 29864 5.60000000 3055682352 3055682352 9.00000000
-4.83446693 2.64131260 -0.48197126 10 10 29865 5.53000000 3055682355 3055682355 -5.00000000
-4.84083986 2.64589167 1.07234657 8 11 29866 5.62000000 3055682357 3055682357 11.00000000
-4.82082510 2.63604474 -0.28795242 11 12 29867 5.50200000 3055682359 3055682359 -3.00000000
-4.83661842 2.64577723 1.27277303 8 13 29868 5.65800000 3055682362 3055682362 13.00000000
-4.82227564 2.63902497 -0.09595333 10 14 29869 5.49800000 3055682364 3055682364 -1.00000000
-4.83322191 2.64501548 1.47630382 6 15 29869 5.70400000 3055682366 3055682366 15.00000000
-1.79194093 0.98309249 -0.54766113 4 0 29875 2.11600000 3055682387 3055682387 -15.00000000
-4.79625893 2.63240671 0.09549957 10 1 29876 5.47200000 3055682389 3055682389 1.00000000
-2.06519604 1.13394344 -0.54393166 3 2 29877 2.41800000 3055682392 3055682392 -13.00000000
-4.79649925 2.63471794 0.28680104 6 3 29878 5.48000000 3055682394 3055682394 3.00000000
-2.43313050 1.33651900 -0.53960782 3 4 29878 2.82800000 3055682396 3055682396 -11.00000000
-4.81053734 2.64352226 0.48022816 11 5 29879 5.51000000 3055682398 3055682398 5.00000000
-2.95141602 1.62255466 -0.53344154 1 6 29880 3.41000000 3055682401 3055682401 -9.00000000
-4.80591440 2.64316630 0.67344999 10 7 29881 5.52600000 3055682403 3055682403 7.00000000
-3.70105100 2.03635263 -0.51867592 6 8 29882 4.25600000 3055682405 3055682405 -7.00000000
-4.81435490 2.64999747 0.87040138 9 9 29883 5.56400000 3055682408 3055682408 9.00000000
-4.79472733 2.63919377 -0.47883365 10 10 29883 5.49400000 3055682410 3055682410 -5.00000000
-4.81186676 2.64972234 1.06776714 8 11 29884 5.59600000 3055682412 3055682412 11.00000000
-4.78103113 2.63383007 -0.28606835 8 12 29885 5.46600000 3055682415 3055682415 -3.00000000
-4.78732157 2.63838434 1.26197541 8 13 29886 5.61000000 3055682417 3055682417 13.00000000
-4.76843071 2.62905860 -0.09504580 10 14 29887 5.44600000 3055682419 3055682419 -1.00000000
-4.80458784 2.64899349 1.47009218 6 15 29887 5.68000000 3055682421 3055682421 15.00000000
-1.77497482 0.98186070 -0.54351997 4 0 29895 2.10000000 3055682442 3055682442 -15.00000000
-4.76254559 2.63557744 0.09501090 7 1 29896 5.44400000 3055682445 3055682445 1.00000000
-2.06463504 1.14303315 -0.54483145 3 2 29897 2.42200000 3055682447 3055682447 -13.00000000
-4.74708796 2.62918806 0.28439358 6 3 29898 5.43400000 3055682449 3055682449 3.00000000
-2.42158055 1.34119928 -0.53808135 3 4 29898 2.82000000 3055682451 3055682451 -11.00000000
-4.75596905 2.63519168 0.47569606 8 5 29899 5.45800000 3055682454 3055682454 5.00000000
-2.93709564 1.62805879 -0.53187716 1 6 29900 3.40000000 3055682456 3055682456 -9.00000000
-4.77582645 2.64837360 0.67052513 10 7 29901 5.50200000 3055682458 3055682458 7.00000000
-3.70780730 2.05696344 -0.52062583 6 8 29902 4.27200000 3055682461 3055682461 -7.00000000
-4.75325918 2.63802886 0.86101532 9 9 29903 5.50400000 3055682463 3055682463 9.00000000
