# .PCD v0.7 - Point Cloud Data file format
VERSION 0.7
FIELDS x y z intensity laser_id azimuth distance_m adjustedtime timestamp vertical_angle
SIZE 4 4 4 1 1 2 8 8 4 8
TYPE F F F U U U F U U F
COUNT 1 1 1 1 1 1 1 1 1 1
WIDTH 523
HEIGHT 1
VIEWPOINT 0 0 0 1 0 0 0
POINTS 523
DATA ascii
-3.54030252 5.76369190 -0.59178752 4 10 32844 6.79000000 3057290641 3057290641 -5.00000000
-5.95509577 9.70262146 -0.59662992 4 12 32846 11.40000000 3057290645 3057290645 -3.00000000
-5.77107143 9.40647411 2.54779553 64 13 32847 11.32600000 3057290648 3057290648 13.00000000
-4.36607695 7.11921072 2.23774958 45 15 32848 8.64600000 3057290652 3057290652 15.00000000
-1.12455332 1.83942521 -0.57768410 4 0 32856 2.23200000 3057290673 3057290673 -15.00000000
-1.30237472 2.13195848 -0.57677448 3 2 32858 2.56400000 3057290678 3057290678 -13.00000000
-1.54907465 2.53679609 -0.57776964 4 4 32859 3.02800000 3057290682 3057290682 -11.00000000
-1.91271758 3.13476467 -0.58162332 2 6 32861 3.71800000 3057290687 3057290687 -9.00000000
-2.49454284 4.09153318 -0.58838516 2 8 32863 4.82800000 3057290691 3057290691 -7.00000000
-3.52016211 5.77601480 -0.59178752 4 10 32864 6.79000000 3057290696 3057290696 -5.00000000
-5.93988943 9.75405502 -0.59851402 4 12 32866 11.43600000 3057290701 3057290701 -3.00000000
-5.73009539 9.41324425 2.54419637 59 13 32867 11.31000000 3057290703 3057290703 13.00000000
-4.33794689 7.13186455 2.23671412 45 15 32869 8.64200000 3057290708 3057290708 15.00000000
-1.11644292 1.83984113 -0.57664883 4 0 32875 2.22800000 3057290728 3057290728 -15.00000000
-1.30136001 2.14626384 -0.57947391 3 2 32877 2.57600000 3057290733 3057290733 -13.00000000
-1.53454816 2.53184533 -0.57547992 4 4 32878 3.01600000 3057290738 3057290738 -11.00000000
-1.90538180 3.14615917 -0.58256197 2 6 32880 3.72400000 3057290742 3057290742 -9.00000000
-2.46862817 4.07940292 -0.58546031 2 8 32882 4.80400000 3057290747 3057290747 -7.00000000
-3.51748824 5.81493235 -0.59457648 4 10 32883 6.82200000 3057290751 3057290751 -5.00000000
-5.90854406 9.77540779 -0.59861869 4 12 32885 11.43800000 3057290756 3057290756 -3.00000000
-5.70287943 9.43886662 2.54599595 59 13 32886 11.31800000 3057290758 3057290758 13.00000000
-4.31152487 7.13884258 2.23464370 45 15 32887 8.63400000 3057290763 3057290763 15.00000000
-1.09706044 1.82221127 -0.56991953 4 0 32895 2.20200000 3057290784 3057290784 -15.00000000
-1.29586935 2.15413308 -0.58037370 3 2 32897 2.58000000 3057290788 3057290788 -13.00000000
-1.53177154 2.54728127 -0.57776964 2 4 32898 3.02800000 3057290793 3057290793 -11.00000000
-1.89947498 3.16125727 -0.58412629 2 6 32900 3.73400000 3057290797 3057290797 -9.00000000
-2.46254778 4.10161018 -0.58741021 2 8 32902 4.82000000 3057290802 3057290802 -7.00000000
-3.50537086 5.84084225 -0.59597099 4 10 32903 6.83800000 3057290807 3057290807 -5.00000000
-5.90109205 9.84050846 -0.60134012 4 12 32905 11.49000000 3057290811 3057290811 -3.00000000
-5.67390442 9.46540165 2.54779553 62 13 32906 11.32600000 3057290814 3057290814 13.00000000
-4.27863598 7.14059210 2.23050261 45 15 32907 8.61800000 3057290818 3057290818 15.00000000
-1.09993005 1.84076440 -0.57457829 4 0 32914 2.22000000 3057290839 3057290839 -15.00000000
-1.29071677 2.16176486 -0.58127350 3 2 32916 2.58400000 3057290844 3057290844 -13.00000000
-1.52734065 2.55909014 -0.57929611 4 4 32917 3.03600000 3057290848 3057290848 -11.00000000
-1.88594615 3.16244888 -0.58318770 2 6 32919 3.72800000 3057290853 3057290853 -9.00000000
-2.46112680 4.13021755 -0.59033507 2 8 32921 4.84400000 3057290857 3057290857 -7.00000000
-3.49210024 5.86270475 -0.59701681 4 10 32922 6.85000000 3057290862 3057290862 -5.00000000
-5.87353468 9.86860466 -0.60186350 8 12 32924 11.50000000 3057290867 3057290867 -3.00000000
-5.64049244 9.48081493 2.54689574 60 13 32925 11.32200000 3057290869 3057290869 13.00000000
-4.25493336 7.15474129 2.23050261 45 15 32926 8.61800000 3057290873 3057290873 15.00000000
-1.09546816 1.84791625 -0.57561356 4 0 32934 2.22400000 3057290894 3057290894 -15.00000000
-1.27124512 2.14613700 -0.57587469 4 2 32936 2.56000000 3057290899 3057290899 -13.00000000
-1.52039897 2.56778479 -0.58005935 4 4 32937 3.04000000 3057290903 3057290903 -11.00000000
-1.86483717 3.15201163 -0.58005899 1 6 32939 3.70800000 3057290908 3057290908 -9.00000000
-2.43861318 4.12511253 -0.58838516 2 8 32941 4.82800000 3057290913 3057290913 -7.00000000
-3.45742393 5.85084486 -0.59457648 8 10 32942 6.82200000 3057290917 3057290917 -5.00000000
-5.83600473 9.88388729 -0.60154951 4 12 32944 11.49400000 3057290922 3057290922 -3.00000000
-5.60142040 9.49037647 2.54419637 57 13 32945 11.31000000 3057290924 3057290924 13.00000000
-4.23064423 7.17361641 2.23153782 45 15 32947 8.62200000 3057290929 3057290929 15.00000000
-1.09488702 1.86172020 -0.57871938 4 0 32954 2.23600000 3057290950 3057290950 -15.00000000
-1.27164435 2.16400242 -0.57947391 3 2 32956 2.57600000 3057290954 3057290954 -13.00000000
-1.50943768 2.56969070 -0.57929611 2 4 32957 3.03600000 3057290959 3057290959 -11.00000000
-1.86782193 3.18235254 -0.58443916 2 6 32959 3.73600000 3057290963 3057290963 -9.00000000
-2.42419887 4.13359976 -0.58838516 2 8 32961 4.82800000 3057290968 3057290968 -7.00000000
-3.44000244 5.86803436 -0.59509939 8 10 32962 6.82800000 3057290973 3057290973 -5.00000000
-5.82266712 9.94038868 -0.60374761 4 12 32964 11.53600000 3057290977 3057290977 -3.00000000
-5.56235075 9.49978161 2.54149699 62 13 32965 11.29800000 3057290979 3057290979 13.00000000
-4.20683241 7.18760633 2.23153782 45 15 32966 8.62200000 3057290984 3057290984 15.00000000
-1.07962024 1.85051310 -0.57406062 4 0 32974 2.21800000 3057291005 3057291005 -15.00000000
-1.26408279 2.16842818 -0.57947391 3 2 32976 2.57600000 3057291009 3057291009 -13.00000000
-1.49255109 2.56137371 -0.57624316 2 4 32977 3.02000000 3057291014 3057291014 -11.00000000
-1.85868990 3.19226742 -0.58506489 2 6 32979 3.74000000 3057291019 3057291019 -9.00000000
-2.41774106 4.15576315 -0.59033507 2 8 32981 4.84400000 3057291023 3057291023 -7.00000000
-3.43251896 5.90239620 -0.59736544 4 10 32982 6.85400000 3057291028 3057291028 -5.00000000
-5.82004356 10.01591396 -0.60709709 4 12 32984 11.60000000 3057291032 3057291032 -3.00000000
-5.52915668 9.51914024 2.54149699 60 13 32985 11.29800000 3057291035 3057291035 13.00000000
-4.17492723 7.19055271 2.22791433 45 15 32986 8.60800000 3057291039 3057291039 15.00000000
-1.07766736 1.86281860 -0.57664883 4 0 32995 2.22800000 3057291060 3057291060 -15.00000000
-1.26197815 2.18316960 -0.58217335 3 2 32997 2.58800000 3057291065 3057291065 -13.00000000
-1.48315310 2.56682706 -0.57624316 2 4 32998 3.02000000 3057291069 3057291069 -11.00000000
-1.85487866 3.21274424 -0.58756787 2 6 33000 3.75600000 3057291074 3057291074 -9.00000000
-2.41042876 4.17835283 -0.59228504 2 8 33002 4.86000000 3057291078 3057291078 -7.00000000
-3.41882491 5.92874527 -0.59875995 4 10 33003 6.87000000 3057291083 3057291083 -5.00000000
-5.78828001 10.04583073 -0.60762048 4 12 33005 11.61000000 3057291088 3057291088 -3.00000000
-4.80757284 8.34713459 2.22386622 40 13 33006 9.88600000 3057291090 3057291090 13.00000000
-4.14179707 7.19408655 2.22429085 45 15 33007 8.59400000 3057291095 3057291095 15.00000000
-1.07308149 1.86992013 -0.57768410 4 0 33015 2.23200000 3057291115 3057291115 -15.00000000
-1.24659491 2.17403698 -0.57857412 3 2 33017 2.57200000 3057291120 3057291120 -13.00000000
-1.48199439 2.58561492 -0.57929611 4 4 33018 3.03600000 3057291125 3057291125 -11.00000000
-1.83383572 3.20205760 -0.58443916 2 6 33020 3.73600000 3057291129 3057291129 -9.00000000
-2.38991332 4.17640352 -0.59082258 2 8 33022 4.84800000 3057291134 3057291134 -7.00000000
-3.39415193 5.93372536 -0.59806269 4 10 33023 6.86200000 3057291138 3057291138 -5.00000000
-5.74624062 10.05383587 -0.60688776 4 12 33025 11.59600000 3057291143 3057291143 -3.00000000
-4.77937317 8.36555767 2.22431612 59 13 33026 9.88800000 3057291145 3057291145 13.00000000
-4.11923265 7.21592951 2.22636151 45 15 33028 8.60200000 3057291150 3057291150 15.00000000
-1.06687474 1.87346828 -0.57768410 4 0 33034 2.23200000 3057291171 3057291171 -15.00000000
-1.23841488 2.17646527 -0.57812423 4 2 33036 2.57000000 3057291175 3057291175 -13.00000000
-1.48117709 2.60416746 -0.58234906 4 4 33037 3.05200000 3057291180 3057291180 -11.00000000
-1.82906342 3.21842575 -0.58631635 2 6 33039 3.74800000 3057291184 3057291184 -9.00000000
-2.36624861 4.16704369 -0.58838516 2 8 33041 4.82800000 3057291189 3057291189 -7.00000000
-3.38429141 5.96227551 -0.59980583 4 10 33042 6.88200000 3057291194 3057291194 -5.00000000
-5.71286964 10.07283592 -0.60688776 4 12 33044 11.59600000 3057291198 3057291198 -3.00000000
-4.74487829 8.36949348 2.22116661 57 13 33045 9.87400000 3057291201 3057291201 13.00000000
-4.09654284 7.22883511 2.22636151 45 15 33046 8.60200000 3057291205 3057291205 15.00000000
-1.06412899 1.88390923 -0.57975465 4 0 33054 2.24000000 3057291226 3057291226 -15.00000000
-1.23655713 2.19095755 -0.58082360 3 2 33056 2.58200000 3057291230 3057291230 -13.00000000
-1.46436048 2.59564257 -0.57929611 2 4 33057 3.03600000 3057291235 3057291235 -11.00000000
-1.81975782 3.22823238 -0.58694214 2 6 33059 3.75200000 3057291240 3057291240 -9.00000000
-2.37117219 4.20987034 -0.59325999 2 8 33061 4.86800000 3057291244 3057291244 -7.00000000
-3.36541367 5.97752476 -0.60015446 4 10 33062 6.88600000 3057291249 3057291249 -5.00000000
-5.69530010 10.12404919 -0.60877186 4 12 33064 11.63200000 3057291254 3057291254 -3.00000000
-4.71372414 8.38260841 2.22026682 56 13 33065 9.87000000 3057291256 3057291256 13.00000000
-4.06371164 7.22961807 2.22222042 40 15 33066 8.58600000 3057291260 3057291260 15.00000000
-1.05188107 1.87750006 -0.57664883 4 0 33074 2.22800000 3057291281 3057291281 -15.00000000
-1.22890162 2.19526052 -0.58082360 3 2 33076 2.58200000 3057291286 3057291286 -13.00000000
-1.45720851 2.60416484 -0.58005935 2 4 33077 3.04000000 3057291290 3057291290 -11.00000000
-1.81233418 3.24146152 -0.58819360 2 6 33079 3.76000000 3057291295 3057291295 -9.00000000
-2.35258985 4.21118975 -0.59228504 2 8 33081 4.86000000 3057291300 3057291300 -7.00000000
-3.35229874 6.00315189 -0.60154891 4 10 33082 6.90200000 3057291304 3057291304 -5.00000000
-5.67355061 10.16828537 -0.61023724 4 12 33084 11.66000000 3057291309 3057291309 -3.00000000
-4.68253613 8.39560699 2.21936703 59 13 33085 9.86600000 3057291311 3057291311 13.00000000
-4.00333166 7.18371344 2.20358539 22 15 33087 8.51400000 3057291316 3057291316 15.00000000
-1.04156756 1.87440574 -0.57457829 4 0 33094 2.22000000 3057291336 3057291336 -15.00000000
-1.22501516 2.20635176 -0.58262324 3 2 33096 2.59000000 3057291341 3057291341 -13.00000000
-1.45001483 2.61266875 -0.58082259 2 4 33097 3.04400000 3057291346 3057291346 -11.00000000
-1.79142845 3.23049259 -0.58506489 2 6 33099 3.74000000 3057291350 3057291350 -9.00000000
-2.35519338 4.25063086 -0.59667230 2 8 33101 4.89600000 3057291355 3057291355 -7.00000000
-3.31780910 5.99041653 -0.59910858 4 10 33102 6.87400000 3057291360 3057291360 -5.00000000
-5.63995600 10.19152355 -0.61044657 4 12 33104 11.66400000 3057291364 3057291364 -3.00000000
-4.65697432 8.41872215 2.22116661 59 13 33105 9.87400000 3057291366 3057291366 13.00000000
-3.92122626 7.09450674 2.17200947 15 15 33107 8.39200000 3057291371 3057291371 15.00000000
-1.03814435 1.88292468 -0.57613117 4 0 33113 2.22600000 3057291392 3057291392 -15.00000000
-1.21393061 2.20357442 -0.58082360 3 2 33115 2.58200000 3057291396 3057291396 -13.00000000
-1.44702494 2.62778139 -0.58311230 2 4 33116 3.05600000 3057291401 3057291401 -11.00000000
-1.78070593 3.23641562 -0.58506489 2 6 33118 3.74000000 3057291406 3057291406 -9.00000000
-2.32769632 4.23406363 -0.59325999 2 8 33120 4.86800000 3057291410 3057291410 -7.00000000
-3.31135941 6.02583122 -0.60154891 4 10 33121 6.90200000 3057291415 3057291415 -5.00000000
-5.61958647 10.23468018 -0.61191201 4 12 33123 11.69200000 3057291419 3057291419 -3.00000000
-4.62903118 8.43411922 2.22116661 59 13 33124 9.87400000 3057291422 3057291422 13.00000000
-3.87631369 7.06851196 2.16010380 15 15 33126 8.34600000 3057291426 3057291426 15.00000000
-1.04176044 1.90518200 -0.58182520 4 0 33133 2.24800000 3057291447 3057291447 -15.00000000
-1.20436263 2.20437813 -0.57992381 3 2 33135 2.57800000 3057291452 3057291452 -13.00000000
-1.44160748 2.63970852 -0.58463877 2 4 33136 3.06400000 3057291456 3057291456 -11.00000000
-1.76939785 3.24261165 -0.58506489 2 6 33138 3.74000000 3057291461 3057291461 -9.00000000
-2.32050443 4.25610638 -0.59520990 2 8 33140 4.88400000 3057291466 3057291466 -7.00000000
-3.30937386 6.07234240 -0.60503519 4 10 33141 6.94200000 3057291470 3057291470 -5.00000000
-5.58955765 10.26475811 -0.61254001 4 12 33143 11.70400000 3057291475 3057291475 -3.00000000
-4.59769917 8.44680309 2.22026682 62 13 33144 9.87000000 3057291477 3057291477 13.00000000
-3.84700131 7.07351398 2.15751553 15 15 33146 8.33600000 3057291482 3057291482 15.00000000
-1.02773654 1.89522099 -0.57768410 4 0 33153 2.23200000 3057291502 3057291502 -15.00000000
-1.19851732 2.21199560 -0.58082360 3 2 33155 2.58200000 3057291507 3057291507 -13.00000000
-1.42490458 2.63091421 -0.58158582 4 4 33156 3.04800000 3057291512 3057291512 -11.00000000
-1.76746976 3.26614141 -0.58819360 2 6 33158 3.76000000 3057291516 3057291516 -9.00000000
-2.30185699 4.25719547 -0.59423494 2 8 33160 4.87600000 3057291521 3057291521 -7.00000000
-3.28436780 6.07684612 -0.60433793 4 10 33161 6.93400000 3057291525 3057291525 -5.00000000
-5.55938673 10.29475117 -0.61316806 4 12 33163 11.71600000 3057291530 3057291530 -3.00000000
-4.56633520 8.45937061 2.21936703 59 13 33164 9.86600000 3057291532 3057291532 13.00000000
-3.81618476 7.07263136 2.15337443 20 15 33165 8.32000000 3057291537 3057291537 15.00000000
-1.01928473 1.89539409 -0.57664883 4 0 33173 2.22800000 3057291558 3057291558 -15.00000000
-1.19078875 2.21616554 -0.58082360 3 2 33175 2.58200000 3057291562 3057291562 -13.00000000
-1.41199648 2.62895370 -0.58005935 2 4 33176 3.04000000 3057291567 3057291567 -11.00000000
-1.75418985 3.26880980 -0.58756787 2 6 33178 3.75600000 3057291571 3057291571 -9.00000000
-2.29073501 4.27220249 -0.59520990 2 8 33180 4.88400000 3057291576 3057291576 -7.00000000
-3.25937104 6.08124924 -0.60364068 4 10 33181 6.92600000 3057291581 3057291581 -5.00000000
-5.53661823 10.33874416 -0.61463344 4 12 33183 11.74400000 3057291585 3057291585 -3.00000000
-4.53677845 8.47525883 2.21936703 57 13 33184 9.86600000 3057291588 3057291588 13.00000000
-3.78294778 7.07294273 2.14923334 22 15 33186 8.30400000 3057291592 3057291592 15.00000000
-1.01084435 1.89553130 -0.57561356 4 0 33193 2.22400000 3057291613 3057291613 -15.00000000
-1.18487835 2.22374845 -0.58172345 3 2 33195 2.58600000 3057291618 3057291618 -13.00000000
-1.40650272 2.64079762 -0.58158582 2 4 33196 3.04800000 3057291622 3057291622 -11.00000000
-1.73534489 3.26096249 -0.58506489 2 6 33198 3.74000000 3057291627 3057291627 -9.00000000
-2.29071927 4.30821657 -0.59910971 2 8 33200 4.91600000 3057291631 3057291631 -7.00000000
-3.22690272 6.07147789 -0.60154891 4 10 33201 6.90200000 3057291636 3057291636 -5.00000000
-5.51548290 10.38623047 -0.61630821 4 12 33203 11.77600000 3057291641 3057291641 -3.00000000
-4.50899410 8.49448586 2.22026682 59 13 33204 9.87000000 3057291643 3057291643 13.00000000
-3.74589038 7.05985069 2.14146876 18 15 33205 8.27400000 3057291648 3057291648 15.00000000
-1.00241542 1.89563262 -0.57457829 4 0 33213 2.22000000 3057291668 3057291668 -15.00000000
-1.17710888 2.22787094 -0.58172345 3 2 33215 2.58600000 3057291673 3057291673 -13.00000000
-1.40094340 2.65263510 -0.58311230 2 4 33216 3.05600000 3057291677 3057291677 -11.00000000
-1.72395146 3.26700020 -0.58506489 2 6 33218 3.74000000 3057291682 3057291682 -9.00000000
-2.26455712 4.29511452 -0.59618485 2 8 33220 4.89200000 3057291687 3057291687 -7.00000000
-3.21683669 6.10385561 -0.60364068 4 10 33221 6.92600000 3057291691 3057291691 -5.00000000
-5.49222279 10.43016148 -0.61777365 4 12 33223 11.80400000 3057291696 3057291696 -3.00000000
-4.48113060 8.51362228 2.22116661 62 13 33224 9.87400000 3057291698 3057291698 13.00000000
-3.71639276 7.06669331 2.13939834 20 15 33226 8.26600000 3057291703 3057291703 15.00000000
-1.00296915 1.91280758 -0.57871938 4 0 33233 2.23600000 3057291724 3057291724 -15.00000000
-1.16751623 2.22851372 -0.58082360 3 2 33235 2.58200000 3057291728 3057291728 -13.00000000
-1.39349699 2.66098762 -0.58387554 2 4 33236 3.06000000 3057291733 3057291733 -11.00000000
-1.71803176 3.28349972 -0.58694214 2 6 33238 3.75200000 3057291737 3057291737 -9.00000000
-2.25506854 4.31354856 -0.59764725 2 8 33240 4.90400000 3057291742 3057291742 -7.00000000
-3.21212029 6.14683247 -0.60677826 4 10 33241 6.96200000 3057291747 3057291747 -5.00000000
-5.47611809 10.48821926 -0.62007642 4 12 33243 11.84800000 3057291751 3057291751 -3.00000000
-4.44597530 8.51884651 2.21846724 57 13 33244 9.86200000 3057291754 3057291754 13.00000000
-3.68668365 7.06698895 2.13577485 20 15 33245 8.25200000 3057291758 3057291758 15.00000000
-0.99628609 1.91629696 -0.57871938 4 0 33253 2.23600000 3057291779 3057291779 -15.00000000
-1.16152680 2.23603439 -0.58172345 3 2 33255 2.58600000 3057291783 3057291783 -13.00000000
-1.37877178 2.65538144 -0.58158582 2 4 33256 3.04800000 3057291788 3057291788 -11.00000000
-1.71383727 3.30350423 -0.58944505 2 6 33258 3.76800000 3057291793 3057291793 -9.00000000
-3.97572184 7.66994524 -1.06075072 9 8 33260 8.70400000 3057291797 3057291797 -7.00000000
-3.19431067 6.16508341 -0.60747552 4 10 33261 6.97000000 3057291802 3057291802 -5.00000000
-5.44314671 10.51436520 -0.62049508 4 12 33263 11.85600000 3057291806 3057291806 -3.00000000
-4.40904713 8.52046776 2.21486807 59 13 33264 9.84600000 3057291809 3057291809 13.00000000
-3.96423244 7.66414213 -0.15061426 6 14 33265 8.63000000 3057291811 3057291811 -1.00000000
-3.65809536 7.07530594 2.13422179 20 15 33266 8.24600000 3057291813 3057291813 15.00000000
-0.98782063 1.91632867 -0.57768410 4 0 33273 2.23200000 3057291834 3057291834 -15.00000000
-1.14836085 2.22968030 -0.57902402 3 2 33275 2.57400000 3057291839 3057291839 -13.00000000
-1.36949432 2.66017795 -0.58158582 2 4 33276 3.04800000 3057291843 3057291843 -11.00000000
-1.69868112 3.30244017 -0.58819360 2 6 33278 3.76000000 3057291848 3057291848 -9.00000000
-3.91262937 7.61315346 -1.05100119 9 8 33280 8.62400000 3057291853 3057291853 -7.00000000
-3.91202211 7.61524105 -0.74901646 4 10 33281 8.59400000 3057291857 3057291857 -5.00000000
-3.92256689 7.64232922 -0.45019388 12 12 33283 8.60200000 3057291862 3057291862 -3.00000000
-4.38105774 8.53927422 2.21576786 59 13 33284 9.85000000 3057291864 3057291864 13.00000000
-3.63020492 7.07880259 2.13163376 20 15 33285 8.23600000 3057291869 3057291869 15.00000000
-0.97672963 1.91116405 -0.57509589 4 0 33293 2.22200000 3057291889 3057291889 -15.00000000
-1.15297794 2.25797319 -0.58532262 3 2 33295 2.60200000 3057291894 3057291894 -13.00000000
-1.36555541 2.67543411 -0.58387554 2 4 33296 3.06000000 3057291899 3057291899 -11.00000000
-3.91094136 7.66903543 -1.36348283 2 6 33298 8.71600000 3057291903 3057291903 -9.00000000
-3.88332701 7.62145853 -1.05026996 11 8 33300 8.61800000 3057291908 3057291908 -7.00000000
-3.87818241 7.61464691 -0.74762195 8 10 33301 8.57800000 3057291912 3057291912 -5.00000000
-4.99854183 9.81866264 2.14164019 12 11 33302 11.22400000 3057291915 3057291915 11.00000000
-3.88590240 7.63639450 -0.44904250 17 12 33303 8.58000000 3057291917 3057291917 -3.00000000
-4.35299015 8.55798912 2.21666765 55 13 33304 9.85400000 3057291919 3057291919 13.00000000
-3.87528539 7.62211180 -0.14925298 72 14 33305 8.55200000 3057291922 3057291922 -1.00000000
-3.59198213 7.06794930 2.12438679 15 15 33306 8.20800000 3057291924 3057291924 15.00000000
-0.97441816 1.92317820 -0.57768410 3 0 33313 2.23200000 3057291945 3057291945 -15.00000000
-1.14156854 2.25502944 -0.58352304 3 2 33315 2.59400000 3057291949 3057291949 -13.00000000
-1.35443521 2.67668104 -0.58311230 2 4 33316 3.05600000 3057291954 3057291954 -11.00000000
-3.86810493 7.65090895 -1.35785115 4 6 33318 8.68000000 3057291959 3057291959 -9.00000000
-3.85848951 7.63851118 -1.05075753 31 8 33320 8.62200000 3057291963 3057291963 -7.00000000
-3.84798670 7.62102365 -0.74692470 13 10 33321 8.57000000 3057291968 3057291968 -5.00000000
-4.94654655 9.80099678 2.13400769 12 11 33322 11.18400000 3057291970 3057291970 11.00000000
-3.84932733 7.63029718 -0.44789112 25 12 33323 8.55800000 3057291972 3057291972 -3.00000000
-4.32133579 8.56965160 2.21576786 62 13 33324 9.85000000 3057291975 3057291975 13.00000000
-3.84235525 7.62309313 -0.14900865 76 14 33325 8.53800000 3057291977 3057291977 -1.00000000
-3.56330705 7.06947136 2.12128091 11 15 33325 8.19600000 3057291979 3057291979 15.00000000
-0.96856618 1.92829418 -0.57820177 4 0 33333 2.23400000 3057292000 3057292000 -15.00000000
-1.13019371 2.25203371 -0.58172345 3 2 33335 2.58600000 3057292005 3057292005 -13.00000000
-1.35564709 2.70245075 -0.58769172 2 4 33336 3.08000000 3057292009 3057292009 -11.00000000
-1.66223538 3.31651521 -0.58756787 2 6 33338 3.75600000 3057292014 3057292014 -9.00000000
-3.81868553 7.62906408 -0.74640179 13 10 33341 8.56400000 3057292023 3057292023 -5.00000000
-4.90352011 9.80064678 2.13019156 15 11 33342 11.16400000 3057292025 3057292025 11.00000000
-3.81105542 7.62046528 -0.44653037 46 12 33343 8.53200000 3057292028 3057292028 -3.00000000
-4.29139566 8.58468342 2.21576786 57 13 33344 9.85000000 3057292030 3057292030 13.00000000
-3.81572223 7.63645887 -0.14900865 100 14 33345 8.53800000 3057292032 3057292032 -1.00000000
-3.53650904 7.08075571 2.12076330 9 15 33346 8.19400000 3057292035 3057292035 15.00000000
-0.96044368 1.92803705 -0.57716650 4 0 33352 2.23000000 3057292055 3057292055 -15.00000000
-1.12445605 2.25925851 -0.58262324 3 2 33354 2.59000000 3057292060 3057292060 -13.00000000
-1.33968222 2.69286919 -0.58463877 2 4 33355 3.06400000 3057292065 3057292065 -11.00000000
-1.65826225 3.33616042 -0.59007078 2 6 33357 3.77200000 3057292069 3057292069 -9.00000000
-3.80464101 7.66104174 -1.05026996 96 8 33359 8.61800000 3057292074 3057292074 -7.00000000
-3.79425144 7.64347029 -0.74657607 13 10 33360 8.56600000 3057292078 3057292078 -5.00000000
-4.86401176 9.80278397 2.12713861 18 11 33361 11.14800000 3057292081 3057292081 11.00000000
-3.78043962 7.62232542 -0.44590235 46 12 33362 8.52000000 3057292083 3057292083 -3.00000000
-4.25598001 8.58489990 2.21216869 56 13 33363 9.83400000 3057292085 3057292085 13.00000000
-3.51253104 7.08836937 2.11972809 6 15 33364 8.19000000 3057292090 3057292090 15.00000000
-0.95285237 1.92964566 -0.57664883 4 0 33372 2.22800000 3057292111 3057292111 -15.00000000
-1.11742508 2.26491737 -0.58307314 3 2 33374 2.59200000 3057292115 3057292115 -13.00000000
-1.32680094 2.69048619 -0.58311230 2 4 33375 3.05600000 3057292120 3057292120 -11.00000000
-1.64660680 3.34192848 -0.59007078 2 6 33377 3.77200000 3057292124 3057292124 -9.00000000
-3.76754761 7.65666819 -0.74657607 8 10 33380 8.56600000 3057292134 3057292134 -5.00000000
-4.82369900 9.80737114 2.12446737 21 11 33381 11.13400000 3057292136 3057292136 11.00000000
-3.77583909 7.68028450 -0.44851914 21 12 33382 8.57000000 3057292138 3057292138 -3.00000000
-4.22770596 8.60320091 2.21306849 56 13 33383 9.83800000 3057292141 3057292141 13.00000000
-3.78040528 7.69635677 -0.14967184 171 14 33384 8.57600000 3057292143 3057292143 -1.00000000
-3.48350811 7.09191704 2.11713982 2 15 33384 8.18000000 3057292145 3057292145 15.00000000
-0.94271368 1.92601943 -0.57457829 4 0 33392 2.22000000 3057292166 3057292166 -15.00000000
-1.11293674 2.27580667 -0.58487272 3 2 33394 2.60000000 3057292171 3057292171 -13.00000000
-1.31567693 2.69157338 -0.58234906 2 4 33395 3.05200000 3057292175 3057292175 -11.00000000
-1.64359999 3.36540604 -0.59319949 2 6 33397 3.79200000 3057292180 3057292180 -9.00000000
-3.77805066 7.74272156 -1.05782592 13 8 33399 8.68000000 3057292184 3057292184 -7.00000000
-3.74167132 7.67156315 -0.74675041 8 10 33400 8.56800000 3057292189 3057292189 -5.00000000
-4.77825117 9.80120754 2.11950636 21 11 33401 11.10800000 3057292191 3057292191 11.00000000
-3.75688100 7.70957661 -0.44946119 17 12 33402 8.58800000 3057292194 3057292194 -3.00000000
-4.19594288 8.61440277 2.21216869 59 13 33403 9.83400000 3057292196 3057292196 13.00000000
-3.92299652 8.05760670 2.40132308 42 15 33404 9.27800000 3057292200 3057292200 15.00000000
-0.94104421 1.93972695 -0.57768410 4 0 33412 2.23200000 3057292221 3057292221 -15.00000000
-1.10328591 2.27617049 -0.58397293 3 2 33414 2.59600000 3057292226 3057292226 -13.00000000
-1.31654572 2.71735144 -0.58692849 4 4 33415 3.07600000 3057292230 3057292230 -11.00000000
-1.62495708 3.35689855 -0.59069651 2 6 33417 3.77600000 3057292235 3057292235 -9.00000000
-3.75877905 7.77194595 -1.06001949 6 8 33419 8.69800000 3057292240 3057292240 -7.00000000
-3.73568153 7.72762823 -0.75093389 13 10 33420 8.61600000 3057292244 3057292244 -5.00000000
-4.73205090 9.79307938 2.11416364 21 11 33421 11.08000000 3057292247 3057292247 11.00000000
-3.74123907 7.74602365 -0.45082194 38 12 33422 8.61400000 3057292249 3057292249 -3.00000000
-4.16754198 8.63250637 2.21306849 56 13 33423 9.83800000 3057292251 3057292251 13.00000000
-3.73701191 7.74417305 -0.15009069 28 14 33424 8.60000000 3057292253 3057292253 -1.00000000
-3.91609812 8.11891174 2.41529942 40 15 33425 9.33200000 3057292256 3057292256 15.00000000
-0.93594187 1.94648206 -0.57871938 4 0 33432 2.23600000 3057292277 3057292277 -15.00000000
-1.08689523 2.26244211 -0.57947391 3 2 33434 2.57600000 3057292281 3057292281 -13.00000000
-1.30535269 2.71839094 -0.58616525 2 4 33435 3.07200000 3057292286 3057292286 -11.00000000
-1.61322951 3.36255026 -0.59069651 2 6 33437 3.77600000 3057292290 3057292290 -9.00000000
-2.11250067 4.40715504 -0.60008466 2 8 33439 4.92400000 3057292295 3057292295 -7.00000000
-3.71729302 7.75858927 -0.75267702 17 10 33440 8.63600000 3057292300 3057292300 -5.00000000
-4.69105434 9.79537201 2.11111069 18 11 33441 11.06400000 3057292302 3057292302 11.00000000
-3.70900345 7.74822712 -0.45019388 42 12 33442 8.60200000 3057292304 3057292304 -3.00000000
-4.13570118 8.64348507 2.21216869 57 13 33443 9.83400000 3057292306 3057292306 13.00000000
-3.91999316 8.19633675 2.43445206 45 15 33444 9.40600000 3057292311 3057292311 15.00000000
-0.93163490 1.95496917 -0.58027232 4 0 33452 2.24200000 3057292332 3057292332 -15.00000000
-1.08569300 2.28029823 -0.58307314 3 2 33454 2.59200000 3057292336 3057292336 -13.00000000
-1.28910649 2.70874882 -0.58311230 2 4 33455 3.05600000 3057292341 3057292341 -11.00000000
-1.60148215 3.36816096 -0.59069651 2 6 33457 3.77600000 3057292346 3057292346 -9.00000000
-2.09028959 4.40015793 -0.59813476 2 8 33459 4.90800000 3057292350 3057292350 -7.00000000
-3.02445006 6.36947680 -0.61688834 4 10 33460 7.07800000 3057292355 3057292355 -5.00000000
-4.64841557 9.79395103 2.10729456 21 11 33461 11.04400000 3057292357 3057292357 11.00000000
-4.09882498 8.64378262 2.20856953 56 13 33463 9.81800000 3057292362 3057292362 13.00000000
-3.91535401 8.26059532 2.44946337 45 15 33464 9.46400000 3057292366 3057292366 15.00000000
-0.92315519 1.95471561 -0.57923704 4 0 33472 2.23800000 3057292387 3057292387 -15.00000000
-1.08105302 2.29112387 -0.58487272 3 2 33474 2.60000000 3057292392 3057292392 -13.00000000
-1.28131831 2.71678352 -0.58387554 2 4 33475 3.06000000 3057292396 3057292396 -11.00000000
-1.59308338 3.38087845 -0.59194803 2 6 33477 3.78400000 3057292401 3057292401 -9.00000000
-2.07829976 4.41461134 -0.59910971 2 8 33479 4.91600000 3057292405 3057292405 -7.00000000
-3.01237774 6.40162849 -0.61898011 4 10 33480 7.10200000 3057292410 3057292410 -5.00000000
-4.61085749 9.80301094 2.10576797 21 11 33481 11.03600000 3057292412 3057292412 11.00000000
-4.07028484 8.66156483 2.20946932 56 13 33483 9.82200000 3057292417 3057292417 13.00000000
-3.91031361 8.32491970 2.46447492 45 15 33484 9.52200000 3057292422 3057292422 15.00000000
-0.91223192 1.94917750 -0.57664883 4 0 33492 2.22800000 3057292442 3057292442 -15.00000000
-1.07469976 2.29841399 -0.58577257 3 2 33494 2.60400000 3057292447 3057292447 -13.00000000
-1.27182710 2.72123957 -0.58387554 2 4 33495 3.06000000 3057292452 3057292452 -11.00000000
-1.57625759 3.37567949 -0.59007078 2 6 33497 3.77200000 3057292456 3057292456 -9.00000000
-2.09476852 4.49019957 -0.60837173 2 8 33499 4.99200000 3057292461 3057292461 -7.00000000
-2.96980500 6.36876726 -0.61479664 4 10 33500 7.05400000 3057292465 3057292465 -5.00000000
-4.56997538 9.80481052 2.10271502 21 11 33501 11.02000000 3057292468 3057292468 11.00000000
-4.03838062 8.67218685 2.20856953 56 13 33503 9.81800000 3057292472 3057292472 13.00000000
-3.90422225 8.39174271 2.48000407 47 15 33505 9.58200000 3057292477 3057292477 15.00000000
-0.90738934 1.95569670 -0.57768410 4 0 33511 2.23200000 3057292498 3057292498 -15.00000000
-1.06215465 2.29135704 -0.58307314 3 2 33513 2.59200000 3057292502 3057292502 -13.00000000
-1.26444697 2.72900486 -0.58463877 2 4 33514 3.06400000 3057292507 3057292507 -11.00000000
-1.56339514 3.37730289 -0.58944505 2 6 33516 3.76800000 3057292511 3057292511 -9.00000000
-2.05320215 4.43946600 -0.60057211 2 8 33518 4.92800000 3057292516 3057292516 -7.00000000
-2.96873379 6.42198467 -0.61898011 4 10 33519 7.10200000 3057292521 3057292521 -5.00000000
-4.52426004 9.79139614 2.09660935 21 11 33520 10.98800000 3057292523 3057292523 11.00000000
-4.01286745 8.69260788 2.21036911 57 13 33522 9.82600000 3057292528 3057292528 13.00000000
-3.90616846 8.46536160 2.49812150 47 15 33523 9.65200000 3057292532 3057292532 15.00000000
-0.90781975 1.97464943 -0.58234286 4 0 33531 2.25000000 3057292553 3057292553 -15.00000000
-1.05577660 2.29859257 -0.58397293 3 2 33533 2.59600000 3057292557 3057292557 -13.00000000
-1.26638103 2.75838089 -0.58998144 2 4 33534 3.09200000 3057292562 3057292562 -11.00000000
-1.56312656 3.40787673 -0.59382522 2 6 33536 3.79600000 3057292567 3057292567 -9.00000000
-2.05092478 4.47548008 -0.60447192 2 8 33538 4.96000000 3057292571 3057292571 -7.00000000
-2.94629884 6.43230820 -0.61898011 4 10 33539 7.10200000 3057292576 3057292576 -5.00000000
-4.48188162 9.78927898 2.09279299 21 11 33540 10.96800000 3057292578 3057292578 11.00000000
-3.97763658 8.69593048 2.20766973 59 13 33542 9.81400000 3057292583 3057292583 13.00000000
-3.88462782 8.49651432 2.50329781 40 15 33543 9.67200000 3057292587 3057292587 15.00000000
-0.90092140 1.97780621 -0.58234286 4 0 33551 2.25000000 3057292608 3057292608 -15.00000000
-1.05097544 2.30935860 -0.58577257 3 2 33553 2.60400000 3057292613 3057292613 -13.00000000
-1.24861586 2.74491405 -0.58616525 2 4 33554 3.07200000 3057292617 3057292617 -11.00000000
-1.54958665 3.40971541 -0.59319949 2 6 33556 3.79200000 3057292622 3057292622 -9.00000000
-2.02215910 4.45369196 -0.60057211 2 8 33558 4.92800000 3057292627 3057292627 -7.00000000
-2.94688249 6.49335384 -0.62386084 4 10 33559 7.15800000 3057292631 3057292631 -5.00000000
-4.44038439 9.78877258 2.08935857 15 11 33560 10.95000000 3057292634 3057292634 11.00000000
-3.94564891 8.70621204 2.20676994 59 13 33562 9.81000000 3057292638 3057292638 13.00000000
-3.85824132 8.52125359 2.50640368 42 15 33564 9.68400000 3057292643 3057292643 15.00000000
-0.89242268 1.97741735 -0.58130759 4 0 33571 2.24600000 3057292663 3057292663 -15.00000000
-1.04130578 2.30946016 -0.58487272 3 2 33573 2.60000000 3057292668 3057292668 -13.00000000
-1.23418677 2.73851657 -0.58387554 2 4 33574 3.06000000 3057292673 3057292673 -11.00000000
-1.53767514 3.41510367 -0.59319949 2 6 33576 3.79200000 3057292677 3057292677 -9.00000000
-4.84222651 10.76439190 -1.44927025 2 8 33578 11.89200000 3057292682 3057292682 -7.00000000
-2.90132141 6.45272064 -0.61898011 4 10 33579 7.10200000 3057292687 3057292687 -5.00000000
-4.41262627 9.81853867 2.09241152 15 11 33580 10.96600000 3057292689 3057292689 11.00000000
-4.83349705 10.76004124 -0.61819232 8 12 33581 11.81200000 3057292691 3057292691 -3.00000000
-3.92481303 8.74126434 2.21216869 59 13 33582 9.83400000 3057292693 3057292693 13.00000000
-4.81680059 10.73289394 -0.20534502 6 14 33583 11.76600000 3057292696 3057292696 -1.00000000
-3.82689190 8.53114414 2.50536847 40 15 33584 9.68000000 3057292698 3057292698 15.00000000
-0.88157219 1.97170246 -0.57871938 4 0 33591 2.23600000 3057292719 3057292719 -15.00000000
-4.79748774 10.73497009 0.20524029 6 1 33592 11.76000000 3057292721 3057292721 1.00000000
-1.03482759 2.31663942 -0.58577257 3 2 33593 2.60400000 3057292723 3057292723 -13.00000000
-4.78732777 10.71725655 0.61515683 5 3 33593 11.75400000 3057292726 3057292726 3.00000000
-1.22782159 2.74997854 -0.58540201 2 4 33594 3.06800000 3057292728 3057292728 -11.00000000
-4.80196619 10.76011181 1.03087807 4 5 33595 11.82800000 3057292730 3057292730 5.00000000
-1.52252591 3.41323423 -0.59194803 2 6 33596 3.78400000 3057292733 3057292733 -9.00000000
-4.78522921 10.73771191 -1.44342053 2 8 33598 11.84400000 3057292737 3057292737 -7.00000000
-2.88850784 6.48464870 -0.62107182 4 10 33599 7.12600000 3057292742 3057292742 -5.00000000
-4.40627480 9.89665508 2.10576797 18 11 33600 11.03600000 3057292744 3057292744 11.00000000
-4.77398300 10.72758007 -0.61536616 8 12 33601 11.75800000 3057292746 3057292746 -3.00000000
-3.91170049 8.79408360 2.22206640 66 13 33602 9.87800000 3057292749 3057292749 13.00000000
-4.77280760 10.73502445 -0.20506577 8 14 33603 11.75000000 3057292751 3057292751 -1.00000000
-3.79473567 8.53915501 2.50381541 40 15 33604 9.67400000 3057292753 3057292753 15.00000000
-0.87546664 1.97653401 -0.57923704 4 0 33611 2.23800000 3057292774 3057292774 -15.00000000
-4.75027227 10.72970867 0.20482144 13 1 33612 11.73600000 3057292776 3057292776 1.00000000
-1.02673471 2.32023764 -0.58577257 3 2 33613 2.60400000 3057292779 3057292779 -13.00000000
-4.76120329 10.75947189 0.61662221 15 3 33613 11.78200000 3057292781 3057292781 3.00000000
-1.22139144 2.76142955 -0.58692849 2 4 33614 3.07600000 3057292783 3057292783 -11.00000000
-4.74745893 10.73854065 1.02721763 17 5 33615 11.78600000 3057292786 3057292786 5.00000000
-1.51379597 3.42575550 -0.59319949 2 6 33616 3.79200000 3057292788 3057292788 -9.00000000
-4.75601149 10.76804829 1.44537044 19 7 33617 11.86000000 3057292790 3057292790 7.00000000
-4.73649454 10.72892570 -1.44000816 2 8 33618 11.81600000 3057292793 3057292793 -7.00000000
-4.74841547 10.75592804 1.86219585 12 9 33618 11.90400000 3057292795 3057292795 9.00000000
-2.87228918 6.50927448 -0.62246633 4 10 33619 7.14200000 3057292797 3057292797 -5.00000000
-4.50480223 10.21375370 2.16987991 34 11 33620 11.37200000 3057292799 3057292799 11.00000000
-4.73167372 10.73321342 -0.61473817 8 12 33621 11.74600000 3057292802 3057292802 -3.00000000
-3.91241097 8.87901592 2.24006271 64 13 33622 9.95800000 3057292804 3057292804 13.00000000
-4.72805214 10.73514938 -0.20475163 8 14 33623 11.73200000 3057292806 3057292806 -1.00000000
-3.76490545 8.55234909 2.50381541 40 15 33624 9.67400000 3057292809 3057292809 15.00000000
-0.87442350 1.99388301 -0.58337814 4 0 33632 2.25400000 3057292829 3057292829 -15.00000000
-4.70368862 10.73056412 0.20450729 16 1 33633 11.71800000 3057292832 3057292832 1.00000000
-1.01822364 2.32398510 -0.58577257 3 2 33634 2.60400000 3057292834 3057292834 -13.00000000
-4.70891190 10.74758053 0.61494750 18 3 33634 11.75000000 3057292836 3057292836 3.00000000
-1.21598744 2.77667785 -0.58921820 2 4 33635 3.08800000 3057292839 3057292839 -11.00000000
-4.70007944 10.73761654 1.02547443 12 5 33636 11.76600000 3057292841 3057292841 5.00000000
-1.49964619 3.42766118 -0.59257376 2 6 33637 3.78800000 3057292843 3057292843 -9.00000000
-4.69901466 10.74539375 1.44000816 19 7 33638 11.81600000 3057292845 3057292845 7.00000000
-4.68282843 10.71347332 -1.43562090 2 8 33639 11.78000000 3057292848 3057292848 -7.00000000
-4.70500517 10.76420975 1.86063159 12 9 33639 11.89400000 3057292850 3057292850 9.00000000
-2.85160303 6.52706099 -0.62316358 4 10 33640 7.15000000 3057292852 3057292852 -5.00000000
-4.51133442 10.33095074 2.19125056 34 11 33641 11.48400000 3057292855 3057292855 11.00000000
-4.68271542 10.72851849 -0.61348206 8 12 33642 11.72200000 3057292857 3057292857 -3.00000000
-3.90477705 8.95045280 2.25445938 59 13 33643 10.02200000 3057292859 3057292859 13.00000000
-4.68148041 10.73590946 -0.20443749 8 14 33644 11.71400000 3057292862 3057292862 -1.00000000
-3.73811793 8.57252216 2.50588608 40 15 33644 9.68200000 3057292864 3057292864 15.00000000
-0.86591882 1.99337935 -0.58234286 4 0 33652 2.25000000 3057292885 3057292885 -15.00000000
-4.66142511 10.73591232 0.20429787 20 1 33653 11.70600000 3057292887 3057292887 1.00000000
-1.01320851 2.33467579 -0.58757216 3 2 33654 2.61200000 3057292889 3057292889 -13.00000000
-4.66023540 10.73830223 0.61348206 21 3 33654 11.72200000 3057292892 3057292892 3.00000000
-1.20472515 2.77730346 -0.58845496 4 4 33655 3.08400000 3057292894 3057292894 -11.00000000
-4.66098404 10.75030136 1.02512586 17 5 33656 11.76200000 3057292896 3057292896 5.00000000
-1.49552691 3.45100021 -0.59570247 2 6 33657 3.80800000 3057292898 3057292898 -9.00000000
-4.65516567 10.74715900 1.43805826 19 7 33658 11.80000000 3057292901 3057292901 7.00000000
-1.96226859 4.53236485 -0.60642183 2 8 33659 4.97600000 3057292903 3057292903 -7.00000000
-4.65484524 10.75156307 1.85562563 18 9 33659 11.86200000 3057292905 3057292905 9.00000000
-4.65347815 10.75355339 -1.02512586 4 10 33660 11.76200000 3057292908 3057292908 -5.00000000
-4.48148012 10.36105061 2.19430351 40 11 33661 11.50000000 3057292910 3057292910 11.00000000
-4.63731146 10.72646618 -0.61243534 8 12 33662 11.70200000 3057292912 3057292912 -3.00000000
-3.89515448 9.01411724 2.26705670 60 13 33663 10.07800000 3057292915 3057292915 13.00000000
-4.62970448 10.71914101 -0.20380920 8 14 33664 11.67800000 3057292917 3057292917 -1.00000000
-3.70820427 8.58971214 2.50692129 40 15 33665 9.68600000 3057292919 3057292919 15.00000000
-0.86277288 2.00526261 -0.58493102 4 0 33672 2.26000000 3057292940 3057292940 -15.00000000
-4.61760139 10.73742199 0.20401864 20 1 33673 11.69000000 3057292942 3057292942 1.00000000
-1.00351369 2.33461761 -0.58667237 3 2 33674 2.60800000 3057292945 3057292945 -13.00000000
-4.61375046 10.73879528 0.61254001 18 3 33675 11.70400000 3057292947 3057292947 3.00000000
-1.18417346 2.75623822 -0.58311230 2 4 33675 3.05600000 3057292949 3057292949 -11.00000000
-4.61085176 10.73721409 1.02233684 17 5 33676 11.73000000 3057292951 3057292951 5.00000000
-1.48347151 3.45619941 -0.59570247 2 6 33677 3.80800000 3057292954 3057292954 -9.00000000
-4.61527443 10.75786972 1.43732703 19 7 33678 11.79400000 3057292956 3057292956 7.00000000
-1.94643581 4.53918695 -0.60642183 2 8 33679 4.97600000 3057292958 3057292958 -7.00000000
-4.60638762 10.74232960 1.85124540 15 9 33679 11.83400000 3057292961 3057292961 9.00000000
-4.60178471 10.73676872 -1.02198827 4 10 33680 11.72600000 3057292963 3057292963 -5.00000000
-4.44142056 10.36760712 2.19239545 46 11 33681 11.49000000 3057292965 3057292965 11.00000000
-4.59669638 10.73524380 -0.61201668 8 12 33682 11.69400000 3057292968 3057292968 -3.00000000
-3.89893627 9.11007023 2.28775215 62 13 33683 10.17000000 3057292970 3057292970 13.00000000
-4.58911371 10.72788239 -0.20366958 14 14 33684 11.67000000 3057292972 3057292972 -1.00000000
-3.67666030 8.59485722 2.50485063 40 15 33684 9.67800000 3057292975 3057292975 15.00000000
-0.84743750 1.98871267 -0.57923704 4 0 33692 2.23800000 3057292995 3057292995 -15.00000000
-4.57068920 10.73139763 0.20359978 13 1 33693 11.66600000 3057292998 3057292998 1.00000000
-0.99993807 2.34886456 -0.58937174 3 2 33694 2.62000000 3057293000 3057293000 -13.00000000
-4.56998110 10.74013233 0.61170268 18 3 33695 11.68800000 3057293002 3057293002 3.00000000
-1.18069458 2.77480721 -0.58616525 2 4 33695 3.07200000 3057293004 3057293004 -11.00000000
-4.56320667 10.72940922 1.02007079 17 5 33696 11.70400000 3057293007 3057293007 5.00000000
-1.46676135 3.45044899 -0.59382522 2 6 33697 3.79600000 3057293009 3057293009 -9.00000000
-4.57148457 10.75929832 1.43537712 19 7 33698 11.77800000 3057293011 3057293011 7.00000000
-1.93678689 4.56057072 -0.60837173 2 8 33699 4.99200000 3057293014 3057293014 -7.00000000
-4.56466866 10.75368500 1.85030687 15 9 33700 11.82800000 3057293016 3057293016 9.00000000
-4.55960751 10.74176216 -1.02094233 4 10 33700 11.71400000 3057293018 3057293018 -5.00000000
-4.40367031 10.37943363 2.19163203 43 11 33701 11.48600000 3057293021 3057293021 11.00000000
-4.55061817 10.73099709 -0.61086529 12 12 33702 11.67200000 3057293023 3057293023 -3.00000000
-3.89372969 9.18642235 2.30349874 53 13 33703 10.24000000 3057293025 3057293025 13.00000000
-4.54383755 10.72542286 -0.20332053 17 14 33704 11.65000000 3057293028 3057293028 -1.00000000
-3.64287400 8.60293865 2.50329781 40 15 33705 9.67200000 3057293030 3057293030 15.00000000
-0.84800148 2.00945735 -0.58441341 4 0 33712 2.25800000 3057293051 3057293051 -15.00000000
-4.51998997 10.71596432 0.20300639 10 1 33713 11.63200000 3057293053 3057293053 1.00000000
-0.98416245 2.33438396 -0.58487272 3 2 33714 2.60000000 3057293055 3057293055 -13.00000000
-4.52780962 10.74497604 0.61107463 18 3 33715 11.67600000 3057293057 3057293057 3.00000000
-1.17252624 2.78253007 -0.58692849 4 4 33715 3.07600000 3057293060 3057293060 -11.00000000
-4.52417946 10.74160004 1.01972222 17 5 33716 11.70000000 3057293062 3057293062 5.00000000
-1.45317519 3.45190668 -0.59319949 2 6 33717 3.79200000 3057293064 3057293064 -9.00000000
-4.52466106 10.75323391 1.43245232 19 7 33718 11.75400000 3057293067 3057293067 7.00000000
-4.52047539 10.74853420 -1.43172109 2 8 33719 11.74800000 3057293069 3057293069 -7.00000000
-4.52438831 10.75783825 1.84842968 12 9 33719 11.81600000 3057293071 3057293071 9.00000000
-4.51590729 10.74291897 -1.01954782 4 10 33720 11.69800000 3057293074 3057293074 -5.00000000
-4.36132860 10.38026142 2.18857908 46 11 33721 11.47000000 3057293076 3057293076 11.00000000
-4.50462532 10.72656059 -0.60971391 8 12 33722 11.65000000 3057293078 3057293078 -3.00000000
-3.89407110 9.27722359 2.32284451 64 13 33723 10.32600000 3057293081 3057293081 13.00000000
-4.50095606 10.72831059 -0.20307620 17 14 33724 11.63600000 3057293083 3057293083 -1.00000000
-3.61432552 8.61497116 2.50329781 36 15 33724 9.67200000 3057293085 3057293085 15.00000000
-0.84023714 2.01062250 -0.58389574 4 0 33732 2.25600000 3057293106 3057293106 -15.00000000
-4.48255682 10.73167706 0.20300639 13 1 33733 11.63200000 3057293108 3057293108 1.00000000
-0.97600794 2.33780503 -0.58487272 3 2 33734 2.60000000 3057293110 3057293110 -13.00000000
-4.48489094 10.74781322 0.61034191 21 3 33735 11.66200000 3057293113 3057293113 3.00000000
-1.16507447 2.79204154 -0.58807331 4 4 33735 3.08200000 3057293115 3057293115 -11.00000000
-4.48588991 10.75548744 1.01954782 76 5 33736 11.69800000 3057293117 3057293117 5.00000000
-1.43807662 3.44966507 -0.59194803 2 6 33737 3.78400000 3057293120 3057293120 -9.00000000
-4.47717190 10.74514103 1.42928362 19 7 33738 11.72800000 3057293122 3057293122 7.00000000
-4.45850658 10.70560741 -1.42392147 2 8 33739 11.68400000 3057293124 3057293124 -7.00000000
-4.47885513 10.75975895 1.84592664 12 9 33740 11.80000000 3057293127 3057293127 9.00000000
-2.75103760 6.60894346 -0.62630117 4 10 33740 7.18600000 3057293129 3057293129 -5.00000000
-4.32506800 10.39542198 2.18857908 46 11 33741 11.47000000 3057293131 3057293131 11.00000000
-4.45795250 10.72008896 -0.60845780 8 12 33742 11.62600000 3057293133 3057293133 -3.00000000
-3.89158177 9.36273956 2.34084058 60 13 33743 10.40600000 3057293136 3057293136 13.00000000
-4.45887661 10.73287678 -0.20286678 17 14 33744 11.62400000 3057293138 3057293138 -1.00000000
-3.58643007 8.63708210 2.50588608 36 15 33745 9.68200000 3057293140 3057293140 15.00000000
-0.83317715 2.01146746 -0.58337814 4 0 33750 2.25400000 3057293161 3057293161 -15.00000000
-4.43964100 10.72353554 0.20258753 13 1 33751 11.60800000 3057293163 3057293163 1.00000000
-0.97014892 2.34446096 -0.58577257 3 2 33752 2.60400000 3057293166 3057293166 -13.00000000
-4.43888998 10.73231983 0.60866719 21 3 33753 11.63000000 3057293168 3057293168 3.00000000
-1.15404618 2.79024529 -0.58692849 4 4 33753 3.07600000 3057293170 3057293170 -11.00000000
-4.44598913 10.75479794 1.01815343 76 5 33754 11.68200000 3057293173 3057293173 5.00000000
-1.44081044 3.48702788 -0.59757966 2 6 33755 3.82000000 3057293175 3057293175 -9.00000000
-4.44036198 10.75181484 1.42830873 19 7 33756 11.72000000 3057293177 3057293177 7.00000000
-4.42636681 10.72323132 -1.42440891 2 8 33757 11.68800000 3057293180 3057293180 -7.00000000
-4.43937349 10.75474072 1.84279799 15 9 33757 11.78000000 3057293182 3057293182 9.00000000
-2.75305796 6.67280722 -0.63153052 4 10 33758 7.24600000 3057293184 3057293184 -5.00000000
-4.29388571 10.41258907 2.18934250 46 11 33759 11.47400000 3057293186 3057293186 11.00000000
-4.42120838 10.72665501 -0.60803914 8 12 33760 11.61800000 3057293189 3057293189 -3.00000000
-3.88590217 9.43257809 2.35523748 59 13 33761 10.47000000 3057293191 3057293191 13.00000000
-4.41980648 10.73388767 -0.20262244 10 14 33762 11.61000000 3057293193 3057293193 -1.00000000
-3.56152296 8.64947128 2.50640368 38 15 33762 9.68400000 3057293196 3057293196 15.00000000
-0.82908297 2.02151322 -0.58544868 4 0 33770 2.26200000 3057293216 3057293216 -15.00000000
-4.39763117 10.72786522 0.20237811 13 1 33771 11.59600000 3057293219 3057293219 1.00000000
-0.96491462 2.35504627 -0.58757216 3 2 33772 2.61200000 3057293221 3057293221 -13.00000000
-4.39837265 10.74035549 0.60824847 23 3 33773 11.62200000 3057293223 3057293223 3.00000000
-1.14429939 2.79425669 -0.58692849 4 4 33773 3.07600000 3057293226 3057293226 -11.00000000
-4.39936399 10.74812412 1.01606166 76 5 33774 11.65800000 3057293228 3057293228 5.00000000
-1.43461347 3.50666237 -0.60008264 2 6 33775 3.83600000 3057293230 3057293230 -9.00000000
-4.39904737 10.75806141 1.42709005 21 7 33776 11.71000000 3057293233 3057293233 7.00000000
-4.38290071 10.72391605 -1.42245901 2 8 33777 11.67200000 3057293235 3057293235 -7.00000000
-4.39021444 10.74716759 1.83873069 15 9 33778 11.75400000 3057293237 3057293237 9.00000000
-2.71317291 6.64179897 -0.62769568 4 10 33778 7.20200000 3057293239 3057293239 -5.00000000
-4.25899696 10.43114853 2.19010568 43 11 33779 11.47800000 3057293242 3057293242 11.00000000
-4.37770128 10.72722912 -0.60720176 8 12 33780 11.60200000 3057293244 3057293244 -3.00000000
-3.88680863 9.52908707 2.37593293 68 13 33781 10.56200000 3057293246 3057293246 13.00000000
-4.37249756 10.72517872 -0.20216867 8 14 33782 11.58400000 3057293249 3057293249 -1.00000000
-3.52833939 8.65888882 2.50536847 36 15 33783 9.68000000 3057293251 3057293251 15.00000000
-0.81405294 2.00677991 -0.58027232 4 0 33792 2.24200000 3057293272 3057293272 -15.00000000
-4.34814167 10.72428703 0.20199415 13 1 33793 11.57400000 3057293274 3057293274 1.00000000
-0.96172005 2.37318254 -0.59117138 3 2 33794 2.62800000 3057293276 3057293276 -13.00000000
-4.35110188 10.74235535 0.60741109 23 3 33795 11.60600000 3057293279 3057293279 3.00000000
-1.14535439 2.82774425 -0.59303439 2 4 33795 3.10800000 3057293281 3057293281 -11.00000000
-4.34460402 10.73169518 1.01292408 25 5 33796 11.62200000 3057293283 3057293283 5.00000000
-1.41817451 3.50482035 -0.59883112 2 6 33797 3.82800000 3057293286 3057293286 -9.00000000
-4.35249758 10.76199150 1.42538381 21 7 33798 11.69600000 3057293288 3057293288 7.00000000
-4.34169149 10.74066639 -1.42245901 2 8 33799 11.67200000 3057293290 3057293290 -7.00000000
-4.34487247 10.74853420 1.83622777 18 9 33799 11.73800000 3057293292 3057293292 9.00000000
-2.67421579 6.61891651 -0.62455803 4 10 33800 7.16600000 3057293295 3057293295 -5.00000000
-4.21744251 10.44378471 2.18934250 46 11 33801 11.47400000 3057293297 3057293297 11.00000000
-4.33498430 10.74025536 -0.60699242 8 12 33802 11.59800000 3057293299 3057293299 -3.00000000
-3.87935352 9.61623001 2.39392900 64 13 33803 10.64200000 3057293302 3057293302 13.00000000
