# .PCD v0.7 - Point Cloud Data file format
VERSION 0.7
FIELDS x y z intensity laser_id azimuth distance_m adjustedtime timestamp vertical_angle
SIZE 4 4 4 1 1 2 8 8 4 8
TYPE F F F U U U F U U F
COUNT 1 1 1 1 1 1 1 1 1 1
WIDTH 535
HEIGHT 1
VIEWPOINT 0 0 0 1 0 0 0
POINTS 535
DATA ascii
2.75279403 8.35791874 2.35784149 40 15 1823 9.11000000 3055904600 3055904600 15.00000000
0.71395272 2.15879369 -0.60926002 4 0 1830 2.35400000 3055904621 3055904621 -15.00000000
3.51049685 10.60855007 0.19504809 13 1 1831 11.17600000 3055904623 3055904623 1.00000000
0.84529901 2.55295825 -0.62086493 3 2 1832 2.76000000 3055904626 3055904626 -13.00000000
3.51811361 10.62535000 0.58658141 10 3 1832 11.20800000 3055904628 3055904628 3.00000000
1.01874781 3.07500720 -0.62966967 2 4 1833 3.30000000 3055904630 3055904630 -11.00000000
3.51762390 10.61145592 0.97806174 12 5 1834 11.22200000 3055904633 3055904633 5.00000000
1.28295863 3.86798263 -0.64544863 2 6 1835 4.12600000 3055904635 3055904635 -9.00000000
3.52844000 10.63165760 1.37541735 12 7 1836 11.28600000 3055904637 3055904637 7.00000000
3.53092098 10.63292503 -1.37566113 2 8 1837 11.28800000 3055904640 3055904640 -7.00000000
3.53480625 10.64462471 1.77646983 12 9 1837 11.35600000 3055904642 3055904642 9.00000000
2.58393407 7.77665424 -0.71694314 4 10 1838 8.22600000 3055904644 3055904644 -5.00000000
3.30250335 9.93347931 2.03478718 46 11 1839 10.66400000 3055904646 3055904646 11.00000000
3.52538085 10.59768581 -0.58532536 12 12 1840 11.18400000 3055904649 3055904649 -3.00000000
3.11720705 9.36521244 2.27875423 64 13 1841 10.13000000 3055904651 3055904651 13.00000000
3.53591228 10.61696911 -0.19532733 8 14 1842 11.19200000 3055904653 3055904653 -1.00000000
2.78561640 8.35925579 2.36094737 45 15 1843 9.12200000 3055904656 3055904656 15.00000000
0.72148395 2.15628839 -0.60926002 4 0 1850 2.35400000 3055904676 3055904676 -15.00000000
3.55258489 10.61140156 0.19532733 13 1 1851 11.19200000 3055904679 3055904679 1.00000000
0.85420531 2.54999208 -0.62086493 3 2 1852 2.76000000 3055904681 3055904681 -13.00000000
3.55645037 10.61679268 0.58679074 13 3 1852 11.21200000 3055904683 3055904683 3.00000000
1.02947545 3.07143235 -0.62966967 2 4 1853 3.30000000 3055904686 3055904686 -11.00000000
3.56604671 10.63311481 0.98119932 12 5 1854 11.25800000 3055904688 3055904688 5.00000000
1.29582417 3.86160779 -0.64513576 2 6 1855 4.12400000 3055904690 3055904690 -9.00000000
3.57058454 10.63433075 1.37736738 12 7 1856 11.30200000 3055904692 3055904692 7.00000000
3.56548667 10.61300850 -1.37468624 2 8 1857 11.28000000 3055904695 3055904695 -7.00000000
3.57194138 10.63222122 1.77646983 12 9 1857 11.35600000 3055904697 3055904697 9.00000000
2.61296844 7.77325296 -0.71746606 4 10 1858 8.23200000 3055904699 3055904699 -5.00000000
3.33966088 9.92933369 2.03631353 46 11 1859 10.67200000 3055904702 3055904702 11.00000000
3.56490040 10.59288692 -0.58574402 12 12 1860 11.19200000 3055904704 3055904704 -3.00000000
3.11505270 9.25085068 2.25355959 59 13 1861 10.01800000 3055904706 3055904706 13.00000000
3.57550478 10.61214161 -0.19546695 10 14 1862 11.20000000 3055904709 3055904709 -1.00000000
2.81763911 8.36278725 2.36457086 45 15 1862 9.13600000 3055904711 3055904711 15.00000000
0.73024517 2.15741634 -0.61029530 4 0 1870 2.35800000 3055904732 3055904732 -15.00000000
3.59216976 10.60651302 0.19546695 13 1 1871 11.20000000 3055904734 3055904734 1.00000000
0.86372668 2.54884052 -0.62131482 3 2 1872 2.76200000 3055904736 3055904736 -13.00000000
3.59733438 10.61566257 0.58741879 13 3 1872 11.22400000 3055904739 3055904739 3.00000000
1.03514707 3.05294585 -0.62661672 2 4 1873 3.28400000 3055904741 3055904741 -11.00000000
3.60250139 10.61871529 0.98102504 12 5 1874 11.25600000 3055904743 3055904743 5.00000000
1.31564546 3.87576652 -0.64826441 2 6 1875 4.14400000 3055904745 3055904745 -9.00000000
3.61279082 10.63683891 1.37931728 12 7 1876 11.31800000 3055904748 3055904748 7.00000000
3.60506630 10.60801601 -1.37566113 2 8 1877 11.28800000 3055904750 3055904750 -7.00000000
3.61284661 10.63090992 1.77834702 12 9 1877 11.36800000 3055904752 3055904752 9.00000000
2.63944483 7.76219845 -0.71729177 4 10 1878 8.23000000 3055904755 3055904755 -5.00000000
3.37556529 9.92133331 2.03707695 46 11 1879 10.67600000 3055904757 3055904757 11.00000000
3.60700393 10.59550381 -0.58658141 12 12 1880 11.20800000 3055904759 3055904759 -3.00000000
3.10397029 9.11263943 2.22251630 31 13 1881 9.88000000 3055904762 3055904762 13.00000000
3.61252618 10.59959698 -0.19546695 8 14 1882 11.20000000 3055904764 3055904764 -1.00000000
2.84577703 8.34508991 2.36250019 40 15 1883 9.12800000 3055904766 3055904766 15.00000000
0.73439109 2.14375997 -0.60718948 4 0 1891 2.34600000 3055904787 3055904787 -15.00000000
3.63491082 10.60462570 0.19567639 13 1 1892 11.21200000 3055904789 3055904789 1.00000000
0.87495947 2.55118775 -0.62266451 3 2 1893 2.76800000 3055904792 3055904792 -13.00000000
3.64455152 10.62066364 0.58846551 13 3 1894 11.24400000 3055904794 3055904794 3.00000000
1.04760420 3.05284524 -0.62737995 2 4 1894 3.28800000 3055904796 3055904796 -11.00000000
3.64204359 10.60732460 0.98119932 12 5 1895 11.25800000 3055904798 3055904798 5.00000000
1.32342386 3.85223627 -0.64513576 4 6 1896 4.12400000 3055904801 3055904801 -9.00000000
3.65820551 10.64229870 1.38175464 12 7 1897 11.33800000 3055904803 3055904803 7.00000000
3.65166974 10.61725712 -1.37858605 2 8 1898 11.31200000 3055904805 3055904805 -7.00000000
3.65756869 10.63440895 1.78116286 12 9 1898 11.38600000 3055904808 3055904808 9.00000000
2.65750360 7.72232914 -0.71450275 4 10 1899 8.19800000 3055904810 3055904810 -5.00000000
3.41062760 9.90518188 2.03631353 46 11 1900 10.67200000 3055904812 3055904812 11.00000000
3.64971757 10.59354305 -0.58720940 12 12 1901 11.22000000 3055904815 3055904815 -3.00000000
3.10622954 9.01092625 2.20047116 48 13 1902 9.78200000 3055904817 3055904817 13.00000000
3.65721965 10.60329819 -0.19578110 10 14 1903 11.21800000 3055904819 3055904819 -1.00000000
2.87237000 8.32780075 2.36042976 13 15 1903 9.12000000 3055904822 3055904822 15.00000000
0.74313468 2.14483404 -0.60822475 4 0 1911 2.35000000 3055904842 3055904842 -15.00000000
3.67059588 10.58809376 0.19560657 13 1 1912 11.20800000 3055904845 3055904845 1.00000000
0.88258219 2.54443574 -0.62176472 3 2 1913 2.76400000 3055904847 3055904847 -13.00000000
3.68684125 10.62297153 0.58930284 10 3 1914 11.26000000 3055904849 3055904849 3.00000000
1.06082904 3.05658865 -0.62890643 2 4 1914 3.29600000 3055904851 3055904851 -11.00000000
3.68754458 10.61901474 0.98346537 12 5 1915 11.28400000 3055904854 3055904854 5.00000000
1.33621430 3.84572744 -0.64482284 2 6 1916 4.12200000 3055904856 3055904856 -9.00000000
3.69793940 10.63696480 1.38272953 12 7 1917 11.34600000 3055904858 3055904858 7.00000000
3.69523048 10.62319469 -1.38102341 2 8 1918 11.33200000 3055904861 3055904861 -7.00000000
3.69911861 10.62839413 1.78241432 12 9 1919 11.39400000 3055904863 3055904863 9.00000000
2.69164729 7.73370409 -0.71642023 4 10 1919 8.22000000 3055904865 3055904865 -5.00000000
3.44389105 9.88950825 2.03555036 46 11 1920 10.66800000 3055904868 3055904868 11.00000000
3.68930221 10.58828259 -0.58762813 12 12 1921 11.22800000 3055904870 3055904870 -3.00000000
3.10879612 8.91722298 2.18022561 59 13 1922 9.69200000 3055904872 3055904872 13.00000000
3.69816160 10.60179615 -0.19599052 10 14 1923 11.23000000 3055904875 3055904875 -1.00000000
2.40378308 6.88723946 1.95460141 9 15 1924 7.55200000 3055904877 3055904877 15.00000000
0.75189465 2.14587331 -0.60926002 4 0 1931 2.35400000 3055904898 3055904898 -15.00000000
3.71547174 10.59786129 0.19602543 13 1 1932 11.23200000 3055904900 3055904900 1.00000000
0.88758820 2.53030610 -0.61906528 3 2 1933 2.75200000 3055904902 3055904902 -13.00000000
3.72720695 10.61946011 0.58982623 10 3 1934 11.27000000 3055904904 3055904904 3.00000000
1.07149208 3.05286717 -0.62890643 2 4 1934 3.29600000 3055904907 3055904907 -11.00000000
3.72855043 10.61735725 0.98451126 12 5 1935 11.29600000 3055904909 3055904909 5.00000000
1.35421407 3.85408545 -0.64701295 2 6 1936 4.13600000 3055904911 3055904911 -9.00000000
3.73899698 10.63522816 1.38419199 10 7 1937 11.35800000 3055904914 3055904914 7.00000000
3.72438526 10.58775997 -1.37809849 2 8 1938 11.30800000 3055904916 3055904916 -7.00000000
3.74024272 10.63284016 1.78523016 12 9 1938 11.41200000 3055904918 3055904918 9.00000000
2.72061086 7.72989941 -0.71694314 4 10 1939 8.22600000 3055904921 3055904921 -5.00000000
3.47839093 9.87742615 2.03555036 43 11 1940 10.66800000 3055904923 3055904923 11.00000000
3.72623992 10.57534027 -0.58762813 12 12 1941 11.22800000 3055904925 3055904925 -3.00000000
3.11009908 8.82177544 2.15953016 52 13 1942 9.60000000 3055904928 3055904928 13.00000000
3.73980260 10.60202312 -0.19623485 8 14 1943 11.24400000 3055904930 3055904930 -1.00000000
2.43560576 6.90473557 1.96184838 9 15 1943 7.58000000 3055904932 3055904932 15.00000000
0.76196128 2.15051937 -0.61133057 4 0 1951 2.36200000 3055904953 3055904953 -15.00000000
3.75912428 10.60367489 0.19637448 13 1 1952 11.25200000 3055904955 3055904955 1.00000000
0.90032405 2.53821230 -0.62176472 3 2 1953 2.76400000 3055904957 3055904957 -13.00000000
3.76558924 10.61014938 0.59003556 10 3 1954 11.27400000 3055904960 3055904960 3.00000000
1.07951546 3.04170752 -0.62737995 2 4 1954 3.28800000 3055904962 3055904962 -11.00000000
3.77092290 10.61929703 0.98590577 12 5 1955 11.31200000 3055904964 3055904964 5.00000000
1.36898184 3.85305762 -0.64763868 4 6 1956 4.14000000 3055904967 3055904967 -9.00000000
3.77875781 10.62959385 1.38516700 10 7 1957 11.36600000 3055904969 3055904969 7.00000000
3.76531219 10.58591652 -1.37956095 2 8 1958 11.32000000 3055904971 3055904971 -7.00000000
3.78382516 10.63208675 1.78742015 12 9 1959 11.42600000 3055904974 3055904974 9.00000000
2.75292087 7.73537207 -0.71833766 4 10 1959 8.24200000 3055904976 3055904976 -5.00000000
3.51548266 9.87262249 2.03707695 46 11 1960 10.67600000 3055904978 3055904978 11.00000000
3.77184606 10.58672714 -0.58898884 12 12 1961 11.25400000 3055904980 3055904980 -3.00000000
3.77880311 10.59455490 -0.19633958 10 14 1963 11.25000000 3055904985 3055904985 -1.00000000
2.47258401 6.92851257 1.97116590 6 15 1964 7.61600000 3055904987 3055904987 15.00000000
0.76480818 2.13720179 -0.60822475 4 0 1969 2.35000000 3055905008 3055905008 -15.00000000
3.79511452 10.59934330 0.19651410 13 1 1970 11.26000000 3055905010 3055905010 1.00000000
0.90960807 2.53904033 -0.62266451 3 2 1971 2.76800000 3055905013 3055905013 -13.00000000
3.80429482 10.61330795 0.59087294 10 3 1972 11.29000000 3055905015 3055905015 3.00000000
1.08774114 3.03460479 -0.62661672 2 4 1972 3.28400000 3055905017 3055905017 -11.00000000
3.80426574 10.60739803 0.98590577 12 5 1973 11.31200000 3055905020 3055905020 5.00000000
1.38174701 3.85059714 -0.64795154 2 6 1974 4.14200000 3055905022 3055905022 -9.00000000
3.81817007 10.63448429 1.38736057 10 7 1975 11.38400000 3055905024 3055905024 7.00000000
3.80123472 10.58150864 -1.38053596 2 8 1976 11.32800000 3055905027 3055905027 -7.00000000
3.81735802 10.62639046 1.78835881 12 9 1976 11.43200000 3055905029 3055905029 9.00000000
2.77990437 7.73418522 -0.71903485 8 10 1977 8.25000000 3055905031 3055905031 -5.00000000
3.54515243 9.85783482 2.03631353 46 11 1978 10.67200000 3055905033 3055905033 11.00000000
3.80846763 10.58422184 -0.58951223 12 12 1979 11.26400000 3055905036 3055905036 -3.00000000
3.00351048 8.34257126 2.04705453 8 13 1980 9.10000000 3055905038 3055905038 13.00000000
3.81613445 10.59391975 -0.19654900 10 14 1981 11.26200000 3055905040 3055905040 -1.00000000
2.48920226 6.91024065 1.96806002 11 15 1981 7.60400000 3055905043 3055905043 15.00000000
0.76963478 2.12725258 -0.60615420 4 0 1989 2.34200000 3055905063 3055905063 -15.00000000
3.83617401 10.59731388 0.19672352 13 1 1990 11.27200000 3055905066 3055905066 1.00000000
0.91979271 2.53951430 -0.62356430 3 2 1991 2.77200000 3055905068 3055905068 -13.00000000
3.84199929 10.60184193 0.59097761 10 3 1992 11.29200000 3055905070 3055905070 3.00000000
1.10367835 3.04555583 -0.62966967 4 4 1992 3.30000000 3055905073 3055905073 -11.00000000
3.84330654 10.59967327 0.98642868 12 5 1993 11.31800000 3055905075 3055905075 5.00000000
1.39450598 3.84389353 -0.64763868 4 6 1994 4.14000000 3055905077 3055905077 -9.00000000
3.86204123 10.63975143 1.38979805 10 7 1995 11.40400000 3055905080 3055905080 7.00000000
1.87299454 5.15720987 -0.67369372 2 8 1996 5.52800000 3055905082 3055905082 -7.00000000
3.86370111 10.63275051 1.79180038 12 9 1997 11.45400000 3055905084 3055905084 9.00000000
2.80416298 7.71694422 -0.71833766 8 10 1997 8.24200000 3055905086 3055905086 -5.00000000
3.57819939 9.84171009 2.03555036 43 11 1998 10.66800000 3055905089 3055905089 11.00000000
3.85085249 10.58587837 -0.59034961 12 12 1999 11.28000000 3055905091 3055905091 -3.00000000
3.05460787 8.39246655 2.06190133 9 13 2000 9.16600000 3055905093 3055905093 13.00000000
3.85309100 10.58053398 -0.19654900 10 14 2001 11.26200000 3055905096 3055905096 -1.00000000
2.51385140 6.89925575 1.96754241 15 15 2002 7.60200000 3055905098 3055905098 15.00000000
0.78103709 2.13543892 -0.60926002 4 0 2009 2.35400000 3055905119 3055905119 -15.00000000
3.87520385 10.58949184 0.19682825 13 1 2010 11.27800000 3055905121 3055905121 1.00000000
0.92932165 2.53811812 -0.62401420 3 2 2011 2.77400000 3055905123 3055905123 -13.00000000
3.88997579 10.61837196 0.59265238 13 3 2012 11.32400000 3055905126 3055905126 3.00000000
1.11430264 3.04168463 -0.62966967 2 4 2012 3.30000000 3055905128 3055905128 -11.00000000
3.88645411 10.60302925 0.98799747 12 5 2013 11.33600000 3055905130 3055905130 5.00000000
1.40927553 3.84271145 -0.64826441 4 6 2014 4.14400000 3055905133 3055905133 -9.00000000
3.89847350 10.62434196 1.38955426 12 7 2015 11.40200000 3055905135 3055905135 7.00000000
1.89987898 5.17486572 -0.67686236 2 8 2016 5.55400000 3055905137 3055905137 -7.00000000
3.90574718 10.63842297 1.79492903 12 9 2016 11.47400000 3055905139 3055905139 9.00000000
2.82627416 7.69401741 -0.71711743 8 10 2017 8.22800000 3055905142 3055905142 -5.00000000
3.61117697 9.82547379 2.03478718 46 11 2018 10.66400000 3055905144 3055905144 11.00000000
3.89467382 10.59111691 -0.59139633 12 12 2019 11.30000000 3055905146 3055905146 -3.00000000
3.89967179 10.59329224 -0.19703767 10 14 2021 11.29000000 3055905151 3055905151 -1.00000000
2.53805113 6.89450741 1.96857762 15 15 2021 7.60600000 3055905153 3055905153 15.00000000
0.78982621 2.13632345 -0.61029530 4 0 2029 2.35800000 3055905174 3055905174 -15.00000000
3.91838813 10.59278011 0.19714238 13 1 2030 11.29600000 3055905176 3055905176 1.00000000
0.93141162 2.51658297 -0.61951518 3 2 2031 2.75400000 3055905179 3055905179 -13.00000000
3.92909789 10.61034775 0.59296638 10 3 2032 11.33000000 3055905181 3055905181 3.00000000
1.13582158 3.06723380 -0.63577557 2 4 2032 3.33200000 3055905183 3055905183 -11.00000000
3.93105626 10.60994911 0.98991495 17 5 2033 11.35800000 3055905186 3055905186 5.00000000
1.41993403 3.83035994 -0.64701295 4 6 2034 4.13600000 3055905188 3055905188 -9.00000000
3.93829703 10.61811447 1.39052916 12 7 2035 11.41000000 3055905190 3055905190 7.00000000
1.90895271 5.14400816 -0.67369372 2 8 2036 5.52800000 3055905192 3055905192 -7.00000000
3.94608808 10.62773991 1.79555476 12 9 2037 11.47800000 3055905195 3055905195 9.00000000
2.86143613 7.70651817 -0.71920919 4 10 2037 8.25200000 3055905197 3055905197 -5.00000000
3.64408493 9.80912781 2.03402400 46 11 2038 10.66000000 3055905199 3055905199 11.00000000
3.93579507 10.58869076 -0.59202433 12 12 2039 11.31200000 3055905202 3055905202 -3.00000000
3.12535048 8.40381432 2.06999969 53 13 2040 9.20200000 3055905204 3055905204 13.00000000
3.94569135 10.60397911 -0.19749144 12 14 2041 11.31600000 3055905206 3055905206 -1.00000000
2.56937003 6.90145302 1.97323644 18 15 2042 7.62400000 3055905209 3055905209 15.00000000
0.79863101 2.13717270 -0.61133057 4 0 2049 2.36200000 3055905229 3055905229 -15.00000000
3.96094251 10.59402180 0.19742163 13 1 2050 11.31200000 3055905232 3055905232 1.00000000
0.94223881 2.51879191 -0.62086493 3 2 2051 2.76000000 3055905234 3055905234 -13.00000000
3.96961141 10.60592079 0.59348977 10 3 2052 11.34000000 3055905236 3055905236 3.00000000
1.13413393 3.03015399 -0.62890643 2 4 2052 3.29600000 3055905239 3055905239 -11.00000000
3.97505522 10.61482143 0.99165803 12 5 2053 11.37800000 3055905241 3055905241 5.00000000
1.43190956 3.82168055 -0.64638722 4 6 2054 4.13200000 3055905243 3055905243 -9.00000000
3.97951794 10.61545467 1.39199162 10 7 2055 11.42200000 3055905245 3055905245 7.00000000
1.92759418 5.13917208 -0.67393744 2 8 2056 5.53000000 3055905248 3055905248 -7.00000000
3.98685908 10.62939262 1.79805779 12 9 2056 11.49400000 3055905250 3055905250 9.00000000
2.89181972 7.70581007 -0.72008073 4 10 2057 8.26200000 3055905252 3055905252 -5.00000000
3.68244362 9.80737591 2.03631353 46 11 2058 10.67200000 3055905255 3055905255 11.00000000
3.97554231 10.58236599 -0.59244305 12 12 2059 11.32000000 3055905257 3055905257 -3.00000000
3.15192366 8.38555717 2.06820011 62 13 2060 9.19400000 3055905259 3055905259 13.00000000
3.98408985 10.59388447 -0.19756123 12 14 2061 11.32000000 3055905262 3055905262 -1.00000000
2.59360194 6.89651108 1.97427166 18 15 2061 7.62800000 3055905264 3055905264 15.00000000
0.80335611 2.12714291 -0.60926002 4 0 2069 2.35400000 3055905285 3055905285 -15.00000000
4.00920773 10.61006069 0.19798011 10 1 2070 11.34400000 3055905287 3055905287 1.00000000
0.95240360 2.51913309 -0.62176472 3 2 2071 2.76400000 3055905289 3055905289 -13.00000000
4.01014185 10.60134029 0.59401309 10 3 2072 11.35000000 3055905292 3055905292 3.00000000
1.14331496 3.02250409 -0.62814319 4 4 2072 3.29200000 3055905294 3055905294 -11.00000000
4.01137829 10.59901810 0.99148375 12 5 2073 11.37600000 3055905296 3055905296 5.00000000
1.44943821 3.82774329 -0.64826441 4 6 2074 4.14400000 3055905298 3055905298 -9.00000000
4.02709818 10.62934399 1.39564776 8 7 2075 11.45200000 3055905301 3055905301 7.00000000
1.94341052 5.12684345 -0.67320627 2 8 2076 5.52400000 3055905303 3055905303 -7.00000000
4.02323818 10.61356354 1.79774487 12 9 2076 11.49200000 3055905305 3055905305 9.00000000
2.91728735 7.69194269 -0.71973211 4 10 2077 8.25800000 3055905308 3055905308 -5.00000000
3.71665525 9.79446220 2.03631353 43 11 2078 10.67200000 3055905310 3055905310 11.00000000
3.18117547 8.37450314 2.06820011 59 13 2080 9.19400000 3055905315 3055905315 13.00000000
2.61971831 6.89283323 1.97582459 20 15 2081 7.63400000 3055905319 3055905319 15.00000000
0.80627435 2.11363745 -0.60615420 4 0 2088 2.34200000 3055905340 3055905340 -15.00000000
0.96353287 2.52324319 -0.62356430 3 2 2090 2.77200000 3055905345 3055905345 -13.00000000
1.15893722 3.03336787 -0.63119614 2 4 2091 3.30800000 3055905349 3055905349 -11.00000000
1.46635747 3.83398581 -0.65014166 4 6 2093 4.15600000 3055905354 3055905354 -9.00000000
1.96891844 5.14261723 -0.67613113 2 8 2095 5.54800000 3055905358 3055905358 -7.00000000
2.93280077 7.65617895 -0.71729177 4 10 2096 8.23000000 3055905363 3055905363 -5.00000000
3.74770927 9.77841663 2.03555036 50 11 2097 10.66800000 3055905365 3055905365 11.00000000
3.20892882 8.36390781 2.06820011 57 13 2099 9.19400000 3055905370 3055905370 13.00000000
2.64602304 6.89312553 1.97841275 20 15 2100 7.64400000 3055905374 3055905374 15.00000000
0.81920606 2.12523055 -0.61029530 4 0 2108 2.35800000 3055905395 3055905395 -15.00000000
0.97163320 2.51804638 -0.62311441 3 2 2110 2.77000000 3055905400 3055905400 -13.00000000
1.16386187 3.01465178 -0.62814319 4 4 2111 3.29200000 3055905404 3055905404 -11.00000000
1.47545910 3.81778860 -0.64826441 2 6 2113 4.14400000 3055905409 3055905409 -9.00000000
1.99401999 5.15422678 -0.67856848 2 8 2115 5.56800000 3055905414 3055905414 -7.00000000
2.96669984 7.66447544 -0.71903485 4 10 2116 8.25000000 3055905418 3055905418 -5.00000000
3.77756548 9.75429058 2.03326058 46 11 2117 10.65600000 3055905421 3055905421 11.00000000
3.23810482 8.35265636 2.06820011 56 13 2119 9.19400000 3055905425 3055905425 13.00000000
2.67196870 6.88518238 1.97893047 18 15 2121 7.64600000 3055905430 3055905430 15.00000000
0.82661951 2.12235808 -0.61029530 4 0 2128 2.35800000 3055905451 3055905451 -15.00000000
0.97546172 2.50193000 -0.61996508 3 2 2130 2.75600000 3055905455 3055905455 -13.00000000
1.17865872 3.02154493 -0.63043290 2 4 2131 3.30400000 3055905460 3055905460 -11.00000000
1.48230994 3.79605436 -0.64544863 4 6 2133 4.12600000 3055905464 3055905464 -9.00000000
2.00621772 5.13244390 -0.67661858 2 8 2135 5.55200000 3055905469 3055905469 -7.00000000
2.99851561 7.66706133 -0.72025508 4 10 2136 8.26400000 3055905474 3055905474 -5.00000000
3.81016040 9.73738861 2.03249741 40 11 2137 10.65200000 3055905476 3055905476 11.00000000
3.26724124 8.34130192 2.06820011 59 13 2139 9.19400000 3055905480 3055905480 13.00000000
2.70042515 6.89067316 1.98307157 15 15 2140 7.66200000 3055905485 3055905485 15.00000000
0.83614504 2.12485266 -0.61184824 4 0 2148 2.36400000 3055905506 3055905506 -15.00000000
0.98418915 2.49850965 -0.61996508 3 2 2150 2.75600000 3055905510 3055905510 -13.00000000
1.19063842 3.02106524 -0.63119614 2 4 2151 3.30800000 3055905515 3055905515 -11.00000000
1.50497591 3.81474519 -0.64951593 2 6 2153 4.15200000 3055905520 3055905520 -9.00000000
2.01828790 5.11063910 -0.67466867 2 8 2155 5.53600000 3055905524 3055905524 -7.00000000
3.02013516 7.64357710 -0.71903485 4 10 2156 8.25000000 3055905529 3055905529 -5.00000000
3.84557056 9.72768116 2.03326058 46 11 2157 10.65600000 3055905531 3055905531 11.00000000
3.29346967 8.32259846 2.06640029 59 13 2159 9.18600000 3055905536 3055905536 13.00000000
2.73228455 6.90096283 1.98876560 15 15 2160 7.68400000 3055905540 3055905540 15.00000000
0.83639896 2.10605645 -0.60718948 4 0 2166 2.34600000 3055905562 3055905562 -15.00000000
0.99779284 2.50989270 -0.62356430 3 2 2168 2.77200000 3055905567 3055905567 -13.00000000
1.18996525 2.99177051 -0.62585348 4 4 2169 3.28000000 3055905571 3055905571 -11.00000000
1.52279854 3.82468033 -0.65201885 4 6 2171 4.16800000 3055905576 3055905576 -9.00000000
2.03580332 5.10796118 -0.67515618 2 8 2173 5.54000000 3055905580 3055905580 -7.00000000
3.04708529 7.64145422 -0.71973211 4 10 2174 8.25800000 3055905585 3055905585 -5.00000000
3.87756705 9.71919823 2.03402400 46 11 2175 10.66000000 3055905587 3055905587 11.00000000
3.32104516 8.31583023 2.06730008 55 13 2177 9.19000000 3055905592 3055905592 13.00000000
2.75323415 6.89055109 1.98824787 9 15 2178 7.68200000 3055905597 3055905597 15.00000000
0.84518397 2.10670996 -0.60822475 4 0 2186 2.35000000 3055905617 3055905617 -15.00000000
1.00654793 2.50639439 -0.62356430 3 2 2188 2.77200000 3055905622 3055905622 -13.00000000
1.20772076 3.00581551 -0.62966967 2 4 2189 3.30000000 3055905627 3055905627 -11.00000000
1.52729452 3.79734921 -0.64826441 2 6 2191 4.14400000 3055905631 3055905631 -9.00000000
2.05510378 5.10450697 -0.67564362 2 8 2193 5.54400000 3055905636 3055905636 -7.00000000
3.06927371 7.61968279 -0.71868628 4 10 2194 8.24600000 3055905640 3055905640 -5.00000000
3.90853429 9.69832039 2.03249741 43 11 2195 10.65200000 3055905643 3055905643 11.00000000
3.35005260 8.30418682 2.06730008 59 13 2197 9.19000000 3055905647 3055905647 13.00000000
2.77991748 6.88399649 1.98928320 9 15 2199 7.68600000 3055905652 3055905652 15.00000000
0.85470933 2.10911822 -0.60977769 4 0 2206 2.35600000 3055905673 3055905673 -15.00000000
1.01236057 2.49564242 -0.62176472 3 2 2208 2.76400000 3055905677 3055905677 -13.00000000
1.21820557 3.00158143 -0.62966967 4 4 2209 3.30000000 3055905682 3055905682 -11.00000000
1.53979695 3.79016471 -0.64795154 2 6 2211 4.14200000 3055905686 3055905686 -9.00000000
2.07141376 5.09362459 -0.67515618 2 8 2213 5.54000000 3055905691 3055905691 -7.00000000
3.10636497 7.63475943 -0.72112662 4 10 2214 8.27400000 3055905696 3055905696 -5.00000000
3.94236398 9.68461800 2.03249741 40 11 2215 10.65200000 3055905698 3055905698 11.00000000
3.38048983 8.29605198 2.06820011 59 13 2217 9.19400000 3055905703 3055905703 13.00000000
3.05069518 7.48296595 2.16528010 33 15 2218 8.36600000 3055905707 3055905707 15.00000000
0.86133450 2.10433388 -0.60926002 4 0 2226 2.35400000 3055905728 3055905728 -15.00000000
1.01737177 2.48307705 -0.61951518 3 2 2228 2.75400000 3055905732 3055905732 -13.00000000
1.23314357 3.00821018 -0.63195938 4 4 2229 3.31200000 3055905737 3055905737 -11.00000000
1.55451751 3.78842163 -0.64857727 4 6 2231 4.14600000 3055905742 3055905742 -9.00000000
2.09068966 5.09003544 -0.67564362 2 8 2233 5.54400000 3055905746 3055905746 -7.00000000
3.13451099 7.62755537 -0.72147524 4 10 2234 8.27800000 3055905751 3055905751 -5.00000000
3.97091961 9.65808678 2.02982616 46 11 2235 10.63800000 3055905753 3055905753 11.00000000
3.40646124 8.27699280 2.06640029 60 13 2237 9.18600000 3055905758 3055905758 13.00000000
3.06870604 7.45262146 2.15958619 31 15 2238 8.34400000 3055905762 3055905762 15.00000000
0.87199491 2.10830355 -0.61133057 4 0 2247 2.36200000 3055905783 3055905783 -15.00000000
1.02944756 2.48653364 -0.62131482 3 2 2249 2.76200000 3055905788 3055905788 -13.00000000
1.23815048 2.98915982 -0.62890643 4 4 2250 3.29600000 3055905792 3055905792 -11.00000000
1.56990540 3.78634810 -0.64920300 2 6 2252 4.15000000 3055905797 3055905797 -9.00000000
2.11465812 5.09517241 -0.67734981 2 8 2254 5.55800000 3055905802 3055905802 -7.00000000
3.16855884 7.63073587 -0.72286975 4 10 2255 8.29400000 3055905806 3055905806 -5.00000000
4.01005793 9.65253353 2.03173423 43 11 2256 10.64800000 3055905809 3055905809 11.00000000
3.43228555 8.25365543 2.06370091 57 13 2258 9.17400000 3055905813 3055905813 13.00000000
2.98148465 7.16255665 2.07883453 6 15 2260 8.03200000 3055905818 3055905818 15.00000000
0.87785977 2.10168171 -0.61029530 4 0 2267 2.35800000 3055905838 3055905838 -15.00000000
1.03812087 2.48292518 -0.62131482 3 2 2269 2.76200000 3055905843 3055905843 -13.00000000
1.25009239 2.98844194 -0.62966967 4 4 2270 3.30000000 3055905848 3055905848 -11.00000000
1.58845329 3.79359984 -0.65139312 2 6 2272 4.16400000 3055905852 3055905852 -9.00000000
2.13319802 5.08959055 -0.67759353 2 8 2274 5.56000000 3055905857 3055905857 -7.00000000
3.19055271 7.60860491 -0.72182387 4 10 2275 8.28200000 3055905862 3055905862 -5.00000000
3.46409345 8.24881172 2.06550050 57 13 2278 9.18200000 3055905868 3055905868 13.00000000
3.00197673 7.14142036 2.07572865 9 15 2280 8.02000000 3055905873 3055905873 15.00000000
0.88218749 2.09148455 -0.60822475 4 0 2287 2.35000000 3055905894 3055905894 -15.00000000
1.04981351 2.48646736 -0.62311441 3 2 2289 2.77000000 3055905898 3055905898 -13.00000000
1.26357210 2.99129415 -0.63119614 4 4 2290 3.30800000 3055905903 3055905903 -11.00000000
1.58937693 3.75892115 -0.64638722 2 6 2292 4.13200000 3055905908 3055905908 -9.00000000
2.14630866 5.07114458 -0.67613113 2 8 2294 5.54800000 3055905912 3055905912 -7.00000000
3.21864605 7.60109091 -0.72217250 4 10 2295 8.28600000 3055905917 3055905917 -5.00000000
3.49286604 8.23666954 2.06550050 59 13 2298 9.18200000 3055905924 3055905924 13.00000000
3.03896403 7.15935040 2.08401084 11 15 2300 8.05200000 3055905928 3055905928 15.00000000
0.89099675 2.09194708 -0.60926002 4 0 2307 2.35400000 3055905949 3055905949 -15.00000000
1.05695808 2.47920251 -0.62221462 3 2 2309 2.76600000 3055905954 3055905954 -13.00000000
1.27092493 2.97964191 -0.62966967 2 4 2310 3.30000000 3055905958 3055905958 -11.00000000
1.60559094 3.76061726 -0.64763868 2 6 2312 4.14000000 3055905963 3055905963 -9.00000000
2.17179823 5.08187580 -0.67856848 2 8 2314 5.56800000 3055905968 3055905968 -7.00000000
3.23419333 7.56416178 -0.71973211 4 10 2315 8.25800000 3055905972 3055905972 -5.00000000
4.46996593 10.44935322 2.20918655 56 11 2316 11.57800000 3055905974 3055905974 11.00000000
3.52313018 8.22800922 2.06640029 56 13 2318 9.18600000 3055905979 3055905979 13.00000000
3.05556488 7.12916708 2.07831693 22 15 2320 8.03000000 3055905984 3055905984 15.00000000
0.90137732 2.09801245 -0.61184824 4 0 2325 2.36400000 3055906004 3055906004 -15.00000000
1.06012225 2.46512842 -0.61951518 3 2 2327 2.75400000 3055906009 3055906009 -13.00000000
1.28648686 2.99006176 -0.63272262 4 4 2328 3.31600000 3055906014 3055906014 -11.00000000
1.62208545 3.76644015 -0.64951593 2 6 2330 4.15200000 3055906018 3055906018 -9.00000000
2.17517948 5.04586077 -0.67466867 2 8 2332 5.53600000 3055906023 3055906023 -7.00000000
3.26267505 7.56494093 -0.72077799 4 10 2333 8.27000000 3055906027 3055906027 -5.00000000
4.50743818 10.44607449 2.21147633 59 11 2334 11.59000000 3055906030 3055906030 11.00000000
3.54432559 8.20616627 2.06370091 60 13 2336 9.17400000 3055906034 3055906034 13.00000000
3.08130193 7.13070965 2.08142281 40 15 2337 8.04200000 3055906039 3055906039 15.00000000
0.90946406 2.09662557 -0.61236584 4 0 2345 2.36600000 3055906060 3055906060 -15.00000000
1.07492959 2.47571301 -0.62311441 3 2 2347 2.77000000 3055906064 3055906064 -13.00000000
1.29222310 2.97474861 -0.63043290 4 4 2348 3.30400000 3055906069 3055906069 -11.00000000
1.63207221 3.75350904 -0.64826441 2 6 2350 4.14400000 3055906073 3055906073 -9.00000000
2.19832468 5.05097866 -0.67637485 2 8 2352 5.55000000 3055906078 3055906078 -7.00000000
3.29701591 7.57177305 -0.72252113 4 10 2353 8.29000000 3055906083 3055906083 -5.00000000
4.55328369 10.45187569 2.21605563 53 11 2354 11.61400000 3055906085 3055906085 11.00000000
3.57139111 8.19017220 2.06280112 59 13 2356 9.17000000 3055906090 3055906090 13.00000000
3.10896206 7.12290955 2.08245802 40 15 2358 8.04600000 3055906094 3055906094 15.00000000
0.91486239 2.09005880 -0.61133057 4 0 2364 2.36200000 3055906115 3055906115 -15.00000000
1.08626163 2.47927451 -0.62491405 3 2 2366 2.77800000 3055906120 3055906120 -13.00000000
1.30050421 2.96685100 -0.62966967 4 4 2367 3.30000000 3055906124 3055906124 -11.00000000
1.65085971 3.76254749 -0.65076739 2 6 2369 4.16000000 3055906129 3055906129 -9.00000000
2.21745706 5.04911375 -0.67710608 2 8 2371 5.55600000 3055906133 3055906133 -7.00000000
3.32931995 7.57721519 -0.72408992 4 10 2372 8.30800000 3055906138 3055906138 -5.00000000
4.59581900 10.45469093 2.21987176 53 11 2373 11.63400000 3055906140 3055906140 11.00000000
3.59696126 8.17471600 2.06190133 60 13 2375 9.16600000 3055906145 3055906145 13.00000000
3.12743235 7.10426664 2.07986975 40 15 2376 8.03600000 3055906150 3055906150 15.00000000
0.91902918 2.07978439 -0.60926002 4 0 2384 2.35400000 3055906170 3055906170 -15.00000000
1.09490931 2.47546768 -0.62491405 3 2 2386 2.77800000 3055906175 3055906175 -13.00000000
1.31403029 2.96947455 -0.63119614 4 4 2387 3.30800000 3055906179 3055906179 -11.00000000
1.66238344 3.75314975 -0.65014166 2 6 2389 4.15600000 3055906184 3055906184 -9.00000000
2.24150467 5.05586052 -0.67905599 2 8 2391 5.57200000 3055906189 3055906189 -7.00000000
3.33797669 7.52547932 -0.72025508 4 10 2392 8.26400000 3055906193 3055906193 -5.00000000
4.63865519 10.45294094 2.22292471 56 11 2393 11.65000000 3055906196 3055906196 11.00000000
3.62705660 8.16567230 2.06280112 59 13 2395 9.17000000 3055906200 3055906200 13.00000000
3.15344977 7.09275627 2.07986975 42 15 2397 8.03600000 3055906205 3055906205 15.00000000
0.92664582 2.07640219 -0.60926002 4 0 2405 2.35400000 3055906226 3055906226 -15.00000000
1.10238540 2.46787930 -0.62401420 3 2 2407 2.77400000 3055906230 3055906230 -13.00000000
1.32490516 2.96463847 -0.63119614 4 4 2408 3.30800000 3055906235 3055906235 -11.00000000
1.67612827 3.74703169 -0.65014166 2 6 2410 4.15600000 3055906239 3055906239 -9.00000000
2.25758672 5.04217529 -0.67832476 2 8 2412 5.56600000 3055906244 3055906244 -7.00000000
3.37775421 7.54046917 -0.72286975 8 10 2413 8.29400000 3055906249 3055906249 -5.00000000
4.67452765 10.43049526 2.22177982 59 11 2414 11.64400000 3055906251 3055906251 11.00000000
3.65696096 8.15232372 2.06280112 60 13 2416 9.17000000 3055906256 3055906256 13.00000000
3.17897987 7.08346796 2.08038759 40 15 2417 8.03800000 3055906260 3055906260 15.00000000
0.93547505 2.07667756 -0.61029530 4 0 2425 2.35800000 3055906281 3055906281 -15.00000000
1.10939121 2.46046329 -0.62311441 3 2 2427 2.77000000 3055906285 3055906285 -13.00000000
1.34089661 2.97252297 -0.63386750 4 4 2428 3.32200000 3055906290 3055906290 -11.00000000
2.26863313 5.01979303 -0.67637485 2 8 2432 5.55000000 3055906299 3055906299 -7.00000000
3.40405464 7.52863264 -0.72286975 4 10 2433 8.29400000 3055906304 3055906304 -5.00000000
4.72304535 10.44094563 2.22750425 59 11 2434 11.67400000 3055906306 3055906306 11.00000000
3.68378806 8.13595867 2.06190133 62 13 2436 9.16600000 3055906311 3055906311 13.00000000
3.20571804 7.07352829 2.08090520 40 15 2438 8.04000000 3055906315 3055906315 15.00000000
0.94395500 2.07708168 -0.61133057 4 0 2444 2.36200000 3055906336 3055906336 -15.00000000
1.11593056 2.45322323 -0.62221462 3 2 2446 2.76600000 3055906341 3055906341 -13.00000000
1.34424078 2.95376468 -0.63081455 4 4 2447 3.30600000 3055906345 3055906345 -11.00000000
1.69831896 3.72834516 -0.64889014 2 6 2449 4.14800000 3055906350 3055906350 -9.00000000
2.28773761 5.01766109 -0.67710608 2 8 2451 5.55600000 3055906355 3055906355 -7.00000000
3.43065548 7.52092838 -0.72321838 4 10 2452 8.29800000 3055906359 3055906359 -5.00000000
4.76416349 10.43951416 2.23055720 59 11 2453 11.69000000 3055906361 3055906361 11.00000000
3.70588946 8.11306286 2.05920196 56 13 2455 9.15400000 3055906366 3055906366 13.00000000
3.22792435 7.06342268 2.08090520 40 15 2456 8.04000000 3055906371 3055906371 15.00000000
0.94717252 2.06499410 -0.60874242 4 0 2464 2.35200000 3055906391 3055906391 -15.00000000
1.12611318 2.45285487 -0.62311441 3 2 2466 2.77000000 3055906396 3055906396 -13.00000000
1.35372365 2.94727039 -0.63043290 4 4 2467 3.30400000 3055906401 3055906401 -11.00000000
1.71627378 3.73316312 -0.65076739 2 6 2469 4.16000000 3055906405 3055906405 -9.00000000
3.45188832 7.49804831 -0.72217250 4 10 2472 8.28600000 3055906414 3055906414 -5.00000000
3.73581839 8.10361671 2.06010175 60 13 2475 9.15800000 3055906421 3055906421 13.00000000
3.25217271 7.04803610 2.07986975 42 15 2477 8.03600000 3055906426 3055906426 15.00000000
0.95067549 2.05274391 -0.60615420 4 0 2485 2.34200000 3055906447 3055906447 -15.00000000
1.13837409 2.45578313 -0.62491405 3 2 2487 2.77800000 3055906451 3055906451 -13.00000000
1.36286497 2.93872690 -0.62966967 4 4 2488 3.30000000 3055906456 3055906456 -11.00000000
1.72495472 3.71609688 -0.64889014 2 6 2490 4.14800000 3055906461 3055906461 -9.00000000
2.32525706 5.00476217 -0.67759353 2 8 2492 5.56000000 3055906465 3055906465 -7.00000000
3.47766733 7.48173285 -0.72182387 4 10 2493 8.28200000 3055906470 3055906470 -5.00000000
4.45048618 9.57025051 2.05157828 3 11 2494 10.75200000 3055906472 3055906472 11.00000000
3.77042866 8.10047054 2.06280112 60 13 2496 9.17000000 3055906477 3055906477 13.00000000
3.27349305 7.02963591 2.07779932 42 15 2497 8.02800000 3055906481 3055906481 15.00000000
0.96437883 2.06341386 -0.61029530 4 0 2505 2.35800000 3055906502 3055906502 -15.00000000
1.14528799 2.44826412 -0.62401420 3 2 2507 2.77400000 3055906507 3055906507 -13.00000000
1.38310099 2.95528936 -0.63424909 2 4 2508 3.32400000 3055906511 3055906511 -11.00000000
1.73456407 3.70289779 -0.64763868 2 6 2510 4.14000000 3055906516 3055906516 -9.00000000
2.33934212 4.98942566 -0.67661858 2 8 2512 5.55200000 3055906520 3055906520 -7.00000000
3.50545454 7.47315550 -0.72217250 4 10 2513 8.28600000 3055906525 3055906525 -5.00000000
3.79702473 8.08373165 2.06190133 62 13 2516 9.16600000 3055906532 3055906532 13.00000000
3.30252361 7.02458382 2.07986975 42 15 2518 8.03600000 3055906537 3055906537 15.00000000
0.97415030 2.06736422 -0.61236584 4 0 2523 2.36600000 3055906557 3055906557 -15.00000000
1.15463626 2.44817924 -0.62491405 3 2 2525 2.77800000 3055906562 3055906562 -13.00000000
1.38567626 2.93672562 -0.63119614 2 4 2526 3.30800000 3055906567 3055906567 -11.00000000
1.75124991 3.70814729 -0.64951593 2 6 2528 4.15200000 3055906571 3055906571 -9.00000000
2.35161185 4.97487307 -0.67564362 2 8 2530 5.54400000 3055906576 3055906576 -7.00000000
3.53828430 7.48191833 -0.72408992 8 10 2531 8.30800000 3055906580 3055906580 -5.00000000
4.93955326 10.44027233 2.24505854 59 11 2532 11.76600000 3055906583 3055906583 11.00000000
3.82240176 8.07176304 2.06190133 59 13 2534 9.16600000 3055906587 3055906587 13.00000000
3.32583284 7.01999140 2.08142281 40 15 2535 8.04200000 3055906592 3055906592 15.00000000
0.98219037 2.06569600 -0.61288351 4 0 2543 2.36800000 3055906613 3055906613 -15.00000000
1.15982533 2.43709540 -0.62311441 3 2 2545 2.77000000 3055906617 3055906617 -13.00000000
1.39760685 2.93541598 -0.63195938 2 4 2546 3.31200000 3055906622 3055906622 -11.00000000
1.76588261 3.70557833 -0.65014166 2 6 2548 4.15600000 3055906626 3055906626 -9.00000000
2.37067223 4.97021770 -0.67613113 2 8 2550 5.54800000 3055906631 3055906631 -7.00000000
3.56180549 7.46412754 -0.72356695 8 10 2551 8.30200000 3055906636 3055906636 -5.00000000
4.98527050 10.44245529 2.24925637 56 11 2552 11.78800000 3055906638 3055906638 11.00000000
3.84047198 8.03727150 2.05650258 62 13 2554 9.14200000 3055906643 3055906643 13.00000000
3.35115004 7.01008224 2.08194041 42 15 2555 8.04400000 3055906647 3055906647 15.00000000
0.98103863 2.04483724 -0.60770714 4 0 2563 2.34800000 3055906668 3055906668 -15.00000000
1.17001235 2.43654537 -0.62401420 3 2 2565 2.77400000 3055906673 3055906673 -13.00000000
1.40954518 2.93405867 -0.63272262 4 4 2566 3.31600000 3055906677 3055906677 -11.00000000
1.78223085 3.70651269 -0.65139312 2 6 2568 4.16400000 3055906682 3055906682 -9.00000000
2.39145041 4.96906710 -0.67710608 2 8 2570 5.55600000 3055906686 3055906686 -7.00000000
3.58783841 7.45164871 -0.72356695 8 10 2571 8.30200000 3055906691 3055906691 -5.00000000
5.03021145 10.44267654 2.25307250 53 11 2572 11.80800000 3055906693 3055906693 11.00000000
3.86850381 8.02381706 2.05650258 60 13 2574 9.14200000 3055906698 3055906698 13.00000000
3.37392092 6.99486160 2.08090520 42 15 2575 8.04000000 3055906702 3055906702 15.00000000
0.99322075 2.05183339 -0.61081296 4 0 2583 2.36000000 3055906723 3055906723 -15.00000000
1.18530786 2.44647646 -0.62761343 3 2 2585 2.79000000 3055906728 3055906728 -13.00000000
1.41806567 2.92558718 -0.63195938 4 4 2586 3.31200000 3055906732 3055906732 -11.00000000
1.78998482 3.68960524 -0.64951593 2 6 2588 4.15200000 3055906737 3055906737 -9.00000000
2.41051531 4.96426058 -0.67759353 2 8 2590 5.56000000 3055906742 3055906742 -7.00000000
3.61469817 7.44087172 -0.72374129 8 10 2591 8.30400000 3055906746 3055906746 -5.00000000
5.07349777 10.43918037 2.25612545 56 11 2592 11.82400000 3055906749 3055906749 11.00000000
3.89648867 8.01026440 2.05650258 62 13 2594 9.14200000 3055906753 3055906753 13.00000000
3.39615297 6.97550106 2.07883453 45 15 2596 8.03200000 3055906758 3055906758 15.00000000
0.99783361 2.04314613 -0.60926002 4 0 2603 2.35400000 3055906779 3055906779 -15.00000000
1.18784988 2.43006849 -0.62446415 4 2 2605 2.77600000 3055906783 3055906783 -13.00000000
1.43344414 2.93120146 -0.63424909 2 4 2606 3.32400000 3055906788 3055906788 -11.00000000
1.80111611 3.67978621 -0.64889014 2 6 2608 4.14800000 3055906792 3055906792 -9.00000000
2.43743563 4.97542524 -0.68027467 2 8 2610 5.58200000 3055906797 3055906797 -7.00000000
3.64941812 7.44609928 -0.72548443 8 10 2611 8.32400000 3055906802 3055906802 -5.00000000
5.11422777 10.43022156 2.25803375 59 11 2612 11.83400000 3055906804 3055906804 11.00000000
3.92614293 8.00011349 2.05740237 59 13 2614 9.14600000 3055906808 3055906808 13.00000000
3.42437434 6.97460556 2.08194041 42 15 2615 8.04400000 3055906813 3055906813 15.00000000
1.00666714 2.04311657 -0.61029530 4 0 2623 2.35800000 3055906834 3055906834 -15.00000000
1.19201565 2.41716862 -0.62221462 3 2 2625 2.76600000 3055906838 3055906838 -13.00000000
1.44366717 2.92617989 -0.63424909 2 4 2626 3.32400000 3055906843 3055906843 -11.00000000
1.82444537 3.69473124 -0.65264457 2 6 2628 4.17200000 3055906848 3055906848 -9.00000000
2.44863153 4.95442963 -0.67856848 2 8 2630 5.56800000 3055906852 3055906852 -7.00000000
3.67538762 7.43331528 -0.72548443 8 10 2631 8.32400000 3055906857 3055906857 -5.00000000
5.16192150 10.43518162 2.26299477 59 11 2632 11.86000000 3055906859 3055906859 11.00000000
3.94626284 7.97064209 2.05335331 53 13 2634 9.12800000 3055906864 3055906864 13.00000000
3.44784188 6.96087837 2.08142281 45 15 2635 8.04200000 3055906868 3055906868 15.00000000
1.01859426 2.05014753 -0.61340111 4 0 2642 2.37000000 3055906889 3055906889 -15.00000000
1.20349550 2.42018199 -0.62401420 3 2 2644 2.77400000 3055906894 3055906894 -13.00000000
1.44461823 2.90379906 -0.63043290 4 4 2645 3.30400000 3055906898 3055906898 -11.00000000
1.83316565 3.68158746 -0.65139312 2 6 2647 4.16400000 3055906903 3055906903 -9.00000000
2.46416211 4.94450569 -0.67832476 2 8 2649 5.56600000 3055906907 3055906907 -7.00000000
3.71157408 7.44426584 -0.72775048 8 10 2650 8.35000000 3055906912 3055906912 -5.00000000
5.20350742 10.43206215 2.26604772 56 11 2651 11.87600000 3055906914 3055906914 11.00000000
3.96745014 7.94705057 2.05065370 30 13 2653 9.11600000 3055906919 3055906919 13.00000000
3.47176933 6.95113516 2.08194041 40 15 2654 8.04400000 3055906924 3055906924 15.00000000
1.02228189 2.03967118 -0.61133057 4 0 2662 2.36200000 3055906944 3055906944 -15.00000000
1.21892643 2.42990112 -0.62761343 3 2 2664 2.79000000 3055906949 3055906949 -13.00000000
1.46355152 2.91628551 -0.63424909 4 4 2665 3.32400000 3055906954 3055906954 -11.00000000
1.84423232 3.67163587 -0.65076739 2 6 2667 4.16000000 3055906958 3055906958 -9.00000000
2.48408151 4.94119453 -0.67905599 4 8 2669 5.57200000 3055906963 3055906963 -7.00000000
3.73306084 7.42236519 -0.72687888 8 10 2670 8.34000000 3055906967 3055906967 -5.00000000
5.24959755 10.43312550 2.27024531 59 11 2671 11.89800000 3055906970 3055906970 11.00000000
4.55964375 9.05402851 2.34039068 55 13 2673 10.40400000 3055906974 3055906974 13.00000000
3.49374509 6.93146324 2.07986975 42 15 2675 8.03600000 3055906979 3055906979 15.00000000
1.02416575 2.02574611 -0.60822475 4 0 2682 2.35000000 3055907000 3055907000 -15.00000000
1.22212172 2.41519880 -0.62491405 3 2 2684 2.77800000 3055907004 3055907004 -13.00000000
1.47194886 2.90765572 -0.63348585 4 4 2685 3.32000000 3055907009 3055907009 -11.00000000
1.86239433 3.67574835 -0.65264457 2 6 2687 4.17200000 3055907013 3055907013 -9.00000000
2.49772310 4.92541170 -0.67808104 4 8 2689 5.56400000 3055907018 3055907018 -7.00000000
3.75894690 7.40928888 -0.72687888 8 10 2690 8.34000000 3055907023 3055907023 -5.00000000
5.29220390 10.42699242 2.27291679 62 11 2691 11.91200000 3055907025 3055907025 11.00000000
4.59916353 9.05369473 2.34443998 57 13 2693 10.42200000 3055907030 3055907030 13.00000000
3.51321054 6.91295052 2.07779932 45 15 2694 8.02800000 3055907034 3055907034 15.00000000
1.03649652 2.03248477 -0.61133057 4 0 2702 2.36200000 3055907055 3055907055 -15.00000000
1.23231673 2.41438937 -0.62581384 3 2 2704 2.78200000 3055907059 3055907059 -13.00000000
1.48208952 2.90249991 -0.63348585 4 4 2705 3.32000000 3055907064 3055907064 -11.00000000
1.87071896 3.66043019 -0.65108025 2 6 2707 4.16200000 3055907069 3055907069 -9.00000000
2.52394080 4.93433619 -0.68051839 4 8 2709 5.58400000 3055907073 3055907073 -7.00000000
3.77117300 7.36951828 -0.72426420 17 10 2710 8.31000000 3055907078 3055907078 -5.00000000
5.33751488 10.42593098 2.27673292 62 11 2711 11.93200000 3055907080 3055907080 11.00000000
4.63073874 9.03758526 2.34443998 55 13 2713 10.42200000 3055907085 3055907085 13.00000000
3.53731990 6.90064526 2.07779932 45 15 2714 8.02800000 3055907089 3055907089 15.00000000
1.04323077 2.02903628 -0.61133057 4 0 2721 2.36200000 3055907110 3055907110 -15.00000000
1.23853302 2.40682411 -0.62491405 3 2 2723 2.77800000 3055907115 3055907115 -13.00000000
1.49709809 2.90804243 -0.63577557 4 4 2724 3.33200000 3055907119 3055907119 -11.00000000
1.88465667 3.65771842 -0.65170598 2 6 2726 4.16600000 3055907124 3055907124 -9.00000000
2.53756022 4.92064667 -0.67978722 4 8 2728 5.57800000 3055907129 3055907129 -7.00000000
3.80289841 7.37113714 -0.72565871 13 10 2729 8.32600000 3055907133 3055907133 -5.00000000
5.38376522 10.43085384 2.28169394 62 11 2730 11.95800000 3055907136 3055907136 11.00000000
4.66068316 9.02217960 2.34443998 55 13 2732 10.42200000 3055907140 3055907140 13.00000000
3.56493497 6.89511967 2.07986975 45 15 2734 8.03600000 3055907145 3055907145 15.00000000
1.05208576 2.02881241 -0.61236584 4 0 2741 2.36600000 3055907165 3055907165 -15.00000000
1.24872231 2.40594554 -0.62581384 3 2 2743 2.78200000 3055907170 3055907170 -13.00000000
1.49457407 2.87840557 -0.63043290 4 4 2744 3.30400000 3055907175 3055907175 -11.00000000
1.89194751 3.64060068 -0.64982879 4 6 2746 4.15400000 3055907179 3055907179 -9.00000000
2.55380511 4.90999746 -0.67954344 4 8 2748 5.57600000 3055907184 3055907184 -7.00000000
3.84148073 7.38256168 -0.72809905 8 10 2749 8.35400000 3055907189 3055907189 -5.00000000
5.43374062 10.43811893 2.28741813 65 11 2750 11.98800000 3055907191 3055907191 11.00000000
4.68854618 8.99894238 2.34264016 59 13 2752 10.41400000 3055907195 3055907195 13.00000000
3.59255457 6.88948536 2.08194041 45 15 2754 8.04400000 3055907200 3055907200 15.00000000
1.05522764 2.01846433 -0.61029530 4 0 2760 2.35800000 3055907221 3055907221 -15.00000000
1.25308013 2.39488459 -0.62401420 3 2 2762 2.77400000 3055907225 3055907225 -13.00000000
1.50593197 2.87691236 -0.63119614 4 4 2763 3.30800000 3055907230 3055907230 -11.00000000
1.90951002 3.64480543 -0.65170598 2 6 2765 4.16600000 3055907235 3055907235 -9.00000000
2.57007313 4.90150213 -0.67954344 4 8 2767 5.57600000 3055907239 3055907239 -7.00000000
3.85853672 7.35566711 -0.72670460 8 10 2768 8.33800000 3055907244 3055907244 -5.00000000
4.72017431 8.98679543 2.34354019 57 13 2771 10.41800000 3055907251 3055907251 13.00000000
3.61178565 6.87069464 2.07986975 45 15 2773 8.03600000 3055907255 3055907255 15.00000000
1.05686104 2.00451541 -0.60718948 4 0 2780 2.34600000 3055907276 3055907276 -15.00000000
1.26507008 2.39739013 -0.62581384 3 2 2782 2.78200000 3055907281 3055907281 -13.00000000
1.52329743 2.88552761 -0.63424909 4 4 2783 3.32400000 3055907285 3055907285 -11.00000000
1.91760707 3.62938499 -0.65014166 2 6 2785 4.15600000 3055907290 3055907290 -9.00000000
2.59180665 4.90127516 -0.68076217 4 8 2787 5.58600000 3055907295 3055907295 -7.00000000
3.88232589 7.33863115 -0.72635597 8 10 2788 8.33400000 3055907299 3055907299 -5.00000000
4.74877882 8.96509838 2.34219027 54 13 2791 10.41200000 3055907306 3055907306 13.00000000
3.63031769 6.84780407 2.07676411 45 15 2793 8.02400000 3055907311 3055907311 15.00000000
1.06818020 2.00726414 -0.60926002 4 0 2802 2.35400000 3055907331 3055907331 -15.00000000
1.27060163 2.38563490 -0.62401420 3 2 2804 2.77400000 3055907336 3055907336 -13.00000000
1.53621221 2.88312244 -0.63501233 4 4 2805 3.32800000 3055907341 3055907341 -11.00000000
1.94547153 3.64814043 -0.65483469 2 6 2807 4.18600000 3055907345 3055907345 -9.00000000
2.60967231 4.88953590 -0.68051839 4 8 2809 5.58400000 3055907350 3055907350 -7.00000000
3.91798306 7.33773041 -0.72775048 8 10 2810 8.35000000 3055907354 3055907354 -5.00000000
4.78776121 8.95539093 2.34443998 56 13 2813 10.42200000 3055907361 3055907361 13.00000000
3.65721393 6.83785915 2.07779932 42 15 2814 8.02800000 3055907366 3055907366 15.00000000
1.08431530 2.02054548 -0.61443639 4 0 2822 2.37400000 3055907387 3055907387 -15.00000000
1.27523303 2.37431788 -0.62221462 3 2 2824 2.76600000 3055907391 3055907391 -13.00000000
1.54626679 2.87774253 -0.63501233 4 4 2825 3.32800000 3055907396 3055907396 -11.00000000
1.95164490 3.62914896 -0.65264457 2 6 2827 4.17200000 3055907400 3055907400 -9.00000000
2.62484264 4.87690067 -0.68003094 4 8 2829 5.58000000 3055907405 3055907405 -7.00000000
3.94451737 7.32576370 -0.72792476 8 10 2830 8.35200000 3055907410 3055907410 -5.00000000
