# .PCD v0.7 - Point Cloud Data file format
VERSION 0.7
FIELDS x y z intensity laser_id azimuth distance_m adjustedtime timestamp vertical_angle
SIZE 4 4 4 1 1 2 8 8 4 8
TYPE F F F U U U F U U F
COUNT 1 1 1 1 1 1 1 1 1 1
WIDTH 539
HEIGHT 1
VIEWPOINT 0 0 0 1 0 0 0
POINTS 539
DATA ascii
2.96665096 1.22579515 -0.62394542 6 4 6755 3.27000000 3055518222 3055518222 -11.00000000
8.19662857 3.38510299 0.77586043 75 5 6756 8.90200000 3055518224 3055518224 5.00000000
3.75959468 1.55189645 -0.64419711 6 6 6757 4.11800000 3055518227 3055518227 -9.00000000
8.21733189 3.39029598 1.09146190 90 7 6758 8.95600000 3055518229 3055518229 7.00000000
5.06141853 2.08719969 -0.67223132 6 8 6759 5.51600000 3055518231 3055518231 -7.00000000
7.75505447 3.19640279 -0.73385137 13 10 6760 8.42000000 3055518236 3055518236 -5.00000000
8.19250870 3.37336349 -0.46432459 17 12 6762 8.87200000 3055518241 3055518241 -3.00000000
8.26618004 3.40201116 2.06370091 66 13 6763 9.17400000 3055518243 3055518243 13.00000000
8.17779064 3.36396480 -0.15434909 18 14 6764 8.84400000 3055518245 3055518245 -1.00000000
7.19999504 2.96174502 2.08608150 45 15 6764 8.06000000 3055518247 3055518247 15.00000000
2.08943319 0.85693896 -0.60511893 4 0 6770 2.33800000 3055518268 3055518268 -15.00000000
8.18559456 3.35548806 0.15441889 12 1 6771 8.84800000 3055518270 3055518270 1.00000000
2.49389648 1.02180469 -0.62221462 4 2 6772 2.76600000 3055518273 3055518273 -13.00000000
8.20636368 3.36065650 0.46474329 10 3 6773 8.88000000 3055518275 3055518275 3.00000000
2.97230411 1.21721315 -0.62432700 8 4 6773 3.27200000 3055518277 3055518277 -11.00000000
8.18694019 3.35103369 0.77394301 78 5 6774 8.88000000 3055518280 3055518280 5.00000000
3.75713825 1.53708589 -0.64294565 6 6 6775 4.11000000 3055518282 3055518282 -9.00000000
8.21691799 3.35995579 1.08999944 90 7 6776 8.94400000 3055518284 3055518284 7.00000000
5.07530117 2.07429266 -0.67320627 6 8 6777 5.52400000 3055518287 3055518287 -7.00000000
7.76136923 3.17051697 -0.73350275 13 10 6778 8.41600000 3055518291 3055518291 -5.00000000
8.18827248 3.34157228 -0.46348724 17 12 6780 8.85600000 3055518296 3055518296 -3.00000000
8.26960945 3.37308145 2.06190133 64 13 6781 9.16600000 3055518298 3055518298 13.00000000
8.18461418 3.33674717 -0.15427928 16 14 6782 8.84000000 3055518300 3055518300 -1.00000000
7.20262098 2.93493676 2.08401084 42 15 6783 8.05200000 3055518303 3055518303 15.00000000
2.09599137 0.85109389 -0.60615420 4 0 6790 2.34200000 3055518323 3055518323 -15.00000000
8.18243408 3.32087851 0.15413965 12 1 6791 8.83200000 3055518326 3055518326 1.00000000
2.49564242 1.01236057 -0.62176472 4 2 6792 2.76400000 3055518328 3055518328 -13.00000000
8.20265675 3.32741857 0.46390593 13 3 6792 8.86400000 3055518330 3055518330 3.00000000
2.97835422 1.20756805 -0.62470865 6 4 6793 3.27400000 3055518333 3055518333 -11.00000000
8.18196869 3.31570077 0.77237421 71 5 6794 8.86200000 3055518335 3055518335 5.00000000
3.76064992 1.52322006 -0.64263278 6 6 6795 4.10800000 3055518337 3055518337 -9.00000000
8.21387577 3.32529354 1.08804953 92 7 6796 8.92800000 3055518340 3055518340 7.00000000
5.09355164 2.06103134 -0.67466867 6 8 6797 5.53600000 3055518342 3055518342 -7.00000000
7.77423620 3.14415240 -0.73367703 13 10 6798 8.41800000 3055518347 3055518347 -5.00000000
8.19248009 3.30997682 -0.46306854 17 12 6800 8.84800000 3055518351 3055518351 -3.00000000
8.28494740 3.34565401 2.06280112 64 13 6801 9.17000000 3055518353 3055518353 13.00000000
8.18694019 3.30441475 -0.15410475 18 14 6802 8.83000000 3055518356 3055518356 -1.00000000
7.21640491 2.91122246 2.08504629 42 15 6803 8.05600000 3055518358 3055518358 15.00000000
2.09880233 0.84413862 -0.60615420 4 0 6809 2.34200000 3055518379 3055518379 -15.00000000
8.18041420 3.28850532 0.15389532 12 1 6810 8.81800000 3055518381 3055518381 1.00000000
2.48632812 0.99899340 -0.61861539 4 2 6811 2.75000000 3055518383 3055518383 -13.00000000
8.19511318 3.29275298 0.46285918 13 3 6811 8.84400000 3055518386 3055518386 3.00000000
2.98598599 1.19914818 -0.62547189 5 4 6812 3.27800000 3055518388 3055518388 -11.00000000
8.19846630 3.29077673 0.77289712 78 5 6813 8.86800000 3055518390 3055518390 5.00000000
3.75834703 1.50779891 -0.64138132 6 6 6814 4.10000000 3055518393 3055518393 -9.00000000
8.19906330 3.28769374 1.08463717 97 7 6815 8.90000000 3055518395 3055518395 7.00000000
5.08930254 2.03969836 -0.67320627 6 8 6816 5.52400000 3055518397 3055518397 -7.00000000
7.78461981 3.11835480 -0.73367703 13 10 6817 8.41800000 3055518402 3055518402 -5.00000000
8.18486786 3.27537084 -0.46202183 17 12 6819 8.82800000 3055518406 3055518406 -3.00000000
8.27066517 3.30802989 2.05650258 62 13 6820 9.14200000 3055518409 3055518409 13.00000000
8.19970989 3.27799010 -0.15413965 16 14 6821 8.83200000 3055518411 3055518411 -1.00000000
7.22601938 2.88727617 2.08504629 42 15 6822 8.05600000 3055518413 3055518413 15.00000000
2.10532570 0.83823651 -0.60718948 4 0 6829 2.34600000 3055518434 3055518434 -15.00000000
8.19184303 3.25993037 0.15389532 12 1 6830 8.81800000 3055518436 3055518436 1.00000000
2.48979998 0.99030846 -0.61861539 4 2 6831 2.75000000 3055518439 3055518439 -13.00000000
8.18799877 3.25674510 0.46181247 10 3 6831 8.82400000 3055518441 3055518441 3.00000000
2.98650503 1.18726718 -0.62470865 5 4 6832 3.27400000 3055518443 3055518443 -11.00000000
8.19509029 3.25625300 0.77150261 75 5 6833 8.85200000 3055518446 3055518446 5.00000000
3.76909494 1.49685788 -0.64231992 6 6 6834 4.10600000 3055518448 3055518448 -9.00000000
8.20310879 3.25612426 1.08366215 97 7 6835 8.89200000 3055518450 3055518450 7.00000000
5.07424927 2.01313639 -0.67028141 6 8 6836 5.50000000 3055518453 3055518453 -7.00000000
7.81583023 3.09924102 -0.73559445 13 10 6837 8.44000000 3055518457 3055518457 -5.00000000
8.18696690 3.24310255 -0.46149847 12 12 6839 8.81800000 3055518462 3055518462 -3.00000000
8.27129078 3.27483559 2.05380321 66 13 6840 9.13000000 3055518464 3055518464 13.00000000
8.18507099 3.23904634 -0.15365098 18 14 6841 8.80400000 3055518466 3055518466 -1.00000000
7.23964643 2.86345601 2.08608150 40 15 6842 8.06000000 3055518469 3055518469 15.00000000
2.11183357 0.83229917 -0.60822475 4 0 6849 2.35000000 3055518489 3055518489 -15.00000000
8.19014835 3.22618532 0.15365098 15 1 6850 8.80400000 3055518492 3055518492 1.00000000
2.48961520 0.98018360 -0.61771560 4 2 6851 2.74600000 3055518494 3055518494 -13.00000000
8.19188309 3.22521710 0.46139380 13 3 6851 8.81600000 3055518496 3055518496 3.00000000
2.98332357 1.17395961 -0.62318218 5 4 6852 3.26600000 3055518499 3055518499 -11.00000000
8.19528198 3.22325158 0.77045679 78 5 6853 8.84000000 3055518501 3055518501 5.00000000
3.77245855 1.48296952 -0.64200705 6 6 6854 4.10400000 3055518503 3055518503 -9.00000000
8.20703411 3.22456646 1.08268726 97 7 6855 8.88400000 3055518505 3055518505 7.00000000
5.09233189 1.99976528 -0.67174381 6 8 6856 5.51200000 3055518508 3055518508 -7.00000000
7.80990934 3.06538820 -0.73402566 13 10 6857 8.42200000 3055518512 3055518512 -5.00000000
8.18708134 3.21013045 -0.46087044 17 12 6859 8.80600000 3055518517 3055518517 -3.00000000
8.28267097 3.24594331 2.05380321 60 13 6860 9.13000000 3055518519 3055518519 13.00000000
8.17957020 3.20389152 -0.15333684 14 14 6861 8.78600000 3055518522 3055518522 -1.00000000
7.24550486 2.83802366 2.08504629 40 15 6861 8.05600000 3055518524 3055518524 15.00000000
2.09672832 0.81790179 -0.60304838 4 0 6869 2.33000000 3055518545 3055518545 -15.00000000
8.18272972 3.19031286 0.15330194 15 1 6870 8.78400000 3055518547 3055518547 1.00000000
2.50391603 0.97573262 -0.62041503 4 2 6871 2.75800000 3055518549 3055518549 -13.00000000
8.19564724 3.19370174 0.46097511 13 3 6871 8.80800000 3055518552 3055518552 3.00000000
2.99472070 1.16638875 -0.62470865 5 4 6872 3.27400000 3055518554 3055518554 -11.00000000
8.18048954 3.18450642 0.76801640 82 5 6873 8.81200000 3055518556 3055518556 5.00000000
3.77577138 1.46907580 -0.64169419 6 6 6874 4.10200000 3055518558 3055518558 -9.00000000
8.21454048 3.19445992 1.08219981 97 7 6875 8.88000000 3055518561 3055518561 7.00000000
5.10668230 1.98485410 -0.67271876 6 8 6876 5.52000000 3055518563 3055518563 -7.00000000
7.81870508 3.03738642 -0.73385137 13 10 6877 8.42000000 3055518568 3055518568 -5.00000000
8.18706512 3.17719722 -0.46024239 17 12 6879 8.79400000 3055518572 3055518572 -3.00000000
8.29758549 3.21842122 2.05470300 59 13 6880 9.13400000 3055518575 3055518575 13.00000000
8.18697453 3.17387438 -0.15326703 14 14 6881 8.78200000 3055518577 3055518577 -1.00000000
7.24504995 2.80726051 2.08194041 42 15 6882 8.04400000 3055518579 3055518579 15.00000000
2.10858154 0.81405675 -0.60563654 4 0 6889 2.34000000 3055518600 3055518600 -15.00000000
8.17142868 3.15309167 0.15288308 15 1 6890 8.76000000 3055518602 3055518602 1.00000000
2.50730658 0.96698636 -0.62041503 4 2 6891 2.75800000 3055518605 3055518605 -13.00000000
8.20357037 3.16220498 0.46076575 13 3 6892 8.80400000 3055518607 3055518607 3.00000000
3.00793338 1.15945876 -0.62661672 5 4 6892 3.28400000 3055518609 3055518609 -11.00000000
8.18783760 3.15449905 0.76766777 78 5 6893 8.80800000 3055518611 3055518611 5.00000000
3.76428533 1.44949841 -0.63887835 6 6 6894 4.08400000 3055518614 3055518614 -9.00000000
8.20340919 3.15721035 1.07927489 97 7 6895 8.85600000 3055518616 3055518616 7.00000000
5.11728525 1.96844172 -0.67320627 6 8 6896 5.52400000 3055518618 3055518618 -7.00000000
7.82925987 3.01007557 -0.73385137 13 10 6897 8.42000000 3055518623 3055518623 -5.00000000
8.19064713 3.14573526 -0.45982370 17 12 6899 8.78600000 3055518628 3055518628 -3.00000000
8.31240749 3.19083428 2.05560279 57 13 6900 9.13800000 3055518630 3055518630 13.00000000
8.18493462 3.14026308 -0.15302271 16 14 6901 8.76800000 3055518632 3055518632 -1.00000000
7.25071192 2.78183579 2.08090520 42 15 6901 8.04000000 3055518635 3055518635 15.00000000
2.11501956 0.80807042 -0.60667187 4 0 6909 2.34400000 3055518655 3055518655 -15.00000000
8.17678070 3.12240887 0.15277837 18 1 6910 8.75400000 3055518658 3055518658 1.00000000
2.50338411 0.95544887 -0.61861539 4 2 6911 2.75000000 3055518660 3055518660 -13.00000000
8.19962978 3.12785506 0.45992839 13 3 6912 8.78800000 3055518662 3055518662 3.00000000
3.00829363 1.14755261 -0.62585348 5 4 6912 3.28000000 3055518664 3055518664 -11.00000000
8.20066071 3.12660885 0.76784211 86 5 6913 8.81000000 3055518667 3055518667 5.00000000
3.76563048 1.43494296 -0.63825262 4 6 6914 4.08000000 3055518669 3055518669 -9.00000000
8.18840885 3.11866426 1.07586253 97 7 6915 8.82800000 3055518671 3055518671 7.00000000
5.11299372 1.94632983 -0.67174381 6 8 6916 5.51200000 3055518674 3055518674 -7.00000000
7.84158134 2.98343658 -0.73402566 13 10 6917 8.42200000 3055518678 3055518678 -5.00000000
8.18477535 3.11073947 -0.45888168 17 12 6919 8.76800000 3055518683 3055518683 -3.00000000
8.33442497 3.16595125 2.05830216 55 13 6920 9.15000000 3055518685 3055518685 13.00000000
8.19210720 3.11025357 -0.15295289 16 14 6921 8.76400000 3055518688 3055518688 -1.00000000
7.26989031 2.75866866 2.08349323 40 15 6922 8.05000000 3055518690 3055518690 15.00000000
2.11963439 0.80136585 -0.60718948 4 0 6929 2.34600000 3055518711 3055518711 -15.00000000
8.18762970 3.09384751 0.15277837 18 1 6930 8.75400000 3055518713 3055518713 1.00000000
2.50670409 0.94670463 -0.61861539 4 2 6931 2.75000000 3055518715 3055518715 -13.00000000
8.19368076 3.09286594 0.45898634 10 3 6932 8.77000000 3055518717 3055518717 3.00000000
3.01595449 1.13843131 -0.62661672 5 4 6932 3.28400000 3055518720 3055518720 -11.00000000
8.20406818 3.09515095 0.76714486 86 5 6933 8.80200000 3055518722 3055518722 5.00000000
3.78540301 1.42736542 -0.64075559 4 6 6934 4.09600000 3055518724 3055518724 -9.00000000
8.19552994 3.08866215 1.07537508 95 7 6935 8.82400000 3055518727 3055518727 7.00000000
5.10861063 1.92427182 -0.67028141 9 8 6936 5.50000000 3055518729 3055518729 -7.00000000
7.86500025 2.96095991 -0.73524582 13 10 6937 8.43600000 3055518734 3055518734 -5.00000000
8.18997574 3.08004117 -0.45856765 17 12 6939 8.76200000 3055518738 3055518738 -3.00000000
8.33630466 3.13341117 2.05605268 54 13 6940 9.14000000 3055518741 3055518741 13.00000000
8.17483521 3.07109022 -0.15242931 14 14 6941 8.73400000 3055518743 3055518743 -1.00000000
7.27718973 2.73386645 2.08297563 42 15 6941 8.04800000 3055518745 3055518745 15.00000000
2.12241864 0.79396206 -0.60718948 4 0 6949 2.34600000 3055518766 3055518766 -15.00000000
8.19088745 3.06244731 0.15263875 15 1 6950 8.74600000 3055518768 3055518768 1.00000000
2.52459693 0.94340599 -0.62221462 4 2 6951 2.76600000 3055518770 3055518770 -13.00000000
8.18197536 3.05586028 0.45773026 10 3 6952 8.74600000 3055518773 3055518773 3.00000000
2.99967909 1.12034082 -0.62241894 5 4 6952 3.26200000 3055518775 3055518775 -11.00000000
8.19429016 3.05883002 0.76522744 78 5 6953 8.78000000 3055518777 3055518777 5.00000000
3.79776549 1.41690516 -0.64200705 6 6 6954 4.10400000 3055518780 3055518780 -9.00000000
8.20626163 3.06003571 1.07537508 95 7 6955 8.82400000 3055518782 3055518782 7.00000000
5.11157608 1.90504122 -0.66979390 6 8 6956 5.49600000 3055518784 3055518784 -7.00000000
7.84914875 2.92375135 -0.73280549 13 10 6957 8.40800000 3055518789 3055518789 -5.00000000
8.29971695 3.08993530 1.72147870 3 11 6958 9.02200000 3055518791 3055518791 11.00000000
8.19880581 3.05073738 -0.45846298 17 12 6959 8.76000000 3055518793 3055518793 -3.00000000
8.33075333 3.09817934 2.05200362 57 13 6960 9.12200000 3055518796 3055518796 13.00000000
8.17238426 3.03765893 -0.15218498 12 14 6961 8.72000000 3055518798 3055518798 -1.00000000
7.28353930 2.70583034 2.08194041 42 15 6962 8.04400000 3055518800 3055518800 15.00000000
2.10705972 0.77984315 -0.60201311 4 0 6969 2.32600000 3055518821 3055518821 -15.00000000
8.18277264 3.02689934 0.15228970 12 1 6970 8.72600000 3055518823 3055518823 1.00000000
2.52056336 0.93188465 -0.62041503 10 2 6971 2.75800000 3055518826 3055518826 -13.00000000
8.19259262 3.02728128 0.45773026 10 3 6972 8.74600000 3055518828 3055518828 3.00000000
3.00909638 1.11190462 -0.62356383 5 4 6972 3.26800000 3055518830 3055518830 -11.00000000
8.18622684 3.02330542 0.76348430 93 5 6973 8.76000000 3055518833 3055518833 5.00000000
3.81010103 1.40637600 -0.64325851 4 6 6974 4.11200000 3055518835 3055518835 -9.00000000
8.20944309 3.02862358 1.07440019 95 7 6975 8.81600000 3055518837 3055518837 7.00000000
5.12191963 1.88856041 -0.67028141 6 8 6976 5.50000000 3055518840 3055518840 -7.00000000
8.20685768 3.02604246 1.38538361 39 9 6976 8.85600000 3055518842 3055518842 9.00000000
7.87052393 2.90046859 -0.73385137 13 10 6977 8.42000000 3055518844 3055518844 -5.00000000
8.19253635 3.01588988 -0.45752093 12 12 6979 8.74200000 3055518849 3055518849 -3.00000000
8.20983791 3.02063227 2.01961064 78 13 6980 8.97800000 3055518851 3055518851 13.00000000
8.17543125 3.00635290 -0.15204537 12 14 6981 8.71200000 3055518853 3055518853 -1.00000000
7.28159332 2.67766190 2.07883453 42 15 6981 8.03200000 3055518856 3055518856 15.00000000
2.11702538 0.77514029 -0.60408366 4 0 6989 2.33400000 3055518876 3055518876 -15.00000000
8.16699791 2.98869681 0.15180103 12 1 6990 8.69800000 3055518879 3055518879 1.00000000
2.51831055 0.92107242 -0.61906528 11 2 6991 2.75200000 3055518881 3055518881 -13.00000000
8.19373035 2.99523664 0.45720690 13 3 6992 8.73600000 3055518883 3055518883 3.00000000
3.02402282 1.10543835 -0.62585348 5 4 6992 3.28000000 3055518886 3055518886 -11.00000000
8.17801666 2.98787451 0.76174122 78 5 6993 8.74000000 3055518888 3055518888 5.00000000
3.78900933 1.38358176 -0.63887835 6 6 6994 4.08400000 3055518890 3055518890 -9.00000000
8.19758797 2.99178195 1.07147527 95 7 6995 8.79200000 3055518893 3055518893 7.00000000
5.14340019 1.87611198 -0.67223132 9 8 6996 5.51600000 3055518895 3055518895 -7.00000000
8.21418190 2.99458933 1.38475788 78 9 6997 8.85200000 3055518897 3055518897 9.00000000
7.88434410 2.87434268 -0.73420000 13 10 6997 8.42400000 3055518899 3055518899 -5.00000000
8.21040916 2.99159050 1.69858170 90 11 6998 8.90200000 3055518902 3055518902 11.00000000
8.18237019 2.97975659 -0.45636955 12 12 6999 8.72000000 3055518904 3055518904 -3.00000000
8.22399426 2.99328923 2.02051044 103 13 7000 8.98200000 3055518906 3055518906 13.00000000
8.17459965 2.97369528 -0.15183593 14 14 7001 8.70000000 3055518909 3055518909 -1.00000000
7.29498959 2.65227556 2.07986975 45 15 7002 8.03600000 3055518911 3055518911 15.00000000
2.11971831 0.76774573 -0.60408366 4 0 7009 2.33400000 3055518932 3055518932 -15.00000000
8.16233826 2.95472527 0.15152179 12 1 7010 8.68200000 3055518934 3055518934 1.00000000
2.50318527 0.90564632 -0.61456627 10 2 7011 2.73200000 3055518936 3055518936 -13.00000000
8.17408371 2.95575023 0.45553216 10 3 7012 8.70400000 3055518939 3055518939 3.00000000
3.02417040 1.09354067 -0.62509024 5 4 7012 3.27600000 3055518941 3055518941 -11.00000000
8.17527962 2.95456958 0.76052099 78 5 7013 8.72600000 3055518943 3055518943 5.00000000
3.79753160 1.37168944 -0.63950408 4 6 7014 4.08800000 3055518946 3055518946 -9.00000000
8.18931007 2.95640826 1.06903791 90 7 7015 8.77200000 3055518948 3055518948 7.00000000
5.14618301 1.85679936 -0.67174381 6 8 7016 5.51200000 3055518950 3055518950 -7.00000000
8.22220898 2.96666312 1.38444507 100 9 7016 8.85000000 3055518952 3055518952 9.00000000
7.89807796 2.84815526 -0.73454863 13 10 7017 8.42800000 3055518955 3055518955 -5.00000000
8.20048523 2.95559001 1.69438386 87 11 7018 8.88000000 3055518957 3055518957 11.00000000
8.16265678 2.94034648 -0.45469478 17 12 7019 8.68800000 3055518959 3055518959 -3.00000000
8.20872307 2.95532227 2.01421165 104 13 7020 8.95400000 3055518962 3055518962 13.00000000
8.17928505 2.94311142 -0.15173122 14 14 7021 8.69400000 3055518964 3055518964 -1.00000000
7.30374479 2.62806988 2.07986975 45 15 7021 8.03600000 3055518966 3055518966 15.00000000
2.13147855 0.76359957 -0.60667187 4 0 7029 2.34400000 3055518987 3055518987 -15.00000000
8.18013287 2.92891169 0.15166141 12 1 7030 8.69000000 3055518989 3055518989 1.00000000
2.51367068 0.89952946 -0.61636591 5 2 7031 2.74000000 3055518992 3055518992 -13.00000000
8.16930676 2.92181849 0.45469478 10 3 7032 8.68800000 3055518994 3055518994 3.00000000
3.01687765 1.07901073 -0.62280059 5 4 7032 3.26400000 3055518996 3055518996 -11.00000000
8.17991543 2.92400241 0.75999808 78 5 7033 8.72000000 3055518999 3055518999 5.00000000
3.80973744 1.36108363 -0.64075559 4 6 7034 4.09600000 3055519001 3055519001 -9.00000000
8.19397068 2.92580152 1.06830668 90 7 7035 8.76600000 3055519003 3055519003 7.00000000
5.13393736 1.83215237 -0.66930646 6 8 7036 5.49200000 3055519005 3055519005 -7.00000000
8.20697880 2.92721677 1.38006485 86 9 7037 8.82200000 3055519008 3055519008 9.00000000
7.93424416 2.82993913 -0.73698896 13 10 7037 8.45600000 3055519010 3055519010 -5.00000000
8.21444988 2.92826557 1.69514716 87 11 7038 8.88400000 3055519012 3055519012 11.00000000
8.16722584 2.90982461 -0.45438078 12 12 7039 8.68200000 3055519015 3055519015 -3.00000000
8.20063114 2.92011333 2.00971270 106 13 7040 8.93400000 3055519017 3055519017 13.00000000
8.16690159 2.90649676 -0.15131237 14 14 7041 8.67000000 3055519019 3055519019 -1.00000000
7.31696844 2.60257769 2.08090520 45 15 7042 8.04000000 3055519022 3055519022 15.00000000
2.13399911 0.75652713 -0.60667187 4 0 7048 2.34400000 3055519042 3055519042 -15.00000000
8.18226147 2.89909792 0.15152179 12 1 7049 8.68200000 3055519045 3055519045 1.00000000
2.52398753 0.89379090 -0.61816549 4 2 7050 2.74800000 3055519047 3055519047 -13.00000000
8.17706776 2.89404559 0.45459011 13 3 7051 8.68600000 3055519049 3055519049 3.00000000
3.02599168 1.07096553 -0.62394542 5 4 7051 3.27000000 3055519052 3055519052 -11.00000000
8.17266178 2.89088106 0.75842929 75 5 7052 8.70200000 3055519054 3055519054 5.00000000
3.82167983 1.35107625 -0.64200705 4 6 7053 4.10400000 3055519056 3055519056 -9.00000000
8.20175648 2.89795208 1.06806290 92 7 7054 8.76400000 3055519058 3055519058 7.00000000
5.14372826 1.81643963 -0.66979390 6 8 7055 5.49600000 3055519061 3055519061 -7.00000000
8.19378281 2.89352608 1.37631047 84 9 7055 8.79800000 3055519063 3055519063 9.00000000
7.95297861 2.80692816 -0.73786050 13 10 7056 8.46600000 3055519065 3055519065 -5.00000000
8.21300697 2.89709091 1.69285738 87 11 7057 8.87200000 3055519068 3055519068 11.00000000
8.16552830 2.87874079 -0.45375273 12 12 7058 8.67000000 3055519070 3055519070 -3.00000000
8.19924164 2.88901734 2.00701332 104 13 7059 8.92200000 3055519072 3055519072 13.00000000
8.16329193 2.87474895 -0.15106803 14 14 7060 8.65600000 3055519075 3055519075 -1.00000000
7.31599760 2.57636952 2.07831693 45 15 7060 8.03000000 3055519077 3055519077 15.00000000
2.12933469 0.74651688 -0.60460126 4 0 7068 2.33600000 3055519098 3055519098 -15.00000000
8.16968441 2.86258364 0.15110293 12 1 7069 8.65800000 3055519100 3055519100 1.00000000
2.53077054 0.88626325 -0.61906528 4 2 7070 2.75200000 3055519102 3055519102 -13.00000000
8.18712044 2.86548471 0.45459011 13 3 7071 8.68600000 3055519105 3055519105 3.00000000
3.03156447 1.06104481 -0.62432700 5 4 7071 3.27200000 3055519107 3055519107 -11.00000000
8.17894173 2.86101985 0.75808066 86 5 7072 8.69800000 3055519109 3055519109 5.00000000
3.81518435 1.33381641 -0.64012980 4 6 7073 4.09200000 3055519111 3055519111 -9.00000000
8.20807457 2.86799526 1.06757545 90 7 7074 8.76000000 3055519114 3055519114 7.00000000
5.14628935 1.79716468 -0.66930646 6 8 7075 5.49200000 3055519116 3055519116 -7.00000000
8.19637394 2.86230183 1.37505889 86 9 7075 8.79000000 3055519118 3055519118 9.00000000
7.99282598 2.78965473 -0.74064952 13 10 7076 8.49800000 3055519121 3055519121 -5.00000000
8.20823956 2.86323142 1.68980443 81 11 7077 8.85600000 3055519123 3055519123 11.00000000
8.16798401 2.84759021 -0.45333406 12 12 7078 8.66200000 3055519125 3055519125 -3.00000000
8.20559597 2.85909653 2.00611353 106 13 7079 8.91800000 3055519128 3055519128 13.00000000
8.16950035 2.84492087 -0.15099822 12 14 7080 8.65200000 3055519130 3055519130 -1.00000000
7.31035089 2.54573345 2.07417583 45 15 7080 8.01400000 3055519132 3055519132 15.00000000
2.13557792 0.74034512 -0.60563654 4 0 7088 2.34000000 3055519153 3055519153 -15.00000000
8.16451073 2.82881141 0.15082370 12 1 7089 8.64200000 3055519155 3055519155 1.00000000
2.51911712 0.87232250 -0.61546606 3 2 7090 2.73600000 3055519158 3055519158 -13.00000000
8.18763542 2.83362293 0.45406675 10 3 7091 8.67600000 3055519160 3055519160 3.00000000
3.03710508 1.05109835 -0.62470865 5 4 7091 3.27400000 3055519162 3055519162 -11.00000000
8.18322945 2.83049870 0.75755769 78 5 7092 8.69200000 3055519164 3055519164 5.00000000
3.81981707 1.32049072 -0.64012980 4 6 7093 4.09200000 3055519167 3055519167 -9.00000000
8.19552040 2.83154726 1.06465054 90 7 7094 8.73600000 3055519169 3055519169 7.00000000
5.16754198 1.78437316 -0.67125636 6 8 7095 5.50800000 3055519171 3055519171 -7.00000000
8.20307446 2.83095264 1.37443316 84 9 7096 8.78600000 3055519174 3055519174 9.00000000
8.00628185 2.76303744 -0.74099815 13 10 7096 8.50200000 3055519176 3055519176 -5.00000000
8.19962502 2.82816052 1.68598831 78 11 7097 8.83600000 3055519178 3055519178 11.00000000
8.17787457 2.81906128 -0.45333406 12 12 7098 8.66200000 3055519181 3055519181 -3.00000000
8.20815563 2.82789731 2.00431395 104 13 7099 8.91000000 3055519183 3055519183 13.00000000
8.16803646 2.81248045 -0.15078880 12 14 7100 8.64000000 3055519185 3055519185 -1.00000000
7.32284594 2.52145815 2.07521105 45 15 7100 8.01800000 3055519187 3055519187 15.00000000
2.14180422 0.73413885 -0.60667187 4 0 7108 2.34400000 3055519208 3055519208 -15.00000000
8.16298485 2.79640627 0.15061426 12 1 7109 8.63000000 3055519211 3055519211 1.00000000
2.51845932 0.86226135 -0.61456627 3 2 7110 2.73200000 3055519213 3055519213 -13.00000000
8.17858028 2.79855919 0.45302004 13 3 7111 8.65600000 3055519215 3055519215 3.00000000
3.03332543 1.03794801 -0.62318218 5 4 7111 3.26600000 3055519217 3055519217 -11.00000000
8.18551922 2.79933786 0.75686049 82 5 7112 8.68400000 3055519220 3055519220 5.00000000
3.82440305 1.30714905 -0.64012980 4 6 7113 4.09200000 3055519222 3055519222 -9.00000000
8.19032669 2.79778886 1.06270063 92 7 7114 8.72000000 3055519224 3055519224 7.00000000
5.16058874 1.76183462 -0.66955018 6 8 7115 5.49400000 3055519227 3055519227 -7.00000000
8.20729828 2.80038762 1.37349463 76 9 7116 8.78000000 3055519229 3055519229 9.00000000
8.04981995 2.74665475 -0.74413574 13 10 7116 8.53800000 3055519231 3055519231 -5.00000000
8.20201397 2.79698658 1.68446183 71 11 7117 8.82800000 3055519234 3055519234 11.00000000
8.16308880 2.78212214 -0.45197332 12 12 7118 8.63600000 3055519236 3055519236 -3.00000000
8.19584084 2.79168820 1.99891508 106 13 7119 8.88600000 3055519238 3055519238 13.00000000
8.17212486 2.78201818 -0.15068407 14 14 7120 8.63400000 3055519240 3055519240 -1.00000000
7.33569622 2.49584603 2.07624626 45 15 7121 8.02200000 3055519243 3055519243 15.00000000
2.14618349 0.72727811 -0.60718948 4 0 7128 2.34600000 3055519264 3055519264 -15.00000000
8.17269707 2.76789522 0.15061426 12 1 7129 8.63000000 3055519266 3055519266 1.00000000
2.52514553 0.85471463 -0.61546606 3 2 7130 2.73600000 3055519268 3055519268 -13.00000000
8.17883968 2.76679349 0.45249668 13 3 7131 8.64600000 3055519270 3055519270 3.00000000
3.03321075 1.02609515 -0.62241894 5 4 7131 3.26200000 3055519273 3055519273 -11.00000000
8.19146633 2.76947165 0.75651187 75 5 7132 8.68000000 3055519275 3055519275 5.00000000
3.82894254 1.29379141 -0.64012980 4 6 7133 4.09200000 3055519277 3055519277 -9.00000000
8.19251919 2.76664162 1.06172574 95 7 7134 8.71200000 3055519280 3055519280 7.00000000
5.15730286 1.74063599 -0.66833150 6 8 7135 5.48400000 3055519282 3055519282 -7.00000000
8.20017719 2.76603937 1.37067878 86 9 7136 8.76200000 3055519284 3055519284 9.00000000
8.07068539 2.72235966 -0.74518162 13 10 7136 8.55000000 3055519287 3055519287 -5.00000000
8.20800686 2.76708484 1.68369853 78 11 7137 8.82400000 3055519289 3055519289 11.00000000
8.15192986 2.74659586 -0.45082194 12 12 7138 8.61400000 3055519291 3055519291 -3.00000000
8.18706799 2.75684357 1.99441600 106 13 7139 8.86600000 3055519293 3055519293 13.00000000
8.16851902 2.74901056 -0.15043974 12 14 7140 8.62000000 3055519296 3055519296 -1.00000000
7.34210157 2.47089005 2.07572865 45 15 7140 8.02000000 3055519298 3055519298 15.00000000
2.14687729 0.71916848 -0.60667187 4 0 7148 2.34400000 3055519319 3055519319 -15.00000000
8.17093086 2.73554111 0.15040484 12 1 7149 8.61800000 3055519321 3055519321 1.00000000
2.54289794 0.85084176 -0.61906528 4 2 7150 2.75200000 3055519323 3055519323 -13.00000000
8.17708302 2.73442674 0.45186865 15 3 7151 8.63400000 3055519326 3055519326 3.00000000
3.03677392 1.01550102 -0.62241894 5 4 7151 3.26200000 3055519328 3055519328 -11.00000000
8.18218708 2.73454595 0.75476873 76 5 7152 8.66000000 3055519330 3055519330 5.00000000
3.84092999 1.28292131 -0.64138132 4 6 7153 4.10000000 3055519333 3055519333 -9.00000000
8.19082928 2.73425627 1.06026328 95 7 7154 8.70000000 3055519335 3055519335 7.00000000
5.16334772 1.72262311 -0.66833150 6 8 7155 5.48400000 3055519337 3055519337 -7.00000000
8.19853878 2.73364949 1.36880159 91 9 7156 8.75000000 3055519340 3055519340 9.00000000
8.08391953 2.69543171 -0.74553025 13 10 7156 8.55400000 3055519342 3055519342 -5.00000000
8.21761608 2.73841667 1.68369853 75 11 7157 8.82400000 3055519344 3055519344 11.00000000
8.16525745 2.71938586 -0.45103127 12 12 7158 8.61800000 3055519346 3055519346 -3.00000000
8.18924522 2.72578669 1.99261642 104 13 7159 8.85800000 3055519349 3055519349 13.00000000
8.15529633 2.71290588 -0.15002088 12 14 7160 8.59600000 3055519351 3055519351 -1.00000000
7.35251474 2.44585609 2.07624626 45 15 7160 8.02200000 3055519353 3055519353 15.00000000
2.13995743 0.70938098 -0.60408366 4 0 7166 2.33400000 3055519374 3055519374 -15.00000000
8.16240120 2.70419812 0.15009069 12 1 7167 8.60000000 3055519376 3055519376 1.00000000
2.54925847 0.84407389 -0.61996508 4 2 7168 2.75600000 3055519379 3055519379 -13.00000000
8.18136787 2.70889735 0.45165929 13 3 7168 8.63000000 3055519381 3055519381 3.00000000
3.04181314 1.00657248 -0.62280059 5 4 7169 3.26400000 3055519383 3055519383 -11.00000000
8.17182064 2.70257139 0.75302559 79 5 7170 8.64000000 3055519386 3055519386 5.00000000
3.84119034 1.26960850 -0.64075559 4 6 7171 4.09600000 3055519388 3055519388 -9.00000000
8.19937897 2.70851040 1.06026328 95 7 7172 8.70000000 3055519390 3055519390 7.00000000
5.17250395 1.70763814 -0.66881895 6 8 7173 5.48800000 3055519392 3055519392 -7.00000000
8.19911098 2.70683479 1.36755013 89 9 7173 8.74200000 3055519395 3055519395 9.00000000
8.06585789 2.66128206 -0.74308985 13 10 7174 8.52600000 3055519397 3055519397 -5.00000000
8.21126175 2.70766830 1.68064559 71 11 7175 8.80800000 3055519399 3055519399 11.00000000
8.16996670 2.69247007 -0.45082194 12 12 7176 8.61400000 3055519402 3055519402 -3.00000000
8.19776726 2.70004606 1.99261642 101 13 7177 8.85800000 3055519404 3055519404 13.00000000
8.16377831 2.68727183 -0.15002088 14 14 7178 8.59600000 3055519406 3055519406 -1.00000000
7.34548235 2.41791320 2.07210517 45 15 7178 8.00600000 3055519409 3055519409 15.00000000
2.14792800 0.70371121 -0.60563654 4 0 7186 2.34000000 3055519429 3055519429 -15.00000000
8.15848732 2.67133379 0.14984636 12 1 7187 8.58600000 3055519432 3055519432 1.00000000
2.54663301 0.83335197 -0.61861539 4 2 7188 2.75000000 3055519434 3055519434 -13.00000000
8.17795372 2.67454696 0.45092660 13 3 7189 8.61600000 3055519436 3055519436 3.00000000
3.04904032 0.99716902 -0.62356383 5 4 7189 3.26800000 3055519439 3055519439 -11.00000000
8.17362976 2.67155409 0.75232840 79 5 7190 8.63200000 3055519441 3055519441 5.00000000
3.83433223 1.25251222 -0.63887835 6 6 7191 4.08400000 3055519443 3055519443 -9.00000000
8.18236446 2.67124796 1.05685091 97 7 7192 8.67200000 3055519445 3055519445 7.00000000
5.18598175 1.69203520 -0.66979390 9 8 7193 5.49600000 3055519448 3055519448 -7.00000000
8.20146465 2.67431593 1.36629868 91 9 7194 8.73400000 3055519450 3055519450 9.00000000
8.09404087 2.63928747 -0.74483299 13 10 7194 8.54600000 3055519452 3055519452 -5.00000000
8.19453049 2.67047286 1.67530298 81 11 7195 8.78000000 3055519455 3055519455 11.00000000
8.16412258 2.65898728 -0.44998455 12 12 7196 8.59800000 3055519457 3055519457 -3.00000000
8.19973087 2.66900134 1.99081683 103 13 7197 8.85000000 3055519459 3055519459 13.00000000
8.16550255 2.65628433 -0.14988127 12 14 7198 8.58800000 3055519462 3055519462 -1.00000000
7.35062075 2.38977981 2.07106996 47 15 7199 8.00200000 3055519464 3055519464 15.00000000
2.15404725 0.69739938 -0.60667187 4 0 7206 2.34400000 3055519485 3055519485 -15.00000000
8.16015244 2.64037657 0.14970674 12 1 7207 8.57800000 3055519487 3055519487 1.00000000
2.53654695 0.82026023 -0.61546606 4 2 7208 2.73600000 3055519489 3055519489 -13.00000000
8.18297672 2.64618421 0.45071724 13 3 7208 8.61200000 3055519492 3055519492 3.00000000
3.05623865 0.98772728 -0.62432700 5 4 7209 3.27200000 3055519494 3055519494 -11.00000000
8.17911339 2.64178181 0.75197977 79 5 7210 8.62800000 3055519496 3055519496 5.00000000
3.83868098 1.23912036 -0.63887835 6 6 7211 4.08400000 3055519498 3055519498 -9.00000000
8.17463589 2.63718462 1.05465734 99 7 7212 8.65400000 3055519501 3055519501 7.00000000
5.17674208 1.66904938 -0.66784400 6 8 7213 5.48000000 3055519503 3055519503 -7.00000000
8.20134830 2.64264202 1.36473429 94 9 7214 8.72400000 3055519505 3055519505 9.00000000
8.10699749 2.61224008 -0.74518162 13 10 7214 8.55000000 3055519508 3055519508 -5.00000000
8.19632721 2.63944507 1.67377651 87 11 7215 8.77200000 3055519510 3055519510 11.00000000
8.15814495 2.62557793 -0.44914716 12 12 7216 8.58200000 3055519512 3055519512 -3.00000000
8.19415569 2.63558912 1.98721766 103 13 7217 8.83400000 3055519515 3055519515 13.00000000
8.17091751 2.62654114 -0.14981146 14 14 7218 8.58400000 3055519517 3055519517 -1.00000000
7.36586189 2.36775613 2.07314062 45 15 7218 8.01000000 3055519519 3055519519 15.00000000
2.15462852 0.68928742 -0.60615420 4 0 7226 2.34200000 3055519540 3055519540 -15.00000000
8.16931915 2.61187625 0.14970674 12 1 7227 8.57800000 3055519542 3055519542 1.00000000
2.54496360 0.81318045 -0.61681581 4 2 7228 2.74200000 3055519544 3055519544 -13.00000000
8.17504120 2.61213303 0.44977522 13 3 7228 8.59400000 3055519547 3055519547 3.00000000
3.05966783 0.97705299 -0.62432700 5 4 7229 3.27200000 3055519549 3055519549 -11.00000000
8.18448925 2.61200380 0.75163114 79 5 7230 8.62400000 3055519551 3055519551 5.00000000
3.83545494 1.22331226 -0.63762689 6 6 7231 4.07600000 3055519554 3055519554 -9.00000000
8.18190002 2.60803080 1.05441356 95 7 7232 8.65200000 3055519556 3055519556 7.00000000
5.17118788 1.64735365 -0.66638160 6 8 7233 5.46800000 3055519558 3055519558 -7.00000000
8.19546509 2.60920358 1.36223137 99 9 7234 8.70800000 3055519561 3055519561 9.00000000
8.11606598 2.58392549 -0.74518162 17 10 7234 8.55000000 3055519563 3055519563 -5.00000000
8.20174980 2.60962796 1.67301333 87 11 7235 8.76800000 3055519565 3055519565 11.00000000
8.16345406 2.59587407 -0.44893783 12 12 7236 8.57800000 3055519568 3055519568 -3.00000000
8.18844795 2.60224843 1.98361838 92 13 7237 8.81800000 3055519570 3055519570 13.00000000
8.16478920 2.59316087 -0.14953221 12 14 7238 8.56800000 3055519572 3055519572 -1.00000000
7.37776423 2.34319949 2.07417583 45 15 7238 8.01400000 3055519574 3055519574 15.00000000
2.15333724 0.68059778 -0.60511893 4 0 7246 2.33800000 3055519595 3055519595 -15.00000000
8.17457294 2.58213949 0.14963694 12 1 7247 8.57400000 3055519597 3055519597 1.00000000
2.55150342 0.80546522 -0.61771560 4 2 7248 2.74600000 3055519600 3055519600 -13.00000000
8.16932297 2.57734513 0.44893783 13 3 7249 8.57800000 3055519602 3055519602 3.00000000
3.04808140 0.96164131 -0.62127411 5 4 7249 3.25600000 3055519604 3055519604 -11.00000000
8.18025589 2.57922482 0.75041097 83 5 7250 8.61000000 3055519607 3055519607 5.00000000
3.83970189 1.20991659 -0.63762689 6 6 7251 4.07600000 3055519609 3055519609 -9.00000000
8.18338013 2.57706976 1.05343866 95 7 7252 8.64400000 3055519611 3055519611 7.00000000
5.18826818 1.63286853 -0.66784400 6 8 7253 5.48000000 3055519614 3055519614 -7.00000000
8.18899822 2.57726789 1.35972834 97 9 7253 8.69200000 3055519616 3055519616 9.00000000
6.66157961 2.09527612 -0.61096174 4 10 7254 7.01000000 3055519618 3055519618 -5.00000000
8.20706272 2.57980514 1.67225003 87 11 7255 8.76400000 3055519621 3055519621 11.00000000
8.18008709 2.56975698 -0.44935653 12 12 7256 8.58600000 3055519623 3055519623 -3.00000000
8.19376373 2.57248211 1.98271859 90 13 7257 8.81400000 3055519625 3055519625 13.00000000
8.16234303 2.56105280 -0.14932279 12 14 7258 8.55600000 3055519627 3055519627 -1.00000000
7.38998985 2.31729889 2.07521105 45 15 7259 8.01800000 3055519630 3055519630 15.00000000
2.14832377 0.67077398 -0.60304838 4 0 7266 2.33000000 3055519650 3055519650 -15.00000000
8.16826534 2.54882383 0.14935769 12 1 7267 8.55800000 3055519653 3055519653 1.00000000
2.55429935 0.79655391 -0.61771560 4 2 7268 2.74600000 3055519655 3055519655 -13.00000000
8.17591763 2.54964590 0.44883317 13 3 7268 8.57600000 3055519657 3055519657 3.00000000
3.05141973 0.95099562 -0.62127411 5 4 7269 3.25600000 3055519660 3055519660 -11.00000000
8.17399120 2.54591465 0.74901646 83 5 7270 8.59400000 3055519662 3055519662 5.00000000
3.84012961 1.19533193 -0.63700116 6 6 7271 4.07200000 3055519664 3055519664 -9.00000000
8.18853474 2.54730940 1.05295110 97 7 7272 8.64000000 3055519667 3055519667 7.00000000
5.20910072 1.61946273 -0.66979390 9 8 7273 5.49600000 3055519669 3055519669 -7.00000000
8.18329811 2.54254770 1.35722542 97 9 7274 8.67600000 3055519671 3055519671 9.00000000
6.64982605 2.06609845 -0.60921866 12 10 7274 6.99000000 3055519674 3055519674 -5.00000000
8.20101833 2.54648399 1.66919708 87 11 7275 8.74800000 3055519676 3055519676 11.00000000
8.17947006 2.53822780 -0.44883317 17 12 7276 8.57600000 3055519678 3055519678 -3.00000000
8.19524765 2.54155588 1.98091900 101 13 7277 8.80600000 3055519680 3055519680 13.00000000
8.16741276 2.53136110 -0.14925298 14 14 7278 8.55200000 3055519683 3055519683 -1.00000000
7.42386866 2.29949117 2.08245802 45 15 7279 8.04600000 3055519685 3055519685 15.00000000
2.15792012 0.66592485 -0.60511893 4 0 7285 2.33800000 3055519706 3055519706 -15.00000000
8.16138554 2.51700830 0.14907846 12 1 7286 8.54200000 3055519708 3055519708 1.00000000
2.55133986 0.78635722 -0.61636591 4 2 7287 2.74000000 3055519710 3055519710 -13.00000000
8.18051052 2.52134299 0.44862381 13 3 7287 8.57200000 3055519713 3055519713 3.00000000
3.06206155 0.94318330 -0.62280059 5 4 7288 3.26400000 3055519715 3055519715 -11.00000000
8.16144276 2.51234674 0.74709904 76 5 7289 8.57200000 3055519717 3055519717 5.00000000
3.84029627 1.18142939 -0.63637543 6 6 7290 4.06800000 3055519720 3055519720 -9.00000000
8.18365574 2.51605773 1.05124497 99 7 7291 8.62600000 3055519722 3055519722 7.00000000
5.19926214 1.59751546 -0.66784400 9 8 7292 5.48000000 3055519724 3055519724 -7.00000000
8.18746853 2.51566625 1.35659969 94 9 7292 8.67200000 3055519727 3055519727 9.00000000
6.64140415 2.03935671 -0.60782415 12 10 7293 6.97400000 3055519729 3055519729 -5.00000000
8.18877220 2.51293874 1.66499925 96 11 7294 8.72600000 3055519731 3055519731 11.00000000
8.16874695 2.50523353 -0.44778645 17 12 7295 8.55600000 3055519733 3055519733 -3.00000000
8.20735741 2.51550770 1.98181880 92 13 7296 8.81000000 3055519736 3055519736 13.00000000
8.16811466 2.50192046 -0.14911336 12 14 7297 8.54400000 3055519738 3055519738 -1.00000000
7.47209263 2.28730035 2.09384608 45 15 7298 8.09000000 3055519740 3055519740 15.00000000
2.16207933 0.65895140 -0.60563654 4 0 7305 2.34000000 3055519761 3055519761 -15.00000000
8.17012119 2.48850441 0.14907846 12 1 7306 8.54200000 3055519763 3055519763 1.00000000
2.53169799 0.77063680 -0.61096704 6 2 7307 2.71600000 3055519766 3055519766 -13.00000000
8.17397594 2.48811960 0.44778645 13 3 7307 8.55600000 3055519768 3055519768 3.00000000
3.07284832 0.93477446 -0.62432700 5 4 7308 3.27200000 3055519770 3055519770 -11.00000000
8.16634941 2.48268366 0.74675041 76 5 7309 8.56800000 3055519773 3055519773 5.00000000
3.84817696 1.16916549 -0.63700116 6 6 7310 4.07200000 3055519775 3055519775 -9.00000000
8.17149353 2.48113203 1.04856384 95 7 7311 8.60400000 3055519777 3055519777 7.00000000
5.19720888 1.57705128 -0.66686904 9 8 7312 5.47200000 3055519780 3055519780 -7.00000000
8.19242001 2.48592401 1.35597396 97 9 7312 8.66800000 3055519782 3055519782 9.00000000
6.65229559 2.01731801 -0.60817277 12 10 7313 6.97800000 3055519784 3055519784 -5.00000000
8.19185734 2.48263097 1.66385448 90 11 7314 8.72000000 3055519786 3055519786 11.00000000
8.15259266 2.46917796 -0.44642571 12 12 7315 8.53000000 3055519789 3055519789 -3.00000000
8.19743633 2.48119783 1.97731972 103 13 7316 8.79000000 3055519791 3055519791 13.00000000
8.16914177 2.47107744 -0.14897375 14 14 7317 8.53600000 3055519793 3055519793 -1.00000000
7.55584860 2.28412342 2.11506915 45 15 7318 8.17200000 3055519796 3055519796 15.00000000
2.16829371 0.65175700 -0.60667187 4 0 7327 2.34400000 3055519816 3055519816 -15.00000000
8.17195606 2.45481396 0.14893883 12 1 7328 8.53400000 3055519819 3055519819 1.00000000
2.54583693 0.76427203 -0.61366647 6 2 7329 2.72800000 3055519821 3055519821 -13.00000000
8.17199230 2.45326972 0.44715840 10 3 7329 8.54400000 3055519823 3055519823 3.00000000
3.06889319 0.92071205 -0.62280059 5 4 7330 3.26400000 3055519826 3055519826 -11.00000000
8.18154812 2.45302558 0.74727333 79 5 7331 8.57400000 3055519828 3055519828 5.00000000
3.86399126 1.15778291 -0.63887835 6 6 7332 4.08400000 3055519830 3055519830 -9.00000000
8.17525578 2.44802904 1.04783261 90 7 7333 8.59800000 3055519832 3055519832 7.00000000
5.19942236 1.55594563 -0.66638160 9 8 7334 5.46800000 3055519835 3055519835 -7.00000000
8.18487263 2.44935226 1.35315812 85 9 7334 8.65000000 3055519837 3055519837 9.00000000
6.65808392 1.99118924 -0.60799849 12 10 7335 6.97600000 3055519839 3055519839 -5.00000000
8.19380569 2.44890952 1.66232800 90 11 7336 8.71200000 3055519842 3055519842 11.00000000
8.16966820 2.44014239 -0.44684440 12 12 7337 8.53800000 3055519844 3055519844 -3.00000000
8.19196415 2.44524455 1.97372055 104 13 7338 8.77400000 3055519846 3055519846 13.00000000
8.16515636 2.43569064 -0.14872941 14 14 7339 8.52200000 3055519849 3055519849 -1.00000000
7.64747524 2.28126478 2.13836288 45 15 7339 8.26200000 3055519851 3055519851 15.00000000
2.16314769 0.64198571 -0.60460126 4 0 7347 2.33600000 3055519872 3055519872 -15.00000000
8.17280674 2.42399907 0.14879921 12 1 7348 8.52600000 3055519874 3055519874 1.00000000
2.54848933 0.75538075 -0.61366647 5 2 7349 2.72800000 3055519876 3055519876 -13.00000000
8.17859077 2.42416167 0.44705373 15 3 7349 8.54200000 3055519879 3055519879 3.00000000
3.06455874 0.90776360 -0.62127411 5 4 7350 3.25600000 3055519881 3055519881 -11.00000000
8.16713524 2.41766524 0.74518162 76 5 7351 8.55000000 3055519883 3055519883 5.00000000
3.86422086 1.14316726 -0.63825262 6 6 7352 4.08000000 3055519885 3055519885 -9.00000000
8.18946171 2.42116570 1.04856384 95 7 7353 8.60400000 3055519888 3055519888 7.00000000
5.20672560 1.53834927 -0.66662532 9 8 7354 5.47000000 3055519890 3055519890 -7.00000000
8.18389988 2.41796827 1.35159373 90 9 7354 8.64000000 3055519892 3055519892 9.00000000
6.63442039 1.95890880 -0.60520947 20 10 7355 6.94400000 3055519895 3055519895 -5.00000000
8.19853783 2.41918182 1.66156471 40 11 7356 8.70800000 3055519897 3055519897 11.00000000
8.16281033 2.40709066 -0.44600701 17 12 7357 8.52200000 3055519899 3055519899 -3.00000000
8.18923473 2.41332936 1.97102118 46 13 7358 8.76200000 3055519902 3055519902 13.00000000
8.15442657 2.40152478 -0.14838035 14 14 7359 8.50200000 3055519904 3055519904 -1.00000000
7.72250223 2.27285600 2.15699792 45 15 7360 8.33400000 3055519906 3055519906 15.00000000
2.16144633 0.63409919 -0.60356599 4 0 7365 2.33200000 3055519927 3055519927 -15.00000000
8.17270565 2.39606118 0.14865960 12 1 7366 8.51800000 3055519929 3055519929 1.00000000
2.56020045 0.75011033 -0.61591601 6 2 7367 2.73800000 3055519932 3055519932 -13.00000000
8.19233513 2.39871097 0.44736776 23 3 7368 8.54800000 3055519934 3055519934 3.00000000
3.06551123 0.89757991 -0.62089247 5 4 7368 3.25400000 3055519936 3055519936 -11.00000000
8.15748024 2.38695979 0.74361283 76 5 7369 8.53200000 3055519938 3055519938 5.00000000
3.86779308 1.13102186 -0.63825262 6 6 7370 4.08000000 3055519941 3055519941 -9.00000000
8.19321728 2.39431214 1.04807639 92 7 7371 8.60000000 3055519943 3055519943 7.00000000
5.20772171 1.52087140 -0.66613781 9 8 7372 5.46600000 3055519945 3055519945 -7.00000000
6.64245415 1.93861473 -0.60538381 56 10 7373 6.94600000 3055519950 3055519950 -5.00000000
8.27206326 2.41265297 1.67492139 12 11 7374 8.77800000 3055519952 3055519952 11.00000000
8.17033195 2.38143468 -0.44600701 12 12 7375 8.52200000 3055519955 3055519955 -3.00000000
8.28284073 2.41265965 1.99171662 21 13 7376 8.85400000 3055519957 3055519957 13.00000000
8.16193008 2.37589502 -0.14838035 14 14 7377 8.50200000 3055519959 3055519959 -1.00000000
7.80711603 2.27261043 2.17873883 45 15 7377 8.41800000 3055519962 3055519962 15.00000000
2.16179109 0.62601310 -0.60304838 4 0 7385 2.33000000 3055519982 3055519982 -15.00000000
8.16181087 2.36195970 0.14831056 12 1 7386 8.49800000 3055519985 3055519985 1.00000000
2.55344296 0.73846203 -0.61366647 6 2 7387 2.72800000 3055519987 3055519987 -13.00000000
8.17763329 2.36344528 0.44611168 15 3 7388 8.52400000 3055519989 3055519989 3.00000000
3.07616997 0.88905418 -0.62241894 5 4 7388 3.26200000 3055519991 3055519991 -11.00000000
8.15619183 2.35570598 0.74274123 76 5 7389 8.52200000 3055519994 3055519994 5.00000000
3.85653424 1.11313140 -0.63574964 4 6 7390 4.06400000 3055519996 3055519996 -9.00000000
8.17863655 2.35909605 1.04515147 95 7 7391 8.57600000 3055519998 3055519998 7.00000000
5.22062874 1.50488305 -0.66711277 9 8 7392 5.47400000 3055520001 3055520001 -7.00000000
8.32544994 2.39829588 1.37224317 13 9 7393 8.77200000 3055520003 3055520003 9.00000000
6.65683889 1.91762257 -0.60608101 32 10 7393 6.95400000 3055520005 3055520005 -5.00000000
8.28609467 2.38539267 1.67606616 12 11 7394 8.78400000 3055520008 3055520008 11.00000000
8.16515923 2.34903502 -0.44527432 17 12 7395 8.50800000 3055520010 3055520010 -3.00000000
8.28372097 2.38157868 1.98991704 5 13 7396 8.84600000 3055520012 3055520012 13.00000000
8.16825199 2.34683800 -0.14834546 12 14 7397 8.50000000 3055520015 3055520015 -1.00000000
7.90823460 2.27063751 2.20462060 45 15 7398 8.51800000 3055520017 3055520017 15.00000000
2.16964364 0.61967719 -0.60460126 4 0 7406 2.33600000 3055520038 3055520038 -15.00000000
8.16079807 2.32928491 0.14813602 12 1 7407 8.48800000 3055520040 3055520040 1.00000000
2.55051041 0.72749466 -0.61231679 6 2 7408 2.72200000 3055520042 3055520042 -13.00000000
8.17855740 2.33126688 0.44569302 13 3 7409 8.51600000 3055520044 3055520044 3.00000000
3.08318400 0.87884986 -0.62318218 5 4 7409 3.26600000 3055520047 3055520047 -11.00000000
8.15902328 2.32415891 0.74221832 76 5 7410 8.51600000 3055520049 3055520049 5.00000000
3.86438799 1.10007071 -0.63637543 4 6 7411 4.06800000 3055520051 3055520051 -9.00000000
8.17959118 2.32693124 1.04417658 90 7 7412 8.56800000 3055520054 3055520054 7.00000000
5.21847153 1.48356712 -0.66613781 9 8 7413 5.46600000 3055520056 3055520056 -7.00000000
6.66765594 1.89430010 -0.60642964 12 10 7414 6.95800000 3055520061 3055520061 -5.00000000
8.47797680 2.40701842 1.71308315 9 11 7415 8.97800000 3055520063 3055520063 11.00000000
8.16026402 2.31527638 -0.44454160 17 12 7416 8.49400000 3055520065 3055520065 -3.00000000
8.51737404 2.41499138 2.04390526 15 13 7417 9.08600000 3055520068 3055520068 13.00000000
8.16717911 2.31415820 -0.14817093 14 14 7418 8.49000000 3055520070 3055520070 -1.00000000
8.01648140 2.27145815 2.23257303 45 15 7418 8.62600000 3055520072 3055520072 15.00000000
2.17923117 0.61419618 -0.60667187 4 0 7426 2.34400000 3055520093 3055520093 -15.00000000
8.17272949 2.30186844 0.14820583 15 1 7427 8.49200000 3055520095 3055520095 1.00000000
2.55115843 0.71805930 -0.61186689 7 2 7428 2.72000000 3055520097 3055520097 -13.00000000
8.16549683 2.29675531 0.44454160 23 3 7429 8.49400000 3055520100 3055520100 3.00000000
3.07678318 0.86542422 -0.62127411 5 4 7429 3.25600000 3055520102 3055520102 -11.00000000
8.16516781 2.29512525 0.74204397 76 5 7430 8.51400000 3055520104 3055520104 5.00000000
3.86440086 1.08550644 -0.63574964 4 6 7431 4.06400000 3055520107 3055520107 -9.00000000
8.17810726 2.29568243 1.04295778 85 7 7432 8.55800000 3055520109 3055520109 7.00000000
5.22361851 1.46534216 -0.66613781 9 8 7433 5.46600000 3055520111 3055520111 -7.00000000
8.58015442 2.40531063 1.41135180 10 9 7434 9.02200000 3055520114 3055520114 9.00000000
6.66655397 1.86886287 -0.60573244 12 10 7434 6.95000000 3055520116 3055520116 -5.00000000
8.60164642 2.40971613 1.73636186 12 11 7435 9.10000000 3055520118 3055520118 11.00000000
8.16637325 2.28623915 -0.44443694 17 12 7436 8.49200000 3055520120 3055520120 -3.00000000
8.58768272 2.40257192 2.05875206 42 13 7437 9.15200000 3055520123 3055520123 13.00000000
8.16750431 2.28348160 -0.14803131 16 14 7438 8.48200000 3055520125 3055520125 -1.00000000
8.11778259 2.26805305 2.25845504 47 15 7439 8.72600000 3055520127 3055520127 15.00000000
2.17381144 0.60489464 -0.60460126 4 0 7445 2.33600000 3055520148 3055520148 -15.00000000
8.17068481 2.27207541 0.14803131 12 1 7446 8.48200000 3055520150 3055520150 1.00000000
2.55915833 0.71116066 -0.61321658 6 2 7447 2.72600000 3055520153 3055520153 -13.00000000
8.17306805 2.26966500 0.44454160 26 3 7448 8.49400000 3055520155 3055520155 3.00000000
3.06828618 0.85206461 -0.61898440 5 4 7448 3.24400000 3055520157 3055520157 -11.00000000
8.16313457 2.26537204 0.74117243 72 5 7449 8.50400000 3055520160 3055520160 5.00000000
3.88320756 1.07690883 -0.63825262 4 6 7450 4.08000000 3055520162 3055520162 -9.00000000
