# .PCD v0.7 - Point Cloud Data file format
VERSION 0.7
FIELDS x y z intensity laser_id azimuth distance_m adjustedtime timestamp vertical_angle
SIZE 4 4 4 1 1 2 8 8 4 8
TYPE F F F U U U F U U F
COUNT 1 1 1 1 1 1 1 1 1 1
WIDTH 526
HEIGHT 1
VIEWPOINT 0 0 0 1 0 0 0
POINTS 526
DATA ascii
-4.09681749 2.98197794 0.98495603 31 11 30605 5.16200000 3215984306 3215984306 11.00000000
-4.13979912 3.01436877 -0.26837879 10 12 30606 5.12800000 3215984309 3215984309 -3.00000000
-4.10487556 2.99003577 1.17244494 62 13 30607 5.21200000 3215984311 3215984311 13.00000000
-4.14541149 3.02067018 -0.08953085 8 14 30608 5.13000000 3215984313 3215984313 -1.00000000
-4.09220362 2.98189855 1.35672939 59 15 30608 5.24200000 3215984316 3215984316 15.00000000
-1.66734469 1.21852517 -0.55335510 4 0 30616 2.13800000 3215984336 3215984336 -15.00000000
-4.13420439 3.02245736 0.08939122 9 1 30617 5.12200000 3215984339 3215984339 1.00000000
-1.92530012 1.40807486 -0.55068016 3 2 30618 2.44800000 3215984341 3215984341 -13.00000000
-4.12327766 3.01667809 0.26775074 10 3 30619 5.11600000 3215984343 3215984343 3.00000000
-2.27688432 1.66581726 -0.54838502 3 4 30619 2.87400000 3215984345 3215984345 -11.00000000
-4.13038492 3.02298450 0.44780621 10 5 30620 5.13800000 3215984348 3215984348 5.00000000
-2.78763819 2.04099011 -0.54720777 1 6 30621 3.49800000 3215984350 3215984350 -9.00000000
-4.13182211 3.02625203 0.62884581 9 7 30622 5.16000000 3215984352 3215984352 7.00000000
-3.60447359 2.64097524 -0.54865581 6 8 30623 4.50200000 3215984355 3215984355 -7.00000000
-4.11692095 3.01754665 0.80845332 72 9 30624 5.16800000 3215984357 3215984357 9.00000000
-4.16041231 3.04942417 -0.45129243 12 10 30624 5.17800000 3215984359 3215984359 -5.00000000
-4.09904957 3.00554752 0.98800898 60 11 30625 5.17800000 3215984362 3215984362 11.00000000
-4.14374590 3.03943253 -0.26932085 10 12 30626 5.14600000 3215984364 3215984364 -3.00000000
-4.09755564 3.00665188 1.17334473 60 13 30627 5.21600000 3215984366 3215984366 13.00000000
-4.14451408 3.04222155 -0.08974028 8 14 30628 5.14200000 3215984369 3215984369 -1.00000000
-4.08903265 3.00259447 1.35931766 14 15 30629 5.25200000 3215984371 3215984371 15.00000000
-1.65643227 1.22033501 -0.55128455 4 0 30638 2.13000000 3215984392 3215984392 -15.00000000
-4.13383675 3.04661369 0.08963556 9 1 30639 5.13600000 3215984394 3215984394 1.00000000
-1.92929053 1.42239559 -0.55337960 3 2 30640 2.46000000 3215984396 3215984396 -13.00000000
-4.12452316 3.04197192 0.26858813 8 3 30641 5.13200000 3215984398 3215984398 3.00000000
-2.26731133 1.67221701 -0.54762185 3 4 30641 2.87000000 3215984401 3215984401 -11.00000000
-4.12836647 3.04591918 0.44885206 10 5 30642 5.15000000 3215984403 3215984403 5.00000000
-2.77501297 2.04815960 -0.54626918 1 6 30643 3.49200000 3215984405 3215984405 -9.00000000
-4.12975311 3.04916930 0.63030827 9 7 30644 5.17200000 3215984408 3215984408 7.00000000
-3.65338659 2.69843316 -0.55767411 18 8 30645 4.57600000 3215984410 3215984410 -7.00000000
-4.10901165 3.03496289 0.80907905 72 9 30645 5.17200000 3215984412 3215984412 9.00000000
-4.15508270 3.07011247 -0.45198968 12 10 30646 5.18600000 3215984415 3215984415 -5.00000000
-4.11116076 3.03876901 0.99373323 63 11 30647 5.20800000 3215984417 3215984417 11.00000000
-4.15292215 3.07075787 -0.27068156 10 12 30648 5.17200000 3215984419 3215984419 -3.00000000
-4.09538078 3.02931643 1.17604411 56 13 30649 5.22800000 3215984422 3215984422 13.00000000
-4.14083958 3.06406021 -0.08991480 8 14 30650 5.15200000 3215984424 3215984424 -1.00000000
-4.09508228 3.03020144 1.36501169 14 15 30650 5.27400000 3215984426 3215984426 15.00000000
-1.64905977 1.22380698 -0.55024928 4 0 30658 2.12600000 3215984447 3215984447 -15.00000000
-4.12959909 3.06579304 0.08977518 9 1 30659 5.14400000 3215984449 3215984449 1.00000000
-1.92744255 1.43144524 -0.55427939 3 2 30660 2.46400000 3215984451 3215984451 -13.00000000
-4.13151503 3.06945276 0.26973951 8 3 30661 5.15400000 3215984454 3215984454 3.00000000
-2.25200486 1.67309630 -0.54533213 2 4 30661 2.85800000 3215984456 3215984456 -11.00000000
-4.11610985 3.05912280 0.44867778 10 5 30662 5.14800000 3215984458 3215984458 5.00000000
-2.76150560 2.05311942 -0.54501766 1 6 30663 3.48400000 3215984461 3215984461 -9.00000000
-4.12864161 3.07067418 0.63177067 9 7 30664 5.18400000 3215984463 3215984463 7.00000000
-3.66783452 2.72894382 -0.56133020 30 8 30665 4.60600000 3215984465 3215984465 -7.00000000
-4.11053705 3.05943823 0.81158203 74 9 30666 5.18800000 3215984468 3215984468 9.00000000
-4.03405905 3.00251627 -0.43996218 9 10 30666 5.04800000 3215984470 3215984470 -5.00000000
-4.10682726 3.05779099 0.99525970 68 11 30667 5.21600000 3215984472 3215984472 11.00000000
-4.15339041 3.09358692 -0.27141428 10 12 30668 5.18600000 3215984474 3215984474 -3.00000000
-4.10040855 3.05523705 1.18054318 63 13 30669 5.24800000 3215984477 3215984477 13.00000000
-4.13492870 3.08208108 -0.09001951 12 14 30670 5.15800000 3215984479 3215984479 -1.00000000
-4.08394861 3.04519033 1.36501169 27 15 30671 5.27400000 3215984481 3215984481 15.00000000
-1.64499247 1.22926879 -0.55024928 4 0 30677 2.12600000 3215984502 3215984502 -15.00000000
-4.12581635 3.08425951 0.08991480 9 1 30678 5.15200000 3215984504 3215984504 1.00000000
-1.92580640 1.44016314 -0.55517918 3 2 30679 2.46800000 3215984507 3215984507 -13.00000000
-4.13410759 3.09270763 0.27057689 10 3 30680 5.17000000 3215984509 3215984509 3.00000000
-2.25587654 1.68761122 -0.54762185 3 4 30680 2.87000000 3215984511 3215984511 -11.00000000
-4.12189436 3.08469319 0.45042089 10 5 30681 5.16800000 3215984514 3215984514 5.00000000
-2.75468206 2.06226540 -0.54501766 3 6 30682 3.48400000 3215984516 3215984516 -9.00000000
-4.12161398 3.08672833 0.63225818 9 7 30683 5.18800000 3215984518 3215984518 7.00000000
-3.63652325 2.72442865 -0.55791783 10 8 30684 4.57800000 3215984521 3215984521 -7.00000000
-4.11829567 3.08536530 0.81502354 63 9 30684 5.21000000 3215984523 3215984523 9.00000000
-4.12611723 3.09234953 -0.45111811 9 10 30685 5.17600000 3215984525 3215984525 -5.00000000
-4.10294771 3.07610345 0.99678618 65 11 30686 5.22400000 3215984527 3215984527 11.00000000
-4.15109777 3.11333489 -0.27193764 10 12 30687 5.19600000 3215984530 3215984530 -3.00000000
-4.09648943 3.07349586 1.18234277 62 13 30688 5.25600000 3215984532 3215984532 13.00000000
-4.13108301 3.10057759 -0.09015913 12 14 30689 5.16600000 3215984534 3215984534 -1.00000000
-4.09135723 3.07076144 1.37070560 61 15 30689 5.29600000 3215984537 3215984537 15.00000000
-1.64995217 1.24197423 -0.55335510 4 0 30697 2.13800000 3215984557 3215984557 -15.00000000
-4.12460995 3.10585999 0.09012423 9 1 30698 5.16400000 3215984560 3215984560 1.00000000
-1.89897609 1.43046153 -0.54888058 3 2 30699 2.44000000 3215984562 3215984562 -13.00000000
-4.12807226 3.11072564 0.27089092 8 3 30700 5.17600000 3215984564 3215984564 3.00000000
-2.24370027 1.69074941 -0.54609537 3 4 30700 2.86200000 3215984567 3215984567 -11.00000000
-4.13019371 3.11345434 0.45251262 10 5 30701 5.19200000 3215984569 3215984569 5.00000000
-2.74431205 2.06948996 -0.54439193 1 6 30702 3.48000000 3215984571 3215984571 -9.00000000
-4.11715317 3.10587859 0.63323313 9 7 30703 5.19600000 3215984574 3215984574 7.00000000
-3.48279858 2.62829113 -0.53573763 8 8 30704 4.39600000 3215984576 3215984576 -7.00000000
-4.11484241 3.10638976 0.81658792 78 9 30705 5.22000000 3215984578 3215984578 9.00000000
-4.15664148 3.13794494 -0.45565021 9 10 30705 5.22800000 3215984580 3215984580 -5.00000000
-4.10785198 3.10223842 1.00060236 42 11 30706 5.24400000 3215984583 3215984583 11.00000000
-4.14498568 3.13141775 -0.27225164 10 12 30707 5.20200000 3215984585 3215984585 -3.00000000
-4.09195471 3.09247637 1.18414235 67 13 30708 5.26400000 3215984587 3215984587 13.00000000
-4.14416170 3.13306808 -0.09068270 14 14 30709 5.19600000 3215984590 3215984590 -1.00000000
-4.08623838 3.09039783 1.37277627 27 15 30710 5.30400000 3215984592 3215984592 15.00000000
-1.64868557 1.25006044 -0.55439037 4 0 30717 2.14200000 3215984613 3215984613 -15.00000000
-4.13445568 3.13594842 0.09057799 9 1 30718 5.19000000 3215984615 3215984615 1.00000000
-1.90639067 1.44650495 -0.55247980 3 2 30719 2.45600000 3215984617 3215984617 -13.00000000
-4.12355232 3.12994647 0.27130958 8 3 30720 5.18400000 3215984620 3215984620 3.00000000
-2.24716735 1.70569289 -0.54838502 3 4 30720 2.87400000 3215984622 3215984622 -11.00000000
-4.13358164 3.13869643 0.45408142 10 5 30721 5.21000000 3215984624 3215984624 5.00000000
-2.75280190 2.09100533 -0.54752064 1 6 30722 3.50000000 3215984627 3215984627 -9.00000000
-4.11260891 3.12503529 0.63420808 9 7 30723 5.20400000 3215984629 3215984629 7.00000000
-3.43567467 2.61160159 -0.52988791 8 8 30724 4.34800000 3215984631 3215984631 -7.00000000
-4.11080885 3.12479949 0.81783938 76 9 30724 5.22800000 3215984633 3215984633 9.00000000
-4.15517855 3.15967107 -0.45669609 9 10 30725 5.24000000 3215984636 3215984636 -5.00000000
-4.10793591 3.12487888 1.00327373 15 11 30726 5.25800000 3215984638 3215984638 11.00000000
-4.13879776 3.14949584 -0.27256566 10 12 30727 5.20800000 3215984640 3215984640 -3.00000000
-4.08423615 3.10910177 1.18504214 65 13 30728 5.26800000 3215984643 3215984643 13.00000000
-4.13160896 3.14630342 -0.09064780 12 14 30729 5.19400000 3215984645 3215984645 -1.00000000
-4.08826303 3.11329460 1.37691736 14 15 30729 5.32000000 3215984647 3215984647 15.00000000
-1.64431202 1.25580776 -0.55439037 4 0 30737 2.14200000 3215984668 3215984668 -15.00000000
-4.13778496 3.16128755 0.09089214 9 1 30738 5.20800000 3215984670 3215984670 1.00000000
-1.90752316 1.45788407 -0.55427939 4 2 30739 2.46400000 3215984673 3215984673 -13.00000000
-4.12370825 3.15281296 0.27204230 8 3 30740 5.19800000 3215984675 3215984675 3.00000000
-2.23184204 1.70637202 -0.54609537 3 4 30740 2.86200000 3215984677 3215984677 -11.00000000
-4.13051319 3.15915823 0.45495299 12 5 30741 5.22000000 3215984680 3215984680 5.00000000
-2.74234843 2.09820104 -0.54689491 1 6 30742 3.49600000 3215984682 3215984682 -9.00000000
-4.11428595 3.14902401 0.63615799 9 7 30743 5.22000000 3215984684 3215984684 7.00000000
-3.41865683 2.61754441 -0.52866924 8 8 30744 4.33800000 3215984686 3215984686 -7.00000000
-4.10560131 3.14465022 0.81909084 76 9 30745 5.23600000 3215984689 3215984689 9.00000000
-4.14728737 3.17657900 -0.45704472 13 10 30745 5.24400000 3215984691 3215984691 -5.00000000
-4.11726236 3.15472198 1.00823474 68 11 30746 5.28400000 3215984693 3215984693 11.00000000
-4.13887501 3.17242885 -0.27329835 10 12 30747 5.22200000 3215984696 3215984696 -3.00000000
-4.08882284 3.13519716 1.18954122 65 13 30748 5.28800000 3215984698 3215984698 13.00000000
-4.13170815 3.16922569 -0.09089214 10 14 30749 5.20800000 3215984700 3215984700 -1.00000000
-4.09061861 3.13884211 1.38157606 19 15 30750 5.33800000 3215984703 3215984703 15.00000000
-1.62766886 1.25211656 -0.55024928 4 0 30757 2.12600000 3215984723 3215984723 -15.00000000
-4.12514019 3.17449212 0.09085723 9 1 30758 5.20600000 3215984726 3215984726 1.00000000
-1.90859926 1.46928871 -0.55607903 4 2 30759 2.47200000 3215984728 3215984728 -13.00000000
-4.12375450 3.17571831 0.27277499 8 3 30760 5.21200000 3215984730 3215984730 3.00000000
-2.22898293 1.71654797 -0.54685861 3 4 30760 2.86600000 3215984733 3215984733 -11.00000000
-4.12577391 3.17842078 0.45565021 12 5 30761 5.22800000 3215984735 3215984735 5.00000000
-2.74596024 2.11620140 -0.54908496 3 6 30762 3.51000000 3215984737 3215984737 -9.00000000
-4.12213469 3.17791057 0.63908285 9 7 30763 5.24400000 3215984739 3215984739 7.00000000
-3.42521834 2.64158463 -0.53110659 8 8 30764 4.35800000 3215984742 3215984742 -7.00000000
-4.10453606 3.16548562 0.82096809 78 9 30764 5.24800000 3215984744 3215984744 9.00000000
-4.14563847 3.19833875 -0.45809057 9 10 30765 5.25600000 3215984746 3215984746 -5.00000000
-4.10622501 3.16907477 1.00823474 70 11 30766 5.28400000 3215984749 3215984749 11.00000000
-4.14832783 3.20272398 -0.27465910 10 12 30767 5.24800000 3215984751 3215984751 -3.00000000
-4.09173489 3.16017127 1.19359028 69 13 30768 5.30600000 3215984753 3215984753 13.00000000
-4.12694979 3.18851900 -0.09103175 10 14 30769 5.21600000 3215984756 3215984756 -1.00000000
-4.08171606 3.15357089 1.38209367 25 15 30769 5.34000000 3215984758 3215984758 15.00000000
-1.62328815 1.25779057 -0.55024928 4 0 30777 2.12600000 3215984779 3215984779 -15.00000000
-4.11877537 3.19254756 0.09096194 14 1 30778 5.21200000 3215984781 3215984781 1.00000000
-1.89267874 1.46758306 -0.55292970 4 2 30779 2.45800000 3215984783 3215984783 -13.00000000
-4.13315964 3.20600748 0.27413574 8 3 30780 5.23800000 3215984786 3215984786 3.00000000
-2.23228502 1.73153782 -0.54914826 3 4 30780 2.87800000 3215984788 3215984788 -11.00000000
-4.11622763 3.19402456 0.45582452 10 5 30781 5.23000000 3215984790 3215984790 5.00000000
-2.72607303 2.11608362 -0.54658204 1 6 30782 3.49400000 3215984792 3215984792 -9.00000000
-4.12199163 3.20080280 0.64078903 9 7 30783 5.25800000 3215984795 3215984795 7.00000000
-3.46614242 2.69249344 -0.53890622 8 8 30784 4.42200000 3215984797 3215984797 -7.00000000
-4.10906172 3.19191194 0.82409674 76 9 30784 5.26800000 3215984799 3215984799 9.00000000
-4.15018129 3.22501540 -0.45983371 13 10 30785 5.27600000 3215984802 3215984802 -5.00000000
-4.09513807 3.18338871 1.00823474 73 11 30786 5.28400000 3215984804 3215984804 11.00000000
-4.13869953 3.21841097 -0.27476376 10 12 30787 5.25000000 3215984806 3215984806 -3.00000000
-4.09452248 3.18520379 1.19763947 67 13 30788 5.32400000 3215984809 3215984809 13.00000000
-4.13157606 3.21518636 -0.09138080 10 14 30789 5.23600000 3215984811 3215984811 -1.00000000
-4.07525730 3.17135882 1.38364661 48 15 30789 5.34600000 3215984813 3215984813 15.00000000
-1.62497962 1.26820350 -0.55231982 4 0 30797 2.13400000 3215984834 3215984834 -15.00000000
-4.12494469 3.22044158 0.09134590 11 1 30798 5.23400000 3215984836 3215984836 1.00000000
-1.88447273 1.47178185 -0.55202991 3 2 30799 2.45400000 3215984839 3215984839 -13.00000000
-4.11879587 3.21795607 0.27392641 8 3 30800 5.23400000 3215984841 3215984841 3.00000000
-2.22932148 1.74173677 -0.54991150 3 4 30800 2.88200000 3215984843 3215984843 -11.00000000
-4.11761189 3.21818852 0.45721903 10 5 30801 5.24600000 3215984845 3215984845 5.00000000
-2.72956324 2.13410330 -0.54877210 1 6 30802 3.50800000 3215984848 3215984848 -9.00000000
-4.11392117 3.21761751 0.64127648 9 7 30803 5.26200000 3215984850 3215984850 7.00000000
-3.45046902 2.69968319 -0.53793126 8 8 30804 4.41400000 3215984852 3215984852 -7.00000000
-4.11133480 3.21790862 0.82691258 81 9 30805 5.28600000 3215984855 3215984855 9.00000000
-4.14203644 3.24193859 -0.46018231 13 10 30805 5.28000000 3215984857 3215984857 -5.00000000
-4.09945869 3.20976734 1.01205087 68 11 30806 5.30400000 3215984859 3215984859 11.00000000
-4.13530207 3.23899603 -0.27528712 10 12 30807 5.26000000 3215984862 3215984862 -3.00000000
-4.09565067 3.20909214 1.20123863 65 13 30808 5.34000000 3215984864 3215984864 13.00000000
-4.13449240 3.24069118 -0.09169494 10 14 30809 5.25400000 3215984866 3215984866 -1.00000000
-4.07784605 3.19629073 1.38830531 63 15 30809 5.36400000 3215984868 3215984868 15.00000000
-1.62965548 1.28103137 -0.55542564 4 0 30817 2.14600000 3215984889 3215984889 -15.00000000
-4.13096905 3.24841762 0.09172985 11 1 30818 5.25600000 3215984892 3215984892 1.00000000
-1.88545024 1.48317027 -0.55382949 3 2 30819 2.46200000 3215984894 3215984894 -13.00000000
-4.11224651 3.23601913 0.27424040 8 3 30820 5.24000000 3215984896 3215984896 3.00000000
-2.21705675 1.74465168 -0.54838502 3 4 30820 2.87400000 3215984898 3215984898 -11.00000000
-4.12044287 3.24363351 0.45878783 10 5 30821 5.26400000 3215984901 3215984901 5.00000000
-2.72209716 2.14361835 -0.54877210 1 6 30822 3.50800000 3215984903 3215984903 -9.00000000
-4.11981726 3.24547076 0.64395761 9 7 30823 5.28400000 3215984905 3215984905 7.00000000
-3.44102430 2.71171117 -0.53793126 10 8 30824 4.41400000 3215984908 3215984908 -7.00000000
-4.10628271 3.23713207 0.82816404 81 9 30825 5.29400000 3215984910 3215984910 9.00000000
-4.15885878 3.27857971 -0.46331993 13 10 30825 5.31600000 3215984912 3215984912 -5.00000000
-4.09439611 3.22892046 1.01357734 70 11 30826 5.31200000 3215984915 3215984915 11.00000000
-4.12867451 3.25712228 -0.27560115 10 12 30827 5.26600000 3215984917 3215984917 -3.00000000
-4.08748341 3.22578359 1.20213842 67 13 30828 5.34400000 3215984919 3215984919 13.00000000
-4.12786388 3.25882077 -0.09179966 8 14 30829 5.26000000 3215984921 3215984921 -1.00000000
-4.09490919 3.23396444 1.39814043 63 15 30830 5.40200000 3215984924 3215984924 15.00000000
-1.61911547 1.28191543 -0.55335510 4 0 30837 2.13800000 3215984945 3215984945 -15.00000000
-4.12587500 3.26778388 0.09186947 9 1 30838 5.26400000 3215984947 3215984947 1.00000000
-1.88331640 1.49216306 -0.55472928 3 2 30839 2.46600000 3215984949 3215984949 -13.00000000
-4.12596989 3.27020335 0.27591518 8 3 30840 5.27200000 3215984951 3215984951 3.00000000
-2.21403050 1.75481892 -0.54914826 3 4 30840 2.87800000 3215984954 3215984954 -11.00000000
-4.12158537 3.26789951 0.46018231 10 5 30841 5.28000000 3215984956 3215984956 5.00000000
-2.71614575 2.15433478 -0.54908496 3 6 30842 3.51000000 3215984958 3215984958 -9.00000000
-4.12401390 3.27217031 0.64639497 11 7 30843 5.30400000 3215984961 3215984961 7.00000000
-3.43153763 2.72370601 -0.53793126 10 8 30844 4.41400000 3215984963 3215984963 -7.00000000
-4.10269308 3.25758767 0.82972842 78 9 30845 5.30400000 3215984965 3215984965 9.00000000
-4.14426804 3.29059911 -0.46297130 13 10 30845 5.31200000 3215984968 3215984968 -5.00000000
-4.10462236 3.26028800 1.01892006 77 11 30846 5.34000000 3215984970 3215984970 11.00000000
-4.13917208 3.28890920 -0.27706656 11 12 30847 5.29400000 3215984972 3215984972 -3.00000000
-4.09145355 3.25215793 1.20663750 67 13 30848 5.36400000 3215984974 3215984974 13.00000000
-4.12272406 3.27818823 -0.09193928 8 14 30849 5.26800000 3215984977 3215984977 -1.00000000
-4.08718681 3.24993062 1.39917576 63 15 30849 5.40600000 3215984979 3215984979 15.00000000
-1.61161005 1.28515041 -0.55231982 4 0 30857 2.13400000 3215985000 3215985000 -15.00000000
-4.11913300 3.28590703 0.09197418 14 1 30858 5.27000000 3215985002 3215985002 1.00000000
-1.87809634 1.49872804 -0.55472928 3 2 30859 2.46600000 3215985004 3215985004 -13.00000000
-4.11765099 3.28707767 0.27612451 8 3 30860 5.27600000 3215985007 3215985007 3.00000000
-2.20482278 1.76008689 -0.54838502 3 4 30860 2.87400000 3215985009 3215985009 -11.00000000
-4.11015320 3.28226662 0.46018231 10 5 30861 5.28000000 3215985011 3215985011 5.00000000
-2.72712946 2.17859793 -0.55283940 1 6 30862 3.53400000 3215985014 3215985014 -9.00000000
-4.12187099 3.29398155 0.64785743 16 7 30863 5.31600000 3215985016 3215985016 7.00000000
-3.42511034 2.73814678 -0.53841877 8 8 30864 4.41800000 3215985018 3215985018 -7.00000000
-4.10672379 3.28422642 0.83285707 76 9 30865 5.32400000 3215985021 3215985021 9.00000000
-4.13586855 3.30753398 -0.46331993 13 10 30865 5.31600000 3215985023 3215985023 -5.00000000
-4.10241508 3.28195453 1.02120972 68 11 30866 5.35200000 3215985025 3215985025 11.00000000
-4.15573549 3.32580066 -0.27895066 11 12 30867 5.33000000 3215985027 3215985027 -3.00000000
-4.09833193 3.28103471 1.21203625 63 13 30868 5.38800000 3215985030 3215985030 13.00000000
-4.12062120 3.30005932 -0.09214871 8 14 30869 5.28000000 3215985032 3215985032 -1.00000000
-4.08184910 3.26900816 1.40124631 68 15 30869 5.41400000 3215985034 3215985034 15.00000000
-1.60711432 1.29076815 -0.55231982 4 0 30877 2.13400000 3215985055 3215985055 -15.00000000
-4.12166786 3.31153774 0.09228832 16 1 30878 5.28800000 3215985057 3215985057 1.00000000
-1.87285340 1.50527465 -0.55472928 3 2 30879 2.46600000 3215985060 3215985060 -13.00000000
-4.12696600 3.31698012 0.27748525 12 3 30879 5.30200000 3215985062 3215985062 3.00000000
-2.20784569 1.77515364 -0.55067474 3 4 30880 2.88600000 3215985064 3215985064 -11.00000000
-4.10953856 3.30533481 0.46140251 7 5 30881 5.29400000 3215985067 3215985067 5.00000000
-2.70565677 2.17695928 -0.55002356 1 6 30882 3.51600000 3215985069 3215985069 -9.00000000
-4.11189413 3.30959415 0.64810115 26 7 30883 5.31800000 3215985071 3215985071 7.00000000
-3.42017007 2.75382090 -0.53915000 8 8 30884 4.42400000 3215985073 3215985073 -7.00000000
-4.11427402 3.31269288 0.83661151 76 9 30884 5.34800000 3215985076 3215985076 9.00000000
-4.14446974 3.33819795 -0.46558598 13 10 30885 5.34200000 3215985078 3215985078 -5.00000000
-4.09093380 3.29625463 1.02120972 77 11 30886 5.35200000 3215985080 3215985080 11.00000000
-4.14721060 3.34279346 -0.27915999 11 12 30887 5.33400000 3215985083 3215985083 -3.00000000
-4.09898996 3.30510616 1.21563554 62 13 30888 5.40400000 3215985085 3215985085 13.00000000
-4.12775421 3.32948828 -0.09256756 6 14 30889 5.30400000 3215985087 3215985087 -1.00000000
-4.08244228 3.29293942 1.40538740 63 15 30889 5.43000000 3215985090 3215985090 15.00000000
-1.60560274 1.29880011 -0.55335510 4 0 30897 2.13800000 3215985110 3215985110 -15.00000000
-4.11941004 3.33345222 0.09249775 11 1 30898 5.30000000 3215985113 3215985113 1.00000000
-1.86910224 1.51302910 -0.55517918 4 2 30899 2.46800000 3215985115 3215985115 -13.00000000
-4.12719822 3.34213924 0.27832261 21 3 30900 5.31800000 3215985117 3215985117 3.00000000
-2.20773888 1.78779161 -0.55220121 3 4 30900 2.89400000 3215985120 3215985120 -11.00000000
-4.11345720 3.33220077 0.46314561 7 5 30901 5.31400000 3215985122 3215985122 5.00000000
-2.70111060 2.18887782 -0.55064934 1 6 30902 3.52000000 3215985124 3215985124 -9.00000000
-4.10494280 3.32767749 0.64883238 42 7 30903 5.32400000 3215985126 3215985126 7.00000000
-3.41053677 2.76574278 -0.53915000 8 8 30904 4.42400000 3215985129 3215985129 -7.00000000
-4.11591148 3.33895063 0.83942735 69 9 30905 5.36600000 3215985131 3215985131 9.00000000
-4.15445375 3.37021732 -0.46802634 13 10 30905 5.37000000 3215985133 3215985133 -5.00000000
-4.09464741 3.32288575 1.02502596 68 11 30906 5.37200000 3215985136 3215985136 11.00000000
-4.12621307 3.34969664 -0.27853197 11 12 30907 5.32200000 3215985138 3215985138 -3.00000000
-4.09045362 3.32185125 1.21653533 62 13 30908 5.40800000 3215985140 3215985140 13.00000000
-4.13317966 3.35774636 -0.09295151 8 14 30909 5.32600000 3215985143 3215985143 -1.00000000
-4.08084011 3.31640887 1.40901089 57 15 30910 5.44400000 3215985145 3215985145 15.00000000
-1.61004567 1.31171799 -0.55646098 4 0 30917 2.15000000 3215985166 3215985166 -15.00000000
-4.11704969 3.35539150 0.09270718 16 1 30918 5.31200000 3215985168 3215985168 1.00000000
-1.85323668 1.51092446 -0.55202991 3 2 30919 2.45400000 3215985170 3215985170 -13.00000000
-4.10835266 3.34949684 0.27779925 17 3 30919 5.30800000 3215985173 3215985173 3.00000000
-2.18931341 1.78556049 -0.54914826 3 4 30920 2.87800000 3215985175 3215985175 -11.00000000
-4.11569452 3.35787487 0.46471441 10 5 30921 5.33200000 3215985177 3215985177 5.00000000
-2.69651437 2.20079136 -0.55127507 3 6 30922 3.52400000 3215985179 3215985179 -9.00000000
-4.10560369 3.35202956 0.65078229 47 7 30923 5.34000000 3215985182 3215985182 7.00000000
-3.39471173 2.77260804 -0.53817505 8 8 30924 4.41600000 3215985184 3215985184 -7.00000000
-4.11035013 3.35829687 0.84067881 65 9 30925 5.37400000 3215985186 3215985186 9.00000000
-4.15037870 3.39100170 -0.46889791 13 10 30925 5.38000000 3215985189 3215985189 -5.00000000
-4.10126448 3.35206747 1.02960539 68 11 30926 5.39600000 3215985191 3215985191 11.00000000
-4.11449528 3.36407948 -0.27853197 19 12 30927 5.32200000 3215985193 3215985193 -3.00000000
-4.08486700 3.34104443 1.21833491 62 13 30928 5.41600000 3215985196 3215985196 13.00000000
-4.11988640 3.37088728 -0.09291662 14 14 30929 5.32400000 3215985198 3215985198 -1.00000000
-4.07879114 3.33726311 1.41211677 53 15 30929 5.45600000 3215985200 3215985200 15.00000000
-1.60247016 1.31487930 -0.55542564 4 0 30937 2.14600000 3215985221 3215985221 -15.00000000
-4.10994911 3.37354827 0.09281190 21 1 30938 5.31800000 3215985223 3215985223 1.00000000
-1.85698771 1.52480423 -0.55472928 3 2 30939 2.46600000 3215985225 3215985225 -13.00000000
-4.10435343 3.37015462 0.27832261 8 3 30939 5.31800000 3215985228 3215985228 3.00000000
-2.18610168 1.79568410 -0.54991150 3 4 30940 2.88200000 3215985230 3215985230 -11.00000000
-4.09779072 3.36716127 0.46401718 10 5 30941 5.32400000 3215985232 3215985232 5.00000000
-2.69339371 2.21395350 -0.55221367 3 6 30942 3.53000000 3215985235 3215985235 -9.00000000
-4.11687708 3.38525248 0.65443838 64 7 30943 5.37000000 3215985237 3215985237 7.00000000
-3.38807917 2.78696299 -0.53866249 8 8 30944 4.42000000 3215985239 3215985239 -7.00000000
-4.09860229 3.37262416 0.84067881 65 9 30945 5.37400000 3215985242 3215985242 9.00000000
-4.14774752 3.41306424 -0.46994376 10 10 30945 5.39200000 3215985244 3215985244 -5.00000000
-4.10772800 3.38133597 1.03418481 60 11 30946 5.42000000 3215985246 3215985246 11.00000000
-4.12431288 3.39619565 -0.27999738 19 12 30947 5.35000000 3215985249 3215985249 -3.00000000
-4.08521271 3.36519504 1.22193408 63 13 30948 5.43200000 3215985251 3215985251 13.00000000
-4.10192156 3.38016105 -0.09277699 17 14 30949 5.31600000 3215985253 3215985253 -1.00000000
-4.07755327 3.36008024 1.41574013 63 15 30949 5.47000000 3215985255 3215985255 15.00000000
-1.58893573 1.31308115 -0.55231982 4 0 30957 2.13400000 3215985276 3215985276 -15.00000000
-4.10277176 3.39169645 0.09291662 16 1 30958 5.32400000 3215985278 3215985278 1.00000000
-1.86066437 1.53872848 -0.55742872 3 2 30959 2.47800000 3215985281 3215985281 -13.00000000
-4.11351871 3.40299845 0.27978802 24 3 30960 5.34600000 3215985283 3215985283 3.00000000
-2.17376924 1.79829836 -0.54838502 3 4 30960 2.87400000 3215985285 3215985285 -11.00000000
-4.10136175 3.39414740 0.46576029 31 5 30961 5.34400000 3215985288 3215985288 5.00000000
-2.66282487 2.20444655 -0.54752064 3 6 30962 3.50000000 3215985290 3215985290 -9.00000000
-4.10962200 3.40340090 0.65516961 52 7 30963 5.37600000 3215985292 3215985292 7.00000000
-3.38750196 2.80637121 -0.54012495 8 8 30964 4.43200000 3215985295 3215985295 -7.00000000
-4.10260773 3.39879918 0.84380752 63 9 30964 5.39400000 3215985297 3215985297 9.00000000
-4.62823963 3.83562064 -0.52589774 3 10 30965 6.03400000 3215985299 3215985299 -5.00000000
-4.09590006 3.39565396 1.03418481 66 11 30966 5.42000000 3215985302 3215985302 11.00000000
-4.08543921 3.38938880 1.22553337 65 13 30968 5.44800000 3215985306 3215985306 13.00000000
-4.06966972 3.37870479 1.41729307 61 15 30970 5.47600000 3215985311 3215985311 15.00000000
-1.58434248 1.31861961 -0.55231982 4 0 30977 2.13400000 3215985331 3215985331 -15.00000000
-1.84929228 1.54022551 -0.55562907 3 2 30979 2.47000000 3215985336 3215985336 -13.00000000
-2.18859553 1.82346904 -0.55372769 3 4 30980 2.90200000 3215985341 3215985341 -11.00000000
-2.67787194 2.23270297 -0.55221367 3 6 30982 3.53000000 3215985345 3215985345 -9.00000000
-3.38530636 2.82453728 -0.54134363 8 8 30984 4.44200000 3215985350 3215985350 -7.00000000
-4.64082575 3.87345648 -0.52886105 3 10 30985 6.06800000 3215985355 3215985355 -5.00000000
-7.38243771 6.16611099 -0.50409991 8 12 30987 9.63200000 3215985359 3215985359 -3.00000000
-8.69150734 7.26207495 2.61483097 47 13 30988 11.62400000 3215985361 3215985361 13.00000000
-4.06377888 3.39784670 1.41936362 23 15 30990 5.48400000 3215985366 3215985366 15.00000000
-1.58736479 1.33006990 -0.55490804 4 0 30996 2.14400000 3215985387 3215985387 -15.00000000
-1.84118795 1.54384530 -0.55472928 3 2 30998 2.46600000 3215985391 3215985391 -13.00000000
-2.18554497 1.83324003 -0.55449092 3 4 30999 2.90600000 3215985396 3215985396 -11.00000000
-2.65834928 2.23141074 -0.54971069 5 6 31001 3.51400000 3215985401 3215985401 -9.00000000
-3.37136126 2.83191752 -0.54061240 8 8 31003 4.43600000 3215985405 3215985405 -7.00000000
-4.63100624 3.89138818 -0.52920967 3 10 31004 6.07200000 3215985410 3215985410 -5.00000000
-7.37417841 6.20084143 -0.50493729 12 12 31006 9.64800000 3215985414 3215985414 -3.00000000
-8.65395641 7.27956676 2.61078191 59 13 31007 11.60600000 3215985417 3215985417 13.00000000
-7.43843079 6.26152182 2.60527253 42 15 31009 10.06600000 3215985421 3215985421 15.00000000
-1.58861804 1.34058630 -0.55697858 4 0 31016 2.15200000 3215985442 3215985442 -15.00000000
-1.83578777 1.55026281 -0.55472928 3 2 31018 2.46600000 3215985447 3215985447 -13.00000000
-2.16113544 1.82565463 -0.54991150 3 4 31019 2.88200000 3215985451 3215985451 -11.00000000
-2.65959525 2.24832821 -0.55158794 3 6 31021 3.52600000 3215985456 3215985456 -9.00000000
-3.35842443 2.84110427 -0.54012495 12 8 31023 4.43200000 3215985461 3215985461 -7.00000000
-4.63868666 3.92554879 -0.53165001 3 10 31024 6.10000000 3215985465 3215985465 -5.00000000
-7.38144732 6.25106859 -0.50692606 12 12 31026 9.68600000 3215985470 3215985470 -3.00000000
-8.63592720 7.31602859 2.61303139 60 13 31027 11.61600000 3215985472 3215985472 13.00000000
-7.41063452 6.28245163 2.60320187 45 15 31029 10.05800000 3215985477 3215985477 15.00000000
-1.57827461 1.34084392 -0.55490804 4 0 31035 2.14400000 3215985497 3215985497 -15.00000000
-1.83509088 1.56012869 -0.55607903 4 2 31037 2.47200000 3215985502 3215985502 -13.00000000
-2.17002487 1.84553015 -0.55372769 3 4 31038 2.90200000 3215985507 3215985507 -11.00000000
-2.66716814 2.26993799 -0.55471659 3 6 31040 3.54600000 3215985511 3215985511 -9.00000000
-3.32178164 2.82905769 -0.53573763 32 8 31042 4.39600000 3215985516 3215985516 -7.00000000
-4.61957741 3.93574119 -0.53095281 3 10 31043 6.09200000 3215985520 3215985520 -5.00000000
-7.38803482 6.29883623 -0.50881016 12 12 31045 9.72200000 3215985525 3215985525 -3.00000000
-8.60568810 7.33956814 2.61123180 59 13 31046 11.60800000 3215985527 3215985527 13.00000000
-7.38351297 6.29943275 2.60061383 42 15 31047 10.04800000 3215985532 3215985532 15.00000000
-1.57064879 1.34383309 -0.55387276 4 0 31055 2.14000000 3215985553 3215985553 -15.00000000
-1.83851552 1.57412934 -0.55877841 4 2 31057 2.48400000 3215985557 3215985557 -13.00000000
-2.15760517 1.84798527 -0.55220121 3 4 31058 2.89400000 3215985562 3215985562 -11.00000000
-2.65022945 2.27152133 -0.55283940 3 6 31060 3.53400000 3215985566 3215985566 -9.00000000
-3.29832530 2.82900429 -0.53354400 24 8 31062 4.37800000 3215985571 3215985571 -7.00000000
-4.61337137 3.95832944 -0.53182435 7 10 31063 6.10200000 3215985576 3215985576 -5.00000000
-7.40237093 6.35581303 -0.51132232 12 12 31065 9.77000000 3215985580 3215985580 -3.00000000
-8.58592892 7.37464190 2.61303139 59 13 31066 11.61600000 3215985583 3215985583 13.00000000
-7.35304928 6.32015610 2.59802556 45 15 31068 10.03800000 3215985587 3215985587 15.00000000
-1.57203877 1.35407722 -0.55594331 4 0 31074 2.14800000 3215985608 3215985608 -15.00000000
-1.82295299 1.57131124 -0.55562907 3 2 31076 2.47000000 3215985613 3215985613 -13.00000000
-2.15443897 1.85769415 -0.55296445 3 4 31077 2.89800000 3215985617 3215985617 -11.00000000
-2.63071752 2.26997328 -0.55033642 3 6 31079 3.51800000 3215985622 3215985622 -9.00000000
-3.29794073 2.84771061 -0.53500640 20 8 31081 4.39000000 3215985626 3215985626 -7.00000000
-4.60474300 3.97751331 -0.53234726 3 10 31082 6.10800000 3215985631 3215985631 -5.00000000
-7.41298437 6.40775299 -0.51352042 12 12 31084 9.81200000 3215985636 3215985636 -3.00000000
-8.55553055 7.39797449 2.61123180 56 13 31085 11.60800000 3215985638 3215985638 13.00000000
-7.33461905 6.34448910 2.59854317 42 15 31086 10.04000000 3215985643 3215985643 15.00000000
-1.56730258 1.35955644 -0.55594331 4 0 31094 2.14800000 3215985663 3215985663 -15.00000000
-1.82481503 1.58405221 -0.55787861 3 2 31096 2.48000000 3215985668 3215985668 -13.00000000
-2.16276479 1.87807548 -0.55678064 2 4 31097 2.91800000 3215985672 3215985672 -11.00000000
-2.63470626 2.28950810 -0.55283940 5 6 31099 3.53400000 3215985677 3215985677 -9.00000000
-3.28498435 2.85660005 -0.53451896 20 8 31101 4.38600000 3215985682 3215985682 -7.00000000
-4.61187601 4.01186991 -0.53478765 3 10 31102 6.13600000 3215985686 3215985686 -5.00000000
-7.41919422 6.45850658 -0.51550919 17 12 31104 9.85000000 3215985691 3215985691 -3.00000000
-8.52377605 7.42267466 2.60943222 59 13 31105 11.60000000 3215985693 3215985693 13.00000000
-7.31422901 6.37386751 2.59957838 42 15 31107 10.04400000 3215985698 3215985698 15.00000000
-1.57273149 1.37391579 -0.55956680 4 0 31114 2.16200000 3215985719 3215985719 -15.00000000
-1.81047165 1.58271682 -0.55517918 3 2 31116 2.46800000 3215985723 3215985723 -13.00000000
-2.15028453 1.88044393 -0.55525416 3 4 31117 2.91000000 3215985728 3215985728 -11.00000000
-2.64156365 2.31169987 -0.55596811 3 6 31119 3.55400000 3215985732 3215985732 -9.00000000
-3.27051282 2.86412597 -0.53378773 18 8 31121 4.38000000 3215985737 3215985737 -7.00000000
-4.60533714 4.03450823 -0.53565919 3 10 31122 6.14600000 3215985742 3215985742 -5.00000000
-7.40261221 6.48963118 -0.51592785 12 12 31124 9.85800000 3215985746 3215985746 -3.00000000
-8.49195385 7.44724369 2.60763264 56 13 31125 11.59200000 3215985749 3215985749 13.00000000
-7.29305220 6.39808702 2.59957838 42 15 31126 10.04400000 3215985753 3215985753 15.00000000
-1.55777299 1.37046504 -0.55594331 4 0 31134 2.14800000 3215985774 3215985774 -15.00000000
-1.81371188 1.59675312 -0.55787861 3 2 31136 2.48000000 3215985778 3215985778 -13.00000000
-2.13781404 1.88274813 -0.55372769 3 4 31137 2.90200000 3215985783 3215985783 -11.00000000
-2.63051438 2.31829453 -0.55534238 3 6 31139 3.55000000 3215985788 3215985788 -9.00000000
-3.27091670 2.88471580 -0.53549391 20 8 31141 4.39400000 3215985792 3215985792 -7.00000000
-4.60019016 4.05846786 -0.53670508 3 10 31142 6.15800000 3215985797 3215985797 -5.00000000
-7.37242794 6.50882244 -0.51540452 8 12 31144 9.84800000 3215985801 3215985801 -3.00000000
-8.45860291 7.47039080 2.60538316 52 13 31145 11.58200000 3215985804 3215985804 13.00000000
-7.25652504 6.41326046 2.59491968 45 15 31147 10.02600000 3215985808 3215985808 15.00000000
-1.54406500 1.36847734 -0.55283749 4 0 31155 2.13600000 3215985829 3215985829 -15.00000000
-1.81367910 1.60856223 -0.55967820 3 2 31157 2.48800000 3215985834 3215985834 -13.00000000
-2.12796187 1.88796508 -0.55296445 3 4 31158 2.89800000 3215985838 3215985838 -11.00000000
-2.61904526 2.32529712 -0.55471659 5 6 31160 3.54600000 3215985843 3215985843 -9.00000000
-3.25883794 2.89536643 -0.53525013 18 8 31162 4.39200000 3215985848 3215985848 -7.00000000
-4.56592464 4.05809450 -0.53443903 3 10 31163 6.13200000 3215985852 3215985852 -5.00000000
-7.34553766 6.53314543 -0.51519513 8 12 31165 9.84400000 3215985857 3215985857 -3.00000000
-8.42971039 7.50004768 2.60493326 47 13 31166 11.58000000 3215985859 3215985859 13.00000000
-7.21822071 6.42442369 2.58922577 42 15 31167 10.00400000 3215985864 3215985864 15.00000000
-1.54216123 1.37643147 -0.55387276 4 0 31175 2.14000000 3215985884 3215985884 -15.00000000
-1.80078602 1.60839272 -0.55742872 4 2 31177 2.47800000 3215985889 3215985889 -13.00000000
-2.13599896 1.90846217 -0.55678064 3 4 31178 2.91800000 3215985894 3215985894 -11.00000000
-2.59913182 2.32389212 -0.55221367 3 6 31180 3.53000000 3215985898 3215985898 -9.00000000
-3.25019073 2.90804791 -0.53549391 22 8 31182 4.39400000 3215985903 3215985903 -7.00000000
-4.57399988 4.09393978 -0.53705370 3 10 31183 6.16200000 3215985907 3215985907 -5.00000000
-7.30781031 6.54542112 -0.51414841 8 12 31185 9.82400000 3215985912 3215985912 -3.00000000
-8.39622211 7.52292490 2.60268378 44 13 31186 11.57000000 3215985914 3215985914 13.00000000
-7.20469379 6.45986414 2.59284925 45 15 31188 10.01800000 3215985919 3215985919 15.00000000
-1.54596782 1.38955474 -0.55697858 4 0 31195 2.15200000 3215985940 3215985940 -15.00000000
-1.79081404 1.61075914 -0.55607903 3 2 31197 2.47200000 3215985944 3215985944 -13.00000000
-2.12640524 1.91328025 -0.55601740 2 4 31198 2.91400000 3215985949 3215985949 -11.00000000
-2.60568404 2.34616828 -0.55534238 5 6 31200 3.55000000 3215985954 3215985954 -9.00000000
-3.24149466 2.92070436 -0.53573763 24 8 31202 4.39600000 3215985958 3215985958 -7.00000000
-4.55820179 4.10854673 -0.53687936 3 10 31203 6.16000000 3215985963 3215985963 -5.00000000
-7.27305317 6.56018829 -0.51331109 8 12 31205 9.80800000 3215985967 3215985967 -3.00000000
-8.36122990 7.54435444 2.59998417 41 13 31206 11.55800000 3215985970 3215985970 13.00000000
-7.18036461 6.48113108 2.59181380 42 15 31207 10.01400000 3215985974 3215985974 15.00000000
-1.53967571 1.39364624 -0.55646098 4 0 31215 2.15000000 3215985995 3215985995 -15.00000000
-1.79673517 1.62746644 -0.55967820 3 2 31217 2.48800000 3215986000 3215986000 -13.00000000
-2.12262344 1.92332768 -0.55678064 3 4 31218 2.91800000 3215986004 3215986004 -11.00000000
-2.59747839 2.35524964 -0.55534238 5 6 31220 3.55000000 3215986009 3215986009 -9.00000000
-3.21804881 2.91999602 -0.53354400 22 8 31222 4.37800000 3215986013 3215986013 -7.00000000
-4.55858517 4.13782406 -0.53862250 3 10 31223 6.18000000 3215986018 3215986018 -5.00000000
-7.25898027 6.59359312 -0.51393908 12 12 31225 9.82000000 3215986023 3215986023 -3.00000000
-8.32907486 7.56825256 2.59818459 40 13 31226 11.55000000 3215986025 3215986025 13.00000000
-7.16084957 6.51130390 2.59336686 42 15 31228 10.02000000 3215986030 3215986030 15.00000000
-1.53504574 1.39874434 -0.55646098 4 0 31234 2.15000000 3215986050 3215986050 -15.00000000
-1.79420829 1.63604176 -0.56057805 3 2 31236 2.49200000 3215986055 3215986055 -13.00000000
-2.10753083 1.92241752 -0.55449092 3 4 31237 2.90600000 3215986060 3215986060 -11.00000000
-2.59548974 2.36917710 -0.55659384 3 6 31239 3.55800000 3215986064 3215986064 -9.00000000
-3.22007346 2.94136190 -0.53549391 20 8 31241 4.39400000 3215986069 3215986069 -7.00000000
-4.54778004 4.15560579 -0.53897113 3 10 31242 6.18400000 3215986073 3215986073 -5.00000000
-7.26213217 6.64054108 -0.51571852 8 12 31244 9.85400000 3215986078 3215986078 -3.00000000
-8.29818058 7.59056997 2.59638500 43 13 31245 11.54200000 3215986080 3215986080 13.00000000
-7.13038206 6.52463913 2.58974338 45 15 31246 10.00600000 3215986085 3215986085 15.00000000
-1.52446032 1.39886963 -0.55439037 4 0 31254 2.14200000 3215986106 3215986106 -15.00000000
-1.78561580 1.63965869 -0.55967820 3 2 31256 2.48800000 3215986110 3215986110 -13.00000000
-2.10080767 1.92976248 -0.55449092 3 4 31257 2.90600000 3215986115 3215986115 -11.00000000
-2.58138680 2.37287545 -0.55534238 3 6 31259 3.55000000 3215986119 3215986119 -9.00000000
-3.21563053 2.95795965 -0.53646886 20 8 31261 4.40200000 3215986124 3215986124 -7.00000000
-4.52005148 4.15931320 -0.53740233 3 10 31262 6.16600000 3215986129 3215986129 -5.00000000
-7.27123117 6.69561434 -0.51802129 8 12 31264 9.89800000 3215986133 3215986133 -3.00000000
-8.26876736 7.61684895 2.59548521 43 13 31265 11.53800000 3215986136 3215986136 13.00000000
-7.08767414 6.53116179 2.58249640 45 15 31266 9.97800000 3215986140 3215986140 15.00000000
-1.51673031 1.40156031 -0.55335510 4 0 31274 2.13800000 3215986161 3215986161 -15.00000000
-1.78274298 1.64852774 -0.56057805 3 2 31276 2.49200000 3215986166 3215986166 -13.00000000
-2.09982347 1.94241655 -0.55601740 3 4 31277 2.91400000 3215986170 3215986170 -11.00000000
-2.57888651 2.38723922 -0.55659384 3 6 31279 3.55800000 3215986175 3215986175 -9.00000000
-3.20965457 2.97321343 -0.53720009 18 8 31281 4.40800000 3215986179 3215986179 -7.00000000
-4.52158070 4.18996239 -0.53931975 3 10 31282 6.18800000 3215986184 3215986184 -5.00000000
-7.24342155 6.71688080 -0.51770729 8 12 31284 9.89200000 3215986189 3215986189 -3.00000000
-8.24498653 7.64831686 2.59638500 42 13 31285 11.54200000 3215986191 3215986191 13.00000000
-7.07049704 6.56111860 2.58456707 45 15 31286 9.98600000 3215986195 3215986195 15.00000000
-1.52455699 1.41869044 -0.55801386 4 0 31294 2.15600000 3215986216 3215986216 -15.00000000
-1.76842082 1.64677238 -0.55787861 3 2 31296 2.48000000 3215986221 3215986221 -13.00000000
-2.09733987 1.95374906 -0.55716228 3 4 31297 2.92000000 3215986225 3215986225 -11.00000000
-2.56475806 2.39083886 -0.55534238 3 6 31299 3.55000000 3215986230 3215986230 -9.00000000
-3.19780493 2.98304510 -0.53695631 20 8 31301 4.40600000 3215986235 3215986235 -7.00000000
-4.50401402 4.20300150 -0.53897113 3 10 31302 6.18400000 3215986239 3215986239 -5.00000000
-7.23890781 6.75984526 -0.51906800 4 12 31304 9.91800000 3215986244 3215986244 -3.00000000
-8.20399761 7.66374779 2.59188604 41 13 31305 11.52200000 3215986246 3215986246 13.00000000
-7.04640198 6.58698940 2.58456707 45 15 31307 9.98600000 3215986251 3215986251 15.00000000
-1.52830327 1.43166256 -0.56111968 4 0 31313 2.16800000 3215986272 3215986272 -15.00000000
-1.77432406 1.66328979 -0.56147784 3 2 31315 2.49600000 3215986276 3215986276 -13.00000000
-2.09228158 1.96203625 -0.55754387 3 4 31316 2.92200000 3215986281 3215986281 -11.00000000
-2.55681562 2.39933085 -0.55534238 3 6 31318 3.55000000 3215986285 3215986285 -9.00000000
-3.18210697 2.98819733 -0.53598136 24 8 31320 4.39800000 3215986290 3215986290 -7.00000000
-4.48859978 4.21655035 -0.53879678 3 10 31321 6.18200000 3215986295 3215986295 -5.00000000
-7.22518301 6.79202080 -0.51969606 4 12 31323 9.93000000 3215986299 3215986299 -3.00000000
-8.16718197 7.68023109 2.58828688 41 13 31324 11.50600000 3215986301 3215986301 13.00000000
-7.02285957 6.60644627 2.58353162 42 15 31325 9.98200000 3215986306 3215986306 15.00000000
-1.51064920 1.42505789 -0.55646098 4 0 31333 2.15000000 3215986327 3215986327 -15.00000000
-1.77700973 1.67749953 -0.56417722 3 2 31335 2.50800000 3215986331 3215986331 -13.00000000
-2.07685566 1.96124017 -0.55525416 3 4 31336 2.91000000 3215986336 3215986336 -11.00000000
-2.56278229 2.42180872 -0.55847102 3 6 31338 3.57000000 3215986341 3215986341 -9.00000000
-3.17309904 3.00065064 -0.53622514 24 8 31340 4.40000000 3215986345 3215986345 -7.00000000
-4.46806431 4.22671556 -0.53809953 3 10 31341 6.17400000 3215986350 3215986350 -5.00000000
-7.23914146 6.85289955 -0.52241749 4 12 31343 9.98200000 3215986354 3215986354 -3.00000000
-8.13749313 7.70601320 2.58738708 43 13 31344 11.50200000 3215986357 3215986357 13.00000000
-6.98993826 6.62162066 2.57990813 45 15 31345 9.96800000 3215986361 3215986361 15.00000000
-1.49701369 1.42260051 -0.55335510 4 0 31354 2.13800000 3215986382 3215986382 -15.00000000
-1.77084947 1.68400133 -0.56417722 3 2 31356 2.50800000 3215986387 3215986387 -13.00000000
-2.07534337 1.97425163 -0.55678064 3 4 31357 2.91800000 3215986391 3215986391 -11.00000000
-2.55531931 2.43254757 -0.55878389 3 6 31359 3.57200000 3215986396 3215986396 -9.00000000
-3.16351724 3.01362967 -0.53646886 24 8 31361 4.40200000 3215986400 3215986400 -7.00000000
-4.45975447 4.24993610 -0.53897113 3 10 31362 6.18400000 3215986405 3215986405 -5.00000000
-7.23132086 6.89592648 -0.52367359 4 12 31364 10.00600000 3215986410 3215986410 -3.00000000
-8.10919476 7.73578691 2.58738708 42 13 31365 11.50200000 3215986412 3215986412 13.00000000
-6.95444107 6.63652563 2.57576704 45 15 31366 9.95200000 3215986417 3215986417 15.00000000
-1.49762166 1.43316007 -0.55542564 4 0 31374 2.14600000 3215986437 3215986437 -15.00000000
-1.74807084 1.67399859 -0.55877841 3 2 31376 2.48400000 3215986442 3215986442 -13.00000000
-2.07411003 1.98691642 -0.55830711 3 4 31377 2.92600000 3215986447 3215986447 -11.00000000
-2.53968263 2.43461752 -0.55721956 1 6 31379 3.56200000 3215986451 3215986451 -9.00000000
-3.14151812 3.01366043 -0.53451896 58 8 31381 4.38600000 3215986456 3215986456 -7.00000000
-4.46214247 4.28203201 -0.54106283 3 10 31382 6.20800000 3215986460 3215986460 -5.00000000
-7.23601675 6.94879436 -0.52576703 4 12 31384 10.04600000 3215986465 3215986465 -3.00000000
-8.07933140 7.76134586 2.58648729 42 13 31385 11.49800000 3215986467 3215986467 13.00000000
-6.92867756 6.66063166 2.57524943 45 15 31387 9.95000000 3215986472 3215986472 15.00000000
-1.49817419 1.44374108 -0.55749625 4 0 31394 2.15400000 3215986493 3215986493 -15.00000000
-1.74502230 1.68279576 -0.55967820 3 2 31396 2.48800000 3215986497 3215986497 -13.00000000
-2.08129144 2.00777483 -0.56212330 3 4 31397 2.94600000 3215986502 3215986502 -11.00000000
-2.52832651 2.44072390 -0.55659384 3 6 31399 3.55800000 3215986506 3215986506 -9.00000000
-3.10813594 3.00254059 -0.53061914 34 8 31401 4.35400000 3215986511 3215986511 -7.00000000
-4.44860125 4.29896641 -0.54123718 7 10 31402 6.21000000 3215986516 3215986516 -5.00000000
-7.19448805 6.95734978 -0.52451098 4 12 31404 10.02200000 3215986520 3215986520 -3.00000000
-8.04098511 7.77866125 2.58288789 42 13 31405 11.48200000 3215986523 3215986523 13.00000000
-6.90932894 6.68625832 2.57628489 45 15 31406 9.95400000 3215986527 3215986527 15.00000000
-1.50283003 1.45837939 -0.56111968 4 0 31414 2.16800000 3215986548 3215986548 -15.00000000
-1.74472976 1.69430721 -0.56147784 3 2 31416 2.49600000 3215986552 3215986552 -13.00000000
-2.06018829 2.00134778 -0.55830711 3 4 31417 2.92600000 3215986557 3215986557 -11.00000000
-2.52120781 2.45091128 -0.55690670 1 6 31419 3.56000000 3215986562 3215986562 -9.00000000
-3.08767605 3.00368237 -0.52891296 34 8 31421 4.34000000 3215986566 3215986566 -7.00000000
-4.43213987 4.31307888 -0.54106283 3 10 31422 6.20800000 3215986571 3215986571 -5.00000000
-7.19448376 7.00610876 -0.52629036 4 12 31424 10.05600000 3215986576 3215986576 -3.00000000
-7.99982452 7.79308414 2.57838893 43 13 31425 11.46200000 3215986578 3215986578 13.00000000
-6.89563227 6.71977329 2.57990813 45 15 31426 9.96800000 3215986582 3215986582 15.00000000
-1.49383986 1.45930517 -0.55956680 4 0 31433 2.16200000 3215986603 3215986603 -15.00000000
-1.74188864 1.70280814 -0.56237763 3 2 31435 2.50000000 3215986608 3215986608 -13.00000000
-2.05073309 2.00542331 -0.55754387 3 4 31436 2.92200000 3215986612 3215986612 -11.00000000
-2.51165462 2.45787692 -0.55659384 1 6 31438 3.55800000 3215986617 3215986617 -9.00000000
-3.08337164 3.01946068 -0.52988791 34 8 31440 4.34800000 3215986622 3215986622 -7.00000000
-4.43346882 4.34308958 -0.54298025 3 10 31441 6.23000000 3215986626 3215986626 -5.00000000
-7.19260502 7.05090046 -0.52786046 4 12 31443 10.08600000 3215986631 3215986631 -3.00000000
-7.97950315 7.82502747 2.58018851 42 13 31444 11.47000000 3215986633 3215986633 13.00000000
-6.86386061 6.73568439 2.57680249 45 15 31446 9.95600000 3215986638 3215986638 15.00000000
-1.48598254 1.46180117 -0.55853152 4 0 31453 2.15800000 3215986658 3215986658 -15.00000000
-1.74704409 1.71981490 -0.56597686 3 2 31455 2.51600000 3215986663 3215986663 -13.00000000
-2.05211329 2.02083468 -0.55983359 2 4 31456 2.93400000 3215986668 3215986668 -11.00000000
-2.50728059 2.47078872 -0.55753243 1 6 31458 3.56400000 3215986672 3215986672 -9.00000000
-3.06715918 3.02462983 -0.52891296 32 8 31460 4.34000000 3215986677 3215986677 -7.00000000
-4.41686344 4.35713959 -0.54280597 7 10 31461 6.22800000 3215986682 3215986682 -5.00000000
-7.18216228 7.08999538 -0.52890718 4 12 31463 10.10600000 3215986686 3215986686 -3.00000000
-7.95214033 7.85283327 2.58018851 42 13 31464 11.47000000 3215986688 3215986688 13.00000000
-6.83206224 6.75145531 2.57369661 45 15 31466 9.94400000 3215986693 3215986693 15.00000000
-1.48361576 1.46969843 -0.55956680 4 0 31473 2.16200000 3215986714 3215986714 -15.00000000
-1.73272634 1.71767104 -0.56327742 3 2 31475 2.50400000 3215986718 3215986718 -13.00000000
-2.03947067 2.02245593 -0.55830711 2 4 31476 2.92600000 3215986723 3215986723 -11.00000000
-2.49864078 2.47952580 -0.55753243 1 6 31478 3.56400000 3215986728 3215986728 -9.00000000
-3.06221676 3.04091287 -0.52988791 24 8 31480 4.34800000 3215986732 3215986732 -7.00000000
-4.40304041 4.37393475 -0.54298025 3 10 31481 6.23000000 3215986737 3215986737 -5.00000000
-7.15453720 7.11220646 -0.52869785 4 12 31483 10.10200000 3215986741 3215986741 -3.00000000
-7.92468023 7.88054371 2.58018851 45 13 31484 11.47000000 3215986744 3215986744 13.00000000
-6.80434561 6.77117443 2.57214355 45 15 31486 9.93800000 3215986748 3215986748 15.00000000
-1.47984409 1.47623265 -0.56008440 4 0 31493 2.16400000 3215986769 3215986769 -15.00000000
