# .PCD v0.7 - Point Cloud Data file format
VERSION 0.7
FIELDS x y z intensity laser_id azimuth distance_m adjustedtime timestamp vertical_angle
SIZE 4 4 4 1 1 2 8 8 4 8
TYPE F F F U U U F U U F
COUNT 1 1 1 1 1 1 1 1 1 1
WIDTH 536
HEIGHT 1
VIEWPOINT 0 0 0 1 0 0 0
POINTS 536
DATA ascii
1.05743778 10.37426090 -1.65163505 7 6 582 10.55800000 3217700796 3217700796 -9.00000000
0.55040854 5.38130140 -0.66418791 2 8 584 5.45000000 3217700800 3217700800 -7.00000000
1.17376316 11.45603657 -1.00752044 4 10 585 11.56000000 3217700805 3217700805 -5.00000000
1.08560741 10.57742119 2.06684303 46 11 586 10.83200000 3217700807 3217700807 11.00000000
1.05768895 10.27010441 2.38358140 51 13 588 10.59600000 3217700812 3217700812 13.00000000
1.06625342 10.33556366 -0.18136540 6 14 589 10.39200000 3217700814 3217700814 -1.00000000
0.90974420 8.81846523 2.37544131 42 15 589 9.17800000 3217700816 3217700816 15.00000000
0.23207124 2.21918726 -0.59787202 3 0 597 2.31000000 3217700837 3217700837 -15.00000000
1.08748710 10.38160706 0.18220313 58 1 598 10.44000000 3217700840 3217700840 1.00000000
0.27941740 2.66294980 -0.61816549 3 2 599 2.74800000 3217700842 3217700842 -13.00000000
0.33265507 3.16500163 -0.61860275 2 4 600 3.24200000 3217700846 3217700846 -11.00000000
1.09198689 10.35479069 -1.64913213 5 6 602 10.54200000 3217700851 3217700851 -9.00000000
1.09221709 10.32242489 -1.27450955 18 8 604 10.45800000 3217700856 3217700856 -7.00000000
1.20996523 11.41620636 -1.00438273 4 10 605 11.52400000 3217700860 3217700860 -5.00000000
1.12273014 10.57551956 2.06722474 50 11 606 10.83400000 3217700863 3217700863 11.00000000
1.09270632 10.25859928 2.38178182 51 13 608 10.58800000 3217700867 3217700867 13.00000000
1.10211265 10.32979012 -0.18133050 6 14 609 10.39000000 3217700869 3217700869 -1.00000000
0.94041711 8.79970455 2.37129998 45 15 610 9.16200000 3217700872 3217700872 15.00000000
0.24049060 2.23189235 -0.60149544 4 0 615 2.32400000 3217700893 3217700893 -15.00000000
1.11945283 10.37217522 0.18209840 29 1 616 10.43400000 3217700895 3217700895 1.00000000
0.28610632 2.64655924 -0.61456627 3 2 617 2.73200000 3217700897 3217700897 -13.00000000
0.34428737 3.17955565 -0.62165570 2 4 618 3.25800000 3217700902 3217700902 -11.00000000
0.43627909 4.01601744 -0.63981694 2 6 620 4.09000000 3217700906 3217700906 -9.00000000
1.23760808 11.33708572 -0.99775892 4 10 623 11.44800000 3217700916 3217700916 -5.00000000
1.15445483 10.55827904 2.06455326 50 11 624 10.82000000 3217700918 3217700918 11.00000000
1.12662911 10.27061272 2.38538098 59 13 626 10.60400000 3217700922 3217700922 13.00000000
1.13499594 10.33025265 -0.18140031 8 14 627 10.39400000 3217700925 3217700925 -1.00000000
0.96757710 8.80647659 2.37388825 45 15 627 9.17200000 3217700927 3217700927 15.00000000
0.24913457 2.23871922 -0.60356599 4 0 635 2.33200000 3217700948 3217700948 -15.00000000
0.29620764 2.65329123 -0.61636591 3 2 637 2.74000000 3217700952 3217700952 -13.00000000
0.35538396 3.17833447 -0.62165570 2 4 638 3.25800000 3217700957 3217700957 -11.00000000
0.45337766 4.04195261 -0.64419711 2 6 640 4.11800000 3217700962 3217700962 -9.00000000
1.26646435 11.23766327 -0.98939198 4 10 643 11.35200000 3217700971 3217700971 -5.00000000
1.19240403 10.56393909 2.06646132 50 11 644 10.83000000 3217700973 3217700973 11.00000000
1.16203487 10.26274490 2.38448119 57 13 646 10.60000000 3217700978 3217700978 13.00000000
1.17172432 10.33218861 -0.18150502 8 14 647 10.40000000 3217700980 3217700980 -1.00000000
0.99852926 8.80496502 2.37440586 42 15 647 9.17400000 3217700982 3217700982 15.00000000
0.25782910 2.24551296 -0.60563654 4 0 655 2.34000000 3217701003 3217701003 -15.00000000
1.20280206 10.45946407 0.18377385 3 1 656 10.53000000 3217701005 3217701005 1.00000000
0.30546755 2.65224099 -0.61636591 3 2 657 2.74000000 3217701008 3217701008 -13.00000000
0.36467651 3.16147208 -0.61860275 2 4 658 3.24200000 3217701012 3217701012 -11.00000000
0.46385124 4.00894928 -0.63919121 2 6 660 4.08600000 3217701017 3217701017 -9.00000000
1.19711006 10.31478310 -1.27499712 164 8 662 10.46200000 3217701021 3217701021 -7.00000000
1.30430317 11.22129917 -0.98834610 4 10 663 11.34000000 3217701026 3217701026 -5.00000000
1.22972584 10.56361294 2.06722474 50 11 664 10.83400000 3217701028 3217701028 11.00000000
1.19649541 10.24701214 2.38178182 62 13 666 10.58800000 3217701033 3217701033 13.00000000
1.20894456 10.33796597 -0.18167955 8 14 667 10.41000000 3217701035 3217701035 -1.00000000
1.03082895 8.81485748 2.37802935 45 15 667 9.18800000 3217701038 3217701038 15.00000000
0.26566583 2.24459934 -0.60563654 4 0 675 2.34000000 3217701058 3217701058 -15.00000000
1.23883426 10.45123005 0.18370403 3 1 676 10.52600000 3217701061 3217701061 1.00000000
0.31472373 2.65115857 -0.61636591 3 2 677 2.74000000 3217701063 3217701063 -13.00000000
0.37663698 3.16797805 -0.62012923 2 4 678 3.25000000 3217701068 3217701068 -11.00000000
0.47831005 4.01122856 -0.63981694 2 6 680 4.09000000 3217701072 3217701072 -9.00000000
1.23570108 10.33222294 -1.27767825 182 8 682 10.48400000 3217701077 3217701077 -7.00000000
1.34299099 11.21272182 -0.98799747 4 10 683 11.33600000 3217701081 3217701081 -5.00000000
1.26729369 10.56510353 2.06836963 46 11 684 10.84000000 3217701084 3217701084 11.00000000
1.23225689 10.24277306 2.38178182 56 13 686 10.58800000 3217701088 3217701088 13.00000000
1.24550188 10.33765411 -0.18174936 8 14 687 10.41400000 3217701091 3217701091 -1.00000000
1.06266725 8.80718422 2.37699413 45 15 688 9.18400000 3217701093 3217701093 15.00000000
0.27061358 2.21676397 -0.59838963 4 0 696 2.31200000 3217701114 3217701114 -15.00000000
1.28101432 10.47837830 0.18426251 3 1 697 10.55800000 3217701116 3217701116 1.00000000
0.32443860 2.64998722 -0.61636591 3 2 698 2.74000000 3217701118 3217701118 -13.00000000
0.39015704 3.18216562 -0.62318218 2 4 699 3.26600000 3217701123 3217701123 -11.00000000
0.49493736 4.02513313 -0.64231992 2 6 701 4.10600000 3217701127 3217701127 -9.00000000
1.27599180 10.34732628 -1.28011560 189 8 703 10.50400000 3217701132 3217701132 -7.00000000
0.99630219 8.06766319 -0.71119088 4 10 704 8.16000000 3217701137 3217701137 -5.00000000
1.30576718 10.55843925 2.06798792 53 11 705 10.83800000 3217701139 3217701139 11.00000000
1.41323102 11.41104126 -0.60259622 4 12 706 11.51400000 3217701141 3217701141 -3.00000000
1.27074957 10.24592400 2.38358140 59 13 707 10.59600000 3217701144 3217701144 13.00000000
1.28486180 10.34492588 -0.18195879 8 14 708 10.42600000 3217701146 3217701146 -1.00000000
1.09149861 8.78808403 2.37285304 45 15 708 9.16800000 3217701148 3217701148 15.00000000
0.27931303 2.22347283 -0.60046017 4 0 716 2.32000000 3217701169 3217701169 -15.00000000
1.32207549 10.50955582 0.18489079 3 1 717 10.59400000 3217701171 3217701171 1.00000000
0.33368680 2.64883876 -0.61636591 3 2 718 2.74000000 3217701173 3217701173 -13.00000000
0.40175393 3.18467999 -0.62394542 2 4 719 3.27000000 3217701178 3217701178 -11.00000000
0.50650543 4.00378370 -0.63919121 2 6 721 4.08600000 3217701183 3217701183 -9.00000000
1.31460130 10.36250210 -1.28255296 175 8 723 10.52400000 3217701187 3217701187 -7.00000000
1.02094221 8.03646564 -0.70875049 4 10 724 8.13200000 3217701192 3217701192 -5.00000000
1.34261513 10.55381680 2.06798792 53 11 725 10.83800000 3217701194 3217701194 11.00000000
1.40307951 11.01375103 -0.58187115 4 12 726 11.11800000 3217701197 3217701197 -3.00000000
1.30700004 10.24529171 2.38448119 56 13 727 10.60000000 3217701199 3217701199 13.00000000
1.32223141 10.35029602 -0.18213332 10 14 728 10.43600000 3217701201 3217701201 -1.00000000
1.12241292 8.78613663 2.37337065 42 15 728 9.17000000 3217701203 3217701203 15.00000000
0.28855756 2.23397994 -0.60356599 4 0 736 2.33200000 3217701224 3217701224 -15.00000000
1.35977864 10.51280975 0.18503042 3 1 737 10.60200000 3217701226 3217701226 1.00000000
0.34192967 2.63992739 -0.61456627 3 2 738 2.73200000 3217701229 3217701229 -13.00000000
0.41185802 3.17547035 -0.62241894 2 4 739 3.26200000 3217701233 3217701233 -11.00000000
0.52200675 4.01374435 -0.64106846 2 6 741 4.09800000 3217701238 3217701238 -9.00000000
1.35256207 10.37162971 -1.28425920 162 8 743 10.53800000 3217701243 3217701243 -7.00000000
1.04434466 7.99729156 -0.70561290 4 10 744 8.09600000 3217701247 3217701247 -5.00000000
1.37893748 10.54517269 2.06722474 53 11 745 10.83400000 3217701250 3217701250 11.00000000
1.43581128 10.96521854 -0.57956839 4 12 746 11.07400000 3217701252 3217701252 -3.00000000
1.34123468 10.22907352 2.38178182 60 13 747 10.58800000 3217701254 3217701254 13.00000000
1.35991454 10.35751343 -0.18234274 8 14 748 10.44800000 3217701256 3217701256 -1.00000000
1.15511191 8.78579426 2.37440586 45 15 749 9.17400000 3217701259 3217701259 15.00000000
0.29660803 2.23487425 -0.60408366 4 0 756 2.33400000 3217701279 3217701279 -15.00000000
1.40305281 10.55755615 0.18590303 3 1 757 10.65200000 3217701282 3217701282 1.00000000
0.35371327 2.65803480 -0.61906528 3 2 758 2.75200000 3217701284 3217701284 -13.00000000
0.42242134 3.17012119 -0.62165570 2 4 759 3.25800000 3217701289 3217701289 -11.00000000
0.53706056 4.01972961 -0.64231992 2 6 761 4.10600000 3217701293 3217701293 -9.00000000
1.08549833 8.09233284 -0.71432847 4 10 764 8.19600000 3217701303 3217701303 -5.00000000
1.41730678 10.55196953 2.06951427 56 11 765 10.84600000 3217701305 3217701305 11.00000000
1.47487700 10.96607876 -0.57988238 4 12 766 11.08000000 3217701307 3217701307 -3.00000000
1.37485194 10.20887947 2.37818265 60 13 767 10.57200000 3217701309 3217701309 13.00000000
1.39819872 10.36855793 -0.18262199 6 14 768 10.46400000 3217701312 3217701312 -1.00000000
1.18706548 8.79128170 2.37699413 45 15 769 9.18400000 3217701314 3217701314 15.00000000
0.30414653 2.23191094 -0.60356599 4 0 776 2.33200000 3217701335 3217701335 -15.00000000
0.36193419 2.64906073 -0.61726570 3 2 778 2.74400000 3217701339 3217701339 -13.00000000
0.43348455 3.16862726 -0.62165570 4 4 779 3.25800000 3217701344 3217701344 -11.00000000
0.55216247 4.02565861 -0.64357138 2 6 781 4.11400000 3217701349 3217701349 -9.00000000
1.11373925 8.08849430 -0.71432847 4 10 784 8.19600000 3217701358 3217701358 -5.00000000
1.45466769 10.55084801 2.07027769 53 11 785 10.85000000 3217701360 3217701360 11.00000000
1.51560497 10.97867012 -0.58082443 4 12 786 11.09800000 3217701362 3217701362 -3.00000000
1.41154647 10.21173954 2.37998223 59 13 787 10.58000000 3217701365 3217701365 13.00000000
1.43739891 10.38540268 -0.18300593 2 14 788 10.48600000 3217701367 3217701367 -1.00000000
1.21641970 8.77751637 2.37440586 42 15 789 9.17400000 3217701369 3217701369 15.00000000
0.31140044 2.22700930 -0.60253072 4 0 796 2.32800000 3217701390 3217701390 -15.00000000
0.37171999 2.65164089 -0.61816549 3 2 798 2.74800000 3217701395 3217701395 -13.00000000
0.44399670 3.16320658 -0.62089247 4 4 799 3.25400000 3217701399 3217701399 -11.00000000
0.56511021 4.01588249 -0.64231992 2 6 801 4.10600000 3217701404 3217701404 -9.00000000
1.12803328 7.98591661 -0.70561290 4 10 804 8.09600000 3217701413 3217701413 -5.00000000
1.49203801 10.54959393 2.07104087 53 11 805 10.85400000 3217701415 3217701415 11.00000000
1.55615866 10.98913288 -0.58166182 4 12 806 11.11400000 3217701418 3217701418 -3.00000000
1.44773066 10.21060848 2.38088202 57 13 807 10.58400000 3217701420 3217701420 13.00000000
1.24650776 8.76939201 2.37337065 42 15 809 9.17000000 3217701425 3217701425 15.00000000
0.31812173 2.22410774 -0.60201311 3 0 814 2.32600000 3217701445 3217701445 -15.00000000
0.37894213 2.64274406 -0.61636591 3 2 816 2.74000000 3217701450 3217701450 -13.00000000
0.45560601 3.17345595 -0.62318218 2 4 817 3.26600000 3217701455 3217701455 -11.00000000
0.57659805 4.00626612 -0.64106846 2 6 819 4.09800000 3217701459 3217701459 -9.00000000
0.77303499 5.35786724 -0.66467541 2 8 821 5.45400000 3217701464 3217701464 -7.00000000
1.16109228 8.03754711 -0.71049362 4 10 822 8.15200000 3217701468 3217701468 -5.00000000
1.52404892 10.53708172 2.06951427 53 11 823 10.84600000 3217701471 3217701471 11.00000000
1.47924185 10.20215321 2.37998223 56 13 825 10.58000000 3217701475 3217701475 13.00000000
1.27141142 8.75800705 2.37129998 42 15 826 9.16200000 3217701480 3217701480 15.00000000
0.32784483 2.23636365 -0.60563654 4 0 834 2.34000000 3217701501 3217701501 -15.00000000
0.38929805 2.64911723 -0.61816549 3 2 836 2.74800000 3217701505 3217701505 -13.00000000
0.46725222 3.17573094 -0.62394542 2 4 837 3.27000000 3217701510 3217701510 -11.00000000
0.59288484 4.01986313 -0.64357138 2 6 839 4.11400000 3217701514 3217701514 -9.00000000
0.78999078 5.34335375 -0.66321295 2 8 841 5.44200000 3217701519 3217701519 -7.00000000
1.19030845 8.04132938 -0.71119088 4 10 842 8.16000000 3217701524 3217701524 -5.00000000
1.56139660 10.53558254 2.07027769 56 11 843 10.85000000 3217701526 3217701526 11.00000000
1.51255405 10.18150711 2.37638283 59 13 845 10.56400000 3217701531 3217701531 13.00000000
1.30606341 8.77048588 2.37595892 45 15 847 9.18000000 3217701535 3217701535 15.00000000
0.33489046 2.22750545 -0.60356599 4 0 855 2.33200000 3217701556 3217701556 -15.00000000
0.40016651 2.65538049 -0.61996508 3 2 857 2.75600000 3217701561 3217701561 -13.00000000
0.47713134 3.16234946 -0.62165570 2 4 858 3.25800000 3217701565 3217701565 -11.00000000
0.60643286 4.00985050 -0.64231992 2 6 860 4.10600000 3217701570 3217701570 -9.00000000
0.81433022 5.37182474 -0.66711277 2 8 862 5.47400000 3217701574 3217701574 -7.00000000
1.21499002 8.00539494 -0.70840186 4 10 863 8.12800000 3217701579 3217701579 -5.00000000
1.60118067 10.53755283 2.07180405 56 11 864 10.85800000 3217701581 3217701581 11.00000000
1.54868734 10.16818810 2.37458324 59 13 866 10.55600000 3217701586 3217701586 13.00000000
1.33637893 8.76396370 2.37544131 45 15 867 9.17800000 3217701591 3217701591 15.00000000
0.34266385 2.22632289 -0.60356599 4 0 875 2.33200000 3217701611 3217701611 -15.00000000
0.40943310 2.65396762 -0.61996508 3 2 877 2.75600000 3217701616 3217701616 -13.00000000
0.48876643 3.16454506 -0.62241894 4 4 878 3.26200000 3217701620 3217701620 -11.00000000
0.61861295 3.99599648 -0.64044273 2 6 880 4.09400000 3217701625 3217701625 -9.00000000
0.83307648 5.36894941 -0.66711277 2 8 882 5.47400000 3217701630 3217701630 -7.00000000
1.24415004 8.00898075 -0.70909911 4 10 883 8.13600000 3217701634 3217701634 -5.00000000
1.63855720 10.53577900 2.07256722 56 11 884 10.86200000 3217701637 3217701637 11.00000000
1.58477175 10.16657162 2.37548304 59 13 886 10.56000000 3217701641 3217701641 13.00000000
1.36759686 8.75328064 2.37388825 45 15 888 9.17200000 3217701646 3217701646 15.00000000
0.34974453 2.22326589 -0.60304838 3 0 894 2.33000000 3217701667 3217701667 -15.00000000
0.41944572 2.66029501 -0.62176472 3 2 896 2.76400000 3217701671 3217701671 -13.00000000
0.50048214 3.17066383 -0.62394542 2 4 897 3.27000000 3217701676 3217701676 -11.00000000
0.63433015 4.00953197 -0.64294565 2 6 899 4.11000000 3217701680 3217701680 -9.00000000
0.85087597 5.36615753 -0.66711277 2 8 901 5.47400000 3217701685 3217701685 -7.00000000
1.27320087 8.02055264 -0.71049362 4 10 902 8.15200000 3217701690 3217701690 -5.00000000
1.67471862 10.53804302 2.07409382 56 11 903 10.87000000 3217701692 3217701692 11.00000000
1.61908972 10.16510963 2.37638283 57 13 905 10.56400000 3217701697 3217701697 13.00000000
1.39387250 8.74131012 2.37181783 45 15 906 9.16400000 3217701701 3217701701 15.00000000
0.35688931 2.21821690 -0.60201311 4 0 914 2.32600000 3217701722 3217701722 -15.00000000
0.42748845 2.65111923 -0.61996508 3 2 916 2.75600000 3217701726 3217701726 -13.00000000
0.51154679 3.16889763 -0.62394542 2 4 917 3.27000000 3217701731 3217701731 -11.00000000
0.64579827 3.99169302 -0.64044273 2 6 919 4.09400000 3217701736 3217701736 -9.00000000
0.86960214 5.36315489 -0.66711277 2 8 921 5.47400000 3217701740 3217701740 -7.00000000
1.30310535 8.02785969 -0.71153951 4 10 922 8.16400000 3217701745 3217701745 -5.00000000
1.70960367 10.52050591 2.07180405 56 11 923 10.85800000 3217701747 3217701747 11.00000000
1.65581560 10.16708946 2.37818265 59 13 925 10.57200000 3217701752 3217701752 13.00000000
1.42621291 8.73804855 2.37233543 42 15 927 9.16600000 3217701756 3217701756 15.00000000
0.36706194 2.23417783 -0.60667187 4 0 933 2.34400000 3217701777 3217701777 -15.00000000
0.43437791 2.63814998 -0.61726570 3 2 935 2.74400000 3217701782 3217701782 -13.00000000
0.52396822 3.17880654 -0.62623513 2 4 936 3.28200000 3217701786 3217701786 -11.00000000
0.66160727 4.00512123 -0.64294565 2 6 938 4.11000000 3217701791 3217701791 -9.00000000
0.88738221 5.36024141 -0.66711277 2 8 940 5.47400000 3217701796 3217701796 -7.00000000
1.33493161 8.05494308 -0.71432847 4 10 941 8.19600000 3217701800 3217701800 -5.00000000
1.74512422 10.51865292 2.07256722 56 11 942 10.86200000 3217701802 3217701802 11.00000000
1.68568635 10.13847446 2.37278366 59 13 944 10.54800000 3217701807 3217701807 13.00000000
1.45492589 8.74114799 2.37440586 42 15 945 9.17400000 3217701812 3217701812 15.00000000
0.37549815 2.23669338 -0.60770714 4 0 953 2.34800000 3217701832 3217701832 -15.00000000
0.44423074 2.64046097 -0.61816549 3 2 955 2.74800000 3217701837 3217701837 -13.00000000
0.53245264 3.16147017 -0.62318218 2 4 956 3.26600000 3217701842 3217701842 -11.00000000
0.67558372 4.00278759 -0.64294565 2 6 958 4.11000000 3217701846 3217701846 -9.00000000
0.90939808 5.37668419 -0.66955018 2 8 960 5.49400000 3217701851 3217701851 -7.00000000
1.37967098 8.14845562 -0.72304404 4 10 961 8.29600000 3217701855 3217701855 -5.00000000
1.78445518 10.52798176 2.07562017 53 11 962 10.87800000 3217701858 3217701858 11.00000000
1.71812904 10.11523724 2.36873460 54 13 964 10.53000000 3217701862 3217701862 13.00000000
1.48857486 8.74527836 2.37699413 45 15 966 9.18400000 3217701867 3217701867 15.00000000
0.38107890 2.22007012 -0.60356599 4 0 974 2.33200000 3217701888 3217701888 -15.00000000
0.45456624 2.64265609 -0.61906528 3 2 976 2.75200000 3217701892 3217701892 -13.00000000
0.54536909 3.16723657 -0.62470865 2 4 977 3.27400000 3217701897 3217701897 -11.00000000
0.69226545 4.01196432 -0.64482284 2 6 979 4.12200000 3217701902 3217701902 -9.00000000
0.92977494 5.37722731 -0.67003763 2 8 981 5.49800000 3217701906 3217701906 -7.00000000
1.38370192 7.99414110 -0.70979637 4 10 982 8.14400000 3217701911 3217701911 -5.00000000
1.82437086 10.52910900 2.07714677 59 11 983 10.88600000 3217701913 3217701913 11.00000000
1.75552499 10.11079216 2.36918449 56 13 985 10.53200000 3217701918 3217701918 13.00000000
1.51677680 8.72670650 2.37337065 45 15 986 9.17000000 3217701922 3217701922 15.00000000
0.38882607 2.21872640 -0.60356599 4 0 994 2.33200000 3217701943 3217701943 -15.00000000
0.46412513 2.64297271 -0.61951518 3 2 996 2.75400000 3217701948 3217701948 -13.00000000
0.55574167 3.16144633 -0.62394542 2 4 997 3.27000000 3217701952 3217701952 -11.00000000
0.70558023 4.00563240 -0.64419711 2 6 999 4.11800000 3217701957 3217701957 -9.00000000
1.41021156 7.98141432 -0.70909911 4 10 1002 8.13600000 3217701966 3217701966 -5.00000000
1.86179709 10.52654266 2.07790995 56 11 1003 10.89000000 3217701968 3217701968 11.00000000
1.79216790 10.11227798 2.37098408 56 13 1005 10.54000000 3217701973 3217701973 13.00000000
1.54807603 8.71728420 2.37233543 42 15 1007 9.16600000 3217701978 3217701978 15.00000000
0.39690861 2.21925712 -0.60408366 3 0 1014 2.33400000 3217701998 3217701998 -15.00000000
0.47231674 2.63558197 -0.61816549 3 2 1016 2.74800000 3217702003 3217702003 -13.00000000
0.56816036 3.16721678 -0.62547189 2 4 1017 3.27800000 3217702008 3217702008 -11.00000000
0.71606350 3.98370290 -0.64106846 2 6 1019 4.09800000 3217702012 3217702012 -9.00000000
1.43735635 7.97252178 -0.70875049 4 10 1022 8.13200000 3217702021 3217702021 -5.00000000
1.89713550 10.51225185 2.07638359 59 11 1023 10.88200000 3217702024 3217702024 11.00000000
1.82814896 10.10979557 2.37188387 59 13 1025 10.54400000 3217702028 3217702028 13.00000000
1.57869554 8.72160721 2.37492347 45 15 1026 9.17600000 3217702033 3217702033 15.00000000
0.40430608 2.21595764 -0.60356599 4 0 1034 2.33200000 3217702054 3217702054 -15.00000000
0.48151374 2.63391733 -0.61816549 3 2 1036 2.74800000 3217702058 3217702058 -13.00000000
0.58486688 3.19611335 -0.63157779 2 4 1037 3.31000000 3217702063 3217702063 -11.00000000
0.73138988 3.98895097 -0.64231992 2 6 1039 4.10600000 3217702067 3217702067 -9.00000000
0.97814196 5.32424259 -0.66467541 2 8 1041 5.45400000 3217702072 3217702072 -7.00000000
1.46589756 7.97137499 -0.70909911 4 10 1042 8.13600000 3217702077 3217702077 -5.00000000
1.93630648 10.51908112 2.07905483 59 11 1043 10.89600000 3217702079 3217702079 11.00000000
1.86201370 10.09568691 2.37008429 57 13 1045 10.53600000 3217702084 3217702084 13.00000000
1.60807788 8.71034431 2.37337065 42 15 1046 9.17000000 3217702088 3217702088 15.00000000
0.41415903 2.22592854 -0.60667187 4 0 1054 2.34400000 3217702109 3217702109 -15.00000000
0.49141917 2.63605189 -0.61906528 3 2 1056 2.75200000 3217702114 3217702114 -13.00000000
0.58953744 3.15931344 -0.62470865 2 4 1057 3.27400000 3217702118 3217702118 -11.00000000
0.74530947 3.98637366 -0.64231992 2 6 1059 4.10600000 3217702123 3217702123 -9.00000000
1.00037611 5.34030771 -0.66711277 2 8 1061 5.47400000 3217702127 3217702127 -7.00000000
1.49812007 7.98970842 -0.71119088 4 10 1062 8.16000000 3217702132 3217702132 -5.00000000
1.97482395 10.52190590 2.08096290 59 11 1063 10.90600000 3217702134 3217702134 11.00000000
1.89508200 10.07763481 2.36738491 57 13 1065 10.52400000 3217702139 3217702139 13.00000000
1.63990223 8.71227169 2.37544131 45 15 1066 9.17800000 3217702143 3217702143 15.00000000
0.42012644 2.21497917 -0.60408366 4 0 1074 2.33400000 3217702164 3217702164 -15.00000000
0.50207299 2.64197826 -0.62086493 3 2 1076 2.76000000 3217702169 3217702169 -13.00000000
0.59762698 3.14180684 -0.62165570 2 4 1077 3.25800000 3217702173 3217702173 -11.00000000
0.75995958 3.98762870 -0.64294565 2 6 1079 4.11000000 3217702178 3217702178 -9.00000000
1.02273428 5.35628176 -0.66955018 2 8 1081 5.49400000 3217702183 3217702183 -7.00000000
1.52450418 7.97660255 -0.71049362 4 10 1082 8.15200000 3217702187 3217702187 -5.00000000
2.01154017 10.51494789 2.08096290 59 11 1083 10.90600000 3217702190 3217702190 11.00000000
1.93171537 10.07861423 2.36918449 59 13 1085 10.53200000 3217702194 3217702194 13.00000000
1.67036605 8.69861412 2.37337065 42 15 1087 9.17000000 3217702199 3217702199 15.00000000
0.42637035 2.20788336 -0.60253072 4 0 1093 2.32800000 3217702220 3217702220 -15.00000000
0.51157171 2.64412546 -0.62176472 3 2 1095 2.76400000 3217702224 3217702224 -13.00000000
0.61326796 3.16679192 -0.62699836 2 4 1096 3.28600000 3217702229 3217702229 -11.00000000
0.77242637 3.98120809 -0.64231992 2 6 1098 4.10600000 3217702233 3217702233 -9.00000000
1.03821802 5.34116888 -0.66808772 2 8 1100 5.48200000 3217702238 3217702238 -7.00000000
1.55475223 7.99106073 -0.71223670 4 10 1101 8.17200000 3217702243 3217702243 -5.00000000
2.04714847 10.51207352 2.08172607 53 11 1102 10.91000000 3217702245 3217702245 11.00000000
1.95803630 10.03581238 2.36063647 53 13 1104 10.49400000 3217702249 3217702249 13.00000000
1.69546366 8.68194771 2.37026477 42 15 1105 9.15800000 3217702254 3217702254 15.00000000
0.43705803 2.22154570 -0.60667187 4 0 1113 2.34400000 3217702275 3217702275 -15.00000000
0.52192885 2.64805937 -0.62311441 3 2 1115 2.77000000 3217702279 3217702279 -13.00000000
0.62583834 3.17233658 -0.62852484 2 4 1116 3.29400000 3217702284 3217702284 -11.00000000
0.78861672 3.99011493 -0.64419711 2 6 1118 4.11800000 3217702289 3217702289 -9.00000000
1.05685592 5.33751249 -0.66808772 2 8 1120 5.48200000 3217702293 3217702293 -7.00000000
1.58186209 7.98167610 -0.71188813 4 10 1121 8.16800000 3217702298 3217702298 -5.00000000
2.08230209 10.49716091 2.08019972 56 11 1122 10.90200000 3217702300 3217702300 11.00000000
2.00103259 10.06905460 2.37008429 59 13 1124 10.53600000 3217702305 3217702305 13.00000000
1.72726655 8.68355560 2.37233543 42 15 1125 9.16600000 3217702309 3217702309 15.00000000
0.44403508 2.22016168 -0.60667187 4 0 1131 2.34400000 3217702330 3217702330 -15.00000000
0.52641690 2.62729907 -0.61861539 3 2 1133 2.75000000 3217702335 3217702335 -13.00000000
0.63116896 3.14725566 -0.62394542 2 4 1134 3.27000000 3217702339 3217702339 -11.00000000
0.80036992 3.98374438 -0.64357138 2 6 1136 4.11400000 3217702344 3217702344 -9.00000000
1.08223605 5.37697935 -0.67344999 2 8 1138 5.52600000 3217702348 3217702348 -7.00000000
1.61558580 8.01963615 -0.71572298 4 10 1139 8.21200000 3217702353 3217702353 -5.00000000
2.11759782 10.50211430 2.08248949 56 11 1140 10.91400000 3217702355 3217702355 11.00000000
2.03226972 10.06080818 2.36963439 54 13 1142 10.53400000 3217702360 3217702360 13.00000000
1.75530386 8.68187332 2.37337065 45 15 1143 9.17000000 3217702365 3217702365 15.00000000
0.45255312 2.22238421 -0.60770714 4 0 1151 2.34800000 3217702385 3217702385 -15.00000000
0.53909028 2.64263034 -0.62266451 3 2 1153 2.76800000 3217702390 3217702390 -13.00000000
0.64529312 3.16042185 -0.62699836 2 4 1154 3.28600000 3217702395 3217702395 -11.00000000
0.81506264 3.98479700 -0.64419711 2 6 1156 4.11800000 3217702399 3217702399 -9.00000000
1.09701383 5.35372210 -0.67101258 2 8 1158 5.50600000 3217702404 3217702404 -7.00000000
1.64036739 7.99833393 -0.71432847 4 10 1159 8.19600000 3217702408 3217702408 -5.00000000
2.15898132 10.51773643 2.08706880 59 11 1160 10.93800000 3217702411 3217702411 11.00000000
2.06462860 10.04029179 2.36648512 57 13 1162 10.52000000 3217702415 3217702415 13.00000000
1.78828204 8.68105793 2.37492347 45 15 1164 9.17600000 3217702420 3217702420 15.00000000
0.45912588 2.21314430 -0.60563654 4 0 1172 2.34000000 3217702441 3217702441 -15.00000000
0.54639333 2.62918878 -0.61996508 3 2 1174 2.75600000 3217702445 3217702445 -13.00000000
0.65367389 3.14265847 -0.62394542 2 4 1175 3.27000000 3217702450 3217702450 -11.00000000
0.83046806 3.98565054 -0.64482284 2 6 1177 4.12200000 3217702454 3217702454 -9.00000000
1.11744010 5.35355186 -0.67150009 2 8 1179 5.51000000 3217702459 3217702459 -7.00000000
2.19912338 10.51743984 2.08859515 56 11 1181 10.94600000 3217702466 3217702466 11.00000000
2.10141420 10.03265667 2.36648512 55 13 1183 10.52000000 3217702471 3217702471 13.00000000
1.81579900 8.66152763 2.37129998 45 15 1184 9.16200000 3217702475 3217702475 15.00000000
0.46684840 2.21152830 -0.60563654 4 0 1192 2.34000000 3217702496 3217702496 -15.00000000
0.55879295 2.64251804 -0.62356430 3 2 1194 2.77200000 3217702500 3217702500 -13.00000000
0.66301382 3.13267469 -0.62241894 2 4 1195 3.26200000 3217702505 3217702505 -11.00000000
0.84765303 3.99818683 -0.64732581 2 6 1197 4.13800000 3217702510 3217702510 -9.00000000
1.13529587 5.34573507 -0.67101258 2 8 1199 5.50600000 3217702514 3217702514 -7.00000000
2.23704839 10.51546001 2.08974004 59 11 1201 10.95200000 3217702521 3217702521 11.00000000
2.13682818 10.02716637 2.36693501 54 13 1203 10.52200000 3217702526 3217702526 13.00000000
1.84360445 8.64379978 2.36819434 42 15 1204 9.15000000 3217702530 3217702530 15.00000000
0.47336897 2.20619011 -0.60460126 4 0 1211 2.33600000 3217702551 3217702551 -15.00000000
0.56427687 2.62540865 -0.61996508 3 2 1213 2.75600000 3217702556 3217702556 -13.00000000
0.68000448 3.16116858 -0.62852484 2 4 1214 3.29400000 3217702560 3217702560 -11.00000000
0.85591370 3.97218132 -0.64357138 2 6 1216 4.11400000 3217702565 3217702565 -9.00000000
1.15301681 5.34194088 -0.67101258 2 8 1218 5.50600000 3217702570 3217702570 -7.00000000
1.73413110 8.02745724 -0.71851194 4 10 1219 8.24400000 3217702574 3217702574 -5.00000000
2.27315116 10.51374054 2.09088492 59 11 1220 10.95800000 3217702577 3217702577 11.00000000
2.17048001 10.02192974 2.36738491 60 13 1222 10.52400000 3217702581 3217702581 13.00000000
1.87540400 8.64486408 2.37026477 42 15 1224 9.15800000 3217702586 3217702586 15.00000000
0.48353836 2.21584892 -0.60770714 4 0 1231 2.34800000 3217702606 3217702606 -15.00000000
0.57468623 2.62913442 -0.62131482 3 2 1233 2.76200000 3217702611 3217702611 -13.00000000
0.68935663 3.15110397 -0.62699836 2 4 1234 3.28600000 3217702616 3217702616 -11.00000000
0.87146533 3.97688770 -0.64482284 2 6 1236 4.12200000 3217702620 3217702620 -9.00000000
1.17250776 5.34176111 -0.67150009 2 8 1238 5.51000000 3217702625 3217702625 -7.00000000
1.77325654 8.07195091 -0.72304404 4 10 1239 8.29600000 3217702630 3217702630 -5.00000000
2.30857253 10.49998951 2.08974004 59 11 1240 10.95200000 3217702632 3217702632 11.00000000
2.20461178 10.01048660 2.36648512 59 13 1242 10.52000000 3217702636 3217702636 13.00000000
1.90640116 8.64203739 2.37129998 42 15 1244 9.16200000 3217702641 3217702641 15.00000000
0.49294400 2.22169161 -0.60977769 4 0 1251 2.35600000 3217702662 3217702662 -15.00000000
0.58090067 2.61379600 -0.61816549 3 2 1253 2.74800000 3217702666 3217702666 -13.00000000
0.69694167 3.13334727 -0.62394542 2 4 1254 3.27000000 3217702671 3217702671 -11.00000000
0.88620108 3.97767758 -0.64544863 2 6 1256 4.12600000 3217702676 3217702676 -9.00000000
1.19028211 5.33376122 -0.67101258 2 8 1258 5.50600000 3217702680 3217702680 -7.00000000
1.80142212 8.06571102 -0.72304404 4 10 1259 8.29600000 3217702685 3217702685 -5.00000000
2.34906459 10.50911140 2.09317470 53 11 1260 10.97000000 3217702687 3217702687 11.00000000
2.23783827 9.99512291 2.36468554 59 13 1262 10.51200000 3217702692 3217702692 13.00000000
1.93740129 8.63910007 2.37233543 42 15 1264 9.16600000 3217702696 3217702696 15.00000000
0.49772087 2.20676565 -0.60615420 3 0 1271 2.34200000 3217702717 3217702717 -15.00000000
0.59345633 2.62695909 -0.62176472 3 2 1273 2.76400000 3217702722 3217702722 -13.00000000
0.71133846 3.14621472 -0.62699836 2 4 1274 3.28600000 3217702726 3217702726 -11.00000000
0.90531594 3.99767923 -0.64920300 2 6 1276 4.15000000 3217702731 3217702731 -9.00000000
1.21240616 5.34506083 -0.67296249 2 8 1278 5.52200000 3217702736 3217702736 -7.00000000
1.82956576 8.05937386 -0.72304404 4 10 1279 8.29600000 3217702740 3217702740 -5.00000000
2.38921356 10.51616287 2.09622765 50 11 1280 10.98600000 3217702742 3217702742 11.00000000
2.27184939 9.98344994 2.36378574 59 13 1282 10.50800000 3217702747 3217702747 13.00000000
1.96411109 8.61721706 2.36819434 45 15 1284 9.15000000 3217702752 3217702752 15.00000000
0.50326282 2.19559979 -0.60356599 4 0 1291 2.33200000 3217702772 3217702772 -15.00000000
0.60175037 2.62107301 -0.62086493 3 2 1293 2.76000000 3217702777 3217702777 -13.00000000
0.71792018 3.12457848 -0.62318218 2 4 1294 3.26600000 3217702782 3217702782 -11.00000000
0.90951848 3.95214343 -0.64231992 2 6 1296 4.10600000 3217702786 3217702786 -9.00000000
1.22927296 5.33305883 -0.67198753 2 8 1298 5.51400000 3217702791 3217702791 -7.00000000
2.42855716 10.51923656 2.09851742 37 11 1300 10.99800000 3217702798 3217702798 11.00000000
2.30931854 9.98685074 2.36648512 57 13 1302 10.52000000 3217702802 3217702802 13.00000000
1.99093378 8.60312748 2.36612368 42 15 1303 9.14200000 3217702807 3217702807 15.00000000
0.51267654 2.20135570 -0.60563654 4 0 1311 2.34000000 3217702828 3217702828 -15.00000000
0.61001062 2.61516094 -0.61996508 3 2 1313 2.75600000 3217702832 3217702832 -13.00000000
0.73328567 3.14117193 -0.62699836 2 4 1314 3.28600000 3217702837 3217702837 -11.00000000
0.92780584 3.96817946 -0.64544863 2 6 1316 4.12600000 3217702841 3217702841 -9.00000000
1.25150239 5.34419775 -0.67393744 2 8 1318 5.53000000 3217702846 3217702846 -7.00000000
1.88578570 8.04640484 -0.72304404 4 10 1319 8.29600000 3217702851 3217702851 -5.00000000
2.45988154 10.48775864 2.09393787 46 11 1320 10.97400000 3217702853 3217702853 11.00000000
2.34327364 9.97493553 2.36558533 59 13 1322 10.51600000 3217702858 3217702858 13.00000000
2.02201009 8.59389210 2.36560607 45 15 1324 9.14000000 3217702862 3217702862 15.00000000
0.52252179 2.20698142 -0.60770714 4 0 1332 2.34800000 3217702883 3217702883 -15.00000000
0.61779302 2.60532284 -0.61816549 3 2 1334 2.74800000 3217702888 3217702888 -13.00000000
0.74751359 3.14992452 -0.62928808 2 4 1335 3.29800000 3217702892 3217702892 -11.00000000
0.94599801 3.98012686 -0.64795154 2 6 1337 4.14200000 3217702897 3217702897 -9.00000000
1.26372612 5.30867672 -0.67003763 2 8 1339 5.49800000 3217702901 3217702901 -7.00000000
1.89864230 7.96966600 -0.71676880 4 10 1340 8.22400000 3217702906 3217702906 -5.00000000
2.50331306 10.49967957 2.09813571 46 11 1341 10.99600000 3217702908 3217702908 11.00000000
2.37891269 9.96248913 2.36468554 59 13 1343 10.51200000 3217702913 3217702913 13.00000000
2.05334306 8.59241867 2.36715889 40 15 1344 9.14600000 3217702918 3217702918 15.00000000
0.53202897 2.21265721 -0.60977769 4 0 1352 2.35600000 3217702938 3217702938 -15.00000000
0.62779605 2.60693955 -0.61906528 3 2 1354 2.75200000 3217702943 3217702943 -13.00000000
0.75298458 3.12439251 -0.62470865 2 4 1355 3.27400000 3217702947 3217702947 -11.00000000
0.95432359 3.95375776 -0.64419711 2 6 1357 4.11800000 3217702952 3217702952 -9.00000000
1.28411496 5.31195116 -0.67101258 2 8 1359 5.50600000 3217702957 3217702957 -7.00000000
1.93675685 8.00559330 -0.72060370 4 10 1360 8.26800000 3217702961 3217702961 -5.00000000
2.40908146 9.93518543 2.36018658 60 13 1363 10.49200000 3217702968 3217702968 13.00000000
2.08710146 8.59422112 2.36974716 45 15 1365 9.15600000 3217702973 3217702973 15.00000000
0.53714746 2.20346737 -0.60770714 4 0 1370 2.34800000 3217702994 3217702994 -15.00000000
0.63736945 2.61063385 -0.62041503 3 2 1372 2.75800000 3217702998 3217702998 -13.00000000
0.76093256 3.11438298 -0.62318218 2 4 1373 3.26600000 3217703003 3217703003 -11.00000000
0.96861804 3.95841527 -0.64544863 2 6 1375 4.12600000 3217703007 3217703007 -9.00000000
1.29890656 5.30017900 -0.67003763 2 8 1377 5.49800000 3217703012 3217703012 -7.00000000
1.94101632 7.91432762 -0.71293396 4 10 1378 8.18000000 3217703017 3217703017 -5.00000000
2.36230803 9.62484646 1.92640758 9 11 1379 10.09600000 3217703019 3217703019 11.00000000
2.44307303 9.93892288 2.36288595 57 13 1381 10.50400000 3217703024 3217703024 13.00000000
2.11074591 8.58048725 2.36767673 45 15 1382 9.14800000 3217703028 3217703028 15.00000000
0.54112303 2.18657684 -0.60356599 4 0 1390 2.33200000 3217703049 3217703049 -15.00000000
0.64788479 2.61406779 -0.62176472 3 2 1392 2.76400000 3217703053 3217703053 -13.00000000
0.77368963 3.11932993 -0.62470865 2 4 1393 3.27400000 3217703058 3217703058 -11.00000000
0.98242956 3.95500994 -0.64544863 2 6 1395 4.12600000 3217703063 3217703063 -9.00000000
1.32219195 5.31487608 -0.67247504 2 8 1397 5.51800000 3217703067 3217703067 -7.00000000
1.98980904 7.99257231 -0.72060370 4 10 1398 8.26800000 3217703072 3217703072 -5.00000000
2.39873815 9.62797165 1.92869735 12 11 1399 10.10800000 3217703074 3217703074 11.00000000
2.47775126 9.93033409 2.36288595 57 13 1401 10.50400000 3217703079 3217703079 13.00000000
2.14030743 8.56519699 2.36560607 45 15 1403 9.14000000 3217703083 3217703083 15.00000000
0.54998618 2.18635631 -0.60408366 3 0 1412 2.33400000 3217703104 3217703104 -15.00000000
0.65791732 2.61156082 -0.62176472 3 2 1414 2.76400000 3217703109 3217703109 -13.00000000
0.79142058 3.13918042 -0.62928808 2 4 1415 3.29800000 3217703113 3217703113 -11.00000000
0.99664134 3.94737816 -0.64482284 2 6 1417 4.12200000 3217703118 3217703118 -9.00000000
1.34648287 5.32515621 -0.67442495 2 8 1419 5.53400000 3217703123 3217703123 -7.00000000
2.01266360 7.95396900 -0.71781468 4 10 1420 8.23600000 3217703127 3217703127 -5.00000000
2.43376160 9.61107826 1.92717087 12 11 1421 10.10000000 3217703129 3217703129 11.00000000
2.51586270 9.92074680 2.36288595 57 13 1423 10.50400000 3217703134 3217703134 13.00000000
2.17121100 8.55542183 2.36508846 45 15 1424 9.13800000 3217703139 3217703139 15.00000000
0.55952591 2.19191051 -0.60615420 4 0 1432 2.34200000 3217703159 3217703159 -15.00000000
0.66316807 2.59414411 -0.61816549 3 2 1434 2.74800000 3217703164 3217703164 -13.00000000
0.80188692 3.13449669 -0.62890643 4 4 1435 3.29600000 3217703169 3217703169 -11.00000000
1.01433623 3.95918369 -0.64732581 2 6 1437 4.13800000 3217703173 3217703173 -9.00000000
1.35420954 5.27812195 -0.66906267 2 8 1439 5.49000000 3217703178 3217703178 -7.00000000
2.03050613 7.90829897 -0.71432847 4 10 1440 8.19600000 3217703182 3217703182 -5.00000000
2.46876121 9.60822868 1.92831576 15 11 1441 10.10600000 3217703185 3217703185 11.00000000
2.54756355 9.90058136 2.36018658 62 13 1443 10.49200000 3217703189 3217703189 13.00000000
2.20255351 8.54740620 2.36508846 42 15 1445 9.13800000 3217703194 3217703194 15.00000000
0.56882769 2.19949341 -0.60874242 4 0 1450 2.35200000 3217703215 3217703215 -15.00000000
0.67033738 2.58827496 -0.61726570 3 2 1452 2.74400000 3217703219 3217703219 -13.00000000
0.80828238 3.11865878 -0.62623513 2 4 1453 3.28200000 3217703224 3217703224 -11.00000000
1.02776182 3.95980167 -0.64795154 2 6 1455 4.14200000 3217703229 3217703229 -9.00000000
1.37677705 5.29689646 -0.67198753 2 8 1457 5.51400000 3217703233 3217703233 -7.00000000
2.05935311 7.91730690 -0.71572298 4 10 1458 8.21200000 3217703238 3217703238 -5.00000000
2.50190139 9.61182499 1.93060541 18 11 1459 10.11800000 3217703240 3217703240 11.00000000
2.57668829 9.88498592 2.35838675 62 13 1461 10.48400000 3217703245 3217703245 13.00000000
2.23034263 8.55018044 2.36767673 45 15 1462 9.14800000 3217703249 3217703249 15.00000000
0.57552147 2.19375730 -0.60770714 4 0 1470 2.34800000 3217703270 3217703270 -15.00000000
0.68233907 2.59722781 -0.61996508 3 2 1472 2.75600000 3217703275 3217703275 -13.00000000
0.81417179 3.09683108 -0.62241894 2 4 1473 3.26200000 3217703279 3217703279 -11.00000000
1.03856027 3.94472814 -0.64607435 2 6 1475 4.13000000 3217703284 3217703284 -9.00000000
1.39525819 5.29205847 -0.67198753 2 8 1477 5.51400000 3217703288 3217703288 -7.00000000
2.09612608 7.94474649 -0.71886057 4 10 1478 8.24800000 3217703293 3217703293 -5.00000000
2.53994846 9.62011719 1.93403995 18 11 1479 10.13600000 3217703295 3217703295 11.00000000
2.61217403 9.87969971 2.35928655 60 13 1481 10.48800000 3217703300 3217703300 13.00000000
2.26117110 8.54008102 2.36715889 42 15 1483 9.14600000 3217703305 3217703305 15.00000000
0.57896668 2.17286396 -0.60253072 4 0 1492 2.32800000 3217703325 3217703325 -15.00000000
0.69632584 2.60965157 -0.62356430 3 2 1494 2.77200000 3217703330 3217703330 -13.00000000
0.83112144 3.11265016 -0.62623513 2 4 1495 3.28200000 3217703335 3217703335 -11.00000000
1.04757607 3.91781139 -0.64231992 2 6 1497 4.10600000 3217703339 3217703339 -9.00000000
1.41762173 5.29433203 -0.67296249 2 8 1499 5.52200000 3217703344 3217703344 -7.00000000
2.12455344 7.92894173 -0.71816331 4 10 1500 8.24000000 3217703348 3217703348 -5.00000000
2.57941031 9.61977482 1.93594801 18 11 1501 10.14600000 3217703351 3217703351 11.00000000
2.65110064 9.87336063 2.36018658 59 13 1503 10.49200000 3217703355 3217703355 13.00000000
2.28995037 8.52240753 2.36457086 40 15 1504 9.13600000 3217703360 3217703360 15.00000000
0.59057909 2.18574977 -0.60667187 4 0 1512 2.34400000 3217703381 3217703381 -15.00000000
0.70237720 2.59591866 -0.62086493 3 2 1514 2.76000000 3217703385 3217703385 -13.00000000
0.84300774 3.11352015 -0.62699836 2 4 1515 3.28600000 3217703390 3217703390 -11.00000000
1.06848228 3.94082236 -0.64670008 2 6 1517 4.13400000 3217703394 3217703394 -9.00000000
1.43713403 5.29318285 -0.67344999 2 8 1519 5.52600000 3217703399 3217703399 -7.00000000
2.15117288 7.91763163 -0.71781468 4 10 1520 8.23600000 3217703404 3217703404 -5.00000000
2.61348915 9.61260700 1.93632972 21 11 1521 10.14800000 3217703406 3217703406 11.00000000
2.68657279 9.86780739 2.36108637 59 13 1523 10.49600000 3217703411 3217703411 13.00000000
2.31917739 8.51249790 2.36405325 42 15 1524 9.13400000 3217703415 3217703415 15.00000000
0.59986442 2.19123244 -0.60874242 4 0 1531 2.35200000 3217703436 3217703436 -15.00000000
0.70995128 2.58981633 -0.61996508 3 2 1533 2.75600000 3217703441 3217703441 -13.00000000
0.85436666 3.11449409 -0.62776160 2 4 1534 3.29000000 3217703445 3217703445 -11.00000000
1.08363760 3.94487667 -0.64795154 2 6 1536 4.14200000 3217703450 3217703450 -9.00000000
1.44836116 5.26542044 -0.67052513 2 8 1538 5.50200000 3217703454 3217703454 -7.00000000
2.18164706 7.92582226 -0.71920919 4 10 1539 8.25200000 3217703459 3217703459 -5.00000000
2.64587259 9.60577965 1.93671131 25 11 1540 10.15000000 3217703461 3217703461 11.00000000
2.71617198 9.84757233 2.35838675 59 13 1542 10.48400000 3217703466 3217703466 13.00000000
2.34893489 8.51034737 2.36560607 40 15 1543 9.14000000 3217703470 3217703470 15.00000000
0.60647643 2.18540215 -0.60770714 4 0 1551 2.34800000 3217703491 3217703491 -15.00000000
0.72003061 2.59107757 -0.62086493 3 2 1553 2.76000000 3217703496 3217703496 -13.00000000
0.86312914 3.10392690 -0.62623513 2 4 1554 3.28200000 3217703500 3217703500 -11.00000000
1.08786321 3.90681648 -0.64231992 2 6 1556 4.10600000 3217703505 3217703505 -9.00000000
1.46673203 5.26033258 -0.67052513 2 8 1558 5.50200000 3217703510 3217703510 -7.00000000
2.20608711 7.90664387 -0.71816331 4 10 1559 8.24000000 3217703514 3217703514 -5.00000000
2.68361068 9.61161327 1.93976426 21 11 1560 10.16600000 3217703517 3217703517 11.00000000
2.74843097 9.83052349 2.35658717 60 13 1562 10.47600000 3217703521 3217703521 13.00000000
2.38115287 8.50540161 2.36664128 38 15 1564 9.14400000 3217703526 3217703526 15.00000000
0.61229420 2.17976618 -0.60667187 4 0 1569 2.34400000 3217703547 3217703547 -15.00000000
0.72975016 2.59443045 -0.62221462 3 2 1571 2.76600000 3217703551 3217703551 -13.00000000
0.87500381 3.10875916 -0.62776160 2 4 1572 3.29000000 3217703556 3217703556 -11.00000000
1.10870528 3.93380046 -0.64732581 2 6 1574 4.13800000 3217703560 3217703560 -9.00000000
1.49079895 5.28244495 -0.67393744 2 8 1576 5.53000000 3217703565 3217703565 -7.00000000
2.23199868 7.90350914 -0.71851194 4 10 1577 8.24400000 3217703570 3217703570 -5.00000000
2.71699643 9.61447048 1.94205391 21 11 1578 10.17800000 3217703572 3217703572 11.00000000
2.77930093 9.82184124 2.35658717 60 13 1580 10.47600000 3217703576 3217703576 13.00000000
2.40532565 8.49458122 2.36560607 42 15 1581 9.14000000 3217703581 3217703581 15.00000000
0.61778355 2.17018366 -0.60460126 4 0 1589 2.33600000 3217703602 3217703602 -15.00000000
0.73719937 2.58624506 -0.62086493 3 2 1591 2.76000000 3217703606 3217703606 -13.00000000
0.88585007 3.10568595 -0.62776160 2 4 1592 3.29000000 3217703611 3217703611 -11.00000000
1.11537755 3.90521383 -0.64325851 2 6 1594 4.11200000 3217703616 3217703616 -9.00000000
1.51086652 5.28293467 -0.67466867 2 8 1596 5.53600000 3217703620 3217703620 -7.00000000
2.25299549 7.87268400 -0.71642023 4 10 1597 8.22000000 3217703625 3217703625 -5.00000000
2.75378346 9.61625195 1.94434369 25 11 1598 10.19000000 3217703627 3217703627 11.00000000
3.20922399 11.19927025 -0.61055124 4 12 1599 11.66600000 3217703629 3217703629 -3.00000000
2.81464291 9.81582642 2.35748696 60 13 1600 10.48000000 3217703632 3217703632 13.00000000
3.20491886 11.16952229 -0.20283186 2 14 1601 11.62200000 3217703634 3217703634 -1.00000000
2.43229866 8.47684860 2.36301780 40 15 1601 9.13000000 3217703636 3217703636 15.00000000
0.62642598 2.17172623 -0.60563654 4 0 1609 2.34000000 3217703657 3217703657 -15.00000000
3.22356915 11.16831684 0.20290168 3 1 1610 11.62600000 3217703659 3217703659 1.00000000
0.74405956 2.57616711 -0.61906528 3 2 1611 2.75200000 3217703662 3217703662 -13.00000000
3.23211837 11.19060612 0.61044657 10 3 1611 11.66400000 3217703664 3217703664 3.00000000
0.89886594 3.11011910 -0.62928808 2 4 1612 3.29800000 3217703666 3217703666 -11.00000000
1.12845337 3.89939904 -0.64294565 2 6 1614 4.11000000 3217703671 3217703671 -9.00000000
1.52211583 5.25284195 -0.67150009 2 8 1616 5.51000000 3217703675 3217703675 -7.00000000
2.28601098 7.88390732 -0.71816331 4 10 1617 8.24000000 3217703680 3217703680 -5.00000000
2.78623962 9.60280991 1.94358039 21 11 1618 10.18600000 3217703682 3217703682 11.00000000
3.20151901 11.02688408 -0.60175884 4 12 1619 11.49800000 3217703685 3217703685 -3.00000000
2.84997678 9.80968380 2.35838675 59 13 1620 10.48400000 3217703687 3217703687 13.00000000
3.21765137 11.06801796 -0.20119134 6 14 1621 11.52800000 3217703689 3217703689 -1.00000000
2.46187353 8.46830750 2.36301780 42 15 1621 9.13000000 3217703692 3217703692 15.00000000
0.63508666 2.17323494 -0.60667187 4 0 1629 2.34400000 3217703712 3217703712 -15.00000000
3.22493052 11.02840233 0.20056306 6 1 1630 11.49200000 3217703715 3217703715 1.00000000
0.75085843 2.56607294 -0.61726570 3 2 1631 2.74400000 3217703717 3217703717 -13.00000000
3.24448943 11.08092880 0.60510832 31 3 1632 11.56200000 3217703719 3217703719 3.00000000
0.90751010 3.09942579 -0.62776160 2 4 1632 3.29000000 3217703722 3217703722 -11.00000000
3.25307322 11.10305882 1.01222682 21 5 1633 11.61400000 3217703724 3217703724 5.00000000
1.14316952 3.89922762 -0.64357138 2 6 1634 4.11400000 3217703726 3217703726 -9.00000000
3.25954914 11.11078644 1.42172778 29 7 1635 11.66600000 3217703728 3217703728 7.00000000
1.54156065 5.25130653 -0.67198753 2 8 1636 5.51400000 3217703731 3217703731 -7.00000000
3.27640557 11.15382957 1.84123361 21 9 1637 11.77000000 3217703733 3217703733 9.00000000
2.31464028 7.87970304 -0.71851194 4 10 1637 8.24400000 3217703735 3217703735 -5.00000000
2.82085013 9.59679317 1.94434369 21 11 1638 10.19000000 3217703738 3217703738 11.00000000
3.20392179 10.89301109 -0.59505981 4 12 1639 11.37000000 3217703740 3217703740 -3.00000000
2.87979984 9.78472042 2.35478759 57 13 1640 10.46800000 3217703742 3217703742 13.00000000
3.21276665 10.90901470 -0.19850367 6 14 1641 11.37400000 3217703745 3217703745 -1.00000000
2.49726367 8.47405148 2.36715889 42 15 1642 9.14600000 3217703747 3217703747 15.00000000
0.64524239 2.17830181 -0.60874242 4 0 1650 2.35200000 3217703768 3217703768 -15.00000000
3.23236990 10.90530777 0.19853857 6 1 1651 11.37600000 3217703770 3217703770 1.00000000
0.76579976 2.58198667 -0.62176472 3 2 1652 2.76400000 3217703772 3217703772 -13.00000000
3.24055529 10.92592430 0.59725791 31 3 1652 11.41200000 3217703775 3217703775 3.00000000
0.91774678 3.09231472 -0.62699836 2 4 1653 3.28600000 3217703777 3217703777 -11.00000000
3.24893713 10.94017506 0.99845618 8 5 1654 11.45600000 3217703779 3217703779 5.00000000
1.15857852 3.89879847 -0.64419711 2 6 1655 4.11800000 3217703781 3217703781 -9.00000000
3.25611877 10.95035076 1.40271616 29 7 1656 11.51000000 3217703784 3217703784 7.00000000
1.55740058 5.23420525 -0.67052513 2 8 1657 5.50200000 3217703786 3217703786 -7.00000000
3.26709676 10.97324753 1.81338835 28 9 1658 11.59200000 3217703788 3217703788 9.00000000
2.35373878 7.90553808 -0.72164953 4 10 1658 8.28000000 3217703791 3217703791 -5.00000000
2.86553454 9.61837578 1.95083117 15 11 1659 10.22400000 3217703793 3217703793 11.00000000
3.19133043 10.70510483 -0.58543003 8 12 1660 11.18600000 3217703795 3217703795 -3.00000000
2.91341496 9.76663017 2.35298800 59 13 1661 10.46000000 3217703798 3217703798 13.00000000
3.20582795 10.74004173 -0.19564147 6 14 1662 11.21000000 3217703800 3217703800 -1.00000000
2.52572322 8.46158028 2.36612368 40 15 1662 9.14200000 3217703802 3217703802 15.00000000
0.65173191 2.17233562 -0.60770714 4 0 1670 2.34800000 3217703823 3217703823 -15.00000000
3.22096968 10.72924709 0.19553676 6 1 1671 11.20400000 3217703825 3217703825 1.00000000
0.77256536 2.57183242 -0.61996508 3 2 1672 2.75600000 3217703827 3217703827 -13.00000000
3.23557901 10.77108479 0.58940756 26 3 1672 11.26200000 3217703830 3217703830 3.00000000
0.93079597 3.09661293 -0.62852484 2 4 1673 3.29400000 3217703832 3217703832 -11.00000000
3.24406552 10.78567123 0.98538285 20 5 1674 11.30600000 3217703834 3217703834 5.00000000
1.17559659 3.90608001 -0.64607435 2 6 1675 4.13000000 3217703837 3217703837 -9.00000000
3.25597024 10.81156635 1.38638568 25 7 1676 11.37600000 3217703839 3217703839 7.00000000
1.58138955 5.24774361 -0.67296249 2 8 1677 5.52200000 3217703841 3217703841 -7.00000000
3.26203895 10.81803989 1.78961027 28 9 1678 11.44000000 3217703844 3217703844 9.00000000
