# .PCD v0.7 - Point Cloud Data file format
VERSION 0.7
FIELDS x y z intensity laser_id azimuth distance_m adjustedtime timestamp vertical_angle
SIZE 4 4 4 1 1 2 8 8 4 8
TYPE F F F U U U F U U F
COUNT 1 1 1 1 1 1 1 1 1 1
WIDTH 538
HEIGHT 1
VIEWPOINT 0 0 0 1 0 0 0
POINTS 538
DATA ascii
3.33174872 6.82807255 0.39817196 32 3 2601 7.60800000 3217006270 3217006270 3.00000000
1.42485905 2.92010045 -0.63157779 2 4 2601 3.31000000 3217006273 3217006273 -11.00000000
1.80743992 3.70088148 -0.65233171 2 6 2603 4.17000000 3217006277 3217006277 -9.00000000
2.41914463 4.94901562 -0.67637485 2 8 2605 5.55000000 3217006282 3217006282 -7.00000000
3.64029288 7.44391155 -0.72496146 8 10 2606 8.31800000 3217006287 3217006287 -5.00000000
5.10857534 10.44173431 2.25956011 59 11 2607 11.84200000 3217006289 3217006289 11.00000000
3.91144681 7.98778486 2.05335331 60 13 2609 9.12800000 3217006294 3217006294 13.00000000
3.41573691 6.97238636 2.08038759 42 15 2610 8.03800000 3217006298 3217006298 15.00000000
1.00403142 2.04226065 -0.60977769 4 0 2618 2.35600000 3217006319 3217006319 -15.00000000
3.29637671 6.70207453 0.13036947 48 1 2619 7.47000000 3217006321 3217006321 1.00000000
1.19248688 2.42345333 -0.62356430 3 2 2620 2.77200000 3217006323 3217006323 -13.00000000
3.35909128 6.82356834 0.39859065 55 3 2621 7.61600000 3217006326 3217006326 3.00000000
3.28369141 6.67040348 -1.44518733 5 4 2621 7.57400000 3217006328 3217006328 -11.00000000
1.81685507 3.68746209 -0.65108025 2 6 2623 4.16200000 3217006333 3217006333 -9.00000000
2.45045304 4.96902704 -0.68027467 2 8 2625 5.58200000 3217006337 3217006337 -7.00000000
3.66625476 7.43115950 -0.72496146 4 10 2626 8.31800000 3217006342 3217006342 -5.00000000
5.15020609 10.43440151 2.26184988 59 11 2627 11.85400000 3217006344 3217006344 11.00000000
3.94448447 7.98456573 2.05605268 57 13 2629 9.14000000 3217006349 3217006349 13.00000000
3.33581781 6.74951458 -0.13141662 2 14 2630 7.53000000 3217006351 3217006351 -1.00000000
3.43955660 6.95635700 2.07935214 42 15 2631 8.03400000 3217006353 3217006353 15.00000000
1.01458764 2.04566598 -0.61184824 4 0 2638 2.36400000 3217006374 3217006374 -15.00000000
3.30730772 6.66544914 0.12988082 60 1 2639 7.44200000 3217006376 3217006376 1.00000000
1.20440495 2.42625809 -0.62536395 3 2 2640 2.78000000 3217006379 3217006379 -13.00000000
3.38377786 6.81359053 0.39869532 47 3 2641 7.61800000 3217006381 3217006381 3.00000000
3.30171609 6.64835024 -1.44289768 5 4 2641 7.56200000 3217006383 3217006383 -11.00000000
1.83323264 3.68817306 -0.65233171 2 6 2643 4.17000000 3217006388 3217006388 -9.00000000
2.46070957 4.94622469 -0.67832476 2 8 2645 5.56600000 3217006393 3217006393 -7.00000000
3.69394755 7.42188406 -0.72531009 8 10 2646 8.32200000 3217006397 3217006397 -5.00000000
5.19184828 10.42690468 2.26413965 56 11 2647 11.86600000 3217006399 3217006399 11.00000000
3.97059321 7.96725988 2.05515289 45 13 2649 9.13600000 3217006404 3217006404 13.00000000
3.32812881 6.67519331 -0.13019495 30 14 2650 7.46000000 3217006406 3217006406 -1.00000000
3.46432972 6.94837046 2.08038759 42 15 2650 8.03800000 3217006409 3217006409 15.00000000
1.02345097 2.04556751 -0.61288351 4 0 2658 2.36800000 3217006429 3217006429 -15.00000000
3.31623316 6.62525272 0.12932234 60 1 2659 7.41000000 3217006432 3217006432 1.00000000
1.20588636 2.40809941 -0.62176472 3 2 2660 2.76400000 3217006434 3217006434 -13.00000000
3.34312987 6.67316675 0.39115894 72 3 2661 7.47400000 3217006436 3217006436 3.00000000
3.32666183 6.64029503 -1.44366086 5 4 2661 7.56600000 3217006439 3217006439 -11.00000000
3.40309548 6.78990364 0.66447538 14 5 2662 7.62400000 3217006441 3217006441 5.00000000
1.83901227 3.66762495 -0.64982879 2 6 2663 4.15400000 3217006443 3217006443 -9.00000000
2.47974110 4.94115353 -0.67881227 4 8 2665 5.57000000 3217006448 3217006448 -7.00000000
3.72877192 7.42675018 -0.72705323 4 10 2666 8.34200000 3217006452 3217006452 -5.00000000
5.23614407 10.42450809 2.26757407 59 11 2667 11.88400000 3217006455 3217006455 11.00000000
4.55419683 9.05895138 2.34084058 50 13 2669 10.40600000 3217006459 3217006459 13.00000000
3.35859728 6.67782736 -0.13047419 44 14 2670 7.47600000 3217006462 3217006462 -1.00000000
3.48977351 6.93562651 2.08038759 42 15 2671 8.03800000 3217006464 3217006464 15.00000000
1.02710330 2.03508377 -0.61081296 4 0 2678 2.36000000 3217006485 3217006485 -15.00000000
3.32942510 6.59400082 0.12893838 63 1 2679 7.38800000 3217006487 3217006487 1.00000000
1.21604216 2.40735435 -0.62266451 3 2 2680 2.76800000 3217006489 3217006489 -13.00000000
3.35379148 6.63650036 0.38969353 55 3 2681 7.44600000 3217006492 3217006492 3.00000000
3.34185100 6.61287260 -1.44022632 5 4 2681 7.54800000 3217006494 3217006494 -11.00000000
3.41958427 6.76375866 0.66308087 28 5 2682 7.60800000 3217006496 3217006496 5.00000000
3.36837435 6.65958118 -1.18201888 6 6 2683 7.55600000 3217006499 3217006499 -9.00000000
2.49697375 4.93246746 -0.67881227 4 8 2685 5.57000000 3217006503 3217006503 -7.00000000
3.75377345 7.41191149 -0.72687888 8 10 2686 8.34000000 3217006508 3217006508 -5.00000000
5.28581047 10.43243599 2.27329826 62 11 2687 11.91400000 3217006510 3217006510 11.00000000
4.58667231 9.04473686 2.34129047 51 13 2689 10.40800000 3217006515 3217006515 13.00000000
3.36469674 6.63217974 -0.12981100 46 14 2690 7.43800000 3217006517 3217006517 -1.00000000
3.51450181 6.92746115 2.08142281 42 15 2690 8.04200000 3217006519 3217006519 15.00000000
1.03420091 2.03148627 -0.61081296 4 0 2698 2.36000000 3217006540 3217006540 -15.00000000
3.34334683 6.56451988 0.12858933 63 1 2699 7.36800000 3217006542 3217006542 1.00000000
1.22620738 2.40656757 -0.62356430 3 2 2700 2.77200000 3217006545 3217006545 -13.00000000
3.36333108 6.59806204 0.38812345 57 3 2701 7.41600000 3217006547 3217006547 3.00000000
3.35510635 6.58192682 -1.43602848 5 4 2701 7.52600000 3217006549 3217006549 -11.00000000
3.42869115 6.72338200 0.66029191 38 5 2702 7.57600000 3217006552 3217006552 5.00000000
3.39519095 6.65482140 -1.18327034 9 6 2703 7.56400000 3217006554 3217006554 -9.00000000
3.41847157 6.69756508 0.92328215 10 7 2704 7.57600000 3217006556 3217006556 7.00000000
2.51507878 4.92548943 -0.67905599 4 8 2705 5.57200000 3217006558 3217006558 -7.00000000
3.77146530 7.38279486 -0.72531009 8 10 2706 8.32200000 3217006563 3217006563 -5.00000000
5.33648920 10.44189262 2.27940416 62 11 2707 11.94600000 3217006565 3217006565 11.00000000
3.42048764 6.68997622 -0.39377573 28 12 2708 7.52400000 3217006568 3217006568 -3.00000000
4.61644125 9.02520084 2.34039068 53 13 2709 10.40400000 3217006570 3217006570 13.00000000
3.38600516 6.61683416 -0.12974119 64 14 2710 7.43400000 3217006572 3217006572 -1.00000000
3.53810787 6.91109419 2.08038759 42 15 2711 8.03800000 3217006575 3217006575 15.00000000
1.03352308 2.01447654 -0.60667187 4 0 2716 2.34400000 3217006595 3217006595 -15.00000000
3.35938787 6.54508877 0.12841481 90 1 2717 7.35800000 3217006598 3217006598 1.00000000
1.23732245 2.40963745 -0.62536395 3 2 2718 2.78000000 3217006600 3217006600 -13.00000000
3.38313031 6.58568668 0.38801879 72 3 2719 7.41400000 3217006602 3217006602 3.00000000
3.37397337 6.56786108 -1.43526530 5 4 2719 7.52200000 3217006605 3217006605 -11.00000000
3.43522477 6.68422461 0.65750295 49 5 2720 7.54400000 3217006607 3217006607 5.00000000
3.41427445 6.64060831 -1.18264461 9 6 2721 7.56000000 3217006609 3217006609 -9.00000000
3.42769170 6.66384411 0.92011356 10 7 2722 7.55000000 3217006611 3217006611 7.00000000
3.44247937 6.68972254 -0.92376959 6 8 2723 7.58000000 3217006614 3217006614 -7.00000000
3.39794040 6.60033894 -0.64948457 12 10 2724 7.45200000 3217006618 3217006618 -5.00000000
5.37645817 10.43903828 2.28245711 62 11 2725 11.96200000 3217006621 3217006621 11.00000000
3.44789147 6.69162560 -0.39450845 80 12 2726 7.53800000 3217006623 3217006623 -3.00000000
4.65191507 9.02451134 2.34399009 57 13 2727 10.42000000 3217006625 3217006625 13.00000000
3.41135836 6.61505032 -0.12991571 74 14 2728 7.44400000 3217006628 3217006628 -1.00000000
3.55682707 6.89713240 2.07935214 42 15 2728 8.03400000 3217006630 3217006630 15.00000000
1.04765129 2.02458239 -0.61081296 4 0 2736 2.36000000 3217006651 3217006651 -15.00000000
3.37302065 6.51556396 0.12806576 87 1 2737 7.33800000 3217006653 3217006653 1.00000000
3.36973381 6.50643349 -1.69163191 8 2 2738 7.52000000 3217006655 3217006655 -13.00000000
3.40242267 6.56674385 0.38760009 80 3 2739 7.40600000 3217006658 3217006658 3.00000000
3.38333106 6.52989626 -1.42954099 4 4 2739 7.49200000 3217006660 3217006660 -11.00000000
3.44569945 6.64742851 0.65506256 52 5 2740 7.51600000 3217006662 3217006662 5.00000000
3.44107127 6.63566446 -1.18389606 9 6 2741 7.56800000 3217006664 3217006664 -9.00000000
3.43447733 6.62012148 0.91572624 7 7 2742 7.51400000 3217006667 3217006667 7.00000000
3.45940876 6.66533184 -0.92206347 9 8 2743 7.56600000 3217006669 3217006669 -7.00000000
3.41912293 6.58490133 -0.64913595 16 10 2744 7.44800000 3217006674 3217006674 -5.00000000
5.42010450 10.43414593 2.28551006 65 11 2745 11.97800000 3217006676 3217006676 11.00000000
3.45372963 6.64587688 -0.39251968 62 12 2746 7.50000000 3217006678 3217006678 -3.00000000
4.68518591 9.01167583 2.34488988 55 13 2747 10.42400000 3217006681 3217006681 13.00000000
3.43719673 6.60842466 -0.13002042 64 14 2748 7.45000000 3217006683 3217006683 -1.00000000
3.57998943 6.88296080 2.07883453 45 15 2748 8.03200000 3217006685 3217006685 15.00000000
1.05685306 2.02415395 -0.61184824 4 0 2757 2.36400000 3217006706 3217006706 -15.00000000
3.39780450 6.50493002 0.12810066 93 1 2758 7.34000000 3217006708 3217006708 1.00000000
1.25272846 2.39726758 -0.62446415 3 2 2759 2.77600000 3217006711 3217006711 -13.00000000
3.42646813 6.55422926 0.38760009 95 3 2760 7.40600000 3217006713 3217006713 3.00000000
3.38359284 6.47221613 -1.41961896 4 4 2760 7.44000000 3217006715 3217006715 -11.00000000
3.45988345 6.61533403 0.65314513 52 5 2761 7.49400000 3217006717 3217006717 5.00000000
3.46262169 6.61775684 -1.18295741 6 6 2762 7.56200000 3217006720 3217006720 -9.00000000
3.45687699 6.60397148 0.91523880 10 7 2763 7.51000000 3217006722 3217006722 7.00000000
3.47921062 6.64381456 -0.92084473 9 8 2764 7.55600000 3217006724 3217006724 -7.00000000
3.44970727 6.58467913 -0.65035617 16 10 2765 7.46200000 3217006729 3217006729 -5.00000000
5.46742535 10.43159866 2.28932643 62 11 2766 11.99800000 3217006731 3217006731 11.00000000
3.47991991 6.63671160 -0.39272901 72 12 2767 7.50400000 3217006734 3217006734 -3.00000000
4.71637344 8.99099159 2.34399009 56 13 2768 10.42000000 3217006736 3217006736 13.00000000
3.41307449 6.50370693 -0.12820537 40 14 2769 7.34600000 3217006738 3217006738 -1.00000000
3.60609031 6.87150383 2.07935214 42 15 2769 8.03400000 3217006740 3217006740 15.00000000
1.06571233 2.02387118 -0.61288351 4 0 2777 2.36800000 3217006761 3217006761 -15.00000000
3.41955829 6.49126053 0.12806576 78 1 2778 7.33800000 3217006764 3217006764 1.00000000
3.41620612 6.48215389 -1.69163191 6 2 2779 7.52000000 3217006766 3217006766 -13.00000000
3.44187379 6.52809477 0.38676271 80 3 2780 7.39000000 3217006768 3217006768 3.00000000
3.39517689 6.43952608 -1.41503954 5 4 2780 7.41600000 3217006770 3217006770 -11.00000000
3.49039030 6.61731482 0.65453964 49 5 2781 7.51000000 3217006773 3217006773 5.00000000
3.42116785 6.48333549 -1.16105664 6 6 2782 7.42200000 3217006775 3217006775 -9.00000000
3.48546839 6.60239744 0.91670120 10 7 2783 7.52200000 3217006777 3217006777 7.00000000
3.50516176 6.63689566 -0.92157596 9 8 2784 7.56200000 3217006780 3217006780 -7.00000000
3.49780154 6.62016106 -0.65506256 4 10 2785 7.51600000 3217006784 3217006784 -5.00000000
3.51053429 6.63864851 -0.39356640 76 12 2787 7.52000000 3217006789 3217006789 -3.00000000
4.74408388 8.96758366 2.34219027 56 13 2788 10.41200000 3217006791 3217006791 13.00000000
3.41143537 6.44580030 -0.12729785 57 14 2789 7.29400000 3217006793 3217006793 -1.00000000
3.63486743 6.86506987 2.08142281 42 15 2790 8.04200000 3217006796 3217006796 15.00000000
1.07241786 2.02032614 -0.61288351 4 0 2796 2.36800000 3217006817 3217006817 -15.00000000
3.44106531 6.47988510 0.12806576 66 1 2797 7.33800000 3217006819 3217006819 1.00000000
1.27084553 2.39212704 -0.62536395 3 2 2798 2.78000000 3217006821 3217006821 -13.00000000
3.47006440 6.52899075 0.38749543 97 3 2799 7.40400000 3217006823 3217006823 3.00000000
3.41374826 6.42303085 -1.41389465 5 4 2799 7.41000000 3217006826 3217006826 -11.00000000
3.50296116 6.58811188 0.65279651 49 5 2800 7.49000000 3217006828 3217006828 5.00000000
3.43244410 6.45277119 -1.15761507 6 6 2801 7.40000000 3217006830 3217006830 -9.00000000
3.51480412 6.60482216 0.91865110 10 7 2802 7.53800000 3217006833 3217006833 7.00000000
3.53741264 6.64451027 -0.92425710 9 8 2803 7.58400000 3217006835 3217006835 -7.00000000
3.51973557 6.60852575 -0.65506256 4 10 2804 7.51600000 3217006840 3217006840 -5.00000000
3.54098511 6.64283323 -0.39450845 56 12 2806 7.53800000 3217006844 3217006844 -3.00000000
4.77379560 8.95180225 2.34219027 57 13 2807 10.41200000 3217006846 3217006846 13.00000000
3.42243767 6.41504478 -0.12691391 61 14 2808 7.27200000 3217006849 3217006849 -1.00000000
3.65096068 6.84338999 2.07831693 45 15 2808 8.03000000 3217006851 3217006851 15.00000000
1.07581675 2.00975752 -0.61081296 4 0 2816 2.36000000 3217006872 3217006872 -15.00000000
3.45705509 6.45549440 0.12782143 48 1 2817 7.32400000 3217006874 3217006874 1.00000000
1.28102851 2.39111185 -0.62626374 3 2 2818 2.78400000 3217006876 3217006876 -13.00000000
3.49566412 6.52211905 0.38780943 80 3 2819 7.41000000 3217006879 3217006879 3.00000000
3.43707538 6.41280603 -1.41427624 5 4 2819 7.41200000 3217006881 3217006881 -11.00000000
3.51840472 6.56179714 0.65140200 56 5 2820 7.47400000 3217006883 3217006883 5.00000000
3.44560981 6.42334270 -1.15448630 9 6 2821 7.38000000 3217006886 3217006886 -9.00000000
3.56412053 6.64148903 0.92547578 7 7 2822 7.59400000 3217006888 3217006888 7.00000000
2.61973405 4.87964678 -0.68003094 4 8 2823 5.58000000 3217006890 3217006890 -7.00000000
3.92458820 7.30707216 -0.72565871 4 10 2824 8.32600000 3217006895 3217006895 -5.00000000
3.50079274 6.51256561 -0.38749543 31 12 2826 7.40400000 3217006899 3217006899 -3.00000000
4.80685997 8.93851662 2.34309030 57 13 2827 10.41600000 3217006902 3217006902 13.00000000
3.44765186 6.40834188 -0.12701862 72 14 2828 7.27800000 3217006904 3217006904 -1.00000000
3.67299581 6.82720137 2.07728171 45 15 2828 8.02600000 3217006906 3217006906 15.00000000
1.07697141 1.99597812 -0.60770714 4 0 2835 2.34800000 3217006927 3217006927 -15.00000000
3.47084427 6.42991734 0.12754218 63 1 2836 7.30800000 3217006929 3217006929 1.00000000
1.28339481 2.37656260 -0.62356430 3 2 2837 2.77200000 3217006932 3217006932 -13.00000000
3.52467775 6.52692127 0.38875148 60 3 2837 7.42800000 3217006934 3217006934 3.00000000
3.46205473 6.40828228 -1.41580272 5 4 2838 7.42000000 3217006936 3217006936 -11.00000000
3.53730297 6.54483509 0.65087909 45 5 2839 7.46800000 3217006939 3217006939 5.00000000
3.46501231 6.40840626 -1.15386057 9 6 2840 7.37600000 3217006941 3217006941 -9.00000000
3.55327034 6.56615686 -0.91670120 6 8 2842 7.52200000 3217006945 3217006945 -7.00000000
3.95923162 7.31329060 -0.72757614 8 10 2843 8.34800000 3217006950 3217006950 -5.00000000
3.49858308 6.45701933 -0.38487864 50 12 2845 7.35400000 3217006955 3217006955 -3.00000000
4.84018946 8.92938042 2.34488988 55 13 2846 10.42400000 3217006957 3217006957 13.00000000
3.46888351 6.39687395 -0.12701862 72 14 2847 7.27800000 3217006959 3217006959 -1.00000000
3.69561529 6.81498384 2.07728171 45 15 2847 8.02600000 3217006962 3217006962 15.00000000
1.09039509 2.00408530 -0.61133057 4 0 2855 2.36200000 3217006982 3217006982 -15.00000000
3.50473976 6.43883896 0.12796104 42 1 2856 7.33200000 3217006985 3217006985 1.00000000
1.29354668 2.37549090 -0.62446415 3 2 2857 2.77600000 3217006987 3217006987 -13.00000000
3.54953194 6.51571274 0.38885614 55 3 2858 7.43000000 3217006989 3217006989 3.00000000
3.49003792 6.40650225 -1.41809249 4 4 2858 7.43200000 3217006992 3217006992 -11.00000000
3.43141341 6.29627180 0.62734705 13 5 2859 7.19800000 3217006994 3217006994 5.00000000
3.49303436 6.40667820 -1.15573788 6 6 2860 7.38800000 3217006996 3217006996 -9.00000000
3.56475854 6.53280306 -0.91377634 6 8 2862 7.49800000 3217007001 3217007001 -7.00000000
3.60096383 6.59641457 -0.65750295 12 10 2863 7.54400000 3217007005 3217007005 -5.00000000
3.52014327 6.44301510 -0.38477394 54 12 2865 7.35200000 3217007010 3217007010 -3.00000000
4.86478662 8.90046024 2.34174037 54 13 2866 10.41000000 3217007012 3217007012 13.00000000
3.50366378 6.40753508 -0.12747237 76 14 2867 7.30400000 3217007015 3217007015 -1.00000000
3.72427726 6.80817223 2.07935214 40 15 2868 8.03400000 3217007017 3217007017 15.00000000
1.10087144 2.00496387 -0.61288351 4 0 2877 2.36800000 3217007038 3217007038 -15.00000000
3.54195309 6.44811916 0.12841481 30 1 2878 7.35800000 3217007040 3217007040 1.00000000
1.30453539 2.37392235 -0.62536395 3 2 2879 2.78000000 3217007042 3217007042 -13.00000000
3.59070325 6.53416634 0.39074025 72 3 2879 7.46600000 3217007045 3217007045 3.00000000
1.57476532 2.86448741 -0.63539398 2 4 2880 3.33000000 3217007047 3217007047 -11.00000000
3.57270193 6.49603462 0.64861304 10 5 2881 7.44200000 3217007049 3217007049 5.00000000
3.53093982 6.41744852 -1.16011798 6 6 2882 7.41600000 3217007051 3217007051 -9.00000000
3.57832599 6.49820042 -0.91085148 6 8 2884 7.47400000 3217007056 3217007056 -7.00000000
3.56954527 6.47957802 -0.64721853 16 10 2885 7.42600000 3217007061 3217007061 -5.00000000
3.55064273 6.43994570 -0.38540199 46 12 2887 7.36400000 3217007065 3217007065 -3.00000000
4.89798498 8.88000965 2.34129047 56 13 2888 10.40800000 3217007068 3217007068 13.00000000
3.53017330 6.39753675 -0.12754218 36 14 2889 7.30800000 3217007070 3217007070 -1.00000000
3.75013876 6.79616785 2.07986975 40 15 2889 8.03600000 3217007072 3217007072 15.00000000
1.10224926 1.99096811 -0.60977769 4 0 2897 2.35600000 3217007093 3217007093 -15.00000000
3.57703471 6.45845747 0.12886856 9 1 2898 7.38400000 3217007095 3217007095 1.00000000
1.31470287 2.37276340 -0.62626374 3 2 2899 2.78400000 3217007097 3217007097 -13.00000000
3.63478565 6.56002665 0.39304304 95 3 2899 7.51000000 3217007100 3217007100 3.00000000
1.57523668 2.84180212 -0.63157779 2 4 2900 3.31000000 3217007102 3217007102 -11.00000000
3.61178136 6.51314497 0.65157634 28 5 2901 7.47600000 3217007104 3217007104 5.00000000
2.00952291 3.62229276 -0.65608615 2 6 2902 4.19400000 3217007107 3217007107 -9.00000000
2.69519949 4.85427332 -0.68173712 6 8 2904 5.59400000 3217007111 3217007111 -7.00000000
3.58343434 6.45140266 -0.64564973 20 10 2905 7.40800000 3217007116 3217007116 -5.00000000
3.59056830 6.45893383 -0.38728607 42 12 2907 7.40000000 3217007121 3217007121 -3.00000000
4.92705774 8.85945225 2.34039068 56 13 2908 10.40400000 3217007123 3217007123 13.00000000
3.77477813 6.78472424 2.08038759 40 15 2909 8.03800000 3217007127 3217007127 15.00000000
1.11107552 1.99048209 -0.61081296 4 0 2917 2.36000000 3217007148 3217007148 -15.00000000
1.32107651 2.36475730 -0.62536395 3 2 2919 2.78000000 3217007153 3217007153 -13.00000000
3.65393305 6.53794336 0.39251968 32 3 2920 7.50000000 3217007155 3217007155 3.00000000
1.59472466 2.85342383 -0.63539398 2 4 2920 3.33000000 3217007157 3217007157 -11.00000000
3.64130068 6.51267099 0.65279651 21 5 2921 7.49000000 3217007160 3217007160 5.00000000
2.01058316 3.59456801 -0.65233171 2 6 2922 4.17000000 3217007162 3217007162 -9.00000000
2.71018839 4.84137154 -0.68124962 6 8 2924 5.59000000 3217007167 3217007167 -7.00000000
3.60301161 6.43364000 -0.64512682 16 10 2925 7.40200000 3217007171 3217007171 -5.00000000
4.96367168 8.85239792 2.34309030 55 13 2928 10.41600000 3217007178 3217007178 13.00000000
3.79205680 6.75736570 2.07624626 42 15 2930 8.02200000 3217007183 3217007183 15.00000000
1.11612189 1.98322451 -0.60977769 4 0 2937 2.35600000 3217007203 3217007203 -15.00000000
1.32932305 2.36013150 -0.62536395 3 2 2939 2.78000000 3217007208 3217007208 -13.00000000
3.64912915 6.47880459 0.38969353 40 3 2939 7.44600000 3217007210 3217007210 3.00000000
1.60467529 2.84783983 -0.63539398 2 4 2940 3.33000000 3217007213 3217007213 -11.00000000
2.01729631 3.57720399 -0.65045452 2 6 2942 4.15800000 3217007217 3217007217 -9.00000000
2.73487711 4.84571171 -0.68319952 6 8 2944 5.60600000 3217007222 3217007222 -7.00000000
3.63034511 6.42969847 -0.64599836 12 10 2945 7.41200000 3217007227 3217007227 -5.00000000
4.99645996 8.83841038 2.34399009 55 13 2948 10.42000000 3217007233 3217007233 13.00000000
3.82037759 6.75249481 2.07883453 40 15 2950 8.03200000 3217007238 3217007238 15.00000000
1.12615788 1.98643053 -0.61184824 4 0 2955 2.36400000 3217007259 3217007259 -15.00000000
1.33096099 2.34577394 -0.62266451 3 2 2957 2.76800000 3217007263 3217007263 -13.00000000
3.66355133 6.45688581 0.38906550 40 3 2957 7.43400000 3217007266 3217007266 3.00000000
1.61749065 2.84961414 -0.63692045 2 4 2958 3.33800000 3217007268 3217007268 -11.00000000
3.34672379 5.89129925 -1.07314038 2 6 2960 6.86000000 3217007273 3217007273 -9.00000000
2.74223781 4.82329035 -0.68124962 6 8 2962 5.59000000 3217007277 3217007277 -7.00000000
4.11841679 7.24089384 -0.72879630 8 10 2963 8.36200000 3217007282 3217007282 -5.00000000
3.34453225 5.87549686 -0.35431442 14 12 2965 6.77000000 3217007286 3217007286 -3.00000000
5.01745176 8.81081581 2.34084058 54 13 2966 10.40600000 3217007289 3217007289 13.00000000
3.33878684 5.86064482 -0.11773393 17 14 2967 6.74600000 3217007291 3217007291 -1.00000000
3.83870268 6.73542404 2.07728171 42 15 2968 8.02600000 3217007293 3217007293 15.00000000
1.13500214 1.98584187 -0.61288351 4 0 2975 2.36800000 3217007314 3217007314 -15.00000000
1.34494662 2.35126305 -0.62536395 4 2 2977 2.78000000 3217007319 3217007319 -13.00000000
3.69598436 6.46139526 0.39011222 12 3 2977 7.45400000 3217007321 3217007321 3.00000000
3.32603741 5.81229210 -1.30169892 3 4 2978 6.82200000 3217007323 3217007323 -11.00000000
3.32505441 5.80587244 -1.05968702 4 6 2980 6.77400000 3217007328 3217007328 -9.00000000
2.75313473 4.80335522 -0.67978722 6 8 2982 5.57800000 3217007333 3217007333 -7.00000000
4.14763117 7.23338747 -0.72949356 8 10 2983 8.37000000 3217007337 3217007337 -5.00000000
3.33221602 5.80662107 -0.35086024 28 12 2985 6.70400000 3217007342 3217007342 -3.00000000
5.04720640 8.79155827 2.34039068 57 13 2986 10.40400000 3217007344 3217007344 13.00000000
3.34229350 5.81947565 -0.11714055 25 14 2987 6.71200000 3217007346 3217007346 -1.00000000
3.86507750 6.72700882 2.07883453 40 15 2988 8.03200000 3217007349 3217007349 15.00000000
1.14227295 1.98166859 -0.61288351 4 0 2996 2.36800000 3217007369 3217007369 -15.00000000
3.32647276 5.76859331 0.11623303 8 1 2997 6.66000000 3217007372 3217007372 1.00000000
1.35355544 2.34631777 -0.62536395 3 2 2998 2.78000000 3217007374 3217007374 -13.00000000
3.41324782 5.91668749 0.35797793 40 3 2998 6.84000000 3217007376 3217007376 3.00000000
3.34339285 5.79326105 -1.30017245 3 4 2999 6.81400000 3217007379 3217007379 -11.00000000
3.34038377 5.78338289 -1.05780983 4 6 3001 6.76200000 3217007383 3217007383 -9.00000000
2.77469516 4.80010700 -0.68076217 6 8 3003 5.58600000 3217007388 3217007388 -7.00000000
3.36522436 5.81935358 -0.58812696 16 10 3004 6.74800000 3217007392 3217007392 -5.00000000
3.34847379 5.78572607 -0.35033688 35 12 3006 6.69400000 3217007397 3217007397 -3.00000000
5.08134794 8.77637291 2.34129047 55 13 3007 10.40800000 3217007399 3217007399 13.00000000
3.35658455 5.79507351 -0.11689622 27 14 3008 6.69800000 3217007402 3217007402 -1.00000000
3.88078952 6.70010281 2.07469344 40 15 3008 8.01600000 3217007404 3217007404 15.00000000
1.14335978 1.96764719 -0.60977769 4 0 3016 2.35600000 3217007425 3217007425 -15.00000000
3.34055877 5.74657345 0.11602360 31 1 3017 6.64800000 3217007427 3217007427 1.00000000
1.36173737 2.34157872 -0.62536395 3 2 3018 2.78000000 3217007429 3217007429 -13.00000000
3.42885995 5.89610434 0.35745457 55 3 3018 6.83000000 3217007432 3217007432 3.00000000
3.36655641 5.78664589 -1.30131733 3 4 3019 6.82000000 3217007434 3217007434 -11.00000000
3.35856318 5.76827335 -1.05718410 4 6 3021 6.75800000 3217007438 3217007438 -9.00000000
2.79343247 4.79382229 -0.68124962 6 8 3023 5.59000000 3217007443 3217007443 -7.00000000
3.37749004 5.79380083 -0.58673245 48 10 3024 6.73200000 3217007448 3217007448 -5.00000000
3.36663628 5.77055216 -0.35012755 31 12 3026 6.69000000 3217007452 3217007452 -3.00000000
5.11391687 8.76194859 2.34219027 55 13 3027 10.41200000 3217007455 3217007455 13.00000000
3.37477612 5.77986813 -0.11682641 29 14 3028 6.69400000 3217007457 3217007457 -1.00000000
3.90434623 6.68416548 2.07417583 40 15 3029 8.01400000 3217007459 3217007459 15.00000000
1.14953566 1.96404552 -0.60977769 4 0 3034 2.35600000 3217007480 3217007480 -15.00000000
3.35152292 5.72397137 0.11577927 48 1 3035 6.63400000 3217007482 3217007482 1.00000000
1.37105680 2.34065223 -0.62626374 3 2 3036 2.78400000 3217007485 3217007485 -13.00000000
3.42516828 5.84506798 0.35504714 40 3 3037 6.78400000 3217007487 3217007487 3.00000000
3.38968205 5.78451014 -1.30322540 3 4 3037 6.83000000 3217007489 3217007489 -11.00000000
3.42287278 5.83881426 0.59213614 10 5 3038 6.79400000 3217007491 3217007491 5.00000000
3.38466263 5.77132559 -1.05968702 4 6 3039 6.77400000 3217007494 3217007494 -9.00000000
3.48569727 5.94122744 0.84577322 23 7 3040 6.94000000 3217007496 3217007496 7.00000000
2.80847907 4.78502274 -0.68124962 6 8 3041 5.59000000 3217007498 3217007498 -7.00000000
3.36843705 5.73677301 -0.58202606 40 10 3042 6.67800000 3217007503 3217007503 -5.00000000
3.38778400 5.76511288 -0.35044158 35 12 3044 6.69600000 3217007508 3217007508 -3.00000000
5.14141798 8.74583912 2.34219027 56 13 3045 10.41200000 3217007510 3217007510 13.00000000
3.39697242 5.77613211 -0.11696603 31 14 3046 6.70200000 3217007512 3217007512 -1.00000000
3.92416143 6.67255163 2.07417583 42 15 3046 8.01400000 3217007515 3217007515 15.00000000
1.15638447 1.96002090 -0.60977769 4 0 3054 2.35600000 3217007535 3217007535 -15.00000000
3.37961435 5.72601414 0.11605851 31 1 3055 6.65000000 3217007538 3217007538 1.00000000
1.37525558 2.32913995 -0.62446415 3 2 3056 2.77600000 3217007540 3217007540 -13.00000000
3.39882445 5.75397205 0.35023221 50 3 3057 6.69200000 3217007542 3217007542 3.00000000
3.40985298 5.77264309 -1.30322540 2 4 3057 6.83000000 3217007544 3217007544 -11.00000000
3.44323325 5.82683086 0.59213614 37 5 3058 6.79400000 3217007547 3217007547 5.00000000
3.40679836 5.76287651 -1.06031275 4 6 3059 6.77800000 3217007549 3217007549 -9.00000000
3.49226785 5.90510273 0.84236091 39 7 3060 6.91200000 3217007551 3217007551 7.00000000
2.82415390 4.77348185 -0.68100590 6 8 3061 5.58800000 3217007554 3217007554 -7.00000000
3.39453030 5.73526716 -0.58307195 40 10 3062 6.69000000 3217007558 3217007558 -5.00000000
3.40788746 5.75325203 -0.35044158 35 12 3064 6.69600000 3217007563 3217007563 -3.00000000
5.17191553 8.72783947 2.34219027 55 13 3065 10.41200000 3217007565 3217007565 13.00000000
3.42629170 5.77972078 -0.11728017 31 14 3066 6.72000000 3217007568 3217007568 -1.00000000
1.17111886 1.96925581 -0.61391878 4 0 3074 2.37200000 3217007591 3217007591 -15.00000000
3.42718673 5.76058292 0.11700093 28 1 3075 6.70400000 3217007593 3217007593 1.00000000
1.38337743 2.32432508 -0.62446415 3 2 3076 2.77600000 3217007595 3217007595 -13.00000000
3.39130068 5.69573832 0.34740609 55 3 3077 6.63800000 3217007597 3217007597 3.00000000
3.41993856 5.74383640 -1.29940927 3 4 3077 6.81000000 3217007600 3217007600 -11.00000000
3.40747428 5.72063017 0.58254898 100 5 3078 6.68400000 3217007602 3217007602 5.00000000
3.43093848 5.75773716 -1.06156433 4 6 3079 6.78600000 3217007604 3217007604 -9.00000000
3.51082635 5.88946629 0.84187341 55 7 3080 6.90800000 3217007607 3217007607 7.00000000
2.83774900 4.75848007 -0.68027467 6 8 3081 5.58200000 3217007609 3217007609 -7.00000000
3.42677903 5.74391556 -0.58516365 40 10 3082 6.71400000 3217007614 3217007614 -5.00000000
3.43818808 5.75847006 -0.35148829 35 12 3084 6.71600000 3217007618 3217007618 -3.00000000
5.19435549 8.69634819 2.33859110 55 13 3085 10.39600000 3217007621 3217007621 13.00000000
3.44131708 5.75914240 -0.11710565 31 14 3086 6.71000000 3217007623 3217007623 -1.00000000
4.51268625 7.55210924 2.35732388 29 15 3086 9.10800000 3217007625 3217007625 15.00000000
1.17401266 1.95852804 -0.61184824 4 0 3094 2.36400000 3217007646 3217007646 -15.00000000
3.44830251 5.75029993 0.11703584 31 1 3095 6.70600000 3217007648 3217007648 1.00000000
1.38947737 2.31613994 -0.62356430 3 2 3096 2.77200000 3217007650 3217007650 -13.00000000
3.41116166 5.68386555 0.34740609 80 3 3097 6.63800000 3217007653 3217007653 3.00000000
3.44602919 5.74196386 -1.30169892 2 4 3097 6.82200000 3217007655 3217007655 -11.00000000
3.42126870 5.69845200 0.58150309 74 5 3098 6.67200000 3217007657 3217007657 5.00000000
3.45711827 5.75588655 -1.06344151 4 6 3099 6.79800000 3217007660 3217007660 -9.00000000
3.52829599 5.87207031 0.84114224 60 7 3100 6.90200000 3217007662 3217007662 7.00000000
2.86047816 4.75875378 -0.68173712 6 8 3101 5.59400000 3217007664 3217007664 -7.00000000
3.45296860 5.74216366 -0.58620954 40 10 3102 6.72600000 3217007669 3217007669 -5.00000000
3.46856642 5.76354599 -0.35253501 35 12 3104 6.73600000 3217007673 3217007673 -3.00000000
5.22668982 8.68150330 2.33949089 56 13 3105 10.40000000 3217007676 3217007676 13.00000000
3.45727253 5.74024296 -0.11696603 29 14 3106 6.70200000 3217007678 3217007678 -1.00000000
4.54232979 7.53882790 2.35835910 40 15 3107 9.11200000 3217007680 3217007680 15.00000000
1.17450857 1.94470215 -0.60874242 4 0 3113 2.35200000 3217007701 3217007701 -15.00000000
3.46528411 5.73541021 0.11696603 28 1 3114 6.70200000 3217007703 3217007703 1.00000000
1.40420675 2.32319379 -0.62671363 3 2 3115 2.78600000 3217007706 3217007706 -13.00000000
3.42482424 5.66397715 0.34688273 85 3 3116 6.62800000 3217007708 3217007708 3.00000000
3.46098781 5.72378445 -1.30017245 3 4 3116 6.81400000 3217007710 3217007710 -11.00000000
3.42674088 5.66491365 0.57923704 65 5 3117 6.64600000 3217007713 3217007713 5.00000000
3.48845911 5.76467085 -1.06719589 4 6 3118 6.82200000 3217007715 3217007715 -9.00000000
3.55288911 5.86882877 0.84236091 55 7 3119 6.91200000 3217007717 3217007717 7.00000000
2.88241291 4.75942945 -0.68319952 9 8 3120 5.60600000 3217007720 3217007720 -7.00000000
3.48541260 5.75283384 -0.58847558 40 10 3121 6.75200000 3217007724 3217007724 -5.00000000
3.49801540 5.76909065 -0.35358173 36 12 3123 6.75600000 3217007729 3217007729 -3.00000000
5.25747156 8.66745567 2.34039068 57 13 3124 10.40400000 3217007731 3217007731 13.00000000
3.47628880 5.72874689 -0.11696603 31 14 3125 6.70200000 3217007733 3217007733 -1.00000000
4.55797386 7.51130819 2.35421801 40 15 3125 9.09600000 3217007736 3217007736 15.00000000
1.18128967 1.94059050 -0.60874242 4 0 3133 2.35200000 3217007756 3217007756 -15.00000000
3.48944354 5.73011065 0.11710565 28 1 3134 6.71000000 3217007759 3217007759 1.00000000
1.41129375 2.31661391 -0.62626374 3 2 3135 2.78400000 3217007761 3217007761 -13.00000000
3.44665313 5.65539885 0.34709206 77 3 3136 6.63200000 3217007763 3217007763 3.00000000
3.49014187 5.72675657 -1.30360711 3 4 3136 6.83200000 3217007766 3217007766 -11.00000000
3.45168018 5.66142321 0.58010864 65 5 3137 6.65600000 3217007768 3217007768 5.00000000
3.55793309 5.83340788 -1.08221364 4 6 3138 6.91800000 3217007770 3217007770 -9.00000000
3.56714988 5.84622383 0.84089845 52 7 3139 6.90000000 3217007773 3217007773 7.00000000
2.90831733 4.76458836 -0.68539321 9 8 3140 5.62400000 3217007775 3217007775 -7.00000000
3.55012155 5.81375074 -0.59597099 40 10 3141 6.83800000 3217007779 3217007779 -5.00000000
3.56187415 5.82842207 -0.35797793 29 12 3143 6.84000000 3217007784 3217007784 -3.00000000
5.29074383 8.65403843 2.34174037 54 13 3144 10.41000000 3217007786 3217007786 13.00000000
3.50878501 5.73704863 -0.11738489 29 14 3145 6.72600000 3217007789 3217007789 -1.00000000
4.59051466 7.50279140 2.35680628 42 15 3146 9.10600000 3217007791 3217007791 15.00000000
1.19445753 1.94612658 -0.61184824 4 0 3154 2.36400000 3217007812 3217007812 -15.00000000
3.51670003 5.72750759 0.11731508 28 1 3155 6.72200000 3217007814 3217007814 1.00000000
1.41569531 2.30478358 -0.62446415 3 2 3156 2.77600000 3217007816 3217007816 -13.00000000
3.47676873 5.65804291 0.34803411 62 3 3157 6.65000000 3217007819 3217007819 3.00000000
3.54502678 5.76912498 -1.31620049 3 4 3157 6.89800000 3217007821 3217007821 -11.00000000
3.47032022 5.64533949 0.57976002 65 5 3158 6.65200000 3217007823 3217007823 5.00000000
3.58963752 5.83715487 -1.08534229 4 6 3159 6.93800000 3217007826 3217007826 -9.00000000
3.59167385 5.83818245 0.84162968 34 7 3160 6.90600000 3217007828 3217007828 7.00000000
2.91639662 4.73868179 -0.68319952 9 8 3161 5.60600000 3217007830 3217007830 -7.00000000
3.57453990 5.80578995 -0.59649390 40 10 3162 6.84400000 3217007835 3217007835 -5.00000000
3.58530784 5.81872892 -0.35818729 36 12 3164 6.84400000 3217007839 3217007839 -3.00000000
5.31629181 8.62463570 2.33904099 54 13 3165 10.39800000 3217007842 3217007842 13.00000000
3.54973102 5.75648928 -0.11804808 25 14 3166 6.76400000 3217007844 3217007844 -1.00000000
4.61566210 7.48507738 2.35628867 40 15 3166 9.10400000 3217007846 3217007846 15.00000000
1.20327616 1.94523120 -0.61288351 4 0 3174 2.36800000 3217007867 3217007867 -15.00000000
3.54719400 5.73220158 0.11766412 28 1 3175 6.74200000 3217007869 3217007869 1.00000000
1.42168033 2.29651403 -0.62356430 3 2 3176 2.77200000 3217007872 3217007872 -13.00000000
3.49544621 5.64417458 0.34792945 50 3 3177 6.64800000 3217007874 3217007874 3.00000000
3.62716365 5.85686159 -1.33909750 2 4 3177 7.01800000 3217007876 3217007876 -11.00000000
3.49735022 5.64504719 0.58098018 68 5 3178 6.66600000 3217007879 3217007879 5.00000000
3.62039757 5.84137964 -1.08847106 4 6 3179 6.95800000 3217007881 3217007881 -9.00000000
3.62144542 5.84079361 0.84382331 13 7 3180 6.92400000 3217007883 3217007883 7.00000000
2.93082738 4.72509909 -0.68271208 6 8 3181 5.60200000 3217007885 3217007885 -7.00000000
3.59268308 5.78989124 -0.59614527 40 10 3182 6.84000000 3217007890 3217007890 -5.00000000
3.61824107 5.82653904 -0.35944334 36 12 3184 6.86800000 3217007895 3217007895 -3.00000000
5.34430790 8.60271454 2.33814120 54 13 3185 10.39400000 3217007897 3217007897 13.00000000
3.63313508 5.84596872 -0.12014236 23 14 3186 6.88400000 3217007899 3217007899 -1.00000000
4.63898516 7.46154737 2.35421801 40 15 3187 9.09600000 3217007902 3217007902 15.00000000
1.20767665 1.93795121 -0.61184824 4 0 3193 2.36400000 3217007922 3217007922 -15.00000000
3.57253051 5.73058891 0.11787355 28 1 3194 6.75400000 3217007925 3217007925 1.00000000
1.43753791 2.30501509 -0.62716353 3 2 3195 2.78800000 3217007927 3217007927 -13.00000000
3.55643201 5.70033264 0.35211632 75 3 3196 6.72800000 3217007929 3217007929 3.00000000
1.73443103 2.77998662 -0.63692045 2 4 3196 3.33800000 3217007932 3217007932 -11.00000000
3.51710558 5.63510895 0.58115447 64 5 3197 6.66800000 3217007934 3217007934 5.00000000
2.18866158 3.50531268 -0.65452182 2 6 3198 4.18400000 3217007936 3217007936 -9.00000000
2.94227242 4.70862007 -0.68173712 6 8 3200 5.59400000 3217007941 3217007941 -7.00000000
5.37177277 8.58329296 2.33769131 55 13 3204 10.39200000 3217007952 3217007952 13.00000000
3.65143991 5.83219385 -0.12010746 6 14 3205 6.88200000 3217007955 3217007955 -1.00000000
4.66342878 7.44857407 2.35473561 42 15 3205 9.09800000 3217007957 3217007957 15.00000000
1.20826936 1.92390800 -0.60874242 4 0 3213 2.35200000 3217007978 3217007978 -15.00000000
3.60634184 5.74009562 0.11832731 25 1 3214 6.78000000 3217007980 3217007980 1.00000000
1.44764912 2.30328298 -0.62806332 3 2 3215 2.79200000 3217007982 3217007982 -13.00000000
3.56355095 5.66759348 0.35086024 52 3 3216 6.70400000 3217007985 3217007985 3.00000000
1.74412441 2.77391529 -0.63692045 2 4 3216 3.33800000 3217007987 3217007987 -11.00000000
3.55372739 5.64978170 0.58394349 67 5 3217 6.70000000 3217007989 3217007989 5.00000000
2.19667578 3.49096394 -0.65327030 2 6 3218 4.17600000 3217007991 3217007991 -9.00000000
2.97350001 4.72183800 -0.68514943 6 8 3220 5.62200000 3217007996 3217007996 -7.00000000
4.45399141 7.07008171 -0.73106235 4 10 3221 8.38800000 3217008001 3217008001 -5.00000000
5.40585947 8.57108307 2.33949089 56 13 3224 10.40000000 3217008008 3217008008 13.00000000
4.68733883 7.42898273 2.35370040 42 15 3225 9.09400000 3217008012 3217008012 15.00000000
1.21704400 1.92294335 -0.60977769 4 0 3233 2.35600000 3217008033 3217008033 -15.00000000
3.66165733 5.78322649 0.11947917 25 1 3234 6.84600000 3217008035 3217008035 1.00000000
1.45776582 2.30150819 -0.62896317 3 2 3235 2.79600000 3217008038 3217008038 -13.00000000
3.60041690 5.68211365 0.35253501 45 3 3236 6.73600000 3217008040 3217008040 3.00000000
1.75169492 2.76449370 -0.63615721 2 4 3236 3.33400000 3217008042 3217008042 -11.00000000
3.58089399 5.64912176 0.58516365 50 5 3237 6.71400000 3217008044 3217008044 5.00000000
2.20779037 3.48160648 -0.65295744 2 6 3238 4.17400000 3217008047 3217008047 -9.00000000
2.97932744 4.69466877 -0.68271208 4 8 3240 5.60200000 3217008051 3217008051 -7.00000000
4.48291492 7.06121922 -0.73175961 4 10 3241 8.39600000 3217008056 3217008056 -5.00000000
5.43365431 8.54887199 2.33859110 55 13 3244 10.39600000 3217008063 3217008063 13.00000000
4.71738863 7.41909647 2.35577106 42 15 3245 9.10200000 3217008067 3217008067 15.00000000
1.22790432 1.92519844 -0.61184824 4 0 3253 2.36400000 3217008088 3217008088 -15.00000000
3.68074679 5.76872349 0.11944427 17 1 3254 6.84400000 3217008091 3217008091 1.00000000
1.45320880 2.27669406 -0.62356430 3 2 3255 2.77200000 3217008093 3217008093 -13.00000000
3.73846698 5.85467911 0.36404890 20 3 3256 6.95600000 3217008095 3217008095 3.00000000
1.77190006 2.77490902 -0.63997334 2 4 3256 3.35400000 3217008097 3217008097 -11.00000000
3.72071815 5.82464218 0.60468656 20 5 3257 6.93800000 3217008100 3217008100 5.00000000
2.21567512 3.46722054 -0.65170598 2 6 3258 4.16600000 3217008102 3217008102 -9.00000000
2.99569678 4.68424034 -0.68271208 4 8 3260 5.60200000 3217008107 3217008107 -7.00000000
4.51397848 7.05559778 -0.73280549 4 10 3261 8.40800000 3217008111 3217008111 -5.00000000
5.45925808 8.52328873 2.33679152 56 13 3264 10.38800000 3217008118 3217008118 13.00000000
4.63091373 7.22447872 2.29934835 24 15 3266 8.88400000 3217008123 3217008123 15.00000000
1.23670602 1.92415071 -0.61288351 4 0 3273 2.36800000 3217008144 3217008144 -15.00000000
1.46325552 2.27488542 -0.62446415 3 2 3275 2.77600000 3217008148 3217008148 -13.00000000
1.77732599 2.76210308 -0.63844693 2 4 3276 3.34600000 3217008153 3217008153 -11.00000000
2.23845959 3.47607350 -0.65483469 2 6 3278 4.18600000 3217008157 3217008157 -9.00000000
3.01095414 4.67208624 -0.68246830 4 8 3280 5.60000000 3217008162 3217008162 -7.00000000
4.54073858 7.04314709 -0.73315412 4 10 3281 8.41200000 3217008167 3217008167 -5.00000000
5.48052263 8.49108219 2.33319235 57 13 3284 10.37200000 3217008173 3217008173 13.00000000
4.74077463 7.34216309 2.34179473 49 15 3285 9.04800000 3217008178 3217008178 15.00000000
1.24551535 1.92306507 -0.61391878 4 0 3293 2.37200000 3217008199 3217008199 -15.00000000
1.47754705 2.27957559 -0.62716353 3 2 3295 2.78800000 3217008203 3217008203 -13.00000000
1.78909302 2.75917673 -0.63921010 2 4 3296 3.35000000 3217008208 3217008208 -11.00000000
2.24950433 3.46658158 -0.65452182 2 6 3298 4.18400000 3217008213 3217008213 -9.00000000
3.03156924 4.66820717 -0.68344325 6 8 3300 5.60800000 3217008217 3217008217 -7.00000000
4.55010033 7.00386333 -0.73071373 4 10 3301 8.38400000 3217008222 3217008222 -5.00000000
5.51437855 8.47843361 2.33499193 56 13 3304 10.38000000 3217008229 3217008229 13.00000000
4.79903555 7.37576723 2.35784149 40 15 3305 9.11000000 3217008233 3217008233 15.00000000
1.24099803 1.90296102 -0.60874242 4 0 3311 2.35200000 3217008254 3217008254 -15.00000000
1.48683131 2.27818632 -0.62806332 3 2 3313 2.79200000 3217008259 3217008259 -13.00000000
1.79560578 2.75025487 -0.63844693 2 4 3314 3.34600000 3217008263 3217008263 -11.00000000
2.26470590 3.46611214 -0.65577328 2 6 3316 4.19200000 3217008268 3217008268 -9.00000000
3.04839253 4.66198301 -0.68393075 9 8 3318 5.61200000 3217008272 3217008272 -7.00000000
4.57862520 6.99953842 -0.73175961 4 10 3319 8.39600000 3217008277 3217008277 -5.00000000
5.54846048 8.47247982 2.33814120 54 13 3322 10.39400000 3217008284 3217008284 13.00000000
4.81371403 7.34772682 2.35370040 40 15 3323 9.09400000 3217008289 3217008289 15.00000000
1.25824213 1.91476226 -0.61391878 4 0 3331 2.37200000 3217008309 3217008309 -15.00000000
1.49263310 2.26972604 -0.62716353 3 2 3333 2.78800000 3217008314 3217008314 -13.00000000
1.79872096 2.73412943 -0.63615721 2 4 3334 3.33400000 3217008319 3217008319 -11.00000000
2.26484227 3.44003677 -0.65233171 2 6 3336 4.17000000 3217008323 3217008323 -9.00000000
3.06573939 4.65297127 -0.68417448 6 8 3338 5.61400000 3217008328 3217008328 -7.00000000
4.60412645 6.98517704 -0.73193395 4 10 3339 8.39800000 3217008332 3217008332 -5.00000000
5.57692766 8.45143414 2.33769131 56 13 3342 10.39200000 3217008339 3217008339 13.00000000
4.84700012 7.33970642 2.35680628 40 15 3344 9.10600000 3217008344 3217008344 15.00000000
1.25851905 1.90069389 -0.61081296 4 0 3351 2.36000000 3217008365 3217008365 -15.00000000
1.49624109 2.25800419 -0.62536395 3 2 3353 2.78000000 3217008369 3217008369 -13.00000000
1.81042337 2.73110676 -0.63692045 2 4 3354 3.33800000 3217008374 3217008374 -11.00000000
2.28448033 3.44363284 -0.65452182 2 6 3356 4.18400000 3217008378 3217008378 -9.00000000
3.08635449 4.64885664 -0.68514943 6 8 3358 5.62200000 3217008383 3217008383 -7.00000000
4.64722013 6.99727774 -0.73489720 4 10 3359 8.43200000 3217008388 3217008388 -5.00000000
5.60855293 8.43516064 2.33859110 57 13 3362 10.39600000 3217008395 3217008395 13.00000000
4.87345266 7.32680988 2.35784149 40 15 3363 9.11000000 3217008399 3217008399 15.00000000
1.26729035 1.89950335 -0.61184824 4 0 3371 2.36400000 3217008420 3217008420 -15.00000000
1.50194967 2.24952602 -0.62446415 3 2 3373 2.77600000 3217008424 3217008424 -13.00000000
1.81558383 2.71824026 -0.63539398 2 4 3374 3.33000000 3217008429 3217008429 -11.00000000
2.29648709 3.43563747 -0.65452182 2 6 3376 4.18400000 3217008434 3217008434 -9.00000000
3.09152603 4.62155533 -0.68271208 6 8 3378 5.60200000 3217008438 3217008438 -7.00000000
4.66496849 6.97107840 -0.73385137 4 10 3379 8.42000000 3217008443 3217008443 -5.00000000
5.63145494 8.40581799 2.33589172 55 13 3382 10.38400000 3217008450 3217008450 13.00000000
4.90007353 7.31135845 2.35835910 45 15 3383 9.11200000 3217008454 3217008454 15.00000000
1.27175760 1.89186156 -0.61081296 4 0 3391 2.36000000 3217008475 3217008475 -15.00000000
1.51414382 2.25073719 -0.62626374 3 2 3393 2.78400000 3217008480 3217008480 -13.00000000
1.82067668 2.70537090 -0.63386750 2 4 3394 3.32200000 3217008484 3217008484 -11.00000000
2.31729341 3.44070768 -0.65702474 2 6 3396 4.20000000 3217008489 3217008489 -9.00000000
3.11651516 4.62390471 -0.68466198 6 8 3398 5.61800000 3217008494 3217008494 -7.00000000
4.68704605 6.95144796 -0.73350275 4 10 3399 8.41600000 3217008498 3217008498 -5.00000000
5.66076231 8.38610935 2.33589172 57 13 3402 10.38400000 3217008505 3217008505 13.00000000
4.91926861 7.28214407 2.35473561 40 15 3404 9.09800000 3217008510 3217008510 15.00000000
1.27943695 1.88901031 -0.61133057 4 0 3411 2.36200000 3217008530 3217008530 -15.00000000
1.52636468 2.25189066 -0.62806332 3 2 3413 2.79200000 3217008535 3217008535 -13.00000000
1.84112728 2.71524835 -0.63768369 2 4 3414 3.34200000 3217008540 3217008540 -11.00000000
2.32152534 3.42115593 -0.65483469 2 6 3416 4.18600000 3217008544 3217008544 -9.00000000
3.13932800 4.62285137 -0.68612438 6 8 3418 5.63000000 3217008549 3217008549 -7.00000000
4.70120621 6.92021227 -0.73193395 4 10 3419 8.39800000 3217008554 3217008554 -5.00000000
5.69109678 8.36791039 2.33634162 54 13 3422 10.38600000 3217008560 3217008560 13.00000000
4.94031000 7.25854015 2.35266519 42 15 3424 9.09000000 3217008565 3217008565 15.00000000
1.28166735 1.87814987 -0.60926002 4 0 3431 2.35400000 3217008586 3217008586 -15.00000000
1.53201795 2.24333024 -0.62716353 3 2 3433 2.78800000 3217008590 3217008590 -13.00000000
1.84837902 2.70556307 -0.63692045 4 4 3434 3.33800000 3217008595 3217008595 -11.00000000
2.33345318 3.41303134 -0.65483469 2 6 3436 4.18600000 3217008600 3217008600 -9.00000000
3.15096188 4.60531139 -0.68514943 6 8 3438 5.62200000 3217008604 3217008604 -7.00000000
4.72645855 6.90540409 -0.73210824 4 10 3439 8.40000000 3217008609 3217008609 -5.00000000
5.72577953 8.35603142 2.33859110 55 13 3442 10.39600000 3217008616 3217008616 13.00000000
4.96780205 7.24443722 2.35370040 42 15 3444 9.09400000 3217008620 3217008620 15.00000000
1.29697144 1.88639975 -0.61340111 4 0 3451 2.37000000 3217008641 3217008641 -15.00000000
1.53983927 2.23796892 -0.62716353 3 2 3453 2.78800000 3217008646 3217008646 -13.00000000
1.86226451 2.70556331 -0.63844693 4 4 3454 3.34600000 3217008650 3217008650 -11.00000000
2.34423208 3.40323853 -0.65452182 2 6 3456 4.18400000 3217008655 3217008655 -9.00000000
3.16701818 4.59428453 -0.68514943 6 8 3458 5.62200000 3217008660 3217008660 -7.00000000
4.75279665 6.89214373 -0.73245686 8 10 3459 8.40400000 3217008664 3217008664 -5.00000000
5.74826956 8.32637119 2.33589172 59 13 3462 10.38400000 3217008671 3217008671 13.00000000
4.99964809 7.23658895 2.35680628 45 15 3464 9.10600000 3217008676 3217008676 15.00000000
1.30684841 1.88662517 -0.61495405 4 0 3471 2.37600000 3217008696 3217008696 -15.00000000
1.54986238 2.23578334 -0.62806332 3 2 3473 2.79200000 3217008701 3217008701 -13.00000000
1.86498475 2.68936658 -0.63615721 4 4 3474 3.33400000 3217008706 3217008706 -11.00000000
3.17624187 4.57341862 -0.68368703 6 8 3478 5.61000000 3217008715 3217008715 -7.00000000
4.79046726 6.89514637 -0.73454863 8 10 3479 8.42800000 3217008719 3217008719 -5.00000000
5.77062273 8.29665661 2.33319235 57 13 3482 10.37200000 3217008726 3217008726 13.00000000
5.02582502 7.22314119 2.35784149 40 15 3483 9.11000000 3217008731 3217008731 15.00000000
1.30900371 1.87571514 -0.61288351 4 0 3491 2.36800000 3217008752 3217008752 -15.00000000
1.55765724 2.23035979 -0.62806332 3 2 3493 2.79200000 3217008756 3217008756 -13.00000000
1.87436104 2.68284011 -0.63615721 4 4 3494 3.33400000 3217008761 3217008761 -11.00000000
2.37359333 3.39488459 -0.65608615 2 6 3496 4.19400000 3217008765 3217008765 -9.00000000
3.20356703 4.57856846 -0.68612438 6 8 3498 5.63000000 3217008770 3217008770 -7.00000000
4.81679153 6.88164711 -0.73489720 8 10 3499 8.43200000 3217008775 3217008775 -5.00000000
5.80625820 8.28603840 2.33589172 59 13 3502 10.38400000 3217008782 3217008782 13.00000000
5.04782867 7.19834518 2.35577106 45 15 3504 9.10200000 3217008786 3217008786 15.00000000
1.30855167 1.86188066 -0.60977769 4 0 3510 2.35600000 3217008807 3217008807 -15.00000000
1.56504476 2.22518206 -0.62806332 3 2 3512 2.79200000 3217008812 3217008812 -13.00000000
1.88550675 2.67982101 -0.63692045 4 4 3513 3.33800000 3217008816 3217008816 -11.00000000
2.38028908 3.38053417 -0.65483469 2 6 3515 4.18600000 3217008821 3217008821 -9.00000000
3.23702741 4.59388351 -0.69002420 6 8 3517 5.66200000 3217008825 3217008825 -7.00000000
4.83728981 6.86237955 -0.73454863 13 10 3518 8.42800000 3217008830 3217008830 -5.00000000
5.83819818 8.27310753 2.33769131 55 13 3521 10.39200000 3217008837 3217008837 13.00000000
5.07264614 7.18560791 2.35680628 42 15 3522 9.10600000 3217008842 3217008842 15.00000000
1.31615925 1.85887825 -0.61029530 4 0 3530 2.35800000 3217008862 3217008862 -15.00000000
1.57392931 2.22129560 -0.62851322 4 2 3532 2.79400000 3217008867 3217008867 -13.00000000
1.90393209 2.68603659 -0.63997334 4 4 3533 3.35400000 3217008871 3217008871 -11.00000000
2.39436078 3.37542725 -0.65546042 2 6 3535 4.19000000 3217008876 3217008876 -9.00000000
