# .PCD v0.7 - Point Cloud Data file format
VERSION 0.7
FIELDS x y z intensity laser_id azimuth distance_m adjustedtime timestamp vertical_angle
SIZE 4 4 4 1 1 2 8 8 4 8
TYPE F F F U U U F U U F
COUNT 1 1 1 1 1 1 1 1 1 1
WIDTH 527
HEIGHT 1
VIEWPOINT 0 0 0 1 0 0 0
POINTS 527
DATA ascii
-7.65416050 0.22583310 -0.40131211 12 12 27169 7.66800000 3216374588 3216374588 -3.00000000
-10.13963509 0.30270863 2.71811771 45 15 27171 10.50200000 3216374595 3216374595 15.00000000
-1.94442534 0.06076633 -0.52126157 4 0 27179 2.01400000 3216374616 3216374616 -15.00000000
-2.24382854 0.07090716 -0.51828724 4 2 27181 2.30400000 3216374620 3216374620 -13.00000000
-2.61373568 0.08305323 -0.50831515 3 4 27182 2.66400000 3216374625 3216374625 -11.00000000
-3.14120388 0.10091150 -0.49777448 3 6 27184 3.18200000 3216374630 3216374630 -9.00000000
-3.95023632 0.12828209 -0.48528373 7 8 27186 3.98200000 3216374634 3216374634 -7.00000000
-5.18541908 0.16930005 -0.45390710 6 10 27187 5.20800000 3216374639 3216374639 -5.00000000
-7.65332556 0.25254974 -0.40131211 12 12 27189 7.66800000 3216374643 3216374643 -3.00000000
-10.13845825 0.33987021 2.71811771 45 15 27192 10.50200000 3216374650 3216374650 15.00000000
-1.95385480 0.06788868 -0.52384973 4 0 27199 2.02400000 3216374671 3216374671 -15.00000000
-2.23188210 0.07832906 -0.51558781 4 2 27201 2.29200000 3216374676 3216374676 -13.00000000
-2.63697410 0.09300678 -0.51289457 3 4 27202 2.68800000 3216374680 3216374680 -11.00000000
-3.14872885 0.11215700 -0.49902594 3 6 27204 3.19000000 3216374685 3216374685 -9.00000000
-3.94182920 0.14178477 -0.48430878 7 8 27206 3.97400000 3216374690 3216374690 -7.00000000
-5.19276094 0.18768737 -0.45460436 6 10 27207 5.21600000 3216374694 3216374694 -5.00000000
-7.64042187 0.27882627 -0.40068409 12 12 27209 7.65600000 3216374699 3216374699 -3.00000000
-10.14499760 0.37377319 2.72018814 42 15 27211 10.51000000 3216374706 3216374706 15.00000000
-1.95746684 0.07485615 -0.52488500 4 0 27219 2.02800000 3216374726 3216374726 -15.00000000
-2.23354244 0.08619445 -0.51603770 4 2 27221 2.29400000 3216374731 3216374731 -13.00000000
-2.62093925 0.10160257 -0.50984162 3 4 27222 2.67200000 3216374736 3216374736 -11.00000000
-3.15226603 0.12330185 -0.49965167 3 6 27224 3.19400000 3216374740 3216374740 -9.00000000
-3.94527745 0.15570003 -0.48479626 7 8 27226 3.97800000 3216374745 3216374745 -7.00000000
-5.19207382 0.20581234 -0.45460436 6 10 27227 5.21600000 3216374749 3216374749 -5.00000000
-7.64738464 0.30581382 -0.40110278 16 12 27229 7.66400000 3216374754 3216374754 -3.00000000
-10.15128040 0.41126677 2.72225881 47 15 27232 10.51800000 3216374761 3216374761 15.00000000
-1.94755685 0.08094580 -0.52229685 5 0 27238 2.01800000 3216374782 3216374782 -15.00000000
-2.24103236 0.09392709 -0.51783735 4 2 27240 2.30200000 3216374786 3216374786 -13.00000000
-2.61666489 0.11012825 -0.50907838 3 4 27241 2.66800000 3216374791 3216374791 -11.00000000
-3.15973425 0.13408947 -0.50090313 3 6 27243 3.20200000 3216374796 3216374796 -9.00000000
-3.94077277 0.16861247 -0.48430878 7 8 27245 3.97400000 3216374800 3216374800 -7.00000000
-5.17941952 0.22251564 -0.45355847 6 10 27246 5.20400000 3216374805 3216374805 -5.00000000
-7.65430975 0.33151749 -0.40152144 20 12 27248 7.67200000 3216374809 3216374809 -3.00000000
-10.13835812 0.44265026 2.71915293 45 15 27250 10.50600000 3216374816 3216374816 15.00000000
-1.94533253 0.08765659 -0.52177918 4 0 27258 2.01600000 3216374837 3216374837 -15.00000000
-2.25042462 0.10219118 -0.52008682 4 2 27260 2.31200000 3216374842 3216374842 -13.00000000
-2.62803173 0.11979786 -0.51136810 3 4 27261 2.68000000 3216374846 3216374846 -11.00000000
-3.13951397 0.14421177 -0.49777448 3 6 27263 3.18200000 3216374851 3216374851 -9.00000000
-3.95602417 0.18310153 -0.48625869 7 8 27265 3.99000000 3216374855 3216374855 -7.00000000
-5.19055271 0.24114862 -0.45460436 6 10 27266 5.21600000 3216374860 3216374860 -5.00000000
-7.65909147 0.35851416 -0.40183547 28 12 27268 7.67800000 3216374865 3216374865 -3.00000000
-10.12894917 0.47944087 2.71708226 45 15 27271 10.49800000 3216374872 3216374872 15.00000000
-1.95078695 0.09506811 -0.52333212 4 0 27279 2.02200000 3216374892 3216374892 -15.00000000
-2.24614215 0.11024764 -0.51918703 4 2 27281 2.30800000 3216374897 3216374897 -13.00000000
-2.61973166 0.12904291 -0.50984162 3 4 27282 2.67200000 3216374902 3216374902 -11.00000000
-3.16658545 0.15708792 -0.50215465 3 6 27284 3.21000000 3216374906 3216374906 -9.00000000
-3.95532632 0.19759986 -0.48625869 5 8 27286 3.99000000 3216374911 3216374911 -7.00000000
-5.18565416 0.25997183 -0.45425573 6 10 27287 5.21200000 3216374915 3216374915 -5.00000000
-7.65174150 0.38628161 -0.40152144 20 12 27289 7.67200000 3216374920 3216374920 -3.00000000
-10.13107204 0.51499075 2.71811771 45 15 27291 10.50200000 3216374927 3216374927 15.00000000
-1.95237243 0.10197782 -0.52384973 5 0 27299 2.02400000 3216374948 3216374948 -15.00000000
-2.23601341 0.11757582 -0.51693749 4 2 27301 2.29800000 3216374952 3216374952 -13.00000000
-2.62318611 0.13839357 -0.51060486 3 4 27302 2.67600000 3216374957 3216374957 -11.00000000
-3.16207266 0.16793090 -0.50152892 3 6 27304 3.20600000 3216374961 3216374961 -9.00000000
-3.95064807 0.21119338 -0.48577121 5 8 27306 3.98600000 3216374966 3216374966 -7.00000000
-5.19665241 0.27871177 -0.45530161 6 10 27307 5.22400000 3216374971 3216374971 -5.00000000
-7.63838053 0.41234285 -0.40089342 24 12 27309 7.66000000 3216374975 3216374975 -3.00000000
-10.13307095 0.55056125 2.71915293 45 15 27311 10.50600000 3216374982 3216374982 15.00000000
-1.95588124 0.10866588 -0.52488500 4 0 27318 2.02800000 3216375003 3216375003 -15.00000000
-2.22977400 0.12466372 -0.51558781 4 2 27320 2.29200000 3216375008 3216375008 -13.00000000
-2.61095190 0.14643200 -0.50831515 3 4 27321 2.66400000 3216375012 3216375012 -11.00000000
-3.15360951 0.17797057 -0.50027740 3 6 27323 3.19800000 3216375017 3216375017 -9.00000000
-3.96181726 0.22496830 -0.48723364 5 8 27325 3.99800000 3216375021 3216375021 -7.00000000
-5.19172144 0.29571635 -0.45495299 6 10 27326 5.22000000 3216375026 3216375026 -5.00000000
-7.65292311 0.43858457 -0.40173081 28 12 27328 7.67600000 3216375031 3216375031 -3.00000000
-10.13697529 0.58449435 2.72070575 42 15 27330 10.51200000 3216375037 3216375037 15.00000000
-1.94970453 0.11515083 -0.52333212 4 0 27338 2.02200000 3216375058 3216375058 -15.00000000
-2.23710656 0.13290861 -0.51738745 4 2 27340 2.30000000 3216375063 3216375063 -13.00000000
-2.61434436 0.15577857 -0.50907838 3 4 27341 2.66800000 3216375067 3216375067 -11.00000000
-3.15296912 0.18897764 -0.50027740 3 6 27343 3.19800000 3216375072 3216375072 -9.00000000
-3.96695232 0.23915462 -0.48796484 6 8 27345 4.00400000 3216375077 3216375077 -7.00000000
-5.19662380 0.31419778 -0.45547593 6 10 27346 5.22600000 3216375081 3216375081 -5.00000000
-7.65732622 0.46565929 -0.40204480 36 12 27348 7.68200000 3216375086 3216375086 -3.00000000
-10.11741066 0.62057984 2.71604705 45 15 27351 10.49400000 3216375093 3216375093 15.00000000
-1.93965030 0.12135272 -0.52074391 4 0 27358 2.01200000 3216375114 3216375114 -15.00000000
-2.25413299 0.14181803 -0.52143657 4 2 27360 2.31800000 3216375118 3216375118 -13.00000000
-2.62162209 0.16539785 -0.51060486 3 4 27361 2.67600000 3216375123 3216375123 -11.00000000
-3.15229011 0.19998242 -0.50027740 3 6 27363 3.19800000 3216375127 3216375127 -9.00000000
-3.97401762 0.25350592 -0.48893979 4 8 27365 4.01200000 3216375132 3216375132 -7.00000000
-5.18754196 0.33182672 -0.45477867 6 10 27366 5.21800000 3216375137 3216375137 -5.00000000
-7.66163349 0.49277008 -0.40235883 28 12 27368 7.68800000 3216375141 3216375141 -3.00000000
-10.11144161 0.65387762 2.71501184 42 15 27370 10.49000000 3216375148 3216375148 15.00000000
-1.93535960 0.12786791 -0.51970863 4 0 27378 2.00800000 3216375169 3216375169 -15.00000000
-2.23806858 0.14865234 -0.51783735 4 2 27380 2.30200000 3216375173 3216375173 -13.00000000
-2.61319304 0.17402619 -0.50907838 3 4 27381 2.66800000 3216375178 3216375178 -11.00000000
-3.15551496 0.21124864 -0.50090313 3 6 27383 3.20200000 3216375183 3216375183 -9.00000000
-3.96914744 0.26710969 -0.48845232 4 8 27385 4.00800000 3216375187 3216375187 -7.00000000
-5.20026731 0.35087147 -0.45599884 6 10 27386 5.23200000 3216375192 3216375192 -5.00000000
-7.65787411 0.51937604 -0.40225416 32 12 27388 7.68600000 3216375196 3216375196 -3.00000000
-10.11680698 0.68969470 2.71708226 45 15 27390 10.49800000 3216375203 3216375203 15.00000000
-1.94451380 0.13563262 -0.52229685 4 0 27399 2.01800000 3216375224 3216375224 -15.00000000
-2.22778893 0.15617290 -0.51558781 4 2 27401 2.29200000 3216375229 3216375229 -13.00000000
-2.62820506 0.18470393 -0.51213133 3 4 27402 2.68400000 3216375233 3216375233 -11.00000000
-3.15471935 0.22281276 -0.50090313 3 6 27404 3.20200000 3216375238 3216375238 -9.00000000
-3.94834065 0.28025007 -0.48601493 5 8 27406 3.98800000 3216375242 3216375242 -7.00000000
-5.19894600 0.36992905 -0.45599884 6 10 27407 5.23200000 3216375247 3216375247 -5.00000000
-7.64795017 0.54687023 -0.40183547 28 12 27409 7.67800000 3216375252 3216375252 -3.00000000
-10.11228466 0.72663158 2.71656466 42 15 27411 10.49600000 3216375259 3216375259 15.00000000
-1.95751524 0.14340745 -0.52592027 4 0 27419 2.03200000 3216375279 3216375279 -15.00000000
-2.24277806 0.16509287 -0.51918703 4 2 27421 2.30800000 3216375284 3216375284 -13.00000000
-2.61188078 0.19272120 -0.50907838 3 4 27422 2.66800000 3216375289 3216375289 -11.00000000
-3.16180229 0.23440762 -0.50215465 3 6 27424 3.21000000 3216375293 3216375293 -9.00000000
-3.95525670 0.29462048 -0.48698989 3 8 27426 3.99600000 3216375298 3216375298 -7.00000000
-5.19364929 0.38777781 -0.45565021 6 10 27427 5.22800000 3216375302 3216375302 -5.00000000
-7.65396166 0.57416087 -0.40225416 48 12 27429 7.68600000 3216375307 3216375307 -3.00000000
-10.13266945 0.76543635 2.72277641 47 15 27432 10.52000000 3216375314 3216375314 15.00000000
-1.94159329 0.14905658 -0.52177918 4 0 27439 2.01600000 3216375335 3216375335 -15.00000000
-2.25190282 0.17366984 -0.52143657 4 2 27441 2.31800000 3216375339 3216375339 -13.00000000
-2.61902189 0.20244241 -0.51060486 3 4 27442 2.67600000 3216375344 3216375344 -11.00000000
-3.16096473 0.24544294 -0.50215465 3 6 27444 3.21000000 3216375348 3216375348 -9.00000000
-3.95222521 0.30827075 -0.48674616 5 8 27446 3.99400000 3216375353 3216375353 -7.00000000
-5.21014118 0.40730220 -0.45721903 3 10 27447 5.24600000 3216375358 3216375358 -5.00000000
-7.64991951 0.60071832 -0.40214950 36 12 27449 7.68400000 3216375362 3216375362 -3.00000000
-10.11274338 0.79766607 2.71811771 45 15 27451 10.50200000 3216375369 3216375369 15.00000000
-1.93528426 0.15536931 -0.52022630 4 0 27459 2.01000000 3216375390 3216375390 -15.00000000
-2.25128293 0.18152940 -0.52143657 4 2 27461 2.31800000 3216375394 3216375394 -13.00000000
-2.61242867 0.21110886 -0.50946003 3 4 27462 2.67000000 3216375399 3216375399 -11.00000000
-3.15615106 0.25615567 -0.50152892 3 6 27464 3.20600000 3216375404 3216375404 -9.00000000
-3.96893167 0.32351619 -0.48893979 4 8 27466 4.01200000 3216375408 3216375408 -7.00000000
-5.19677305 0.42451322 -0.45617315 3 10 27467 5.23400000 3216375413 3216375413 -5.00000000
-7.65374756 0.62790775 -0.40246350 20 12 27469 7.69000000 3216375418 3216375418 -3.00000000
-10.10412121 0.83248538 2.71656466 42 15 27471 10.49600000 3216375424 3216375424 15.00000000
-1.94053376 0.16226904 -0.52177918 4 0 27478 2.01600000 3216375445 3216375445 -15.00000000
-2.23513341 0.18768939 -0.51783735 4 2 27480 2.30200000 3216375450 3216375450 -13.00000000
-2.61367059 0.21993545 -0.50984162 3 4 27481 2.67200000 3216375454 3216375454 -11.00000000
-3.15134740 0.26628780 -0.50090313 3 6 27483 3.20200000 3216375459 3216375459 -9.00000000
-3.95596910 0.33566886 -0.48747736 4 8 27485 4.00000000 3216375464 3216375464 -7.00000000
-5.20129251 0.44225040 -0.45669609 6 10 27486 5.24000000 3216375468 3216375468 -5.00000000
-7.65759373 0.65379477 -0.40277752 32 12 27488 7.69600000 3216375473 3216375473 -3.00000000
-10.10692787 0.86824632 2.71811771 42 15 27491 10.50200000 3216375480 3216375480 15.00000000
-1.94380462 0.16937718 -0.52281445 4 0 27498 2.02000000 3216375500 3216375500 -15.00000000
-2.22281671 0.19447125 -0.51513791 4 2 27500 2.29000000 3216375505 3216375505 -13.00000000
-2.63244438 0.23077202 -0.51365781 3 4 27501 2.69200000 3216375510 3216375510 -11.00000000
-5.60492563 0.49233899 0.49225563 2 5 27502 5.64800000 3216375512 3216375512 5.00000000
-3.15826988 0.27797920 -0.50215465 3 6 27503 3.21000000 3216375514 3216375514 -9.00000000
-3.95279598 0.34930098 -0.48723364 5 8 27505 3.99800000 3216375519 3216375519 -7.00000000
-5.21956348 0.46216089 -0.45843920 6 10 27506 5.26000000 3216375524 3216375524 -5.00000000
-7.64531755 0.67963654 -0.40225416 36 12 27508 7.68600000 3216375528 3216375528 -3.00000000
-10.10768414 0.90386492 2.71915293 45 15 27511 10.50600000 3216375535 3216375535 15.00000000
-1.94897342 0.17668454 -0.52436739 4 0 27518 2.02600000 3216375556 3216375556 -15.00000000
-2.23764992 0.20364210 -0.51873714 4 2 27520 2.30600000 3216375560 3216375560 -13.00000000
-2.61793685 0.23871163 -0.51098651 3 4 27521 2.67800000 3216375565 3216375565 -11.00000000
-5.58729982 0.51045066 0.49086115 8 5 27522 5.63200000 3216375567 3216375567 5.00000000
-3.15728021 0.28900194 -0.50215465 3 6 27523 3.21000000 3216375570 3216375570 -9.00000000
-3.95155263 0.36309668 -0.48723364 5 8 27525 3.99800000 3216375574 3216375574 -7.00000000
-5.22783804 0.48129100 -0.45931077 3 10 27526 5.27000000 3216375579 3216375579 -5.00000000
-7.61306715 0.70356262 -0.40068409 16 12 27528 7.65600000 3216375583 3216375583 -3.00000000
-7.52852345 0.69840002 -0.13197510 2 14 27530 7.56200000 3216375588 3216375588 -1.00000000
-10.11216164 0.93985695 2.72122335 45 15 27531 10.51400000 3216375590 3216375590 15.00000000
-1.94065142 0.18276213 -0.52229685 4 0 27538 2.01800000 3216375611 3216375611 -15.00000000
-7.08942938 0.66890001 0.12429604 3 1 27539 7.12200000 3216375613 3216375613 1.00000000
-2.22528505 0.21035136 -0.51603770 4 2 27540 2.29400000 3216375616 3216375616 -13.00000000
-2.59558797 0.24581239 -0.50678867 3 4 27541 2.65600000 3216375620 3216375620 -11.00000000
-5.55969858 0.52750438 0.48859510 11 5 27542 5.60600000 3216375623 3216375623 5.00000000
-3.15231919 0.29964727 -0.50152892 3 6 27543 3.20600000 3216375625 3216375625 -9.00000000
-3.95026112 0.37688795 -0.48723364 5 8 27545 3.99800000 3216375630 3216375630 -7.00000000
-5.20629311 0.49764085 -0.45756766 3 10 27546 5.25000000 3216375634 3216375634 -5.00000000
-7.35011959 0.70514661 -0.38697207 3 12 27548 7.39400000 3216375639 3216375639 -3.00000000
-7.11201811 0.68480945 -0.12471490 6 14 27550 7.14600000 3216375643 3216375643 -1.00000000
-10.10689640 0.97496378 2.72070575 47 15 27551 10.51200000 3216375646 3216375646 15.00000000
-1.93615627 0.18915947 -0.52126157 4 0 27558 2.01400000 3216375666 3216375666 -15.00000000
-2.24781036 0.22039974 -0.52143657 4 2 27560 2.31800000 3216375671 3216375671 -13.00000000
-6.62708187 0.64979106 0.34897617 2 3 27560 6.66800000 3216375673 3216375673 3.00000000
-2.62206817 0.25755808 -0.51213133 3 4 27561 2.68400000 3216375676 3216375676 -11.00000000
-5.53601265 0.54476184 0.48667768 11 5 27562 5.58400000 3216375678 3216375678 5.00000000
-3.15125394 0.31064910 -0.50152892 3 6 27563 3.20600000 3216375680 3216375680 -9.00000000
-3.95682335 0.39145640 -0.48820859 6 8 27565 4.00600000 3216375685 3216375685 -7.00000000
-5.20848942 0.51620418 -0.45791626 6 10 27566 5.25400000 3216375689 3216375689 -5.00000000
-7.27805233 0.72388047 -0.38330853 3 12 27568 7.32400000 3216375694 3216375694 -3.00000000
-6.41315126 0.64011759 -0.11249821 6 14 27570 6.44600000 3216375699 3216375699 -1.00000000
-10.09784031 1.00789845 2.71915293 45 15 27570 10.50600000 3216375701 3216375701 15.00000000
-1.93548417 0.19591676 -0.52126157 4 0 27578 2.01400000 3216375722 3216375722 -15.00000000
-5.74764681 0.58281124 0.10084000 5 1 27579 5.77800000 3216375724 3216375724 1.00000000
-2.23927236 0.22745699 -0.51963693 4 2 27580 2.31000000 3216375726 3216375726 -13.00000000
-6.04058504 0.61358023 0.31820261 2 3 27580 6.08000000 3216375729 3216375729 3.00000000
-2.61334038 0.26591426 -0.51060486 3 4 27581 2.67600000 3216375731 3216375731 -11.00000000
-5.53011322 0.56367874 0.48632905 11 5 27582 5.58000000 3216375733 3216375733 5.00000000
-3.15801120 0.32244974 -0.50278038 3 6 27583 3.21400000 3216375735 3216375735 -9.00000000
-3.95345807 0.40506357 -0.48796484 4 8 27585 4.00400000 3216375740 3216375740 -7.00000000
-5.19278193 0.53295809 -0.45669609 6 10 27586 5.24000000 3216375745 3216375745 -5.00000000
-6.16820717 0.63742220 -0.10823982 2 14 27590 6.20200000 3216375754 3216375754 -1.00000000
-10.02490139 1.03774118 2.70051789 45 15 27591 10.43400000 3216375756 3216375756 15.00000000
-1.94631660 0.20387924 -0.52436739 4 0 27598 2.02600000 3216375777 3216375777 -15.00000000
-5.21855164 0.54757100 0.09159023 2 1 27599 5.24800000 3216375779 3216375779 1.00000000
-2.23458862 0.23486473 -0.51873714 4 2 27600 2.30600000 3216375782 3216375782 -13.00000000
-5.63706684 0.59347433 0.29705888 4 3 27601 5.67600000 3216375784 3216375784 3.00000000
-2.62411118 0.27626824 -0.51289457 3 4 27601 2.68800000 3216375786 3216375786 -11.00000000
-5.52811193 0.58297902 0.48632905 14 5 27602 5.58000000 3216375788 3216375788 5.00000000
-3.14900851 0.33264124 -0.50152892 3 6 27603 3.20600000 3216375791 3216375791 -9.00000000
-3.94807196 0.41844279 -0.48747736 4 8 27605 4.00000000 3216375795 3216375795 -7.00000000
-4.83030128 0.51279986 -0.42497140 2 10 27606 4.87600000 3216375800 3216375800 -5.00000000
-5.06237650 0.53922474 -0.26680872 2 12 27608 5.09800000 3216375805 3216375805 -3.00000000
-5.08427000 0.54335171 -0.08925161 2 14 27610 5.11400000 3216375809 3216375809 -1.00000000
-10.09439945 1.07878017 2.72018814 47 15 27610 10.51000000 3216375812 3216375812 15.00000000
-1.94367242 0.21046394 -0.52384973 4 0 27618 2.02400000 3216375832 3216375832 -15.00000000
-5.11919451 0.55521852 0.08987989 7 1 27619 5.15000000 3216375835 3216375835 1.00000000
-2.23375511 0.24266347 -0.51873714 4 2 27620 2.30600000 3216375837 3216375837 -13.00000000
-5.30734682 0.57749963 0.27978802 2 3 27621 5.34600000 3216375839 3216375839 3.00000000
-2.61922717 0.28500170 -0.51213133 3 4 27621 2.68400000 3216375841 3216375841 -11.00000000
-5.52010107 0.60162455 0.48580611 34 5 27622 5.57400000 3216375844 3216375844 5.00000000
-3.15961051 0.34491754 -0.50340611 3 6 27623 3.21800000 3216375846 3216375846 -9.00000000
-3.95448041 0.43308604 -0.48845232 4 8 27625 4.00800000 3216375851 3216375851 -7.00000000
-4.75520325 0.52161932 -0.41852188 2 10 27626 4.80200000 3216375855 3216375855 -5.00000000
-4.71502542 0.51887780 -0.24859579 2 12 27628 4.75000000 3216375860 3216375860 -3.00000000
-4.76829815 0.52642506 -0.08373664 1 14 27630 4.79800000 3216375865 3216375865 -1.00000000
-10.09421825 1.11619532 2.72122335 47 15 27631 10.51400000 3216375867 3216375867 15.00000000
-1.94484580 0.21746202 -0.52436739 4 0 27638 2.02600000 3216375888 3216375888 -15.00000000
-4.63233089 0.51878053 0.08136312 4 1 27639 4.66200000 3216375890 3216375890 1.00000000
-2.24451399 0.25176260 -0.52143657 4 2 27640 2.31800000 3216375892 3216375892 -13.00000000
-4.85475492 0.54540604 0.25602749 6 3 27641 4.89200000 3216375894 3216375894 3.00000000
-2.60651064 0.29282767 -0.50984162 3 4 27641 2.67200000 3216375897 3216375897 -11.00000000
-3.16231322 0.35638696 -0.50403184 3 6 27643 3.22200000 3216375901 3216375901 -9.00000000
-3.95294452 0.44688711 -0.48845232 4 8 27645 4.00800000 3216375906 3216375906 -7.00000000
-4.72563696 0.53507668 -0.41608152 5 10 27646 4.77400000 3216375911 3216375911 -5.00000000
-4.60999155 0.52361220 -0.24315286 4 12 27648 4.64600000 3216375915 3216375915 -3.00000000
-4.62933969 0.52744663 -0.08132821 1 14 27650 4.66000000 3216375920 3216375920 -1.00000000
-10.08278370 1.14878809 2.71915293 42 15 27650 10.50600000 3216375922 3216375922 15.00000000
-1.93447924 0.22314261 -0.52177918 4 0 27658 2.01600000 3216375943 3216375943 -15.00000000
-4.56692457 0.52760345 0.08024617 8 1 27659 4.59800000 3216375945 3216375945 1.00000000
-2.24749327 0.26004383 -0.52233636 4 2 27660 2.32200000 3216375947 3216375947 -13.00000000
-4.77941418 0.55384243 0.25215465 6 3 27661 4.81800000 3216375950 3216375950 3.00000000
-2.61327338 0.30282825 -0.51136810 3 4 27661 2.68000000 3216375952 3216375952 -11.00000000
-3.16889858 0.36833560 -0.50528330 3 6 27663 3.23000000 3216375957 3216375957 -9.00000000
-3.95530391 0.46114251 -0.48893979 4 8 27665 4.01200000 3216375961 3216375961 -7.00000000
-4.72176170 0.55133790 -0.41590720 5 10 27666 4.77200000 3216375966 3216375966 -5.00000000
-4.62400532 0.54155952 -0.24399023 4 12 27668 4.66200000 3216375970 3216375970 -3.00000000
-4.53214025 0.53240412 -0.07965279 3 14 27670 4.56400000 3216375975 3216375975 -1.00000000
-10.06699371 1.18438125 2.71604705 47 15 27671 10.49400000 3216375977 3216375977 15.00000000
-1.94136190 0.23080611 -0.52384973 4 0 27678 2.02400000 3216375998 3216375998 -15.00000000
-4.54916954 0.54165035 0.07996693 6 1 27679 4.58200000 3216376000 3216376000 1.00000000
-2.23496175 0.26650304 -0.51963693 4 2 27680 2.31000000 3216376003 3216376003 -13.00000000
-4.72985601 0.56483841 0.24964251 4 3 27681 4.77000000 3216376005 3216376005 3.00000000
-2.61609912 0.31241405 -0.51213133 3 4 27681 2.68400000 3216376007 3216376007 -11.00000000
-5.39677906 0.64543766 0.47552174 2 5 27682 5.45600000 3216376010 3216376010 5.00000000
-3.15974808 0.37845522 -0.50403184 3 6 27683 3.22200000 3216376012 3216376012 -9.00000000
-3.95958304 0.47565657 -0.48967102 4 8 27685 4.01800000 3216376017 3216376017 -7.00000000
-4.71585178 0.56734055 -0.41555858 5 10 27686 4.76800000 3216376021 3216376021 -5.00000000
-4.60820675 0.55602223 -0.24325752 4 12 27688 4.64800000 3216376026 3216376026 -3.00000000
-4.50643206 0.54533815 -0.07923392 5 14 27690 4.54000000 3216376030 3216376030 -1.00000000
-10.06684685 1.21822226 2.71708226 45 15 27690 10.49800000 3216376033 3216376033 15.00000000
-1.94437945 0.23805086 -0.52488500 4 0 27698 2.02800000 3216376053 3216376053 -15.00000000
-4.52938747 0.55533648 0.07965279 4 1 27699 4.56400000 3216376056 3216376056 1.00000000
-2.22628093 0.27335292 -0.51783735 4 2 27700 2.30200000 3216376058 3216376058 -13.00000000
-4.67433262 0.57476401 0.24681637 4 3 27701 4.71600000 3216376060 3216376060 3.00000000
-2.62668419 0.32298163 -0.51442105 3 4 27701 2.69600000 3216376063 3216376063 -11.00000000
-5.30946255 0.65380144 0.46802634 2 5 27702 5.37000000 3216376065 3216376065 5.00000000
-3.16232872 0.38996601 -0.50465757 3 6 27703 3.22600000 3216376067 3216376067 -9.00000000
-3.94804811 0.48825699 -0.48845232 4 8 27705 4.00800000 3216376072 3216376072 -7.00000000
-4.70988846 0.58330876 -0.41520995 5 10 27706 4.76400000 3216376076 3216376076 -5.00000000
-4.60821962 0.57235068 -0.24336220 2 12 27708 4.65000000 3216376081 3216376081 -3.00000000
-4.48068857 0.55809927 -0.07881507 1 14 27710 4.51600000 3216376086 3216376086 -1.00000000
-10.06614780 1.25558925 2.71811771 47 15 27711 10.50200000 3216376088 3216376088 15.00000000
-1.95124638 0.24546184 -0.52695560 4 0 27717 2.03600000 3216376109 3216376109 -15.00000000
-4.48585701 0.56510472 0.07891978 4 1 27718 4.52200000 3216376111 3216376111 1.00000000
-2.22536230 0.28073403 -0.51783735 4 2 27719 2.30200000 3216376113 3216376113 -13.00000000
-4.60304785 0.58150017 0.24315286 1 3 27720 4.64600000 3216376116 3216376116 3.00000000
-2.61780763 0.33070600 -0.51289457 3 4 27720 2.68800000 3216376118 3216376118 -11.00000000
-5.24401331 0.66340280 0.46244836 7 5 27721 5.30600000 3216376120 3216376120 5.00000000
-3.16101813 0.40045053 -0.50465757 3 6 27722 3.22600000 3216376123 3216376123 -9.00000000
-3.93065310 0.49934512 -0.48650241 3 8 27724 3.99200000 3216376127 3216376127 -7.00000000
-4.71978664 0.60043269 -0.41625583 5 10 27725 4.77600000 3216376132 3216376132 -5.00000000
-4.38558722 0.56102872 -0.07717454 1 14 27729 4.42200000 3216376141 3216376141 -1.00000000
-10.06215382 1.28720665 2.71811771 45 15 27729 10.50200000 3216376143 3216376143 15.00000000
-1.94846177 0.25202364 -0.52643794 4 0 27737 2.03400000 3216376164 3216376164 -15.00000000
-4.43824482 0.57485211 0.07811697 4 1 27738 4.47600000 3216376166 3216376166 1.00000000
-2.22823381 0.28900158 -0.51873714 4 2 27739 2.30600000 3216376169 3216376169 -13.00000000
-4.51978445 0.58701754 0.23886131 1 3 27740 4.56400000 3216376171 3216376171 3.00000000
-2.61469030 0.33958900 -0.51251298 3 4 27740 2.68600000 3216376173 3216376173 -11.00000000
-5.19029617 0.67502296 0.45791626 7 5 27741 5.25400000 3216376176 3216376176 5.00000000
-3.14784813 0.40995148 -0.50278038 3 6 27742 3.21400000 3216376178 3216376178 -9.00000000
-6.30486393 0.82221603 0.78069502 2 7 27743 6.40600000 3216376180 3216376180 7.00000000
-3.94069648 0.51460487 -0.48796484 4 8 27744 4.00400000 3216376182 3216376182 -7.00000000
-4.70975971 0.61587083 -0.41555858 8 10 27745 4.76800000 3216376187 3216376187 -5.00000000
-4.36377573 0.57372719 -0.07682549 1 14 27749 4.40200000 3216376196 3216376196 -1.00000000
-10.05353737 1.32357335 2.71708226 45 15 27750 10.49800000 3216376199 3216376199 15.00000000
-1.93229485 0.25645030 -0.52229685 4 0 27756 2.01800000 3216376219 3216376219 -15.00000000
-4.37288189 0.58113676 0.07700001 3 1 27757 4.41200000 3216376222 3216376222 1.00000000
-2.24271679 0.29844555 -0.52233636 4 2 27758 2.32200000 3216376224 3216376224 -13.00000000
-4.47821760 0.59672636 0.23676787 1 3 27759 4.52400000 3216376226 3216376226 3.00000000
-2.61160374 0.34799844 -0.51213133 3 4 27759 2.68400000 3216376229 3216376229 -11.00000000
-5.12088299 0.68327165 0.45198968 7 5 27760 5.18600000 3216376231 3216376231 5.00000000
-3.14451337 0.42012626 -0.50246751 3 6 27761 3.21200000 3216376233 3216376233 -9.00000000
-5.62919664 0.75309521 0.69733638 2 7 27762 5.72200000 3216376235 3216376235 7.00000000
-3.95470834 0.52977842 -0.48991477 4 8 27763 4.02000000 3216376238 3216376238 -7.00000000
-4.70374250 0.63095582 -0.41520995 5 10 27764 4.76400000 3216376242 3216376242 -5.00000000
-4.31230545 0.58151382 -0.07595287 1 14 27768 4.35200000 3216376252 3216376252 -1.00000000
-10.03401375 1.35308552 2.71294117 45 15 27768 10.48200000 3216376254 3216376254 15.00000000
-1.94095862 0.26449794 -0.52488500 4 0 27776 2.02800000 3216376275 3216376275 -15.00000000
-4.33516264 0.59153110 0.07637173 3 1 27777 4.37600000 3216376277 3216376277 1.00000000
-2.23393822 0.30521709 -0.52053672 4 2 27778 2.31400000 3216376279 3216376279 -13.00000000
-4.43850994 0.60721105 0.23477910 3 3 27779 4.48600000 3216376282 3216376282 3.00000000
-2.61037326 0.35711253 -0.51213133 3 4 27779 2.68400000 3216376284 3216376284 -11.00000000
-5.08688307 0.69681633 0.44920069 10 5 27780 5.15400000 3216376286 3216376286 5.00000000
-3.15281296 0.43244225 -0.50403184 3 6 27781 3.22200000 3216376288 3216376288 -9.00000000
-5.56753445 0.76463735 0.69002420 2 7 27782 5.66200000 3216376291 3216376291 7.00000000
-3.95873475 0.54439104 -0.49064597 6 8 27783 4.02600000 3216376293 3216376293 -7.00000000
-4.70545864 0.64791465 -0.41555858 5 10 27784 4.76800000 3216376298 3216376298 -5.00000000
-4.46942043 0.61700332 -0.23645385 2 12 27786 4.51800000 3216376302 3216376302 -3.00000000
-4.26865196 0.59080577 -0.07521987 5 14 27788 4.31000000 3216376307 3216376307 -1.00000000
-10.03688431 1.38916194 2.71501184 45 15 27788 10.49000000 3216376309 3216376309 15.00000000
-1.94380260 0.27214584 -0.52592027 4 0 27797 2.03200000 3216376330 3216376330 -15.00000000
-4.30128002 0.60297447 0.07581326 5 1 27798 4.34400000 3216376332 3216376332 1.00000000
-2.22122550 0.31177759 -0.51783735 4 2 27799 2.30200000 3216376335 3216376335 -13.00000000
-4.40065384 0.61847156 0.23289500 5 3 27800 4.45000000 3216376337 3216376337 3.00000000
-2.60904670 0.36667761 -0.51213133 3 4 27800 2.68400000 3216376339 3216376339 -11.00000000
-5.05864668 0.71184683 0.44693464 10 5 27801 5.12800000 3216376341 3216376341 5.00000000
-3.14729476 0.44344380 -0.50340611 3 6 27802 3.21800000 3216376344 3216376344 -9.00000000
-5.58238506 0.78753394 0.69221789 2 7 27803 5.68000000 3216376346 3216376346 7.00000000
-3.94885063 0.55778629 -0.48967102 6 8 27804 4.01800000 3216376348 3216376348 -7.00000000
-4.71488905 0.66683072 -0.41660446 5 10 27805 4.78000000 3216376353 3216376353 -5.00000000
-4.38407516 0.62160444 -0.23205763 2 12 27807 4.43400000 3216376358 3216376358 -3.00000000
-4.23676109 0.60222596 -0.07469630 5 14 27809 4.28000000 3216376362 3216376362 -1.00000000
-10.03937531 1.42702711 2.71708226 47 15 27809 10.49800000 3216376364 3216376364 15.00000000
-1.94666529 0.27947840 -0.52695560 5 0 27817 2.03600000 3216376385 3216376385 -15.00000000
-4.26550007 0.61314815 0.07521987 5 1 27818 4.31000000 3216376388 3216376388 1.00000000
-2.22783923 0.32063964 -0.51963693 4 2 27819 2.31000000 3216376390 3216376390 -13.00000000
-4.34113979 0.62556779 0.22985952 5 3 27820 4.39200000 3216376392 3216376392 3.00000000
-2.59997821 0.37466258 -0.51060486 3 4 27820 2.67600000 3216376394 3216376394 -11.00000000
-5.03641129 0.72665530 0.44519153 10 5 27821 5.10800000 3216376397 3216376397 5.00000000
-3.15745807 0.45612177 -0.50528330 3 6 27822 3.23000000 3216376399 3216376399 -9.00000000
-5.61103678 0.81156188 0.69611770 2 7 27823 5.71200000 3216376401 3216376401 7.00000000
-3.93902111 0.57042897 -0.48869607 6 8 27824 4.01000000 3216376404 3216376404 -7.00000000
-4.72436333 0.68500006 -0.41765031 5 10 27825 4.79200000 3216376408 3216376408 -5.00000000
-4.31467772 0.62713635 -0.22849879 4 12 27827 4.36600000 3216376413 3216376413 -3.00000000
-4.20099354 0.61210990 -0.07410292 5 14 27829 4.24600000 3216376417 3216376417 -1.00000000
-10.03216648 1.46353471 2.71656466 47 15 27830 10.49600000 3216376420 3216376420 15.00000000
-1.93803275 0.28514698 -0.52488500 5 0 27837 2.02800000 3216376441 3216376441 -15.00000000
-4.23959351 0.62453663 0.07480101 7 1 27838 4.28600000 3216376443 3216376443 1.00000000
-2.23441792 0.32955167 -0.52143657 4 2 27839 2.31800000 3216376445 3216376445 -13.00000000
-4.31324387 0.63692445 0.22849879 5 3 27840 4.36600000 3216376447 3216376447 3.00000000
-2.60253882 0.38430950 -0.51136810 3 4 27840 2.68000000 3216376450 3216376450 -11.00000000
-5.00822163 0.74044305 0.44292548 10 5 27841 5.08200000 3216376452 3216376452 5.00000000
-3.15975499 0.46771908 -0.50590909 3 6 27842 3.23400000 3216376454 3216376454 -9.00000000
-5.58853292 0.82823294 0.69368029 2 7 27843 5.69200000 3216376457 3216376457 7.00000000
-3.95664191 0.58708882 -0.49113345 6 8 27844 4.03000000 3216376459 3216376459 -7.00000000
-4.71997261 0.70119423 -0.41747600 5 10 27845 4.79000000 3216376464 3216376464 -5.00000000
-4.29073238 0.63895762 -0.22734739 4 12 27847 4.34400000 3216376468 3216376468 -3.00000000
-4.18300915 0.62440854 -0.07382368 7 14 27849 4.23000000 3216376473 3216376473 -1.00000000
-10.03107929 1.49736500 2.71759987 47 15 27849 10.50000000 3216376475 3216376475 15.00000000
-1.93320501 0.29133448 -0.52384973 5 0 27857 2.02400000 3216376496 3216376496 -15.00000000
-4.20377350 0.63426006 0.07420763 7 1 27858 4.25200000 3216376498 3216376498 1.00000000
-2.23710775 0.33793136 -0.52233636 4 2 27859 2.32200000 3216376500 3216376500 -13.00000000
-4.29914522 0.65018463 0.22787075 7 3 27860 4.35400000 3216376503 3216376503 3.00000000
-2.61282873 0.39515319 -0.51365781 3 4 27860 2.69200000 3216376505 3216376505 -11.00000000
-4.98196745 0.75434119 0.44083375 9 5 27861 5.05800000 3216376507 3216376507 5.00000000
-3.16200900 0.47933796 -0.50653481 3 6 27862 3.23800000 3216376510 3216376510 -9.00000000
-5.59345818 0.84892702 0.69465524 2 7 27863 5.70000000 3216376512 3216376512 7.00000000
-3.94671822 0.59970367 -0.49015850 6 8 27864 4.02200000 3216376514 3216376514 -7.00000000
-5.11735058 0.77849501 -0.45286125 6 10 27865 5.19600000 3216376519 3216376519 -5.00000000
-4.27268028 0.65152258 -0.22651002 6 12 27867 4.32800000 3216376523 3216376523 -3.00000000
-4.18278074 0.63930827 -0.07385858 8 14 27869 4.23200000 3216376528 3216376528 -1.00000000
-10.01624298 1.53091145 2.71501184 47 15 27869 10.49000000 3216376530 3216376530 15.00000000
-1.93795621 0.29862624 -0.52540267 4 0 27876 2.03000000 3216376552 3216376552 -15.00000000
-4.19374180 0.64697725 0.07406801 7 1 27877 4.24400000 3216376554 3216376554 1.00000000
-2.23212314 0.34475312 -0.52143657 4 2 27878 2.31800000 3216376557 3216376557 -13.00000000
-4.29708147 0.66368753 0.22787075 9 3 27878 4.35400000 3216376559 3216376559 3.00000000
-2.61732459 0.40471551 -0.51480269 3 4 27879 2.69800000 3216376561 3216376561 -11.00000000
-4.96368694 0.76841933 0.43943927 9 5 27880 5.04200000 3216376564 3216376564 5.00000000
-3.14088154 0.48679549 -0.50340611 3 6 27881 3.21800000 3216376566 3216376566 -9.00000000
-5.56707287 0.86381841 0.69173038 2 7 27882 5.67600000 3216376568 3216376568 7.00000000
-3.94666934 0.61309284 -0.49040225 4 8 27883 4.02400000 3216376570 3216376570 -7.00000000
-5.23286438 0.81383139 -0.46331993 9 10 27884 5.31600000 3216376575 3216376575 -5.00000000
-4.22905397 0.65922773 -0.22431190 6 12 27886 4.28600000 3216376580 3216376580 -3.00000000
-4.16878319 0.65132326 -0.07364915 14 14 27888 4.22000000 3216376584 3216376584 -1.00000000
-10.01874542 1.56531096 2.71708226 45 15 27888 10.49800000 3216376587 3216376587 15.00000000
-1.94262683 0.30629179 -0.52695560 5 0 27896 2.03600000 3216376607 3216376607 -15.00000000
-4.18948269 0.66130042 0.07403311 7 1 27897 4.24200000 3216376610 3216376610 1.00000000
-2.22320652 0.35132587 -0.51963693 4 2 27898 2.31000000 3216376612 3216376612 -13.00000000
-4.28081131 0.67724800 0.22713806 24 3 27899 4.34000000 3216376614 3216376614 3.00000000
-2.62559152 0.41538310 -0.51671076 3 4 27899 2.70800000 3216376617 3216376617 -11.00000000
-4.94523144 0.78324777 0.43804476 9 5 27900 5.02600000 3216376619 3216376619 5.00000000
-3.13916302 0.49775624 -0.50340611 3 6 27901 3.21800000 3216376621 3216376621 -9.00000000
-5.58755064 0.88698053 0.69465524 2 7 27902 5.70000000 3216376623 3216376623 7.00000000
-3.94450521 0.62686557 -0.49040225 4 8 27903 4.02400000 3216376626 3216376626 -7.00000000
-5.23195934 0.83240557 -0.46349424 9 10 27904 5.31800000 3216376630 3216376630 -5.00000000
-4.21292067 0.67178428 -0.22357920 8 12 27906 4.27200000 3216376635 3216376635 -3.00000000
-4.16450977 0.66555548 -0.07361425 17 14 27908 4.21800000 3216376640 3216376640 -1.00000000
-10.01675701 1.60263145 2.71811771 42 15 27909 10.50200000 3216376642 3216376642 15.00000000
-1.94917476 0.31430110 -0.52902615 4 0 27916 2.04400000 3216376663 3216376663 -15.00000000
-4.19701958 0.67751384 0.07420763 7 1 27917 4.25200000 3216376665 3216376665 1.00000000
-2.22389054 0.35939506 -0.52008682 4 2 27918 2.31200000 3216376667 3216376667 -13.00000000
-4.26868343 0.68984675 0.22661468 5 3 27918 4.33000000 3216376670 3216376670 3.00000000
-2.60474491 0.42141011 -0.51289457 3 4 27919 2.68800000 3216376672 3216376672 -11.00000000
-4.93066692 0.79859376 0.43699890 9 5 27920 5.01400000 3216376674 3216376674 5.00000000
-3.13740659 0.50871092 -0.50340611 3 6 27921 3.21800000 3216376676 3216376676 -9.00000000
-5.58442020 0.90647930 0.69465524 2 7 27922 5.70000000 3216376679 3216376679 7.00000000
-3.94621181 0.64126748 -0.49088973 4 8 27923 4.02800000 3216376681 3216376681 -7.00000000
-5.24672079 0.85354275 -0.46506304 9 10 27924 5.33600000 3216376686 3216376686 -5.00000000
-4.21055031 0.68648607 -0.22357920 8 12 27926 4.27200000 3216376690 3216376690 -3.00000000
-4.14242601 0.67686355 -0.07326520 21 14 27928 4.19800000 3216376695 3216376695 -1.00000000
-10.00757408 1.63521636 2.71708226 45 15 27928 10.49800000 3216376697 3216376697 15.00000000
-1.93662894 0.31921792 -0.52592027 4 0 27936 2.03200000 3216376718 3216376718 -15.00000000
-4.21041298 0.69476455 0.07448687 7 1 27937 4.26800000 3216376720 3216376720 1.00000000
-2.22839046 0.36810851 -0.52143657 4 2 27938 2.31800000 3216376722 3216376722 -13.00000000
-4.27019024 0.70539409 0.22682403 7 3 27938 4.33400000 3216376725 3216376725 3.00000000
-2.61487985 0.43242168 -0.51518428 3 4 27939 2.70000000 3216376727 3216376727 -11.00000000
-4.90819311 0.81254607 0.43525577 9 5 27940 4.99400000 3216376729 3216376729 5.00000000
-3.15509963 0.52288914 -0.50653481 3 6 27941 3.23800000 3216376732 3216376732 -9.00000000
-5.58122206 0.92596704 0.69465524 2 7 27942 5.70000000 3216376734 3216376734 7.00000000
-3.94199109 0.65471315 -0.49064597 6 8 27943 4.02600000 3216376736 3216376736 -7.00000000
-5.24370909 0.87185198 -0.46506304 9 10 27944 5.33600000 3216376741 3216376741 -5.00000000
-4.20812845 0.70117944 -0.22357920 10 12 27946 4.27200000 3216376746 3216376746 -3.00000000
-4.13017607 0.68967241 -0.07309068 29 14 27948 4.18800000 3216376750 3216376750 -1.00000000
-9.99418354 1.66886652 2.71501184 42 15 27948 10.49000000 3216376752 3216376752 15.00000000
-1.93169284 0.32533440 -0.52488500 4 0 27956 2.02800000 3216376773 3216376773 -15.00000000
-4.20401859 0.70879251 0.07441706 5 1 27957 4.26400000 3216376775 3216376775 1.00000000
-2.23477817 0.37718210 -0.52323616 4 2 27958 2.32600000 3216376778 3216376778 -13.00000000
-4.27348423 0.72203863 0.22713806 15 3 27959 4.34000000 3216376780 3216376780 3.00000000
-2.60173965 0.43958426 -0.51289457 3 4 27959 2.68800000 3216376782 3216376782 -11.00000000
-4.88764620 0.82668346 0.43368697 9 5 27960 4.97600000 3216376785 3216376785 5.00000000
-3.13377857 0.53060156 -0.50340611 3 6 27961 3.21800000 3216376787 3216376787 -9.00000000
-3.94359589 0.66913342 -0.49113345 6 8 27963 4.03000000 3216376792 3216376792 -7.00000000
-5.22884846 0.88814878 -0.46401718 9 10 27964 5.32400000 3216376796 3216376796 -5.00000000
-4.20368624 0.71552914 -0.22347453 16 12 27966 4.27000000 3216376801 3216376801 -3.00000000
-4.12380075 0.70341277 -0.07302087 35 14 27968 4.18400000 3216376805 3216376805 -1.00000000
-9.97657394 1.70353484 2.71190596 42 15 27969 10.47800000 3216376808 3216376808 15.00000000
-1.93054545 0.33207527 -0.52488500 4 0 27976 2.02800000 3216376828 3216376828 -15.00000000
-4.18969440 0.72142696 0.07420763 5 1 27977 4.25200000 3216376831 3216376831 1.00000000
-2.22192550 0.38299447 -0.52053672 4 2 27978 2.31400000 3216376833 3216376833 -13.00000000
-4.29074860 0.73959869 0.22818477 7 3 27978 4.36000000 3216376835 3216376835 3.00000000
-2.60405850 0.44933099 -0.51365781 3 4 27979 2.69200000 3216376838 3216376838 -11.00000000
-4.88080406 0.84306127 0.43333834 9 5 27980 4.97200000 3216376840 3216376840 5.00000000
-3.13190746 0.54153728 -0.50340611 3 6 27981 3.21800000 3216376842 3216376842 -9.00000000
-3.94514799 0.68357289 -0.49162093 6 8 27983 4.03400000 3216376847 3216376847 -7.00000000
-5.22571611 0.90639549 -0.46401718 9 10 27984 5.32400000 3216376852 3216376852 -5.00000000
-4.19329166 0.72883034 -0.22305584 26 12 27986 4.26200000 3216376856 3216376856 -3.00000000
-4.12723064 0.71883255 -0.07312559 36 14 27988 4.19000000 3216376861 3216376861 -1.00000000
-9.96675968 1.73768556 2.71087074 45 15 27989 10.47400000 3216376863 3216376863 15.00000000
-1.93127728 0.33914626 -0.52540267 4 0 27996 2.03000000 3216376884 3216376884 -15.00000000
-4.20290661 0.73881704 0.07448687 5 1 27997 4.26800000 3216376886 3216376886 1.00000000
-2.22441363 0.39142355 -0.52143657 4 2 27998 2.31800000 3216376888 3216376888 -13.00000000
-4.28027296 0.75318712 0.22776608 9 3 27998 4.35200000 3216376891 3216376891 3.00000000
-2.61794209 0.46114275 -0.51671076 3 4 27999 2.70800000 3216376893 3216376893 -11.00000000
-4.87586927 0.85974735 0.43316403 9 5 28000 4.97000000 3216376895 3216376895 5.00000000
-3.14556050 0.55521327 -0.50590909 3 6 28001 3.23400000 3216376898 3216376898 -9.00000000
-3.93687367 0.69630265 -0.49088973 4 8 28003 4.02800000 3216376902 3216376902 -7.00000000
-5.23821545 0.92740989 -0.46541166 9 10 28004 5.34000000 3216376907 3216376907 -5.00000000
-4.16909027 0.73962551 -0.22190446 24 12 28006 4.24000000 3216376911 3216376911 -3.00000000
-4.11878967 0.73218495 -0.07302087 54 14 28008 4.18400000 3216376916 3216376916 -1.00000000
-9.96824169 1.77381933 2.71294117 47 15 28009 10.48200000 3216376918 3216376918 15.00000000
-1.93578637 0.34690791 -0.52695560 4 0 28016 2.03600000 3216376939 3216376939 -15.00000000
-4.19636583 0.75277722 0.07441706 5 1 28017 4.26400000 3216376941 3216376941 1.00000000
-4.11040640 0.73809773 -0.96414024 5 2 28018 4.28600000 3216376944 3216376944 -13.00000000
-4.26582289 0.76600552 0.22713806 9 3 28018 4.34000000 3216376946 3216376946 3.00000000
-2.60472274 0.46819431 -0.51442105 3 4 28019 2.69600000 3216376948 3216376948 -11.00000000
-4.87479973 0.87711489 0.43333834 9 5 28020 4.97200000 3216376951 3216376951 5.00000000
-3.14554739 0.56654006 -0.50622195 3 6 28021 3.23600000 3216376953 3216376953 -9.00000000
-3.93441916 0.71004069 -0.49088973 4 8 28023 4.02800000 3216376958 3216376958 -7.00000000
-5.24671030 0.94781417 -0.46645755 9 10 28024 5.35200000 3216376962 3216376962 -5.00000000
-4.17041349 0.75488532 -0.22211380 30 12 28026 4.24400000 3216376967 3216376967 -3.00000000
-9.82344723 1.77990997 2.30484843 4 13 28027 10.24600000 3216376969 3216376969 13.00000000
-4.11227369 0.74584401 -0.07295106 63 14 28028 4.18000000 3216376971 3216376971 -1.00000000
-9.95438576 1.80722380 2.71087074 45 15 28029 10.47400000 3216376974 3216376974 15.00000000
-1.93646395 0.35401037 -0.52747321 4 0 28036 2.03800000 3216376994 3216376994 -15.00000000
-4.20158052 0.76886052 0.07455668 5 1 28037 4.27200000 3216376997 3216376997 1.00000000
-4.11547232 0.75384563 -0.96593982 5 2 28038 4.29400000 3216376999 3216376999 -13.00000000
-4.27294588 0.78269064 0.22766142 7 3 28038 4.35000000 3216377001 3216377001 3.00000000
-2.59148622 0.47515923 -0.51213133 3 4 28039 2.68400000 3216377004 3216377004 -11.00000000
-4.84819221 0.88980979 0.43124661 9 5 28040 4.94800000 3216377006 3216377006 5.00000000
-3.14549327 0.57787359 -0.50653481 3 6 28041 3.23800000 3216377008 3216377008 -9.00000000
-3.93582129 0.72448879 -0.49137720 4 8 28043 4.03200000 3216377013 3216377013 -7.00000000
-5.23945093 0.96540076 -0.46610892 9 10 28044 5.34800000 3216377017 3216377017 -5.00000000
-4.16775322 0.76943821 -0.22211380 28 12 28046 4.24400000 3216377022 3216377022 -3.00000000
-9.76926708 1.80533624 2.29360104 4 13 28047 10.19600000 3216377024 3216377024 13.00000000
-4.09784698 0.75801164 -0.07274163 68 14 28048 4.16800000 3216377027 3216377027 -1.00000000
-9.95213699 1.84092665 2.71190596 45 15 28048 10.47800000 3216377029 3216377029 15.00000000
-1.92572081 0.35899752 -0.52488500 4 0 28056 2.02800000 3216377050 3216377050 -15.00000000
-4.19297361 0.78242159 0.07445197 5 1 28057 4.26600000 3216377052 3216377052 1.00000000
-4.11473131 0.76856458 -0.96638972 5 2 28058 4.29600000 3216377054 3216377054 -13.00000000
-4.26037121 0.79576766 0.22713806 5 3 28058 4.34000000 3216377057 3216377057 3.00000000
-2.59367156 0.48492390 -0.51289457 3 4 28059 2.68800000 3216377059 3216377059 -11.00000000
-4.83330631 0.90452874 0.43020076 9 5 28060 4.93600000 3216377061 3216377061 5.00000000
-3.12792420 0.58594018 -0.50403184 3 6 28061 3.22200000 3216377063 3216377063 -9.00000000
-3.93912125 0.73932147 -0.49210840 6 8 28063 4.03800000 3216377068 3216377068 -7.00000000
-5.21842623 0.98037314 -0.46454009 9 10 28064 5.33000000 3216377073 3216377073 -5.00000000
-4.16896772 0.78472060 -0.22232315 28 12 28066 4.24800000 3216377077 3216377077 -3.00000000
-4.09321117 0.77194059 -0.07270672 85 14 28068 4.16600000 3216377082 3216377082 -1.00000000
-9.93393326 1.87524056 2.70880008 42 15 28069 10.46600000 3216377084 3216377084 15.00000000
-1.92628992 0.36641425 -0.52540267 4 0 28077 2.03000000 3216377105 3216377105 -15.00000000
-4.18025589 0.79591429 0.07427744 5 1 28078 4.25600000 3216377107 3216377107 1.00000000
-4.10805845 0.78291100 -0.96548992 5 2 28079 4.29200000 3216377110 3216377110 -13.00000000
-4.23766518 0.80837792 0.22609133 5 3 28080 4.32000000 3216377112 3216377112 3.00000000
-2.59959078 0.49589846 -0.51442105 3 4 28080 2.69600000 3216377114 3216377114 -11.00000000
-4.83387280 0.92298496 0.43054938 9 5 28081 4.94000000 3216377116 3216377116 5.00000000
-3.13351679 0.59888399 -0.50528330 3 6 28082 3.23000000 3216377119 3216377119 -9.00000000
-3.93443537 0.75338078 -0.49186468 6 8 28084 4.03600000 3216377123 3216377123 -7.00000000
-5.23436546 1.00324345 -0.46628323 9 10 28085 5.35000000 3216377128 3216377128 -5.00000000
-4.16017914 0.79886538 -0.22200912 32 12 28087 4.24200000 3216377133 3216377133 -3.00000000
-4.10213661 0.78920448 -0.07291616 77 14 28089 4.17800000 3216377137 3216377137 -1.00000000
-9.91973877 1.90844512 2.70672965 42 15 28089 10.45800000 3216377140 3216377140 15.00000000
-1.92689562 0.37350363 -0.52592027 4 0 28097 2.03200000 3216377160 3216377160 -15.00000000
-4.18530464 0.81202471 0.07441706 5 1 28098 4.26400000 3216377163 3216377163 1.00000000
-4.08999634 0.79427397 -0.96189070 5 2 28099 4.27600000 3216377165 3216377165 -13.00000000
-4.22697544 0.82164079 0.22567265 5 3 28100 4.31200000 3216377167 3216377167 3.00000000
-2.60169816 0.50571889 -0.51518428 3 4 28100 2.70000000 3216377169 3216377169 -11.00000000
-4.84040022 0.94175524 0.43142092 9 5 28101 4.95000000 3216377172 3216377172 5.00000000
-3.14691877 0.61283910 -0.50778627 3 6 28102 3.24600000 3216377174 3216377174 -9.00000000
-3.92593670 0.76596957 -0.49113345 6 8 28104 4.03000000 3216377179 3216377179 -7.00000000
-5.22496510 1.02036309 -0.46576029 9 10 28105 5.34400000 3216377183 3216377183 -5.00000000
-4.14364433 0.81069785 -0.22127642 34 12 28107 4.22800000 3216377188 3216377188 -3.00000000
-4.09935665 0.80351883 -0.07291616 89 14 28109 4.17800000 3216377193 3216377193 -1.00000000
-9.19609833 1.80420280 2.51106238 11 15 28110 9.70200000 3216377195 3216377195 15.00000000
-1.94087589 0.38254392 -0.53006142 4 0 28115 2.04800000 3216377216 3216377216 -15.00000000
-4.18273258 0.82516921 0.07441706 5 1 28116 4.26400000 3216377218 3216377218 1.00000000
-4.08939266 0.80749667 -0.96234059 5 2 28117 4.27800000 3216377220 3216377220 -13.00000000
-4.19890165 0.82988191 0.22431190 10 3 28118 4.28600000 3216377222 3216377222 3.00000000
-2.61165261 0.51617384 -0.51747400 3 4 28118 2.71200000 3216377225 3216377225 -11.00000000
-4.84132671 0.95773041 0.43176955 9 5 28119 4.95400000 3216377227 3216377227 5.00000000
-3.14110231 0.62195504 -0.50716054 3 6 28120 3.24200000 3216377229 3216377229 -9.00000000
-3.93129945 0.77984446 -0.49210840 6 8 28122 4.03800000 3216377234 3216377234 -7.00000000
-5.24127626 1.04065287 -0.46750340 9 10 28123 5.36400000 3216377239 3216377239 -5.00000000
-4.13324165 0.82215285 -0.22085774 30 12 28125 4.22000000 3216377243 3216377243 -3.00000000
-4.08112288 0.81326687 -0.07263692 92 14 28127 4.16200000 3216377248 3216377248 -1.00000000
-9.90117931 1.97306025 2.70517659 35 15 28127 10.45200000 3216377250 3216377250 15.00000000
-1.92248201 0.38589481 -0.52540267 4 0 28135 2.03000000 3216377271 3216377271 -15.00000000
-4.18766880 0.84134018 0.07455668 5 1 28136 4.27200000 3216377273 3216377273 1.00000000
-4.08654928 0.82176638 -0.96234059 8 2 28137 4.27800000 3216377275 3216377275 -13.00000000
-4.19206333 0.84374553 0.22410257 17 3 28138 4.28200000 3216377278 3216377278 3.00000000
-2.59443760 0.52218801 -0.51442105 3 4 28138 2.69600000 3216377280 3216377280 -11.00000000
-4.86139202 0.97934562 0.43386129 9 5 28139 4.97800000 3216377282 3216377282 5.00000000
-3.12342095 0.62979215 -0.50465757 3 6 28140 3.22600000 3216377285 3216377285 -9.00000000
-3.91687870 0.79120421 -0.49064597 6 8 28142 4.02600000 3216377289 3216377289 -7.00000000
-5.23370600 1.05815232 -0.46715477 9 10 28143 5.36000000 3216377294 3216377294 -5.00000000
-4.14600658 0.83974743 -0.22169511 24 12 28145 4.23600000 3216377298 3216377298 -3.00000000
-4.07433987 0.82671243 -0.07256711 87 14 28147 4.15800000 3216377303 3216377303 -1.00000000
-9.89766788 2.01010561 2.70621204 30 15 28148 10.45600000 3216377305 3216377305 15.00000000
-1.92098618 0.39327374 -0.52540267 4 0 28157 2.03000000 3216377326 3216377326 -15.00000000
