# .PCD v0.7 - Point Cloud Data file format
VERSION 0.7
FIELDS x y z intensity laser_id azimuth distance_m adjustedtime timestamp vertical_angle
SIZE 4 4 4 1 1 2 8 8 4 8
TYPE F F F U U U F U U F
COUNT 1 1 1 1 1 1 1 1 1 1
WIDTH 523
HEIGHT 1
VIEWPOINT 0 0 0 1 0 0 0
POINTS 523
DATA ascii
-6.19592237 9.30445957 -0.58584869 8 12 32634 11.19400000 3216689665 3216689665 -3.00000000
-6.10105276 9.16546059 2.54194689 56 13 32635 11.30000000 3216689667 3216689667 13.00000000
-4.63928890 6.97212601 2.24396110 45 15 32636 8.67000000 3216689672 3216689672 15.00000000
-1.18221712 1.78207767 -0.57302535 4 0 32644 2.21400000 3216689693 3216689693 -15.00000000
-1.37927318 2.08069682 -0.57632458 4 2 32646 2.56200000 3216689697 3216689697 -13.00000000
-1.63426578 2.46629953 -0.57509834 4 4 32647 3.01400000 3216689702 3216689702 -11.00000000
-2.02191854 3.05362749 -0.58005899 1 6 32649 3.70800000 3216689707 3216689707 -9.00000000
-2.60366344 3.93519855 -0.57936686 8 8 32651 4.75400000 3216689711 3216689711 -7.00000000
-3.69405293 5.58534002 -0.58586091 4 10 32652 6.72200000 3216689716 3216689716 -5.00000000
-6.17221546 9.33936024 -0.58668607 8 12 32654 11.21000000 3216689720 3216689720 -3.00000000
-6.07546711 9.19645691 2.54464626 59 13 32655 11.31200000 3216689723 3216689723 13.00000000
-4.60640669 6.97538090 2.23982000 45 15 32656 8.65400000 3216689727 3216689727 15.00000000
-1.16961539 1.77651227 -0.56991953 4 0 32664 2.20200000 3216689748 3216689748 -15.00000000
-1.37414384 2.08875489 -0.57722443 4 2 32666 2.56600000 3216689753 3216689753 -13.00000000
-1.62348938 2.46870852 -0.57433510 4 4 32667 3.01000000 3216689757 3216689757 -11.00000000
-1.99714446 3.03920579 -0.57599169 1 6 32669 3.68200000 3216689762 3216689762 -9.00000000
-2.59100080 3.94592237 -0.57961059 4 8 32671 4.75600000 3216689766 3216689766 -7.00000000
-3.67453384 5.59820080 -0.58586091 4 10 32672 6.72200000 3216689771 3216689771 -5.00000000
-6.15491295 9.38422966 -0.58815145 8 12 32674 11.23800000 3216689776 3216689776 -3.00000000
-6.05187654 9.23064613 2.54824543 60 13 32675 11.32800000 3216689778 3216689778 13.00000000
-4.57885313 6.98657084 2.23826718 40 15 32676 8.64800000 3216689783 3216689783 15.00000000
-1.16552043 1.78381860 -0.57095480 4 0 32684 2.20600000 3216689803 3216689803 -15.00000000
-1.37110579 2.10006571 -0.57902402 4 2 32686 2.57400000 3216689808 3216689808 -13.00000000
-1.61915410 2.48093677 -0.57586157 2 4 32687 3.01800000 3216689813 3216689813 -11.00000000
-1.99515581 3.05939555 -0.57849467 1 6 32689 3.69800000 3216689817 3216689817 -9.00000000
-2.57829499 3.95660567 -0.57985431 2 8 32691 4.75800000 3216689822 3216689822 -7.00000000
-3.65823245 5.61600161 -0.58638382 4 10 32692 6.72800000 3216689826 3216689826 -5.00000000
-6.12429714 9.40900517 -0.58836085 8 12 32694 11.24200000 3216689831 3216689831 -3.00000000
-6.01961851 9.25171471 2.54824543 57 13 32695 11.32800000 3216689833 3216689833 13.00000000
-4.55637407 7.00816488 2.23982000 42 15 32697 8.65400000 3216689838 3216689838 15.00000000
-1.16380394 1.79415679 -0.57302535 4 0 32703 2.21400000 3216689859 3216689859 -15.00000000
-1.36201429 2.10133052 -0.57812423 4 2 32705 2.57000000 3216689863 3216689863 -13.00000000
-1.61732328 2.49617839 -0.57815129 4 4 32706 3.03000000 3216689868 3216689868 -11.00000000
-1.98499954 3.06599498 -0.57849467 1 6 32708 3.69800000 3216689872 3216689872 -9.00000000
-2.56516004 3.96513391 -0.57985431 2 8 32710 4.75800000 3216689877 3216689877 -7.00000000
-3.64499879 5.63646698 -0.58725542 4 10 32711 6.73800000 3216689882 3216689882 -5.00000000
-6.09523010 9.43261719 -0.58857018 8 12 32713 11.24600000 3216689886 3216689886 -3.00000000
-5.98256159 9.26180363 2.54554605 59 13 32714 11.31600000 3216689889 3216689889 13.00000000
-4.53538275 7.02406740 2.24033761 45 15 32715 8.65600000 3216689893 3216689893 15.00000000
-1.16380787 1.80795467 -0.57613117 4 0 32723 2.22600000 3216689914 3216689914 -15.00000000
-1.35256255 2.10279393 -0.57722443 4 2 32725 2.56600000 3216689918 3216689918 -13.00000000
-1.60010588 2.48859787 -0.57509834 4 4 32726 3.01400000 3216689923 3216689923 -11.00000000
-1.98389494 3.08786249 -0.58131045 2 6 32728 3.71600000 3216689928 3216689928 -9.00000000
-2.54272413 3.96070004 -0.57790440 2 8 32730 4.74200000 3216689932 3216689932 -7.00000000
-3.62422538 5.64747906 -0.58708107 4 10 32731 6.73600000 3216689937 3216689937 -5.00000000
-6.07520437 9.47401142 -0.58982623 8 12 32733 11.27000000 3216689942 3216689942 -3.00000000
-5.94809198 9.27934933 2.54464626 60 13 32734 11.31200000 3216689944 3216689944 13.00000000
-4.50979471 7.03822947 2.23982000 45 15 32735 8.65400000 3216689948 3216689948 15.00000000
-1.15748990 1.81200612 -0.57613117 4 0 32743 2.22600000 3216689969 3216689969 -15.00000000
-1.34835970 2.11243033 -0.57857412 3 2 32745 2.57200000 3216689974 3216689974 -13.00000000
-1.59563339 2.50078821 -0.57662481 4 4 32746 3.02200000 3216689978 3216689978 -11.00000000
-1.96779442 3.08644056 -0.57974613 1 6 32748 3.70600000 3216689983 3216689983 -9.00000000
-2.53741598 3.98294520 -0.57985431 2 8 32750 4.75800000 3216689988 3216689988 -7.00000000
-3.60449004 5.66009569 -0.58708107 4 10 32751 6.73600000 3216689992 3216689992 -5.00000000
-6.05496407 9.51538086 -0.59108227 8 12 32753 11.29400000 3216689997 3216689997 -3.00000000
-5.92194033 9.30992126 2.54734564 60 13 32754 11.32400000 3216689999 3216689999 13.00000000
-4.48293161 7.05308104 2.23930240 45 15 32756 8.65200000 3216690004 3216690004 15.00000000
-1.14081490 1.79971886 -0.57095480 4 0 32763 2.20600000 3216690024 3216690024 -15.00000000
-1.34306324 2.12041688 -0.57947391 3 2 32765 2.57600000 3216690029 3216690029 -13.00000000
-1.58479381 2.50302529 -0.57586157 4 4 32766 3.01800000 3216690034 3216690034 -11.00000000
-1.95278430 3.08661318 -0.57849467 1 6 32768 3.69800000 3216690038 3216690038 -9.00000000
-2.53622627 4.01191330 -0.58277923 2 8 32770 4.78200000 3216690043 3216690043 -7.00000000
-3.59428978 5.68780184 -0.58864987 4 10 32771 6.75400000 3216690048 3216690048 -5.00000000
-6.01851320 9.53139210 -0.59076828 4 12 32773 11.28800000 3216690052 3216690052 -3.00000000
-5.89148712 9.33383179 2.54824543 60 13 32774 11.32800000 3216690054 3216690054 13.00000000
-4.45003986 7.05561447 2.23516130 45 15 32776 8.63600000 3216690059 3216690059 15.00000000
-1.13658297 1.80696058 -0.57199007 4 0 32783 2.21000000 3216690080 3216690080 -15.00000000
-1.34187531 2.13499141 -0.58217335 3 2 32785 2.58800000 3216690084 3216690084 -13.00000000
-1.58440244 2.52184129 -0.57891446 4 4 32786 3.03400000 3216690089 3216690089 -11.00000000
-1.94304836 3.09508395 -0.57880753 1 6 32788 3.70000000 3216690094 3216690094 -9.00000000
-2.53908467 4.04764795 -0.58667904 2 8 32790 4.81400000 3216690098 3216690098 -7.00000000
-3.58605671 5.71888113 -0.59056729 4 10 32791 6.77600000 3216690103 3216690103 -5.00000000
-6.01701927 9.60311699 -0.59390843 4 12 32793 11.34800000 3216690107 3216690107 -3.00000000
-5.86300755 9.36094570 2.55004525 60 13 32794 11.33600000 3216690110 3216690110 13.00000000
-4.42948341 7.07765532 2.23723173 45 15 32796 8.64400000 3216690114 3216690114 15.00000000
-1.13333714 1.81583357 -0.57354301 4 0 32803 2.21600000 3216690135 3216690135 -15.00000000
-1.32203984 2.11982012 -0.57677448 3 2 32805 2.56400000 3216690140 3216690140 -13.00000000
-1.57143545 2.52069235 -0.57738805 4 4 32806 3.02600000 3216690144 3216690144 -11.00000000
-1.93223274 3.10184765 -0.57880753 1 6 32808 3.70000000 3216690149 3216690149 -9.00000000
-2.51549935 4.04131842 -0.58448535 2 8 32810 4.79600000 3216690154 3216690154 -7.00000000
-3.57449269 5.74489737 -0.59196180 4 10 32811 6.79200000 3216690158 3216690158 -5.00000000
-5.99295235 9.63932705 -0.59485048 4 12 32813 11.36600000 3216690163 3216690163 -3.00000000
-5.82618141 9.37473392 2.54824543 57 13 32814 11.32800000 3216690165 3216690165 13.00000000
-4.40271235 7.08979177 2.23619652 45 15 32816 8.64000000 3216690170 3216690170 15.00000000
-1.13004327 1.82470572 -0.57509589 4 0 32823 2.22200000 3216690190 3216690190 -15.00000000
-1.31873405 2.13105059 -0.57857412 3 2 32825 2.57200000 3216690195 3216690195 -13.00000000
-1.56469262 2.52950168 -0.57815129 4 4 32826 3.03000000 3216690200 3216690200 -11.00000000
-1.93801093 3.13545847 -0.58381343 2 6 32828 3.73200000 3216690204 3216690204 -9.00000000
-2.48990297 4.03149652 -0.58180422 2 8 32830 4.77400000 3216690209 3216690209 -7.00000000
-3.55232430 5.75394917 -0.59161317 4 10 32831 6.78800000 3216690213 3216690213 -5.00000000
-5.96975470 9.67718601 -0.59589720 4 12 32833 11.38600000 3216690218 3216690218 -3.00000000
-5.78728485 9.38506222 2.54554605 60 13 32834 11.31600000 3216690220 3216690220 13.00000000
-4.38221884 7.10928631 2.23774958 45 15 32835 8.64600000 3216690225 3216690225 15.00000000
-1.12467837 1.83028519 -0.57561356 4 0 32843 2.22400000 3216690246 3216690246 -15.00000000
-1.31332660 2.13896227 -0.57947391 3 2 32845 2.57600000 3216690250 3216690250 -13.00000000
-1.55174553 2.52825499 -0.57662481 4 4 32846 3.02200000 3216690255 3216690255 -11.00000000
-1.92292345 3.13546848 -0.58256197 2 6 32848 3.72400000 3216690259 3216690259 -9.00000000
-2.47996402 4.04693365 -0.58277923 2 8 32850 4.78200000 3216690264 3216690264 -7.00000000
-3.53846192 5.77650785 -0.59265906 4 10 32851 6.80000000 3216690269 3216690269 -5.00000000
-5.94532251 9.71329689 -0.59683925 4 12 32853 11.40400000 3216690273 3216690273 -3.00000000
-5.75855780 9.41185474 2.54734564 59 13 32854 11.32400000 3216690276 3216690276 13.00000000
-4.35310936 7.12035561 2.23619652 45 15 32856 8.64000000 3216690280 3216690280 15.00000000
-1.11759675 1.83235538 -0.57509589 4 0 32862 2.22200000 3216690301 3216690301 -15.00000000
-1.31028295 2.14996171 -0.58127350 3 2 32864 2.58400000 3216690306 3216690306 -13.00000000
-1.54539585 2.53674006 -0.57738805 4 4 32865 3.02600000 3216690310 3216690310 -11.00000000
-1.90737963 3.13339138 -0.58099759 1 6 32867 3.71400000 3216690315 3216690315 -9.00000000
-2.47478294 4.06870317 -0.58472914 2 8 32869 4.79800000 3216690319 3216690319 -7.00000000
-3.51514649 5.78140020 -0.59196180 4 10 32870 6.79200000 3216690324 3216690324 -5.00000000
-5.94419003 9.78416729 -0.59997940 4 12 32872 11.46400000 3216690329 3216690329 -3.00000000
-5.72933865 9.43423080 2.54824543 60 13 32873 11.32800000 3216690331 3216690331 13.00000000
-4.32470417 7.12408781 2.23309064 45 15 32874 8.62800000 3216690336 3216690336 15.00000000
-1.10719311 1.82963419 -0.57302535 4 0 32882 2.21400000 3216690356 3216690356 -15.00000000
-1.29772854 2.14618444 -0.57902402 4 2 32884 2.57400000 3216690361 3216690361 -13.00000000
-1.54059386 2.54883981 -0.57891446 2 4 32885 3.03400000 3216690365 3216690365 -11.00000000
-1.89643037 3.14003015 -0.58099759 1 6 32887 3.71400000 3216690370 3216690370 -9.00000000
-2.46671939 4.08751440 -0.58619153 2 8 32889 4.81000000 3216690375 3216690375 -7.00000000
-3.51964355 5.83457994 -0.59614527 4 10 32890 6.84000000 3216690379 3216690379 -5.00000000
-5.90072107 9.78946209 -0.59903735 4 12 32892 11.44600000 3216690384 3216690384 -3.00000000
-5.70039463 9.46084881 2.55004525 60 13 32893 11.33600000 3216690386 3216690386 13.00000000
-4.29856396 7.13989067 2.23309064 45 15 32895 8.62800000 3216690391 3216690391 15.00000000
-1.10310912 1.83660793 -0.57406062 4 0 32901 2.21800000 3216690412 3216690412 -15.00000000
-1.28559041 2.14212155 -0.57677448 3 2 32903 2.56400000 3216690416 3216690416 -13.00000000
-1.53415298 2.55730176 -0.57967770 2 4 32904 3.03800000 3216690421 3216690421 -11.00000000
-1.88397598 3.14291310 -0.58037186 1 6 32906 3.71000000 3216690425 3216690425 -9.00000000
-2.44499111 4.08204794 -0.58424163 2 8 32908 4.79400000 3216690430 3216690430 -7.00000000
-3.46752477 5.79151773 -0.59056729 4 10 32909 6.77600000 3216690435 3216690435 -5.00000000
-5.88258076 9.83297062 -0.60050279 8 12 32911 11.47400000 3216690439 3216690439 -3.00000000
-5.66098881 9.46632004 2.54644585 62 13 32912 11.32000000 3216690442 3216690442 13.00000000
-4.27412939 7.15004349 2.23205543 45 15 32913 8.62400000 3216690446 3216690446 15.00000000
-1.10064709 1.84708548 -0.57613117 4 0 32921 2.22600000 3216690467 3216690467 -15.00000000
-1.28209305 2.15329361 -0.57857412 3 2 32923 2.57200000 3216690471 3216690471 -13.00000000
-1.52120066 2.55589318 -0.57815129 4 4 32924 3.03000000 3216690476 3216690476 -11.00000000
-1.88006163 3.16135502 -0.58256197 2 6 32926 3.72400000 3216690481 3216690481 -9.00000000
-2.45506477 4.13151455 -0.59009135 2 8 32928 4.84200000 3216690485 3216690485 -7.00000000
-3.47374249 5.84812403 -0.59509939 4 10 32929 6.82800000 3216690490 3216690490 -5.00000000
-5.86555099 9.88264275 -0.60228217 8 12 32931 11.50800000 3216690494 3216690494 -3.00000000
-5.61796713 9.46926308 2.54194689 59 13 32932 11.30000000 3216690497 3216690497 13.00000000
-4.24986506 7.16898441 2.23309064 45 15 32934 8.62800000 3216690501 3216690501 15.00000000
-1.09648263 1.85405087 -0.57716650 4 0 32940 2.23000000 3216690522 3216690522 -15.00000000
-1.27494538 2.15753341 -0.57857412 3 2 32942 2.57200000 3216690527 3216690527 -13.00000000
-1.50872266 2.55416203 -0.57662481 4 4 32943 3.02200000 3216690531 3216690531 -11.00000000
-1.87358415 3.17437696 -0.58381343 2 6 32945 3.73200000 3216690536 3216690536 -9.00000000
-2.43328357 4.12595415 -0.58814144 2 8 32947 4.82600000 3216690541 3216690541 -7.00000000
-3.44623590 5.84588051 -0.59370494 8 10 32948 6.81200000 3216690545 3216690545 -5.00000000
-5.83680153 9.90892315 -0.60270089 4 12 32950 11.51600000 3216690550 3216690550 -3.00000000
-5.58653545 9.48784161 2.54194689 60 13 32951 11.30000000 3216690552 3216690552 13.00000000
-4.22144270 7.17231131 2.22998500 45 15 32952 8.61600000 3216690557 3216690557 15.00000000
-1.08413863 1.84786952 -0.57406062 4 0 32960 2.21800000 3216690577 3216690577 -15.00000000
-1.27134860 2.16869521 -0.58037370 3 2 32962 2.58000000 3216690582 3216690582 -13.00000000
-1.50575328 2.56957603 -0.57891446 4 4 32963 3.03400000 3216690587 3216690587 -11.00000000
-1.87147510 3.19623947 -0.58662927 2 6 32965 3.75000000 3216690591 3216690591 -9.00000000
-2.41084695 4.12071562 -0.58619153 2 8 32967 4.81000000 3216690596 3216690596 -7.00000000
-3.42279148 5.85271454 -0.59318197 8 10 32968 6.80600000 3216690600 3216690600 -5.00000000
-5.82333851 9.96544933 -0.60489899 4 12 32970 11.55800000 3216690605 3216690605 -3.00000000
-5.55731392 9.51401520 2.54374647 62 13 32971 11.30800000 3216690607 3216690607 13.00000000
-4.18928337 7.17772436 2.22687912 45 15 32973 8.60400000 3216690612 3216690612 15.00000000
-1.07703531 1.85201871 -0.57406062 4 0 32982 2.21800000 3216690633 3216690633 -15.00000000
-1.26692832 2.18030071 -0.58217335 3 2 32984 2.58800000 3216690637 3216690637 -13.00000000
-1.50376439 2.58891988 -0.58196741 2 4 32985 3.05000000 3216690642 3216690642 -11.00000000
-1.84332359 3.17606616 -0.58162332 2 6 32987 3.71800000 3216690647 3216690647 -9.00000000
-2.40695691 4.15054893 -0.58911639 2 8 32989 4.83400000 3216690651 3216690651 -7.00000000
-3.40928626 5.88132763 -0.59475076 4 10 32990 6.82400000 3216690656 3216690656 -5.00000000
-5.79504156 10.00501919 -0.60594571 4 12 32992 11.57800000 3216690660 3216690660 -3.00000000
-5.52367115 9.54034233 2.54509616 54 13 32993 11.31400000 3216690663 3216690663 13.00000000
-4.16294765 7.19303083 2.22687912 45 15 32994 8.60400000 3216690667 3216690667 15.00000000
-1.07828677 1.86915398 -0.57820177 4 0 33002 2.23400000 3216690688 3216690688 -15.00000000
-1.24957800 2.16782641 -0.57767433 3 2 33004 2.56800000 3216690693 3216690693 -13.00000000
-1.48883736 2.58394670 -0.57967770 2 4 33005 3.03800000 3216690697 3216690697 -11.00000000
-1.84208179 3.19960046 -0.58475202 2 6 33007 3.73800000 3216690702 3216690702 -9.00000000
-2.39443398 4.16236687 -0.58960390 2 8 33009 4.83800000 3216690706 3216690706 -7.00000000
-3.41654491 5.94155407 -0.59963149 4 10 33010 6.88000000 3216690711 3216690711 -5.00000000
-5.76207256 10.02865028 -0.60615504 4 12 33012 11.58200000 3216690716 3216690716 -3.00000000
-4.79640055 8.35131264 2.22341633 55 13 33013 9.88400000 3216690718 3216690718 13.00000000
-4.13463306 7.20488930 2.22584391 45 15 33015 8.60000000 3216690723 3216690723 15.00000000
-1.07367456 1.87625992 -0.57923704 4 0 33022 2.23800000 3216690743 3216690743 -15.00000000
-1.24587250 2.17894197 -0.57947391 3 2 33024 2.57600000 3216690748 3216690748 -13.00000000
-1.48175704 2.59253716 -0.58044094 2 4 33025 3.04200000 3216690753 3216690753 -11.00000000
-1.83090198 3.20601106 -0.58475202 2 6 33027 3.73800000 3216690757 3216690757 -9.00000000
-2.39366364 4.19483757 -0.59301621 2 8 33029 4.86600000 3216690762 3216690762 -7.00000000
-3.38591290 5.93613720 -0.59788841 4 10 33030 6.86000000 3216690766 3216690766 -5.00000000
-5.73494244 10.06258392 -0.60699242 4 12 33032 11.59800000 3216690771 3216690771 -3.00000000
-4.76143217 8.35784435 2.22071671 60 13 33033 9.87200000 3216690773 3216690773 13.00000000
-4.11262989 7.22191811 2.22687912 45 15 33034 8.60400000 3216690778 3216690778 15.00000000
-1.06330419 1.87327600 -0.57716650 4 0 33042 2.23000000 3216690799 3216690799 -15.00000000
-1.23825896 2.18327761 -0.57947391 3 2 33044 2.57600000 3216690803 3216690803 -13.00000000
-1.46688890 2.58744621 -0.57815129 2 4 33045 3.03000000 3216690808 3216690808 -11.00000000
-1.82554138 3.22269535 -0.58662927 2 6 33047 3.75000000 3216690812 3216690812 -9.00000000
-2.37509513 4.19625711 -0.59204125 2 8 33049 4.85800000 3216690817 3216690817 -7.00000000
-3.38479328 5.98260164 -0.60137463 4 10 33050 6.90000000 3216690822 3216690822 -5.00000000
-5.71157694 10.10340595 -0.60824847 4 12 33052 11.62200000 3216690826 3216690826 -3.00000000
-4.73414612 8.37780762 2.22161651 55 13 33053 9.87600000 3216690829 3216690829 13.00000000
-4.08169508 7.22613764 2.22377324 45 15 33054 8.59200000 3216690833 3216690833 15.00000000
-1.05172372 1.86650896 -0.57406062 4 0 33060 2.21800000 3216690854 3216690854 -15.00000000
-1.23521805 2.19394922 -0.58127350 3 2 33062 2.58400000 3216690859 3216690859 -13.00000000
-1.45875299 2.59204197 -0.57815129 2 4 33063 3.03000000 3216690863 3216690863 -11.00000000
-1.80959868 3.21808362 -0.58475202 2 6 33065 3.73800000 3216690868 3216690868 -9.00000000
-2.35801101 4.19677544 -0.59106630 2 8 33067 4.85000000 3216690872 3216690872 -7.00000000
-3.35622525 5.97583437 -0.59963149 4 10 33068 6.88000000 3216690877 3216690877 -5.00000000
-5.69544697 10.14916706 -0.60992324 4 12 33070 11.65400000 3216690882 3216690882 -3.00000000
-4.70971012 8.39603806 2.22251630 59 13 33071 9.88000000 3216690884 3216690884 13.00000000
-4.04291105 7.21027899 2.21497345 36 15 33072 8.55800000 3216690888 3216690888 15.00000000
-1.04520202 1.87016881 -0.57406062 4 0 33080 2.21800000 3216690909 3216690909 -15.00000000
-1.22945249 2.20165038 -0.58217335 3 2 33082 2.58800000 3216690914 3216690914 -13.00000000
-1.45735133 2.61083221 -0.58120418 2 4 33083 3.04600000 3216690918 3216690918 -11.00000000
-1.79643011 3.22093010 -0.58412629 2 6 33085 3.73400000 3216690923 3216690923 -9.00000000
-2.35494304 4.22578907 -0.59399116 2 8 33087 4.87400000 3216690928 3216690928 -7.00000000
-3.33534527 5.98751307 -0.59963149 4 10 33088 6.88000000 3216690932 3216690932 -5.00000000
-5.66969824 10.18643761 -0.61096996 4 12 33090 11.67400000 3216690937 3216690937 -3.00000000
-4.68226862 8.41583252 2.22341633 60 13 33091 9.88400000 3216690939 3216690939 13.00000000
-3.97234082 7.14568996 2.19064450 18 15 33093 8.46400000 3216690944 3216690944 15.00000000
-1.04583073 1.88750541 -0.57820177 4 0 33101 2.23400000 3216690965 3216690965 -15.00000000
-1.21665537 2.19761729 -0.57992381 4 2 33103 2.57800000 3216690969 3216690969 -13.00000000
-1.45157480 2.62302709 -0.58273065 2 4 33104 3.05400000 3216690974 3216690974 -11.00000000
-1.79799497 3.25169468 -0.58850646 2 6 33106 3.76200000 3216690978 3216690978 -9.00000000
-2.33943892 4.23439217 -0.59399116 2 8 33108 4.87400000 3216690983 3216690983 -7.00000000
-3.34612584 6.05899715 -0.60555810 4 10 33109 6.94800000 3216690988 3216690988 -5.00000000
-5.64004469 10.22113895 -0.61180735 4 12 33111 11.69000000 3216690992 3216690992 -3.00000000
-4.64574432 8.42269897 2.22071671 60 13 33112 9.87200000 3216690994 3216690994 13.00000000
-3.90260172 7.07830811 2.16579771 15 15 33113 8.36800000 3216690999 3216690999 15.00000000
-1.04388762 1.89960980 -0.58078992 4 0 33121 2.24400000 3216691020 3216691020 -15.00000000
-1.21179068 2.20697546 -0.58127350 3 2 33123 2.58400000 3216691024 3216691024 -13.00000000
-1.44052064 2.62463593 -0.58196741 2 4 33124 3.05000000 3216691029 3216691029 -11.00000000
-1.78378391 3.25275493 -0.58756787 2 6 33126 3.75600000 3216691034 3216691034 -9.00000000
-2.32464385 4.24253225 -0.59399116 2 8 33128 4.87400000 3216691038 3216691038 -7.00000000
-3.30964208 6.04268122 -0.60276914 4 10 33129 6.91600000 3216691043 3216691043 -5.00000000
-5.60624933 10.24426842 -0.61201668 4 12 33131 11.69400000 3216691047 3216691047 -3.00000000
-4.61257458 8.43202591 2.21891713 57 13 33132 9.86400000 3216691050 3216691050 13.00000000
-3.86860180 7.07493734 2.16062140 15 15 33133 8.34800000 3216691054 3216691054 15.00000000
-1.03480828 1.89797270 -0.57923704 4 0 33140 2.23800000 3216691076 3216691076 -15.00000000
-1.20260084 2.20755911 -0.58037370 3 2 33142 2.58000000 3216691081 3216691081 -13.00000000
-1.42429793 2.61560488 -0.57891446 2 4 33143 3.03400000 3216691085 3216691085 -11.00000000
-1.77015543 3.25344682 -0.58662927 2 6 33145 3.75000000 3216691090 3216691090 -9.00000000
-2.31056237 4.25021791 -0.59399116 2 8 33147 4.87400000 3216691094 3216691094 -7.00000000
-3.28768301 6.05012178 -0.60242051 4 10 33148 6.91200000 3216691099 3216691099 -5.00000000
-5.58749580 10.29088688 -0.61369145 4 12 33150 11.72600000 3216691104 3216691104 -3.00000000
-4.58458757 8.44727516 2.21891713 60 13 33151 9.86400000 3216691106 3216691106 13.00000000
-3.83314347 7.06565237 2.15389204 18 15 33152 8.32200000 3216691111 3216691111 15.00000000
-1.02266383 1.89137721 -0.57613117 4 0 33160 2.22600000 3216691131 3216691131 -15.00000000
-1.20137167 2.22374535 -0.58352304 4 2 33162 2.59400000 3216691136 3216691136 -13.00000000
-1.42448783 2.63783526 -0.58273065 2 4 33163 3.05400000 3216691141 3216691141 -11.00000000
-1.76160204 3.26482129 -0.58756787 2 6 33165 3.75600000 3216691145 3216691145 -9.00000000
-2.30513239 4.27573061 -0.59642857 2 8 33167 4.89400000 3216691150 3216691150 -7.00000000
-3.26087308 6.05103731 -0.60137463 4 10 33168 6.90000000 3216691154 3216691154 -5.00000000
-5.54964590 10.30681133 -0.61348206 4 12 33170 11.72200000 3216691159 3216691159 -3.00000000
-4.55876732 8.47009087 2.22071671 60 13 33171 9.87200000 3216691161 3216691161 13.00000000
-3.79990101 7.06604290 2.14975095 18 15 33173 8.30600000 3216691166 3216691166 15.00000000
-1.01821256 1.89816284 -0.57716650 4 0 33179 2.23000000 3216691187 3216691187 -15.00000000
-1.19214964 2.22428179 -0.58262324 4 2 33181 2.59000000 3216691191 3216691191 -13.00000000
-1.40831554 2.62870026 -0.57967770 2 4 33182 3.03800000 3216691196 3216691196 -11.00000000
-1.74517226 3.26019573 -0.58569062 2 6 33184 3.74400000 3216691200 3216691200 -9.00000000
-2.29468584 4.29035330 -0.59740353 2 8 33186 4.90200000 3216691205 3216691205 -7.00000000
-3.27272749 6.12155724 -0.60730124 4 10 33187 6.96800000 3216691210 3216691210 -5.00000000
-5.53049326 10.35334396 -0.61515683 4 12 33189 11.75400000 3216691214 3216691214 -3.00000000
-4.53249025 8.48859978 2.22161651 62 13 33190 9.87600000 3216691217 3216691217 13.00000000
-3.77313542 7.06942415 2.14716291 22 15 33191 8.29600000 3216691221 3216691221 15.00000000
-1.01339507 1.90511656 -0.57820177 4 0 33199 2.23400000 3216691242 3216691242 -15.00000000
-1.17614698 2.21294236 -0.57857412 3 2 33201 2.57200000 3216691246 3216691246 -13.00000000
-1.40465760 2.64400291 -0.58196741 2 4 33202 3.05000000 3216691251 3216691251 -11.00000000
-1.74396932 3.28546047 -0.58913219 2 6 33204 3.76600000 3216691256 3216691256 -9.00000000
-2.26295376 4.26677036 -0.59301621 2 8 33206 4.86600000 3216691260 3216691260 -7.00000000
-3.23827410 6.10829973 -0.60486084 4 10 33207 6.94000000 3216691265 3216691265 -5.00000000
-5.50366879 10.39023590 -0.61620355 4 12 33209 11.77400000 3216691270 3216691270 -3.00000000
-4.49736071 8.49403572 2.21891713 59 13 33210 9.86400000 3216691272 3216691272 13.00000000
-3.74210978 7.07059956 2.14353943 20 15 33211 8.28200000 3216691276 3216691276 15.00000000
-1.00820756 1.91223586 -0.57923704 4 0 33220 2.23800000 3216691297 3216691297 -15.00000000
-1.17347789 2.22758317 -0.58127350 3 2 33222 2.58400000 3216691302 3216691302 -13.00000000
-1.39495742 2.64913344 -0.58196741 2 4 33223 3.05000000 3216691306 3216691306 -11.00000000
-1.72639716 3.28134131 -0.58725500 2 6 33225 3.75400000 3216691311 3216691311 -9.00000000
-2.25468946 4.28909254 -0.59496611 2 8 33227 4.88200000 3216691316 3216691316 -7.00000000
-3.20474315 6.09896278 -0.60276914 4 10 33228 6.91600000 3216691320 3216691320 -5.00000000
-5.45997906 10.39972782 -0.61557549 4 12 33230 11.76200000 3216691325 3216691325 -3.00000000
-4.46438694 8.50701141 2.21801734 60 13 33231 9.86000000 3216691327 3216691327 13.00000000
-3.70955062 7.07465029 2.14043355 20 15 33233 8.27000000 3216691332 3216691332 15.00000000
-1.00063145 1.91403151 -0.57871938 4 0 33240 2.23600000 3216691352 3216691352 -15.00000000
-1.17110837 2.24202967 -0.58397293 3 2 33242 2.59600000 3216691357 3216691357 -13.00000000
-1.38751900 2.65746713 -0.58273065 2 4 33243 3.05400000 3216691362 3216691362 -11.00000000
-1.71675992 3.29085040 -0.58788073 2 6 33245 3.75800000 3216691366 3216691366 -9.00000000
-2.23236370 4.28285408 -0.59301621 2 8 33247 4.86600000 3216691371 3216691371 -7.00000000
-3.21473479 6.17018843 -0.60869569 4 10 33248 6.98400000 3216691376 3216691376 -5.00000000
-5.46422243 10.49667358 -0.62018108 4 12 33250 11.85000000 3216691380 3216691380 -3.00000000
-4.43466473 8.52254295 2.21801734 60 13 33251 9.86000000 3216691382 3216691382 13.00000000
-3.67948604 7.07727194 2.13732767 20 15 33253 8.25800000 3216691387 3216691387 15.00000000
-0.98949897 1.90893710 -0.57613117 4 0 33260 2.22600000 3216691408 3216691408 -15.00000000
-1.15969026 2.23918223 -0.58217335 3 2 33262 2.58800000 3216691412 3216691412 -13.00000000
-1.38003945 2.66578126 -0.58349389 2 4 33263 3.05800000 3216691417 3216691417 -11.00000000
-1.70163214 3.28980470 -0.58662927 2 6 33265 3.75000000 3216691422 3216691422 -9.00000000
-2.22651410 4.30825567 -0.59545362 2 8 33267 4.88600000 3216691426 3216691426 -7.00000000
-3.18220401 6.16013050 -0.60660398 4 10 33268 6.96000000 3216691431 3216691431 -5.00000000
-5.45502996 10.56892681 -0.62332124 4 12 33270 11.91000000 3216691435 3216691435 -3.00000000
-4.40488863 8.53797150 2.21801734 62 13 33271 9.86000000 3216691438 3216691438 13.00000000
-3.64590788 7.07290125 2.13215137 20 15 33273 8.23800000 3216691442 3216691442 15.00000000
-0.98371255 1.91409767 -0.57664883 4 0 33280 2.22800000 3216691463 3216691463 -15.00000000
-1.15542769 2.25015068 -0.58397293 3 2 33282 2.59600000 3216691468 3216691468 -13.00000000
-1.37431169 2.67756867 -0.58502036 2 4 33283 3.06600000 3216691472 3216691472 -11.00000000
-1.68653250 3.28869343 -0.58537775 2 6 33285 3.74200000 3216691477 3216691477 -9.00000000
-3.91690350 7.64442825 -1.05465734 20 8 33287 8.65400000 3216691482 3216691482 -7.00000000
-3.90271544 7.62001467 -0.74901646 8 10 33288 8.59400000 3216691486 3216691486 -5.00000000
-3.90958762 7.64000416 -0.44977522 17 12 33290 8.59400000 3216691491 3216691491 -3.00000000
-4.37505865 8.55329514 2.21801734 59 13 33291 9.86000000 3216691493 3216691493 13.00000000
-3.90258312 7.63288498 -0.14963694 22 14 33292 8.57400000 3216691495 3216691495 -1.00000000
-3.61416340 7.07182312 2.12801027 18 15 33293 8.22200000 3216691498 3216691498 15.00000000
-0.97911447 1.92079151 -0.57768410 4 0 33299 2.23200000 3216691518 3216691518 -15.00000000
-1.14442194 2.24702406 -0.58217335 3 2 33301 2.58800000 3216691523 3216691523 -13.00000000
-1.36008084 2.67161393 -0.58273065 2 4 33302 3.05400000 3216691528 3216691528 -11.00000000
-1.68099105 3.30483222 -0.58725500 2 6 33304 3.75400000 3216691532 3216691532 -9.00000000
-3.87291336 7.62403297 -0.74814492 8 10 33307 8.58400000 3216691541 3216691541 -5.00000000
-4.98292398 9.81338882 2.13935041 12 11 33308 11.21200000 3216691544 3216691544 11.00000000
-3.87067175 7.62621164 -0.44820514 21 12 33309 8.56400000 3216691546 3216691546 -3.00000000
-4.34314442 8.56080532 2.21621776 57 13 33310 9.85200000 3216691548 3216691548 13.00000000
-3.58756018 7.07452726 2.12542200 15 15 33311 8.21200000 3216691553 3216691553 15.00000000
-0.97501767 1.92937016 -0.57923704 3 0 33319 2.23800000 3216691574 3216691574 -15.00000000
-1.13481474 2.24752593 -0.58127350 3 2 33321 2.58400000 3216691578 3216691578 -13.00000000
-1.34897768 2.67283988 -0.58196741 2 4 33322 3.05000000 3216691583 3216691583 -11.00000000
-1.67300248 3.31773520 -0.58850646 2 6 33324 3.76200000 3216691587 3216691587 -9.00000000
-3.84448457 7.63394642 -0.74779630 13 10 33327 8.58000000 3216691597 3216691597 -5.00000000
-4.93363190 9.80091095 2.13286304 12 11 33328 11.17800000 3216691599 3216691599 11.00000000
-3.82876658 7.60934639 -0.44642571 29 12 33329 8.53000000 3216691601 3216691601 -3.00000000
-4.30973244 8.56894970 2.21441817 57 13 33330 9.84400000 3216691604 3216691604 13.00000000
-3.55726957 7.07899809 2.12283373 9 15 33332 8.20200000 3216691608 3216691608 15.00000000
-0.96707463 1.93120337 -0.57871938 4 0 33340 2.23600000 3216691629 3216691629 -15.00000000
-1.13005733 2.25864124 -0.58307314 3 2 33342 2.59200000 3216691634 3216691634 -13.00000000
-1.33565962 2.67074251 -0.58044094 2 4 33343 3.04200000 3216691638 3216691638 -11.00000000
-1.66259706 3.32737899 -0.58913219 2 6 33345 3.76600000 3216691643 3216691643 -9.00000000
-3.81801796 7.64772844 -1.04953873 134 8 33347 8.61200000 3216691647 3216691647 -7.00000000
-3.80936193 7.63372374 -0.74640179 13 10 33348 8.56400000 3216691652 3216691652 -5.00000000
-4.89417171 9.81190014 2.13133645 15 11 33349 11.17000000 3216691654 3216691654 11.00000000
-3.80174255 7.62511587 -0.44653037 59 12 33350 8.53200000 3216691657 3216691657 -3.00000000
-4.27655840 8.58119965 2.21351838 60 13 33351 9.84000000 3216691659 3216691659 13.00000000
-3.80995631 7.64827442 -0.14914827 230 14 33352 8.54600000 3216691661 3216691661 -1.00000000
-3.52823067 7.08272600 2.12024570 6 15 33352 8.19200000 3216691664 3216691664 15.00000000
-0.95259684 1.91899395 -0.57406062 4 0 33360 2.21800000 3216691684 3216691684 -15.00000000
-1.12389803 2.26606369 -0.58397293 3 2 33362 2.59600000 3216691689 3216691689 -13.00000000
-1.33330500 2.68946028 -0.58349389 2 4 33363 3.05800000 3216691693 3216691693 -11.00000000
-1.64395797 3.31900120 -0.58662927 2 6 33365 3.75000000 3216691698 3216691698 -9.00000000
-3.79658175 7.67168427 -1.05100119 100 8 33367 8.62400000 3216691703 3216691703 -7.00000000
-3.77915859 7.63983107 -0.74570453 13 10 33368 8.55600000 3216691707 3216691707 -5.00000000
-4.84422874 9.79724693 2.12446737 18 11 33369 11.13400000 3216691710 3216691710 11.00000000
-3.78218198 7.65266371 -0.44736776 38 12 33370 8.54800000 3216691712 3216691712 -3.00000000
-4.24657822 8.59607506 2.21351838 59 13 33371 9.84000000 3216691714 3216691714 13.00000000
-3.78854775 7.67228508 -0.14935769 210 14 33372 8.55800000 3216691717 3216691717 -1.00000000
-3.49968243 7.09041309 2.11869264 2 15 33373 8.18600000 3216691719 3216691719 15.00000000
-0.94930422 1.92924082 -0.57613117 4 0 33380 2.22600000 3216691740 3216691740 -15.00000000
-1.10910296 2.25598240 -0.58037370 3 2 33382 2.58000000 3216691744 3216691744 -13.00000000
-1.32564056 2.69762206 -0.58425713 2 4 33383 3.06200000 3216691749 3216691749 -11.00000000
-1.63932717 3.33890486 -0.58913219 2 6 33385 3.76600000 3216691753 3216691753 -9.00000000
-3.76299334 7.67444324 -0.74779630 8 10 33388 8.58000000 3216691763 3216691763 -5.00000000
-4.79876804 9.79117870 2.11950636 21 11 33389 11.10800000 3216691765 3216691765 11.00000000
-3.76159692 7.67837477 -0.44810045 17 12 33390 8.56200000 3216691767 3216691767 -3.00000000
-4.21826077 8.61434650 2.21441817 59 13 33391 9.84400000 3216691770 3216691770 13.00000000
-3.77053475 7.70342398 -0.14970674 112 14 33392 8.57800000 3216691772 3216691772 -1.00000000
-3.92372704 8.01640511 2.39148808 42 15 33392 9.24000000 3216691774 3216691774 15.00000000
-0.94764531 1.94296086 -0.57923704 4 0 33400 2.23800000 3216691795 3216691795 -15.00000000
-1.10634339 2.27035117 -0.58307314 3 2 33402 2.59200000 3216691799 3216691799 -13.00000000
-1.31965494 2.70929289 -0.58578360 2 4 33403 3.07000000 3216691804 3216691804 -11.00000000
-1.63371301 3.35704041 -0.59132230 2 6 33405 3.78000000 3216691809 3216691809 -9.00000000
-3.74576163 7.70724344 -0.74971372 8 10 33408 8.60200000 3216691818 3216691818 -5.00000000
-4.75684071 9.79197693 2.11607170 21 11 33409 11.09000000 3216691820 3216691820 11.00000000
-3.73826122 7.69864511 -0.44851914 17 12 33410 8.57000000 3216691822 3216691822 -3.00000000
-4.18305969 8.61849976 2.21171880 56 13 33411 9.83200000 3216691825 3216691825 13.00000000
-3.92044997 8.08461857 2.40753484 45 15 33413 9.30200000 3216691829 3216691829 15.00000000
-0.94337976 1.95147479 -0.58078992 4 0 33420 2.24400000 3216691850 3216691850 -15.00000000
-1.09841156 2.27419901 -0.58307314 3 2 33422 2.59200000 3216691855 3216691855 -13.00000000
-1.30165422 2.69620299 -0.58196741 4 4 33423 3.05000000 3216691859 3216691859 -11.00000000
-1.62455940 3.36806035 -0.59226090 2 6 33425 3.78600000 3216691864 3216691864 -9.00000000
-2.12086463 4.40093279 -0.59984088 2 8 33427 4.92200000 3216691869 3216691869 -7.00000000
-3.73526382 7.75437641 -0.75302559 4 10 33428 8.64000000 3216691873 3216691873 -5.00000000
-4.71581793 9.79437065 2.11301875 18 11 33429 11.07400000 3216691875 3216691875 11.00000000
-3.72349095 7.73684263 -0.44998455 8 12 33430 8.59800000 3216691878 3216691878 -3.00000000
-4.14957094 8.62602425 2.20991921 57 13 33431 9.82400000 3216691880 3216691880 13.00000000
-3.91957068 8.15154648 2.42358160 45 15 33432 9.36400000 3216691885 3216691885 15.00000000
-0.93238848 1.94604480 -0.57820177 4 0 33440 2.23400000 3216691905 3216691905 -15.00000000
-1.09214926 2.28153491 -0.58397293 3 2 33442 2.59600000 3216691910 3216691910 -13.00000000
-1.29901373 2.71489787 -0.58502036 2 4 33443 3.06600000 3216691915 3216691915 -11.00000000
-1.61449671 3.37727499 -0.59288663 2 6 33445 3.79000000 3216691919 3216691919 -9.00000000
-2.09693408 4.39039660 -0.59740353 2 8 33447 4.90200000 3216691924 3216691924 -7.00000000
-3.02319121 6.33256245 -0.61392504 4 10 33448 7.04400000 3216691928 3216691928 -5.00000000
-4.67821836 9.80368423 2.11149240 21 11 33449 11.06600000 3216691931 3216691931 11.00000000
-5.15561390 10.80896950 -0.62761277 4 12 33450 11.99200000 3216691933 3216691933 -3.00000000
-4.11775780 8.63693810 2.20901942 56 13 33451 9.82000000 3216691935 3216691935 13.00000000
-3.91708279 8.22341347 2.44066358 45 15 33453 9.43000000 3216691940 3216691940 15.00000000
-0.92510110 1.94738114 -0.57768410 4 0 33459 2.23200000 3216691961 3216691961 -15.00000000
-1.08624864 2.28866506 -0.58487272 3 2 33461 2.60000000 3216691965 3216691965 -13.00000000
-1.29336965 2.72628570 -0.58654684 2 4 33462 3.07400000 3216691970 3216691970 -11.00000000
-1.60159624 3.37904024 -0.59226090 2 6 33464 3.78600000 3216691975 3216691975 -9.00000000
-2.09085941 4.41526699 -0.59984088 2 8 33466 4.92200000 3216691979 3216691979 -7.00000000
-2.99706054 6.33174801 -0.61287916 4 10 33467 7.03200000 3216691984 3216691984 -5.00000000
-4.63560677 9.79784870 2.10691285 18 11 33468 11.04200000 3216691986 3216691986 11.00000000
-4.09242535 8.65759277 2.21081901 55 13 33470 9.82800000 3216691991 3216691991 13.00000000
-3.90773463 8.27061272 2.45101643 45 15 33471 9.47000000 3216691995 3216691995 15.00000000
-0.92405772 1.96283340 -0.58130759 4 0 33479 2.24600000 3216692016 3216692016 -15.00000000
-1.08157074 2.29949641 -0.58667237 3 2 33481 2.60800000 3216692021 3216692021 -13.00000000
-1.28551579 2.73433709 -0.58731008 2 4 33482 3.07800000 3216692025 3216692025 -11.00000000
-1.58307290 3.37030649 -0.58975792 2 6 33484 3.77000000 3216692030 3216692030 -9.00000000
-2.08049464 4.43332052 -0.60130334 2 8 33486 4.93400000 3216692034 3216692034 -7.00000000
-2.98170924 6.35660124 -0.61427367 4 10 33487 7.04800000 3216692039 3216692039 -5.00000000
-4.59637690 9.80330467 2.10462332 21 11 33488 11.03000000 3216692041 3216692041 11.00000000
-4.06218004 8.67182541 2.21081901 57 13 33490 9.82800000 3216692046 3216692046 13.00000000
-3.90769362 8.34961891 2.47016907 45 15 33492 9.54400000 3216692051 3216692051 15.00000000
-0.91638380 1.96429622 -0.58078992 4 0 33499 2.24400000 3216692071 3216692071 -15.00000000
-1.06859779 2.29266000 -0.58397293 3 2 33501 2.59600000 3216692076 3216692076 -13.00000000
-1.27762151 2.74236703 -0.58807331 2 4 33502 3.08200000 3216692081 3216692081 -11.00000000
-1.57296586 3.37939358 -0.59038365 2 6 33504 3.77400000 3216692085 3216692085 -9.00000000
-2.07002902 4.45135593 -0.60276580 2 8 33506 4.94600000 3216692090 3216692090 -7.00000000
-2.98133755 6.41394615 -0.61880577 4 10 33507 7.10000000 3216692094 3216692094 -5.00000000
-4.54889345 9.79080200 2.09851742 21 11 33508 10.99800000 3216692097 3216692097 11.00000000
-4.02860308 8.67888165 2.20901942 56 13 33510 9.82000000 3216692101 3216692101 13.00000000
-3.90925455 8.42561817 2.48880386 47 15 33511 9.61600000 3216692106 3216692106 15.00000000
-0.91114277 1.97099018 -0.58182520 4 0 33519 2.24800000 3216692127 3216692127 -15.00000000
-1.06058848 2.29637623 -0.58397293 3 2 33521 2.59600000 3216692131 3216692131 -13.00000000
-1.26804113 2.74680996 -0.58807331 2 4 33522 3.08200000 3216692136 3216692136 -11.00000000
-1.56281459 3.38845134 -0.59100944 2 6 33524 3.77800000 3216692140 3216692140 -9.00000000
-2.03620148 4.41889095 -0.59740353 2 8 33526 4.90200000 3216692145 3216692145 -7.00000000
-2.95893049 6.42431402 -0.61880577 4 10 33527 7.10000000 3216692150 3216692150 -5.00000000
-4.51304770 9.80305386 2.09775400 21 11 33528 10.99400000 3216692152 3216692152 11.00000000
-3.99502611 8.68581009 2.20721984 56 13 33530 9.81200000 3216692157 3216692157 13.00000000
-3.90080047 8.48484898 2.50226259 45 15 33531 9.66800000 3216692161 3216692161 15.00000000
-0.89943022 1.96362042 -0.57871938 4 0 33539 2.23600000 3216692182 3216692182 -15.00000000
-1.05418801 2.30360842 -0.58487272 3 2 33541 2.60000000 3216692187 3216692187 -13.00000000
-1.25354540 2.74050760 -0.58578360 2 4 33542 3.07000000 3216692191 3216692191 -11.00000000
-1.56411409 3.42263246 -0.59601533 2 6 33544 3.81000000 3216692196 3216692196 -9.00000000
-2.04384923 4.47653341 -0.60422820 2 8 33546 4.95800000 3216692200 3216692200 -7.00000000
-2.94310498 6.44910383 -0.62020028 4 10 33547 7.11600000 3216692205 3216692205 -5.00000000
-4.47391224 9.80803013 2.09546447 21 11 33548 10.98200000 3216692207 3216692207 11.00000000
-3.96468258 8.69970226 2.20721984 57 13 33550 9.81200000 3216692212 3216692212 13.00000000
-3.87436223 8.50544548 2.50433302 40 15 33551 9.67600000 3216692216 3216692216 15.00000000
-0.89257044 1.96674812 -0.57871938 4 0 33559 2.23600000 3216692237 3216692237 -15.00000000
-1.04935932 2.31437349 -0.58667237 3 2 33561 2.60800000 3216692242 3216692242 -13.00000000
-1.23748827 2.73056102 -0.58273065 2 4 33562 3.05400000 3216692246 3216692246 -11.00000000
-1.54400957 3.41007614 -0.59288663 2 6 33564 3.79000000 3216692251 3216692251 -9.00000000
-2.02821088 4.48364067 -0.60422820 2 8 33566 4.95800000 3216692256 3216692256 -7.00000000
-2.91400862 6.44481421 -0.61880577 4 10 33567 7.10000000 3216692260 3216692260 -5.00000000
-4.42671204 9.79496288 2.08935857 18 11 33568 10.95000000 3216692263 3216692263 11.00000000
-3.93910241 8.72414494 2.20991921 57 13 33570 9.82400000 3216692267 3216692267 13.00000000
-3.83998489 8.51254463 2.50226259 40 15 33572 9.66800000 3216692272 3216692272 15.00000000
-0.88728416 1.97337556 -0.57975465 4 0 33579 2.24000000 3216692293 3216692293 -15.00000000
-1.03808022 2.31091189 -0.58487272 3 2 33581 2.60000000 3216692297 3216692297 -13.00000000
-1.23599088 2.75277400 -0.58654684 2 4 33582 3.07400000 3216692302 3216692302 -11.00000000
-1.52724576 3.40463090 -0.59100944 2 6 33584 3.77800000 3216692306 3216692306 -9.00000000
-4.81014299 10.73310089 -1.44415176 2 8 33586 11.85000000 3216692311 3216692311 -7.00000000
-2.89149427 6.45494699 -0.61880577 4 10 33587 7.10000000 3216692316 3216692316 -5.00000000
-4.37885571 9.77989388 2.08287096 12 11 33588 10.91600000 3216692318 3216692318 11.00000000
-4.80378294 10.73396492 -0.61630821 8 12 33589 11.77600000 3216692320 3216692320 -3.00000000
-3.92135715 8.76630402 2.21711755 66 13 33590 9.85600000 3216692322 3216692322 13.00000000
-4.80262613 10.74143505 -0.20537992 8 14 33591 11.76800000 3216692325 3216692325 -1.00000000
-3.81488919 8.53228664 2.50433302 40 15 33591 9.67600000 3216692327 3216692327 15.00000000
-0.88353467 1.98351955 -0.58182520 4 0 33599 2.24800000 3216692348 3216692348 -15.00000000
-4.78574800 10.74896526 0.20537992 10 1 33600 11.76800000 3216692350 3216692350 1.00000000
-1.03000724 2.31452131 -0.58487272 3 2 33601 2.60000000 3216692352 3216692352 -13.00000000
-4.77860451 10.74301243 0.61620355 10 3 33602 11.77400000 3216692355 3216692355 3.00000000
-1.22477865 2.75348425 -0.58578360 2 4 33602 3.07000000 3216692357 3216692357 -11.00000000
-4.77641487 10.74313831 1.02861202 12 5 33603 11.80200000 3216692359 3216692359 5.00000000
-1.52016532 3.42077231 -0.59288663 2 6 33604 3.79000000 3216692362 3216692362 -9.00000000
-4.77371883 10.74717808 1.44390798 8 7 33605 11.84800000 3216692364 3216692364 7.00000000
-4.76459312 10.73168278 -1.44171429 2 8 33606 11.83000000 3216692366 3216692366 -7.00000000
-2.88834047 6.50870800 -0.62298924 4 10 33607 7.14800000 3216692371 3216692371 -5.00000000
-4.76142836 10.73971272 -0.61568022 8 12 33609 11.76400000 3216692375 3216692375 -3.00000000
-3.90494442 8.81200790 2.22521591 64 13 33610 9.89200000 3216692378 3216692378 13.00000000
-4.76186323 10.75082016 -0.20524029 8 14 33611 11.76000000 3216692380 3216692380 -1.00000000
-3.78742981 8.55084991 2.50588608 42 15 33611 9.68200000 3216692382 3216692382 15.00000000
-0.88007307 1.99350774 -0.58389574 4 0 33618 2.25600000 3216692403 3216692403 -15.00000000
-4.73635292 10.73367500 0.20478654 13 1 33619 11.73400000 3216692405 3216692405 1.00000000
-1.02232635 2.31792426 -0.58487272 3 2 33620 2.60000000 3216692408 3216692408 -13.00000000
-4.73838282 10.74335194 0.61536616 18 3 33620 11.75800000 3216692410 3216692410 3.00000000
-1.21405709 2.75393772 -0.58502036 2 4 33621 3.06600000 3216692412 3216692412 -11.00000000
-4.72951555 10.73339272 1.02617168 17 5 33622 11.77400000 3216692415 3216692415 5.00000000
-1.51199806 3.43302584 -0.59413809 2 6 33623 3.79800000 3216692417 3216692417 -9.00000000
-4.73965311 10.76658344 1.44439542 21 7 33624 11.85200000 3216692419 3216692419 7.00000000
-4.71938562 10.72561932 -1.43878949 2 8 33625 11.80600000 3216692421 3216692421 -7.00000000
-4.73288393 10.75629711 1.86125731 12 9 33625 11.89800000 3216692424 3216692424 9.00000000
-2.87476206 6.53648806 -0.62473238 4 10 33626 7.16800000 3216692426 3216692426 -5.00000000
-4.54051447 10.32888317 2.19315863 31 11 33627 11.49400000 3216692428 3216692428 11.00000000
-4.71775389 10.73715782 -0.61463344 8 12 33628 11.74400000 3216692431 3216692431 -3.00000000
-3.90391111 8.88914204 2.24141240 64 13 33629 9.96400000 3216692433 3216692433 13.00000000
-4.71011066 10.72993088 -0.20454220 8 14 33630 11.72000000 3216692435 3216692435 -1.00000000
-3.76138282 8.56866932 2.50743890 40 15 33630 9.68800000 3216692438 3216692438 15.00000000
-0.87156099 1.99302757 -0.58286047 4 0 33638 2.25200000 3216692458 3216692458 -15.00000000
-4.69405079 10.73914909 0.20457710 16 1 33639 11.72200000 3216692461 3216692461 1.00000000
-1.01578939 2.32505012 -0.58577257 3 2 33640 2.60400000 3216692463 3216692463 -13.00000000
-4.69098186 10.74234390 0.61431944 21 3 33641 11.73800000 3216692465 3216692465 3.00000000
-1.20286536 2.75456023 -0.58425713 2 4 33641 3.06200000 3216692468 3216692468 -11.00000000
-4.68086195 10.72427273 1.02373135 17 5 33642 11.74600000 3216692470 3216692470 5.00000000
-1.50316489 3.44552493 -0.59538954 2 6 33643 3.80600000 3216692472 3216692472 -9.00000000
-4.69172668 10.75940704 1.44122684 19 7 33644 11.82600000 3216692474 3216692474 7.00000000
-4.67557240 10.72747040 -1.43683958 2 8 33645 11.79000000 3216692477 3216692477 -7.00000000
-4.68632793 10.75727272 1.85844147 15 9 33646 11.88000000 3216692479 3216692479 9.00000000
-2.83760452 6.51360464 -0.62159479 4 10 33646 7.13200000 3216692481 3216692481 -5.00000000
-4.50599957 10.34826946 2.19392180 40 11 33647 11.49800000 3216692484 3216692484 11.00000000
-4.67227507 10.73524761 -0.61358672 8 12 33648 11.72400000 3216692486 3216692486 -3.00000000
-3.90239835 8.97062016 2.25850868 59 13 33649 10.04000000 3216692488 3216692488 13.00000000
-4.66146421 10.72063351 -0.20405354 8 14 33650 11.69200000 3216692491 3216692491 -1.00000000
-3.72918177 8.58062649 2.50692129 42 15 33651 9.68600000 3216692493 3216692493 15.00000000
-0.85692018 1.97833085 -0.57768410 4 0 33658 2.23200000 3216692514 3216692514 -15.00000000
-4.64938545 10.73895264 0.20426297 16 1 33659 11.70400000 3216692516 3216692516 1.00000000
-1.01076305 2.33573556 -0.58757216 3 2 33660 2.61200000 3216692518 3216692518 -13.00000000
-4.64978075 10.74500942 0.61358672 23 3 33660 11.72400000 3216692521 3216692521 3.00000000
-1.20103669 2.77676153 -0.58807331 2 4 33661 3.08200000 3216692523 3216692523 -11.00000000
-4.63786459 10.72774506 1.02251112 17 5 33662 11.73200000 3216692525 3216692525 5.00000000
-1.48486006 3.43624449 -0.59288663 2 6 33663 3.79000000 3216692527 3216692527 -9.00000000
-4.64548302 10.75567245 1.43854570 19 7 33664 11.80400000 3216692530 3216692530 7.00000000
-1.98033810 4.58727026 -0.61349028 2 8 33665 5.03400000 3216692532 3216692532 -7.00000000
-4.64092350 10.75542831 1.85531271 18 9 33666 11.86000000 3216692534 3216692534 9.00000000
-4.64300346 10.76025009 -1.02530015 4 10 33666 11.76400000 3216692537 3216692537 -5.00000000
-4.46440744 10.35131550 2.19125056 46 11 33667 11.48400000 3216692539 3216692539 11.00000000
-4.62528563 10.72948170 -0.61233068 8 12 33668 11.70000000 3216692541 3216692541 -3.00000000
-3.89727974 9.04503632 2.27380514 60 13 33669 10.10800000 3216692544 3216692544 13.00000000
-4.61531305 10.71663666 -0.20366958 8 14 33670 11.67000000 3216692546 3216692546 -1.00000000
-3.69688630 8.58407402 2.50433302 40 15 33670 9.67600000 3216692548 3216692548 15.00000000
-0.85838753 2.00083899 -0.58337814 4 0 33678 2.25400000 3216692569 3216692569 -15.00000000
-4.60241413 10.73306274 0.20384410 20 1 33679 11.68000000 3216692571 3216692571 1.00000000
-1.00260365 2.33924961 -0.58757216 3 2 33680 2.61200000 3216692573 3216692573 -13.00000000
-4.60831118 10.75199604 0.61306340 18 3 33680 11.71400000 3216692576 3216692576 3.00000000
-1.19597518 2.79176474 -0.59036303 4 4 33681 3.09400000 3216692578 3216692578 -11.00000000
-4.59411526 10.72921658 1.02111673 17 5 33682 11.71600000 3216692580 3216692580 5.00000000
-1.47441077 3.44503880 -0.59351236 2 6 33683 3.79400000 3216692583 3216692583 -9.00000000
-4.59932232 10.75174618 1.43586457 19 7 33684 11.78200000 3216692585 3216692585 7.00000000
-1.93153584 4.51749420 -0.60325325 2 8 33685 4.95000000 3216692587 3216692587 -7.00000000
-4.59403610 10.74976540 1.85155833 15 9 33686 11.83600000 3216692590 3216692590 9.00000000
-4.58505774 10.72875690 -1.02076805 4 10 33686 11.71200000 3216692592 3216692592 -5.00000000
-4.42670536 10.36322594 2.19048738 46 11 33687 11.48000000 3216692594 3216692594 11.00000000
-4.58153057 10.73086739 -0.61149329 8 12 33688 11.68400000 3216692597 3216692597 -3.00000000
-3.90392661 9.14820385 2.29630041 60 13 33689 10.20800000 3216692599 3216692599 13.00000000
-4.57866144 10.73452091 -0.20370449 17 14 33690 11.67200000 3216692601 3216692601 -1.00000000
-3.66841555 8.60048008 2.50536847 38 15 33690 9.68000000 3216692603 3216692603 15.00000000
