# .PCD v0.7 - Point Cloud Data file format
VERSION 0.7
FIELDS x y z intensity laser_id azimuth distance_m adjustedtime timestamp vertical_angle
SIZE 4 4 4 1 1 2 8 8 4 8
TYPE F F F U U U F U U F
COUNT 1 1 1 1 1 1 1 1 1 1
WIDTH 541
HEIGHT 1
VIEWPOINT 0 0 0 1 0 0 0
POINTS 541
DATA ascii
1.84803176 1.99639153 -0.62806332 3 2 4279 2.79200000 3217311004 3217311004 -13.00000000
2.23164153 2.40995383 -0.63844693 4 4 4280 3.34600000 3217311009 3217311009 -11.00000000
2.81823993 3.04129195 -0.65671188 6 6 4282 4.19800000 3217311014 3217311014 -9.00000000
3.80500221 4.10327864 -0.68709934 6 8 4284 5.63800000 3217311018 3217311018 -7.00000000
5.74785423 6.19626284 -0.73942930 8 10 4285 8.48400000 3217311023 3217311023 -5.00000000
6.90606689 7.43701744 2.34309030 59 13 4288 10.41600000 3217311030 3217311030 13.00000000
5.99813938 6.45702600 2.36146498 45 15 4289 9.12400000 3217311034 3217311034 15.00000000
1.55380011 1.66799664 -0.61081296 4 0 4297 2.36000000 3217311055 3217311055 -15.00000000
1.84967399 1.98422670 -0.62626374 3 2 4299 2.78400000 3217311060 3217311060 -13.00000000
2.24405718 2.40645671 -0.63959175 4 4 4300 3.35200000 3217311064 3217311064 -11.00000000
2.82210016 3.02421498 -0.65514755 6 6 4302 4.18800000 3217311069 3217311069 -9.00000000
3.81659245 4.08706999 -0.68661189 6 8 4304 5.63400000 3217311074 3217311074 -7.00000000
5.77760887 6.18489695 -0.74047518 8 10 4305 8.49600000 3217311078 3217311078 -5.00000000
6.93730879 7.41855860 2.34488988 55 13 4308 10.42400000 3217311085 3217311085 13.00000000
6.02968502 6.44346189 2.36457086 45 15 4310 9.13600000 3217311090 3217311090 15.00000000
1.56093466 1.66397166 -0.61133057 4 0 4317 2.36200000 3217311110 3217311110 -15.00000000
1.86192405 1.98344135 -0.62806332 3 2 4319 2.79200000 3217311115 3217311115 -13.00000000
2.25647545 2.40290236 -0.64073658 4 4 4320 3.35800000 3217311120 3217311120 -11.00000000
2.83805060 3.02010345 -0.65639901 6 6 4322 4.19600000 3217311124 3217311124 -9.00000000
3.82811594 4.07083035 -0.68612438 6 8 4324 5.63000000 3217311129 3217311129 -7.00000000
5.78278112 6.14727736 -0.73838347 8 10 4325 8.47200000 3217311134 3217311134 -5.00000000
6.96049023 7.39146042 2.34399009 59 13 4328 10.42000000 3217311140 3217311140 13.00000000
6.05479002 6.42518711 2.36560607 45 15 4330 9.14000000 3217311145 3217311145 15.00000000
1.57440221 1.66721368 -0.61443639 4 0 4336 2.37400000 3217311166 3217311166 -15.00000000
1.86849105 1.97725606 -0.62806332 3 2 4338 2.79200000 3217311170 3217311170 -13.00000000
2.25903654 2.38969946 -0.63921010 4 4 4339 3.35000000 3217311175 3217311175 -11.00000000
2.85347986 3.01641583 -0.65765047 6 6 4341 4.20400000 3217311180 3217311180 -9.00000000
3.83340621 4.04946423 -0.68466198 6 8 4343 5.61800000 3217311184 3217311184 -7.00000000
5.81135416 6.13674688 -0.73942930 8 10 4344 8.48400000 3217311189 3217311189 -5.00000000
6.98228168 7.36550951 2.34309030 59 13 4347 10.41600000 3217311196 3217311196 13.00000000
6.07872248 6.40787649 2.36664128 45 15 4349 9.14400000 3217311200 3217311200 15.00000000
1.57089341 1.65190840 -0.61081296 4 0 4356 2.36000000 3217311221 3217311221 -15.00000000
1.87269485 1.96789837 -0.62716353 3 2 4358 2.78800000 3217311226 3217311226 -13.00000000
2.26194978 2.37611151 -0.63768369 2 4 4359 3.34200000 3217311230 3217311230 -11.00000000
2.86671686 3.00929737 -0.65827620 6 6 4361 4.20800000 3217311235 3217311235 -9.00000000
3.83929992 4.02743721 -0.68319952 2 8 4363 5.60600000 3217311240 3217311240 -7.00000000
7.00794935 7.34109163 2.34309030 57 13 4367 10.41600000 3217311251 3217311251 13.00000000
6.09037733 6.37544346 2.36250019 45 15 4369 9.12800000 3217311256 3217311256 15.00000000
1.57130551 1.64083385 -0.60874242 4 0 4376 2.35200000 3217311276 3217311276 -15.00000000
1.88224936 1.96416342 -0.62806332 3 2 4378 2.79200000 3217311281 3217311281 -13.00000000
2.27838182 2.37670493 -0.63997334 2 4 4379 3.35400000 3217311286 3217311286 -11.00000000
2.86899877 2.99071932 -0.65639901 6 6 4381 4.19600000 3217311290 3217311290 -9.00000000
2.99826026 3.12328148 -0.53159410 2 8 4383 4.36200000 3217311295 3217311295 -7.00000000
7.03893423 7.32220411 2.34488988 59 13 4387 10.42400000 3217311306 3217311306 13.00000000
6.10880756 6.35242701 2.36146498 45 15 4388 9.12400000 3217311311 3217311311 15.00000000
1.59043360 1.64924490 -0.61391878 4 0 4396 2.37200000 3217311332 3217311332 -15.00000000
1.89180052 1.96038568 -0.62896317 3 2 4398 2.79600000 3217311336 3217311336 -13.00000000
3.06507373 3.17619467 0.23132493 1 3 4398 4.42000000 3217311339 3217311339 3.00000000
2.29484558 2.37721229 -0.64226305 4 4 4399 3.36600000 3217311341 3217311341 -11.00000000
3.05040216 3.15878391 0.38418251 1 5 4400 4.40800000 3217311343 3217311343 5.00000000
2.89314556 2.99489379 -0.65952772 9 6 4401 4.21600000 3217311345 3217311345 -9.00000000
2.99396729 3.09709716 -0.52891296 24 8 4403 4.34000000 3217311350 3217311350 -7.00000000
2.96396470 3.06499028 -0.37302658 9 10 4404 4.28000000 3217311355 3217311355 -5.00000000
8.17921734 8.45504951 2.28665495 21 11 4405 11.98400000 3217311357 3217311357 11.00000000
2.97644806 3.07574987 -0.22431190 8 12 4406 4.28600000 3217311359 3217311359 -3.00000000
7.06716108 7.30038929 2.34578967 39 13 4407 10.42800000 3217311362 3217311362 13.00000000
2.99089146 3.08851695 -0.07504535 14 14 4408 4.30000000 3217311364 3217311364 -1.00000000
6.13204956 6.32999420 2.36146498 20 15 4409 9.12400000 3217311366 3217311366 15.00000000
1.60502458 1.65394485 -0.61754227 7 0 4414 2.38600000 3217311387 3217311387 -15.00000000
2.99326968 3.08342576 0.07501044 18 1 4415 4.29800000 3217311389 3217311389 1.00000000
1.89251935 1.94884074 -0.62716353 3 2 4416 2.78800000 3217311392 3217311392 -13.00000000
3.00322270 3.09151864 0.22588199 17 3 4417 4.31600000 3217311394 3217311394 3.00000000
2.29956651 2.36717463 -0.64149982 2 4 4417 3.36200000 3217311396 3217311396 -11.00000000
3.00893521 3.09631777 0.37773299 16 5 4418 4.33400000 3217311398 3217311398 5.00000000
2.90529370 2.98862267 -0.66015345 9 6 4419 4.22000000 3217311401 3217311401 -9.00000000
3.01836681 3.10385466 0.53159410 3 7 4420 4.36200000 3217311403 3217311403 7.00000000
2.98845649 3.07202411 -0.52623183 8 8 4421 4.31800000 3217311405 3217311405 -7.00000000
2.99025321 3.07279801 -0.37511832 28 10 4422 4.30400000 3217311410 3217311410 -5.00000000
3.02785230 3.11034870 0.84375739 6 11 4423 4.42200000 3217311412 3217311412 11.00000000
2.99027634 3.07067657 -0.22462593 18 12 4424 4.29200000 3217311415 3217311415 -3.00000000
3.02966166 3.11003470 1.00238192 20 13 4425 4.45600000 3217311417 3217311417 13.00000000
2.98941445 3.06764841 -0.07476611 15 14 4426 4.28400000 3217311419 3217311419 -1.00000000
3.02551603 3.10469460 1.16157985 14 15 4426 4.48800000 3217311422 3217311422 15.00000000
1.60268700 1.64004219 -0.61443639 4 0 4434 2.37400000 3217311442 3217311442 -15.00000000
2.98584223 3.05436921 0.07455668 5 1 4435 4.27200000 3217311445 3217311445 1.00000000
1.90203559 1.94500923 -0.62806332 3 2 4436 2.79200000 3217311447 3217311447 -13.00000000
2.99583912 3.06245613 0.22452125 8 3 4437 4.29000000 3217311449 3217311449 3.00000000
2.29957819 2.35071278 -0.63921010 4 4 4437 3.35000000 3217311451 3217311451 -11.00000000
3.00718355 3.07297969 0.37616420 7 5 4438 4.31600000 3217311454 3217311454 5.00000000
2.91847205 2.98128629 -0.66077918 9 6 4439 4.22400000 3217311456 3217311456 -9.00000000
2.98249173 3.04455709 -0.52330697 6 8 4441 4.29400000 3217311461 3217311461 -7.00000000
2.99677753 3.05807233 -0.37459537 7 10 4442 4.29800000 3217311465 3217311465 -5.00000000
2.98419595 3.04310775 -0.22336987 4 12 4444 4.26800000 3217311470 3217311470 -3.00000000
3.01184106 3.07022667 0.99293393 48 13 4445 4.41400000 3217311472 3217311472 13.00000000
3.04770160 3.10461354 1.16572094 62 15 4447 4.50400000 3217311477 3217311477 15.00000000
1.60326624 1.62865019 -0.61236584 4 0 4455 2.36600000 3217311498 3217311498 -15.00000000
3.00122643 3.04767942 0.07466140 5 1 4456 4.27800000 3217311500 3217311500 1.00000000
1.91188681 1.94080138 -0.62896317 3 2 4457 2.79600000 3217311502 3217311502 -13.00000000
3.00143600 3.04576492 0.22410257 5 3 4458 4.28200000 3217311504 3217311504 3.00000000
2.30266643 2.33667517 -0.63768369 4 4 4458 3.34200000 3217311507 3217311507 -11.00000000
2.99744558 3.04065394 0.37354952 5 5 4459 4.28600000 3217311509 3217311509 5.00000000
2.93354034 2.97478914 -0.66171777 9 6 4460 4.23000000 3217311511 3217311511 -9.00000000
3.03492379 3.07652354 0.53061914 65 7 4461 4.35400000 3217311514 3217311514 7.00000000
2.99502492 3.03501821 -0.52355069 8 8 4462 4.29600000 3217311516 3217311516 -7.00000000
3.01782918 3.05812693 0.68048990 60 9 4462 4.35000000 3217311518 3217311518 9.00000000
2.99536848 3.03430700 -0.37302658 9 10 4463 4.28000000 3217311521 3217311521 -5.00000000
3.02933955 3.06764841 0.83803308 46 11 4464 4.39200000 3217311523 3217311523 11.00000000
2.99673295 3.03357053 -0.22347453 8 12 4465 4.27000000 3217311525 3217311525 -3.00000000
3.02033424 3.05639482 0.99203414 51 13 4466 4.41000000 3217311528 3217311528 13.00000000
2.99863696 3.03337932 -0.07445197 7 14 4467 4.26600000 3217311530 3217311530 -1.00000000
3.02999926 3.06510496 1.15485060 56 15 4467 4.46200000 3217311532 3217311532 15.00000000
1.60622144 1.62029982 -0.61133057 4 0 4475 2.36200000 3217311553 3217311553 -15.00000000
3.00480604 3.03008509 0.07448687 7 1 4476 4.26800000 3217311555 3217311555 1.00000000
1.91590500 1.93134892 -0.62806332 3 2 4477 2.79200000 3217311557 3217311557 -13.00000000
3.01345611 3.03668714 0.22420724 7 3 4478 4.28400000 3217311560 3217311560 3.00000000
2.31772327 2.33559084 -0.63959175 4 4 4478 3.35200000 3217311562 3217311562 -11.00000000
3.01084852 3.03300047 0.37389815 7 5 4479 4.29000000 3217311564 3217311564 5.00000000
2.93973088 2.96032596 -0.66077918 11 6 4480 4.22400000 3217311567 3217311567 -9.00000000
3.02885604 3.04901123 0.52769428 56 7 4481 4.33000000 3217311569 3217311569 7.00000000
2.98880982 3.00764823 -0.52062583 8 8 4482 4.27200000 3217311571 3217311571 -7.00000000
3.02344680 3.04144192 0.67923844 48 9 4483 4.34200000 3217311574 3217311574 9.00000000
2.99049091 3.00828958 -0.37110916 9 10 4483 4.25800000 3217311576 3217311576 -5.00000000
3.02895427 3.04591846 0.83498019 57 11 4484 4.37600000 3217311578 3217311578 11.00000000
3.00307822 3.01884365 -0.22316052 8 12 4485 4.26400000 3217311580 3217311580 -3.00000000
3.02548623 3.04030800 0.99023455 51 13 4486 4.40200000 3217311583 3217311583 13.00000000
2.99368858 3.00730443 -0.07406801 7 14 4487 4.24400000 3217311585 3217311585 -1.00000000
3.02349210 3.03618336 1.14812124 56 15 4488 4.43600000 3217311587 3217311587 15.00000000
1.61431491 1.61769950 -0.61236584 4 0 4494 2.36600000 3217311608 3217311608 -15.00000000
2.99929738 3.00453663 0.07410292 7 1 4495 4.24600000 3217311610 3217311610 1.00000000
1.91954505 1.92222703 -0.62716353 3 2 4496 2.78800000 3217311613 3217311613 -13.00000000
3.02068663 3.02385139 0.22399789 7 3 4497 4.28000000 3217311615 3217311615 3.00000000
2.32129312 2.32372522 -0.63844693 4 4 4497 3.34600000 3217311617 3217311617 -11.00000000
3.01666474 3.01877141 0.37337521 7 5 4498 4.28400000 3217311620 3217311620 5.00000000
2.94813490 2.94916415 -0.66046631 13 6 4499 4.22200000 3217311622 3217311622 -9.00000000
3.02210641 3.02210641 0.52476937 61 7 4500 4.30600000 3217311624 3217311624 7.00000000
2.99736333 2.99631715 -0.52038211 8 8 4501 4.27000000 3217311627 3217311627 -7.00000000
3.03298688 3.03192830 0.67923844 62 9 4501 4.34200000 3217311629 3217311629 9.00000000
2.99904084 2.99694800 -0.37093484 9 10 4502 4.25600000 3217311631 3217311631 -5.00000000
3.01820397 3.01504493 0.82925588 61 11 4503 4.34600000 3217311633 3217311633 11.00000000
2.99470019 2.99052167 -0.22179978 8 12 4504 4.23800000 3217311636 3217311636 -3.00000000
3.02727675 3.02199769 0.98753512 54 13 4505 4.39000000 3217311638 3217311638 13.00000000
3.00081372 2.99453521 -0.07399821 7 14 4506 4.24000000 3217311640 3217311640 -1.00000000
3.02481079 3.01848221 1.14501548 58 15 4506 4.42400000 3217311643 3217311643 15.00000000
1.62269056 1.61477995 -0.61340111 4 0 4514 2.37000000 3217311663 3217311663 -15.00000000
3.00409603 2.98840761 0.07396330 7 1 4515 4.23800000 3217311666 3217311666 1.00000000
1.92071593 1.91001844 -0.62536395 3 2 4516 2.78000000 3217311668 3217311668 -13.00000000
3.01422596 2.99639201 0.22274183 7 3 4517 4.25600000 3217311670 3217311670 3.00000000
2.32521343 2.31145597 -0.63730204 4 4 4517 3.34000000 3217311673 3217311673 -11.00000000
3.01587772 2.99698782 0.37198070 7 5 4518 4.26800000 3217311675 3217311675 5.00000000
2.95140433 2.93189454 -0.65890199 13 6 4519 4.21200000 3217311677 3217311677 -9.00000000
3.01714277 2.99615240 0.52208829 63 7 4520 4.28400000 3217311680 3217311680 7.00000000
2.99230719 2.97045231 -0.51770097 8 8 4521 4.24800000 3217311682 3217311682 -7.00000000
3.03426409 3.01105165 0.67704839 70 9 4522 4.32800000 3217311684 3217311684 9.00000000
2.99392748 2.97102356 -0.36901742 9 10 4522 4.23400000 3217311686 3217311686 -5.00000000
3.02313471 2.99896049 0.82772940 61 11 4523 4.33800000 3217311689 3217311689 11.00000000
2.99519348 2.97020555 -0.22106709 8 12 4524 4.22400000 3217311691 3217311691 -3.00000000
3.01566362 2.98946095 0.98033667 54 13 4525 4.35800000 3217311693 3217311693 13.00000000
3.00556660 2.97841191 -0.07385858 7 14 4526 4.23200000 3217311696 3217311696 -1.00000000
3.03036404 3.00193715 1.14294493 58 15 4527 4.41600000 3217311698 3217311698 15.00000000
1.62694323 1.60774791 -0.61288351 4 0 4534 2.36800000 3217311719 3217311719 -15.00000000
3.00739622 2.97087646 0.07378878 9 1 4535 4.22800000 3217311721 3217311721 1.00000000
1.92737138 1.90330219 -0.62536395 3 2 4536 2.78000000 3217311723 3217311723 -13.00000000
3.00761056 2.96901464 0.22148576 7 3 4537 4.23200000 3217311726 3217311726 3.00000000
2.34304786 2.31298018 -0.63997334 2 4 4537 3.35400000 3217311728 3217311728 -11.00000000
3.02064824 2.98084426 0.37128347 7 5 4538 4.26000000 3217311730 3217311730 5.00000000
2.96302676 2.92296147 -0.65921485 15 6 4539 4.21400000 3217311733 3217311733 -9.00000000
3.02192926 2.98002696 0.52111334 63 7 4540 4.27600000 3217311735 3217311735 7.00000000
2.97862506 2.93629813 -0.51355743 8 8 4541 4.21400000 3217311737 3217311737 -7.00000000
3.03157139 2.98849201 0.67423254 72 9 4541 4.31000000 3217311739 3217311739 9.00000000
2.99576521 2.95216393 -0.36797154 9 10 4542 4.22200000 3217311742 3217311742 -5.00000000
3.02519298 2.98012280 0.82543969 61 11 4543 4.32600000 3217311744 3217311744 11.00000000
2.99700475 2.95132399 -0.22043905 8 12 4544 4.21200000 3217311746 3217311746 -3.00000000
3.01635909 2.96934652 0.97718740 57 13 4545 4.34400000 3217311749 3217311749 13.00000000
3.00311708 2.95527911 -0.07354444 7 14 4546 4.21400000 3217311751 3217311751 -1.00000000
3.03204036 2.98374152 1.13983905 58 15 4546 4.40400000 3217311753 3217311753 15.00000000
1.62978768 1.59935296 -0.61184824 4 0 4554 2.36400000 3217311774 3217311774 -15.00000000
3.01061058 2.95335889 0.07361425 7 1 4555 4.21800000 3217311776 3217311776 1.00000000
1.93678617 1.89929175 -0.62626374 3 2 4556 2.78400000 3217311779 3217311779 -13.00000000
3.01225090 2.95290542 0.22106709 7 3 4557 4.22400000 3217311781 3217311781 3.00000000
2.34549952 2.29928994 -0.63844693 2 4 4557 3.34600000 3217311783 3217311783 -11.00000000
3.01680470 2.95633721 0.36954036 7 5 4558 4.24000000 3217311786 3217311786 5.00000000
2.97744513 2.91674781 -0.66015345 11 6 4559 4.22000000 3217311788 3217311788 -9.00000000
3.02096677 2.95834923 0.51916343 63 7 4560 4.26000000 3217311790 3217311790 7.00000000
2.98318243 2.92032838 -0.51258248 8 8 4561 4.20600000 3217311792 3217311792 -7.00000000
3.02273870 2.95801830 0.66985238 72 9 4562 4.28200000 3217311795 3217311795 9.00000000
2.99750805 2.93332767 -0.36692569 9 10 4562 4.21000000 3217311797 3217311797 -5.00000000
3.02715683 2.96130753 0.82314998 46 11 4563 4.31400000 3217311799 3217311799 11.00000000
2.99729276 2.93106961 -0.21970634 8 12 4564 4.19800000 3217311802 3217311802 -3.00000000
3.02113152 2.95335031 0.97538775 59 13 4565 4.33600000 3217311804 3217311804 13.00000000
2.99768257 2.92940450 -0.07316048 8 14 4566 4.19200000 3217311806 3217311806 -1.00000000
3.03051877 2.96045899 1.13518035 64 15 4567 4.38600000 3217311809 3217311809 15.00000000
1.63508236 1.59393954 -0.61184824 4 0 4573 2.36400000 3217311829 3217311829 -15.00000000
3.00033784 2.92382050 0.07312559 7 1 4574 4.19000000 3217311832 3217311832 1.00000000
1.95144916 1.90101755 -0.62896317 3 2 4575 2.79600000 3217311834 3217311834 -13.00000000
3.01057935 2.93175268 0.22022970 7 3 4576 4.20800000 3217311836 3217311836 3.00000000
2.35592437 2.29423857 -0.63921010 4 4 4576 3.35000000 3217311839 3217311839 -11.00000000
3.00232196 2.92269063 0.36657706 7 5 4577 4.20600000 3217311841 3217311841 5.00000000
2.97577548 2.89583707 -0.65765047 11 6 4578 4.20400000 3217311843 3217311843 -9.00000000
3.02364588 2.94139409 0.51794469 40 7 4579 4.25000000 3217311845 3217311845 7.00000000
2.98858094 2.90626788 -0.51185125 8 8 4580 4.20000000 3217311848 3217311848 -7.00000000
3.01643896 2.93335867 0.66641080 68 9 4580 4.26000000 3217311850 3217311850 9.00000000
2.99293280 2.90948367 -0.36518255 9 10 4581 4.19000000 3217311852 3217311852 -5.00000000
3.02147269 2.93620229 0.81895220 10 11 4582 4.29200000 3217311855 3217311855 11.00000000
3.00842857 2.92250586 -0.21981102 8 12 4583 4.20000000 3217311857 3217311857 -3.00000000
3.01972461 2.93245482 0.97178853 37 13 4584 4.32000000 3217311859 3217311859 13.00000000
3.00307584 2.91526914 -0.07305577 7 14 4585 4.18600000 3217311862 3217311862 -1.00000000
3.01901245 2.93073964 1.12741578 26 15 4585 4.35600000 3217311864 3217311864 15.00000000
1.64341235 1.59090972 -0.61288351 4 0 4593 2.36800000 3217311885 3217311885 -15.00000000
2.99471855 2.89803267 0.07274163 7 1 4594 4.16800000 3217311887 3217311887 1.00000000
1.95247054 1.88877439 -0.62716353 3 2 4595 2.78800000 3217311889 3217311889 -13.00000000
3.01792336 2.91844916 0.22002035 7 3 4596 4.20400000 3217311892 3217311892 3.00000000
2.36109591 2.28327131 -0.63844693 2 4 4596 3.34600000 3217311894 3217311894 -11.00000000
3.00964069 2.90942311 0.36622843 7 5 4597 4.20200000 3217311896 3217311896 5.00000000
2.97450185 2.87445021 -0.65514755 9 6 4598 4.18800000 3217311898 3217311898 -9.00000000
3.01390672 2.91151261 0.51453239 29 7 4599 4.22200000 3217311901 3217311901 7.00000000
2.99442363 2.89168119 -0.51112002 8 8 4600 4.19400000 3217311903 3217311903 -7.00000000
3.02097607 2.91732264 0.66515934 68 9 4600 4.25200000 3217311905 3217311905 9.00000000
2.99733663 2.89348364 -0.36448532 9 10 4601 4.18200000 3217311908 3217311908 -5.00000000
3.01616359 2.91064119 0.81475443 12 11 4602 4.27000000 3217311910 3217311910 11.00000000
2.99561286 2.88980007 -0.21813627 7 12 4603 4.16800000 3217311912 3217311912 -3.00000000
3.02433133 2.91648507 0.96998894 10 13 4604 4.31200000 3217311915 3217311915 13.00000000
3.00171638 2.89366579 -0.07277653 7 14 4605 4.17000000 3217311917 3217311917 -1.00000000
3.02226996 2.91347957 1.12482762 26 15 4605 4.34600000 3217311919 3217311919 15.00000000
1.64617026 1.58248580 -0.61184824 4 0 4613 2.36400000 3217311940 3217311940 -15.00000000
3.00193262 2.88479042 0.07267182 7 1 4614 4.16400000 3217311942 3217311942 1.00000000
1.95343029 1.87654734 -0.62536395 3 2 4615 2.78000000 3217311945 3217311945 -13.00000000
3.01224589 2.89267945 0.21886897 7 3 4616 4.18200000 3217311947 3217311947 3.00000000
2.38321209 2.28861403 -0.64226305 2 4 4616 3.36600000 3217311949 3217311949 -11.00000000
3.01690364 2.89614034 0.36587980 7 5 4617 4.19800000 3217311951 3217311951 5.00000000
2.98166680 2.86131430 -0.65452182 9 6 4618 4.18400000 3217311954 3217311954 -9.00000000
3.02118635 2.89822602 0.51404488 21 7 4619 4.21800000 3217311956 3217311956 7.00000000
2.99303699 2.87021923 -0.50917011 8 8 4620 4.17800000 3217311958 3217311958 -7.00000000
3.02879620 2.90349650 0.66453362 70 9 4621 4.24800000 3217311961 3217311961 9.00000000
2.99303579 2.86921573 -0.36274222 9 10 4621 4.16200000 3217311963 3217311963 -5.00000000
3.01921773 2.89330339 0.81284630 21 11 4622 4.26000000 3217311965 3217311965 11.00000000
2.99702835 2.87103605 -0.21750824 7 12 4623 4.15600000 3217311968 3217311968 -3.00000000
3.01760364 2.88973665 0.96459013 11 13 4624 4.28800000 3217311970 3217311970 13.00000000
3.00746536 2.87902188 -0.07267182 8 14 4625 4.16400000 3217311972 3217311972 -1.00000000
3.01567554 2.88688135 1.11861587 10 15 4625 4.32200000 3217311974 3217311974 15.00000000
1.66006839 1.58473361 -0.61495405 4 0 4633 2.37600000 3217311995 3217311995 -15.00000000
3.00185728 2.86463022 0.07242749 7 1 4634 4.15000000 3217311998 3217311998 1.00000000
1.95996881 1.86971724 -0.62536395 3 2 4635 2.78000000 3217312000 3217312000 -13.00000000
3.00353479 2.86422849 0.21750824 7 3 4636 4.15600000 3217312002 3217312002 3.00000000
2.37697840 2.26673222 -0.63844693 2 4 4636 3.34600000 3217312004 3217312004 -11.00000000
3.01978397 2.87871790 0.36500826 7 5 4637 4.18800000 3217312007 3217312007 5.00000000
2.98591638 2.84543800 -0.65327030 9 6 4638 4.17600000 3217312009 3217312009 -9.00000000
3.02841020 2.88492393 0.51355743 10 7 4639 4.21400000 3217312011 3217312011 7.00000000
2.98003697 2.83785081 -0.50527030 8 8 4640 4.14600000 3217312014 3217312014 -7.00000000
3.02460527 2.87928629 0.66140491 70 9 4641 4.22800000 3217312016 3217312016 9.00000000
3.00014687 2.85600305 -0.36239359 9 10 4641 4.15800000 3217312018 3217312018 -5.00000000
3.02076578 2.87462640 0.81055659 8 11 4642 4.24800000 3217312021 3217312021 11.00000000
2.99111390 2.84541440 -0.21635684 7 12 4643 4.13400000 3217312023 3217312023 -3.00000000
3.01637506 2.86844230 0.96099091 10 13 4644 4.27200000 3217312025 3217312025 13.00000000
2.99865556 2.85059524 -0.07221806 8 14 4645 4.13800000 3217312027 3217312027 -1.00000000
3.02763653 2.87713957 1.11913359 16 15 4646 4.32400000 3217312030 3217312030 15.00000000
1.65998197 1.57361293 -0.61288351 4 0 4653 2.36800000 3217312051 3217312051 -15.00000000
3.00458097 2.84725690 0.07225296 7 1 4654 4.14000000 3217312053 3217312053 1.00000000
1.97780120 1.87358582 -0.62896317 3 2 4655 2.79600000 3217312055 3217312055 -13.00000000
3.00916386 2.84960699 0.21719421 7 3 4656 4.15000000 3217312057 3217312057 3.00000000
2.38487625 2.25842142 -0.63844693 2 4 4656 3.34600000 3217312060 3217312060 -11.00000000
3.01100445 2.85035324 0.36274222 7 5 4657 4.16200000 3217312062 3217312062 5.00000000
2.99296117 2.83228230 -0.65264457 9 6 4658 4.17200000 3217312064 3217312064 -9.00000000
3.02548313 2.86205769 0.51136374 7 7 4659 4.19600000 3217312067 3217312067 7.00000000
2.98559785 2.82333946 -0.50453907 10 8 4660 4.14000000 3217312069 3217312069 -7.00000000
3.02028251 2.85514092 0.65827620 64 9 4661 4.20800000 3217312071 3217312071 9.00000000
2.99561930 2.83182621 -0.36065045 9 10 4661 4.13800000 3217312074 3217312074 -5.00000000
3.02650094 2.86001897 0.80941176 17 11 4662 4.24200000 3217312076 3217312076 11.00000000
3.00248003 2.83632755 -0.21646151 7 12 4663 4.13600000 3217312078 3217312078 -3.00000000
3.01645160 2.84853005 0.95784158 17 13 4664 4.25800000 3217312080 3217312080 13.00000000
2.98968410 2.82226562 -0.07176430 8 14 4665 4.11200000 3217312083 3217312083 -1.00000000
3.02451777 2.85514879 1.11447477 10 15 4665 4.30600000 3217312085 3217312085 15.00000000
1.65843153 1.56118810 -0.61029530 3 0 4673 2.35800000 3217312106 3217312106 -15.00000000
2.99702621 2.82030678 0.07183410 8 1 4674 4.11600000 3217312108 3217312108 1.00000000
1.98716807 1.86934102 -0.62986296 3 2 4675 2.80000000 3217312110 3217312110 -13.00000000
3.01036263 2.83087611 0.21656619 7 3 4676 4.13800000 3217312113 3217312113 3.00000000
2.40132642 2.25815248 -0.64073658 2 4 4676 3.35800000 3217312115 3217312115 -11.00000000
3.00932240 2.82890844 0.36134771 6 5 4677 4.14600000 3217312117 3217312117 5.00000000
2.98267627 2.80287933 -0.64826441 9 6 4678 4.14400000 3217312120 3217312120 -9.00000000
3.02532744 2.84196544 0.50965762 7 7 4679 4.18200000 3217312122 3217312122 7.00000000
2.99254084 2.81018281 -0.50405163 8 8 4680 4.13600000 3217312124 3217312124 -7.00000000
3.02158904 2.83646894 0.65639901 64 9 4681 4.19600000 3217312127 3217312127 9.00000000
2.98805451 2.80498862 -0.35855871 9 10 4681 4.11400000 3217312129 3217312129 -5.00000000
3.02930760 2.84272003 0.80750364 76 11 4682 4.23200000 3217312131 3217312131 11.00000000
2.99488235 2.80943227 -0.21520545 7 12 4683 4.11200000 3217312133 3217312133 -3.00000000
3.01500440 2.82731915 0.95424235 48 13 4684 4.24200000 3217312136 3217312136 13.00000000
2.99659944 2.80907726 -0.07169449 8 14 4685 4.10800000 3217312138 3217312138 -1.00000000
3.01896214 2.83004045 1.10878074 12 15 4685 4.28400000 3217312140 3217312140 15.00000000
1.66783261 1.55963850 -0.61184824 4 0 4692 2.36400000 3217312161 3217312161 -15.00000000
2.99613643 2.80079365 0.07158977 8 1 4693 4.10200000 3217312163 3217312163 1.00000000
1.99050844 1.86008000 -0.62896317 3 2 4694 2.79600000 3217312166 3217312166 -13.00000000
3.01486349 2.81731391 0.21625218 7 3 4694 4.13200000 3217312168 3217312168 3.00000000
2.40306282 2.24481606 -0.63921010 2 4 4695 3.35000000 3217312170 3217312170 -11.00000000
3.00703716 2.80803490 0.35995322 6 5 4696 4.13000000 3217312173 3217312173 5.00000000
2.97751451 2.77949333 -0.64513576 9 6 4697 4.12400000 3217312175 3217312175 -9.00000000
3.02312446 2.82108259 0.50770766 7 7 4698 4.16600000 3217312177 3217312177 7.00000000
2.99458528 2.79347324 -0.50283289 8 8 4699 4.12600000 3217312179 3217312179 -7.00000000
3.02470732 2.82157230 0.65514755 64 9 4699 4.18800000 3217312182 3217312182 9.00000000
2.99442554 2.79234695 -0.35821012 9 10 4700 4.11000000 3217312184 3217312184 -5.00000000
3.00712442 2.80320764 0.79910809 54 11 4701 4.18800000 3217312186 3217312186 11.00000000
2.99833775 2.79403901 -0.21478677 7 12 4702 4.10400000 3217312189 3217312189 -3.00000000
3.02436352 2.81730556 0.95424235 35 13 4703 4.24200000 3217312191 3217312191 13.00000000
2.99565434 2.78958535 -0.07145015 7 14 4704 4.09400000 3217312193 3217312193 -1.00000000
3.01984763 2.81211448 1.10567498 10 15 4704 4.27200000 3217312196 3217312196 15.00000000
1.67609787 1.55643630 -0.61288351 4 0 4712 2.36800000 3217312216 3217312216 -15.00000000
2.99856687 2.78351593 0.07141525 8 1 4713 4.09200000 3217312219 3217312219 1.00000000
1.98556149 1.84251606 -0.62536395 3 2 4714 2.78000000 3217312221 3217312221 -13.00000000
3.00466943 2.78722882 0.21478677 7 3 4715 4.10400000 3217312223 3217312223 3.00000000
2.41376281 2.23908448 -0.63997334 4 4 4715 3.35400000 3217312226 3217312226 -11.00000000
3.01389885 2.79481196 0.35960460 6 5 4716 4.12600000 3217312228 3217312228 5.00000000
2.97850657 2.76102543 -0.64325851 9 6 4717 4.11200000 3217312230 3217312230 -9.00000000
3.01693678 2.79567099 0.50502658 7 7 4718 4.14400000 3217312232 3217312232 7.00000000
2.99121165 2.77086210 -0.50063926 10 8 4719 4.10800000 3217312235 3217312235 -7.00000000
3.03212976 2.80778313 0.65452182 64 9 4720 4.18400000 3217312237 3217312237 9.00000000
2.99538302 2.77375507 -0.35716423 9 10 4720 4.09800000 3217312239 3217312239 -5.00000000
3.03273916 2.80736423 0.80330586 28 11 4721 4.21000000 3217312242 3217312242 11.00000000
2.98901534 2.76592112 -0.21342602 7 12 4722 4.07800000 3217312244 3217312244 -3.00000000
3.00699902 2.78158855 0.94569421 10 13 4723 4.20400000 3217312246 3217312246 13.00000000
2.99656439 2.77096558 -0.07124072 7 14 4724 4.08200000 3217312249 3217312249 -1.00000000
3.02587843 2.79709315 1.10412204 10 15 4725 4.26600000 3217312251 3217312251 15.00000000
1.68692982 1.55610895 -0.61495405 4 0 4731 2.37600000 3217312272 3217312272 -15.00000000
3.00337052 2.76949024 0.07131054 8 1 4732 4.08600000 3217312274 3217312274 1.00000000
1.98879492 1.83327997 -0.62446415 3 2 4733 2.77600000 3217312276 3217312276 -13.00000000
3.00606823 2.77100706 0.21426341 7 3 4733 4.09400000 3217312279 3217312279 3.00000000
2.41684318 2.22707677 -0.63882852 4 4 4734 3.34800000 3217312281 3217312281 -11.00000000
3.01728868 2.77940249 0.35890734 6 5 4735 4.11800000 3217312283 3217312283 5.00000000
2.97892714 2.74310470 -0.64138132 9 6 4736 4.10000000 3217312285 3217312285 -9.00000000
3.02034903 2.78027344 0.50405163 7 7 4737 4.13600000 3217312288 3217312288 7.00000000
2.98285460 2.74479771 -0.49771440 10 8 4738 4.08400000 3217312290 3217312290 -7.00000000
3.02833962 2.78567672 0.65170598 52 9 4739 4.16600000 3217312292 3217312292 9.00000000
2.99723291 2.75706267 -0.35629267 9 10 4739 4.08800000 3217312295 3217312295 -5.00000000
3.02035475 2.77735853 0.79758161 14 11 4740 4.18000000 3217312297 3217312297 11.00000000
2.98640776 2.74518085 -0.21258865 7 12 4741 4.06200000 3217312299 3217312299 -3.00000000
2.99395537 2.75019121 -0.07096148 7 14 4743 4.06600000 3217312304 3217312304 -1.00000000
3.02469182 2.77842522 1.10049856 16 15 4743 4.25200000 3217312306 3217312306 15.00000000
1.68380415 1.54238164 -0.61184824 4 0 4751 2.36400000 3217312327 3217312327 -15.00000000
3.00564551 2.75223732 0.07113601 8 1 4752 4.07600000 3217312329 3217312329 1.00000000
2.00668168 1.83685303 -0.62806332 3 2 4753 2.79200000 3217312331 3217312331 -13.00000000
3.00393677 2.74970865 0.21342602 7 3 4753 4.07800000 3217312334 3217312334 3.00000000
2.42749929 2.22127748 -0.63959175 4 4 4754 3.35200000 3217312336 3217312336 -11.00000000
3.01227093 2.75540566 0.35716423 6 5 4755 4.09800000 3217312338 3217312338 5.00000000
2.98265314 2.72735739 -0.64012980 9 6 4756 4.09200000 3217312341 3217312341 -9.00000000
3.02564001 2.76569557 0.50332040 7 7 4757 4.13000000 3217312343 3217312343 7.00000000
2.99095225 2.73302984 -0.49747065 10 8 4758 4.08200000 3217312345 3217312345 -7.00000000
3.02200150 2.76043391 0.64826441 38 9 4759 4.14400000 3217312348 3217312348 9.00000000
2.98918605 2.73045874 -0.35420093 9 10 4759 4.06400000 3217312350 3217312350 -5.00000000
3.02568173 2.76282716 0.79643673 16 11 4760 4.17400000 3217312352 3217312352 11.00000000
2.99302173 2.73204660 -0.21237931 7 12 4761 4.05800000 3217312355 3217312355 -3.00000000
3.01290727 2.74923444 0.94164509 54 13 4762 4.18600000 3217312357 3217312357 13.00000000
2.98876309 2.72624731 -0.07061244 7 14 4763 4.04600000 3217312359 3217312359 -1.00000000
3.01724458 2.75222731 1.09428692 20 15 4763 4.22800000 3217312361 3217312361 15.00000000
1.68087006 1.52840197 -0.60874242 4 0 4772 2.35200000 3217312382 3217312382 -15.00000000
3.00239515 2.72909713 0.07082187 8 1 4773 4.05800000 3217312384 3217312384 1.00000000
2.01340055 1.82948577 -0.62806332 3 2 4774 2.79200000 3217312387 3217312387 -13.00000000
3.00855899 2.73278260 0.21300735 8 3 4775 4.07000000 3217312389 3217312389 3.00000000
2.42399836 2.20180511 -0.63653880 4 4 4775 3.33600000 3217312391 3217312391 -11.00000000
3.00907445 2.73229241 0.35559544 6 5 4776 4.08000000 3217312394 3217312394 5.00000000
2.98092794 2.70578575 -0.63762689 9 6 4777 4.07600000 3217312396 3217312396 -9.00000000
3.03134608 2.75058556 0.50258917 8 7 4778 4.12400000 3217312398 3217312398 7.00000000
2.99212718 2.71404696 -0.49600822 12 8 4779 4.07000000 3217312401 3217312401 -7.00000000
3.01991367 2.73925114 0.64576149 22 9 4779 4.12800000 3217312403 3217312403 9.00000000
2.98588967 2.70743942 -0.35263214 11 10 4780 4.04600000 3217312405 3217312405 -5.00000000
3.01687765 2.73457837 0.79147571 20 11 4781 4.14800000 3217312408 3217312408 11.00000000
3.00449514 2.72239947 -0.21248399 7 12 4782 4.06000000 3217312410 3217312410 -3.00000000
3.02007484 2.73555660 0.94074529 41 13 4783 4.18200000 3217312412 3217312412 13.00000000
2.98984122 2.70722151 -0.07040301 7 14 4784 4.03400000 3217312414 3217312414 -1.00000000
3.00917077 2.72376823 1.08755767 46 15 4785 4.20200000 3217312417 3217312417 15.00000000
1.68906260 1.52511466 -0.60977769 4 0 4792 2.35600000 3217312437 3217312437 -15.00000000
2.98963690 2.69850206 0.07029829 7 1 4793 4.02800000 3217312440 3217312440 1.00000000
2.02411485 1.82636297 -0.62941307 3 2 4794 2.79800000 3217312442 3217312442 -13.00000000
3.01167321 2.71743894 0.21258865 7 3 4794 4.06200000 3217312444 3217312444 3.00000000
2.44333220 2.20385003 -0.63959175 4 4 4795 3.35200000 3217312447 3217312447 -11.00000000
3.00823569 2.71243286 0.35437524 6 5 4796 4.06600000 3217312449 3217312449 5.00000000
2.97274709 2.67949319 -0.63387245 9 6 4797 4.05200000 3217312451 3217312451 -9.00000000
3.02618146 2.72669935 0.50015181 8 7 4798 4.10400000 3217312454 3217312454 7.00000000
2.99273276 2.69561481 -0.49454579 12 8 4799 4.05800000 3217312456 3217312456 -7.00000000
3.02552938 2.72419882 0.64482284 12 9 4800 4.12200000 3217312458 3217312458 9.00000000
2.98791909 2.69033456 -0.35176057 11 10 4800 4.03600000 3217312461 3217312461 -5.00000000
3.01181269 2.71089673 0.78765953 42 11 4801 4.12800000 3217312463 3217312463 11.00000000
2.99467850 2.69452834 -0.21112324 7 12 4802 4.03400000 3217312465 3217312465 -3.00000000
3.01801443 2.71457219 0.93714607 11 13 4803 4.16600000 3217312467 3217312467 13.00000000
3.00670815 2.70345354 -0.07057753 8 14 4804 4.04400000 3217312470 3217312470 -1.00000000
3.01291323 2.70808196 1.08548713 52 15 4805 4.19400000 3217312472 3217312472 15.00000000
1.70534885 1.53012192 -0.61391878 4 0 4810 2.37200000 3217312493 3217312493 -15.00000000
2.99512243 2.68642616 0.07022848 8 1 4811 4.02400000 3217312495 3217312495 1.00000000
2.02113700 1.81218946 -0.62671363 3 2 4812 2.78600000 3217312497 3217312497 -13.00000000
3.01127315 2.69996405 0.21196063 8 3 4812 4.05000000 3217312500 3217312500 3.00000000
2.44147182 2.18830109 -0.63730204 4 4 4813 3.34000000 3217312502 3217312502 -11.00000000
3.01377439 2.70030975 0.35402662 6 5 4814 4.06200000 3217312504 3217312504 5.00000000
2.97820735 2.66750503 -0.63324672 9 6 4815 4.04800000 3217312507 3217312507 -9.00000000
3.02290154 2.70658565 0.49820188 8 7 4816 4.08800000 3217312509 3217312509 7.00000000
2.98343682 2.67031264 -0.49162093 10 8 4817 4.03400000 3217312511 3217312511 -7.00000000
3.03065515 2.71257520 0.64419711 8 9 4817 4.11800000 3217312514 3217312514 9.00000000
2.99932599 2.68359137 -0.35210919 13 10 4818 4.04000000 3217312516 3217312516 -5.00000000
3.01153445 2.69356847 0.78536981 64 11 4819 4.11600000 3217312518 3217312518 11.00000000
2.98675084 2.67046356 -0.20997186 9 12 4820 4.01200000 3217312520 3217312520 -3.00000000
3.00763893 2.68819523 0.93129736 30 13 4821 4.14000000 3217312523 3217312523 13.00000000
3.00474811 2.68466806 -0.07033320 7 14 4822 4.03000000 3217312525 3217312525 -1.00000000
3.02572846 2.70246410 1.08703995 68 15 4823 4.20000000 3217312527 3217312527 15.00000000
1.71067953 1.52415991 -0.61391878 4 0 4830 2.37200000 3217312548 3217312548 -15.00000000
2.99701524 2.66930485 0.07005396 7 1 4831 4.01400000 3217312550 3217312550 1.00000000
2.03327227 1.81030679 -0.62851322 3 2 4832 2.79400000 3217312553 3217312553 -13.00000000
3.00427079 2.67482710 0.21080923 8 3 4832 4.02800000 3217312555 3217312555 3.00000000
2.44909549 2.17976522 -0.63730204 4 4 4833 3.34000000 3217312557 3217312557 -11.00000000
3.02020502 2.68712449 0.35367802 6 5 4834 4.05800000 3217312560 3217312560 5.00000000
2.98159647 2.65184164 -0.63199526 9 6 4835 4.04000000 3217312562 3217312562 -9.00000000
3.01156139 2.67755151 0.49478954 7 7 4836 4.06000000 3217312564 3217312564 7.00000000
2.98235345 2.65065122 -0.48991477 10 8 4837 4.02000000 3217312567 3217312567 -7.00000000
3.02091074 2.68492007 0.64012980 8 9 4837 4.09200000 3217312569 3217312569 9.00000000
2.99675965 2.66251898 -0.35071471 13 10 4838 4.02400000 3217312571 3217312571 -5.00000000
3.02091837 2.68303990 0.78536981 64 11 4839 4.11600000 3217312573 3217312573 11.00000000
2.99306726 2.65736938 -0.20976251 9 12 4840 4.00800000 3217312576 3217312576 -3.00000000
3.00388670 2.66603804 0.92724824 59 13 4841 4.12200000 3217312578 3217312578 13.00000000
2.99914265 2.66089177 -0.06998415 7 14 4842 4.01000000 3217312580 3217312580 -1.00000000
3.02791691 2.68547654 1.08445179 66 15 4843 4.19000000 3217312583 3217312583 15.00000000
1.71362460 1.51502097 -0.61288351 4 0 4852 2.36800000 3217312603 3217312603 -15.00000000
3.00424576 2.65512896 0.06998415 7 1 4853 4.01000000 3217312606 3217312606 1.00000000
2.03290629 1.79603505 -0.62626374 3 2 4854 2.78400000 3217312608 3217312608 -13.00000000
3.00853205 2.65798235 0.21039054 10 3 4854 4.02000000 3217312610 3217312610 3.00000000
2.45744729 2.17034554 -0.63730204 4 4 4855 3.34000000 3217312613 3217312613 -11.00000000
3.01556444 2.66232157 0.35193488 6 5 4856 4.03800000 3217312615 3217312615 5.00000000
2.97990823 2.62991691 -0.62949228 9 6 4857 4.02400000 3217312617 3217312617 -9.00000000
3.01884294 2.66334152 0.49430206 7 7 4858 4.05600000 3217312619 3217312619 7.00000000
2.98804283 2.63524103 -0.48918355 10 8 4859 4.01400000 3217312622 3217312622 -7.00000000
3.01638269 2.66023493 0.63700116 8 9 4859 4.07200000 3217312624 3217312624 9.00000000
2.99201560 2.63781667 -0.34897161 13 10 4860 4.00400000 3217312626 3217312626 -5.00000000
3.02236080 2.66363215 0.78308010 66 11 4861 4.10400000 3217312629 3217312629 11.00000000
2.99425697 2.63793564 -0.20913447 8 12 4862 3.99600000 3217312631 3217312631 -3.00000000
3.01117659 2.65190840 0.92634845 61 13 4863 4.11800000 3217312633 3217312633 13.00000000
2.99733019 2.63878536 -0.06970491 8 14 4864 3.99400000 3217312636 3217312636 -1.00000000
3.02178931 2.66031861 1.07875776 72 15 4864 4.16800000 3217312638 3217312638 15.00000000
1.71019197 1.50138295 -0.60977769 4 0 4872 2.35600000 3217312659 3217312659 -15.00000000
2.99696255 2.63011694 0.06960019 8 1 4873 3.98800000 3217312661 3217312661 1.00000000
2.05381250 1.80177939 -0.63076276 3 2 4874 2.80400000 3217312663 3217312663 -13.00000000
3.01629043 2.64614725 0.21028587 7 3 4874 4.01800000 3217312666 3217312666 3.00000000
2.45910382 2.15657616 -0.63577557 4 4 4875 3.33200000 3217312668 3217312668 -11.00000000
3.01135564 2.63995838 0.35036609 8 5 4876 4.02000000 3217312670 3217312670 5.00000000
2.98015642 2.61168742 -0.62761509 9 6 4877 4.01200000 3217312672 3217312672 -9.00000000
3.02812147 2.65278769 0.49430206 7 7 4878 4.05600000 3217312675 3217312675 7.00000000
2.98378277 2.61302447 -0.48698989 9 8 4879 3.99600000 3217312677 3217312677 -7.00000000
3.01673388 2.64188099 0.63512391 8 9 4879 4.06000000 3217312679 3217312679 9.00000000
2.98921227 2.61685753 -0.34757710 10 10 4880 3.98800000 3217312682 3217312682 -5.00000000
3.02277589 2.64530849 0.78079039 68 11 4881 4.09200000 3217312684 3217312684 11.00000000
3.00044036 2.62483740 -0.20892514 8 12 4882 3.99200000 3217312686 3217312686 -3.00000000
3.00867963 2.63111854 0.92274922 57 13 4883 4.10200000 3217312689 3217312689 13.00000000
2.99297333 2.61646152 -0.06939077 9 14 4884 3.97600000 3217312691 3217312691 -1.00000000
3.01406360 2.63397074 1.07254612 76 15 4885 4.14400000 3217312693 3217312693 15.00000000
1.72072327 1.50108266 -0.61184824 4 0 4890 2.36400000 3217312714 3217312714 -15.00000000
2.99616790 2.61280298 0.06939077 8 1 4891 3.97600000 3217312716 3217312716 1.00000000
2.04771113 1.78507388 -0.62716353 3 2 4892 2.78800000 3217312719 3217312719 -13.00000000
3.00999141 2.62300873 0.20923916 8 3 4893 3.99800000 3217312721 3217312721 3.00000000
2.46290660 2.14626050 -0.63501233 4 4 4893 3.32800000 3217312723 3217312723 -11.00000000
3.01062059 2.62263274 0.34932020 8 5 4894 4.00800000 3217312725 3217312725 5.00000000
2.97344947 2.58933926 -0.62448639 8 6 4895 3.99200000 3217312728 3217312728 -9.00000000
3.01847339 2.62762070 0.49137720 8 7 4896 4.03200000 3217312730 3217312730 7.00000000
2.98598719 2.59842515 -0.48601493 7 8 4897 3.98800000 3217312732 3217312732 -7.00000000
3.02203822 2.62979698 0.63449818 8 9 4897 4.05600000 3217312735 3217312735 9.00000000
2.99441218 2.60483861 -0.34722847 10 10 4898 3.98400000 3217312737 3217312737 -5.00000000
3.01329374 2.62033987 0.77621096 66 11 4899 4.06800000 3217312739 3217312739 11.00000000
3.00113487 2.60884690 -0.20840178 7 12 4900 3.98200000 3217312742 3217312742 -3.00000000
3.01104689 2.61654067 0.92094964 57 13 4901 4.09400000 3217312744 3217312744 13.00000000
2.99664950 2.60311174 -0.06928606 9 14 4902 3.97000000 3217312746 3217312746 -1.00000000
3.01019812 2.61488104 1.06840503 76 15 4902 4.12800000 3217312749 3217312749 15.00000000
1.72449243 1.49380219 -0.61133057 4 0 4910 2.36200000 3217312769 3217312769 -15.00000000
2.99015284 2.58923841 0.06904172 8 1 4911 3.95600000 3217312772 3217312772 1.00000000
2.04803610 1.77281356 -0.62536395 3 2 4912 2.78000000 3217312774 3217312774 -13.00000000
3.01157737 2.60595155 0.20871580 8 3 4913 3.98800000 3217312776 3217312776 3.00000000
2.47929120 2.14535809 -0.63730204 4 4 4913 3.34000000 3217312778 3217312778 -11.00000000
3.02126384 2.61341119 0.34949452 8 5 4914 4.01000000 3217312781 3217312781 5.00000000
2.97649312 2.57377601 -0.62323493 8 6 4915 3.98400000 3217312783 3217312783 -9.00000000
3.01861620 2.60927939 0.48991477 7 7 4916 4.02000000 3217312785 3217312785 7.00000000
2.97250891 2.56851816 -0.48235887 7 8 4917 3.95800000 3217312788 3217312788 -7.00000000
3.02418208 2.61224675 0.63293386 8 9 4918 4.04600000 3217312790 3217312790 9.00000000
3.00197887 2.59306788 -0.34705415 6 10 4918 3.98200000 3217312792 3217312792 -5.00000000
3.01350641 2.60210705 0.77392131 64 11 4919 4.05600000 3217312795 3217312795 11.00000000
2.97696114 2.56964397 -0.20609899 5 12 4920 3.93800000 3217312797 3217312797 -3.00000000
3.01130939 2.59837556 0.91825020 57 13 4921 4.08200000 3217312799 3217312799 13.00000000
2.99360418 2.58218670 -0.06900682 4 14 4922 3.95400000 3217312802 3217312802 -1.00000000
3.01537251 2.60004592 1.06685209 66 15 4923 4.12200000 3217312804 3217312804 15.00000000
1.73994839 1.49659181 -0.61495405 4 0 4930 2.37600000 3217312825 3217312825 -15.00000000
2.99310780 2.57357001 0.06890210 3 1 4931 3.94800000 3217312827 3217312827 1.00000000
2.06012321 1.77073479 -0.62716353 3 2 4932 2.78800000 3217312829 3217312829 -13.00000000
2.98884320 2.56808925 0.20651768 4 3 4933 3.94600000 3217312831 3217312831 3.00000000
2.48676467 2.13669086 -0.63730204 4 4 4933 3.34000000 3217312834 3217312834 -11.00000000
2.99862838 2.57558727 0.34583399 4 5 4934 3.96800000 3217312836 3217312836 5.00000000
2.98246169 2.56079674 -0.62260920 8 6 4935 3.98000000 3217312838 3217312838 -9.00000000
3.02168059 2.59355497 0.48893979 7 7 4936 4.01200000 3217312841 3217312841 7.00000000
2.97241735 2.55037069 -0.48089644 37 8 4937 3.94600000 3217312843 3217312843 -7.00000000
3.02383304 2.59448600 0.63105661 8 9 4937 4.03400000 3217312845 3217312845 9.00000000
2.98983955 2.56441331 -0.34461382 36 10 4938 3.95400000 3217312848 3217312848 -5.00000000
3.01660943 2.58646035 0.77239484 66 11 4939 4.04800000 3217312850 3217312850 11.00000000
2.97074819 2.54623914 -0.20505227 21 12 4940 3.91800000 3217312852 3217312852 -3.00000000
3.00260305 2.57263327 0.91285139 56 13 4941 4.05800000 3217312855 3217312855 13.00000000
2.97222400 2.54570508 -0.06830872 19 14 4942 3.91400000 3217312857 3217312857 -1.00000000
3.01957631 2.58626223 1.06529915 72 15 4942 4.11600000 3217312859 3217312859 15.00000000
1.73047197 1.47796273 -0.60977769 4 0 4950 2.35600000 3217312880 3217312880 -15.00000000
3.00055218 2.56180811 0.06886720 39 1 4951 3.94600000 3217312882 3217312882 1.00000000
2.06925631 1.76606309 -0.62806332 3 2 4952 2.79200000 3217312884 3217312884 -13.00000000
2.99626994 2.55634427 0.20641302 29 3 4953 3.94400000 3217312887 3217312887 3.00000000
2.48972750 2.12417459 -0.63615721 5 4 4953 3.33400000 3217312889 3217312889 -11.00000000
2.99547315 2.55476141 0.34443951 22 5 4954 3.95200000 3217312891 3217312891 5.00000000
2.98536944 2.54524422 -0.62135768 8 6 4955 3.97200000 3217312894 3217312894 -9.00000000
3.00956392 2.56496477 0.48552746 19 7 4956 3.98400000 3217312896 3217312896 7.00000000
3.01226759 2.56545424 0.62667644 8 9 4958 4.00600000 3217312901 3217312901 9.00000000
2.98360467 2.54104304 -0.34287068 6 10 4958 3.93400000 3217312903 3217312903 -5.00000000
3.02262974 2.57336926 0.77163160 64 11 4959 4.04400000 3217312905 3217312905 11.00000000
2.98570204 2.54103160 -0.20547096 7 12 4960 3.92600000 3217312907 3217312907 -3.00000000
3.01156497 2.56213641 0.91285139 55 13 4961 4.05800000 3217312910 3217312910 13.00000000
2.97195244 2.52754140 -0.06809929 4 14 4962 3.90200000 3217312912 3217312912 -1.00000000
3.01431680 2.56266451 1.06012285 72 15 4963 4.09600000 3217312914 3217312914 15.00000000
1.74151397 1.47691131 -0.61184824 4 0 4970 2.36400000 3217312935 3217312935 -15.00000000
2.07689524 1.76008916 -0.62851322 3 2 4972 2.79400000 3217312940 3217312940 -13.00000000
2.50311899 2.12054706 -0.63768369 5 4 4973 3.34200000 3217312944 3217312944 -11.00000000
2.97915912 2.52204442 -0.61822903 8 6 4975 3.95200000 3217312949 3217312949 -9.00000000
3.02607560 2.56085563 0.48674616 3 7 4976 3.99400000 3217312951 3217312951 7.00000000
2.98863411 2.52827525 -0.48065269 3 8 4977 3.94400000 3217312954 3217312954 -7.00000000
3.01774216 2.55289960 0.62605071 8 9 4977 4.00200000 3217312956 3217312956 9.00000000
2.96355104 2.50616860 -0.33955878 2 10 4978 3.89600000 3217312958 3217312958 -5.00000000
3.02709627 2.55900025 0.77048671 56 11 4979 4.03800000 3217312960 3217312960 11.00000000
3.00980854 2.54348540 -0.20651768 1 12 4980 3.94600000 3217312963 3217312963 -3.00000000
3.01602411 2.54783583 0.91150165 35 13 4981 4.05200000 3217312965 3217312965 13.00000000
2.98992395 2.52489305 -0.06830872 1 14 4982 3.91400000 3217312967 3217312967 -1.00000000
3.00803876 2.54019046 1.05494642 52 15 4982 4.07600000 3217312970 3217312970 15.00000000
1.74370337 1.46833456 -0.61081296 4 0 4990 2.36000000 3217312990 3217312990 -15.00000000
2.97858787 2.50731564 0.06795967 1 1 4991 3.89400000 3217312993 3217312993 1.00000000
2.07855320 1.74906456 -0.62716353 3 2 4992 2.78800000 3217312995 3217312995 -13.00000000
2.98958874 2.51479340 0.20473826 1 3 4993 3.91200000 3217312997 3217312997 3.00000000
2.50299382 2.10547757 -0.63577557 5 4 4993 3.33200000 3217313000 3217313000 -11.00000000
2.97968745 2.50557661 0.34060463 4 5 4994 3.90800000 3217313002 3217313002 5.00000000
2.97584772 2.50146127 -0.61572605 8 6 4995 3.93600000 3217313004 3217313004 -9.00000000
3.01979828 2.53750634 0.48430878 3 7 4996 3.97400000 3217313007 3217313007 7.00000000
2.97920132 2.50250602 -0.47772783 7 8 4997 3.92000000 3217313009 3217313009 -7.00000000
3.01951480 2.53547049 0.62448639 13 9 4998 3.99200000 3217313011 3217313011 9.00000000
2.97838449 2.50093341 -0.34025601 10 10 4998 3.90400000 3217313013 3217313013 -5.00000000
3.02247691 2.53705835 0.76705217 12 11 4999 4.02000000 3217313016 3217313016 11.00000000
2.98041892 2.50086856 -0.20390089 14 12 5000 3.89600000 3217313018 3217313018 -3.00000000
3.03385758 2.54480648 0.91420108 10 13 5001 4.06400000 3217313020 3217313020 13.00000000
2.98339605 2.50159240 -0.06795967 13 14 5002 3.89400000 3217313023 3217313023 -1.00000000
1.75449026 1.46750188 -0.61288351 4 0 5009 2.36800000 3217313046 3217313046 -15.00000000
2.98535204 2.49614167 0.06792477 6 1 5010 3.89200000 3217313048 3217313048 1.00000000
2.07537055 1.73466372 -0.62446415 3 2 5011 2.77600000 3217313050 3217313050 -13.00000000
2.99944425 2.50614619 0.20484294 6 3 5012 3.91400000 3217313053 3217313053 3.00000000
2.51900148 2.10471869 -0.63806528 5 4 5012 3.34400000 3217313055 3217313055 -11.00000000
2.98950911 2.49695921 0.34077895 4 5 5013 3.91000000 3217313057 3217313057 5.00000000
2.99625707 2.50170755 -0.61822903 8 6 5014 3.95200000 3217313060 3217313060 -9.00000000
3.01295638 2.51475835 0.48187140 6 7 5015 3.95400000 3217313062 3217313062 7.00000000
3.01949215 2.51931953 -0.48284635 1 8 5016 3.96200000 3217313064 3217313064 -7.00000000
3.03504920 2.53229952 0.62605071 12 9 5016 4.00200000 3217313066 3217313066 9.00000000
2.99890184 2.50125217 -0.34165052 2 10 5017 3.92000000 3217313069 3217313069 -5.00000000
3.03539705 2.53079319 0.76819700 12 11 5018 4.02600000 3217313071 3217313071 11.00000000
3.03030229 2.52475262 0.91060185 9 13 5020 4.04800000 3217313076 3217313076 13.00000000
3.03565025 2.52831101 1.05856991 10 15 5021 4.09000000 3217313080 3217313080 15.00000000
