# .PCD v0.7 - Point Cloud Data file format
VERSION 0.7
FIELDS x y z intensity laser_id azimuth distance_m adjustedtime timestamp vertical_angle
SIZE 4 4 4 1 1 2 8 8 4 8
TYPE F F F U U U F U U F
COUNT 1 1 1 1 1 1 1 1 1 1
WIDTH 527
HEIGHT 1
VIEWPOINT 0 0 0 1 0 0 0
POINTS 527
DATA ascii
-2.58981037 0.64955443 -0.51900047 3 4 28408 2.72000000 3216178159 3216178159 -11.00000000
-4.84078074 1.21502197 0.43665028 9 5 28409 5.01000000 3216178161 3216178161 5.00000000
-3.11710835 0.78296351 -0.50903773 4 6 28410 3.25400000 3216178163 3216178163 -9.00000000
-3.90991163 0.98355299 -0.49503326 4 8 28412 4.06200000 3216178168 3216178168 -7.00000000
-5.21282816 1.31227398 -0.47029239 10 10 28413 5.39600000 3216178173 3216178173 -5.00000000
-4.09216309 1.03167760 -0.22117175 6 12 28415 4.22600000 3216178177 3216178177 -3.00000000
-10.89881134 2.74972868 2.59503531 59 13 28416 11.53600000 3216178180 3216178180 13.00000000
-4.02699566 1.01674330 -0.07249729 100 14 28417 4.15400000 3216178182 3216178182 -1.00000000
-9.81864548 2.47902989 2.71345878 47 15 28417 10.48400000 3216178184 3216178184 15.00000000
-1.91173100 0.48551780 -0.52850848 4 0 28425 2.04200000 3216178205 3216178205 -15.00000000
-4.07578373 1.03587449 0.07340482 21 1 28426 4.20600000 3216178207 3216178207 1.00000000
-4.03407431 1.02602351 -0.96099091 13 2 28427 4.27200000 3216178209 3216178209 -13.00000000
-4.13820076 1.05327594 0.22378854 8 3 28428 4.27600000 3216178212 3216178212 3.00000000
-2.58752728 0.65859061 -0.51900047 3 4 28428 2.72000000 3216178214 3216178214 -11.00000000
-4.83071804 1.23043668 0.43612733 9 5 28429 5.00400000 3216178216 3216178216 5.00000000
-3.12201309 0.79579115 -0.51028925 3 6 28430 3.26200000 3216178219 3216178219 -9.00000000
-3.91607165 0.99965006 -0.49625197 4 8 28432 4.07200000 3216178223 3216178223 -7.00000000
-5.21207666 1.33144844 -0.47064102 10 10 28433 5.40000000 3216178228 3216178228 -5.00000000
-4.10595179 1.05041075 -0.22211380 6 12 28435 4.24400000 3216178232 3216178232 -3.00000000
-10.71923923 2.74425745 2.55454421 59 13 28436 11.35600000 3216178235 3216178235 13.00000000
-4.01954746 1.02980137 -0.07242749 100 14 28437 4.15000000 3216178237 3216178237 -1.00000000
-9.80949402 2.51500034 2.71345878 47 15 28438 10.48400000 3216178239 3216178239 15.00000000
-1.91376603 0.49315217 -0.52954376 4 0 28445 2.04600000 3216178260 3216178260 -15.00000000
-4.06439734 1.04809797 0.07326520 22 1 28446 4.19800000 3216178262 3216178262 1.00000000
-4.04933739 1.04496813 -0.96548992 5 2 28447 4.29200000 3216178265 3216178265 -13.00000000
-4.13643265 1.06821394 0.22389323 8 3 28448 4.27800000 3216178267 3216178267 3.00000000
-2.58901429 0.66860050 -0.51976371 3 4 28448 2.72400000 3216178269 3216178269 -11.00000000
-4.83218050 1.24878705 0.43665028 9 5 28449 5.01000000 3216178272 3216178272 5.00000000
-3.11539125 0.80569494 -0.50966346 3 6 28450 3.25800000 3216178274 3216178274 -9.00000000
-3.91255832 1.01331365 -0.49625197 4 8 28452 4.07200000 3216178279 3216178279 -7.00000000
-5.21896935 1.35263300 -0.47168687 10 10 28453 5.41200000 3216178283 3216178283 -5.00000000
-4.10419321 1.06523848 -0.22221847 6 12 28455 4.24600000 3216178288 3216178288 -3.00000000
-10.55870247 2.74246573 2.51855206 60 13 28456 11.19600000 3216178290 3216178290 13.00000000
-4.01979923 1.04483199 -0.07249729 100 14 28457 4.15400000 3216178292 3216178292 -1.00000000
-9.79736042 2.54654408 2.71242356 47 15 28457 10.48000000 3216178295 3216178295 15.00000000
-1.91203296 0.49982944 -0.52954376 4 0 28465 2.04600000 3216178315 3216178315 -15.00000000
-4.06458330 1.06329107 0.07333501 22 1 28466 4.20200000 3216178318 3216178318 1.00000000
-4.02681303 1.05416143 -0.96099091 5 2 28467 4.27200000 3216178320 3216178320 -13.00000000
-4.14813519 1.08669543 0.22473060 10 3 28468 4.29400000 3216178322 3216178322 3.00000000
-2.59046292 0.67862886 -0.52052695 3 4 28468 2.72800000 3216178325 3216178325 -11.00000000
-4.83164644 1.26665747 0.43699890 9 5 28469 5.01400000 3216178327 3216178327 5.00000000
-3.10491705 0.81455976 -0.50841200 3 6 28470 3.25000000 3216178329 3216178329 -9.00000000
-3.92435694 1.03100002 -0.49820188 4 8 28472 4.08800000 3216178334 3216178334 -7.00000000
-5.19880056 1.36678958 -0.47029239 10 10 28473 5.39600000 3216178338 3216178338 -5.00000000
-4.09658670 1.07854128 -0.22200912 6 12 28475 4.24200000 3216178343 3216178343 -3.00000000
-10.39642525 2.73909092 2.48211002 53 13 28476 11.03400000 3216178345 3216178345 13.00000000
-4.01612759 1.05885732 -0.07249729 100 14 28477 4.15400000 3216178348 3216178348 -1.00000000
-9.80664062 2.58736444 2.71759987 47 15 28478 10.50000000 3216178350 3216178350 15.00000000
-1.92139161 0.50980669 -0.53264958 4 0 28486 2.05800000 3216178371 3216178371 -15.00000000
-4.05872631 1.07766831 0.07330011 21 1 28487 4.20000000 3216178373 3216178373 1.00000000
-4.03610611 1.07241631 -0.96414024 5 2 28488 4.28600000 3216178375 3216178375 -13.00000000
-4.14219427 1.10137856 0.22462593 7 3 28489 4.29200000 3216178378 3216178378 3.00000000
-2.60693169 0.69316369 -0.52434313 3 4 28489 2.74800000 3216178380 3216178380 -11.00000000
-4.84429979 1.28896856 0.43856770 9 5 28490 5.03200000 3216178382 3216178382 5.00000000
-3.11718154 0.83000046 -0.51091498 3 6 28491 3.26600000 3216178385 3216178385 -9.00000000
-3.90328908 1.04077363 -0.49600822 8 8 28493 4.07000000 3216178389 3216178389 -7.00000000
-5.20915651 1.38994420 -0.47168687 10 10 28494 5.41200000 3216178394 3216178394 -5.00000000
-4.08681774 1.09200203 -0.22169511 6 12 28496 4.23600000 3216178398 3216178398 -3.00000000
-10.26018238 2.74345040 2.45196652 64 13 28497 10.90000000 3216178401 3216178401 13.00000000
-4.01994658 1.07563770 -0.07263692 100 14 28498 4.16200000 3216178403 3216178403 -1.00000000
-9.80874634 2.62457633 2.72070575 47 15 28498 10.51200000 3216178405 3216178405 15.00000000
-1.92146575 0.51701242 -0.53316724 4 0 28506 2.06000000 3216178426 3216178426 -15.00000000
-4.06652546 1.09494877 0.07350954 21 1 28507 4.21200000 3216178428 3216178428 1.00000000
-4.03045654 1.08599150 -0.96369034 5 2 28508 4.28400000 3216178431 3216178431 -13.00000000
-4.13061094 1.11375093 0.22420724 8 3 28509 4.28400000 3216178433 3216178433 3.00000000
-2.59312272 0.69919270 -0.52205342 3 4 28509 2.73600000 3216178435 3216178435 -11.00000000
-4.84169483 1.30638945 0.43874201 9 5 28510 5.03400000 3216178438 3216178438 5.00000000
-3.11426544 0.84087640 -0.51091498 3 6 28511 3.26600000 3216178440 3216178440 -9.00000000
-3.89388347 1.05283797 -0.49527702 4 8 28513 4.06400000 3216178444 3216178444 -7.00000000
-5.20042658 1.40707839 -0.47133824 10 10 28514 5.40800000 3216178449 3216178449 -5.00000000
-4.09261990 1.10887265 -0.22221847 6 12 28516 4.24600000 3216178454 3216178454 -3.00000000
-10.18659496 2.76190996 2.43666983 56 13 28517 10.83200000 3216178456 3216178456 13.00000000
-4.01616764 1.08966327 -0.07263692 100 14 28518 4.16200000 3216178458 3216178458 -1.00000000
-9.80278969 2.66152191 2.72174096 47 15 28519 10.51600000 3216178461 3216178461 15.00000000
-1.91787696 0.52287328 -0.53264958 4 0 28525 2.05800000 3216178481 3216178481 -15.00000000
-4.07058859 1.11053312 0.07364915 21 1 28526 4.22000000 3216178484 3216178484 1.00000000
-4.03811264 1.10243034 -0.96638972 5 2 28527 4.29600000 3216178486 3216178486 -13.00000000
-4.12496805 1.12691605 0.22410257 7 3 28528 4.28200000 3216178488 3216178488 3.00000000
-2.58321452 0.70571840 -0.52052695 3 4 28528 2.72800000 3216178491 3216178491 -11.00000000
-4.84694529 1.32506502 0.43961358 9 5 28529 5.04400000 3216178493 3216178493 5.00000000
-3.11145973 0.85119909 -0.51091498 3 6 28530 3.26600000 3216178495 3216178495 -9.00000000
-3.91717458 1.07308745 -0.49868935 4 8 28532 4.09200000 3216178500 3216178500 -7.00000000
-5.18804598 1.42220891 -0.47064102 10 10 28533 5.40000000 3216178504 3216178504 -5.00000000
-4.09277201 1.12349558 -0.22242782 6 12 28535 4.25000000 3216178509 3216178509 -3.00000000
-10.17362213 2.79464245 2.43577003 56 13 28536 10.82800000 3216178511 3216178511 13.00000000
-4.00867558 1.10191536 -0.07256711 100 14 28537 4.15800000 3216178514 3216178514 -1.00000000
-9.79065418 2.69128108 2.72070575 47 15 28537 10.51200000 3216178516 3216178516 15.00000000
-1.90859187 0.52750617 -0.53057903 4 0 28545 2.05000000 3216178537 3216178537 -15.00000000
-4.05319595 1.12100399 0.07340482 17 1 28546 4.20600000 3216178539 3216178539 1.00000000
-4.04550886 1.11963809 -0.96908915 5 2 28547 4.30800000 3216178541 3216178541 -13.00000000
-4.13255835 1.14450645 0.22473060 8 3 28548 4.29400000 3216178544 3216178544 3.00000000
-2.57695127 0.71368325 -0.51976371 3 4 28548 2.72400000 3216178546 3216178546 -11.00000000
-4.84805059 1.34357226 0.44013649 9 5 28549 5.05000000 3216178548 3216178548 5.00000000
-3.11608362 0.86416650 -0.51216644 3 6 28550 3.27400000 3216178550 3216178550 -9.00000000
-3.90575409 1.08462977 -0.49771440 6 8 28552 4.08400000 3216178555 3216178555 -7.00000000
-5.20224619 1.44564438 -0.47238412 10 10 28553 5.42000000 3216178560 3216178560 -5.00000000
-4.08882523 1.13777518 -0.22242782 6 12 28555 4.25000000 3216178564 3216178564 -3.00000000
-10.15629578 2.82804704 2.43397045 59 13 28556 10.82000000 3216178567 3216178567 13.00000000
-4.01251030 1.11804855 -0.07270672 100 14 28557 4.16600000 3216178569 3216178569 -1.00000000
-9.75514698 2.71818089 2.71345878 49 15 28557 10.48400000 3216178571 3216178571 15.00000000
-1.91027248 0.53587431 -0.53161430 4 0 28567 2.05400000 3216178592 3216178592 -15.00000000
-4.05271244 1.13763976 0.07347463 19 1 28568 4.21000000 3216178594 3216178594 1.00000000
-4.03179932 1.13252842 -0.96683961 5 2 28569 4.29800000 3216178597 3216178597 -13.00000000
-4.13582420 1.16252768 0.22514929 7 3 28570 4.30200000 3216178599 3216178599 3.00000000
-2.58553195 0.72676027 -0.52205342 3 4 28570 2.73600000 3216178601 3216178601 -11.00000000
-4.85244560 1.36487484 0.44100806 9 5 28571 5.06000000 3216178603 3216178603 5.00000000
-3.11274266 0.87612498 -0.51216644 3 6 28572 3.27400000 3216178606 3216178606 -9.00000000
-3.91111374 1.10231125 -0.49893311 6 8 28574 4.09400000 3216178610 3216178610 -7.00000000
-5.18898678 1.46344554 -0.47168687 10 10 28575 5.41200000 3216178615 3216178615 -5.00000000
-4.08058262 1.15238106 -0.22221847 6 12 28577 4.24600000 3216178620 3216178620 -3.00000000
-10.14161110 2.86596346 2.43307066 59 13 28578 10.81600000 3216178622 3216178622 13.00000000
-4.01203585 1.13453543 -0.07277653 100 14 28579 4.17000000 3216178624 3216178624 -1.00000000
-9.64611340 2.72775674 2.68602395 49 15 28579 10.37800000 3216178626 3216178626 15.00000000
-1.90653205 0.54201084 -0.53109670 4 0 28587 2.05200000 3216178647 3216178647 -15.00000000
-4.04871655 1.15177941 0.07347463 17 1 28588 4.21000000 3216178650 3216178650 1.00000000
-2.20789838 0.62851977 -0.52998471 3 2 28589 2.35600000 3216178652 3216178652 -13.00000000
-4.13174105 1.17695737 0.22514929 7 3 28590 4.30200000 3216178654 3216178654 3.00000000
-2.59430814 0.73900813 -0.52434313 3 4 28590 2.74800000 3216178656 3216178656 -11.00000000
-4.85914803 1.38508177 0.44205391 9 5 28591 5.07200000 3216178659 3216178659 5.00000000
-3.10966539 0.88698518 -0.51216644 3 6 28592 3.27400000 3216178661 3216178661 -9.00000000
-3.89960718 1.11377621 -0.49795812 6 8 28594 4.08600000 3216178666 3216178666 -7.00000000
-5.19150925 1.48373961 -0.47238412 10 10 28595 5.42000000 3216178670 3216178670 -5.00000000
-4.08805609 1.16991508 -0.22284651 6 12 28597 4.25800000 3216178675 3216178675 -3.00000000
-10.12030506 2.89812803 2.43037128 62 13 28598 10.80400000 3216178677 3216178677 13.00000000
-4.01189613 1.14963496 -0.07284635 100 14 28599 4.17400000 3216178679 3216178679 -1.00000000
-9.50977421 2.72688365 2.65082455 45 15 28600 10.24200000 3216178682 3216178682 15.00000000
-1.91967225 0.55227059 -0.53523779 4 0 28605 2.06800000 3216178703 3216178703 -15.00000000
-4.04892159 1.16559958 0.07354444 17 1 28606 4.21400000 3216178705 3216178705 1.00000000
-2.20029521 0.63383472 -0.52863497 4 2 28607 2.35000000 3216178707 3216178707 -13.00000000
-4.11266994 1.18550622 0.22431190 7 3 28608 4.28600000 3216178709 3216178709 3.00000000
-2.58820081 0.74606717 -0.52357990 3 4 28608 2.74400000 3216178712 3216178712 -11.00000000
-4.87774515 1.40696657 0.44414568 10 5 28609 5.09600000 3216178714 3216178714 5.00000000
-3.10686350 0.89675009 -0.51216644 3 6 28610 3.27400000 3216178716 3216178716 -9.00000000
-3.89608884 1.12602174 -0.49795812 6 8 28612 4.08600000 3216178721 3216178721 -7.00000000
-5.19065046 1.50114894 -0.47273275 10 10 28613 5.42400000 3216178726 3216178726 -5.00000000
-4.09203434 1.18497443 -0.22326519 6 12 28615 4.26600000 3216178730 3216178730 -3.00000000
-10.09617615 2.92556834 2.42677188 64 13 28616 10.78800000 3216178732 3216178732 13.00000000
-4.00442314 1.16111922 -0.07277653 100 14 28617 4.17000000 3216178735 3216178735 -1.00000000
-9.35877323 2.71366191 2.61096644 47 15 28617 10.08800000 3216178737 3216178737 15.00000000
-1.90475011 0.55518401 -0.53161430 4 0 28625 2.05400000 3216178758 3216178758 -15.00000000
-4.05826616 1.18364525 0.07378878 18 1 28626 4.22800000 3216178760 3216178760 1.00000000
-2.20929337 0.64478707 -0.53133440 4 2 28627 2.36200000 3216178762 3216178762 -13.00000000
-4.11809254 1.20265436 0.22483526 7 3 28628 4.29600000 3216178765 3216178765 3.00000000
-2.57427359 0.75179499 -0.52129018 3 4 28628 2.73200000 3216178767 3216178767 -11.00000000
-4.87089157 1.42342556 0.44397137 10 5 28629 5.09400000 3216178769 3216178769 5.00000000
-3.11888218 0.91202497 -0.51466942 3 6 28630 3.29000000 3216178772 3216178772 -9.00000000
-3.89975500 1.14184606 -0.49893311 6 8 28632 4.09400000 3216178776 3216178776 -7.00000000
-5.18537903 1.51925850 -0.47273275 10 10 28633 5.42400000 3216178781 3216178781 -5.00000000
-4.10512161 1.20431125 -0.22420724 6 12 28635 4.28400000 3216178785 3216178785 -3.00000000
-10.08590221 2.96079278 2.42677188 64 13 28636 10.78800000 3216178788 3216178788 13.00000000
-3.99459004 1.17339933 -0.07267182 70 14 28637 4.16400000 3216178790 3216178790 -1.00000000
-9.21393585 2.70656729 2.57317901 45 15 28637 9.94200000 3216178792 3216178792 15.00000000
-1.89529169 0.55997205 -0.52954376 4 0 28646 2.04600000 3216178813 3216178813 -15.00000000
-4.05006504 1.19737768 0.07371897 16 1 28647 4.22400000 3216178815 3216178815 1.00000000
-2.20317793 0.65177459 -0.53043461 4 2 28648 2.35800000 3216178818 3216178818 -13.00000000
-4.12153053 1.21928823 0.22525395 7 3 28648 4.30400000 3216178820 3216178820 3.00000000
-2.57526588 0.76233965 -0.52205342 3 4 28649 2.73600000 3216178822 3216178822 -11.00000000
-4.86564159 1.44126880 0.44397137 10 5 28650 5.09400000 3216178825 3216178825 5.00000000
-3.10794282 0.92120463 -0.51341790 3 6 28651 3.28200000 3216178827 3216178827 -9.00000000
-3.89554381 1.15613163 -0.49893311 6 8 28653 4.09400000 3216178831 3216178831 -7.00000000
-5.18359566 1.53938806 -0.47308138 10 10 28654 5.42800000 3216178836 3216178836 -5.00000000
-4.11408091 1.22333395 -0.22493994 6 12 28656 4.29800000 3216178841 3216178841 -3.00000000
-10.07871819 2.99885106 2.42767167 64 13 28657 10.79200000 3216178843 3216178843 13.00000000
-3.97876310 1.18460870 -0.07246239 63 14 28658 4.15200000 3216178845 3216178845 -1.00000000
-9.09286213 2.70724416 2.54212070 42 15 28658 9.82200000 3216178848 3216178848 15.00000000
-1.90443003 0.56990749 -0.53264958 4 0 28666 2.05800000 3216178868 3216178868 -15.00000000
-4.03819847 1.20921326 0.07357935 15 1 28667 4.21600000 3216178871 3216178871 1.00000000
-2.19902277 0.65890181 -0.52998471 3 2 28668 2.35600000 3216178873 3216178873 -13.00000000
-4.11703396 1.23438621 0.22525395 7 3 28669 4.30400000 3216178875 3216178875 3.00000000
-2.59139466 0.77696270 -0.52586961 3 4 28669 2.75600000 3216178878 3216178878 -11.00000000
-4.87775612 1.46339703 0.44554016 10 5 28670 5.11200000 3216178880 3216178880 5.00000000
-3.11227608 0.93431967 -0.51466942 3 6 28671 3.29000000 3216178882 3216178882 -9.00000000
-3.91049504 1.17543697 -0.50137049 6 8 28673 4.11400000 3216178887 3216178887 -7.00000000
-5.18773031 1.56034219 -0.47395292 10 10 28674 5.43800000 3216178891 3216178891 -5.00000000
-4.10978556 1.23768735 -0.22493994 6 12 28676 4.29800000 3216178896 3216178896 -3.00000000
-10.06072521 3.03176498 2.42587209 66 13 28677 10.78400000 3216178898 3216178898 13.00000000
-3.98609114 1.20195377 -0.07267182 61 14 28678 4.16400000 3216178901 3216178901 -1.00000000
-8.95896149 2.70316410 2.50743890 45 15 28679 9.68800000 3216178903 3216178903 15.00000000
-1.90622759 0.57733965 -0.53368485 4 0 28685 2.06200000 3216178924 3216178924 -15.00000000
-4.03225231 1.22201777 0.07354444 15 1 28686 4.21400000 3216178926 3216178926 1.00000000
-2.19123101 0.66449380 -0.52863497 4 2 28687 2.35000000 3216178928 3216178928 -13.00000000
-4.11886930 1.24905288 0.22556797 7 3 28687 4.31000000 3216178931 3216178931 3.00000000
-2.58880377 0.78555179 -0.52586961 3 4 28688 2.75600000 3216178933 3216178933 -11.00000000
-4.89194107 1.48535275 0.44728327 10 5 28689 5.13200000 3216178935 3216178935 5.00000000
-3.09971023 0.94176400 -0.51310503 3 6 28690 3.28000000 3216178937 3216178937 -9.00000000
-3.88758397 1.18262076 -0.49893311 6 8 28692 4.09400000 3216178942 3216178942 -7.00000000
-5.18824577 1.57927728 -0.47447586 10 10 28693 5.44400000 3216178947 3216178947 -5.00000000
-4.10565853 1.25130904 -0.22493994 6 12 28695 4.29800000 3216178951 3216178951 -3.00000000
-10.03943253 3.06170034 2.42317271 64 13 28696 10.77200000 3216178954 3216178954 13.00000000
-3.98782110 1.21691644 -0.07277653 57 14 28697 4.17000000 3216178956 3216178956 -1.00000000
-8.84510422 2.69915652 2.47793365 45 15 28697 9.57400000 3216178958 3216178958 15.00000000
-1.90789449 0.58512294 -0.53472012 4 0 28705 2.06600000 3216178979 3216178979 -15.00000000
-4.04325581 1.24077868 0.07382368 15 1 28706 4.23000000 3216178981 3216178981 1.00000000
-2.19634962 0.67442673 -0.53043461 4 2 28707 2.35800000 3216178983 3216178983 -13.00000000
-4.10875654 1.26166403 0.22525395 7 3 28707 4.30400000 3216178986 3216178986 3.00000000
-2.57853937 0.79227710 -0.52434313 3 4 28708 2.74800000 3216178988 3216178988 -11.00000000
-4.90577078 1.50827491 0.44902638 10 5 28709 5.15200000 3216178990 3216178990 5.00000000
-3.10018015 0.95373994 -0.51373076 3 6 28710 3.28400000 3216178993 3216178993 -9.00000000
-3.87963796 1.19501507 -0.49844560 6 8 28712 4.09000000 3216178997 3216178997 -7.00000000
-5.20364523 1.60383332 -0.47639328 6 10 28713 5.46600000 3216179002 3216179002 -5.00000000
-4.09744883 1.26445496 -0.22473060 6 12 28715 4.29400000 3216179007 3216179007 -3.00000000
-10.02123642 3.09442592 2.42137313 66 13 28716 10.76400000 3216179009 3216179009 13.00000000
-3.97972798 1.22964847 -0.07270672 57 14 28717 4.16600000 3216179011 3216179011 -1.00000000
-8.73226643 2.69807863 2.44894576 42 15 28717 9.46200000 3216179013 3216179013 15.00000000
-1.90204740 0.59096539 -0.53368485 4 0 28726 2.06200000 3216179034 3216179034 -15.00000000
-4.05395746 1.26033890 0.07410292 15 1 28727 4.24600000 3216179036 3216179036 1.00000000
-4.01370859 1.24859428 -0.97043884 5 2 28728 4.31400000 3216179039 3216179039 -13.00000000
-4.10769606 1.27861834 0.22546330 7 3 28729 4.30800000 3216179041 3216179041 3.00000000
-2.56062198 0.79705465 -0.52129018 3 4 28729 2.73200000 3216179043 3216179043 -11.00000000
-4.89069843 1.52328289 0.44815484 10 5 28730 5.14200000 3216179046 3216179046 5.00000000
-3.11363697 0.97038609 -0.51654661 3 6 28731 3.30200000 3216179048 3216179048 -9.00000000
-3.89797163 1.21632230 -0.50137049 6 8 28733 4.11400000 3216179053 3216179053 -7.00000000
-5.17300797 1.61517525 -0.47412723 6 10 28734 5.44000000 3216179057 3216179057 -5.00000000
-4.08706808 1.27767658 -0.22441658 6 12 28736 4.28800000 3216179062 3216179062 -3.00000000
-10.01726723 3.13346195 2.42317271 68 13 28737 10.77200000 3216179064 3216179064 13.00000000
-3.97901106 1.24542129 -0.07277653 52 14 28738 4.17000000 3216179066 3216179066 -1.00000000
-8.60938549 2.69636774 2.41736984 45 15 28739 9.34000000 3216179069 3216179069 15.00000000
-1.89260161 0.59528267 -0.53161430 4 0 28746 2.05400000 3216179089 3216179089 -15.00000000
-4.04190350 1.27208090 0.07396330 15 1 28747 4.23800000 3216179092 3216179092 1.00000000
-2.20819616 0.69539422 -0.53448373 4 2 28748 2.37600000 3216179094 3216179094 -13.00000000
-4.11867332 1.29703236 0.22630067 7 3 28748 4.32400000 3216179096 3216179096 3.00000000
-2.57280397 0.81070834 -0.52434313 3 4 28749 2.74800000 3216179099 3216179099 -11.00000000
-4.90245295 1.54573750 0.44972363 10 5 28750 5.16000000 3216179101 3216179101 5.00000000
-3.11023068 0.98124880 -0.51654661 3 6 28751 3.30200000 3216179103 3216179103 -9.00000000
-3.88991642 1.22872555 -0.50088298 6 8 28753 4.11000000 3216179108 3216179108 -7.00000000
-5.17113781 1.63442349 -0.47447586 6 10 28754 5.44400000 3216179113 3216179113 -5.00000000
-4.11876249 1.30338442 -0.22640535 6 12 28756 4.32600000 3216179117 3216179117 -3.00000000
-9.99883652 3.16605663 2.42137313 64 13 28757 10.76400000 3216179119 3216179119 13.00000000
-3.97845221 1.26051104 -0.07284635 54 14 28758 4.17400000 3216179122 3216179122 -1.00000000
-8.52994347 2.70421886 2.39769959 45 15 28759 9.26400000 3216179124 3216179124 15.00000000
-1.89245808 0.60214120 -0.53213197 4 0 28765 2.05600000 3216179145 3216179145 -15.00000000
-4.02813578 1.28244412 0.07378878 13 1 28766 4.22800000 3216179147 3216179147 1.00000000
-2.19659400 0.69975549 -0.53223419 4 2 28767 2.36600000 3216179149 3216179149 -13.00000000
-4.11434984 1.31068325 0.22630067 7 3 28767 4.32400000 3216179152 3216179152 3.00000000
-2.57758355 0.82162058 -0.52586961 3 4 28768 2.75600000 3216179154 3216179154 -11.00000000
-4.91248560 1.56682944 0.45111811 10 5 28769 5.17600000 3216179156 3216179156 5.00000000
-3.09566832 0.98795378 -0.51466942 3 6 28770 3.29000000 3216179159 3216179159 -9.00000000
-3.89716578 1.24524343 -0.50234544 6 8 28772 4.12200000 3216179163 3216179163 -7.00000000
-5.17328072 1.65398955 -0.47517312 6 10 28773 5.45200000 3216179168 3216179168 -5.00000000
-4.09920025 1.31216443 -0.22556797 6 12 28775 4.31000000 3216179172 3216179172 -3.00000000
-9.99570656 3.20157409 2.42317271 66 13 28776 10.77200000 3216179175 3216179175 13.00000000
-3.98186731 1.27613831 -0.07298596 56 14 28777 4.18200000 3216179177 3216179177 -1.00000000
-8.48781681 2.72187185 2.38838220 45 15 28778 9.22800000 3216179179 3216179179 15.00000000
-1.90689433 0.61407292 -0.53679073 4 0 28785 2.07400000 3216179200 3216179200 -15.00000000
-4.03695774 1.30079019 0.07403311 39 1 28786 4.24200000 3216179202 3216179202 1.00000000
-2.18486428 0.70442885 -0.52998471 3 2 28787 2.35600000 3216179205 3216179205 -13.00000000
-4.11355114 1.32626271 0.22651002 7 3 28787 4.32800000 3216179207 3216179207 3.00000000
-2.57096291 0.82940745 -0.52510637 3 4 28788 2.75200000 3216179209 3216179209 -11.00000000
-4.92405081 1.58947611 0.45268694 7 5 28789 5.19400000 3216179212 3216179212 5.00000000
-3.09972000 1.00118232 -0.51592088 3 6 28790 3.29800000 3216179214 3216179214 -9.00000000
-3.88146281 1.25517464 -0.50088298 6 8 28792 4.11000000 3216179219 3216179219 -7.00000000
-5.18074512 1.67633116 -0.47639328 6 10 28793 5.46600000 3216179223 3216179223 -5.00000000
-4.09839535 1.32769632 -0.22577731 6 12 28795 4.31400000 3216179228 3216179228 -3.00000000
-9.96963978 3.23163891 2.41957355 68 13 28796 10.75600000 3216179230 3216179230 13.00000000
-3.97548652 1.28941298 -0.07295106 63 14 28797 4.18000000 3216179232 3216179232 -1.00000000
-8.47091389 2.74909806 2.38631153 45 15 28798 9.22000000 3216179235 3216179235 15.00000000
-1.90106571 0.61952835 -0.53575540 4 0 28805 2.07000000 3216179255 3216179255 -15.00000000
-4.04189825 1.31797349 0.07420763 75 1 28806 4.25200000 3216179258 3216179258 1.00000000
-2.18794990 0.71386451 -0.53133440 4 2 28807 2.36200000 3216179260 3216179260 -13.00000000
-4.10699797 1.33999407 0.22640535 7 3 28807 4.32600000 3216179262 3216179262 3.00000000
-2.57178473 0.83959532 -0.52586961 3 4 28808 2.75600000 3216179265 3216179265 -11.00000000
-4.92794180 1.60974777 0.45355847 7 5 28809 5.20400000 3216179267 3216179267 5.00000000
-3.11310482 1.01751947 -0.51873666 3 6 28810 3.31600000 3216179269 3216179269 -9.00000000
-6.32062531 2.06711984 0.81652462 2 7 28811 6.70000000 3216179271 3216179271 7.00000000
-3.88083100 1.26995063 -0.50137049 6 8 28812 4.11400000 3216179274 3216179274 -7.00000000
-5.19000959 1.69936502 -0.47778779 3 10 28813 5.48200000 3216179278 3216179278 -5.00000000
-4.10891867 1.34697151 -0.22661468 6 12 28815 4.33000000 3216179283 3216179283 -3.00000000
-9.94348431 3.26156092 2.41597438 70 13 28816 10.74000000 3216179285 3216179285 13.00000000
-3.97286129 1.30390573 -0.07298596 57 14 28817 4.18200000 3216179288 3216179288 -1.00000000
-8.45807934 2.77596855 2.38527632 45 15 28817 9.21600000 3216179290 3216179290 15.00000000
-1.89522219 0.62495053 -0.53472012 4 0 28825 2.06600000 3216179311 3216179311 -15.00000000
-2.19469738 0.72455215 -0.53358388 3 2 28827 2.37200000 3216179315 3216179315 -13.00000000
-4.11746836 1.35933113 0.22724272 7 3 28827 4.34200000 3216179318 3216179318 3.00000000
-2.55392504 0.84364104 -0.52281666 3 4 28828 2.74000000 3216179320 3216179320 -11.00000000
-4.92607641 1.62819028 0.45390710 7 5 28829 5.20800000 3216179322 3216179322 5.00000000
-3.09265494 1.02279782 -0.51592088 3 6 28830 3.29800000 3216179324 3216179324 -9.00000000
-3.87637448 1.28348958 -0.50137049 6 8 28832 4.11400000 3216179329 3216179329 -7.00000000
-5.17837238 1.71559143 -0.47726485 3 10 28833 5.47600000 3216179334 3216179334 -5.00000000
-4.12314892 1.36759400 -0.22766142 6 12 28835 4.35000000 3216179338 3216179338 -3.00000000
-9.93943691 3.29870558 2.41777396 68 13 28836 10.74800000 3216179341 3216179341 13.00000000
-3.96448994 1.31650519 -0.07291616 56 14 28837 4.17800000 3216179343 3216179343 -1.00000000
-8.43868160 2.80390453 2.38268805 47 15 28838 9.20600000 3216179345 3216179345 15.00000000
-1.89119661 0.63095093 -0.53420252 4 0 28845 2.06400000 3216179366 3216179366 -15.00000000
-4.03639221 1.34742534 0.07427744 7 1 28846 4.25600000 3216179368 3216179368 1.00000000
-2.19585156 0.73344338 -0.53448373 4 2 28847 2.37600000 3216179371 3216179371 -13.00000000
-4.11814117 1.37631249 0.22755674 7 3 28848 4.34800000 3216179373 3216179373 3.00000000
-2.56213665 0.85628456 -0.52510637 3 4 28848 2.75200000 3216179375 3216179375 -11.00000000
-4.93170023 1.64916670 0.45495299 5 5 28849 5.22000000 3216179377 3216179377 5.00000000
-3.10217881 1.03797460 -0.51811093 1 6 28850 3.31200000 3216179380 3216179380 -9.00000000
-3.88316417 1.30079603 -0.50283289 6 8 28852 4.12600000 3216179384 3216179384 -7.00000000
-5.17613029 1.73492324 -0.47761348 3 10 28853 5.48000000 3216179389 3216179389 -5.00000000
-4.11266947 1.38007188 -0.22734739 6 12 28855 4.34400000 3216179394 3216179394 -3.00000000
-9.92786217 3.33338070 2.41777396 66 13 28856 10.74800000 3216179396 3216179396 13.00000000
-3.96555710 1.33224630 -0.07302087 61 14 28857 4.18400000 3216179398 3216179398 -1.00000000
-8.41285610 2.82633591 2.37802935 47 15 28857 9.18800000 3216179401 3216179401 15.00000000
-1.89447391 0.63940191 -0.53575540 4 0 28865 2.07000000 3216179421 3216179421 -15.00000000
-4.02976990 1.36086690 0.07424254 7 1 28866 4.25400000 3216179424 3216179424 1.00000000
-2.18589330 0.73860860 -0.53268409 3 2 28867 2.36800000 3216179426 3216179426 -13.00000000
-4.11141968 1.39003944 0.22745207 7 3 28868 4.34600000 3216179428 3216179428 3.00000000
-2.57029104 0.86899567 -0.52739608 3 4 28868 2.76400000 3216179430 3216179430 -11.00000000
-4.94856119 1.67403305 0.45704472 2 5 28869 5.24400000 3216179433 3216179433 5.00000000
-3.10415006 1.05069685 -0.51904953 3 6 28870 3.31800000 3216179435 3216179435 -9.00000000
-3.88612032 1.31689131 -0.50380784 6 8 28872 4.13400000 3216179440 3216179440 -7.00000000
-5.15872145 1.74914205 -0.47656760 6 10 28873 5.46800000 3216179444 3216179444 -5.00000000
-4.11917448 1.39827144 -0.22797543 6 12 28875 4.35600000 3216179449 3216179449 -3.00000000
-9.91247559 3.36676168 2.41687417 66 13 28876 10.74400000 3216179451 3216179451 13.00000000
-3.96845603 1.34865439 -0.07316048 61 14 28877 4.19200000 3216179454 3216179454 -1.00000000
-8.40244007 2.85715151 2.37802935 45 15 28878 9.18800000 3216179456 3216179456 15.00000000
-1.88857388 0.64476264 -0.53472012 4 0 28885 2.06600000 3216179477 3216179477 -15.00000000
-4.03634882 1.37880373 0.07445197 13 1 28886 4.26600000 3216179479 3216179479 1.00000000
-2.17408156 0.74308294 -0.53043461 4 2 28887 2.35800000 3216179481 3216179481 -13.00000000
-4.11221170 1.40632129 0.22776608 7 3 28888 4.35200000 3216179483 3216179483 3.00000000
-2.57467246 0.88050348 -0.52892256 3 4 28888 2.77200000 3216179486 3216179486 -11.00000000
-5.00301027 1.71193779 0.46262267 2 5 28889 5.30800000 3216179488 3216179488 5.00000000
-3.09672570 1.06024623 -0.51842380 3 6 28890 3.31400000 3216179490 3216179490 -9.00000000
-3.87398839 1.32787371 -0.50283289 6 8 28892 4.12600000 3216179495 3216179495 -7.00000000
-5.16389227 1.77101684 -0.47761348 6 10 28893 5.48000000 3216179500 3216179500 -5.00000000
-4.08404446 1.40226400 -0.22630067 4 12 28895 4.32400000 3216179504 3216179504 -3.00000000
-9.89329052 3.39880943 2.41507459 66 13 28896 10.73600000 3216179507 3216179507 13.00000000
-3.97317958 1.36574888 -0.07333501 57 14 28897 4.20200000 3216179509 3216179509 -1.00000000
-8.39657307 2.88625526 2.37906456 45 15 28897 9.19200000 3216179511 3216179511 15.00000000
-1.88996387 0.65261215 -0.53575540 4 0 28905 2.07000000 3216179532 3216179532 -15.00000000
-4.04096174 1.39614987 0.07462649 7 1 28906 4.27600000 3216179534 3216179534 1.00000000
-2.17884159 0.75321418 -0.53223419 4 2 28907 2.36600000 3216179536 3216179536 -13.00000000
-4.10350275 1.41936135 0.22755674 7 3 28908 4.34800000 3216179539 3216179539 3.00000000
-2.56045079 0.88563478 -0.52663285 3 4 28908 2.76000000 3216179541 3216179541 -11.00000000
-5.12127018 1.77239788 0.47412723 2 5 28909 5.44000000 3216179543 3216179543 5.00000000
-3.09300590 1.07104933 -0.51842380 3 6 28910 3.31400000 3216179546 3216179546 -9.00000000
-3.85807610 1.33748710 -0.50137049 6 8 28912 4.11400000 3216179550 3216179550 -7.00000000
-5.16709089 1.79229605 -0.47848502 6 10 28913 5.49000000 3216179555 3216179555 -5.00000000
-4.10365248 1.42502880 -0.22766142 6 12 28915 4.35000000 3216179559 3216179559 -3.00000000
-9.86664009 3.42820597 2.41147542 68 13 28916 10.72000000 3216179562 3216179562 13.00000000
-3.96461034 1.37829626 -0.07326520 54 14 28917 4.19800000 3216179564 3216179564 -1.00000000
-8.38958740 2.91828036 2.38010001 45 15 28918 9.19600000 3216179566 3216179566 15.00000000
-1.88596535 0.65823931 -0.53523779 4 0 28924 2.06800000 3216179587 3216179587 -15.00000000
-4.05141306 1.41481674 0.07490573 7 1 28925 4.29200000 3216179589 3216179589 1.00000000
-2.18553042 0.76364934 -0.53448373 3 2 28926 2.37600000 3216179592 3216179592 -13.00000000
-4.10442972 1.43493855 0.22787075 7 3 28927 4.35400000 3216179594 3216179594 3.00000000
-2.55935311 0.89476860 -0.52701443 3 4 28927 2.76200000 3216179596 3216179596 -11.00000000
-3.11367536 1.08978355 -0.52249110 1 6 28929 3.34000000 3216179601 3216179601 -9.00000000
-3.85736656 1.35158646 -0.50185794 6 8 28931 4.11800000 3216179606 3216179606 -7.00000000
-5.15735865 1.80810249 -0.47813639 3 10 28932 5.48600000 3216179610 3216179610 -5.00000000
-4.11021185 1.44259775 -0.22828944 6 12 28934 4.36200000 3216179615 3216179615 -3.00000000
-9.85521793 3.46090603 2.41147542 68 13 28935 10.72000000 3216179617 3216179617 13.00000000
-3.95624471 1.39011002 -0.07319539 56 14 28936 4.19400000 3216179619 3216179619 -1.00000000
-8.36944294 2.94077992 2.37699413 45 15 28936 9.18400000 3216179622 3216179622 15.00000000
-1.87819111 0.66288966 -0.53368485 4 0 28944 2.06200000 3216179642 3216179642 -15.00000000
-4.04267836 1.42761850 0.07483592 7 1 28945 4.28800000 3216179645 3216179645 1.00000000
-2.18285131 0.77127361 -0.53448373 3 2 28946 2.37600000 3216179647 3216179647 -13.00000000
-4.12764120 1.45924270 0.22944084 7 3 28947 4.38400000 3216179649 3216179649 3.00000000
-2.55806518 0.90435135 -0.52739608 3 4 28947 2.76400000 3216179652 3216179652 -11.00000000
-3.10054159 1.09735036 -0.52092677 3 6 28949 3.33000000 3216179656 3216179656 -9.00000000
-3.86759400 1.37034655 -0.50380784 6 8 28951 4.13400000 3216179661 3216179661 -7.00000000
-5.14350414 1.82343113 -0.47743917 6 10 28952 5.47800000 3216179665 3216179665 -5.00000000
-4.13714886 1.46829259 -0.23006886 6 12 28954 4.39600000 3216179670 3216179670 -3.00000000
-9.83940411 3.49398184 2.41057539 68 13 28955 10.71600000 3216179672 3216179672 13.00000000
-3.95702124 1.40591979 -0.07330011 63 14 28956 4.20000000 3216179675 3216179675 -1.00000000
-8.34768581 2.96755314 2.37388825 45 15 28957 9.17200000 3216179677 3216179677 15.00000000
-1.87222683 0.66814315 -0.53264958 4 0 28964 2.05800000 3216179698 3216179698 -15.00000000
-4.03202057 1.43970394 0.07473120 7 1 28965 4.28200000 3216179700 3216179700 1.00000000
-3.99509883 1.42730665 -0.97943687 6 2 28966 4.35400000 3216179702 3216179702 -13.00000000
-4.12252235 1.47364199 0.22944084 7 3 28967 4.38400000 3216179705 3216179705 3.00000000
-2.55674171 0.91393596 -0.52777767 3 4 28967 2.76600000 3216179707 3216179707 -11.00000000
-3.08553290 1.10417318 -0.51904953 3 6 28969 3.31800000 3216179712 3216179712 -9.00000000
-3.86652470 1.38517761 -0.50429535 6 8 28971 4.13800000 3216179716 3216179716 -7.00000000
-5.13148117 1.83935738 -0.47691622 6 10 28972 5.47200000 3216179721 3216179721 -5.00000000
-9.90712452 3.55311775 2.04585409 9 11 28973 10.72200000 3216179723 3216179723 11.00000000
-4.10755968 1.47395539 -0.22870813 6 12 28974 4.37000000 3216179725 3216179725 -3.00000000
-9.82714748 3.52830648 2.41057539 66 13 28975 10.71600000 3216179728 3216179728 13.00000000
-3.95961738 1.42242813 -0.07343972 61 14 28976 4.20800000 3216179730 3216179730 -1.00000000
-8.33416367 2.99391270 2.37285304 47 15 28976 9.16800000 3216179732 3216179732 15.00000000
-1.88078630 0.67860830 -0.53575540 4 0 28984 2.07000000 3216179753 3216179753 -15.00000000
-4.05330324 1.46327579 0.07521987 7 1 28985 4.31000000 3216179755 3216179755 1.00000000
-3.98642659 1.43991935 -0.97853708 6 2 28986 4.35000000 3216179758 3216179758 -13.00000000
-4.11171818 1.48598671 0.22912681 7 3 28987 4.37800000 3216179760 3216179760 3.00000000
-2.56646037 0.92752612 -0.53044903 3 4 28987 2.78000000 3216179762 3216179762 -11.00000000
-5.13381958 1.85639000 0.47761348 2 5 28988 5.48000000 3216179765 3216179765 5.00000000
-3.09466267 1.11964130 -0.52123964 3 6 28989 3.33200000 3216179767 3216179767 -9.00000000
-5.57354450 2.01759481 0.72780371 2 7 28990 5.97200000 3216179769 3216179769 7.00000000
-3.86166596 1.39866590 -0.50429535 6 8 28991 4.13800000 3216179771 3216179771 -7.00000000
-5.15312719 1.86744070 -0.47953090 6 10 28992 5.50200000 3216179776 3216179776 -5.00000000
-9.92419243 3.59838581 2.05195999 12 11 28993 10.75400000 3216179778 3216179778 11.00000000
-4.09112453 1.48419762 -0.22808009 6 12 28994 4.35800000 3216179781 3216179781 -3.00000000
-9.79645348 3.55593920 2.40607643 66 13 28995 10.69600000 3216179783 3216179783 13.00000000
-3.96590543 1.44033682 -0.07364915 68 14 28996 4.22000000 3216179785 3216179785 -1.00000000
-8.33039665 3.02707791 2.37492347 45 15 28997 9.17600000 3216179788 3216179788 15.00000000
-1.87840605 0.68516934 -0.53575540 4 0 29004 2.07000000 3216179808 3216179808 -15.00000000
-4.06695557 1.48427129 0.07556892 7 1 29005 4.33000000 3216179811 3216179811 1.00000000
-2.17282462 0.79342127 -0.53403378 4 2 29006 2.37400000 3216179813 3216179813 -13.00000000
-4.10650635 1.50033021 0.22912681 7 3 29007 4.37800000 3216179815 3216179815 3.00000000
-2.55029893 0.93176299 -0.52777767 3 4 29007 2.76600000 3216179818 3216179818 -11.00000000
-3.09259057 1.13111544 -0.52155250 3 6 29009 3.33400000 3216179822 3216179822 -9.00000000
-5.58324528 2.04317760 0.72999740 2 7 29010 5.99000000 3216179824 3216179824 7.00000000
-3.86421633 1.41486716 -0.50527030 6 8 29011 4.14600000 3216179827 3216179827 -7.00000000
-5.16528511 1.89227068 -0.48127401 3 10 29012 5.52200000 3216179831 3216179831 -5.00000000
-9.91710091 3.63503289 2.05310488 12 11 29013 10.76000000 3216179834 3216179834 11.00000000
-4.10654545 1.50603390 -0.22923149 6 12 29014 4.38000000 3216179836 3216179836 -3.00000000
-9.77300453 3.58608580 2.40337706 62 13 29015 10.68400000 3216179838 3216179838 13.00000000
-3.95146751 1.45072567 -0.07347463 59 14 29016 4.21000000 3216179841 3216179841 -1.00000000
-8.32756710 3.05734897 2.37699413 45 15 29016 9.18400000 3216179843 3216179843 15.00000000
-1.87237775 0.69038540 -0.53472012 4 0 29024 2.06600000 3216179864 3216179864 -15.00000000
-4.05799770 1.49707437 0.07549911 5 1 29025 4.32600000 3216179866 3216179866 1.00000000
-2.17369819 0.80235064 -0.53493363 4 2 29026 2.37800000 3216179868 3216179868 -13.00000000
-4.11248541 1.51880717 0.22975485 7 3 29027 4.39000000 3216179871 3216179871 3.00000000
-2.54887247 0.94133967 -0.52815932 3 4 29027 2.76800000 3216179873 3216179873 -11.00000000
-5.24034262 1.93638241 0.48876941 2 5 29028 5.60800000 3216179875 3216179875 5.00000000
-3.09232903 1.14327371 -0.52217823 3 6 29029 3.33800000 3216179877 3216179877 -9.00000000
-5.59097385 2.06816387 0.73194730 2 7 29030 6.00600000 3216179880 3216179880 7.00000000
-3.85180736 1.42559111 -0.50429535 6 8 29031 4.13800000 3216179882 3216179882 -7.00000000
-5.13809586 1.90267861 -0.47935659 6 10 29032 5.50000000 3216179887 3216179887 -5.00000000
-9.90803432 3.67099190 2.05386806 18 11 29033 10.76400000 3216179889 3216179889 11.00000000
-4.11437225 1.52521884 -0.22996420 6 12 29034 4.39400000 3216179891 3216179891 -3.00000000
-9.75494576 3.61814499 2.40202737 27 13 29035 10.67800000 3216179894 3216179894 13.00000000
-3.94825435 1.46520579 -0.07350954 63 14 29036 4.21200000 3216179896 3216179896 -1.00000000
-8.30597687 3.08236623 2.37388825 45 15 29036 9.17200000 3216179898 3216179898 15.00000000
-1.86983478 0.69724333 -0.53472012 4 0 29045 2.06600000 3216179919 3216179919 -15.00000000
-4.05997753 1.51473355 0.07563873 5 1 29046 4.33400000 3216179921 3216179921 1.00000000
-2.17804551 0.81303829 -0.53673321 4 2 29047 2.38600000 3216179924 3216179924 -13.00000000
-4.11437511 1.53666520 0.23017353 7 3 29048 4.39800000 3216179926 3216179926 3.00000000
-2.54540515 0.95067543 -0.52815932 3 4 29048 2.76800000 3216179928 3216179928 -11.00000000
-3.07331586 1.14906561 -0.51967531 3 6 29050 3.32200000 3216179933 3216179933 -9.00000000
-3.85771132 1.44387424 -0.50575775 6 8 29052 4.15000000 3216179937 3216179937 -7.00000000
-5.13668537 1.92359412 -0.47987953 3 10 29053 5.50600000 3216179942 3216179942 -5.00000000
-9.89635086 3.70797086 2.05424953 21 11 29054 10.76600000 3216179944 3216179944 11.00000000
-4.10314417 1.53818524 -0.22965017 4 12 29055 4.38800000 3216179947 3216179947 -3.00000000
-3.94847417 1.48177481 -0.07361425 59 14 29057 4.21800000 3216179951 3216179951 -1.00000000
-8.28558064 3.10939479 2.37129998 47 15 29057 9.16200000 3216179953 3216179953 15.00000000
-1.86738956 0.70376605 -0.53472012 4 0 29065 2.06600000 3216179974 3216179974 -15.00000000
-4.05466509 1.52889633 0.07563873 5 1 29066 4.33400000 3216179977 3216179977 1.00000000
-2.16972423 0.81857246 -0.53538352 3 2 29067 2.38000000 3216179979 3216179979 -13.00000000
-4.11832905 1.55454433 0.23069690 7 3 29068 4.40800000 3216179981 3216179981 3.00000000
-2.55309176 0.96371472 -0.53044903 3 4 29068 2.78000000 3216179983 3216179983 -11.00000000
-3.06189466 1.15699351 -0.51842380 3 6 29070 3.31400000 3216179988 3216179988 -9.00000000
-3.85079098 1.45662904 -0.50551403 6 8 29072 4.14800000 3216179993 3216179993 -7.00000000
-5.13180304 1.94221807 -0.48005384 3 10 29073 5.50800000 3216179997 3216179997 -5.00000000
-9.88885593 3.74457884 2.05539441 25 11 29074 10.77200000 3216180000 3216180000 11.00000000
-4.09027910 1.54966807 -0.22923149 6 12 29075 4.38000000 3216180002 3216180002 -3.00000000
-3.95262647 1.49909413 -0.07378878 63 14 29077 4.22800000 3216180006 3216180006 -1.00000000
-8.27593422 3.14042735 2.37181783 47 15 29078 9.16400000 3216180009 3216180009 15.00000000
-1.87226737 0.71270376 -0.53679073 4 0 29084 2.07400000 3216180030 3216180030 -15.00000000
-4.04770422 1.54162192 0.07560383 5 1 29085 4.33200000 3216180032 3216180032 1.00000000
-2.16335583 0.82437521 -0.53448373 3 2 29086 2.37600000 3216180034 3216180034 -13.00000000
-4.12434864 1.57246172 0.23132493 7 3 29087 4.42000000 3216180036 3216180036 3.00000000
-2.54621315 0.97077692 -0.52968580 3 4 29087 2.77600000 3216180039 3216180039 -11.00000000
-3.07649636 1.17418456 -0.52155250 3 6 29089 3.33400000 3216180043 3216180043 -9.00000000
-3.84779382 1.47009909 -0.50575775 6 8 29091 4.15000000 3216180048 3216180048 -7.00000000
-5.12905598 1.96064782 -0.48040244 6 10 29092 5.51200000 3216180053 3216180053 -5.00000000
-9.88738632 3.78155875 2.05768418 25 11 29093 10.78400000 3216180055 3216180055 11.00000000
-4.09817505 1.56822002 -0.22996420 6 12 29094 4.39400000 3216180057 3216180057 -3.00000000
-3.96070528 1.51720059 -0.07403311 47 14 29096 4.24200000 3216180062 3216180062 -1.00000000
-8.26963615 3.16779351 2.37285304 45 15 29096 9.16800000 3216180064 3216180064 15.00000000
-1.87698042 0.72200912 -0.53886127 4 0 29104 2.08200000 3216180085 3216180085 -15.00000000
-4.06469345 1.56436074 0.07602268 5 1 29105 4.35600000 3216180087 3216180087 1.00000000
-2.16410232 0.83332223 -0.53538352 3 2 29106 2.38000000 3216180089 3216180089 -13.00000000
-4.10765219 1.58254063 0.23069690 7 3 29107 4.40800000 3216180092 3216180092 3.00000000
-2.54647303 0.98107058 -0.53044903 3 4 29107 2.78000000 3216180094 3216180094 -11.00000000
-5.21279573 2.00936031 0.48876941 2 5 29108 5.60800000 3216180096 3216180096 5.00000000
-3.06684971 1.18278396 -0.52061391 3 6 29109 3.32800000 3216180099 3216180099 -9.00000000
-3.83893514 1.48209155 -0.50527030 6 8 29111 4.14600000 3216180103 3216180103 -7.00000000
-5.14262533 1.98643661 -0.48231989 6 10 29112 5.53400000 3216180108 3216180108 -5.00000000
-9.89243793 3.82312632 2.06150031 25 11 29113 10.80400000 3216180110 3216180110 11.00000000
-4.10385323 1.58683765 -0.23059222 6 12 29114 4.40600000 3216180112 3216180112 -3.00000000
-3.96470928 1.53462601 -0.07420763 28 14 29116 4.25200000 3216180117 3216180117 -1.00000000
-8.26393223 3.19873261 2.37440586 47 15 29116 9.17400000 3216180119 3216180119 15.00000000
-1.87084746 0.72715688 -0.53782600 4 0 29124 2.07800000 3216180140 3216180140 -15.00000000
-4.05920792 1.57853961 0.07602268 3 1 29125 4.35600000 3216180142 3216180142 1.00000000
-2.16118026 0.84087127 -0.53538352 3 2 29126 2.38000000 3216180145 3216180145 -13.00000000
-4.12285662 1.60411966 0.23184828 7 3 29126 4.43000000 3216180147 3216180147 3.00000000
-2.53571486 0.98710465 -0.52892256 3 4 29127 2.77200000 3216180149 3216180149 -11.00000000
-5.28743792 2.05936003 0.49643910 3 5 29128 5.69600000 3216180152 3216180152 5.00000000
-3.08662963 1.20280612 -0.52468121 3 6 29129 3.35400000 3216180154 3216180154 -9.00000000
-3.82634068 1.49259734 -0.50429535 6 8 29131 4.13800000 3216180158 3216180158 -7.00000000
-5.13937187 2.00582433 -0.48266849 6 10 29132 5.53800000 3216180163 3216180163 -5.00000000
-9.89732075 3.86477518 2.06531668 25 11 29133 10.82400000 3216180165 3216180165 11.00000000
-4.10573006 1.60406029 -0.23101091 6 12 29134 4.41400000 3216180168 3216180168 -3.00000000
-3.96119070 1.54918432 -0.07424254 24 14 29136 4.25400000 3216180172 3216180172 -1.00000000
-8.23292542 3.21981978 2.36871195 47 15 29136 9.15200000 3216180175 3216180175 15.00000000
-1.85750878 0.72944605 -0.53472012 4 0 29144 2.06600000 3216180195 3216180195 -15.00000000
-4.06111765 1.59562433 0.07616230 3 1 29145 4.36400000 3216180198 3216180198 1.00000000
-2.17274094 0.85411370 -0.53898275 3 2 29146 2.39600000 3216180200 3216180200 -13.00000000
-4.12624264 1.62287509 0.23237164 5 3 29147 4.44000000 3216180202 3216180202 3.00000000
-2.53225374 0.99594992 -0.52892256 3 4 29147 2.77200000 3216180205 3216180205 -11.00000000
-5.25055313 2.06613111 0.49365014 2 5 29148 5.66400000 3216180207 3216180207 5.00000000
-3.06586981 1.20706022 -0.52186537 1 6 29149 3.33600000 3216180209 3216180209 -9.00000000
-3.83034158 1.50958395 -0.50551403 4 8 29151 4.14800000 3216180214 3216180214 -7.00000000
-5.13975286 2.02667522 -0.48336574 7 10 29152 5.54600000 3216180218 3216180218 -5.00000000
-9.88742256 3.90074086 2.06607985 25 11 29153 10.82800000 3216180221 3216180221 11.00000000
-4.10382175 1.61984873 -0.23122026 6 12 29154 4.41800000 3216180223 3216180223 -3.00000000
-3.97249699 1.56961560 -0.07455668 28 14 29156 4.27200000 3216180228 3216180228 -1.00000000
-8.21028996 3.24571204 2.36560607 47 15 29157 9.14000000 3216180230 3216180230 15.00000000
-1.86213398 0.73877519 -0.53679073 4 0 29164 2.07400000 3216180251 3216180251 -15.00000000
-4.05924082 1.61126614 0.07623211 3 1 29165 4.36800000 3216180253 3216180253 1.00000000
-2.16612411 0.86025423 -0.53808290 3 2 29166 2.39200000 3216180255 3216180255 -13.00000000
-4.12640715 1.63876081 0.23268566 7 3 29166 4.44600000 3216180258 3216180258 3.00000000
-2.54700685 1.01203263 -0.53273869 3 4 29167 2.79200000 3216180260 3216180260 -11.00000000
-5.25812054 2.09033442 0.49504462 2 5 29168 5.68000000 3216180262 3216180262 5.00000000
-3.05980229 1.21702468 -0.52155250 3 6 29169 3.33400000 3216180264 3216180264 -9.00000000
-3.83795881 1.52808523 -0.50722021 6 8 29171 4.16200000 3216180269 3216180269 -7.00000000
-5.12894535 2.04312944 -0.48301712 7 10 29172 5.54200000 3216180274 3216180274 -5.00000000
-9.86827469 3.93304992 2.06493497 28 11 29173 10.82200000 3216180276 3216180276 11.00000000
-4.10556316 1.63712299 -0.23163894 6 12 29174 4.42600000 3216180278 3216180278 -3.00000000
-3.97813702 1.58792067 -0.07476611 21 14 29176 4.28400000 3216180283 3216180283 -1.00000000
-8.21024704 3.27721763 2.36871195 45 15 29176 9.15200000 3216180285 3216180285 15.00000000
-1.86671662 0.74814552 -0.53886127 4 0 29184 2.08200000 3216180306 3216180306 -15.00000000
-4.06472778 1.62989116 0.07644154 3 1 29185 4.38000000 3216180308 3216180308 1.00000000
-2.15587354 0.86490780 -0.53628331 3 2 29186 2.38400000 3216180310 3216180310 -13.00000000
-4.12066174 1.65315473 0.23268566 7 3 29186 4.44600000 3216180313 3216180313 3.00000000
-2.53252673 1.01652932 -0.53044903 3 4 29187 2.78000000 3216180315 3216180315 -11.00000000
-5.27667618 2.11907101 0.49748498 3 5 29188 5.70800000 3216180317 3216180317 5.00000000
-3.05920124 1.22917092 -0.52217823 3 6 29189 3.33800000 3216180320 3216180320 -9.00000000
-3.81786752 1.53554702 -0.50527030 6 8 29191 4.14600000 3216180324 3216180324 -7.00000000
-5.12732744 2.06325173 -0.48354006 3 10 29192 5.54800000 3216180329 3216180329 -5.00000000
-9.86359119 3.97113895 2.06684303 25 11 29193 10.83200000 3216180331 3216180331 11.00000000
-4.09611797 1.64995158 -0.23142959 6 12 29194 4.42200000 3216180334 3216180334 -3.00000000
-3.97998834 1.60478842 -0.07490573 21 14 29196 4.29200000 3216180338 3216180338 -1.00000000
-8.20054913 3.30657911 2.36922956 47 15 29196 9.15400000 3216180340 3216180340 15.00000000
-1.87125647 0.75755674 -0.54093182 4 0 29204 2.09000000 3216180361 3216180361 -15.00000000
-4.07013416 1.64857411 0.07665097 3 1 29205 4.39200000 3216180363 3216180363 1.00000000
-2.15645337 0.87389171 -0.53718311 3 2 29206 2.38800000 3216180366 3216180366 -13.00000000
-4.13123322 1.67500055 0.23362771 5 3 29207 4.46400000 3216180368 3216180368 3.00000000
-2.52896309 1.02536321 -0.53044903 3 4 29207 2.78000000 3216180370 3216180370 -11.00000000
-5.29878712 2.14946008 0.50027394 3 5 29208 5.74000000 3216180373 3216180373 5.00000000
-3.06221366 1.24281347 -0.52342969 3 6 29209 3.34600000 3216180375 3216180375 -9.00000000
-3.84007096 1.56007195 -0.50892639 4 8 29211 4.17600000 3216180380 3216180380 -7.00000000
-5.13855124 2.08863902 -0.48528317 7 10 29212 5.56800000 3216180384 3216180384 -5.00000000
-9.87331200 4.01515961 2.07180405 28 11 29213 10.85800000 3216180387 3216180387 11.00000000
-4.07183409 1.65671265 -0.23038287 4 12 29214 4.40200000 3216180389 3216180389 -3.00000000
