# .PCD v0.7 - Point Cloud Data file format
VERSION 0.7
FIELDS x y z intensity laser_id azimuth distance_m adjustedtime timestamp vertical_angle
SIZE 4 4 4 1 1 2 8 8 4 8
TYPE F F F U U U F U U F
COUNT 1 1 1 1 1 1 1 1 1 1
WIDTH 527
HEIGHT 1
VIEWPOINT 0 0 0 1 0 0 0
POINTS 527
DATA ascii
-10.08802032 1.02826154 2.71708226 45 15 27582 10.49800000 3216875633 3216875633 15.00000000
-1.94471276 0.20062348 -0.52384973 4 0 27589 2.02400000 3216875654 3216875654 -15.00000000
-5.54561806 0.57308388 0.09731462 2 1 27590 5.57600000 3216875656 3216875656 1.00000000
-2.23495483 0.23135436 -0.51873714 4 2 27591 2.30600000 3216875658 3216875658 -13.00000000
-5.78510523 0.59885299 0.30480462 4 3 27591 5.82400000 3216875661 3216875661 3.00000000
-2.63235307 0.27295592 -0.51442105 3 4 27592 2.69600000 3216875663 3216875663 -11.00000000
-5.52505732 0.57388312 0.48598042 14 5 27593 5.57600000 3216875665 3216875665 5.00000000
-3.15345669 0.32810324 -0.50215465 3 6 27594 3.21000000 3216875667 3216875667 -9.00000000
-3.96057034 0.41347739 -0.48893979 6 8 27596 4.01200000 3216875672 3216875672 -7.00000000
-4.97773790 0.52054638 -0.43787044 3 10 27597 5.02400000 3216875677 3216875677 -5.00000000
-5.13472605 0.53877538 -0.27057689 2 12 27599 5.17000000 3216875681 3216875681 -3.00000000
-5.15671015 0.54290205 -0.09050818 2 14 27601 5.18600000 3216875686 3216875686 -1.00000000
-10.06534195 1.05968630 2.71190596 45 15 27601 10.47800000 3216875688 3216875688 15.00000000
-1.95360529 0.20843533 -0.52643794 4 0 27609 2.03400000 3216875709 3216875709 -15.00000000
-5.15783978 0.55121404 0.09054308 9 1 27610 5.18800000 3216875711 3216875711 1.00000000
-2.22638297 0.23832472 -0.51693749 4 2 27611 2.29800000 3216875713 3216875713 -13.00000000
-5.42750120 0.58099067 0.28606835 2 3 27611 5.46600000 3216875716 3216875716 3.00000000
-2.61576748 0.28046846 -0.51136810 3 4 27612 2.68000000 3216875718 3216875718 -11.00000000
-5.53094435 0.59401667 0.48667768 23 5 27613 5.58400000 3216875720 3216875720 5.00000000
-3.14443588 0.33826372 -0.50090313 3 6 27614 3.20200000 3216875723 3216875723 -9.00000000
-3.95120859 0.42644781 -0.48796484 4 8 27616 4.00400000 3216875727 3216875727 -7.00000000
-4.79563379 0.51843202 -0.42200810 5 10 27617 4.84200000 3216875732 3216875732 -5.00000000
-4.88262653 0.52956074 -0.25738823 2 12 27619 4.91800000 3216875737 3216875737 -3.00000000
-4.95996380 0.53970039 -0.08708750 2 14 27621 4.99000000 3216875741 3216875741 -1.00000000
-10.09807205 1.09878492 2.72174096 47 15 27621 10.51600000 3216875743 3216875743 15.00000000
-1.93170619 0.21326235 -0.52074391 4 0 27630 2.01200000 3216875764 3216875764 -15.00000000
-4.79801989 0.53055400 0.08426022 2 1 27631 4.82800000 3216875766 3216875766 1.00000000
-2.24873734 0.24905746 -0.52233636 4 2 27632 2.32200000 3216875769 3216875769 -13.00000000
-4.87536240 0.54082906 0.25707421 4 3 27633 4.91200000 3216875771 3216875771 3.00000000
-2.61081958 0.28962091 -0.51060486 3 4 27633 2.67600000 3216875773 3216875773 -11.00000000
-5.49704695 0.61076432 0.48388869 11 5 27634 5.55200000 3216875776 3216875776 5.00000000
-3.16280770 0.35197121 -0.50403184 3 6 27635 3.22200000 3216875778 3216875778 -9.00000000
-3.96540165 0.44268879 -0.48991477 4 8 27637 4.02000000 3216875783 3216875783 -7.00000000
-4.73825979 0.52980626 -0.41712737 5 10 27638 4.78600000 3216875787 3216875787 -5.00000000
-4.63453579 0.51984650 -0.24440892 2 12 27640 4.67000000 3216875792 3216875792 -3.00000000
-4.63007164 0.52098233 -0.08132821 1 14 27642 4.66000000 3216875796 3216875796 -1.00000000
-10.07650089 1.13560343 2.71708226 47 15 27643 10.49800000 3216875799 3216875799 15.00000000
-1.93095005 0.22000396 -0.52074391 4 0 27650 2.01200000 3216875819 3216875819 -15.00000000
-4.56765652 0.52122629 0.08024617 6 1 27651 4.59800000 3216875822 3216875822 1.00000000
-2.25172639 0.25734806 -0.52323616 4 2 27652 2.32600000 3216875824 3216875824 -13.00000000
-4.81004333 0.54973608 0.25372472 6 3 27652 4.84800000 3216875826 3216875826 3.00000000
-2.60979271 0.29873261 -0.51060486 3 4 27653 2.67600000 3216875829 3216875829 -11.00000000
-3.14978480 0.36165732 -0.50215465 3 6 27655 3.21000000 3216875833 3216875833 -9.00000000
-3.94016743 0.45380238 -0.48698989 3 8 27657 3.99600000 3216875838 3216875838 -7.00000000
-4.72450590 0.54497284 -0.41608152 5 10 27658 4.77400000 3216875843 3216875843 -5.00000000
-4.61880493 0.53441399 -0.24367622 2 12 27660 4.65600000 3216875847 3216875847 -3.00000000
-4.57856560 0.53137779 -0.08045559 1 14 27662 4.61000000 3216875852 3216875852 -1.00000000
-10.06863785 1.17032397 2.71604705 45 15 27663 10.49400000 3216875854 3216875854 15.00000000
-1.94555938 0.22820647 -0.52488500 4 0 27669 2.02800000 3216875875 3216875875 -15.00000000
-4.55795908 0.53543711 0.08010655 8 1 27670 4.59000000 3216875877 3216875877 1.00000000
-2.23537755 0.26299205 -0.51963693 4 2 27671 2.31000000 3216875879 3216875879 -13.00000000
-4.74075222 0.55774927 0.25016588 4 3 27671 4.78000000 3216875882 3216875882 3.00000000
-2.61268711 0.30784482 -0.51136810 3 4 27672 2.68000000 3216875884 3216875884 -11.00000000
-3.15052986 0.37233225 -0.50246751 3 6 27674 3.21200000 3216875889 3216875889 -9.00000000
-3.97018170 0.47060463 -0.49088973 4 8 27676 4.02800000 3216875893 3216875893 -7.00000000
-4.70882320 0.55899274 -0.41486132 8 10 27677 4.76000000 3216875898 3216875898 -5.00000000
-4.58527565 0.54594934 -0.24200146 4 12 27679 4.62400000 3216875902 3216875902 -3.00000000
-4.50926828 0.53849596 -0.07926883 5 14 27681 4.54200000 3216875907 3216875907 -1.00000000
-10.06470108 1.20370638 2.71604705 47 15 27682 10.49400000 3216875909 3216875909 15.00000000
-1.95242262 0.23592335 -0.52695560 4 0 27689 2.03600000 3216875930 3216875930 -15.00000000
-4.54216576 0.54966247 0.07986221 6 1 27690 4.57600000 3216875932 3216875932 1.00000000
-2.22670746 0.26985556 -0.51783735 4 2 27691 2.30200000 3216875935 3216875935 -13.00000000
-4.70110416 0.56972867 0.24817711 4 3 27691 4.74200000 3216875937 3216875937 3.00000000
-2.61939240 0.31790909 -0.51289457 3 4 27692 2.68800000 3216875939 3216875939 -11.00000000
-5.34410620 0.64954728 0.47098964 5 5 27693 5.40400000 3216875942 3216875942 5.00000000
-3.17470288 0.38643026 -0.50653481 3 6 27694 3.23800000 3216875944 3216875944 -9.00000000
-3.95669198 0.48301700 -0.48942727 4 8 27696 4.01600000 3216875949 3216875949 -7.00000000
-4.71079874 0.57590973 -0.41520995 5 10 27697 4.76400000 3216875953 3216875953 -5.00000000
-4.58928919 0.56268078 -0.24231547 4 12 27699 4.63000000 3216875958 3216875958 -3.00000000
-4.49148321 0.55228055 -0.07898960 5 14 27701 4.52600000 3216875962 3216875962 -1.00000000
-10.07194233 1.24024796 2.71915293 45 15 27702 10.50600000 3216875965 3216875965 15.00000000
-1.94967008 0.24249870 -0.52643794 4 0 27709 2.03400000 3216875985 3216875985 -15.00000000
-4.51839113 0.56279540 0.07947826 2 1 27710 4.55400000 3216875988 3216875988 1.00000000
-2.23348713 0.27859139 -0.51963693 4 2 27711 2.31000000 3216875990 3216875990 -13.00000000
-4.62575674 0.57698834 0.24430424 2 3 27711 4.66800000 3216875992 3216875992 3.00000000
-2.61437058 0.32656386 -0.51213133 3 4 27712 2.68400000 3216875995 3216875995 -11.00000000
-5.25284243 0.65706933 0.46314561 2 5 27713 5.31400000 3216875997 3216875997 5.00000000
-3.14589381 0.39407229 -0.50215465 3 6 27714 3.21000000 3216875999 3216875999 -9.00000000
-3.95498180 0.49682549 -0.48942727 4 8 27716 4.01600000 3216876004 3216876004 -7.00000000
-4.72457409 0.59433943 -0.41660446 8 10 27717 4.78000000 3216876008 3216876008 -5.00000000
-4.44786644 0.56268495 -0.07825659 1 14 27721 4.48400000 3216876018 3216876018 -1.00000000
-10.06394100 1.27315605 2.71811771 47 15 27721 10.50200000 3216876020 3216876020 15.00000000
-1.93731427 0.24783202 -0.52333212 4 0 27729 2.02200000 3216876041 3216876041 -15.00000000
-4.44896078 0.56992501 0.07829150 4 1 27730 4.48600000 3216876043 3216876043 1.00000000
-2.23636675 0.28688192 -0.52053672 4 2 27731 2.31400000 3216876045 3216876045 -13.00000000
-4.56428337 0.58550793 0.24116409 1 3 27731 4.60800000 3216876048 3216876048 3.00000000
-2.61321473 0.33568773 -0.51213133 3 4 27732 2.68400000 3216876050 3216876050 -11.00000000
-5.20506620 0.66955465 0.45913646 7 5 27733 5.26800000 3216876052 3216876052 5.00000000
-3.15625429 0.40656534 -0.50403184 3 6 27734 3.22200000 3216876054 3216876054 -9.00000000
-6.35128784 0.81925291 0.78630102 2 7 27735 6.45200000 3216876057 3216876057 7.00000000
-3.95322347 0.51062793 -0.48942727 4 8 27736 4.01600000 3216876059 3216876059 -7.00000000
-4.72642279 0.61133879 -0.41695309 5 10 27737 4.78400000 3216876064 3216876064 -5.00000000
-4.37250471 0.56866521 -0.07696512 1 14 27741 4.41000000 3216876073 3216876073 -1.00000000
-10.05920696 1.31003368 2.71811771 42 15 27742 10.50200000 3216876075 3216876075 15.00000000
-1.93452203 0.25434119 -0.52281445 4 0 27749 2.02000000 3216876096 3216876096 -15.00000000
-4.40134478 0.57944804 0.07748868 3 1 27750 4.44000000 3216876098 3216876098 1.00000000
-2.24307990 0.29570535 -0.52233636 4 2 27751 2.32200000 3216876101 3216876101 -13.00000000
-4.50666475 0.59491414 0.23823327 1 3 27752 4.55200000 3216876103 3216876103 3.00000000
-2.61591983 0.34532136 -0.51289457 3 4 27752 2.68800000 3216876105 3216876105 -11.00000000
-5.12763929 0.67779809 0.45251262 7 5 27753 5.19200000 3216876107 3216876107 5.00000000
-3.14698267 0.41654342 -0.50278038 3 6 27754 3.21400000 3216876110 3216876110 -9.00000000
-5.63208008 0.74647814 0.69758010 2 7 27755 5.72400000 3216876112 3216876112 7.00000000
-3.93370652 0.52207363 -0.48723364 3 8 27756 3.99800000 3216876114 3216876114 -7.00000000
-4.71240950 0.62625855 -0.41590720 5 10 27757 4.77200000 3216876119 3216876119 -5.00000000
-4.32688713 0.57809865 -0.07619721 1 14 27761 4.36600000 3216876128 3216876128 -1.00000000
-10.04331875 1.34184897 2.71501184 45 15 27761 10.49000000 3216876131 3216876131 15.00000000
-1.94510937 0.26264343 -0.52592027 4 0 27769 2.03200000 3216876151 3216876151 -15.00000000
-4.34380865 0.58730596 0.07651135 3 1 27770 4.38400000 3216876154 3216876154 1.00000000
-2.24203396 0.30353335 -0.52233636 4 2 27771 2.32200000 3216876156 3216876156 -13.00000000
-4.45508146 0.60393429 0.23561648 3 3 27772 4.50200000 3216876158 3216876158 3.00000000
-2.60497117 0.35313189 -0.51098651 3 4 27772 2.67800000 3216876160 3216876160 -11.00000000
-5.10155106 0.69247693 0.45042089 10 5 27773 5.16800000 3216876163 3216876163 5.00000000
-3.14159465 0.42699382 -0.50215465 3 6 27774 3.21000000 3216876165 3216876165 -9.00000000
-5.58420038 0.75997627 0.69197410 2 7 27775 5.67800000 3216876167 3216876167 7.00000000
-3.96136379 0.53982216 -0.49088973 4 8 27776 4.02800000 3216876170 3216876170 -7.00000000
-4.70624685 0.64216536 -0.41555858 8 10 27777 4.76800000 3216876174 3216876174 -5.00000000
-4.29512548 0.58912277 -0.07567363 3 14 27781 4.33600000 3216876184 3216876184 -1.00000000
-10.04216099 1.37917626 2.71604705 47 15 27782 10.49400000 3216876186 3216876186 15.00000000
-1.94418073 0.26943150 -0.52592027 4 0 27789 2.03200000 3216876207 3216876207 -15.00000000
-4.31004047 0.59806758 0.07595287 3 1 27790 4.35200000 3216876209 3216876209 1.00000000
-2.22937965 0.30974859 -0.51963693 4 2 27791 2.31000000 3216876211 3216876211 -13.00000000
-4.39953470 0.61205125 0.23279034 5 3 27792 4.44800000 3216876213 3216876213 3.00000000
-2.62122345 0.36465743 -0.51442105 3 4 27792 2.69600000 3216876216 3216876216 -11.00000000
-5.06160927 0.70505780 0.44710895 10 5 27793 5.13000000 3216876218 3216876218 5.00000000
-3.15964937 0.44068614 -0.50528330 3 6 27794 3.23000000 3216876220 3216876220 -9.00000000
-5.59527540 0.78138608 0.69368029 2 7 27795 5.69200000 3216876223 3216876223 7.00000000
-3.94962549 0.55227214 -0.48967102 6 8 27796 4.01800000 3216876225 3216876225 -7.00000000
-4.71186924 0.65969431 -0.41625583 5 10 27797 4.77600000 3216876230 3216876230 -5.00000000
-4.36911583 0.61326158 -0.23122026 2 12 27799 4.41800000 3216876234 3216876234 -3.00000000
-4.25145912 0.59826028 -0.07494064 5 14 27801 4.29400000 3216876239 3216876239 -1.00000000
-10.03944492 1.41273892 2.71656466 47 15 27801 10.49600000 3216876241 3216876241 15.00000000
-1.94705355 0.27676007 -0.52695560 4 0 27809 2.03600000 3216876262 3216876262 -15.00000000
-4.27625084 0.60860062 0.07539440 5 1 27810 4.32000000 3216876264 3216876264 1.00000000
-2.23600173 0.31862834 -0.52143657 4 2 27811 2.31800000 3216876266 3216876266 -13.00000000
-4.34794044 0.62035209 0.23017353 5 3 27812 4.39800000 3216876269 3216876269 3.00000000
-2.61604738 0.37325040 -0.51365781 3 4 27812 2.69200000 3216876271 3216876271 -11.00000000
-5.04136610 0.72018594 0.44554016 10 5 27813 5.11200000 3216876273 3216876273 5.00000000
-3.15809178 0.45171267 -0.50528330 3 6 27814 3.23000000 3216876276 3216876276 -9.00000000
-5.55321312 0.79528409 0.68880552 2 7 27815 5.65200000 3216876278 3216876278 7.00000000
-3.95553374 0.56718254 -0.49064597 6 8 27816 4.02600000 3216876280 3216876280 -7.00000000
-4.70164919 0.67500526 -0.41555858 5 10 27817 4.76800000 3216876285 3216876285 -5.00000000
-4.33334112 0.62367201 -0.22944084 2 12 27819 4.38400000 3216876289 3216876289 -3.00000000
-4.21371937 0.60795695 -0.07431234 5 14 27821 4.25800000 3216876294 3216876294 -1.00000000
-10.03611183 1.44980204 2.71708226 45 15 27822 10.49800000 3216876296 3216876296 15.00000000
-1.94416404 0.28327632 -0.52643794 5 0 27829 2.03400000 3216876317 3216876317 -15.00000000
-4.24441910 0.61919379 0.07487082 5 1 27830 4.29000000 3216876319 3216876319 1.00000000
-2.23873258 0.32699481 -0.52233636 4 2 27831 2.32200000 3216876322 3216876322 -13.00000000
-4.31808138 0.63147938 0.22870813 5 3 27832 4.37000000 3216876324 3216876324 3.00000000
-2.60695815 0.38124347 -0.51213133 3 4 27832 2.68400000 3216876326 3216876326 -11.00000000
-5.01122189 0.73373818 0.44309980 10 5 27833 5.08400000 3216876329 3216876329 5.00000000
-3.16040492 0.46330678 -0.50590909 3 6 27834 3.23400000 3216876331 3216876331 -9.00000000
-5.59754038 0.82158220 0.69465524 2 7 27835 5.70000000 3216876333 3216876333 7.00000000
-3.94567370 0.57983202 -0.48967102 6 8 27836 4.01800000 3216876336 3216876336 -7.00000000
-4.71109104 0.69315308 -0.41660446 5 10 27837 4.78000000 3216876340 3216876340 -5.00000000
-4.30347538 0.63471448 -0.22797543 4 12 27839 4.35600000 3216876345 3216876345 -3.00000000
-4.19376755 0.62002969 -0.07399821 5 14 27841 4.24000000 3216876349 3216876349 -1.00000000
-10.02742672 1.48250985 2.71604705 47 15 27841 10.49400000 3216876352 3216876352 15.00000000
-1.92978859 0.28806451 -0.52281445 5 0 27849 2.02000000 3216876372 3216876372 -15.00000000
-4.22047663 0.63075447 0.07448687 7 1 27850 4.26800000 3216876375 3216876375 1.00000000
-2.23372293 0.33423069 -0.52143657 4 2 27851 2.31800000 3216876377 3216876377 -13.00000000
-4.29807377 0.64388531 0.22776608 5 3 27852 4.35200000 3216876379 3216876379 3.00000000
-2.60561156 0.39034113 -0.51213133 3 4 27852 2.68400000 3216876382 3216876382 -11.00000000
-4.99286747 0.74886191 0.44170532 9 5 27853 5.06800000 3216876384 3216876384 5.00000000
-3.15095448 0.47316244 -0.50465757 3 6 27854 3.22600000 3216876386 3216876386 -9.00000000
-5.59463835 0.84111625 0.69465524 2 7 27855 5.70000000 3216876389 3216876389 7.00000000
-3.95147753 0.59478337 -0.49064597 6 8 27856 4.02600000 3216876391 3216876391 -7.00000000
-4.74410534 0.71493787 -0.41974205 5 10 27857 4.81600000 3216876395 3216876395 -5.00000000
-4.27358580 0.64555615 -0.22651002 4 12 27859 4.32800000 3216876400 3216876400 -3.00000000
-4.17773771 0.63256925 -0.07375387 7 14 27861 4.22600000 3216876405 3216876405 -1.00000000
-10.02192593 1.51925230 2.71604705 45 15 27862 10.49400000 3216876407 3216876407 15.00000000
-1.94219077 0.29650316 -0.52643794 5 0 27868 2.03400000 3216876428 3216876428 -15.00000000
-4.20452499 0.64263171 0.07424254 7 1 27869 4.25400000 3216876430 3216876430 1.00000000
-2.22104430 0.33986753 -0.51873714 4 2 27870 2.30600000 3216876432 3216876432 -13.00000000
-4.28999233 0.65722734 0.22745207 7 3 27871 4.34600000 3216876435 3216876435 3.00000000
-2.61206532 0.40016872 -0.51365781 3 4 27871 2.69200000 3216876437 3216876437 -11.00000000
-4.96475506 0.76148796 0.43943927 9 5 27872 5.04200000 3216876439 3216876439 5.00000000
-3.15327311 0.48420843 -0.50528330 3 6 27873 3.23000000 3216876442 3216876442 -9.00000000
-5.59181833 0.85966408 0.69465524 2 7 27874 5.70000000 3216876444 3216876444 7.00000000
-3.95340753 0.60848761 -0.49113345 6 8 27875 4.03000000 3216876446 3216876446 -7.00000000
-5.22218084 0.80470353 -0.46227404 9 10 27876 5.30400000 3216876451 3216876451 -5.00000000
-4.25365686 0.65698057 -0.22556797 6 12 27878 4.31000000 3216876455 3216876455 -3.00000000
-4.17759323 0.64672559 -0.07378878 12 14 27880 4.22800000 3216876460 3216876460 -1.00000000
-10.01710320 1.55072951 2.71604705 47 15 27880 10.49400000 3216876462 3216876462 15.00000000
-1.94305265 0.30357906 -0.52695560 4 0 27888 2.03600000 3216876483 3216876483 -15.00000000
-4.19040203 0.65545017 0.07403311 7 1 27889 4.24200000 3216876485 3216876485 1.00000000
-2.22369504 0.34822133 -0.51963693 4 2 27890 2.31000000 3216876488 3216876488 -13.00000000
-4.28569889 0.67188889 0.22734739 16 3 27891 4.34400000 3216876490 3216876490 3.00000000
-2.61647105 0.41019630 -0.51480269 3 4 27891 2.69800000 3216876492 3216876492 -11.00000000
-4.95222521 0.77726895 0.43856770 9 5 27892 5.03200000 3216876495 3216876495 5.00000000
-3.13985515 0.49337265 -0.50340611 3 6 27893 3.21800000 3216876497 3216876497 -9.00000000
-5.58878326 0.87917793 0.69465524 2 7 27894 5.70000000 3216876499 3216876499 7.00000000
-3.94929838 0.62197506 -0.49088973 4 8 27895 4.02800000 3216876501 3216876501 -7.00000000
-5.22918034 0.82447898 -0.46314561 9 10 27896 5.31400000 3216876506 3216876506 -5.00000000
-4.21977329 0.66683656 -0.22389323 8 12 27898 4.27800000 3216876511 3216876511 -3.00000000
-4.16740990 0.66005290 -0.07364915 15 14 27900 4.22000000 3216876515 3216876515 -1.00000000
-10.01516819 1.58803868 2.71708226 45 15 27901 10.49800000 3216876518 3216876518 15.00000000
-1.94388878 0.31066462 -0.52747321 5 0 27908 2.03800000 3216876538 3216876538 -15.00000000
-4.19993591 0.67196894 0.07424254 7 1 27909 4.25400000 3216876541 3216876541 1.00000000
-2.22823858 0.35690600 -0.52098662 4 2 27910 2.31600000 3216876543 3216876543 -13.00000000
-4.27346706 0.68526351 0.22682403 16 3 27911 4.33400000 3216876545 3216876545 3.00000000
-2.60726929 0.41808364 -0.51327622 3 4 27911 2.69000000 3216876548 3216876548 -11.00000000
-4.93964577 0.79297167 0.43769613 9 5 27912 5.02200000 3216876550 3216876550 5.00000000
-3.14981580 0.50621045 -0.50528330 3 6 27913 3.23000000 3216876552 3216876552 -9.00000000
-5.58568048 0.89868110 0.69465524 2 7 27914 5.70000000 3216876554 3216876554 7.00000000
-3.92750502 0.63260019 -0.48845232 4 8 27915 4.00800000 3216876557 3216876557 -7.00000000
-5.24397326 0.84558177 -0.46471441 9 10 27916 5.33200000 3216876561 3216876561 -5.00000000
-4.20953274 0.68028772 -0.22347453 8 12 27918 4.27000000 3216876566 3216876566 -3.00000000
-4.14534092 0.67139870 -0.07330011 19 14 27920 4.20000000 3216876571 3216876571 -1.00000000
-10.01366138 1.62185919 2.71811771 45 15 27920 10.50200000 3216876573 3216876573 15.00000000
-1.94088590 0.31713665 -0.52695560 4 0 27928 2.03600000 3216876594 3216876594 -15.00000000
-4.19559145 0.68630254 0.07420763 7 1 27929 4.25200000 3216876596 3216876596 1.00000000
-2.23659468 0.36625645 -0.52323616 4 2 27930 2.32600000 3216876598 3216876598 -13.00000000
-4.25922346 0.69823790 0.22619601 5 3 27931 4.32200000 3216876601 3216876601 3.00000000
-2.60385680 0.42686453 -0.51289457 3 4 27931 2.68800000 3216876603 3216876603 -11.00000000
-4.91128874 0.80601478 0.43543008 9 5 27932 4.99600000 3216876605 3216876605 5.00000000
-3.14413118 0.51656175 -0.50465757 3 6 27933 3.22600000 3216876607 3216876607 -9.00000000
-5.58250952 0.91817325 0.69465524 2 7 27934 5.70000000 3216876610 3216876610 7.00000000
-3.93702507 0.64824092 -0.48991477 4 8 27935 4.02000000 3216876612 3216876612 -7.00000000
-5.24295568 0.86420554 -0.46488872 9 10 27936 5.33400000 3216876617 3216876617 -5.00000000
-4.21501493 0.69627964 -0.22389323 8 12 27938 4.27800000 3216876621 3216876621 -3.00000000
-4.12718916 0.68325174 -0.07302087 26 14 27940 4.18400000 3216876626 3216876626 -1.00000000
-10.00031567 1.65554142 2.71604705 45 15 27940 10.49400000 3216876628 3216876628 15.00000000
-1.92637265 0.32201859 -0.52333212 4 0 27949 2.02200000 3216876649 3216876649 -15.00000000
-4.20488119 0.70365578 0.07441706 7 1 27950 4.26400000 3216876651 3216876651 1.00000000
-2.23523736 0.37445152 -0.52323616 4 2 27951 2.32600000 3216876654 3216876654 -13.00000000
-4.28027248 0.71780801 0.22745207 9 3 27952 4.34600000 3216876656 3216876656 3.00000000
-2.60227466 0.43640530 -0.51289457 3 4 27952 2.68800000 3216876658 3216876658 -11.00000000
-4.89651203 0.82203096 0.43438423 9 5 27953 4.98400000 3216876660 3216876660 5.00000000
-3.14221668 0.52808213 -0.50465757 3 6 27954 3.22600000 3216876663 3216876663 -9.00000000
-3.93658042 0.66299617 -0.49015850 6 8 27956 4.02200000 3216876667 3216876667 -7.00000000
-5.23385906 0.88242239 -0.46436581 9 10 27957 5.32800000 3216876672 3216876672 -5.00000000
-4.20061827 0.70972735 -0.22326519 14 12 27959 4.26600000 3216876677 3216876677 -3.00000000
-4.12860060 0.69904172 -0.07309068 31 14 27961 4.18800000 3216876681 3216876681 -1.00000000
-9.97513294 1.68895829 2.71087074 45 15 27961 10.47400000 3216876683 3216876683 15.00000000
-1.93666255 0.33069193 -0.52643794 4 0 27969 2.03400000 3216876704 3216876704 -15.00000000
-4.20239925 0.71832931 0.07441706 5 1 27970 4.26400000 3216876707 3216876707 1.00000000
-2.23007512 0.38159430 -0.52233636 4 2 27971 2.32200000 3216876709 3216876709 -13.00000000
-4.30136395 0.73679101 0.22870813 13 3 27972 4.37000000 3216876711 3216876711 3.00000000
-2.60847569 0.44681212 -0.51442105 3 4 27972 2.69600000 3216876713 3216876713 -11.00000000
-4.88183069 0.83709764 0.43333834 9 5 27973 4.97200000 3216876716 3216876716 5.00000000
-3.14424801 0.53971565 -0.50528330 3 6 27974 3.23000000 3216876718 3216876718 -9.00000000
-3.94206738 0.67807943 -0.49113345 6 8 27976 4.03000000 3216876723 3216876723 -7.00000000
-5.22878313 0.90034848 -0.46419150 9 10 27977 5.32600000 3216876727 3216876727 -5.00000000
-4.19614744 0.72404629 -0.22316052 24 12 27979 4.26400000 3216876732 3216876732 -3.00000000
-4.12613535 0.71344894 -0.07309068 35 14 27981 4.18800000 3216876736 3216876736 -1.00000000
-9.97458649 1.72649610 2.71242356 42 15 27982 10.48000000 3216876739 3216876739 15.00000000
-1.93174887 0.33644935 -0.52540267 4 0 27988 2.03000000 3216876760 3216876760 -15.00000000
-4.19605446 0.73157406 0.07434725 5 1 27989 4.26000000 3216876762 3216876762 1.00000000
-2.21727896 0.38697714 -0.51963693 4 2 27990 2.31000000 3216876764 3216876764 -13.00000000
-4.25954771 0.74417621 0.22661468 7 3 27991 4.33000000 3216876766 3216876766 3.00000000
-2.60311174 0.45478392 -0.51365781 3 4 27991 2.69200000 3216876769 3216876769 -11.00000000
-4.88491583 0.85431147 0.43386129 9 5 27992 4.97800000 3216876771 3216876771 5.00000000
-3.13076639 0.54809552 -0.50340611 3 6 27993 3.21800000 3216876773 3216876773 -9.00000000
-7.13682365 1.25071001 0.88964623 2 7 27994 7.30000000 3216876776 3216876776 7.00000000
-3.94370770 0.69183409 -0.49162093 6 8 27995 4.03400000 3216876778 3216876778 -7.00000000
-5.22380638 0.91733819 -0.46401718 9 10 27996 5.32400000 3216876783 3216876783 -5.00000000
-4.17208576 0.73414975 -0.22200912 22 12 27998 4.24200000 3216876787 3216876787 -3.00000000
-4.12177753 0.72678053 -0.07305577 47 14 28000 4.18600000 3216876792 3216876792 -1.00000000
-9.96721077 1.75748813 2.71190596 47 15 28000 10.47800000 3216876794 3216876794 15.00000000
-1.94768107 0.34623343 -0.53006142 4 0 28008 2.04800000 3216876815 3216876815 -15.00000000
-4.19741249 0.74691725 0.07441706 5 1 28009 4.26400000 3216876817 3216876817 1.00000000
-4.12486267 0.73474997 -0.96728951 5 2 28010 4.30000000 3216876819 3216876819 -13.00000000
-4.26675558 0.76079327 0.22713806 9 3 28011 4.34000000 3216876822 3216876822 3.00000000
-2.60150838 0.46386772 -0.51365781 3 4 28011 2.69200000 3216876824 3216876824 -11.00000000
-4.87013531 0.86925727 0.43281543 9 5 28012 4.96600000 3216876826 3216876826 5.00000000
-3.14827991 0.56249493 -0.50653481 3 6 28013 3.23800000 3216876829 3216876829 -9.00000000
-3.91195846 0.70034862 -0.48796484 4 8 28015 4.00400000 3216876833 3216876833 -7.00000000
-5.25979567 0.94259614 -0.46750340 9 10 28016 5.36400000 3216876838 3216876838 -5.00000000
-4.16360044 0.74764961 -0.22169511 28 12 28018 4.23600000 3216876842 3216876842 -3.00000000
-4.10740662 0.73903912 -0.07284635 59 14 28020 4.17400000 3216876847 3216876847 -1.00000000
-9.95150852 1.79055893 2.70931768 42 15 28020 10.46800000 3216876849 3216876849 15.00000000
-1.93505549 0.35096148 -0.52695560 4 0 28028 2.03600000 3216876870 3216876870 -15.00000000
-4.19477987 0.76156443 0.07441706 5 1 28029 4.26400000 3216876872 3216876872 1.00000000
-4.11460352 0.74775022 -0.96548992 5 2 28030 4.29200000 3216876875 3216876875 -13.00000000
-4.27206945 0.77636659 0.22755674 11 3 28030 4.34800000 3216876877 3216876877 3.00000000
-2.59214711 0.47154036 -0.51213133 3 4 28031 2.68400000 3216876879 3216876879 -11.00000000
-4.86315107 0.88553810 0.43246680 9 5 28032 4.96200000 3216876882 3216876882 5.00000000
-3.14629722 0.57348108 -0.50653481 3 6 28033 3.23800000 3216876884 3216876884 -9.00000000
-3.92315936 0.71649611 -0.48967102 4 8 28035 4.01800000 3216876888 3216876888 -7.00000000
-5.24275398 0.95844245 -0.46628323 9 10 28036 5.35000000 3216876893 3216876893 -5.00000000
-4.16489410 0.76289845 -0.22190446 30 12 28038 4.24000000 3216876898 3216876898 -3.00000000
-9.78902912 1.79485703 2.29765010 5 13 28039 10.21400000 3216876900 3216876900 13.00000000
-4.10283518 0.75301117 -0.07281144 64 14 28040 4.17200000 3216876902 3216876902 -1.00000000
-9.94709778 1.82563400 2.70983529 45 15 28040 10.47000000 3216876905 3216876905 15.00000000
-1.92622018 0.35630837 -0.52488500 4 0 28048 2.02800000 3216876925 3216876925 -15.00000000
-4.18816328 0.77547413 0.07434725 5 1 28049 4.26000000 3216876928 3216876928 1.00000000
-4.12154913 0.76388395 -0.96773946 5 2 28050 4.30200000 3216876930 3216876930 -13.00000000
-4.25937653 0.79019773 0.22703338 7 3 28051 4.33800000 3216876932 3216876932 3.00000000
-2.60206723 0.48273444 -0.51442105 3 4 28051 2.69600000 3216876935 3216876935 -11.00000000
-4.84044123 0.89887059 0.43072367 9 5 28052 4.94200000 3216876937 3216876937 5.00000000
-3.14039207 0.58373821 -0.50590909 3 6 28053 3.23400000 3216876939 3216876939 -9.00000000
-3.95381045 0.73636490 -0.49381459 4 8 28055 4.05200000 3216876944 3216876944 -7.00000000
-5.22370720 0.97381616 -0.46488872 9 10 28056 5.33400000 3216876948 3216876948 -5.00000000
-4.17005920 0.77889884 -0.22232315 26 12 28058 4.24800000 3216876953 3216876953 -3.00000000
-9.74439335 1.82185340 2.28865194 3 13 28059 10.17400000 3216876955 3216876955 13.00000000
-4.09821606 0.76696032 -0.07277653 78 14 28060 4.17000000 3216876958 3216876958 -1.00000000
-9.93654156 1.86136830 2.70880008 45 15 28061 10.46600000 3216876960 3216876960 15.00000000
-1.93059623 0.36444098 -0.52643794 4 0 28069 2.03400000 3216876981 3216876981 -15.00000000
-4.19315290 0.79230440 0.07448687 5 1 28070 4.26800000 3216876983 3216876983 1.00000000
-4.11489201 0.77826077 -0.96683961 5 2 28071 4.29800000 3216876985 3216876985 -13.00000000
-4.25659227 0.80506092 0.22703338 5 3 28071 4.33800000 3216876988 3216876988 3.00000000
-2.59642267 0.49153787 -0.51365781 3 4 28072 2.69200000 3216876990 3216876990 -11.00000000
-4.84102964 0.91734755 0.43107229 9 5 28073 4.94600000 3216876992 3216876992 5.00000000
-3.12658668 0.59303570 -0.50403184 3 6 28074 3.22200000 3216876994 3216876994 -9.00000000
-3.94523454 0.74973959 -0.49308336 6 8 28076 4.04600000 3216876999 3216876999 -7.00000000
-5.23184681 0.99518931 -0.46593460 9 10 28077 5.34600000 3216877004 3216877004 -5.00000000
-4.15540457 0.79193419 -0.22169511 28 12 28079 4.23600000 3216877008 3216877008 -3.00000000
-4.10716295 0.78422618 -0.07298596 77 14 28081 4.18200000 3216877013 3216877013 -1.00000000
-9.92998409 1.89604199 2.70880008 45 15 28081 10.46600000 3216877015 3216877015 15.00000000
-1.92362118 0.37008289 -0.52488500 4 0 28089 2.02800000 3216877036 3216877036 -15.00000000
-4.16483450 0.80202073 0.07403311 5 1 28090 4.24200000 3216877038 3216877038 1.00000000
-4.08918810 0.78819370 -0.96144080 5 2 28091 4.27400000 3216877040 3216877040 -13.00000000
-4.24591160 0.81840223 0.22661468 5 3 28091 4.33000000 3216877043 3216877043 3.00000000
-2.60625720 0.50282961 -0.51594752 3 4 28092 2.70400000 3216877045 3216877045 -11.00000000
-4.83975410 0.93461806 0.43124661 9 5 28093 4.94800000 3216877047 3216877047 5.00000000
-3.12449765 0.60394591 -0.50403184 3 6 28094 3.22200000 3216877050 3216877050 -9.00000000
-3.94259334 0.76350647 -0.49308336 6 8 28096 4.04600000 3216877054 3216877054 -7.00000000
-5.24398899 1.01647890 -0.46732908 9 10 28097 5.36200000 3216877059 3216877059 -5.00000000
-4.14673281 0.80529219 -0.22138110 34 12 28099 4.23000000 3216877064 3216877064 -3.00000000
-4.10047436 0.79779422 -0.07291616 82 14 28101 4.17800000 3216877068 3216877068 -1.00000000
-9.91761589 1.92958570 2.70724726 42 15 28101 10.46000000 3216877070 3216877070 15.00000000
-1.93375838 0.37868738 -0.52799088 4 0 28108 2.04000000 3216877091 3216877091 -15.00000000
-4.17981291 0.81928915 0.07434725 5 1 28109 4.26000000 3216877093 3216877093 1.00000000
-4.09037638 0.80249995 -0.96234059 5 2 28110 4.27800000 3216877096 3216877096 -13.00000000
-4.20579195 0.82590592 0.22462593 7 3 28111 4.29200000 3216877098 3216877098 3.00000000
-2.60072255 0.51071286 -0.51518428 3 4 28111 2.70000000 3216877100 3216877100 -11.00000000
-4.84835815 0.95296770 0.43229249 9 5 28112 4.96000000 3216877103 3216877103 5.00000000
-3.13410711 0.61659169 -0.50590909 3 6 28113 3.23400000 3216877105 3216877105 -9.00000000
-3.93224931 0.77504086 -0.49210840 6 8 28115 4.03800000 3216877110 3216877110 -7.00000000
-5.23667955 1.03309178 -0.46698046 9 10 28116 5.35800000 3216877114 3216877114 -5.00000000
-4.14208031 0.81865156 -0.22127642 34 12 28118 4.22800000 3216877119 3216877119 -3.00000000
-4.08996010 0.80983388 -0.07277653 87 14 28120 4.17000000 3216877123 3216877123 -1.00000000
-9.20209217 1.82373250 2.51365066 33 15 28121 9.71200000 3216877126 3216877126 15.00000000
-1.92484665 0.38392362 -0.52592027 4 0 28128 2.03200000 3216877146 3216877146 -15.00000000
-4.20045996 0.83857232 0.07476611 5 1 28129 4.28400000 3216877149 3216877149 1.00000000
-4.08755016 0.81677312 -0.96234059 8 2 28130 4.27800000 3216877151 3216877151 -13.00000000
-4.20890570 0.84102237 0.22493994 15 3 28130 4.29800000 3216877153 3216877153 3.00000000
-2.59507370 0.51901793 -0.51442105 3 4 28131 2.69600000 3216877156 3216877156 -11.00000000
-4.85867739 0.97262341 0.43351266 9 5 28132 4.97400000 3216877158 3216877158 5.00000000
-3.14355683 0.62985653 -0.50778627 3 6 28133 3.24600000 3216877160 3216877160 -9.00000000
-3.92951989 0.78876227 -0.49210840 6 8 28135 4.03800000 3216877165 3216877165 -7.00000000
-5.23890162 1.05254233 -0.46750340 9 10 28136 5.36400000 3216877170 3216877170 -5.00000000
-4.13723946 0.83271104 -0.22117175 32 12 28138 4.22600000 3216877174 3216877174 -3.00000000
-4.07926702 0.82252455 -0.07263692 92 14 28140 4.16200000 3216877179 3216877179 -1.00000000
-9.89064789 1.99610090 2.70362377 42 15 28141 10.44600000 3216877181 3216877181 15.00000000
-1.92349470 0.39064026 -0.52592027 4 0 28148 2.03200000 3216877202 3216877202 -15.00000000
-4.17399168 0.84844959 0.07434725 5 1 28149 4.26000000 3216877204 3216877204 1.00000000
-4.09040308 0.83220190 -0.96369034 6 2 28150 4.28400000 3216877206 3216877206 -13.00000000
-4.20007277 0.85451448 0.22462593 17 3 28150 4.29200000 3216877209 3216877209 3.00000000
-2.59709382 0.52885675 -0.51518428 3 4 28151 2.70000000 3216877211 3216877211 -11.00000000
-4.86501408 0.99156690 0.43438423 9 5 28152 4.98400000 3216877213 3216877213 5.00000000
-3.12972593 0.63845670 -0.50590909 3 6 28153 3.23400000 3216877216 3216877216 -9.00000000
-3.93452239 0.80406392 -0.49308336 6 8 28155 4.04600000 3216877220 3216877220 -7.00000000
-5.21958017 1.06762898 -0.46610892 9 10 28156 5.34800000 3216877225 3216877225 -5.00000000
-4.13822079 0.84794950 -0.22138110 22 12 28158 4.23000000 3216877229 3216877229 -3.00000000
-4.07049465 0.83555257 -0.07253220 100 14 28160 4.15600000 3216877234 3216877234 -1.00000000
-8.60819244 1.76857388 2.35473561 11 15 28161 9.09800000 3216877236 3216877236 15.00000000
-1.92211938 0.39735213 -0.52592027 4 0 28168 2.03200000 3216877257 3216877257 -15.00000000
-4.15925503 0.86058331 0.07413782 5 1 28169 4.24800000 3216877259 3216877259 1.00000000
-4.08365679 0.84568465 -0.96279049 5 2 28170 4.28000000 3216877262 3216877262 -13.00000000
-4.18924141 0.86755019 0.22420724 15 3 28170 4.28400000 3216877264 3216877264 3.00000000
-2.60292149 0.53951293 -0.51671076 3 4 28171 2.70800000 3216877266 3216877266 -11.00000000
-4.85957241 1.00813818 0.43420991 9 5 28172 4.98200000 3216877269 3216877269 5.00000000
-3.10813713 0.64536166 -0.50278038 3 6 28173 3.21400000 3216877271 3216877271 -9.00000000
-3.93946576 0.81941003 -0.49405831 6 8 28175 4.05400000 3216877276 3216877276 -7.00000000
-5.22362375 1.08746648 -0.46680614 6 10 28176 5.35600000 3216877280 3216877280 -5.00000000
-4.13914633 0.86320490 -0.22159044 18 12 28178 4.23400000 3216877285 3216877285 -3.00000000
-4.07342577 0.85098296 -0.07263692 99 14 28180 4.16200000 3216877289 3216877289 -1.00000000
-8.37883282 1.75195575 2.29365444 6 15 28181 8.86200000 3216877292 3216877292 15.00000000
-1.92639208 0.40525225 -0.52747321 4 0 28188 2.03800000 3216877312 3216877312 -15.00000000
-4.16796684 0.87756860 0.07434725 5 1 28189 4.26000000 3216877315 3216877315 1.00000000
-4.07495928 0.85872859 -0.96144080 5 2 28190 4.27400000 3216877317 3216877317 -13.00000000
-4.18814182 0.88257992 0.22431190 14 3 28190 4.28600000 3216877319 3216877319 3.00000000
-2.59333825 0.54697484 -0.51518428 3 4 28191 2.70000000 3216877322 3216877322 -11.00000000
-4.86966944 1.02797580 0.43543008 9 5 28192 4.99600000 3216877324 3216877324 5.00000000
-3.12132716 0.65947390 -0.50528330 3 6 28193 3.23000000 3216877326 3216877326 -9.00000000
-3.93269730 0.83233428 -0.49357083 6 8 28195 4.05000000 3216877331 3216877331 -7.00000000
-5.22759247 1.10734522 -0.46750340 6 10 28196 5.36400000 3216877335 3216877335 -5.00000000
-4.13610792 0.87764794 -0.22159044 14 12 28198 4.23400000 3216877340 3216877340 -3.00000000
-4.08021021 0.86727548 -0.07281144 100 14 28200 4.17200000 3216877345 3216877345 -1.00000000
-8.28605366 1.76125515 2.26984310 9 15 28200 8.77000000 3216877347 3216877347 15.00000000
-1.94385648 0.41601706 -0.53264958 4 0 28208 2.05800000 3216877368 3216877368 -15.00000000
-4.16487789 0.89211220 0.07434725 5 1 28209 4.26000000 3216877370 3216877370 1.00000000
-4.07193708 0.87294763 -0.96144080 5 2 28210 4.27400000 3216877372 3216877372 -13.00000000
-4.17331839 0.89468193 0.22368388 14 3 28210 4.27400000 3216877375 3216877375 3.00000000
-2.60676980 0.55931890 -0.51823723 3 4 28211 2.71600000 3216877377 3216877377 -11.00000000
-4.85631180 1.04287624 0.43455854 9 5 28212 4.98600000 3216877379 3216877379 5.00000000
-3.09969330 0.66621447 -0.50215465 3 6 28213 3.21000000 3216877381 3216877381 -9.00000000
-3.92588663 0.84522128 -0.49308336 6 8 28215 4.04600000 3216877386 3216877386 -7.00000000
-5.23148584 1.12726486 -0.46820065 6 10 28216 5.37200000 3216877391 3216877391 -5.00000000
-4.12520981 0.89039475 -0.22117175 10 12 28218 4.22600000 3216877395 3216877395 -3.00000000
-4.07129431 0.88024503 -0.07270672 100 14 28220 4.16600000 3216877400 3216877400 -1.00000000
-8.27387905 1.79038751 2.26829004 6 15 28221 8.76400000 3216877402 3216877402 15.00000000
-1.92533052 0.41943794 -0.52799088 4 0 28229 2.04000000 3216877423 3216877423 -15.00000000
-4.15571880 0.90609324 0.07424254 7 1 28230 4.25400000 3216877425 3216877425 1.00000000
-4.06870985 0.88786614 -0.96144080 5 2 28231 4.27400000 3216877428 3216877428 -13.00000000
-4.17180347 0.91112584 0.22378854 14 3 28232 4.27600000 3216877430 3216877430 3.00000000
-2.58552170 0.56468040 -0.51442105 3 4 28232 2.69600000 3216877432 3216877432 -11.00000000
-4.85051060 1.06024301 0.43438423 9 5 28233 4.98400000 3216877434 3216877434 5.00000000
-3.13196611 0.68516988 -0.50778627 3 6 28234 3.24600000 3216877437 3216877437 -9.00000000
-3.91694522 0.85832995 -0.49235216 6 8 28236 4.04000000 3216877441 3216877441 -7.00000000
-5.22342682 1.14557803 -0.46785203 9 10 28237 5.36800000 3216877446 3216877446 -5.00000000
-4.12582016 0.90636551 -0.22138110 10 12 28239 4.23000000 3216877451 3216877451 -3.00000000
-4.06413507 0.89430165 -0.07263692 100 14 28241 4.16200000 3216877455 3216877455 -1.00000000
-9.86751175 2.17131877 2.70724726 45 15 28241 10.46000000 3216877458 3216877458 15.00000000
-1.92008233 0.42532045 -0.52695560 4 0 28249 2.03600000 3216877478 3216877478 -15.00000000
-4.14472151 0.91886264 0.07410292 18 1 28250 4.24600000 3216877481 3216877481 1.00000000
-2.22018671 0.49261010 -0.52503574 4 2 28251 2.33400000 3216877483 3216877483 -13.00000000
-4.17249727 0.92654854 0.22399789 14 3 28252 4.28000000 3216877485 3216877485 3.00000000
-2.58736801 0.57455331 -0.51518428 5 4 28252 2.70000000 3216877487 3216877487 -11.00000000
-4.82927561 1.07327783 0.43281543 9 5 28253 4.96600000 3216877490 3216877490 5.00000000
-3.12184238 0.69438273 -0.50653481 3 6 28254 3.23800000 3216877492 3216877492 -9.00000000
-3.93136334 0.87588257 -0.49454579 6 8 28256 4.05800000 3216877497 3216877497 -7.00000000
-5.21939611 1.16380417 -0.46785203 9 10 28257 5.36800000 3216877501 3216877501 -5.00000000
-4.13042831 0.92250317 -0.22179978 8 12 28259 4.23800000 3216877506 3216877506 -3.00000000
-4.05318260 0.90673643 -0.07249729 100 14 28261 4.15400000 3216877511 3216877511 -1.00000000
-9.83874989 2.20282745 2.70155311 47 15 28262 10.43800000 3216877513 3216877513 15.00000000
-1.92054617 0.43210939 -0.52747321 4 0 28268 2.03800000 3216877534 3216877534 -15.00000000
-4.11238909 0.92601269 0.07357935 5 1 28269 4.21600000 3216877536 3216877536 1.00000000
-4.06067133 0.91511178 -0.96099091 9 2 28270 4.27200000 3216877538 3216877538 -13.00000000
-4.17719507 0.94213766 0.22441658 12 3 28271 4.28800000 3216877540 3216877540 3.00000000
-2.60459995 0.58744967 -0.51900047 3 4 28271 2.72000000 3216877543 3216877543 -11.00000000
-4.83929443 1.09235728 0.43403560 9 5 28272 4.98000000 3216877545 3216877545 5.00000000
-3.11566877 0.70386070 -0.50590909 3 6 28273 3.23400000 3216877547 3216877547 -9.00000000
-3.93811798 0.89110512 -0.49576449 4 8 28275 4.06800000 3216877552 3216877552 -7.00000000
-5.22522449 1.18330622 -0.46872360 9 10 28276 5.37800000 3216877557 3216877557 -5.00000000
-4.12345076 0.93531150 -0.22159044 8 12 28278 4.23400000 3216877561 3216877561 -3.00000000
-4.06185341 0.92283046 -0.07270672 100 14 28280 4.16600000 3216877566 3216877566 -1.00000000
-9.84685230 2.23714995 2.70569420 45 15 28280 10.45400000 3216877568 3216877568 15.00000000
-1.92467582 0.44010258 -0.52902615 4 0 28288 2.04400000 3216877589 3216877589 -15.00000000
-4.09938478 0.93813151 0.07340482 14 1 28289 4.20600000 3216877591 3216877591 1.00000000
-4.04985380 0.92754036 -0.95919132 13 2 28290 4.26400000 3216877593 3216877593 -13.00000000
-4.16414690 0.95448190 0.22389323 12 3 28291 4.27800000 3216877596 3216877596 3.00000000
-2.61018801 0.59829235 -0.52052695 3 4 28291 2.72800000 3216877598 3216877598 -11.00000000
-4.83739376 1.10968828 0.43420991 9 5 28292 4.98200000 3216877600 3216877600 5.00000000
-3.12474465 0.71738422 -0.50778627 3 6 28293 3.24600000 3216877603 3216877603 -9.00000000
-3.92337584 0.90217716 -0.49430206 4 8 28295 4.05600000 3216877607 3216877607 -7.00000000
-5.21912050 1.20109165 -0.46854928 9 10 28296 5.37600000 3216877612 3216877612 -5.00000000
-4.10848331 0.94700772 -0.22096241 8 12 28298 4.22200000 3216877616 3216877616 -3.00000000
-4.05471039 0.93610370 -0.07263692 100 14 28300 4.16200000 3216877621 3216877621 -1.00000000
-9.84235096 2.27409530 2.70672965 47 15 28301 10.45800000 3216877623 3216877623 15.00000000
-1.93441820 0.44944149 -0.53213197 4 0 28308 2.05600000 3216877644 3216877644 -15.00000000
-4.10582399 0.95469981 0.07357935 19 1 28309 4.21600000 3216877646 3216877646 1.00000000
-4.05418348 0.94343811 -0.96099091 15 2 28310 4.27200000 3216877649 3216877649 -13.00000000
-4.15106392 0.96674657 0.22336987 10 3 28311 4.26800000 3216877651 3216877651 3.00000000
-2.59661126 0.60472810 -0.51823723 3 4 28311 2.71600000 3216877653 3216877653 -11.00000000
-4.83931160 1.12792397 0.43473285 9 5 28312 4.98800000 3216877656 3216877656 5.00000000
-3.11837387 0.72738975 -0.50716054 3 6 28313 3.24200000 3216877658 3216877658 -9.00000000
-3.90860462 0.91315711 -0.49283963 4 8 28315 4.04400000 3216877663 3216877663 -7.00000000
-5.22071600 1.22066331 -0.46907219 9 10 28316 5.38200000 3216877667 3216877667 -5.00000000
-4.10709715 0.96179861 -0.22106709 8 12 28318 4.22400000 3216877672 3216877672 -3.00000000
-4.04363060 0.94842505 -0.07249729 100 14 28320 4.15400000 3216877676 3216877676 -1.00000000
-9.84604073 2.30936790 2.70983529 45 15 28320 10.47000000 3216877679 3216877679 15.00000000
-1.92907727 0.45530358 -0.53109670 4 0 28328 2.05200000 3216877699 3216877699 -15.00000000
-4.09662819 0.96764690 0.07347463 19 1 28329 4.21000000 3216877702 3216877702 1.00000000
-4.04707289 0.95668745 -0.96009111 13 2 28330 4.26800000 3216877704 3216877704 -13.00000000
-4.15349483 0.98261005 0.22368388 10 3 28331 4.27400000 3216877706 3216877706 3.00000000
-2.58302140 0.61107641 -0.51594752 3 4 28331 2.70400000 3216877709 3216877709 -11.00000000
-4.83340645 1.14435041 0.43455854 9 5 28332 4.98600000 3216877711 3216877711 5.00000000
-3.13119316 0.74191403 -0.50966346 3 6 28333 3.25800000 3216877713 3216877713 -9.00000000
-3.91698194 0.92954522 -0.49430206 4 8 28335 4.05600000 3216877718 3216877718 -7.00000000
-5.22611570 1.24118149 -0.46994376 10 10 28336 5.39200000 3216877722 3216877722 -5.00000000
-4.10371494 0.97612917 -0.22106709 18 12 28338 4.22400000 3216877727 3216877727 -3.00000000
-4.03640509 0.96160734 -0.07242749 100 14 28340 4.15000000 3216877732 3216877732 -1.00000000
-9.83375168 2.34454393 2.70880008 47 15 28341 10.46600000 3216877734 3216877734 15.00000000
-1.91432571 0.45888227 -0.52747321 4 0 28348 2.03800000 3216877755 3216877755 -15.00000000
-4.09322548 0.98194093 0.07347463 19 1 28349 4.21000000 3216877757 3216877757 1.00000000
-4.05507803 0.97353810 -0.96279049 13 2 28350 4.28000000 3216877759 3216877759 -13.00000000
-4.15780735 0.99896878 0.22410257 10 3 28351 4.28200000 3216877762 3216877762 3.00000000
-2.58850837 0.62192374 -0.51747400 3 4 28351 2.71200000 3216877764 3216877764 -11.00000000
-4.81969643 1.15888631 0.43368697 9 5 28352 4.97600000 3216877766 3216877766 5.00000000
-3.11706090 0.75006652 -0.50778627 3 6 28353 3.24600000 3216877769 3216877769 -9.00000000
-3.93108177 0.94739825 -0.49649569 4 8 28355 4.07400000 3216877773 3216877773 -7.00000000
-5.21787786 1.25848210 -0.46959513 10 10 28356 5.38800000 3216877778 3216877778 -5.00000000
-4.10610676 0.99185479 -0.22138110 16 12 28358 4.23000000 3216877782 3216877782 -3.00000000
-4.02913666 0.97475070 -0.07235768 100 14 28360 4.14600000 3216877787 3216877787 -1.00000000
-9.82404518 2.37668657 2.70828247 47 15 28360 10.46400000 3216877789 3216877789 15.00000000
-1.91834342 0.46693236 -0.52902615 4 0 28368 2.04400000 3216877810 3216877810 -15.00000000
-4.07228661 0.99196357 0.07316048 19 1 28369 4.19200000 3216877812 3216877812 1.00000000
-4.04786825 0.98676395 -0.96189070 15 2 28370 4.27600000 3216877815 3216877815 -13.00000000
-4.15429497 1.01347613 0.22410257 8 3 28371 4.28200000 3216877817 3216877817 3.00000000
-2.60539484 0.63560855 -0.52129018 3 4 28371 2.73200000 3216877819 3216877819 -11.00000000
-4.83304167 1.17995608 0.43525577 9 5 28372 4.99400000 3216877822 3216877822 5.00000000
-3.10674810 0.75906712 -0.50653481 3 6 28373 3.23800000 3216877824 3216877824 -9.00000000
-3.92582273 0.96064270 -0.49625197 4 8 28375 4.07200000 3216877828 3216877828 -7.00000000
-5.22119379 1.27858388 -0.47029239 10 10 28376 5.39600000 3216877833 3216877833 -5.00000000
-4.09486055 1.00427878 -0.22096241 16 12 28378 4.22200000 3216877838 3216877838 -3.00000000
-11.24943256 2.76104403 2.67421818 60 13 28379 11.88800000 3216877840 3216877840 13.00000000
-4.03347731 0.99071705 -0.07249729 100 14 28380 4.15400000 3216877842 3216877842 -1.00000000
-9.81339169 2.41221642 2.70776486 45 15 28381 10.46200000 3216877845 3216877845 15.00000000
-1.92232811 0.47501609 -0.53057903 4 0 28388 2.05000000 3216877865 3216877865 -15.00000000
-4.07268190 1.00713253 0.07323030 21 1 28389 4.19600000 3216877868 3216877868 1.00000000
-4.03304911 0.99807882 -0.95919132 16 2 28390 4.26400000 3216877870 3216877870 -13.00000000
-4.15073204 1.02797115 0.22410257 10 3 28391 4.28200000 3216877872 3216877872 3.00000000
-2.59553766 0.64281136 -0.51976371 3 4 28391 2.72400000 3216877875 3216877875 -11.00000000
-4.82695961 1.19633996 0.43508148 9 5 28392 4.99200000 3216877877 3216877877 5.00000000
-3.11941767 0.77371144 -0.50903773 3 6 28393 3.25400000 3216877879 3216877879 -9.00000000
-3.91473937 0.97242630 -0.49527702 4 8 28395 4.06400000 3216877884 3216877884 -7.00000000
-5.22249937 1.29824340 -0.47081533 10 10 28396 5.40200000 3216877888 3216877888 -5.00000000
-4.08551598 1.01711881 -0.22064839 6 12 28398 4.21600000 3216877893 3216877893 -3.00000000
-11.06576061 2.75695252 2.63282704 56 13 28399 11.70400000 3216877895 3216877895 13.00000000
-4.03387499 1.00575805 -0.07256711 100 14 28400 4.15800000 3216877898 3216877898 -1.00000000
-9.82033443 2.44848442 2.71190596 42 15 28400 10.47800000 3216877900 3216877900 15.00000000
-1.93190122 0.48454320 -0.53368485 4 0 28408 2.06200000 3216877921 3216877921 -15.00000000
-4.07883930 1.02377677 0.07340482 22 1 28409 4.20600000 3216877923 3216877923 1.00000000
-4.03899097 1.01452446 -0.96144080 19 2 28410 4.27400000 3216877925 3216877925 -13.00000000
-4.13162279 1.03855848 0.22326519 10 3 28411 4.26600000 3216877928 3216877928 3.00000000
-2.59708595 0.65282482 -0.52052695 3 4 28411 2.72800000 3216877930 3216877930 -11.00000000
-4.85173702 1.22047269 0.43769613 9 5 28412 5.02200000 3216877932 3216877932 5.00000000
-3.11286688 0.78363103 -0.50841200 4 6 28413 3.25000000 3216877934 3216877934 -9.00000000
-3.90362167 0.98414427 -0.49430206 4 8 28415 4.05600000 3216877939 3216877939 -7.00000000
-5.21020842 1.31451583 -0.47011808 10 10 28416 5.39400000 3216877944 3216877944 -5.00000000
-4.09549522 1.03479862 -0.22138110 6 12 28418 4.23000000 3216877948 3216877948 -3.00000000
-10.88036633 2.75113535 2.59098625 53 13 28419 11.51800000 3216877951 3216877951 13.00000000
-4.02646255 1.01885164 -0.07249729 100 14 28420 4.15400000 3216877953 3216877953 -1.00000000
-9.82296467 2.48559237 2.71501184 47 15 28420 10.49000000 3216877955 3216877955 15.00000000
-1.91147649 0.48651871 -0.52850848 4 0 28428 2.04200000 3216877976 3216877976 -15.00000000
-4.08299208 1.03998268 0.07354444 22 1 28429 4.21400000 3216877978 3216877978 1.00000000
-4.04109001 1.03006089 -0.96279049 12 2 28430 4.28000000 3216877981 3216877981 -13.00000000
-4.15313101 1.05939174 0.22462593 7 3 28431 4.29200000 3216877983 3216877983 3.00000000
-2.58337736 0.65897483 -0.51823723 3 4 28431 2.71600000 3216877985 3216877985 -11.00000000
-4.84551668 1.23690820 0.43752182 9 5 28432 5.02000000 3216877987 3216877987 5.00000000
-3.12925148 0.79938138 -0.51154071 3 6 28433 3.27000000 3216877990 3216877990 -9.00000000
-3.91554785 1.00170040 -0.49625197 4 8 28435 4.07200000 3216877994 3216877994 -7.00000000
-5.21523905 1.33516550 -0.47098964 10 10 28436 5.40400000 3216877999 3216877999 -5.00000000
-4.10346651 1.05206442 -0.22200912 6 12 28438 4.24200000 3216878004 3216878004 -3.00000000
-10.71025085 2.74793243 2.55274463 59 13 28439 11.34800000 3216878006 3216878006 13.00000000
