# .PCD v0.7 - Point Cloud Data file format
VERSION 0.7
FIELDS x y z intensity laser_id azimuth distance_m adjustedtime timestamp vertical_angle
SIZE 4 4 4 1 1 2 8 8 4 8
TYPE F F F U U U F U U F
COUNT 1 1 1 1 1 1 1 1 1 1
WIDTH 527
HEIGHT 1
VIEWPOINT 0 0 0 1 0 0 0
POINTS 527
DATA ascii
-5.21725512 1.25255215 -0.46942082 10 10 28350 5.38600000 3216977753 3216977753 -5.00000000
-4.09743404 0.98521966 -0.22085774 18 12 28352 4.22000000 3216977758 3216977758 -3.00000000
-4.03404331 0.97146726 -0.07242749 100 14 28354 4.15000000 3216977762 3216977762 -1.00000000
-9.83779716 2.36911130 2.71138835 47 15 28354 10.47600000 3216977765 3216977765 15.00000000
-1.92258644 0.46583304 -0.53006142 4 0 28362 2.04800000 3216977785 3216977785 -15.00000000
-4.08304024 0.99005467 0.07333501 17 1 28363 4.20200000 3216977788 3216977788 1.00000000
-4.04511213 0.98160541 -0.96099091 15 2 28364 4.27200000 3216977790 3216977790 -13.00000000
-4.15147257 1.00818253 0.22389323 8 3 28365 4.27800000 3216977792 3216977792 3.00000000
-2.58698106 0.62824678 -0.51747400 3 4 28365 2.71200000 3216977795 3216977795 -11.00000000
-4.83040285 1.17395318 0.43490717 9 5 28366 4.99000000 3216977797 3216977797 5.00000000
-3.12673545 0.76048172 -0.50966346 3 6 28367 3.25800000 3216977799 3216977799 -9.00000000
-3.90946817 0.95230275 -0.49405831 4 8 28369 4.05400000 3216977804 3216977804 -7.00000000
-5.22252989 1.27311552 -0.47029239 10 10 28370 5.39600000 3216977808 3216977808 -5.00000000
-4.09591007 0.99999011 -0.22096241 16 12 28372 4.22200000 3216977813 3216977813 -3.00000000
-11.32046795 2.76591301 2.69041467 57 13 28373 11.96000000 3216977815 3216977815 13.00000000
-4.02674294 0.98459285 -0.07235768 100 14 28374 4.14600000 3216977818 3216977818 -1.00000000
-9.82341862 2.40377522 2.70983529 45 15 28375 10.47000000 3216977820 3216977820 15.00000000
-1.90985692 0.46910587 -0.52695560 4 0 28380 2.03600000 3216977841 3216977841 -15.00000000
-4.08379364 1.00383174 0.07340482 17 1 28381 4.20600000 3216977843 3216977843 1.00000000
-4.05146980 0.99663615 -0.96324039 16 2 28382 4.28200000 3216977845 3216977845 -13.00000000
-4.15234184 1.02144992 0.22410257 8 3 28382 4.28200000 3216977848 3216977848 3.00000000
-2.59261990 0.63824809 -0.51900047 3 4 28383 2.72000000 3216977850 3216977850 -11.00000000
-4.82669067 1.18912256 0.43490717 9 5 28384 4.99000000 3216977852 3216977852 5.00000000
-3.12049508 0.76935518 -0.50903773 3 6 28385 3.25400000 3216977854 3216977854 -9.00000000
-3.91994762 0.96791106 -0.49576449 4 8 28387 4.06800000 3216977859 3216977859 -7.00000000
-5.21463585 1.28856039 -0.46994376 10 10 28388 5.39200000 3216977864 3216977864 -5.00000000
-4.10050344 1.01477206 -0.22138110 8 12 28390 4.23000000 3216977868 3216977868 -3.00000000
-11.14526272 2.76023817 2.65082312 56 13 28391 11.78400000 3216977871 3216977871 13.00000000
-4.02751160 0.99820048 -0.07242749 100 14 28392 4.15000000 3216977873 3216977873 -1.00000000
-9.80874252 2.43105245 2.70776486 42 15 28392 10.46200000 3216977875 3216977875 15.00000000
-1.91945457 0.47857380 -0.53006142 4 0 28400 2.04800000 3216977896 3216977896 -15.00000000
-4.07250357 1.01614428 0.07326520 21 1 28401 4.19800000 3216977898 3216977898 1.00000000
-4.03662205 1.00793970 -0.96054101 19 2 28402 4.27000000 3216977900 3216977900 -13.00000000
-4.16425323 1.03980899 0.22493994 8 3 28402 4.29800000 3216977903 3216977903 3.00000000
-2.59037614 0.64729416 -0.51900047 3 4 28403 2.72000000 3216977905 3216977905 -11.00000000
-4.83024216 1.20789695 0.43560439 9 5 28404 4.99800000 3216977907 3216977907 5.00000000
-3.09671140 0.77496785 -0.50559622 4 6 28405 3.23200000 3216977910 3216977910 -9.00000000
-3.93965149 0.98737943 -0.49868935 4 8 28407 4.09200000 3216977914 3216977914 -7.00000000
-5.21590376 1.30820906 -0.47046670 10 10 28408 5.39800000 3216977919 3216977919 -5.00000000
-4.10855865 1.03199863 -0.22200912 6 12 28410 4.24200000 3216977924 3216977924 -3.00000000
-10.96924400 2.75731921 2.61123180 56 13 28411 11.60800000 3216977926 3216977926 13.00000000
-4.02788115 1.01322865 -0.07249729 100 14 28412 4.15400000 3216977928 3216977928 -1.00000000
-9.80769157 2.46716166 2.70983529 47 15 28412 10.47000000 3216977930 3216977930 15.00000000
-1.92517865 0.48750263 -0.53213197 4 0 28421 2.05600000 3216977951 3216977951 -15.00000000
-4.06875229 1.03106391 0.07326520 22 1 28422 4.19800000 3216977953 3216977953 1.00000000
-4.02912283 1.02176988 -0.95964122 13 2 28423 4.26600000 3216977956 3216977956 -13.00000000
-4.14474249 1.05186057 0.22410257 8 3 28424 4.28200000 3216977958 3216977958 3.00000000
-2.58418059 0.65581816 -0.51823723 3 4 28424 2.71600000 3216977960 3216977960 -11.00000000
-4.83350658 1.22755432 0.43630165 9 5 28425 5.00600000 3216977963 3216977963 5.00000000
-3.11108088 0.79069191 -0.50841200 3 6 28426 3.25000000 3216977965 3216977965 -9.00000000
-3.92061615 0.99789518 -0.49673945 4 8 28428 4.07600000 3216977970 3216977970 -7.00000000
-5.21686649 1.32879293 -0.47098964 10 10 28429 5.40400000 3216977974 3216977974 -5.00000000
-4.09507227 1.04458201 -0.22148576 6 12 28431 4.23200000 3216977979 3216977979 -3.00000000
-10.77591038 2.75075126 2.56759143 54 13 28432 11.41400000 3216977981 3216977981 13.00000000
-4.02414036 1.02798486 -0.07249729 100 14 28433 4.15400000 3216977983 3216977983 -1.00000000
-9.81499100 2.50910830 2.71449423 47 15 28434 10.48800000 3216977986 3216977986 15.00000000
-1.92159414 0.49373901 -0.53161430 4 0 28441 2.05400000 3216978006 3216978006 -15.00000000
-4.07674837 1.04824805 0.07347463 22 1 28442 4.21000000 3216978009 3216978009 1.00000000
-4.03119326 1.03728473 -0.96099091 8 2 28443 4.27200000 3216978011 3216978011 -13.00000000
-4.14123154 1.06559920 0.22410257 8 3 28443 4.28200000 3216978013 3216978013 3.00000000
-2.60278916 0.67021990 -0.52243501 3 4 28444 2.73800000 3216978016 3216978016 -11.00000000
-4.83498049 1.24591041 0.43682459 9 5 28445 5.01200000 3216978018 3216978018 5.00000000
-3.11977863 0.80450636 -0.51028925 3 6 28446 3.26200000 3216978020 3216978020 -9.00000000
-3.91518688 1.01107824 -0.49649569 4 8 28448 4.07400000 3216978025 3216978025 -7.00000000
-5.21219635 1.34699512 -0.47098964 10 10 28449 5.40400000 3216978030 3216978030 -5.00000000
-4.08753395 1.05786932 -0.22127642 6 12 28451 4.22800000 3216978034 3216978034 -3.00000000
-10.58702564 2.74193406 2.52485061 56 13 28452 11.22400000 3216978036 3216978036 13.00000000
-4.01665640 1.04102206 -0.07242749 100 14 28453 4.15000000 3216978039 3216978039 -1.00000000
-9.80617237 2.54335380 2.71449423 47 15 28454 10.48800000 3216978041 3216978041 15.00000000
-1.91433787 0.49864766 -0.53006142 4 0 28460 2.04800000 3216978062 3216978062 -15.00000000
-4.07711983 1.06277013 0.07354444 21 1 28461 4.21400000 3216978064 3216978064 1.00000000
-4.04470253 1.05507386 -0.96504003 5 2 28462 4.29000000 3216978066 3216978066 -13.00000000
-4.13574266 1.07882202 0.22399789 8 3 28462 4.28000000 3216978069 3216978069 3.00000000
-2.59105420 0.67636800 -0.52052695 3 4 28463 2.72800000 3216978071 3216978071 -11.00000000
-4.83467770 1.26294410 0.43717322 9 5 28464 5.01600000 3216978073 3216978073 5.00000000
-3.12091589 0.81584668 -0.51091498 3 6 28465 3.26600000 3216978076 3216978076 -9.00000000
-3.90989208 1.02355325 -0.49625197 4 8 28467 4.07200000 3216978080 3216978080 -7.00000000
-5.19999123 1.36225235 -0.47029239 10 10 28468 5.39600000 3216978085 3216978085 -5.00000000
-4.08593512 1.07192504 -0.22138110 6 12 28470 4.23000000 3216978089 3216978089 -3.00000000
-10.42520046 2.73694491 2.48840857 53 13 28471 11.06200000 3216978092 3216978092 13.00000000
-4.01705027 1.05535221 -0.07249729 100 14 28472 4.15400000 3216978094 3216978094 -1.00000000
-9.80515766 2.57782316 2.71656466 49 15 28473 10.49600000 3216978096 3216978096 15.00000000
-1.91071784 0.50483340 -0.52954376 4 0 28480 2.04600000 3216978117 3216978117 -15.00000000
-4.06178570 1.07392848 0.07333501 21 1 28481 4.20200000 3216978119 3216978119 1.00000000
-4.04853058 1.07117987 -0.96683961 5 2 28482 4.29800000 3216978122 3216978122 -13.00000000
-4.13774443 1.09478450 0.22431190 8 3 28482 4.28600000 3216978124 3216978124 3.00000000
-2.59247327 0.68641335 -0.52129018 3 4 28483 2.73200000 3216978126 3216978126 -11.00000000
-4.84179544 1.28287435 0.43821907 9 5 28484 5.02800000 3216978129 3216978129 5.00000000
-3.10277390 0.82268560 -0.50841200 3 6 28485 3.25000000 3216978131 3216978131 -9.00000000
-7.09919596 1.88364387 0.90183312 2 7 28486 7.40000000 3216978133 3216978133 7.00000000
-3.90245819 1.03617620 -0.49576449 6 8 28487 4.06800000 3216978136 3216978136 -7.00000000
-5.20098114 1.38193023 -0.47081533 10 10 28488 5.40200000 3216978140 3216978140 -5.00000000
-4.10532999 1.09234381 -0.22263716 6 12 28490 4.25400000 3216978145 3216978145 -3.00000000
-10.29317951 2.74072719 2.45916486 60 13 28491 10.93200000 3216978147 3216978147 13.00000000
-4.01720619 1.07039762 -0.07256711 100 14 28492 4.15800000 3216978149 3216978149 -1.00000000
-9.79609966 2.61203384 2.71656466 47 15 28493 10.49600000 3216978152 3216978152 15.00000000
-1.91436291 0.51366830 -0.53109670 4 0 28502 2.05200000 3216978172 3216978172 -15.00000000
-4.05376959 1.08847952 0.07326520 21 1 28503 4.19800000 3216978175 3216978175 1.00000000
-4.03309584 1.08368313 -0.96414024 5 2 28504 4.28600000 3216978177 3216978177 -13.00000000
-4.14701176 1.11429214 0.22504461 7 3 28504 4.30000000 3216978179 3216978179 3.00000000
-2.58223486 0.69432348 -0.51976371 3 4 28505 2.72400000 3216978182 3216978182 -11.00000000
-4.85222530 1.30559742 0.43961358 9 5 28506 5.04400000 3216978184 3216978184 5.00000000
-3.09577727 0.83356607 -0.50778627 3 6 28507 3.24600000 3216978186 3216978186 -9.00000000
-3.89653420 1.05063605 -0.49552074 6 8 28509 4.06600000 3216978191 3216978191 -7.00000000
-5.22064352 1.40863776 -0.47308138 10 10 28510 5.42800000 3216978195 3216978195 -5.00000000
-4.09339285 1.10601521 -0.22221847 6 12 28512 4.24600000 3216978200 3216978200 -3.00000000
-10.21109486 2.76090145 2.44206858 60 13 28513 10.85600000 3216978202 3216978202 13.00000000
-4.01692724 1.08685923 -0.07263692 100 14 28514 4.16200000 3216978205 3216978205 -1.00000000
-9.79391956 2.64993906 2.71863532 49 15 28514 10.50400000 3216978207 3216978207 15.00000000
-1.90883005 0.51933318 -0.53006142 4 0 28522 2.04800000 3216978228 3216978228 -15.00000000
-4.05380440 1.10367382 0.07333501 21 1 28523 4.20200000 3216978230 3216978230 1.00000000
-4.02740812 1.09724236 -0.96369034 5 2 28524 4.28400000 3216978232 3216978232 -13.00000000
-4.13731623 1.12718606 0.22473060 7 3 28524 4.29400000 3216978235 3216978235 3.00000000
-2.58737183 0.70539856 -0.52129018 3 4 28525 2.73200000 3216978237 3216978237 -11.00000000
-4.85148287 1.32357574 0.43996218 9 5 28526 5.04800000 3216978239 3216978239 5.00000000
-3.11190510 0.84956980 -0.51091498 3 6 28527 3.26600000 3216978241 3216978241 -9.00000000
-3.89475799 1.06475461 -0.49576449 4 8 28529 4.06800000 3216978246 3216978246 -7.00000000
-5.20800734 1.42474961 -0.47238412 10 10 28530 5.42000000 3216978251 3216978251 -5.00000000
-4.08565474 1.11924171 -0.22200912 6 12 28532 4.24200000 3216978255 3216978255 -3.00000000
-10.17884254 2.79034543 2.43666983 56 13 28533 10.83200000 3216978258 3216978258 13.00000000
-4.01696587 1.10193229 -0.07270672 100 14 28534 4.16600000 3216978260 3216978260 -1.00000000
-9.79718208 2.68939734 2.72225881 49 15 28535 10.51800000 3216978262 3216978262 15.00000000
-1.91650152 0.52789247 -0.53264958 4 0 28540 2.05800000 3216978283 3216978283 -15.00000000
-4.05417252 1.11746657 0.07340482 19 1 28541 4.20600000 3216978285 3216978285 1.00000000
-4.03521252 1.11299837 -0.96638972 5 2 28542 4.29600000 3216978288 3216978288 -13.00000000
-4.11622810 1.13611722 0.22378854 8 3 28543 4.27600000 3216978290 3216978290 3.00000000
-2.58135819 0.71247882 -0.52052695 3 4 28543 2.72800000 3216978292 3216978292 -11.00000000
-4.85882378 1.34199309 0.44100806 9 5 28544 5.06000000 3216978294 3216978294 5.00000000
-3.10922074 0.85934192 -0.51091498 3 6 28545 3.26600000 3216978297 3216978297 -9.00000000
-3.90861225 1.08175051 -0.49795812 6 8 28547 4.08600000 3216978301 3216978301 -7.00000000
-5.20734596 1.44216752 -0.47273275 10 10 28548 5.42400000 3216978306 3216978306 -5.00000000
-4.08211851 1.13207161 -0.22200912 6 12 28550 4.24200000 3216978311 3216978311 -3.00000000
-10.15875912 2.81918287 2.43397045 59 13 28551 10.82000000 3216978313 3216978313 13.00000000
-4.01348400 1.11454654 -0.07270672 100 14 28552 4.16600000 3216978315 3216978315 -1.00000000
-9.78915882 2.71845436 2.72225881 49 15 28552 10.51800000 3216978318 3216978318 15.00000000
-1.91836846 0.53561813 -0.53368485 4 0 28560 2.06200000 3216978338 3216978338 -15.00000000
-4.06372881 1.13537812 0.07364915 19 1 28561 4.22000000 3216978341 3216978341 1.00000000
-4.03881025 1.12917590 -0.96818936 5 2 28562 4.30400000 3216978343 3216978343 -13.00000000
-4.12185431 1.15316916 0.22431190 8 3 28563 4.28600000 3216978345 3216978345 3.00000000
-2.57507396 0.72042722 -0.51976371 3 4 28563 2.72400000 3216978347 3216978347 -11.00000000
-4.85410929 1.35894537 0.44100806 9 5 28564 5.06000000 3216978350 3216978350 5.00000000
-3.12522364 0.87551868 -0.51404363 3 6 28565 3.28600000 3216978352 3216978352 -9.00000000
-3.90481234 1.09538746 -0.49795812 6 8 28567 4.08600000 3216978357 3216978357 -7.00000000
-5.19460726 1.45818186 -0.47203550 10 10 28568 5.41600000 3216978361 3216978361 -5.00000000
-4.08583260 1.14847577 -0.22242782 6 12 28570 4.25000000 3216978366 3216978366 -3.00000000
-10.13760090 2.85146046 2.43127108 60 13 28571 10.80800000 3216978368 3216978368 13.00000000
-4.00571966 1.12746584 -0.07263692 100 14 28572 4.16200000 3216978371 3216978371 -1.00000000
-9.68429470 2.72760463 2.69585919 47 15 28573 10.41600000 3216978373 3216978373 15.00000000
-1.90152228 0.53843504 -0.52954376 4 0 28581 2.04600000 3216978394 3216978394 -15.00000000
-4.04992056 1.14753902 0.07347463 19 1 28582 4.21000000 3216978396 3216978396 1.00000000
-2.20293093 0.62461257 -0.52863497 4 2 28583 2.35000000 3216978398 3216978398 -13.00000000
-4.11759996 1.16826868 0.22431190 8 3 28584 4.28600000 3216978400 3216978400 3.00000000
-2.58752584 0.73414749 -0.52281666 3 4 28584 2.74000000 3216978403 3216978403 -11.00000000
-4.85484600 1.37836003 0.44153100 9 5 28585 5.06600000 3216978405 3216978405 5.00000000
-3.10679221 0.88264853 -0.51154071 3 6 28586 3.27000000 3216978407 3216978407 -9.00000000
-3.90840864 1.11186469 -0.49893311 6 8 28588 4.09400000 3216978412 3216978412 -7.00000000
-5.20072556 1.48048425 -0.47308138 10 10 28589 5.42800000 3216978417 3216978417 -5.00000000
-4.09119987 1.16618097 -0.22295117 6 12 28591 4.26000000 3216978421 3216978421 -3.00000000
-10.12708187 2.88859749 2.43127108 62 13 28592 10.80800000 3216978424 3216978424 13.00000000
-4.00925159 1.14433539 -0.07277653 100 14 28593 4.17000000 3216978426 3216978426 -1.00000000
-9.54467869 2.72427702 2.65962458 47 15 28593 10.27600000 3216978428 3216978428 15.00000000
-1.90891588 0.54773337 -0.53213197 4 0 28601 2.05600000 3216978449 3216978449 -15.00000000
-4.04589033 1.16166890 0.07347463 17 1 28602 4.21000000 3216978451 3216978451 1.00000000
-2.20448303 0.63337469 -0.52953476 4 2 28603 2.35400000 3216978453 3216978453 -13.00000000
-4.13653088 1.18925703 0.22556797 7 3 28604 4.31000000 3216978456 3216978456 3.00000000
-2.59249473 0.74534500 -0.52434313 3 4 28604 2.74800000 3216978458 3216978458 -11.00000000
-4.85766411 1.39750159 0.44222823 9 5 28605 5.07400000 3216978460 3216978460 5.00000000
-3.11128545 0.89567381 -0.51279217 3 6 28606 3.27800000 3216978463 3216978463 -9.00000000
-3.90068889 1.12440109 -0.49844560 6 8 28608 4.09000000 3216978467 3216978467 -7.00000000
-5.18978262 1.49697268 -0.47255844 10 10 28609 5.42200000 3216978472 3216978472 -5.00000000
-4.09477949 1.18267155 -0.22336987 6 12 28611 4.26800000 3216978476 3216978476 -3.00000000
-10.11319256 2.92284775 2.43037128 64 13 28612 10.80400000 3216978479 3216978479 13.00000000
-4.00907469 1.15943432 -0.07284635 100 14 28613 4.17400000 3216978481 3216978481 -1.00000000
-9.38988400 2.71735382 2.61924863 49 15 28614 10.12000000 3216978483 3216978483 15.00000000
-1.90699232 0.55439341 -0.53213197 4 0 28621 2.05600000 3216978504 3216978504 -15.00000000
-4.03797007 1.17466748 0.07340482 17 1 28622 4.20600000 3216978506 3216978506 1.00000000
-2.19477439 0.63888729 -0.52773517 4 2 28623 2.34600000 3216978509 3216978509 -13.00000000
-4.12084866 1.20033765 0.22493994 7 3 28624 4.29800000 3216978511 3216978511 3.00000000
-2.59364700 0.75548810 -0.52510637 3 4 28624 2.75200000 3216978513 3216978513 -11.00000000
-4.86997128 1.41946721 0.44379705 10 5 28625 5.09200000 3216978516 3216978516 5.00000000
-3.10434723 0.90542257 -0.51216644 3 6 28626 3.27400000 3216978518 3216978518 -9.00000000
-3.91579533 1.14357507 -0.50088298 6 8 28628 4.11000000 3216978523 3216978523 -7.00000000
-5.20556211 1.52122676 -0.47447586 10 10 28629 5.44400000 3216978527 3216978527 -5.00000000
-4.09062624 1.19695783 -0.22336987 6 12 28631 4.26800000 3216978532 3216978532 -3.00000000
-10.09170723 2.95484614 2.42767167 62 13 28632 10.79200000 3216978534 3216978534 13.00000000
-4.01267958 1.17567062 -0.07298596 82 14 28633 4.18200000 3216978536 3216978536 -1.00000000
-9.26773262 2.71534300 2.58767271 47 15 28633 9.99800000 3216978539 3216978539 15.00000000
-1.91431129 0.56377548 -0.53472012 4 0 28641 2.06600000 3216978559 3216978559 -15.00000000
-4.04727221 1.19271231 0.07364915 15 1 28642 4.22000000 3216978562 3216978562 1.00000000
-2.19253087 0.64654458 -0.52773517 4 2 28643 2.34600000 3216978564 3216978564 -13.00000000
-4.11663389 1.21471477 0.22493994 7 3 28644 4.29800000 3216978566 3216978566 3.00000000
-2.57969618 0.76120323 -0.52281666 3 4 28644 2.74000000 3216978569 3216978569 -11.00000000
-4.87645197 1.43984318 0.44484290 10 5 28645 5.10400000 3216978571 3216978571 5.00000000
-3.10116768 0.91625327 -0.51216644 3 6 28646 3.27400000 3216978573 3216978573 -9.00000000
-3.88512993 1.14935291 -0.49747065 6 8 28648 4.08200000 3216978578 3216978578 -7.00000000
-5.19257879 1.53712618 -0.47377861 10 10 28649 5.43600000 3216978582 3216978582 -5.00000000
-4.08833790 1.21179712 -0.22347453 6 12 28651 4.27000000 3216978587 3216978587 -3.00000000
-10.07012177 2.98672986 2.42497230 68 13 28652 10.78000000 3216978589 3216978589 13.00000000
-3.98746347 1.18341184 -0.07260201 63 14 28653 4.16000000 3216978592 3216978592 -1.00000000
-9.13549137 2.71299481 2.55350876 42 15 28654 9.86600000 3216978594 3216978594 15.00000000
-1.90317452 0.56736094 -0.53213197 4 0 28660 2.05600000 3216978615 3216978615 -15.00000000
-4.05287600 1.20898509 0.07382368 16 1 28661 4.23000000 3216978617 3216978617 1.00000000
-2.20531344 0.65827078 -0.53133440 4 2 28662 2.36200000 3216978619 3216978619 -13.00000000
-4.11258316 1.22835934 0.22493994 7 3 28663 4.29800000 3216978622 3216978622 3.00000000
-2.56963325 0.76750618 -0.52129018 3 4 28663 2.73200000 3216978624 3216978624 -11.00000000
-4.88310385 1.45942938 0.44588879 10 5 28664 5.11600000 3216978626 3216978626 5.00000000
-3.10568261 0.92879599 -0.51341790 3 6 28665 3.28200000 3216978629 3216978629 -9.00000000
-3.88890386 1.16450787 -0.49844560 6 8 28667 4.09000000 3216978633 3216978633 -7.00000000
-5.18363571 1.55319309 -0.47343001 10 10 28668 5.43200000 3216978638 3216978638 -5.00000000
-4.10342741 1.23108721 -0.22452125 6 12 28670 4.29000000 3216978642 3216978642 -3.00000000
-10.05269623 3.01786590 2.42317271 66 13 28671 10.77200000 3216978645 3216978645 13.00000000
-3.97585654 1.19432712 -0.07246239 61 14 28672 4.15200000 3216978647 3216978647 -1.00000000
-9.00296211 2.70444369 2.51882696 45 15 28672 9.73200000 3216978649 3216978649 15.00000000
-1.88823664 0.57009226 -0.52850848 4 0 28680 2.04200000 3216978670 3216978670 -15.00000000
-4.03906012 1.22023344 0.07364915 15 1 28681 4.22000000 3216978672 3216978672 1.00000000
-2.21419454 0.66934818 -0.53403378 4 2 28682 2.37400000 3216978675 3216978675 -13.00000000
-4.12356377 1.24733365 0.22577731 7 3 28683 4.31400000 3216978677 3216978677 3.00000000
-2.58948851 0.78329235 -0.52586961 3 4 28683 2.75600000 3216978679 3216978679 -11.00000000
-4.89132881 1.48050606 0.44710895 10 5 28684 5.13000000 3216978682 3216978682 5.00000000
-3.10809326 0.94134903 -0.51435649 1 6 28685 3.28800000 3216978684 3216978684 -9.00000000
-3.89431357 1.18095601 -0.49966431 6 8 28687 4.10000000 3216978688 3216978688 -7.00000000
-5.17055607 1.56896389 -0.47273275 10 10 28688 5.42400000 3216978693 3216978693 -5.00000000
-4.11439276 1.25004816 -0.22535862 6 12 28690 4.30600000 3216978698 3216978698 -3.00000000
-10.05328751 3.05633903 2.42587209 64 13 28691 10.78400000 3216978700 3216978700 13.00000000
-3.97166348 1.20819807 -0.07246239 61 14 28692 4.15200000 3216978702 3216978702 -1.00000000
-8.86916447 2.69973159 2.48414516 42 15 28693 9.59800000 3216978705 3216978705 15.00000000
-1.89362490 0.57893926 -0.53057903 4 0 28700 2.05000000 3216978725 3216978725 -15.00000000
-4.03860044 1.23549485 0.07371897 16 1 28701 4.22400000 3216978728 3216978728 1.00000000
-2.19880080 0.67308021 -0.53088450 3 2 28702 2.36000000 3216978730 3216978730 -13.00000000
-4.12682343 1.26405966 0.22619601 7 3 28703 4.32200000 3216978732 3216978732 3.00000000
-2.57547545 0.78887665 -0.52357990 3 4 28703 2.74400000 3216978735 3216978735 -11.00000000
-4.88613081 1.49757087 0.44710895 10 5 28704 5.13000000 3216978737 3216978737 5.00000000
-3.10667682 0.95277172 -0.51466942 3 6 28705 3.29000000 3216978739 3216978739 -9.00000000
-3.89206529 1.19512522 -0.49990806 6 8 28707 4.10200000 3216978744 3216978744 -7.00000000
-5.19932938 1.59753609 -0.47587034 6 10 28708 5.46000000 3216978748 3216978748 -5.00000000
-4.09855080 1.26087880 -0.22473060 6 12 28710 4.29400000 3216978753 3216978753 -3.00000000
-10.04255772 3.09141302 2.42587209 66 13 28711 10.78400000 3216978755 3216978755 13.00000000
-3.98462176 1.22735238 -0.07277653 57 14 28712 4.17000000 3216978758 3216978758 -1.00000000
-8.74569511 2.69386935 2.45205164 42 15 28712 9.47400000 3216978760 3216978760 15.00000000
-1.90266526 0.58897328 -0.53368485 4 0 28720 2.06200000 3216978781 3216978781 -15.00000000
-4.03808355 1.25076807 0.07378878 16 1 28721 4.22800000 3216978783 3216978783 1.00000000
-4.00756836 1.24208272 -0.96863925 5 2 28722 4.30600000 3216978785 3216978785 -13.00000000
-4.11284781 1.27549934 0.22567265 7 3 28723 4.31200000 3216978788 3216978788 3.00000000
-2.58770728 0.80251420 -0.52663285 3 4 28723 2.76000000 3216978790 3216978790 -11.00000000
-4.89990234 1.52052248 0.44885206 10 5 28724 5.15000000 3216978792 3216978792 5.00000000
-3.10333228 0.96361023 -0.51466942 3 6 28725 3.29000000 3216978794 3216978794 -9.00000000
-3.88786983 1.20870376 -0.49990806 6 8 28727 4.10200000 3216978799 3216978799 -7.00000000
-5.19752598 1.61685908 -0.47621897 6 10 28728 5.46400000 3216978804 3216978804 -5.00000000
-4.05789328 1.26389301 -0.22274183 4 12 28730 4.25600000 3216978808 3216978808 -3.00000000
-10.02054310 3.12297010 2.42317271 64 13 28731 10.77200000 3216978811 3216978811 13.00000000
-3.98794913 1.24363518 -0.07291616 56 14 28732 4.17800000 3216978813 3216978813 -1.00000000
-8.65140247 2.69792509 2.42824030 45 15 28732 9.38200000 3216978815 3216978815 15.00000000
-1.90786719 0.59825504 -0.53575540 4 0 28741 2.07000000 3216978836 3216978836 -15.00000000
-4.05255175 1.27154648 0.07413782 16 1 28742 4.24800000 3216978838 3216978838 1.00000000
-2.18649101 0.68646222 -0.52908486 4 2 28743 2.35200000 3216978841 3216978841 -13.00000000
-4.11005068 1.29116368 0.22577731 7 3 28744 4.31400000 3216978843 3216978843 3.00000000
-2.58100247 0.81081641 -0.52586961 3 4 28744 2.75600000 3216978845 3216978845 -11.00000000
-4.90760136 1.54265356 0.45007226 10 5 28745 5.16400000 3216978847 3216978847 5.00000000
-3.10731697 0.97734886 -0.51592088 3 6 28746 3.29800000 3216978850 3216978850 -9.00000000
-3.88341355 1.22294545 -0.49990806 6 8 28748 4.10200000 3216978854 3216978854 -7.00000000
-5.18016338 1.63230538 -0.47517312 6 10 28749 5.45200000 3216978859 3216978859 -5.00000000
-4.08561373 1.28897309 -0.22452125 6 12 28751 4.29000000 3216978864 3216978864 -3.00000000
-10.00531197 3.15850306 2.42227292 72 13 28752 10.76800000 3216978866 3216978866 13.00000000
-3.97573686 1.25583410 -0.07277653 56 14 28753 4.17000000 3216978868 3216978868 -1.00000000
-8.56224442 2.70459509 2.40598178 47 15 28753 9.29600000 3216978870 3216978870 15.00000000
-1.90024328 0.60315770 -0.53420252 4 0 28761 2.06400000 3216978891 3216978891 -15.00000000
-4.05761814 1.28871131 0.07431234 15 1 28762 4.25800000 3216978894 3216978894 1.00000000
-2.19708204 0.69822180 -0.53223419 4 2 28763 2.36600000 3216978896 3216978896 -13.00000000
-4.11503553 1.30852878 0.22630067 7 3 28764 4.32400000 3216978898 3216978898 3.00000000
-2.56318903 0.81506139 -0.52281666 3 4 28764 2.74000000 3216978900 3216978900 -11.00000000
-4.91927385 1.56521177 0.45164105 10 5 28765 5.18200000 3216978903 3216978903 5.00000000
-3.10576868 0.98878872 -0.51623374 3 6 28766 3.30000000 3216978905 3216978905 -9.00000000
-3.88668633 1.23890507 -0.50088298 6 8 28768 4.11000000 3216978910 3216978910 -7.00000000
-5.17823029 1.65158844 -0.47552174 6 10 28769 5.45600000 3216978914 3216978914 -5.00000000
-4.10011530 1.30930233 -0.22556797 6 12 28771 4.31000000 3216978919 3216978919 -3.00000000
-9.98308849 3.18985009 2.41957355 66 13 28772 10.75600000 3216978921 3216978921 13.00000000
-3.97132897 1.26970434 -0.07277653 57 14 28773 4.17000000 3216978923 3216978923 -1.00000000
-8.50627422 2.72124338 2.39304090 45 15 28774 9.24600000 3216978926 3216978926 15.00000000
-1.89455390 0.60827470 -0.53316724 4 0 28780 2.06000000 3216978947 3216978947 -15.00000000
-4.04761076 1.30032492 0.07420763 26 1 28781 4.25200000 3216978949 3216978949 1.00000000
-2.20588589 0.70908195 -0.53493363 4 2 28782 2.37800000 3216978951 3216978951 -13.00000000
-4.11637735 1.32400215 0.22661468 7 3 28783 4.33000000 3216978953 3216978953 3.00000000
-2.56794786 0.82596129 -0.52434313 3 4 28783 2.74800000 3216978956 3216978956 -11.00000000
-4.91784954 1.58273685 0.45198968 7 5 28784 5.18600000 3216978958 3216978958 5.00000000
-3.09871221 0.99787134 -0.51560801 3 6 28785 3.29600000 3216978960 3216978960 -9.00000000
-3.88633513 1.25300527 -0.50137049 6 8 28787 4.11400000 3216978965 3216978965 -7.00000000
-5.15565968 1.66324556 -0.47395292 3 10 28788 5.43800000 3216978970 3216978970 -5.00000000
-4.12616014 1.33271348 -0.22724272 6 12 28790 4.34200000 3216978974 3216978974 -3.00000000
-9.97616386 3.22413611 2.42047334 68 13 28791 10.76000000 3216978976 3216978976 13.00000000
-3.97280478 1.28471255 -0.07288125 63 14 28792 4.17600000 3216978979 3216978979 -1.00000000
-8.47011185 2.73903704 2.38527632 45 15 28792 9.21600000 3216978981 3216978981 15.00000000
-1.89425635 0.61548120 -0.53368485 4 0 28800 2.06200000 3216979002 3216979002 -15.00000000
-4.02973509 1.31011796 0.07396330 80 1 28801 4.23800000 3216979004 3216979004 1.00000000
-2.18857217 0.71195489 -0.53133440 4 2 28802 2.36200000 3216979006 3216979006 -13.00000000
-4.11742830 1.34021747 0.22692871 7 3 28803 4.33600000 3216979009 3216979009 3.00000000
-2.56504917 0.83492005 -0.52434313 3 4 28803 2.74800000 3216979011 3216979011 -11.00000000
-4.92934513 1.60544682 0.45355847 7 5 28804 5.20400000 3216979013 3216979013 5.00000000
-3.11023545 1.01357830 -0.51811093 1 6 28805 3.31200000 3216979016 3216979016 -9.00000000
-6.32242680 2.06160331 0.81652462 2 7 28806 6.70000000 3216979018 3216979018 7.00000000
-3.88193774 1.26656353 -0.50137049 6 8 28807 4.11400000 3216979020 3216979020 -7.00000000
-5.16686869 1.68679690 -0.47552174 3 10 28808 5.45600000 3216979025 3216979025 -5.00000000
-4.11768627 1.34586740 -0.22703338 6 12 28810 4.33800000 3216979029 3216979029 -3.00000000
-9.96114445 3.25772834 2.41957355 66 13 28811 10.75600000 3216979032 3216979032 13.00000000
-3.97589827 1.30106008 -0.07302087 61 14 28812 4.18400000 3216979034 3216979034 -1.00000000
-8.46049881 2.76858640 2.38527632 45 15 28812 9.21600000 3216979036 3216979036 15.00000000
-1.89954627 0.62417167 -0.53575540 4 0 28819 2.07000000 3216979058 3216979058 -15.00000000
-4.02156925 1.32222462 0.07389349 15 1 28820 4.23400000 3216979060 3216979060 1.00000000
-2.18619919 0.71920854 -0.53133440 4 2 28821 2.36200000 3216979063 3216979063 -13.00000000
-4.10940313 1.35189784 0.22671936 7 3 28821 4.33200000 3216979065 3216979065 3.00000000
-2.58464408 0.85078764 -0.52892256 3 4 28822 2.77200000 3216979067 3216979067 -11.00000000
-4.94859505 1.62988687 0.45582452 7 5 28823 5.23000000 3216979070 3216979070 5.00000000
-3.10873318 1.02450490 -0.51842380 3 6 28824 3.31400000 3216979072 3216979072 -9.00000000
-3.87394595 1.27818549 -0.50088298 6 8 28826 4.11000000 3216979076 3216979076 -7.00000000
-5.16503048 1.70517087 -0.47587034 6 10 28827 5.46000000 3216979081 3216979081 -5.00000000
-4.08285904 1.34948599 -0.22535862 6 12 28829 4.30600000 3216979086 3216979086 -3.00000000
-9.93918610 3.28707147 2.41687417 70 13 28830 10.74400000 3216979088 3216979088 13.00000000
-3.98485112 1.31863511 -0.07326520 56 14 28831 4.19800000 3216979090 3216979090 -1.00000000
-8.44026756 2.79298592 2.38217044 47 15 28831 9.20400000 3216979093 3216979093 15.00000000
-1.90285552 0.63262695 -0.53730834 4 0 28839 2.07600000 3216979113 3216979113 -15.00000000
-4.04159594 1.34446013 0.07434725 7 1 28840 4.26000000 3216979116 3216979116 1.00000000
-2.19476938 0.73052806 -0.53403378 4 2 28841 2.37400000 3216979118 3216979118 -13.00000000
-4.10631561 1.36758161 0.22682403 7 3 28842 4.33400000 3216979120 3216979120 3.00000000
-2.57793331 0.85856384 -0.52815932 3 4 28842 2.76800000 3216979123 3216979123 -11.00000000
-4.94098520 1.64652097 0.45565021 5 5 28843 5.22800000 3216979125 3216979125 5.00000000
-3.10513806 1.03535020 -0.51842380 3 6 28844 3.31400000 3216979127 3216979127 -9.00000000
-3.87699246 1.29421461 -0.50185794 6 8 28846 4.11800000 3216979132 3216979132 -7.00000000
-5.17794466 1.72950184 -0.47761348 3 10 28847 5.48000000 3216979136 3216979136 -5.00000000
-4.09327650 1.36879694 -0.22619601 6 12 28849 4.32200000 3216979141 3216979141 -3.00000000
-9.92025948 3.31927228 2.41507459 68 13 28850 10.73600000 3216979143 3216979143 13.00000000
-3.97643137 1.33126712 -0.07319539 57 14 28851 4.19400000 3216979146 3216979146 -1.00000000
-8.43363762 2.82512951 2.38320565 45 15 28852 9.20800000 3216979148 3216979148 15.00000000
-1.89136922 0.63651609 -0.53472012 4 0 28860 2.06600000 3216979169 3216979169 -15.00000000
-4.04043150 1.36054051 0.07441706 7 1 28861 4.26400000 3216979171 3216979171 1.00000000
-2.19207716 0.73856741 -0.53403378 4 2 28862 2.37400000 3216979173 3216979173 -13.00000000
-4.11476564 1.38637090 0.22755674 7 3 28862 4.34800000 3216979176 3216979176 3.00000000
-2.55616522 0.86173493 -0.52434313 3 4 28863 2.74800000 3216979178 3216979178 -11.00000000
-4.95379591 1.67098761 0.45739335 2 5 28864 5.24800000 3216979180 3216979180 5.00000000
-3.10132241 1.04672420 -0.51842380 3 6 28865 3.31400000 3216979182 3216979182 -9.00000000
-3.87222290 1.30841577 -0.50185794 6 8 28867 4.11800000 3216979187 3216979187 -7.00000000
-5.16024590 1.74463952 -0.47656760 6 10 28868 5.46800000 3216979192 3216979192 -5.00000000
-4.11093426 1.39147449 -0.22745207 6 12 28870 4.34600000 3216979196 3216979196 -3.00000000
-9.90802670 3.35560966 2.41507459 68 13 28871 10.73600000 3216979199 3216979199 13.00000000
-3.96016192 1.34198177 -0.07298596 59 14 28872 4.18200000 3216979201 3216979201 -1.00000000
-8.41274643 2.85083103 2.38010001 47 15 28872 9.19600000 3216979203 3216979203 15.00000000
-1.87450564 0.63813376 -0.53057903 4 0 28880 2.05000000 3216979224 3216979224 -15.00000000
-4.03187180 1.37334645 0.07434725 11 1 28881 4.26000000 3216979226 3216979226 1.00000000
-2.18948579 0.74621469 -0.53403378 4 2 28882 2.37400000 3216979228 3216979228 -13.00000000
-4.10990143 1.40072560 0.22755674 7 3 28882 4.34800000 3216979231 3216979231 3.00000000
-2.57172346 0.87698901 -0.52815932 3 4 28883 2.76800000 3216979233 3216979233 -11.00000000
-4.96678972 1.69470334 0.45913646 2 5 28884 5.26800000 3216979235 3216979235 5.00000000
-3.10886645 1.06137276 -0.52030104 3 6 28885 3.32600000 3216979238 3216979238 -9.00000000
-3.87138891 1.32320845 -0.50234544 6 8 28887 4.12200000 3216979242 3216979242 -7.00000000
-5.15789509 1.76393092 -0.47691622 6 10 28888 5.47200000 3216979247 3216979247 -5.00000000
-4.10983133 1.40710974 -0.22766142 6 12 28890 4.35000000 3216979252 3216979252 -3.00000000
-9.89625359 3.39017463 2.41507459 68 13 28891 10.73600000 3216979254 3216979254 13.00000000
-3.96680331 1.35968745 -0.07319539 56 14 28892 4.19400000 3216979256 3216979256 -1.00000000
-8.39177895 2.87642121 2.37699413 45 15 28892 9.18400000 3216979258 3216979258 15.00000000
-1.89053273 0.65096259 -0.53575540 4 0 28900 2.07000000 3216979279 3216979279 -15.00000000
-4.02516317 1.38676059 0.07431234 7 1 28901 4.25800000 3216979281 3216979281 1.00000000
-2.19792175 0.75766343 -0.53673321 4 2 28902 2.38600000 3216979284 3216979284 -13.00000000
-4.11229229 1.41838467 0.22797543 7 3 28903 4.35600000 3216979286 3216979286 3.00000000
-2.56493473 0.88468033 -0.52739608 3 4 28903 2.76400000 3216979288 3216979288 -11.00000000
-5.04747963 1.74192905 0.46715477 2 5 28904 5.36000000 3216979291 3216979291 5.00000000
-3.09393954 1.06834984 -0.51842380 3 6 28905 3.31400000 3216979293 3216979293 -9.00000000
-3.88550806 1.34319985 -0.50478280 6 8 28907 4.14200000 3216979298 3216979298 -7.00000000
-5.15358925 1.78257596 -0.47709054 3 10 28908 5.47400000 3216979302 3216979302 -5.00000000
-4.08224678 1.41360462 -0.22640535 6 12 28910 4.32600000 3216979307 3216979307 -3.00000000
-9.88067627 3.42342234 2.41417480 64 13 28911 10.73200000 3216979309 3216979309 13.00000000
-3.96581173 1.37483597 -0.07326520 52 14 28912 4.19800000 3216979311 3216979311 -1.00000000
-8.38117981 2.90715933 2.37699413 45 15 28913 9.18400000 3216979314 3216979314 15.00000000
-1.88824892 0.65755785 -0.53575540 4 0 28920 2.07000000 3216979334 3216979334 -15.00000000
-4.04484606 1.40935612 0.07476611 7 1 28921 4.28400000 3216979337 3216979337 1.00000000
-2.17318201 0.75763273 -0.53133440 4 2 28922 2.36200000 3216979339 3216979339 -13.00000000
-4.10945225 1.43267131 0.22808009 7 3 28922 4.35800000 3216979341 3216979341 3.00000000
-2.56739211 0.89556813 -0.52854091 3 4 28923 2.77000000 3216979344 3216979344 -11.00000000
-3.09019136 1.07914317 -0.51842380 3 6 28925 3.31400000 3216979348 3216979348 -9.00000000
-3.87330031 1.35413408 -0.50380784 6 8 28927 4.13400000 3216979353 3216979353 -7.00000000
-5.17178392 1.80910659 -0.47935659 6 10 28928 5.50000000 3216979358 3216979358 -5.00000000
-4.09990788 1.43576729 -0.22766142 6 12 28930 4.35000000 3216979362 3216979362 -3.00000000
-9.86131001 3.45531392 2.41237521 62 13 28931 10.72400000 3216979364 3216979364 13.00000000
-3.97231102 1.39264035 -0.07347463 57 14 28932 4.21000000 3216979367 3216979367 -1.00000000
-8.36733532 2.93511844 2.37595892 45 15 28933 9.18000000 3216979369 3216979369 15.00000000
-1.89516938 0.66702271 -0.53834361 4 0 28939 2.08000000 3216979390 3216979390 -15.00000000
-4.04958105 1.42608261 0.07494064 7 1 28940 4.29400000 3216979392 3216979392 1.00000000
-2.18352365 0.76936841 -0.53448373 3 2 28941 2.37600000 3216979394 3216979394 -13.00000000
-4.11221361 1.44894576 0.22849879 7 3 28941 4.36600000 3216979397 3216979397 3.00000000
-2.55144739 0.89950764 -0.52586961 3 4 28942 2.75600000 3216979399 3216979399 -11.00000000
-3.10522342 1.09595907 -0.52155250 3 6 28944 3.33400000 3216979404 3216979404 -9.00000000
-3.86504507 1.36564827 -0.50332040 6 8 28946 4.13000000 3216979408 3216979408 -7.00000000
-5.17139196 1.82823920 -0.47987953 6 10 28947 5.50600000 3216979413 3216979413 -5.00000000
-4.11206913 1.45535243 -0.22860345 6 12 28949 4.36800000 3216979417 3216979417 -3.00000000
-9.83510113 3.48279214 2.40877581 64 13 28950 10.70800000 3216979420 3216979420 13.00000000
-3.96201634 1.40380180 -0.07336992 64 14 28951 4.20400000 3216979422 3216979422 -1.00000000
-8.36483955 2.96543145 2.37802935 45 15 28952 9.18800000 3216979424 3216979424 15.00000000
-1.87644923 0.66780448 -0.53368485 4 0 28959 2.06200000 3216979445 3216979445 -15.00000000
-4.03327560 1.43618488 0.07473120 7 1 28960 4.28200000 3216979447 3216979447 1.00000000
-4.00735712 1.42774391 -0.98213631 6 2 28961 4.36600000 3216979450 3216979450 -13.00000000
-4.10336781 1.46195066 0.22828944 7 3 28961 4.36200000 3216979452 3216979452 3.00000000
-2.55383968 0.91038603 -0.52701443 3 4 28962 2.76200000 3216979454 3216979454 -11.00000000
-3.09393716 1.10413587 -0.52030104 3 6 28964 3.32600000 3216979459 3216979459 -9.00000000
-5.70194197 2.03597879 0.74340302 2 7 28965 6.10000000 3216979461 3216979461 7.00000000
-3.86773205 1.38180292 -0.50429535 6 8 28966 4.13800000 3216979464 3216979464 -7.00000000
-5.16310263 1.84560895 -0.47970521 6 10 28967 5.50400000 3216979468 3216979468 -5.00000000
-4.11072493 1.47104323 -0.22881280 6 12 28969 4.37200000 3216979473 3216979473 -3.00000000
-9.82288456 3.51710176 2.40877581 62 13 28970 10.70800000 3216979475 3216979475 13.00000000
-3.95520949 1.41694891 -0.07333501 59 14 28971 4.20200000 3216979477 3216979477 -1.00000000
-8.34716320 2.99200463 2.37595892 45 15 28972 9.18000000 3216979480 3216979480 15.00000000
-1.87592447 0.67500454 -0.53420252 4 0 28979 2.06400000 3216979500 3216979500 -15.00000000
-4.03952646 1.45431912 0.07494064 7 1 28980 4.29400000 3216979503 3216979503 1.00000000
-4.00601578 1.44304430 -0.98303610 6 2 28981 4.37000000 3216979505 3216979505 -13.00000000
-4.11890936 1.48371077 0.22944084 7 3 28981 4.38400000 3216979507 3216979507 3.00000000
-2.56357503 0.92395473 -0.52968580 3 4 28982 2.77600000 3216979510 3216979510 -11.00000000
-3.08634782 1.11358821 -0.51967531 3 6 28984 3.32200000 3216979514 3216979514 -9.00000000
-5.69480038 2.05586982 0.74340302 2 7 28985 6.10000000 3216979516 3216979516 7.00000000
-3.85915089 1.39394665 -0.50380784 6 8 28986 4.13400000 3216979519 3216979519 -7.00000000
-5.13976479 1.85752559 -0.47813639 6 10 28987 5.48600000 3216979523 3216979523 -5.00000000
-9.90886593 3.58304787 2.04814386 12 11 28988 10.73400000 3216979526 3216979526 11.00000000
-4.12246799 1.49149895 -0.22975485 6 12 28989 4.39000000 3216979528 3216979528 -3.00000000
-9.80688286 3.55004191 2.40787601 62 13 28990 10.70400000 3216979530 3216979530 13.00000000
-3.95964003 1.43415141 -0.07350954 64 14 28991 4.21200000 3216979533 3216979533 -1.00000000
-8.32448006 3.01506329 2.37233543 47 15 28991 9.16600000 3216979535 3216979535 15.00000000
-1.87355685 0.68154860 -0.53420252 4 0 28999 2.06400000 3216979556 3216979556 -15.00000000
-4.04570007 1.47251439 0.07515007 7 1 29000 4.30600000 3216979558 3216979558 1.00000000
-2.18816495 0.79685944 -0.53763300 4 2 29001 2.39000000 3216979560 3216979560 -13.00000000
-4.11933517 1.50012970 0.22975485 7 3 29001 4.39000000 3216979563 3216979563 3.00000000
-2.56033421 0.93289769 -0.52968580 3 4 29002 2.77600000 3216979565 3216979565 -11.00000000
-5.18135452 1.88893163 0.48249421 2 5 29003 5.53600000 3216979567 3216979567 5.00000000
-3.07316303 1.12097013 -0.51811093 3 6 29004 3.31200000 3216979569 3216979569 -9.00000000
-5.58316135 2.03762412 0.72975361 2 7 29005 5.98800000 3216979572 3216979572 7.00000000
-3.86917901 1.41285634 -0.50575775 6 8 29006 4.15000000 3216979574 3216979574 -7.00000000
-5.13699198 1.87682283 -0.47848502 3 10 29007 5.49000000 3216979579 3216979579 -5.00000000
-9.91104984 3.62300682 2.05119681 12 11 29008 10.75000000 3216979581 3216979581 11.00000000
-4.10973358 1.50313568 -0.22933616 6 12 29009 4.38200000 3216979583 3216979583 -3.00000000
-9.79443073 3.58425283 2.40787601 66 13 29010 10.70400000 3216979586 3216979586 13.00000000
-3.95648766 1.44865191 -0.07354444 59 14 29011 4.21400000 3216979588 3216979588 -1.00000000
-8.31881523 3.04754734 2.37388825 45 15 29012 9.17200000 3216979590 3216979590 15.00000000
-1.87660575 0.69008464 -0.53575540 4 0 29019 2.07000000 3216979611 3216979611 -15.00000000
-4.05554914 1.49215150 0.07542930 5 1 29020 4.32200000 3216979613 3216979613 1.00000000
-2.16891122 0.79843378 -0.53358388 4 2 29021 2.37200000 3216979616 3216979616 -13.00000000
-4.11193514 1.51452744 0.22965017 7 3 29022 4.38800000 3216979618 3216979618 3.00000000
-2.56258893 0.94386488 -0.53083062 3 4 29022 2.78200000 3216979620 3216979620 -11.00000000
-5.24203062 1.93180859 0.48876941 2 5 29023 5.60800000 3216979622 3216979622 5.00000000
-3.07849836 1.13510764 -0.51967531 3 6 29024 3.32200000 3216979625 3216979625 -9.00000000
-5.58160210 2.05916166 0.73048484 2 7 29025 5.99400000 3216979627 3216979627 7.00000000
-3.86049914 1.42497885 -0.50527030 6 8 29026 4.14600000 3216979629 3216979629 -7.00000000
-5.13227844 1.89543307 -0.47865933 6 10 29027 5.49200000 3216979634 3216979634 -5.00000000
-9.90386772 3.65962219 2.05234146 18 11 29028 10.75600000 3216979636 3216979636 11.00000000
-4.11382866 1.52093518 -0.22985952 6 12 29029 4.39200000 3216979639 3216979639 -3.00000000
-9.76906586 3.61368728 2.40472674 54 13 29030 10.69000000 3216979641 3216979641 13.00000000
-3.96078372 1.46592426 -0.07371897 63 14 29031 4.22400000 3216979643 3216979643 -1.00000000
-8.31591129 3.07779884 2.37595892 47 15 29031 9.18000000 3216979646 3216979646 15.00000000
-1.87961793 0.69865024 -0.53730834 4 0 29039 2.07600000 3216979666 3216979666 -15.00000000
-4.06531000 1.51187527 0.07570854 5 1 29040 4.33800000 3216979669 3216979669 1.00000000
-2.17159009 0.80803859 -0.53493363 4 2 29041 2.37800000 3216979671 3216979671 -13.00000000
-4.11223888 1.53096211 0.22996420 7 3 29042 4.39400000 3216979673 3216979673 3.00000000
-2.55927849 0.95280421 -0.53083062 3 4 29042 2.78200000 3216979675 3216979675 -11.00000000
-3.08192134 1.14860606 -0.52092677 3 6 29044 3.33000000 3216979680 3216979680 -9.00000000
-5.59670019 2.08695555 0.73340970 2 7 29045 6.01800000 3216979682 3216979682 7.00000000
-3.84434223 1.43428242 -0.50380784 6 8 29046 4.13400000 3216979685 3216979685 -7.00000000
-5.15362978 1.92378807 -0.48127401 3 10 29047 5.52200000 3216979689 3216979689 -5.00000000
-9.90758514 3.70035315 2.05577612 21 11 29048 10.77400000 3216979692 3216979692 11.00000000
-4.09726906 1.53109109 -0.22923149 6 12 29049 4.38000000 3216979694 3216979694 -3.00000000
-3.95189667 1.47833979 -0.07364915 61 14 29051 4.22000000 3216979699 3216979699 -1.00000000
-8.30819321 3.10961199 2.37699413 47 15 29052 9.18400000 3216979701 3216979701 15.00000000
-1.87897623 0.70588648 -0.53782600 4 0 29059 2.07800000 3216979722 3216979722 -15.00000000
-4.07123899 1.53027809 0.07591797 5 1 29060 4.35000000 3216979724 3216979724 1.00000000
-2.16875625 0.81561393 -0.53493363 4 2 29061 2.37800000 3216979726 3216979726 -13.00000000
-4.11247778 1.54741728 0.23027821 7 3 29062 4.40000000 3216979728 3216979728 3.00000000
-2.54491210 0.95758361 -0.52854091 3 4 29062 2.77000000 3216979731 3216979731 -11.00000000
-3.08159041 1.16074967 -0.52155250 3 6 29064 3.33400000 3216979735 3216979735 -9.00000000
-3.85045695 1.45189524 -0.50527030 6 8 29066 4.14600000 3216979740 3216979740 -7.00000000
-5.13196993 1.93613970 -0.47987953 6 10 29067 5.50600000 3216979745 3216979745 -5.00000000
-9.90930271 3.74046087 2.05882907 25 11 29068 10.79000000 3216979747 3216979747 11.00000000
-4.08068895 1.54114997 -0.22860345 6 12 29069 4.36800000 3216979749 3216979749 -3.00000000
-3.94110084 1.49000394 -0.07354444 59 14 29071 4.21400000 3216979754 3216979754 -1.00000000
-8.28699303 3.13304687 2.37388825 45 15 29071 9.17200000 3216979756 3216979756 15.00000000
-1.86927652 0.70969820 -0.53575540 4 0 29079 2.07000000 3216979777 3216979777 -15.00000000
-4.05465603 1.54021943 0.07570854 5 1 29080 4.33800000 3216979779 3216979779 1.00000000
-2.17864728 0.82802564 -0.53808290 3 2 29081 2.39200000 3216979781 3216979781 -13.00000000
-4.11825228 1.56602240 0.23090623 7 3 29082 4.41200000 3216979784 3216979784 3.00000000
-2.54338908 0.96715897 -0.52892256 3 4 29082 2.77200000 3216979786 3216979786 -11.00000000
-5.22151375 1.98659611 0.48876941 2 5 29083 5.60800000 3216979788 3216979788 5.00000000
-3.07751989 1.17149925 -0.52155250 3 6 29084 3.33400000 3216979791 3216979791 -9.00000000
-3.85093021 1.46744764 -0.50600153 6 8 29086 4.15200000 3216979795 3216979795 -7.00000000
-5.12518024 1.95404184 -0.47987953 6 10 29087 5.50600000 3216979800 3216979800 -5.00000000
-9.89618587 3.77502823 2.05882907 28 11 29088 10.79000000 3216979802 3216979802 11.00000000
-4.11820173 1.57176483 -0.23101091 6 12 29089 4.41400000 3216979804 3216979804 -3.00000000
-3.94895172 1.50874782 -0.07378878 66 14 29091 4.22800000 3216979809 3216979809 -1.00000000
-8.26101875 3.15788078 2.36974716 47 15 29092 9.15600000 3216979811 3216979811 15.00000000
-1.86318052 0.71483487 -0.53472012 4 0 29099 2.06600000 3216979832 3216979832 -15.00000000
-4.05485582 1.55651331 0.07581326 5 1 29100 4.34400000 3216979834 3216979834 1.00000000
-2.16119027 0.83003604 -0.53448373 4 2 29101 2.37600000 3216979837 3216979837 -13.00000000
-4.12208223 1.58397031 0.23142959 7 3 29102 4.42200000 3216979839 3216979839 3.00000000
-2.54366279 0.97743958 -0.52968580 3 4 29102 2.77600000 3216979841 3216979841 -11.00000000
-5.21454716 2.00481033 0.48876941 2 5 29103 5.60800000 3216979844 3216979844 5.00000000
-3.06234980 1.17797947 -0.51967531 3 6 29104 3.32200000 3216979846 3216979846 -9.00000000
-3.84763694 1.48159420 -0.50624526 6 8 29106 4.15400000 3216979851 3216979851 -7.00000000
-5.12762403 1.97550154 -0.48075107 6 10 29107 5.51600000 3216979855 3216979855 -5.00000000
-9.88477993 3.81025529 2.05921078 28 11 29108 10.79200000 3216979857 3216979857 11.00000000
-4.10523605 1.58325565 -0.23059222 6 12 29109 4.40600000 3216979860 3216979860 -3.00000000
-3.96604705 1.53116548 -0.07420763 26 14 29111 4.25200000 3216979864 3216979864 -1.00000000
-8.24509430 3.18317056 2.36819434 47 15 29111 9.15000000 3216979867 3216979867 15.00000000
-1.87508368 0.72692060 -0.53886127 4 0 29119 2.08200000 3216979887 3216979887 -15.00000000
-4.06804132 1.57788932 0.07616230 5 1 29120 4.36400000 3216979890 3216979890 1.00000000
-2.16918015 0.84180510 -0.53718311 3 2 29121 2.38800000 3216979892 3216979892 -13.00000000
-4.12025166 1.59979522 0.23163894 7 3 29122 4.42600000 3216979894 3216979894 3.00000000
-2.54755616 0.98915505 -0.53121227 3 4 29122 2.78400000 3216979897 3216979897 -11.00000000
-5.28180456 2.05185914 0.49574187 2 5 29123 5.68800000 3216979899 3216979899 5.00000000
-3.06926632 1.19295573 -0.52155250 3 6 29124 3.33400000 3216979901 3216979901 -9.00000000
-3.84614182 1.49645555 -0.50673270 6 8 29126 4.15800000 3216979906 3216979906 -7.00000000
-5.13740683 1.99989307 -0.48231989 6 10 29127 5.53400000 3216979910 3216979910 -5.00000000
-9.88422489 3.84972405 2.06188202 28 11 29128 10.80600000 3216979913 3216979913 11.00000000
-4.09968472 1.59757602 -0.23059222 6 12 29129 4.40600000 3216979915 3216979915 -3.00000000
-3.97930789 1.55226743 -0.07455668 28 14 29131 4.27200000 3216979920 3216979920 -1.00000000
-8.24237061 3.21688080 2.37078238 47 15 29132 9.16000000 3216979922 3216979922 15.00000000
-1.87626064 0.73454309 -0.53989655 4 0 29138 2.08600000 3216979943 3216979943 -15.00000000
-4.07023430 1.59428799 0.07630192 3 1 29139 4.37200000 3216979945 3216979945 1.00000000
-2.16637659 0.84899372 -0.53718311 3 2 29140 2.38800000 3216979947 3216979947 -13.00000000
-4.11492395 1.61344969 0.23163894 7 3 29141 4.42600000 3216979950 3216979950 3.00000000
-2.54060626 0.99616426 -0.53044903 3 4 29141 2.78000000 3216979952 3216979952 -11.00000000
-5.25271368 2.06063151 0.49365014 2 5 29142 5.66400000 3216979954 3216979954 5.00000000
-3.08552027 1.21106625 -0.52499408 3 6 29143 3.35600000 3216979957 3216979957 -9.00000000
-3.83192015 1.50557196 -0.50551403 4 8 29145 4.14800000 3216979961 3216979961 -7.00000000
-5.11776686 2.01181602 -0.48109969 6 10 29146 5.52000000 3216979966 3216979966 -5.00000000
-9.88236618 3.88679171 2.06417179 28 11 29147 10.81800000 3216979968 3216979968 11.00000000
-4.09250593 1.61043096 -0.23048756 4 12 29148 4.40400000 3216979970 3216979970 -3.00000000
-3.97599912 1.56618762 -0.07459158 26 14 29150 4.27400000 3216979975 3216979975 -1.00000000
