# .PCD v0.7 - Point Cloud Data file format
VERSION 0.7
FIELDS x y z intensity laser_id azimuth distance_m adjustedtime timestamp vertical_angle
SIZE 4 4 4 1 1 2 8 8 4 8
TYPE F F F U U U F U U F
COUNT 1 1 1 1 1 1 1 1 1 1
WIDTH 529
HEIGHT 1
VIEWPOINT 0 0 0 1 0 0 0
POINTS 529
DATA ascii
5.27084780 0.19327322 -0.64761370 4 8 8790 5.31400000 3216523547 3216523547 -7.00000000
8.20217800 0.30076021 1.29997039 7 9 8790 8.31000000 3216523549 3216523549 9.00000000
6.60834122 0.24116196 -0.57853985 44 10 8791 6.63800000 3216523551 3216523551 -5.00000000
8.12353992 0.29361758 -0.42601469 21 12 8793 8.14000000 3216523556 3216523556 -3.00000000
8.10957050 0.29027823 -0.14164373 18 14 8795 8.11600000 3216523561 3216523561 -1.00000000
8.17808628 0.29273072 2.19271493 60 15 8795 8.47200000 3216523563 3216523563 15.00000000
2.22417784 0.07650402 -0.59631908 4 0 8803 2.30400000 3216523584 3216523584 -15.00000000
8.12200737 0.27794975 0.14185315 15 1 8804 8.12800000 3216523586 3216523586 1.00000000
2.62927580 0.08951913 -0.60736787 5 2 8805 2.70000000 3216523588 3216523588 -13.00000000
8.13616180 0.27559078 0.42664272 13 3 8806 8.15200000 3216523591 3216523591 3.00000000
3.15117931 0.10673779 -0.61287850 5 4 8806 3.21200000 3216523593 3216523593 -11.00000000
8.11438084 0.27343518 0.71031928 76 5 8807 8.15000000 3216523595 3216523595 5.00000000
3.97025228 0.13309425 -0.62917942 6 6 8808 4.02200000 3216523597 3216523597 -9.00000000
8.13832474 0.27139801 0.99981612 92 7 8809 8.20400000 3216523600 3216523600 7.00000000
5.25760269 0.17441264 -0.64590752 4 8 8810 5.30000000 3216523602 3216523602 -7.00000000
8.21699810 0.27258590 1.30216050 10 9 8810 8.32400000 3216523604 3216523604 9.00000000
6.60117769 0.21783024 -0.57784259 44 10 8811 6.63000000 3216523607 3216523607 -5.00000000
8.12451553 0.26525933 -0.42601469 21 12 8813 8.14000000 3216523611 3216523611 -3.00000000
8.10653687 0.26183966 -0.14157392 20 14 8815 8.11200000 3216523616 3216523616 -1.00000000
8.16361141 0.26368314 2.18857384 51 15 8815 8.45600000 3216523618 3216523618 15.00000000
2.22829318 0.06885907 -0.59735435 4 0 8823 2.30800000 3216523639 3216523639 -15.00000000
8.11493301 0.24935129 0.14171354 18 1 8824 8.12000000 3216523641 3216523641 1.00000000
2.62178087 0.08010265 -0.60556823 5 2 8825 2.69200000 3216523644 3216523644 -13.00000000
8.13308144 0.24706730 0.42643338 15 3 8826 8.14800000 3216523646 3216523646 3.00000000
3.14957023 0.09567786 -0.61249685 5 4 8826 3.21000000 3216523648 3216523648 -11.00000000
8.11130333 0.24498874 0.70997065 76 5 8827 8.14600000 3216523650 3216523650 5.00000000
3.96674371 0.11911609 -0.62855369 6 6 8828 4.01800000 3216523653 3216523653 -9.00000000
8.13128567 0.24275136 0.99884117 95 7 8829 8.19600000 3216523655 3216523655 7.00000000
5.28397417 0.15682469 -0.64907610 6 8 8830 5.32600000 3216523657 3216523657 -7.00000000
8.21596718 0.24240899 1.30184758 10 9 8831 8.32200000 3216523660 3216523660 9.00000000
6.59990644 0.19472773 -0.57766825 16 10 8831 6.62800000 3216523662 3216523662 -5.00000000
8.12139893 0.23678146 -0.42580533 17 12 8833 8.13600000 3216523667 3216523667 -3.00000000
8.11739540 0.23382886 -0.14174844 20 14 8835 8.12200000 3216523671 3216523671 -1.00000000
8.17606831 0.23551898 2.19167972 56 15 8835 8.46800000 3216523673 3216523673 15.00000000
2.23624444 0.06129217 -0.59942490 4 0 8843 2.31600000 3216523694 3216523694 -15.00000000
8.11975193 0.22113225 0.14178336 15 1 8844 8.12400000 3216523697 3216523697 1.00000000
2.61425233 0.07073959 -0.60376865 6 2 8845 2.68400000 3216523699 3216523699 -13.00000000
8.12990093 0.21856870 0.42622402 15 3 8846 8.14400000 3216523701 3216523701 3.00000000
3.16166043 0.08499980 -0.61478657 5 4 8846 3.22200000 3216523703 3216523703 -11.00000000
8.11210918 0.21667351 0.70997065 76 5 8847 8.14600000 3216523706 3216523706 5.00000000
3.95726204 0.10500686 -0.62698936 6 6 8848 4.00800000 3216523708 3216523708 -9.00000000
8.12017727 0.21405253 0.99737871 92 7 8849 8.18400000 3216523710 3216523710 7.00000000
5.27258301 0.13806744 -0.64761370 6 8 8850 5.31400000 3216523713 3216523713 -7.00000000
8.23651028 0.21424209 1.30497634 10 9 8851 8.34200000 3216523715 3216523715 9.00000000
6.61050463 0.17194761 -0.57853985 16 10 8851 6.63800000 3216523717 3216523717 -5.00000000
8.11418915 0.20822610 -0.42538664 17 12 8853 8.12800000 3216523722 3216523722 -3.00000000
8.11816216 0.20549244 -0.14174844 16 14 8855 8.12200000 3216523726 3216523726 -1.00000000
8.17880821 0.20559916 2.19219732 47 15 8856 8.47000000 3216523729 3216523729 15.00000000
2.23644471 0.05348585 -0.59942490 4 0 8863 2.31600000 3216523750 3216523750 -15.00000000
8.12447262 0.19288260 0.14185315 15 1 8864 8.12800000 3216523752 3216523752 1.00000000
2.62227607 0.06179736 -0.60556823 5 2 8865 2.69200000 3216523754 3216523754 -13.00000000
8.11863422 0.18990847 0.42559600 15 3 8866 8.13200000 3216523756 3216523756 3.00000000
3.15408707 0.07377938 -0.61326009 5 4 8866 3.21400000 3216523759 3216523759 -11.00000000
8.12078285 0.18854062 0.71066791 76 5 8867 8.15400000 3216523761 3216523761 5.00000000
3.96747851 0.09142032 -0.62855369 6 6 8868 4.01800000 3216523763 3216523763 -9.00000000
8.12881279 0.18588805 0.99835366 90 7 8869 8.19200000 3216523766 3216523766 7.00000000
5.26509428 0.11948171 -0.64663875 6 8 8870 5.30600000 3216523768 3216523768 -7.00000000
8.22140884 0.18513423 1.30247331 10 9 8871 8.32600000 3216523770 3216523770 9.00000000
6.62102365 0.14909588 -0.57941139 40 10 8871 6.64800000 3216523773 3216523773 -5.00000000
8.09889317 0.17954688 -0.42454928 25 12 8873 8.11200000 3216523777 3216523777 -3.00000000
8.10683537 0.17689177 -0.14153902 16 14 8875 8.11000000 3216523782 3216523782 -1.00000000
8.18137646 0.17851827 2.19271493 51 15 8875 8.47200000 3216523784 3216523784 15.00000000
2.22889209 0.04552109 -0.59735435 4 0 8883 2.30800000 3216523805 3216523805 -15.00000000
8.12509632 0.16452172 0.14185315 15 1 8884 8.12800000 3216523807 3216523807 1.00000000
2.63416600 0.05287820 -0.60826766 5 2 8885 2.70400000 3216523809 3216523809 -13.00000000
8.11924839 0.16156800 0.42559600 10 3 8886 8.13200000 3216523812 3216523812 3.00000000
3.15039945 0.06269100 -0.61249685 5 4 8886 3.21000000 3216523814 3216523814 -11.00000000
8.10744762 0.15991761 0.70944774 76 5 8887 8.14000000 3216523816 3216523816 5.00000000
3.96184850 0.07745484 -0.62761509 9 6 8888 4.01200000 3216523819 3216523819 -9.00000000
8.13338184 0.15758897 0.99884117 97 7 8889 8.19600000 3216523821 3216523821 7.00000000
5.26150990 0.10102615 -0.64615124 6 8 8890 5.30200000 3216523823 3216523823 -7.00000000
8.20817947 0.15617199 1.30028331 10 9 8891 8.31200000 3216523826 3216523826 9.00000000
6.61951208 0.12594537 -0.57923704 88 10 8891 6.64600000 3216523828 3216523828 -5.00000000
8.12143612 0.15168564 -0.42570066 17 12 8893 8.13400000 3216523832 3216523832 -3.00000000
8.10540390 0.14855592 -0.14150411 18 14 8895 8.10800000 3216523837 3216523837 -1.00000000
8.17808628 0.14988804 2.19167972 51 15 8895 8.46800000 3216523839 3216523839 15.00000000
2.22517419 0.03767512 -0.59631908 4 0 8903 2.30400000 3216523860 3216523860 -15.00000000
8.11762333 0.13602482 0.14171354 15 1 8904 8.12000000 3216523862 3216523862 1.00000000
2.62848902 0.04358599 -0.60691792 6 2 8905 2.69800000 3216523865 3216523865 -13.00000000
8.13371754 0.13487451 0.42632869 15 3 8905 8.14600000 3216523867 3216523867 3.00000000
3.15059924 0.05169367 -0.61249685 5 4 8906 3.21000000 3216523869 3216523869 -11.00000000
8.10198021 0.13151935 0.70892483 79 5 8907 8.13400000 3216523872 3216523872 5.00000000
3.96209478 0.06362494 -0.62761509 9 6 8908 4.01200000 3216523874 3216523874 -9.00000000
8.14182186 0.12932332 0.99981612 97 7 8909 8.20400000 3216523876 3216523876 7.00000000
5.25786066 0.08259708 -0.64566380 6 8 8910 5.29800000 3216523878 3216523878 -7.00000000
8.21655369 0.12907593 1.30153477 10 9 8910 8.32000000 3216523881 3216523881 9.00000000
6.59799767 0.10249778 -0.57731962 100 10 8911 6.62400000 3216523883 3216523883 -5.00000000
8.11991882 0.12330529 -0.42559600 17 12 8913 8.13200000 3216523888 3216523888 -3.00000000
8.11387062 0.12038053 -0.14164373 18 14 8915 8.11600000 3216523892 3216523892 -1.00000000
8.17083359 0.12122565 2.18960905 49 15 8915 8.46000000 3216523895 3216523895 15.00000000
2.22529221 0.02990758 -0.59631908 4 0 8923 2.30400000 3216523915 3216523915 -15.00000000
8.11005116 0.10758210 0.14157392 15 1 8924 8.11200000 3216523918 3216523918 1.00000000
2.62472796 0.03435957 -0.60601813 6 2 8925 2.69400000 3216523920 3216523920 -13.00000000
8.13815212 0.10511363 0.42653805 13 3 8926 8.15000000 3216523922 3216523922 3.00000000
3.15076041 0.04069571 -0.61249685 5 4 8926 3.21000000 3216523925 3216523925 -11.00000000
8.11035919 0.10333889 0.70962209 76 5 8927 8.14200000 3216523927 3216523927 5.00000000
3.95636702 0.04971979 -0.62667644 6 6 8928 4.00600000 3216523929 3216523929 -9.00000000
8.13031387 0.10075469 0.99835366 90 7 8929 8.19200000 3216523931 3216523931 7.00000000
5.27796650 0.06448574 -0.64810115 6 8 8930 5.31800000 3216523934 3216523934 -7.00000000
8.21499634 0.09893610 1.30122185 10 9 8931 8.31800000 3216523936 3216523936 9.00000000
6.59233856 0.07939386 -0.57679671 40 10 8931 6.61800000 3216523938 3216523938 -5.00000000
8.11630630 0.09491402 -0.42538664 17 12 8933 8.12800000 3216523943 3216523943 -3.00000000
8.11424160 0.09205710 -0.14164373 18 14 8935 8.11600000 3216523948 3216523948 -1.00000000
8.17122269 0.09127723 2.18960905 56 15 8936 8.46000000 3216523950 3216523950 15.00000000
2.22923851 0.02295627 -0.59735435 4 0 8941 2.30800000 3216523971 3216523971 -15.00000000
8.11034870 0.08210313 0.14157392 15 1 8942 8.11200000 3216523973 3216523973 1.00000000
2.61313128 0.02599727 -0.60331875 6 2 8943 2.68200000 3216523975 3216523975 -13.00000000
8.12245083 0.08080786 0.42570066 15 3 8943 8.13400000 3216523978 3216523978 3.00000000
3.15872550 0.03087387 -0.61402333 5 4 8944 3.21800000 3216523980 3216523980 -11.00000000
8.10466671 0.07780161 0.70909911 76 5 8945 8.13600000 3216523982 3216523982 5.00000000
3.92687440 0.03701102 -0.62198341 2 6 8946 3.97600000 3216523984 3216523984 -9.00000000
8.12265015 0.07513865 0.99737871 90 7 8947 8.18400000 3216523987 3216523987 7.00000000
5.26226282 0.04776010 -0.64615124 6 8 8948 5.30200000 3216523989 3216523989 -7.00000000
8.22711754 0.07323299 1.30309904 10 9 8949 8.33000000 3216523991 3216523991 9.00000000
6.59853220 0.05873627 -0.57731962 20 10 8949 6.62400000 3216523994 3216523994 -5.00000000
8.10657787 0.06933007 -0.42486328 17 12 8951 8.11800000 3216523998 3216523998 -3.00000000
8.11249161 0.06654865 -0.14160882 16 14 8953 8.11400000 3216524003 3216524003 -1.00000000
8.17532158 0.06706405 2.19064450 51 15 8953 8.46400000 3216524005 3216524005 15.00000000
2.22930527 0.01517463 -0.59735435 4 0 8961 2.30800000 3216524026 3216524026 -15.00000000
8.11858463 0.05384528 0.14171354 15 1 8962 8.12000000 3216524028 3216524028 1.00000000
2.62294960 0.01693850 -0.60556823 7 2 8963 2.69200000 3216524030 3216524030 -13.00000000
8.11469460 0.05240314 0.42528197 13 3 8963 8.12600000 3216524033 3216524033 3.00000000
3.13525534 0.01969965 -0.60944390 5 4 8964 3.19400000 3216524035 3216524035 -11.00000000
8.10887337 0.04953491 0.70944774 76 5 8965 8.14000000 3216524037 3216524037 5.00000000
3.93883181 0.02337377 -0.62386066 2 6 8966 3.98800000 3216524040 3216524040 -9.00000000
8.12484837 0.04679628 0.99762243 87 7 8967 8.18600000 3216524042 3216524042 7.00000000
5.25445747 0.02934673 -0.64517629 6 8 8968 5.29400000 3216524044 3216524044 -7.00000000
8.21349621 0.04443973 1.30090904 10 9 8969 8.31600000 3216524047 3216524047 9.00000000
6.61065149 0.03576741 -0.57836550 24 10 8969 6.63600000 3216524049 3216524049 -5.00000000
8.11276245 0.04106273 -0.42517731 25 12 8971 8.12400000 3216524054 3216524054 -3.00000000
8.10867500 0.03821151 -0.14153902 18 14 8973 8.11000000 3216524058 3216524058 -1.00000000
8.17743683 0.03853555 2.19116211 47 15 8973 8.46600000 3216524060 3216524060 15.00000000
2.22548079 0.00738000 -0.59631908 4 0 8981 2.30400000 3216524081 3216524081 -15.00000000
8.11872292 0.02550581 0.14171354 21 1 8982 8.12000000 3216524083 3216524083 1.00000000
2.61714649 0.00776525 -0.60421854 6 2 8983 2.68600000 3216524086 3216524086 -13.00000000
8.11682892 0.02266652 0.42538664 13 3 8984 8.12800000 3216524088 3216524088 3.00000000
3.14315796 0.00877738 -0.61097038 5 4 8984 3.20200000 3216524090 3216524090 -11.00000000
8.09903526 0.02120327 0.70857620 76 5 8985 8.13000000 3216524093 3216524093 5.00000000
3.95074153 0.00965350 -0.62573785 2 6 8986 4.00000000 3216524095 3216524095 -9.00000000
8.13091755 0.01844850 0.99835366 90 7 8987 8.19200000 3216524097 3216524097 7.00000000
5.24658728 0.01098844 -0.64420134 6 8 8988 5.28600000 3216524100 3216524100 -7.00000000
8.20767212 0.01719013 1.29997039 10 9 8988 8.31000000 3216524102 3216524102 9.00000000
6.60077381 0.01267259 -0.57749397 12 10 8989 6.62600000 3216524104 3216524104 -5.00000000
8.11485386 0.01274679 -0.42528197 21 12 8991 8.12600000 3216524109 3216524109 -3.00000000
8.09876060 0.00989451 -0.14136449 18 14 8993 8.10000000 3216524113 3216524113 -1.00000000
8.16593266 0.00855135 2.18805623 47 15 8994 8.45400000 3216524116 3216524116 15.00000000
-3.94239330 0.00068808 -0.48406503 3 8 27001 3.97200000 3216574032 3216574032 -7.00000000
-5.17224264 0.00180545 -0.45251262 6 10 27002 5.19200000 3216574037 3216574037 -5.00000000
-7.64950037 0.00534036 -0.40089342 20 12 27004 7.66000000 3216574041 3216574041 -3.00000000
-10.18278408 0.01066339 2.72847033 45 15 27006 10.54200000 3216574048 3216574048 15.00000000
-1.94923329 0.00442268 -0.52229685 5 0 27013 2.01800000 3216574069 3216574069 -15.00000000
-2.22350478 0.00582114 -0.51333833 4 2 27015 2.28200000 3216574074 3216574074 -13.00000000
-2.62093425 0.00731905 -0.50946003 3 4 27016 2.67000000 3216574078 3216574078 -11.00000000
-3.15466094 0.00991069 -0.49965167 3 6 27018 3.19400000 3216574083 3216574083 -9.00000000
-3.94236922 0.01376152 -0.48406503 3 8 27020 3.97200000 3216574087 3216574087 -7.00000000
-5.18416262 0.01900103 -0.45355847 6 10 27021 5.20400000 3216574092 3216574092 -5.00000000
-7.65343523 0.03072302 -0.40110278 16 12 27023 7.66400000 3216574097 3216574097 -3.00000000
-10.17882919 0.04441381 2.72743511 45 15 27025 10.53800000 3216574103 3216574103 15.00000000
-1.94727421 0.01121562 -0.52177918 4 0 27033 2.01600000 3216574124 3216574124 -15.00000000
-2.25075293 0.01374924 -0.51963693 4 2 27035 2.31000000 3216574129 3216574129 -13.00000000
-2.61107683 0.01640609 -0.50755191 3 4 27036 2.66000000 3216574133 3216574133 -11.00000000
-3.15855789 0.02094866 -0.50027740 3 6 27038 3.19800000 3216574138 3216574138 -9.00000000
-3.92244673 0.02738429 -0.48162764 3 8 27040 3.95200000 3216574143 3216574143 -7.00000000
-5.17609501 0.03703999 -0.45286125 6 10 27041 5.19600000 3216574147 3216574147 -5.00000000
-7.64329529 0.05736336 -0.40057942 16 12 27043 7.65400000 3216574152 3216574152 -3.00000000
-10.15928078 0.08156569 2.72225881 45 15 27046 10.51800000 3216574159 3216574159 15.00000000
-1.94335961 0.01797706 -0.52074391 5 0 27053 2.01200000 3216574180 3216574180 -15.00000000
-2.25263977 0.02162445 -0.52008682 4 2 27055 2.31200000 3216574184 3216574184 -13.00000000
-2.61885619 0.02559711 -0.50907838 3 4 27056 2.66800000 3216574189 3216574189 -11.00000000
-3.15451503 0.03193396 -0.49965167 3 6 27058 3.19400000 3216574193 3216574193 -9.00000000
-3.94416213 0.04130468 -0.48430878 5 8 27060 3.97400000 3216574198 3216574198 -7.00000000
-5.18390322 0.05519256 -0.45355847 6 10 27061 5.20400000 3216574203 3216574203 -5.00000000
-7.66501713 0.08428466 -0.40173081 16 12 27063 7.67600000 3216574207 3216574207 -3.00000000
-10.14929581 0.11514504 2.71967053 42 15 27065 10.50800000 3216574214 3216574214 15.00000000
-1.94521677 0.02478516 -0.52126157 5 0 27073 2.01400000 3216574235 3216574235 -15.00000000
-2.24475622 0.02938547 -0.51828724 4 2 27075 2.30400000 3216574239 3216574239 -13.00000000
-2.61089849 0.03463430 -0.50755191 3 4 27076 2.66000000 3216574244 3216574244 -11.00000000
-3.14648342 0.04283751 -0.49840021 3 6 27078 3.18600000 3216574249 3216574249 -9.00000000
-3.94399381 0.05507212 -0.48430878 5 8 27080 3.97400000 3216574253 3216574253 -7.00000000
-5.17172623 0.07311843 -0.45251262 6 10 27081 5.19200000 3216574258 3216574258 -5.00000000
-7.64270830 0.11072180 -0.40057942 16 12 27083 7.65400000 3216574262 3216574262 -3.00000000
-10.14110470 0.15045737 2.71759987 42 15 27085 10.50000000 3216574269 3216574269 15.00000000
-1.95091319 0.03166915 -0.52281445 4 0 27093 2.02000000 3216574290 3216574290 -15.00000000
-2.23100066 0.03699479 -0.51513791 4 2 27095 2.29000000 3216574295 3216574295 -13.00000000
-2.62253976 0.04394519 -0.50984162 3 4 27096 2.67200000 3216574299 3216574299 -11.00000000
-3.15421510 0.05395567 -0.49965167 3 6 27098 3.19400000 3216574304 3216574304 -9.00000000
-3.93186903 0.06863103 -0.48284635 5 8 27100 3.96200000 3216574308 3216574308 -7.00000000
-5.18339157 0.09138139 -0.45355847 9 10 27101 5.20400000 3216574313 3216574313 -5.00000000
-7.62629986 0.13711193 -0.39974204 12 12 27103 7.63800000 3216574318 3216574318 -3.00000000
-10.15017605 0.18603252 2.72018814 45 15 27105 10.51000000 3216574325 3216574325 15.00000000
-1.95079076 0.03847891 -0.52281445 5 0 27113 2.02000000 3216574345 3216574345 -15.00000000
-2.23865151 0.04493865 -0.51693749 4 2 27115 2.29800000 3216574350 3216574350 -13.00000000
-2.61844468 0.05301980 -0.50907838 3 4 27116 2.66800000 3216574355 3216574355 -11.00000000
-3.15400767 0.06496561 -0.49965167 3 6 27118 3.19400000 3216574359 3216574359 -9.00000000
-3.94351339 0.08260483 -0.48430878 5 8 27120 3.97400000 3216574364 3216574364 -7.00000000
-5.18304110 0.10947425 -0.45355847 9 10 27121 5.20400000 3216574368 3216574368 -5.00000000
-7.62377787 0.16368899 -0.39963737 12 12 27123 7.63600000 3216574373 3216574373 -3.00000000
-10.14942551 0.22323352 2.72018814 42 15 27126 10.51000000 3216574380 3216574380 15.00000000
-1.94678187 0.04519853 -0.52177918 5 0 27133 2.01600000 3216574401 3216574401 -15.00000000
-2.25211835 0.05307411 -0.52008682 4 2 27135 2.31200000 3216574405 3216574405 -13.00000000
-2.61431813 0.06206636 -0.50831515 3 4 27136 2.66400000 3216574410 3216574410 -11.00000000
-3.15376163 0.07597475 -0.49965167 3 6 27138 3.19400000 3216574414 3216574414 -9.00000000
-3.94320107 0.09636976 -0.48430878 5 8 27140 3.97400000 3216574419 3216574419 -7.00000000
-5.17864370 0.12746772 -0.45320988 9 10 27141 5.20000000 3216574424 3216574424 -5.00000000
-7.63713646 0.19064884 -0.40037006 12 12 27143 7.65000000 3216574428 3216574428 -3.00000000
-10.14863014 0.25688899 2.72018814 45 15 27145 10.51000000 3216574435 3216574435 15.00000000
-1.94468105 0.05194221 -0.52126157 4 0 27153 2.01400000 3216574456 3216574456 -15.00000000
-2.24607515 0.06077701 -0.51873714 4 2 27155 2.30600000 3216574460 3216574460 -13.00000000
-2.61997318 0.07135200 -0.50946003 3 4 27156 2.67000000 3216574465 3216574465 -11.00000000
-3.15742636 0.08709191 -0.50027740 3 6 27158 3.19800000 3216574470 3216574470 -9.00000000
-3.94680929 0.11024436 -0.48479626 7 8 27160 3.97800000 3216574474 3216574474 -7.00000000
-5.18613386 0.14576770 -0.45390710 6 10 27161 5.20800000 3216574479 3216574479 -5.00000000
-7.64840317 0.21764714 -0.40099809 12 12 27163 7.66200000 3216574484 3216574484 -3.00000000
-10.13608456 0.29197901 2.71708226 45 15 27165 10.49800000 3216574490 3216574490 15.00000000
-1.94834983 0.05884674 -0.52229685 4 0 27173 2.01800000 3216574511 3216574511 -15.00000000
-2.24000597 0.06843837 -0.51738745 4 2 27175 2.30000000 3216574516 3216574516 -13.00000000
-2.61382127 0.08031608 -0.50831515 3 4 27176 2.66400000 3216574520 3216574520 -11.00000000
-3.15315437 0.09799013 -0.49965167 3 6 27178 3.19400000 3216574525 3216574525 -9.00000000
-3.95433688 0.12427004 -0.48577121 7 8 27180 3.98600000 3216574530 3216574530 -7.00000000
-5.18161058 0.16374393 -0.45355847 6 10 27181 5.20400000 3216574534 3216574534 -5.00000000
-7.64560080 0.24427994 -0.40089342 12 12 27183 7.66000000 3216574539 3216574539 -3.00000000
-10.13494682 0.32912767 2.71708226 45 15 27186 10.49800000 3216574546 3216574546 15.00000000
-1.94620180 0.06558233 -0.52177918 4 0 27193 2.01600000 3216574566 3216574566 -15.00000000
-2.22612000 0.07579286 -0.51423812 4 2 27195 2.28600000 3216574571 3216574571 -13.00000000
-2.62529755 0.08984242 -0.51060486 3 4 27196 2.67600000 3216574576 3216574576 -11.00000000
-3.16463828 0.10940560 -0.50152892 3 6 27198 3.20600000 3216574580 3216574580 -9.00000000
-3.94594336 0.13779537 -0.48479626 7 8 27200 3.97800000 3216574585 3216574585 -7.00000000
-5.18498993 0.18196990 -0.45390710 6 10 27201 5.20800000 3216574590 3216574590 -5.00000000
-7.65268564 0.27124956 -0.40131211 12 12 27203 7.66800000 3216574594 3216574594 -3.00000000
-10.14531994 0.36491987 2.72018814 45 15 27206 10.51000000 3216574601 3216574601 15.00000000
-1.95369577 0.07232167 -0.52384973 4 0 27212 2.02400000 3216574622 3216574622 -15.00000000
-2.23364592 0.08346560 -0.51603770 4 2 27214 2.29400000 3216574626 3216574626 -13.00000000
-2.61713767 0.09825311 -0.50907838 3 4 27215 2.66800000 3216574631 3216574631 -11.00000000
-3.14451838 0.11915135 -0.49840021 3 6 27217 3.18600000 3216574636 3216574636 -9.00000000
-3.94348097 0.15080398 -0.48455250 7 8 27219 3.97600000 3216574640 3216574640 -7.00000000
-5.19630337 0.19962184 -0.45495299 6 10 27220 5.22000000 3216574645 3216574645 -5.00000000
-7.64575672 0.29639319 -0.40099809 16 12 27222 7.66200000 3216574649 3216574649 -3.00000000
-10.14984512 0.39878848 2.72174096 47 15 27225 10.51600000 3216574656 3216574656 15.00000000
-1.95536160 0.07921910 -0.52436739 5 0 27232 2.02600000 3216574677 3216574677 -15.00000000
-2.24697089 0.09181893 -0.51918703 4 2 27234 2.30800000 3216574682 3216574682 -13.00000000
-2.61285543 0.10722703 -0.50831515 3 4 27235 2.66400000 3216574686 3216574686 -11.00000000
-3.15987277 0.13078053 -0.50090313 3 6 27237 3.20200000 3216574691 3216574691 -9.00000000
-3.94888067 0.16481672 -0.48528373 7 8 27239 3.98200000 3216574696 3216574696 -7.00000000
-5.18761253 0.21742538 -0.45425573 6 10 27240 5.21200000 3216574700 3216574700 -5.00000000
-7.65066195 0.32333305 -0.40131211 16 12 27242 7.66800000 3216574705 3216574705 -3.00000000
-10.14260101 0.43396789 2.72018814 47 15 27245 10.51000000 3216574712 3216574712 15.00000000
-1.93771827 0.08494145 -0.51970863 4 0 27251 2.00800000 3216574732 3216574732 -15.00000000
-2.24665403 0.09926965 -0.51918703 4 2 27253 2.30800000 3216574737 3216574737 -13.00000000
-2.61640835 0.11606499 -0.50907838 3 4 27254 2.66800000 3216574742 3216574742 -11.00000000
-3.14758134 0.14072895 -0.49902594 3 6 27256 3.19000000 3216574746 3216574746 -9.00000000
-3.96021104 0.17844692 -0.48674616 7 8 27258 3.99400000 3216574751 3216574751 -7.00000000
-5.18288231 0.23444685 -0.45390710 6 10 27259 5.20800000 3216574755 3216574755 -5.00000000
-7.66151857 0.34924749 -0.40194014 24 12 27261 7.68000000 3216574760 3216574760 -3.00000000
-10.12574863 0.46512043 2.71604705 45 15 27263 10.49400000 3216574767 3216574767 15.00000000
-1.94126928 0.09188750 -0.52074391 4 0 27271 2.01200000 3216574788 3216574788 -15.00000000
-2.23850775 0.10674006 -0.51738745 4 2 27273 2.30000000 3216574792 3216574792 -13.00000000
-2.61206508 0.12500955 -0.50831515 3 4 27274 2.66400000 3216574797 3216574797 -11.00000000
-3.14312482 0.15152496 -0.49840021 3 6 27276 3.18600000 3216574801 3216574801 -9.00000000
-3.95163298 0.19188444 -0.48577121 5 8 27278 3.98600000 3216574806 3216574806 -7.00000000
-5.18601227 0.25273103 -0.45425573 6 10 27279 5.21200000 3216574811 3216574811 -5.00000000
-7.65626335 0.37579322 -0.40173081 24 12 27281 7.67600000 3216574815 3216574815 -3.00000000
-10.13941193 0.50299579 2.72018814 47 15 27284 10.51000000 3216574822 3216574822 15.00000000
-1.94476080 0.09953824 -0.52177918 4 0 27293 2.01600000 3216574843 3216574843 -15.00000000
-2.23029685 0.11493334 -0.51558781 4 2 27295 2.29200000 3216574848 3216574848 -13.00000000
-2.62332964 0.13564649 -0.51060486 3 4 27296 2.67600000 3216574852 3216574852 -11.00000000
-3.15435600 0.16420871 -0.50027740 3 6 27298 3.19800000 3216574857 3216574857 -9.00000000
-3.95483184 0.20726395 -0.48625869 5 8 27300 3.99000000 3216574861 3216574861 -7.00000000
-5.19694138 0.27326968 -0.45530161 6 10 27301 5.22400000 3216574866 3216574866 -5.00000000
-7.64279699 0.40455487 -0.40110278 28 12 27303 7.66400000 3216574871 3216574871 -3.00000000
-10.13557148 0.54005241 2.71967053 47 15 27305 10.50800000 3216574878 3216574878 15.00000000
-1.95018840 0.10664257 -0.52333212 4 0 27313 2.02200000 3216574898 3216574898 -15.00000000
-2.24155664 0.12336033 -0.51828724 4 2 27315 2.30400000 3216574903 3216574903 -13.00000000
-2.63068128 0.14523569 -0.51213133 3 4 27316 2.68400000 3216574907 3216574907 -11.00000000
-3.16559768 0.17587595 -0.50215465 3 6 27318 3.21000000 3216574912 3216574912 -9.00000000
-3.94219208 0.22040276 -0.48479626 5 8 27320 3.97800000 3216574917 3216574917 -7.00000000
-5.19197750 0.29118562 -0.45495299 6 10 27321 5.22000000 3216574921 3216574921 -5.00000000
-7.65130901 0.43179342 -0.40162614 28 12 27323 7.67400000 3216574926 3216574926 -3.00000000
-10.13159466 0.57708764 2.71915293 45 15 27326 10.50600000 3216574933 3216574933 15.00000000
-1.94791520 0.11265719 -0.52281445 4 0 27331 2.02000000 3216574954 3216574954 -15.00000000
-2.23726726 0.13017538 -0.51738745 4 2 27333 2.30000000 3216574958 3216574958 -13.00000000
-2.62237239 0.15304196 -0.51060486 3 4 27334 2.67600000 3216574963 3216574963 -11.00000000
-3.15714145 0.18535697 -0.50090313 3 6 27336 3.20200000 3216574967 3216574967 -9.00000000
-3.95138860 0.23337160 -0.48601493 5 8 27338 3.98800000 3216574972 3216574972 -7.00000000
-5.19103670 0.30749524 -0.45495299 6 10 27339 5.22000000 3216574977 3216574977 -5.00000000
-7.64991474 0.45582855 -0.40162614 32 12 27341 7.67400000 3216574981 3216574981 -3.00000000
-10.12598133 0.60691494 2.71811771 45 15 27343 10.50200000 3216574988 3216574988 15.00000000
-1.94172537 0.11910117 -0.52126157 4 0 27351 2.01400000 3216575009 3216575009 -15.00000000
-2.24652433 0.13858403 -0.51963693 4 2 27353 2.31000000 3216575013 3216575013 -13.00000000
-2.60614610 0.16122504 -0.50755191 3 4 27354 2.66000000 3216575018 3216575018 -11.00000000
-3.14464593 0.19564039 -0.49902594 3 6 27356 3.19000000 3216575023 3216575023 -9.00000000
-3.95649338 0.24753496 -0.48674616 5 8 27358 3.99400000 3216575027 3216575027 -7.00000000
-5.18993187 0.32561344 -0.45495299 6 10 27359 5.22000000 3216575032 3216575032 -5.00000000
-7.66820955 0.48378652 -0.40267286 28 12 27361 7.69400000 3216575036 3216575036 -3.00000000
-10.10826492 0.64304328 2.71397662 45 15 27364 10.48600000 3216575043 3216575043 15.00000000
-1.94515336 0.12612835 -0.52229685 5 0 27371 2.01800000 3216575064 3216575064 -15.00000000
-2.25380540 0.14693213 -0.52143657 4 2 27373 2.31800000 3216575069 3216575069 -13.00000000
-2.62124014 0.17134570 -0.51060486 3 4 27374 2.67600000 3216575073 3216575073 -11.00000000
-3.15182829 0.20713422 -0.50027740 3 6 27376 3.19800000 3216575078 3216575078 -9.00000000
-3.95362449 0.26121333 -0.48650241 3 8 27378 3.99200000 3216575083 3216575083 -7.00000000
-5.20665598 0.34491298 -0.45652178 9 10 27379 5.23800000 3216575087 3216575087 -5.00000000
-7.65451717 0.50975436 -0.40204480 28 12 27381 7.68200000 3216575092 3216575092 -3.00000000
-10.11764240 0.67733419 2.71708226 42 15 27383 10.49800000 3216575099 3216575099 15.00000000
-1.94470131 0.13291743 -0.52229685 4 0 27391 2.01800000 3216575119 3216575119 -15.00000000
-2.22022820 0.15252793 -0.51378822 4 2 27393 2.28400000 3216575124 3216575124 -13.00000000
-2.62454319 0.18076429 -0.51136810 3 4 27394 2.68000000 3216575129 3216575129 -11.00000000
-3.15896869 0.21868056 -0.50152892 3 6 27396 3.20600000 3216575133 3216575133 -9.00000000
-3.95268869 0.27501246 -0.48650241 3 8 27398 3.99200000 3216575138 3216575138 -7.00000000
-5.21138287 0.36350140 -0.45704472 6 10 27399 5.24400000 3216575142 3216575142 -5.00000000
-7.64472198 0.53591180 -0.40162614 28 12 27401 7.67400000 3216575147 3216575147 -3.00000000
-10.12279987 0.71495706 2.71915293 42 15 27404 10.50600000 3216575154 3216575154 15.00000000
-1.95385981 0.14039719 -0.52488500 4 0 27411 2.02800000 3216575175 3216575175 -15.00000000
-2.23328805 0.16125947 -0.51693749 4 2 27413 2.29800000 3216575179 3216575179 -13.00000000
-2.61997986 0.18964107 -0.51060486 3 4 27414 2.67600000 3216575184 3216575184 -11.00000000
-3.15818620 0.22970609 -0.50152892 3 6 27416 3.20600000 3216575189 3216575189 -9.00000000
-3.95962381 0.28938702 -0.48747736 4 8 27418 4.00000000 3216575193 3216575193 -7.00000000
-5.19617271 0.38067129 -0.45582452 6 10 27419 5.23000000 3216575198 3216575198 -5.00000000
-7.64878035 0.56303346 -0.40194014 40 12 27421 7.68000000 3216575202 3216575202 -3.00000000
-10.12807941 0.74909157 2.72122335 45 15 27423 10.51400000 3216575209 3216575209 15.00000000
-1.94757867 0.14678103 -0.52333212 4 0 27431 2.02200000 3216575230 3216575230 -15.00000000
-2.23659778 0.16934837 -0.51783735 4 2 27433 2.30200000 3216575235 3216575235 -13.00000000
-2.62321734 0.19908249 -0.51136810 3 4 27434 2.68000000 3216575239 3216575239 -11.00000000
-3.16130447 0.24102916 -0.50215465 3 6 27436 3.21000000 3216575244 3216575244 -9.00000000
-3.95265174 0.30275211 -0.48674616 5 8 27438 3.99400000 3216575248 3216575248 -7.00000000
-5.19083929 0.39850199 -0.45547593 3 10 27439 5.22600000 3216575253 3216575253 -5.00000000
-7.65274239 0.59018999 -0.40225416 48 12 27441 7.68600000 3216575258 3216575258 -3.00000000
-10.11756229 0.78560954 2.71915293 42 15 27444 10.50600000 3216575265 3216575265 15.00000000
-1.92391753 0.15209134 -0.51712048 4 0 27452 1.99800000 3216575285 3216575285 -15.00000000
-2.24373245 0.17816180 -0.51963693 4 2 27454 2.31000000 3216575290 3216575290 -13.00000000
-2.62246990 0.20869574 -0.51136810 3 4 27455 2.68000000 3216575295 3216575295 -11.00000000
-3.16039968 0.25261432 -0.50215465 3 6 27457 3.21000000 3216575299 3216575299 -9.00000000
-3.96140909 0.31803155 -0.48796484 6 8 27459 4.00400000 3216575304 3216575304 -7.00000000
-5.18934393 0.41752470 -0.45547593 3 10 27460 5.22600000 3216575308 3216575308 -5.00000000
-7.65649986 0.61871737 -0.40256816 16 12 27462 7.69200000 3216575313 3216575313 -3.00000000
-10.10320473 0.81998402 2.71604705 45 15 27464 10.49400000 3216575320 3216575320 15.00000000
-1.93877733 0.16007787 -0.52126157 4 0 27472 2.01400000 3216575341 3216575341 -15.00000000
-2.23532867 0.18534866 -0.51783735 4 2 27474 2.30200000 3216575345 3216575345 -13.00000000
-2.61781240 0.21752344 -0.51060486 3 4 27475 2.67600000 3216575350 3216575350 -11.00000000
-3.13587642 0.26167345 -0.49840021 3 6 27477 3.18600000 3216575354 3216575354 -9.00000000
-3.96027493 0.33185750 -0.48796484 4 8 27479 4.00400000 3216575359 3216575359 -7.00000000
-5.19976711 0.43663666 -0.45652178 6 10 27480 5.23800000 3216575364 3216575364 -5.00000000
-7.65429354 0.64543974 -0.40256816 28 12 27482 7.69200000 3216575368 3216575368 -3.00000000
-10.10413074 0.85557175 2.71708226 45 15 27484 10.49800000 3216575375 3216575375 15.00000000
-1.93820667 0.16684449 -0.52126157 4 0 27492 2.01400000 3216575396 3216575396 -15.00000000
-2.24243402 0.19382153 -0.51963693 4 2 27494 2.31000000 3216575401 3216575401 -13.00000000
-2.62877274 0.22767641 -0.51289457 3 4 27495 2.68800000 3216575405 3216575405 -11.00000000
-3.15068746 0.27398717 -0.50090313 3 6 27497 3.20200000 3216575410 3216575410 -9.00000000
-3.95711470 0.34550676 -0.48772112 6 8 27499 4.00200000 3216575414 3216575414 -7.00000000
-5.21408987 0.45617378 -0.45791626 3 10 27500 5.25400000 3216575419 3216575419 -5.00000000
-7.64801455 0.67180479 -0.40235883 36 12 27502 7.68800000 3216575424 3216575424 -3.00000000
-10.11262894 0.89185482 2.72018814 45 15 27504 10.51000000 3216575430 3216575430 15.00000000
-1.95300567 0.17498828 -0.52540267 4 0 27512 2.03000000 3216575451 3216575451 -15.00000000
-2.23398018 0.20094956 -0.51783735 4 2 27514 2.30200000 3216575456 3216575456 -13.00000000
-2.61818552 0.23597001 -0.51098651 3 4 27515 2.67800000 3216575460 3216575460 -11.00000000
-5.58584690 0.50442022 0.49068683 8 5 27516 5.63000000 3216575463 3216575463 5.00000000
-3.15758109 0.28569546 -0.50215465 3 6 27517 3.21000000 3216575465 3216575465 -9.00000000
-3.94797683 0.35859928 -0.48674616 5 8 27519 3.99400000 3216575470 3216575470 -7.00000000
-5.21246576 0.47437155 -0.45791626 3 10 27520 5.25400000 3216575474 3216575474 -5.00000000
-7.64363432 0.69831550 -0.40225416 32 12 27522 7.68600000 3216575479 3216575479 -3.00000000
-7.55712938 0.69307256 -0.13246377 2 14 27524 7.59000000 3216575483 3216575483 -1.00000000
-10.11314011 0.92926705 2.72122335 45 15 27525 10.51400000 3216575486 3216575486 15.00000000
-1.94279683 0.18056981 -0.52281445 4 0 27531 2.02000000 3216575507 3216575507 -15.00000000
-2.23524189 0.20853762 -0.51828724 4 2 27533 2.30400000 3216575511 3216575511 -13.00000000
-2.62325263 0.24519905 -0.51213133 3 4 27534 2.68400000 3216575516 3216575516 -11.00000000
-5.55637169 0.52033997 0.48824647 8 5 27535 5.60200000 3216575518 3216575518 5.00000000
-3.15268302 0.29579577 -0.50152892 3 6 27536 3.20600000 3216575520 3216575520 -9.00000000
-3.95862412 0.37280601 -0.48820859 6 8 27538 4.00600000 3216575525 3216575525 -7.00000000
-5.20491362 0.49109265 -0.45739335 3 10 27539 5.24800000 3216575530 3216575530 -5.00000000
-7.10886765 0.67574149 -0.12464508 6 14 27543 7.14200000 3216575539 3216575539 -1.00000000
-10.10632420 0.96066815 2.72018814 45 15 27543 10.51000000 3216575541 3216575541 15.00000000
-1.93830884 0.18697935 -0.52177918 4 0 27551 2.01600000 3216575562 3216575562 -15.00000000
-2.24419880 0.21727777 -0.52053672 4 2 27553 2.31400000 3216575566 3216575566 -13.00000000
-2.61456442 0.25359628 -0.51060486 3 4 27554 2.67600000 3216575571 3216575571 -11.00000000
-5.53667402 0.53799796 0.48667768 11 5 27555 5.58400000 3216575573 3216575573 5.00000000
-3.15949559 0.30756444 -0.50278038 3 6 27556 3.21400000 3216575576 3216575576 -9.00000000
-3.96124983 0.38700798 -0.48869607 6 8 27558 4.01000000 3216575580 3216575580 -7.00000000
-5.19721889 0.50867593 -0.45687041 6 10 27559 5.24200000 3216575585 3216575585 -5.00000000
-7.28886986 0.71596432 -0.38383189 3 12 27561 7.33400000 3216575589 3216575589 -3.00000000
-6.48358011 0.63914824 -0.11371988 4 14 27563 6.51600000 3216575594 3216575594 -1.00000000
-10.10290909 0.99593991 2.72018814 47 15 27563 10.51000000 3216575596 3216575596 15.00000000
-1.93379986 0.19335976 -0.52074391 4 0 27571 2.01200000 3216575617 3216575617 -15.00000000
-5.81003666 0.58196712 0.10192205 5 1 27572 5.84000000 3216575619 3216575619 1.00000000
-2.22791457 0.22355366 -0.51693749 4 2 27573 2.29800000 3216575622 3216575622 -13.00000000
-6.17845249 0.61995894 0.32542497 2 3 27573 6.21800000 3216575624 3216575624 3.00000000
-2.61366343 0.26272127 -0.51060486 3 4 27574 2.67600000 3216575626 3216575626 -11.00000000
-5.52683306 0.55652279 0.48598042 11 5 27575 5.57600000 3216575629 3216575629 5.00000000
-3.14661026 0.31740177 -0.50090313 3 6 27576 3.20200000 3216575631 3216575631 -9.00000000
-3.95197487 0.40003330 -0.48772112 6 8 27578 4.00200000 3216575635 3216575635 -7.00000000
-5.20532274 0.52781951 -0.45774198 6 10 27579 5.25200000 3216575640 3216575640 -5.00000000
-7.31811810 0.74463779 -0.38550666 3 12 27581 7.36600000 3216575645 3216575645 -3.00000000
-6.24855566 0.63801080 -0.10963602 2 14 27583 6.28200000 3216575649 3216575649 -1.00000000
-10.08784008 1.03002226 2.71708226 45 15 27583 10.49800000 3216575652 3216575652 15.00000000
-1.94656420 0.20150122 -0.52436739 4 0 27591 2.02600000 3216575672 3216575672 -15.00000000
-5.53348351 0.57378215 0.09710519 2 1 27592 5.56400000 3216575675 3216575675 1.00000000
-2.21936750 0.23052384 -0.51513791 4 2 27593 2.29000000 3216575677 3216575677 -13.00000000
-5.76095247 0.59940171 0.30354854 2 3 27594 5.80000000 3216575679 3216575679 3.00000000
-2.62054133 0.27265576 -0.51213133 3 4 27594 2.68400000 3216575682 3216575682 -11.00000000
-5.53080130 0.57643127 0.48650336 14 5 27595 5.58200000 3216575684 3216575684 5.00000000
-3.15727139 0.32961422 -0.50278038 3 6 27596 3.21400000 3216575686 3216575686 -9.00000000
-3.96042585 0.41485986 -0.48893979 6 8 27598 4.01200000 3216575691 3216575691 -7.00000000
-4.90820312 0.51500684 -0.43176955 3 10 27599 4.95400000 3216575695 3216575695 -5.00000000
-5.10275698 0.53722185 -0.26890215 2 12 27601 5.13800000 3216575700 3216575700 -3.00000000
-5.12867975 0.54176116 -0.09001951 2 14 27603 5.15800000 3216575705 3216575705 -1.00000000
-10.07247066 1.06576943 2.71397662 45 15 27604 10.48600000 3216575707 3216575707 15.00000000
-1.94773340 0.20884033 -0.52488500 4 0 27612 2.02800000 3216575728 3216575728 -15.00000000
-5.15556192 0.55370104 0.09050818 9 1 27613 5.18600000 3216575730 3216575730 1.00000000
-2.23400807 0.24032415 -0.51873714 4 2 27614 2.30600000 3216575732 3216575732 -13.00000000
-5.42521048 0.58361882 0.28596365 2 3 27614 5.46400000 3216575735 3216575735 3.00000000
-2.61562037 0.28183803 -0.51136810 3 4 27615 2.68000000 3216575737 3216575737 -11.00000000
-5.51676655 0.59541601 0.48545748 25 5 27616 5.57000000 3216575739 3216575739 5.00000000
-3.14425850 0.33991012 -0.50090313 3 6 27617 3.20200000 3216575741 3216575741 -9.00000000
-3.95098472 0.42851660 -0.48796484 4 8 27619 4.00400000 3216575746 3216575746 -7.00000000
-4.78743839 0.52008224 -0.42131087 5 10 27620 4.83400000 3216575751 3216575751 -5.00000000
-4.88234854 0.53211719 -0.25738823 2 12 27622 4.91800000 3216575755 3216575755 -3.00000000
-4.90004492 0.53577673 -0.08604036 2 14 27624 4.93000000 3216575760 3216575760 -1.00000000
-10.08981323 1.10323215 2.71967053 47 15 27624 10.50800000 3216575762 3216575762 15.00000000
-1.94507241 0.21542525 -0.52436739 4 0 27632 2.02600000 3216575783 3216575783 -15.00000000
-4.75410938 0.52737832 0.08349231 2 1 27633 4.78400000 3216575785 3216575785 1.00000000
-2.23702931 0.24855122 -0.51963693 4 2 27634 2.31000000 3216575787 3216575787 -13.00000000
-4.88916349 0.54322380 0.25780693 6 3 27634 4.92600000 3216575790 3216575790 3.00000000
-2.61852312 0.29140082 -0.51213133 3 4 27635 2.68400000 3216575792 3216575792 -11.00000000
-5.49089289 0.61202103 0.48336574 8 5 27636 5.54600000 3216575794 3216575794 5.00000000
-3.14305282 0.35088354 -0.50090313 3 6 27637 3.20200000 3216575797 3216575797 -9.00000000
-3.93565559 0.44075897 -0.48625869 3 8 27639 3.99000000 3216575801 3216575801 -7.00000000
-4.74203444 0.53190440 -0.41747600 5 10 27640 4.79000000 3216575806 3216575806 -5.00000000
-4.63038492 0.52101755 -0.24419957 2 12 27642 4.66600000 3216575811 3216575811 -3.00000000
-4.63386345 0.52304709 -0.08139803 1 14 27644 4.66400000 3216575815 3216575815 -1.00000000
-10.07438278 1.13714540 2.71656466 47 15 27644 10.49600000 3216575817 3216575817 15.00000000
-1.93855059 0.22155543 -0.52281445 4 0 27652 2.02000000 3216575838 3216575838 -15.00000000
-4.57740831 0.52395773 0.08042069 6 1 27653 4.60800000 3216575840 3216575840 1.00000000
-2.23033977 0.25569254 -0.51828724 4 2 27654 2.30400000 3216575843 3216575843 -13.00000000
-4.78792858 0.54974848 0.25257331 6 3 27655 4.82600000 3216575845 3216575845 3.00000000
-2.61358905 0.30009148 -0.51136810 3 4 27655 2.68000000 3216575847 3216575847 -11.00000000
-3.15358329 0.36320880 -0.50278038 3 6 27657 3.21400000 3216575852 3216575852 -9.00000000
-3.95381284 0.45677245 -0.48869607 4 8 27659 4.01000000 3216575857 3216575857 -7.00000000
-4.71441936 0.54547697 -0.41520995 5 10 27660 4.76400000 3216575861 3216575861 -5.00000000
-4.63250589 0.53763795 -0.24440892 4 12 27662 4.67000000 3216575866 3216575866 -3.00000000
-4.57440758 0.53251356 -0.08038578 1 14 27664 4.60600000 3216575870 3216575870 -1.00000000
-10.06822872 1.17383850 2.71604705 45 15 27665 10.49400000 3216575873 3216575873 15.00000000
-1.94160247 0.22877300 -0.52384973 4 0 27672 2.02400000 3216575893 3216575893 -15.00000000
-4.56363583 0.53852665 0.08021126 8 1 27673 4.59600000 3216575896 3216575896 1.00000000
-2.23330426 0.26393375 -0.51918703 4 2 27674 2.30800000 3216575898 3216575898 -13.00000000
-4.72855902 0.55882502 0.24953784 6 3 27674 4.76800000 3216575900 3216575900 3.00000000
-2.61642480 0.30967429 -0.51213133 3 4 27675 2.68400000 3216575903 3216575903 -11.00000000
-5.47263670 0.64869779 0.48214558 2 5 27676 5.53200000 3216575905 3216575905 5.00000000
-3.15033460 0.37398180 -0.50246751 3 6 27677 3.21200000 3216575907 3216575907 -9.00000000
-3.95613647 0.47104046 -0.48918355 4 8 27679 4.01400000 3216575912 3216575912 -7.00000000
-4.72435713 0.56334549 -0.41625583 5 10 27680 4.77600000 3216575917 3216575917 -5.00000000
-4.60680342 0.55095905 -0.24315286 4 12 27682 4.64600000 3216575921 3216575921 -3.00000000
-4.49707317 0.53942794 -0.07905940 5 14 27684 4.53000000 3216575926 3216575926 -1.00000000
-10.06406975 1.20897603 2.71604705 45 15 27685 10.49400000 3216575928 3216575928 15.00000000
-1.94662786 0.23556785 -0.52540267 4 0 27690 2.03000000 3216575949 3216575949 -15.00000000
-4.54008436 0.55021459 0.07982731 6 1 27691 4.57400000 3216575951 3216575951 1.00000000
-2.22666049 0.27024418 -0.51783735 4 2 27692 2.30200000 3216575953 3216575953 -13.00000000
-4.68712568 0.56886470 0.24744441 2 3 27692 4.72800000 3216575956 3216575956 3.00000000
-2.61349010 0.31765562 -0.51174974 3 4 27693 2.68200000 3216575958 3216575958 -11.00000000
-5.33212614 0.64903551 0.46994376 2 5 27694 5.39200000 3216575960 3216575960 5.00000000
-3.16090941 0.38531116 -0.50434470 3 6 27695 3.22400000 3216575963 3216575963 -9.00000000
-3.95069647 0.48298490 -0.48869607 4 8 27697 4.01000000 3216575967 3216575967 -7.00000000
-4.72651911 0.57866889 -0.41660446 5 10 27698 4.78000000 3216575972 3216575972 -5.00000000
-4.59315538 0.56396860 -0.24252482 4 12 27700 4.63400000 3216575976 3216575976 -3.00000000
-4.49337149 0.55330884 -0.07902449 3 14 27702 4.52800000 3216575981 3216575981 -1.00000000
-10.06405640 1.24106014 2.71708226 45 15 27703 10.49800000 3216575983 3216575983 15.00000000
-1.94962776 0.24283898 -0.52643794 4 0 27710 2.03400000 3216576004 3216576004 -15.00000000
-4.50837135 0.56234646 0.07930373 4 1 27711 4.54400000 3216576006 3216576006 1.00000000
-2.23343825 0.27898121 -0.51963693 4 2 27712 2.31000000 3216576009 3216576009 -13.00000000
-4.62565565 0.57779568 0.24430424 2 3 27712 4.66800000 3216576011 3216576011 3.00000000
-2.61236548 0.32677647 -0.51174974 3 4 27713 2.68200000 3216576013 3216576013 -11.00000000
-5.23888874 0.65625262 0.46192545 5 5 27714 5.30000000 3216576016 3216576016 5.00000000
-3.15954518 0.39634246 -0.50434470 1 6 27715 3.22400000 3216576018 3216576018 -9.00000000
-3.94701672 0.49652469 -0.48845232 4 8 27717 4.00800000 3216576023 3216576023 -7.00000000
-4.72842407 0.59566206 -0.41695309 8 10 27718 4.78400000 3216576027 3216576027 -5.00000000
-4.43784904 0.56220460 -0.07808207 1 14 27722 4.47400000 3216576036 3216576036 -1.00000000
-10.06732941 1.27715516 2.71915293 45 15 27723 10.50600000 3216576039 3216576039 15.00000000
-1.93914390 0.24875407 -0.52384973 4 0 27731 2.02400000 3216576059 3216576059 -15.00000000
-4.44281149 0.57071364 0.07818678 4 1 27732 4.48000000 3216576062 3216576062 1.00000000
-2.24399781 0.28865707 -0.52233636 4 2 27733 2.32200000 3216576064 3216576064 -13.00000000
-4.54625034 0.58480775 0.24022204 1 3 27733 4.59000000 3216576066 3216576066 3.00000000
-2.60141444 0.33509496 -0.50984162 3 4 27734 2.67200000 3216576069 3216576069 -11.00000000
-5.20483208 0.67137152 0.45913646 7 5 27735 5.26800000 3216576071 3216576071 5.00000000
-3.15611219 0.40766704 -0.50403184 3 6 27736 3.22200000 3216576073 3216576073 -9.00000000
-6.32344007 0.81790489 0.78288865 2 7 27737 6.42400000 3216576075 3216576075 7.00000000
-3.95698237 0.51251781 -0.48991477 4 8 27738 4.02000000 3216576078 3216576078 -7.00000000
-4.72225714 0.61247605 -0.41660446 8 10 27739 4.78000000 3216576082 3216576082 -5.00000000
-4.35644245 0.56812274 -0.07668588 1 14 27743 4.39400000 3216576092 3216576092 -1.00000000
-10.05514717 1.31128967 2.71708226 45 15 27743 10.49800000 3216576094 3216576094 15.00000000
-1.93634844 0.25526893 -0.52333212 4 0 27751 2.02200000 3216576115 3216576115 -15.00000000
-4.39519453 0.58019924 0.07738397 3 1 27752 4.43400000 3216576117 3216576117 1.00000000
-2.24297643 0.29648831 -0.52233636 4 2 27753 2.32200000 3216576119 3216576119 -13.00000000
-4.49666071 0.59439200 0.23770991 1 3 27753 4.54200000 3216576122 3216576122 3.00000000
-2.61190653 0.34571925 -0.51213133 3 4 27754 2.68400000 3216576124 3216576124 -11.00000000
-5.12345219 0.67906433 0.45216399 7 5 27755 5.18800000 3216576126 3216576126 5.00000000
-3.15858626 0.41920123 -0.50465757 3 6 27756 3.22600000 3216576128 3216576128 -9.00000000
-5.64756155 0.75053614 0.69953001 2 7 27757 5.74000000 3216576131 3216576131 7.00000000
-3.96304011 0.52737451 -0.49088973 4 8 27758 4.02800000 3216576133 3216576133 -7.00000000
-4.70429087 0.62685078 -0.41520995 5 10 27759 4.76400000 3216576138 3216576138 -5.00000000
-4.34254074 0.58173305 -0.07647645 1 14 27763 4.38200000 3216576147 3216576147 -1.00000000
-10.03687096 1.34633696 2.71345878 42 15 27764 10.48400000 3216576149 3216576149 15.00000000
-1.94506347 0.26298290 -0.52592027 4 0 27770 2.03200000 3216576170 3216576170 -15.00000000
-4.35361433 0.58940548 0.07668588 3 1 27771 4.39400000 3216576172 3216576172 1.00000000
-2.23811889 0.30340111 -0.52143657 4 2 27772 2.31800000 3216576175 3216576175 -13.00000000
-4.44903898 0.60390592 0.23530246 3 3 27773 4.49600000 3216576177 3216576177 3.00000000
-2.62241817 0.35596314 -0.51442105 3 4 27773 2.69600000 3216576179 3216576179 -11.00000000
-5.09550714 0.69256228 0.44989794 10 5 27774 5.16200000 3216576181 3216576181 5.00000000
-3.13564801 0.42674297 -0.50121605 3 6 27775 3.20400000 3216576184 3216576184 -9.00000000
-5.57423306 0.75961071 0.69075543 2 7 27776 5.66800000 3216576186 3216576186 7.00000000
-3.95733571 0.53997678 -0.49040225 4 8 27777 4.02400000 3216576188 3216576188 -7.00000000
-4.69823837 0.64190793 -0.41486132 8 10 27778 4.76000000 3216576193 3216576193 -5.00000000
-4.28313589 0.58823991 -0.07546420 3 14 27782 4.32400000 3216576202 3216576202 -1.00000000
-10.04598904 1.37970197 2.71708226 47 15 27782 10.49800000 3216576205 3216576205 15.00000000
-1.94030654 0.26923978 -0.52488500 4 0 27790 2.02800000 3216576225 3216576225 -15.00000000
-4.31191683 0.59909499 0.07598778 3 1 27791 4.35400000 3216576228 3216576228 1.00000000
-2.22546506 0.30960065 -0.51873714 4 2 27792 2.30600000 3216576230 3216576230 -13.00000000
-4.41129684 0.61447239 0.23341836 3 3 27793 4.46000000 3216576232 3216576232 3.00000000
-2.60754824 0.36321893 -0.51174974 3 4 27793 2.68200000 3216576234 3216576234 -11.00000000
-5.06543255 0.70649165 0.44745758 10 5 27794 5.13400000 3216576237 3216576237 5.00000000
-3.14979053 0.43987152 -0.50371897 3 6 27795 3.22000000 3216576239 3216576239 -9.00000000
-5.57941151 0.78016341 0.69173038 2 7 27796 5.67600000 3216576241 3216576241 7.00000000
-3.95739269 0.55406243 -0.49064597 6 8 27797 4.02600000 3216576244 3216576244 -7.00000000
-4.71964645 0.66162312 -0.41695309 5 10 27798 4.78400000 3216576248 3216576248 -5.00000000
-4.39669800 0.61791563 -0.23268566 2 12 27800 4.44600000 3216576253 3216576253 -3.00000000
-4.25927496 0.60011828 -0.07508025 5 14 27802 4.30200000 3216576258 3216576258 -1.00000000
-10.04660320 1.41732264 2.71863532 47 15 27803 10.50400000 3216576260 3216576260 15.00000000
-1.95078194 0.27798477 -0.52799088 4 0 27811 2.04000000 3216576281 3216576281 -15.00000000
-4.27009916 0.60924590 0.07528968 5 1 27812 4.31400000 3216576283 3216576283 1.00000000
-2.23589039 0.31940883 -0.52143657 4 2 27813 2.31800000 3216576285 3216576285 -13.00000000
-4.36156368 0.62384939 0.23090623 5 3 27814 4.41200000 3216576287 3216576287 3.00000000
-2.60814309 0.37305161 -0.51213133 3 4 27814 2.68400000 3216576290 3216576290 -11.00000000
-5.03914213 0.72166324 0.44536585 10 5 27815 5.11000000 3216576292 3216576292 5.00000000
-3.15597868 0.45253465 -0.50497043 3 6 27816 3.22800000 3216576294 3216576294 -9.00000000
