# .PCD v0.7 - Point Cloud Data file format
VERSION 0.7
FIELDS x y z intensity laser_id azimuth distance_m adjustedtime timestamp vertical_angle
SIZE 4 4 4 1 1 2 8 8 4 8
TYPE F F F U U U F U U F
COUNT 1 1 1 1 1 1 1 1 1 1
WIDTH 539
HEIGHT 1
VIEWPOINT 0 0 0 1 0 0 0
POINTS 539
DATA ascii
-0.75913000 3.71464753 0.06617953 6 1 34845 3.79200000 883301791 883301791 1.00000000
-0.51694024 2.53179407 -0.59657019 3 2 34846 2.65200000 883301793 883301793 -13.00000000
-0.77487463 3.79844904 0.20316818 6 3 34847 3.88200000 883301796 883301796 3.00000000
-0.62198132 3.04896355 -0.60486454 4 4 34847 3.17000000 883301798 883301798 -11.00000000
-0.77908832 3.82251096 0.34130189 4 5 34848 3.91600000 883301800 883301800 5.00000000
-0.77729261 3.81710505 -0.61697751 2 6 34849 3.94400000 883301803 883301803 -9.00000000
-0.88294894 4.33983278 0.54378098 1 7 34850 4.46200000 883301805 883301805 7.00000000
-1.36974955 6.73855400 -0.84431082 2 8 34851 6.92800000 883301807 883301807 -7.00000000
-0.93860310 4.62163877 -0.41259527 11 10 34852 4.73400000 883301812 883301812 -5.00000000
-2.18078899 10.74772167 2.13171816 50 11 34853 11.17200000 883301814 883301814 11.00000000
-0.76428103 3.77003145 -0.20159811 1 12 34854 3.85200000 883301816 883301816 -3.00000000
-2.10755706 10.40544510 2.45106673 57 13 34855 10.89600000 883301819 883301819 13.00000000
-0.75913620 3.75137758 -0.06680781 6 14 34856 3.82800000 883301821 883301821 -1.00000000
-1.35602677 6.70099545 1.83192122 2 15 34856 7.07800000 883301823 883301823 15.00000000
-0.43379563 2.15916514 -0.59010744 4 0 34864 2.28000000 883301844 883301844 -15.00000000
-0.74615884 3.71727467 0.06617953 6 1 34865 3.79200000 883301846 883301846 1.00000000
-0.50809950 2.53358293 -0.59657019 3 2 34866 2.65200000 883301849 883301849 -13.00000000
-0.75834703 3.78141522 0.20212147 8 3 34866 3.86200000 883301851 883301851 3.00000000
-0.60824907 3.03571606 -0.60181159 2 4 34867 3.15400000 883301853 883301853 -11.00000000
-0.76730484 3.83302188 0.34199914 4 5 34868 3.92400000 883301856 883301856 5.00000000
-1.07001400 5.35003757 -0.86414397 2 6 34869 5.52400000 883301858 883301858 -9.00000000
-0.86234909 4.31563568 0.54036868 1 7 34870 4.43400000 883301860 883301860 7.00000000
-1.33844662 6.70436049 -0.83943605 2 8 34871 6.88800000 883301862 883301862 -7.00000000
-0.92792094 4.65224171 -0.41503564 11 10 34872 4.76200000 883301867 883301867 -5.00000000
-2.14364266 10.75719357 2.13209963 50 11 34873 11.17400000 883301869 883301869 11.00000000
-0.74565667 3.74525285 -0.20013270 1 12 34874 3.82400000 883301872 883301872 -3.00000000
-1.89291787 9.51634121 2.24006271 20 13 34875 9.95800000 883301874 883301874 13.00000000
-0.74330837 3.74027514 -0.06656348 6 14 34876 3.81400000 883301876 883301876 -1.00000000
-1.32660282 6.67537117 1.82363904 2 15 34876 7.04600000 883301879 883301879 15.00000000
-0.42363873 2.14739919 -0.58648396 9 0 34884 2.26600000 883301899 883301899 -15.00000000
-0.73511207 3.72966647 0.06635405 6 1 34885 3.80200000 883301902 883301902 1.00000000
-0.49849951 2.53151703 -0.59567040 3 2 34886 2.64800000 883301904 883301904 -13.00000000
-0.74718118 3.79788709 0.20285417 6 3 34887 3.87600000 883301906 883301906 3.00000000
-0.59537488 3.02626276 -0.59952188 2 4 34887 3.14200000 883301909 883301909 -11.00000000
-0.75123060 3.82199192 0.34077895 4 5 34888 3.91000000 883301911 883301911 5.00000000
-1.05323565 5.36343193 -0.86570835 2 6 34889 5.53400000 883301913 883301913 -9.00000000
-0.84116471 4.28745222 0.53646886 1 7 34890 4.40200000 883301915 883301915 7.00000000
-1.30739927 6.67003155 -0.83456129 2 8 34891 6.84800000 883301918 883301918 -7.00000000
-0.92469442 4.72193098 -0.42096224 8 10 34892 4.83000000 883301922 883301922 -5.00000000
-2.10608006 10.76461124 2.13209963 50 11 34893 11.17400000 883301925 883301925 11.00000000
-0.76284742 3.90268588 -0.20840178 1 12 34894 3.98200000 883301927 883301927 -3.00000000
-0.72871614 3.73499632 -0.06642386 6 14 34896 3.80600000 883301932 883301932 -1.00000000
-1.38048422 7.08217573 1.93337822 15 15 34897 7.47000000 883301934 883301934 15.00000000
-0.41797680 2.15834785 -0.58907217 9 0 34904 2.27600000 883301955 883301955 -15.00000000
-0.71829015 3.71257687 0.06600500 6 1 34905 3.78200000 883301957 883301957 1.00000000
-0.49187884 2.54472184 -0.59836978 3 2 34906 2.66000000 883301959 883301959 -13.00000000
-0.73382473 3.79642200 0.20264482 6 3 34906 3.87200000 883301962 883301962 3.00000000
-0.58629662 3.03603315 -0.60104835 2 4 34907 3.15000000 883301964 883301964 -11.00000000
-0.73411041 3.80502772 0.33903584 4 5 34908 3.89000000 883301966 883301966 5.00000000
-1.03488123 5.36901522 -0.86602122 2 6 34909 5.53600000 883301968 883301968 -9.00000000
-0.81868613 4.25137663 0.53159410 1 7 34910 4.36200000 883301971 883301971 7.00000000
-1.29160917 6.71354151 -0.83943605 2 8 34911 6.88800000 883301973 883301973 -7.00000000
-0.89993262 4.68208504 -0.41712737 5 10 34912 4.78600000 883301978 883301978 -5.00000000
-2.06775117 10.76804066 2.13133645 50 11 34913 11.17000000 883301980 883301980 11.00000000
-1.47024596 7.67092419 1.80320764 8 13 34915 8.01600000 883301985 883301985 13.00000000
-0.71567410 3.73751712 -0.06642386 6 14 34916 3.80600000 883301987 883301987 -1.00000000
-1.71013606 8.93096828 2.43652248 24 15 34916 9.41400000 883301989 883301989 15.00000000
-0.41080087 2.16169167 -0.58958977 7 0 34924 2.27800000 883302010 883302010 -15.00000000
-0.70420748 3.70916772 0.06590029 6 1 34925 3.77600000 883302012 883302012 1.00000000
-0.48226681 2.54259396 -0.59746999 3 2 34926 2.65600000 883302014 883302014 -13.00000000
-0.71907949 3.79111147 0.20222613 6 3 34926 3.86400000 883302017 883302017 3.00000000
-0.57788843 3.04963470 -0.60333806 2 4 34927 3.16200000 883302019 883302019 -11.00000000
-0.71860027 3.79582143 0.33798996 4 5 34928 3.87800000 883302021 883302021 5.00000000
-0.72539014 3.83534956 -0.61822903 2 6 34929 3.95200000 883302024 883302024 -9.00000000
-0.80384105 4.25420856 0.53159410 1 7 34930 4.36200000 883302026 883302026 7.00000000
-0.95959413 5.08337164 -0.63518304 2 8 34931 5.21200000 883302028 883302028 -7.00000000
-0.88358366 4.68519783 -0.41712737 5 10 34932 4.78600000 883302033 883302033 -5.00000000
-2.02724314 10.75975895 2.12828350 53 11 34933 11.15400000 883302035 883302035 11.00000000
-1.44562125 7.68750048 1.80590701 2 13 34935 8.02800000 883302040 883302040 13.00000000
-0.70003885 3.72623539 -0.06617953 6 14 34936 3.79200000 883302042 883302042 -1.00000000
-0.40396073 2.16691065 -0.59062505 4 0 34944 2.28200000 883302065 883302065 -15.00000000
-0.68979126 3.70373964 0.06576066 6 1 34945 3.76800000 883302067 883302067 1.00000000
-0.47410148 2.54809356 -0.59836978 3 2 34946 2.66000000 883302070 883302070 -13.00000000
-0.70517951 3.79372144 0.20222613 6 3 34947 3.86400000 883302072 883302072 3.00000000
-0.56723970 3.05163336 -0.60333806 2 4 34947 3.16200000 883302074 883302074 -11.00000000
-0.70680112 3.80614233 0.33868721 4 5 34948 3.88600000 883302077 883302077 5.00000000
-1.01611030 5.47710562 -0.88229036 2 6 34949 5.64000000 883302079 883302079 -9.00000000
-0.78898621 4.25698853 0.53159410 1 7 34950 4.36200000 883302081 883302081 7.00000000
-0.93750703 5.06326723 -0.63225818 2 8 34951 5.18800000 883302084 883302084 -7.00000000
-0.87048548 4.70588636 -0.41869619 5 10 34952 4.80400000 883302088 883302088 -5.00000000
-1.98788846 10.75711727 2.12637544 21 11 34953 11.14400000 883302091 883302091 11.00000000
-0.68712789 3.72190952 -0.19835328 1 12 34954 3.79000000 883302093 883302093 -3.00000000
-0.68883938 3.73848915 -0.06635405 6 14 34956 3.80200000 883302097 883302097 -1.00000000
-1.48495805 8.06710815 2.19789124 2 15 34957 8.49200000 883302100 883302100 15.00000000
-0.39778399 2.17590904 -0.59269559 4 0 34964 2.29000000 883302120 883302120 -15.00000000
-0.67685860 3.70612502 0.06576066 6 1 34965 3.76800000 883302123 883302123 1.00000000
-0.46380499 2.54206467 -0.59657019 3 2 34966 2.65200000 883302125 883302125 -13.00000000
-0.68793488 3.77049637 0.20086540 6 3 34966 3.83800000 883302127 883302127 3.00000000
-0.55587995 3.04973197 -0.60257483 4 4 34967 3.15800000 883302130 883302130 -11.00000000
-0.69779402 3.83210826 0.34077895 6 5 34968 3.91000000 883302132 883302132 5.00000000
-1.00052083 5.50005388 -0.88541907 6 6 34969 5.66000000 883302134 883302134 -9.00000000
-0.92266405 5.08213425 -0.63420808 2 8 34971 5.20400000 883302139 883302139 -7.00000000
-0.86294252 4.75790644 -0.42305398 5 10 34972 4.85400000 883302144 883302144 -5.00000000
-0.67875648 3.74983478 -0.19971400 1 12 34974 3.81600000 883302148 883302148 -3.00000000
-1.88085735 10.40127754 2.44026899 16 13 34975 10.84800000 883302150 883302150 13.00000000
-0.67258602 3.72316027 -0.06603990 6 14 34976 3.78400000 883302153 883302153 -1.00000000
-1.61392796 8.94296551 2.43496966 29 15 34977 9.40800000 883302155 883302155 15.00000000
-0.38920179 2.16961002 -0.59062505 4 0 34983 2.28200000 883302176 883302176 -15.00000000
-0.66527039 3.71228576 0.06583048 6 1 34984 3.77200000 883302178 883302178 1.00000000
-0.45605949 2.54742527 -0.59746999 3 2 34985 2.65600000 883302180 883302180 -13.00000000
-0.67577964 3.77472281 0.20097007 6 3 34985 3.84000000 883302183 883302183 3.00000000
-0.54576361 3.05155849 -0.60257483 2 4 34986 3.15800000 883302185 883302185 -11.00000000
-0.68368077 3.82655573 0.34008172 6 5 34987 3.90200000 883302187 883302187 5.00000000
-0.98505324 5.51889849 -0.88792205 4 6 34988 5.67600000 883302190 883302190 -9.00000000
-0.75999177 4.26226044 0.53159410 1 7 34989 4.36200000 883302192 883302192 7.00000000
-0.90580601 5.08516598 -0.63420808 2 8 34990 5.20400000 883302194 883302194 -7.00000000
-0.94838637 5.32959843 -0.47360429 10 10 34991 5.43400000 883302199 883302199 -5.00000000
-1.59609067 8.97855377 1.77261555 3 11 34992 9.29000000 883302201 883302201 11.00000000
-0.67504841 3.80122709 -0.20233081 5 12 34993 3.86600000 883302203 883302203 -3.00000000
-1.84363186 10.39210701 2.43666983 46 13 34994 10.83200000 883302206 883302206 13.00000000
-0.65953797 3.72143221 -0.06597009 6 14 34995 3.78000000 883302208 883302208 -1.00000000
-1.58426309 8.94826794 2.43496966 38 15 34996 9.40800000 883302210 883302210 15.00000000
-0.38095716 2.16715002 -0.58958977 4 0 35003 2.27800000 883302231 883302231 -15.00000000
-0.65127045 3.70867682 0.06572577 6 1 35004 3.76600000 883302233 883302233 1.00000000
-0.44447076 2.53364635 -0.59387076 5 2 35005 2.64000000 883302236 883302236 -13.00000000
-0.66466993 3.78886223 0.20159811 6 3 35005 3.85200000 883302238 883302238 3.00000000
-0.53646392 3.06118011 -0.60410130 2 4 35006 3.16600000 883302240 883302240 -11.00000000
-0.66447860 3.79555583 0.33711842 4 5 35007 3.86800000 883302243 883302243 5.00000000
-0.67244065 3.84498644 -0.61822903 2 6 35008 3.95200000 883302245 883302245 -9.00000000
-0.74510908 4.26488733 0.53159410 1 7 35009 4.36200000 883302247 883302247 7.00000000
-0.88873255 5.09220791 -0.63469553 2 8 35010 5.20800000 883302250 883302250 -7.00000000
-0.94004303 5.39175987 -0.47883365 13 10 35011 5.49400000 883302254 883302254 -5.00000000
-1.62470198 9.32834721 1.84054363 6 11 35012 9.64600000 883302256 883302256 11.00000000
-0.65835196 3.78388333 -0.20128408 1 12 35013 3.84600000 883302259 883302259 -3.00000000
-1.68787909 9.71113491 2.27560496 9 13 35014 10.11600000 883302261 883302261 13.00000000
-0.64791209 3.73159266 -0.06610972 6 14 35015 3.78800000 883302263 883302263 -1.00000000
-1.54905641 8.93090248 2.42875791 45 15 35016 9.38400000 883302266 883302266 15.00000000
-0.37470135 2.17608213 -0.59166032 4 0 35023 2.28600000 883302286 883302286 -15.00000000
-0.63594782 3.69713211 0.06548143 8 1 35024 3.75200000 883302289 883302289 1.00000000
-0.43826413 2.55054712 -0.59746999 4 2 35025 2.65600000 883302291 883302291 -13.00000000
-0.65008736 3.78328562 0.20117941 6 3 35025 3.84400000 883302293 883302293 3.00000000
-0.52577513 3.06303406 -0.60410130 2 4 35026 3.16600000 883302296 883302296 -11.00000000
-0.65156233 3.79981589 0.33729273 4 5 35027 3.87000000 883302298 883302298 5.00000000
-0.66301721 3.87067437 -0.62198341 2 6 35028 3.97600000 883302300 883302300 -9.00000000
-1.47817945 8.63862705 1.07610631 2 7 35029 8.83000000 883302302 883302302 7.00000000
-0.88031709 5.15006685 -0.64152020 2 8 35030 5.26400000 883302305 883302305 -7.00000000
-0.91115594 5.33608913 -0.47360429 10 10 35031 5.43400000 883302309 883302309 -5.00000000
-1.67036664 9.79262829 1.93098700 12 11 35032 10.12000000 883302312 883302312 11.00000000
-0.64312685 3.77434516 -0.20065606 1 12 35033 3.83400000 883302314 883302314 -3.00000000
-0.63521761 3.73580289 -0.06614462 6 14 35035 3.79000000 883302319 883302319 -1.00000000
-1.51910818 8.93408585 2.42824030 42 15 35035 9.38200000 883302321 883302321 15.00000000
-0.36903018 2.18880653 -0.59476614 4 0 35043 2.29800000 883302342 883302342 -15.00000000
-0.62370276 3.70327330 0.06555124 6 1 35044 3.75600000 883302344 883302344 1.00000000
-0.43065163 2.55974817 -0.59926963 4 2 35045 2.66400000 883302346 883302346 -13.00000000
-0.63621455 3.78159261 0.20097007 6 3 35045 3.84000000 883302349 883302349 3.00000000
-0.51442921 3.06097865 -0.60333806 2 4 35046 3.16200000 883302351 883302351 -11.00000000
-0.63829452 3.80206704 0.33729273 4 5 35047 3.87000000 883302353 883302353 5.00000000
-0.64558142 3.84958720 -0.61822903 2 6 35048 3.95200000 883302355 883302355 -9.00000000
-1.43227315 8.54975986 1.06440687 2 7 35049 8.73400000 883302358 883302358 7.00000000
-0.85840303 5.12961388 -0.63859534 2 8 35050 5.24000000 883302360 883302360 -7.00000000
-0.89153850 5.33334208 -0.47308138 10 10 35051 5.42800000 883302365 883302365 -5.00000000
-1.80205464 10.79179382 2.12675714 43 11 35052 11.14600000 883302367 883302367 11.00000000
-0.62600464 3.75292659 -0.19939999 1 12 35053 3.81000000 883302369 883302369 -3.00000000
-1.73662865 10.42237663 2.43936920 53 13 35054 10.84400000 883302372 883302372 13.00000000
-0.62086010 3.73010731 -0.06600500 8 14 35055 3.78200000 883302374 883302374 -1.00000000
-1.48571920 8.93578148 2.42720509 42 15 35056 9.37800000 883302376 883302376 15.00000000
-0.36012948 2.18245697 -0.59269559 4 0 35063 2.29000000 883302397 883302397 -15.00000000
-0.61077213 3.70542789 0.06555124 6 1 35064 3.75600000 883302399 883302399 1.00000000
-0.42171383 2.56123590 -0.59926963 3 2 35065 2.66400000 883302402 883302402 -13.00000000
-0.62105346 3.77601576 0.20055139 6 3 35066 3.83200000 883302404 883302404 3.00000000
-0.50310403 3.05888104 -0.60257483 2 4 35066 3.15800000 883302406 883302406 -11.00000000
-0.62437290 3.80033994 0.33694410 4 5 35067 3.86600000 883302408 883302408 5.00000000
-0.63150012 3.84791875 -0.61760324 2 6 35068 3.94800000 883302411 883302411 -9.00000000
-1.39599741 8.51552773 1.05953205 2 7 35069 8.69400000 883302413 883302413 7.00000000
-0.84049207 5.13257933 -0.63859534 2 8 35070 5.24000000 883302415 883302415 -7.00000000
-1.83811724 11.22471333 1.80149925 3 9 35070 11.51600000 883302418 883302418 9.00000000
-0.87388110 5.34232044 -0.47360429 10 10 35071 5.43400000 883302420 883302420 -5.00000000
-1.76468992 10.79995632 2.12713861 43 11 35072 11.14800000 883302422 883302422 11.00000000
-0.61676145 3.77874303 -0.20065606 1 12 35073 3.83400000 883302425 883302425 -3.00000000
-1.70023715 10.42837524 2.43936920 59 13 35074 10.84400000 883302427 883302427 13.00000000
-0.60815722 3.73422551 -0.06603990 8 14 35075 3.78400000 883302429 883302429 -1.00000000
-1.45669997 8.94447327 2.42824030 42 15 35075 9.38200000 883302432 883302432 15.00000000
-0.35096973 2.17416501 -0.59010744 3 0 35083 2.28000000 883302452 883302452 -15.00000000
-0.59974408 3.71938252 0.06576066 6 1 35084 3.76800000 883302455 883302455 1.00000000
-0.41524997 2.57808399 -0.60286885 3 2 35085 2.68000000 883302457 883302457 -13.00000000
-0.60882074 3.78407645 0.20086540 6 3 35086 3.83800000 883302459 883302459 3.00000000
-0.49367091 3.06837201 -0.60410130 2 4 35086 3.16600000 883302461 883302461 -11.00000000
-0.61331642 3.81626630 0.33816427 4 5 35087 3.88000000 883302464 883302464 5.00000000
-0.61994314 3.86180186 -0.61948049 2 6 35088 3.96000000 883302466 883302466 -9.00000000
-1.36186385 8.49290848 1.05611968 2 7 35089 8.66600000 883302468 883302468 7.00000000
-0.82633841 5.15900326 -0.64152020 2 8 35090 5.26400000 883302471 883302471 -7.00000000
-0.85459810 5.34140348 -0.47325569 10 10 35091 5.43000000 883302475 883302475 -5.00000000
-1.72636056 10.80217266 2.12637544 46 11 35092 11.14400000 883302478 883302478 11.00000000
-0.61112386 3.82820773 -0.20316818 1 12 35093 3.88200000 883302480 883302480 -3.00000000
-1.66443872 10.43809509 2.44026899 60 13 35094 10.84800000 883302482 883302482 13.00000000
-0.59386045 3.72842622 -0.06590029 8 14 35095 3.77600000 883302485 883302485 -1.00000000
-1.42269289 8.94212055 2.42616963 42 15 35096 9.37400000 883302487 883302487 15.00000000
-0.34504330 2.18098116 -0.59166032 4 0 35101 2.28600000 883302508 883302508 -15.00000000
-0.58587146 3.70742202 0.06551633 8 1 35102 3.75400000 883302510 883302510 1.00000000
-0.40654096 2.57552600 -0.60196900 3 2 35103 2.67600000 883302512 883302512 -13.00000000
-0.59724075 3.78794336 0.20097007 6 3 35104 3.84000000 883302514 883302514 3.00000000
-0.48280585 3.06215048 -0.60257483 2 4 35104 3.15800000 883302517 883302517 -11.00000000
-0.59698480 3.79062033 0.33572391 4 5 35105 3.85200000 883302519 883302519 5.00000000
-0.60658002 3.85592508 -0.61822903 2 6 35106 3.95200000 883302521 883302521 -9.00000000
-1.33086193 8.46969032 1.05270743 2 7 35107 8.63800000 883302524 883302524 7.00000000
-0.80397087 5.12235212 -0.63664544 2 8 35108 5.22400000 883302526 883302526 -7.00000000
-0.84151644 5.36768198 -0.47534743 10 10 35109 5.45400000 883302531 883302531 -5.00000000
-1.69059372 10.79590511 2.12408566 46 11 35110 11.13200000 883302533 883302533 11.00000000
-0.61452681 3.92877197 -0.20840178 1 12 35111 3.98200000 883302535 883302535 -3.00000000
-1.63103664 10.43942165 2.43936920 60 13 35112 10.84400000 883302538 883302538 13.00000000
-0.58276105 3.73422527 -0.06597009 8 14 35113 3.78000000 883302540 883302540 -1.00000000
-1.39347398 8.92912388 2.42151093 40 15 35113 9.35600000 883302542 883302542 15.00000000
-0.33654252 2.17644501 -0.59010744 4 0 35121 2.28000000 883302563 883302563 -15.00000000
-0.57201087 3.70351577 0.06541162 9 1 35122 3.74800000 883302565 883302565 1.00000000
-0.39635974 2.56922555 -0.60016942 3 2 35123 2.66800000 883302567 883302567 -13.00000000
-0.58371055 3.78803110 0.20086540 6 3 35124 3.83800000 883302570 883302570 3.00000000
-0.47151601 3.05993652 -0.60181159 5 4 35124 3.15400000 883302572 883302572 -11.00000000
-0.58496183 3.80055785 0.33642116 4 5 35125 3.86000000 883302574 883302574 5.00000000
-0.59431726 3.86582851 -0.61948049 2 6 35126 3.96000000 883302577 883302577 -9.00000000
-1.29707098 8.44681549 1.04929507 2 7 35127 8.61000000 883302579 883302579 7.00000000
-0.79210466 5.16437006 -0.64152020 2 8 35128 5.26400000 883302581 883302581 -7.00000000
-0.82458484 5.38240337 -0.47639328 10 10 35129 5.46600000 883302586 883302586 -5.00000000
-1.64963210 10.78039360 2.11988783 40 11 35130 11.11000000 883302588 883302588 11.00000000
-0.60080904 3.93089318 -0.20840178 1 12 35131 3.98200000 883302590 883302590 -3.00000000
-1.59517455 10.44890499 2.44026899 62 13 35132 10.84800000 883302593 883302593 13.00000000
-0.56942117 3.73425984 -0.06593519 9 14 35133 3.77800000 883302595 883302595 -1.00000000
-1.36073768 8.93417072 2.42151093 38 15 35134 9.35600000 883302597 883302597 15.00000000
-0.33125162 2.19288778 -0.59424853 4 0 35141 2.29600000 883302618 883302618 -15.00000000
-0.55967635 3.70944452 0.06548143 11 1 35142 3.75200000 883302620 883302620 1.00000000
-0.38564667 2.55903149 -0.59746999 3 2 35143 2.65600000 883302623 883302623 -13.00000000
-0.57048428 3.79004550 0.20086540 8 3 35144 3.83800000 883302625 883302625 3.00000000
-0.46433860 3.08486032 -0.60639101 5 4 35144 3.17800000 883302627 883302627 -11.00000000
-0.57228428 3.80651712 0.33676979 4 5 35145 3.86400000 883302630 883302630 5.00000000
-0.58081937 3.86787963 -0.61948049 2 6 35146 3.96000000 883302632 883302632 -9.00000000
-1.26286709 8.41988087 1.04539526 2 7 35147 8.57800000 883302634 883302634 7.00000000
-0.77054363 5.14354515 -0.63859534 2 8 35148 5.24000000 883302637 883302637 -7.00000000
-0.80667627 5.39116001 -0.47691622 10 10 35149 5.47200000 883302641 883302641 -5.00000000
-1.61141098 10.78220272 2.11912465 43 11 35150 11.10600000 883302643 883302643 11.00000000
-0.57234061 3.83419776 -0.20316818 1 12 35151 3.88200000 883302646 883302646 -3.00000000
-1.55639243 10.43898964 2.43666983 64 13 35152 10.83200000 883302648 883302648 13.00000000
-0.55697179 3.74018049 -0.06600500 9 14 35153 3.78200000 883302650 883302650 -1.00000000
-1.33138800 8.94054508 2.42202854 40 15 35153 9.35800000 883302653 883302653 15.00000000
-0.32387689 2.19594193 -0.59476614 4 0 35161 2.29800000 883302673 883302673 -15.00000000
-0.54614168 3.70741892 0.06541162 10 1 35162 3.74800000 883302676 883302676 1.00000000
-0.37926465 2.57771397 -0.60151911 3 2 35163 2.67400000 883302678 883302678 -13.00000000
-0.55434722 3.77225327 0.19981869 6 3 35164 3.81800000 883302680 883302680 3.00000000
-0.45156950 3.07286572 -0.60371965 5 4 35164 3.16400000 883302683 883302683 -11.00000000
-0.55870420 3.80652022 0.33659548 6 5 35165 3.86200000 883302685 883302685 5.00000000
-0.56674135 3.86597443 -0.61885476 2 6 35166 3.95600000 883302687 883302687 -9.00000000
-1.23490655 8.43405914 1.04661393 7 7 35167 8.58800000 883302690 883302690 7.00000000
-0.74798870 5.11477661 -0.63469553 2 8 35168 5.20800000 883302692 883302692 -7.00000000
-0.78526109 5.37619972 -0.47534743 10 10 35169 5.45400000 883302696 883302696 -5.00000000
-1.57348084 10.78581905 2.11874318 40 11 35170 11.10400000 883302699 883302699 11.00000000
-0.55895323 3.83617234 -0.20316818 1 12 35171 3.88200000 883302701 883302701 -3.00000000
-1.51994407 10.44435883 2.43666983 60 13 35172 10.83200000 883302703 883302703 13.00000000
-0.54304981 3.73616505 -0.06590029 11 14 35173 3.77600000 883302706 883302706 -1.00000000
-1.29833281 8.94345284 2.42151093 40 15 35174 9.35600000 883302708 883302708 15.00000000
-0.31472668 2.18946552 -0.59269559 4 0 35182 2.29000000 883302729 883302729 -15.00000000
-0.53368640 3.71731329 0.06555124 11 1 35183 3.75600000 883302731 883302731 1.00000000
-0.37064412 2.58487368 -0.60286885 3 2 35184 2.68000000 883302733 883302733 -13.00000000
-0.54165006 3.78216815 0.20023736 8 3 35185 3.82600000 883302736 883302736 3.00000000
-0.44225210 3.08810401 -0.60639101 4 4 35185 3.17800000 883302738 883302738 -11.00000000
-0.54333830 3.79868102 0.33572391 4 5 35186 3.85200000 883302740 883302740 5.00000000
-0.55312675 3.87193680 -0.61948049 2 6 35187 3.96000000 883302743 883302743 -9.00000000
-1.20118201 8.41887665 1.04417658 7 7 35188 8.56800000 883302745 883302745 7.00000000
-0.74211913 5.20788479 -0.64590752 2 8 35189 5.30000000 883302747 883302747 -7.00000000
-0.76611251 5.38298702 -0.47569606 10 10 35190 5.45800000 883302752 883302752 -5.00000000
-1.53366208 10.78957081 2.11836147 46 11 35191 11.10200000 883302754 883302754 11.00000000
-0.53871322 3.79469180 -0.20086540 1 12 35192 3.83800000 883302756 883302756 -3.00000000
-1.48110616 10.44600105 2.43577003 60 13 35193 10.82800000 883302759 883302759 13.00000000
-0.52738982 3.72427082 -0.06565595 16 14 35194 3.76200000 883302761 883302761 -1.00000000
-1.26412690 8.92689037 2.41581702 36 15 35194 9.33400000 883302763 883302763 15.00000000
-0.30600935 2.18289804 -0.59062505 4 0 35202 2.28200000 883302784 883302784 -15.00000000
-0.51932096 3.70925164 0.06537671 13 1 35203 3.74600000 883302786 883302786 1.00000000
-0.36107925 2.58229184 -0.60196900 3 2 35204 2.67600000 883302789 883302789 -13.00000000
-0.52954948 3.79194808 0.20065606 8 3 35205 3.83400000 883302791 883302791 3.00000000
-0.43038377 3.08185148 -0.60486454 4 4 35205 3.17000000 883302793 883302793 -11.00000000
-0.52897424 3.79266119 0.33502668 6 5 35206 3.84400000 883302796 883302796 5.00000000
-0.53960782 3.87384391 -0.61948049 2 6 35207 3.96000000 883302798 883302798 -9.00000000
-1.17342842 8.43481541 1.04563892 7 7 35208 8.58000000 883302800 883302800 7.00000000
-0.71574020 5.15145731 -0.63859534 2 8 35209 5.24000000 883302802 883302802 -7.00000000
-0.74348390 5.35799980 -0.47325569 6 10 35210 5.43000000 883302807 883302807 -5.00000000
-1.49464262 10.78513527 2.11645341 46 11 35211 11.09200000 883302809 883302809 11.00000000
-1.44570112 10.45882893 2.43756962 62 13 35213 10.83600000 883302814 883302814 13.00000000
-1.23192739 8.93529129 2.41685224 38 15 35215 9.33800000 883302819 883302819 15.00000000
-0.29981631 2.19155693 -0.59269559 4 0 35221 2.29000000 883302839 883302839 -15.00000000
-0.50566429 3.70104694 0.06520219 13 1 35222 3.73600000 883302842 883302842 1.00000000
-0.35277754 2.58540583 -0.60241890 3 2 35223 2.67800000 883302844 883302844 -13.00000000
-0.51670235 3.79170442 0.20055139 8 3 35224 3.83200000 883302846 883302846 3.00000000
-0.42281249 3.10271454 -0.60868067 2 4 35224 3.19000000 883302849 883302849 -11.00000000
-0.51639444 3.79439449 0.33502668 4 5 35225 3.84400000 883302851 883302851 5.00000000
-0.52649266 3.87365484 -0.61916763 2 6 35226 3.95800000 883302853 883302853 -9.00000000
-1.14491713 8.43472576 1.04515147 4 7 35227 8.57600000 883302855 883302855 7.00000000
-0.69598681 5.13413143 -0.63615799 2 8 35228 5.22000000 883302858 883302858 -7.00000000
-0.72651392 5.36635876 -0.47377861 3 10 35229 5.43600000 883302862 883302862 -5.00000000
-1.45781732 10.78224945 2.11492682 46 11 35230 11.08400000 883302865 883302865 11.00000000
-0.50912970 3.77056050 -0.19939999 1 12 35231 3.81000000 883302867 883302867 -3.00000000
-1.41048956 10.45970249 2.43666983 60 13 35232 10.83200000 883302869 883302869 13.00000000
-0.50042611 3.71588349 -0.06544653 79 14 35233 3.75000000 883302872 883302872 -1.00000000
-1.20385027 8.93911743 2.41685224 38 15 35233 9.33800000 883302874 883302874 15.00000000
-0.29190934 2.19067526 -0.59217799 4 0 35241 2.28800000 883302895 883302895 -15.00000000
-0.49300590 3.70477176 0.06523710 12 1 35242 3.73800000 883302897 883302897 1.00000000
-0.34246701 2.57696271 -0.60016942 3 2 35243 2.66800000 883302899 883302899 -13.00000000
-0.50241262 3.78556538 0.20013270 6 3 35244 3.82400000 883302902 883302902 3.00000000
-0.41249600 3.10806394 -0.60944390 2 4 35244 3.19400000 883302904 883302904 -11.00000000
-0.50366992 3.80012417 0.33537531 4 5 35245 3.84800000 883302906 883302906 5.00000000
-0.51011664 3.85392761 -0.61572605 6 6 35246 3.93600000 883302908 883302908 -9.00000000
-1.11546743 8.43867111 1.04515147 2 7 35247 8.57600000 883302911 883302911 7.00000000
-0.67858070 5.14046574 -0.63664544 2 8 35248 5.22400000 883302913 883302913 -7.00000000
-0.71324593 5.41034365 -0.47743917 3 10 35249 5.47800000 883302918 883302918 -5.00000000
-1.41863382 10.77559376 2.11263728 46 11 35250 11.07200000 883302920 883302920 11.00000000
-0.49752697 3.78419614 -0.20002803 1 12 35251 3.82200000 883302922 883302922 -3.00000000
-1.37244773 10.45296955 2.43397045 64 13 35252 10.82000000 883302925 883302925 13.00000000
-0.48849210 3.72553849 -0.06558614 100 14 35253 3.75800000 883302927 883302927 -1.00000000
-1.17188621 8.93751812 2.41529942 42 15 35253 9.33200000 883302929 883302929 15.00000000
-0.28887305 2.22419930 -0.60097784 4 0 35260 2.32200000 883302950 883302950 -15.00000000
-0.48097494 3.70836926 0.06527200 10 1 35261 3.74000000 883302952 883302952 1.00000000
-0.33542150 2.58967972 -0.60286885 3 2 35262 2.68000000 883302955 883302955 -13.00000000
-0.48908788 3.78126836 0.19981869 6 3 35263 3.81800000 883302957 883302957 3.00000000
-0.40117967 3.10162663 -0.60791749 2 4 35263 3.18600000 883302959 883302959 -11.00000000
-0.49361783 3.82153320 0.33711842 4 5 35264 3.86800000 883302961 883302961 5.00000000
-0.50567317 3.92024994 -0.62605071 11 6 35265 4.00200000 883302964 883302964 -9.00000000
-1.08976018 8.46004295 1.04734516 2 7 35266 8.59400000 883302966 883302966 7.00000000
-0.66608936 5.17812729 -0.64103276 2 8 35267 5.26000000 883302968 883302968 -7.00000000
-1.38339245 10.78413391 2.11340046 46 11 35269 11.07600000 883302975 883302975 11.00000000
-0.48802075 3.80959797 -0.20128408 1 12 35270 3.84600000 883302978 883302978 -3.00000000
-1.33579862 10.44199944 2.43037128 59 13 35271 10.80400000 883302980 883302980 13.00000000
-0.47588170 3.72515440 -0.06555124 100 14 35272 3.75600000 883302982 883302982 -1.00000000
-1.14322102 8.94902039 2.41736984 40 15 35272 9.34000000 883302984 883302984 15.00000000
-0.27626488 2.18686152 -0.59062505 4 0 35280 2.28200000 883303005 883303005 -15.00000000
-0.46877822 3.71597743 0.06537671 13 1 35281 3.74600000 883303008 883303008 1.00000000
-0.32686692 2.59470177 -0.60376865 3 2 35282 2.68400000 883303010 883303010 -13.00000000
-0.47588581 3.78295255 0.19981869 8 3 35283 3.81800000 883303012 883303012 3.00000000
-0.38937035 3.09521651 -0.60639101 2 4 35283 3.17800000 883303014 883303014 -11.00000000
-0.47779185 3.80346441 0.33537531 4 5 35284 3.84800000 883303017 883303017 5.00000000
-1.05972898 8.45985603 1.04685771 2 7 35286 8.59000000 883303021 883303021 7.00000000
-0.64801025 5.18042088 -0.64103276 2 8 35287 5.26000000 883303024 883303024 -7.00000000
-1.34622645 10.79279327 2.11416364 43 11 35289 11.08000000 883303031 883303031 11.00000000
-0.47718844 3.83109760 -0.20233081 1 12 35290 3.86600000 883303033 883303033 -3.00000000
-1.29934108 10.44659901 2.43037128 60 13 35291 10.80400000 883303035 883303035 13.00000000
-0.46312204 3.72877741 -0.06558614 107 14 35292 3.75800000 883303037 883303037 -1.00000000
-1.11041355 8.95315075 2.41736984 38 15 35293 9.34000000 883303040 883303040 15.00000000
-0.27004221 2.19931746 -0.59373087 4 0 35300 2.29400000 883303061 883303061 -15.00000000
-0.45483077 3.70965195 0.06523710 13 1 35301 3.73800000 883303063 883303063 1.00000000
-0.31828138 2.59969568 -0.60466844 3 2 35302 2.68800000 883303065 883303065 -13.00000000
-0.46388978 3.79450297 0.20034204 8 3 35303 3.82800000 883303067 883303067 3.00000000
-0.37808719 3.09265924 -0.60562778 2 4 35303 3.17400000 883303070 883303070 -11.00000000
-0.46330521 3.79522061 0.33450374 6 5 35304 3.83800000 883303072 883303072 5.00000000
-1.03139138 8.47335625 1.04807639 2 7 35306 8.60000000 883303077 883303077 7.00000000
-0.62657005 5.15506315 -0.63762039 2 8 35307 5.23200000 883303079 883303079 -7.00000000
-1.30807197 10.79352856 2.11340046 46 11 35309 11.07600000 883303086 883303086 11.00000000
-0.46093318 3.80894661 -0.20107475 1 12 35310 3.84200000 883303088 883303088 -3.00000000
-1.26286781 10.45107079 2.43037128 62 13 35311 10.80400000 883303090 883303090 13.00000000
-0.45106155 3.73831248 -0.06572577 107 14 35312 3.76600000 883303093 883303093 -1.00000000
-1.07863498 8.93952179 2.41271114 40 15 35312 9.32200000 883303095 883303095 15.00000000
-0.26213479 2.19832826 -0.59321326 4 0 35320 2.29200000 883303116 883303116 -15.00000000
-0.44093320 3.70327425 0.06509747 13 1 35321 3.73000000 883303118 883303118 1.00000000
-0.30828455 2.59305024 -0.60286885 3 2 35322 2.68000000 883303120 883303120 -13.00000000
-0.45087710 3.79808259 0.20044671 6 3 35323 3.83000000 883303123 883303123 3.00000000
-0.36914098 3.10955667 -0.60868067 2 4 35323 3.19000000 883303125 883303125 -11.00000000
-0.45075819 3.80275035 0.33502668 4 5 35324 3.84400000 883303127 883303127 5.00000000
-0.46018201 3.88805819 -0.62010622 4 6 35325 3.96400000 883303130 883303130 -9.00000000
-1.00157464 8.47493362 1.04783261 2 7 35326 8.59800000 883303132 883303132 7.00000000
-0.60624534 5.13750458 -0.63518304 2 8 35327 5.21200000 883303134 883303134 -7.00000000
-1.26901114 10.78633022 2.11111069 46 11 35329 11.06400000 883303141 883303141 11.00000000
-0.44716862 3.80656505 -0.20086540 1 12 35330 3.83800000 883303143 883303143 -3.00000000
-1.22728717 10.46315670 2.43217087 62 13 35331 10.81200000 883303146 883303146 13.00000000
-0.43754441 3.73589182 -0.06565595 110 14 35332 3.76200000 883303148 883303148 -1.00000000
-1.04832256 8.95090771 2.41478181 36 15 35332 9.33000000 883303150 883303150 15.00000000
-0.25607109 2.21654606 -0.59787202 4 0 35341 2.31000000 883303171 883303171 -15.00000000
-0.42873195 3.71678472 0.06530690 15 1 35342 3.74200000 883303173 883303173 1.00000000
-0.29833254 2.59029102 -0.60196900 3 2 35343 2.67600000 883303176 883303176 -13.00000000
-0.43533137 3.77979183 0.19939999 6 3 35343 3.81000000 883303178 883303178 3.00000000
-0.35729283 3.10698795 -0.60791749 2 4 35344 3.18600000 883303180 883303180 -11.00000000
-0.43590829 3.79645944 0.33432943 4 5 35345 3.83600000 883303183 883303183 5.00000000
-0.44637847 3.89364386 -0.62073195 4 6 35346 3.96800000 883303185 883303185 -9.00000000
-0.97005421 8.47460270 1.04734516 2 7 35347 8.59400000 883303187 883303187 7.00000000
-0.58515733 5.11996937 -0.63274562 2 8 35348 5.19200000 883303189 883303189 -7.00000000
-1.22991323 10.79481030 2.11187387 46 11 35350 11.06800000 883303196 883303196 11.00000000
-0.43411687 3.81611633 -0.20128408 1 12 35351 3.84600000 883303199 883303199 -3.00000000
-1.18629038 10.44434929 2.42677188 60 13 35352 10.78800000 883303201 883303201 13.00000000
-0.42362341 3.73548341 -0.06562105 50 14 35353 3.76000000 883303203 883303203 -1.00000000
-1.01529109 8.95277023 2.41426396 38 15 35353 9.32800000 883303206 883303206 15.00000000
-0.24790235 2.21358681 -0.59683675 4 0 35361 2.30600000 883303226 883303226 -15.00000000
-0.41442207 3.70633459 0.06509747 12 1 35362 3.73000000 883303229 883303229 1.00000000
-0.28972134 2.59518981 -0.60286885 3 2 35363 2.68000000 883303231 883303231 -13.00000000
-0.42125356 3.77937698 0.19929533 6 3 35364 3.80800000 883303233 883303233 3.00000000
-0.34775013 3.11992335 -0.61020714 2 4 35364 3.19800000 883303236 883303236 -11.00000000
-0.42397568 3.80983877 0.33537531 4 5 35365 3.84800000 883303238 883303238 5.00000000
-0.43191183 3.88732505 -0.61948049 2 6 35366 3.96000000 883303240 883303240 -9.00000000
-0.94440603 8.51345158 1.05173242 2 7 35367 8.63000000 883303242 883303242 7.00000000
-0.56902993 5.13776493 -0.63469553 2 8 35368 5.20800000 883303245 883303245 -7.00000000
-1.19222486 10.79903793 2.11187387 43 11 35370 11.06800000 883303252 883303252 11.00000000
-0.41685471 3.78187418 -0.19939999 1 12 35371 3.81000000 883303254 883303254 -3.00000000
-1.14854658 10.43680477 2.42407250 57 13 35372 10.77600000 883303256 883303256 13.00000000
-0.40905282 3.72302532 -0.06537671 93 14 35373 3.74600000 883303259 883303259 -1.00000000
-0.98331332 8.96411324 2.41633463 40 15 35374 9.33600000 883303261 883303261 15.00000000
-0.23895560 2.20679808 -0.59476614 4 0 35382 2.29800000 883303282 883303282 -15.00000000
-0.40276921 3.72572160 0.06541162 13 1 35383 3.74800000 883303284 883303284 1.00000000
-0.28020754 2.59623432 -0.60286885 3 2 35384 2.68000000 883303286 883303286 -13.00000000
-0.40870145 3.78678155 0.19960934 8 3 35384 3.81400000 883303289 883303289 3.00000000
-0.33463007 3.10556126 -0.60715425 2 4 35385 3.18200000 883303291 883303291 -11.00000000
-0.40936977 3.80542421 0.33485237 6 5 35386 3.84200000 883303293 883303293 5.00000000
-0.42272374 3.93601990 -0.62698936 2 6 35387 4.00800000 883303295 883303295 -9.00000000
-0.91361958 8.52080345 1.05221987 2 7 35388 8.63400000 883303298 883303298 7.00000000
-0.55188555 5.15560675 -0.63664544 2 8 35389 5.22400000 883303300 883303300 -7.00000000
-1.15159500 10.79357433 2.10996580 50 11 35391 11.05800000 883303307 883303307 11.00000000
-0.40256754 3.77940440 -0.19919065 1 12 35392 3.80600000 883303309 883303309 -3.00000000
-1.10946178 10.43319321 2.42227292 57 13 35393 10.76800000 883303312 883303312 13.00000000
-0.39456007 3.71654558 -0.06523710 33 14 35394 3.73800000 883303314 883303314 -1.00000000
-0.95120096 8.95980644 2.41426396 40 15 35394 9.32800000 883303316 883303316 15.00000000
-0.23165351 2.21146131 -0.59580141 4 0 35402 2.30200000 883303337 883303337 -15.00000000
-0.38872164 3.71716070 0.06523710 13 1 35403 3.73800000 883303339 883303339 1.00000000
-0.27255970 2.61076403 -0.60601813 3 2 35404 2.69400000 883303341 883303341 -13.00000000
-0.39548063 3.78818512 0.19960934 6 3 35404 3.81400000 883303344 883303344 3.00000000
-0.32297355 3.09889960 -0.60562778 2 4 35405 3.17400000 883303346 883303346 -11.00000000
-0.39422819 3.78899479 0.33328357 4 5 35406 3.82400000 883303348 883303348 5.00000000
-0.40775740 3.92568278 -0.62511212 2 6 35407 3.99600000 883303351 883303351 -9.00000000
-0.88346136 8.51999187 1.05173242 2 7 35408 8.63000000 883303353 883303353 7.00000000
-0.74707210 7.21694851 -0.89086491 4 8 35409 7.31000000 883303355 883303355 -7.00000000
-1.11290407 10.78776360 2.10805774 50 11 35411 11.04800000 883303362 883303362 11.00000000
-0.39019096 3.78873372 -0.19960934 1 12 35412 3.81400000 883303365 883303365 -3.00000000
-1.07383358 10.44475651 2.42407250 59 13 35413 10.77600000 883303367 883303367 13.00000000
-0.38199282 3.72187853 -0.06530690 100 14 35414 3.74200000 883303369 883303369 -1.00000000
-0.91952515 8.95922852 2.41322875 38 15 35414 9.32400000 883303371 883303371 15.00000000
-0.22431877 2.21221733 -0.59580141 4 0 35421 2.30200000 883303392 883303392 -15.00000000
-0.37518463 3.70649219 0.06502767 13 1 35422 3.72600000 883303394 883303394 1.00000000
-0.26272509 2.60002041 -0.60331875 3 2 35423 2.68200000 883303397 883303397 -13.00000000
-0.38305679 3.79749131 0.20002803 8 3 35424 3.82200000 883303399 883303399 3.00000000
-0.31308952 3.10386038 -0.60639101 2 4 35424 3.17800000 883303401 883303401 -11.00000000
-0.38365740 3.81010509 0.33502668 4 5 35425 3.84400000 883303404 883303404 5.00000000
-0.39434198 3.92308235 -0.62448639 2 6 35426 3.99200000 883303406 883303406 -9.00000000
-0.85995984 8.57027817 1.05758214 2 7 35427 8.67800000 883303408 883303408 7.00000000
-0.72550994 7.24308872 -0.89378977 4 8 35428 7.33400000 883303411 883303411 -7.00000000
-0.41529107 4.15334511 -0.36518255 2 10 35429 4.19000000 883303415 883303415 -5.00000000
-1.07614946 10.78162670 2.10614967 50 11 35430 11.03800000 883303418 883303418 11.00000000
-0.37643680 3.77808237 -0.19898130 1 12 35431 3.80200000 883303420 883303420 -3.00000000
-1.03957736 10.45213795 2.42497230 59 13 35432 10.78000000 883303422 883303422 13.00000000
-0.37162420 3.74302411 -0.06565595 35 14 35433 3.76200000 883303424 883303424 -1.00000000
-0.88862705 8.96622849 2.41426396 40 15 35434 9.32800000 883303427 883303427 15.00000000
-0.21772440 2.22452283 -0.59890729 4 0 35441 2.31400000 883303447 883303447 -15.00000000
-0.36302203 3.71573997 0.06516729 12 1 35442 3.73400000 883303450 883303450 1.00000000
-0.25232369 2.58734488 -0.60016942 3 2 35443 2.66800000 883303452 883303452 -13.00000000
-0.37007403 3.79476500 0.19981869 8 3 35443 3.81800000 883303454 883303454 3.00000000
-0.30491614 3.13229060 -0.61173362 2 4 35444 3.20600000 883303457 883303457 -11.00000000
-0.37035531 3.81142092 0.33502668 6 5 35445 3.84400000 883303459 883303459 5.00000000
-0.38102686 3.92836738 -0.62511212 2 6 35446 3.99600000 883303461 883303461 -9.00000000
-0.83003873 8.57322788 1.05758214 2 7 35447 8.67800000 883303464 883303464 7.00000000
-0.69506669 7.19222784 -0.88720882 4 8 35448 7.28000000 883303466 883303466 -7.00000000
-0.39715582 4.11708879 -0.36187065 9 10 35449 4.15200000 883303471 883303471 -5.00000000
-1.03756714 10.77554703 2.10424161 50 11 35450 11.02800000 883303473 883303473 11.00000000
-0.36324653 3.77937317 -0.19898130 1 12 35451 3.80200000 883303475 883303475 -3.00000000
-1.00122523 10.43630505 2.42047334 57 13 35452 10.76000000 883303477 883303477 13.00000000
-0.35722199 3.73036432 -0.06541162 100 14 35453 3.74800000 883303480 883303480 -1.00000000
-0.85769129 8.97312164 2.41529942 38 15 35454 9.33200000 883303482 883303482 15.00000000
-0.20998281 2.22138619 -0.59787202 4 0 35460 2.31000000 883303503 883303503 -15.00000000
-0.35107389 3.72090507 0.06523710 12 1 35461 3.73800000 883303505 883303505 1.00000000
-0.24447323 2.59592795 -0.60196900 3 2 35462 2.67600000 883303507 883303507 -13.00000000
-0.35598999 3.78006363 0.19898130 6 3 35462 3.80200000 883303510 883303510 3.00000000
-0.29415995 3.12937522 -0.61097038 2 4 35463 3.20200000 883303512 883303512 -11.00000000
-0.35734192 3.80866075 0.33467805 6 5 35464 3.84000000 883303514 883303514 5.00000000
-0.36910295 3.94140983 -0.62698936 2 6 35465 4.00800000 883303517 883303517 -9.00000000
-0.80197382 8.57988644 1.05806959 2 7 35466 8.68200000 883303519 883303519 7.00000000
-0.65959543 7.06997347 -0.87185329 2 8 35467 7.15400000 883303521 883303521 -7.00000000
-0.38516346 4.13623762 -0.36343944 11 10 35468 4.17000000 883303526 883303526 -5.00000000
-1.00146508 10.77501869 2.10347843 50 11 35469 11.02400000 883303528 883303528 11.00000000
-0.35052720 3.77856827 -0.19887663 1 12 35470 3.80000000 883303530 883303530 -3.00000000
-0.96625239 10.43568707 2.41957355 59 13 35471 10.75600000 883303533 883303533 13.00000000
-0.34429765 3.72555470 -0.06530690 100 14 35472 3.74200000 883303535 883303535 -1.00000000
-0.82775319 8.97399330 2.41478181 40 15 35473 9.33000000 883303537 883303537 15.00000000
-0.20152709 2.21441007 -0.59580141 4 0 35480 2.30200000 883303558 883303558 -15.00000000
-0.33844513 3.72609091 0.06530690 12 1 35481 3.74200000 883303560 883303560 1.00000000
-0.23593809 2.60258794 -0.60331875 3 2 35482 2.68200000 883303563 883303563 -13.00000000
-0.34405518 3.79520702 0.19971400 8 3 35482 3.81600000 883303565 883303565 3.00000000
-0.28146550 3.11083031 -0.60715425 2 4 35483 3.18200000 883303567 883303567 -11.00000000
-0.34440342 3.81385350 0.33502668 6 5 35484 3.84400000 883303570 883303570 5.00000000
-0.35427871 3.93086982 -0.62511212 2 6 35485 3.99600000 883303572 883303572 -9.00000000
-0.37898496 4.21322107 0.51940715 1 7 35486 4.26200000 883303574 883303574 7.00000000
-0.62728018 6.98721552 -0.86137253 2 8 35487 7.06800000 883303577 883303577 -7.00000000
-0.36983392 4.12763453 -0.36256790 11 10 35488 4.16000000 883303581 883303581 -5.00000000
-0.96349740 10.77453804 2.10271502 50 11 35489 11.02000000 883303583 883303583 11.00000000
-0.33946592 3.80364108 -0.20013270 1 12 35490 3.82400000 883303586 883303586 -3.00000000
-0.92981911 10.43899632 2.41957355 60 13 35491 10.75600000 883303588 883303588 13.00000000
-0.79574019 8.96913052 2.41271114 36 15 35493 9.32200000 883303593 883303593 15.00000000
-0.19418274 2.21506596 -0.59580141 4 0 35499 2.30200000 883303613 883303613 -15.00000000
-0.32504141 3.71524024 0.06509747 13 1 35500 3.73000000 883303616 883303616 1.00000000
-0.22764531 2.60723877 -0.60421854 3 2 35501 2.68600000 883303618 883303618 -13.00000000
-0.33181539 3.80030656 0.19992335 9 3 35501 3.82000000 883303620 883303620 3.00000000
-0.27285233 3.13130498 -0.61097038 2 4 35502 3.20200000 883303623 883303623 -11.00000000
-0.33140910 3.81100488 0.33467805 4 5 35503 3.84000000 883303625 883303625 5.00000000
-0.34124154 3.93202305 -0.62511212 2 6 35504 3.99600000 883303627 883303627 -9.00000000
-0.74800771 8.63656616 1.06440687 2 7 35505 8.73400000 883303629 883303629 7.00000000
-0.58735406 6.79544067 -0.83748615 2 8 35506 6.87200000 883303632 883303632 -7.00000000
-0.35614416 4.12883854 -0.36256790 11 10 35507 4.16000000 883303636 883303636 -5.00000000
-0.92692053 10.76789379 2.10080695 53 11 35508 11.01000000 883303639 883303639 11.00000000
-0.32667980 3.80275607 -0.20002803 1 12 35509 3.82200000 883303641 883303641 -3.00000000
-0.89486414 10.43813896 2.41867375 59 13 35510 10.75200000 883303643 883303643 13.00000000
-0.76574749 8.95041370 2.40701723 38 15 35511 9.30000000 883303648 883303648 15.00000000
-0.18644953 2.21573043 -0.59580141 4 0 35519 2.30200000 883303669 883303669 -15.00000000
-0.31207082 3.71635222 0.06509747 43 1 35520 3.73000000 883303671 883303671 1.00000000
-0.21789205 2.60024977 -0.60241890 3 2 35521 2.67800000 883303673 883303673 -13.00000000
-0.31921494 3.80940270 0.20034204 8 3 35521 3.82800000 883303676 883303676 3.00000000
-0.26126596 3.12441254 -0.60944390 2 4 35522 3.19400000 883303678 883303678 -11.00000000
-0.31893259 3.82206607 0.33554962 6 5 35523 3.85000000 883303680 883303680 5.00000000
-0.32587492 3.91350460 -0.62198341 2 6 35524 3.97600000 883303682 883303682 -9.00000000
-0.71719837 8.63121128 1.06343186 2 7 35525 8.72600000 883303685 883303685 7.00000000
-0.57740903 6.96362734 -0.85796016 2 8 35526 7.04000000 883303687 883303687 -7.00000000
-0.34172964 4.13005638 -0.36256790 9 10 35527 4.16000000 883303692 883303692 -5.00000000
-0.88787401 10.75345421 2.09737253 50 11 35528 10.99200000 883303694 883303694 11.00000000
-0.31176370 3.78396797 -0.19898130 1 12 35529 3.80200000 883303696 883303696 -3.00000000
-0.85842282 10.44119835 2.41867375 59 13 35530 10.75200000 883303699 883303699 13.00000000
-0.30657041 3.73687458 -0.06544653 100 14 35531 3.75000000 883303701 883303701 -1.00000000
-0.73372555 8.96278667 2.40960526 40 15 35532 9.31000000 883303703 883303703 15.00000000
-0.17933513 2.22407007 -0.59787202 4 0 35539 2.31000000 883303724 883303724 -15.00000000
-0.20865820 2.59905195 -0.60196900 3 2 35541 2.67600000 883303729 883303729 -13.00000000
-0.30461270 3.80258346 0.19992335 32 3 35542 3.82000000 883303731 883303731 3.00000000
-0.25129876 3.13704753 -0.61173362 2 4 35542 3.20600000 883303733 883303733 -11.00000000
-0.30463666 3.81123972 0.33450374 4 5 35543 3.83800000 883303735 883303735 5.00000000
-0.31409684 3.93824768 -0.62573785 2 6 35544 4.00000000 883303738 883303738 -9.00000000
-0.68486083 8.60595894 1.06001949 2 7 35545 8.69800000 883303740 883303740 7.00000000
-0.55954027 7.04673386 -0.86795348 4 8 35546 7.12200000 883303742 883303742 -7.00000000
-0.32668152 4.12327957 -0.36187065 11 10 35547 4.15200000 883303747 883303747 -5.00000000
-0.85079616 10.76235962 2.09851742 50 11 35548 10.99800000 883303749 883303749 11.00000000
-0.30075198 3.81290817 -0.20044671 1 12 35549 3.83000000 883303752 883303752 -3.00000000
-0.82105362 10.43247509 2.41597438 57 13 35550 10.74000000 883303754 883303754 13.00000000
-0.70475602 8.97480011 2.41219354 40 15 35551 9.32000000 883303759 883303759 15.00000000
-0.17216477 2.23238707 -0.59994256 4 0 35559 2.31800000 883303779 883303779 -15.00000000
-0.20033038 2.60947967 -0.60421854 3 2 35561 2.68600000 883303784 883303784 -13.00000000
-0.29087976 3.79764938 0.19960934 37 3 35562 3.81400000 883303786 883303786 3.00000000
-0.23824778 3.11050034 -0.60639101 2 4 35562 3.17800000 883303788 883303788 -11.00000000
-0.29284924 3.83214569 0.33624685 6 5 35563 3.85800000 883303791 883303791 5.00000000
-0.29899630 3.92159319 -0.62292206 2 6 35564 3.98200000 883303793 883303793 -9.00000000
-0.65873098 8.65976048 1.06635678 2 7 35565 8.75000000 883303795 883303795 7.00000000
-0.53433830 7.04072618 -0.86697853 4 8 35566 7.11400000 883303798 883303798 -7.00000000
-0.31394130 4.14624834 -0.36378807 4 10 35567 4.17400000 883303802 883303802 -5.00000000
-0.81351912 10.76917839 2.09928060 50 11 35568 11.00200000 883303805 883303805 11.00000000
-0.28563944 3.79003549 -0.19919065 1 12 35569 3.80600000 883303807 883303807 -3.00000000
-0.78375578 10.42361832 2.41327500 57 13 35570 10.72800000 883303809 883303809 13.00000000
-0.28032526 3.73692966 -0.06541162 100 14 35571 3.74800000 883303812 883303812 -1.00000000
-0.67128032 8.96961689 2.41012287 40 15 35572 9.31200000 883303814 883303814 15.00000000
-0.16238573 2.20600152 -0.59269559 4 0 35579 2.29000000 883303835 883303835 -15.00000000
-0.27342978 3.72340512 0.06516729 7 1 35580 3.73400000 883303837 883303837 1.00000000
-0.19122037 2.61016297 -0.60421854 3 2 35581 2.68600000 883303839 883303839 -13.00000000
-0.27689382 3.78868198 0.19908598 6 3 35582 3.80400000 883303841 883303841 3.00000000
-0.22796106 3.11914515 -0.60791749 2 4 35582 3.18600000 883303844 883303844 -11.00000000
-0.27787712 3.81128645 0.33432943 6 5 35583 3.83600000 883303846 883303846 5.00000000
-0.28774163 3.95610595 -0.62824082 2 6 35584 4.01600000 883303848 883303848 -9.00000000
-0.63022262 8.68576622 1.06928158 2 7 35585 8.77400000 883303851 883303851 7.00000000
-0.51162136 7.06828737 -0.87014711 6 8 35586 7.14000000 883303853 883303853 -7.00000000
