# .PCD v0.7 - Point Cloud Data file format
VERSION 0.7
FIELDS x y z intensity laser_id azimuth distance_m adjustedtime timestamp vertical_angle
SIZE 4 4 4 1 1 2 8 8 4 8
TYPE F F F U U U F U U F
COUNT 1 1 1 1 1 1 1 1 1 1
WIDTH 541
HEIGHT 1
VIEWPOINT 0 0 0 1 0 0 0
POINTS 541
DATA ascii
4.00384808 -4.42338037 1.15973711 12 11 13785 6.07800000 886843362 886843362 11.00000000
4.02014971 -4.44294834 -0.31401575 9 12 13786 6.00000000 886843365 886843365 -3.00000000
3.99232364 -4.41374397 1.37400103 9 13 13787 6.10800000 886843367 886843367 13.00000000
3.99399495 -4.41714096 -0.10394653 9 14 13788 5.95600000 886843369 886843369 -1.00000000
3.98546576 -4.40770817 1.59225476 9 15 13788 6.15200000 886843372 886843372 15.00000000
1.40362442 -1.55669594 -0.56163734 4 0 13796 2.17000000 886843392 886843392 -15.00000000
3.98437381 -4.42043877 0.10387672 11 1 13797 5.95200000 886843395 886843395 1.00000000
1.62667048 -1.80533290 -0.56102794 3 2 13798 2.49400000 886843397 886843397 -13.00000000
3.99669170 -4.43721819 0.31296903 9 3 13799 5.98000000 886843399 886843399 3.00000000
1.92490482 -2.13707328 -0.55907035 3 4 13799 2.93000000 886843402 886843402 -11.00000000
3.98084188 -4.42117262 0.52049410 9 5 13800 5.97200000 886843404 886843404 5.00000000
2.38007331 -2.64426708 -0.56347692 1 6 13801 3.60200000 886843406 886843406 -9.00000000
3.99791837 -4.44325638 0.73389721 10 7 13802 6.02200000 886843409 886843409 7.00000000
3.09045124 -3.43590999 -0.56742364 6 8 13803 4.65600000 886843411 886843411 -7.00000000
3.97020411 -4.41555357 0.94048399 52 9 13804 6.01200000 886843413 886843413 9.00000000
3.99373984 -4.44172955 -0.52258581 15 10 13804 5.99600000 886843415 886843415 -5.00000000
3.97657156 -4.42418814 1.15630257 12 11 13805 6.06000000 886843418 886843418 11.00000000
3.99927688 -4.45101166 -0.31359705 12 12 13806 5.99200000 886843420 886843420 -3.00000000
3.96907926 -4.41895437 1.37130165 9 13 13807 6.09600000 886843422 886843422 13.00000000
3.97053599 -4.42212820 -0.10373710 9 14 13808 5.94400000 886843425 886843425 -1.00000000
3.96154141 -4.41366005 1.58914888 9 15 13809 6.14000000 886843427 886843427 15.00000000
1.39587665 -1.55846393 -0.56060207 4 0 13815 2.16600000 886843448 886843448 -15.00000000
3.96435761 -4.42766809 0.10373710 11 1 13816 5.94400000 886843450 886843450 1.00000000
1.62067485 -1.81071723 -0.56102794 3 2 13817 2.49400000 886843452 886843452 -13.00000000
3.97396493 -4.44151688 0.31234097 9 3 13818 5.96800000 886843455 886843455 3.00000000
1.91518927 -2.14051843 -0.55830711 2 4 13818 2.92600000 886843457 886843457 -11.00000000
3.96217394 -4.42989445 0.51997113 12 5 13819 5.96600000 886843459 886843459 5.00000000
2.35812497 -2.63741922 -0.56034827 1 6 13820 3.58200000 886843462 886843462 -9.00000000
3.96199608 -4.43280840 0.72999740 10 7 13821 5.99000000 886843464 886843464 7.00000000
3.07639503 -3.44317889 -0.56693619 6 8 13822 4.65200000 886843466 886843466 -7.00000000
3.95104814 -4.42211246 0.93923253 55 9 13822 6.00400000 886843468 886843468 9.00000000
3.96704364 -4.44157505 -0.52101701 15 10 13823 5.97800000 886843471 886843471 -5.00000000
3.94488049 -4.41831255 1.15134144 12 11 13824 6.03400000 886843473 886843473 11.00000000
3.96587563 -4.44338846 -0.31213164 12 12 13825 5.96400000 886843475 886843475 -3.00000000
3.94661951 -4.42336750 1.36860216 9 13 13826 6.08400000 886843478 886843478 13.00000000
3.94653249 -4.42482424 -0.10349277 9 14 13827 5.93000000 886843480 886843480 -1.00000000
3.93994069 -4.41743374 1.58604312 9 15 13827 6.12800000 886843482 886843482 15.00000000
1.39556360 -1.56910098 -0.56267262 4 0 13835 2.17400000 886843503 886843503 -15.00000000
3.93824840 -4.42952347 0.10345787 11 1 13836 5.92800000 886843505 886843505 1.00000000
1.60916603 -1.81053698 -0.55922830 3 2 13837 2.48600000 886843508 886843508 -13.00000000
3.94649792 -4.44192362 0.31139895 9 3 13838 5.95000000 886843510 886843510 3.00000000
1.91292167 -2.15306139 -0.55983359 3 4 13838 2.93400000 886843512 886843512 -11.00000000
3.94271755 -4.43922901 0.51944822 9 5 13839 5.96000000 886843515 886843515 5.00000000
2.34759283 -2.64415741 -0.56003541 3 6 13840 3.58000000 886843517 886843517 -9.00000000
3.92541552 -4.42285633 0.72609752 10 7 13841 5.95800000 886843519 886843519 7.00000000
3.06830978 -3.45835114 -0.56766742 4 8 13842 4.65800000 886843521 886843521 -7.00000000
3.92957067 -4.43065262 0.93798107 52 9 13843 5.99600000 886843524 886843524 9.00000000
3.94358349 -4.44645214 -0.51997113 15 10 13843 5.96600000 886843526 886843526 -5.00000000
3.91901422 -4.42030382 1.14828849 12 11 13844 6.01800000 886843528 886843528 11.00000000
3.93444443 -4.43926811 -0.31087559 12 12 13845 5.94000000 886843531 886843531 -3.00000000
3.91693974 -4.42107201 1.36365330 9 13 13846 6.06200000 886843533 886843533 13.00000000
3.93238878 -4.44007015 -0.10352767 9 14 13847 5.93200000 886843535 886843535 -1.00000000
3.91732049 -4.42461252 1.58345497 9 15 13848 6.11800000 886843538 886843538 15.00000000
1.39619601 -1.58144653 -0.56526077 4 0 13856 2.18400000 886843558 886843558 -15.00000000
3.91934061 -4.44092941 0.10338806 11 1 13857 5.92400000 886843561 886843561 1.00000000
1.60896552 -1.82372940 -0.56147784 4 2 13858 2.49600000 886843563 886843563 -13.00000000
3.91169596 -4.43538713 0.30993354 9 3 13859 5.92200000 886843565 886843565 3.00000000
1.90501750 -2.16005802 -0.55983359 2 4 13859 2.93400000 886843568 886843568 -11.00000000
3.91719723 -4.44318819 0.51822805 12 5 13860 5.94600000 886843570 886843570 5.00000000
2.35094643 -2.66756392 -0.56316406 3 6 13861 3.60000000 886843572 886843572 -9.00000000
3.90392971 -4.43125629 0.72512257 10 7 13862 5.95000000 886843574 886843574 7.00000000
3.04380584 -3.45616627 -0.56547374 6 8 13863 4.64000000 886843577 886843577 -7.00000000
3.89971972 -4.42803526 0.93453950 57 9 13863 5.97400000 886843579 886843579 9.00000000
3.92594337 -4.45938063 -0.51979685 15 10 13864 5.96400000 886843581 886843581 -5.00000000
3.89630151 -4.42726898 1.14638042 12 11 13865 6.00800000 886843584 886843584 11.00000000
3.90363574 -4.43716383 -0.30972418 12 12 13866 5.91800000 886843586 886843586 -3.00000000
3.88269234 -4.41491175 1.35735464 10 13 13867 6.03400000 886843588 886843588 13.00000000
3.90024471 -4.43643141 -0.10310882 9 14 13868 5.90800000 886843591 886843591 -1.00000000
3.89674973 -4.43245602 1.58138442 9 15 13868 6.11000000 886843593 886843593 15.00000000
1.37920570 -1.57323647 -0.56060207 4 0 13876 2.16600000 886843614 886843614 -15.00000000
3.89722514 -4.44706392 0.10321353 11 1 13877 5.91400000 886843616 886843616 1.00000000
1.60515785 -1.83226621 -0.56237763 4 2 13878 2.50000000 886843618 886843618 -13.00000000
3.88829470 -4.43999958 0.30930549 9 3 13879 5.91000000 886843621 886843621 3.00000000
1.89229214 -2.16078687 -0.55830711 3 4 13879 2.92600000 886843623 886843623 -11.00000000
3.88854027 -4.44184351 0.51648492 12 5 13880 5.92600000 886843625 886843625 5.00000000
2.33641696 -2.66980767 -0.56191260 3 6 13881 3.59200000 886843627 886843627 -9.00000000
3.87536740 -4.42991590 0.72268522 10 7 13882 5.93000000 886843630 886843630 7.00000000
3.03302979 -3.46826434 -0.56571752 4 8 13883 4.64200000 886843632 886843632 -7.00000000
3.89199471 -4.45205736 -0.51735651 15 10 13884 5.93600000 886843637 886843637 -5.00000000
3.87307239 -4.43197298 1.14409077 12 11 13885 5.99600000 886843639 886843639 11.00000000
3.88286734 -4.44474649 -0.30930549 12 12 13886 5.91000000 886843641 886843641 -3.00000000
3.86084867 -4.42109871 1.35510516 10 13 13887 6.02400000 886843644 886843644 13.00000000
3.87684464 -4.44097996 -0.10289939 9 14 13888 5.89600000 886843646 886843646 -1.00000000
3.86473799 -4.42711163 1.57465506 9 15 13888 6.08400000 886843648 886843648 15.00000000
1.36890638 -1.57197392 -0.55853152 4 0 13895 2.15800000 886843669 886843669 -15.00000000
3.86801410 -4.44337225 0.10282958 11 1 13896 5.89200000 886843671 886843671 1.00000000
1.60163164 -1.84051919 -0.56327742 4 2 13897 2.50400000 886843674 886843674 -13.00000000
3.87092805 -4.44985533 0.30909616 9 3 13898 5.90600000 886843676 886843676 3.00000000
1.88382781 -2.16556883 -0.55792552 3 4 13898 2.92400000 886843678 886843678 -11.00000000
3.86332989 -4.44268656 0.51509047 12 5 13899 5.91000000 886843680 886843680 5.00000000
2.31847906 -2.66710496 -0.55972254 1 6 13900 3.57800000 886843683 886843683 -9.00000000
3.86065602 -4.44274235 0.72268522 10 7 13901 5.93000000 886843685 886843685 7.00000000
3.02541733 -3.48279905 -0.56644869 4 8 13902 4.64800000 886843687 886843687 -7.00000000
3.84669328 -4.42979670 0.92922074 16 9 13903 5.94000000 886843690 886843690 9.00000000
3.86675906 -4.45290422 -0.51596200 15 10 13903 5.92000000 886843692 886843692 -5.00000000
3.85320616 -4.43886185 1.14256430 12 11 13904 5.98800000 886843694 886843694 11.00000000
3.86810660 -4.45759821 -0.30930549 12 12 13905 5.91000000 886843697 886843697 -3.00000000
3.84361267 -4.43093348 1.35420537 10 13 13906 6.02000000 886843699 886843699 13.00000000
3.86078644 -4.45230103 -0.10286448 9 14 13907 5.89400000 886843701 886843701 -1.00000000
3.83231711 -4.41946983 1.56740808 9 15 13907 6.05600000 886843703 886843703 15.00000000
1.39373684 -1.61181390 -0.57095480 4 0 13915 2.20600000 886843724 886843724 -15.00000000
3.84071088 -4.44323158 0.10251544 11 1 13916 5.87400000 886843727 886843727 1.00000000
1.59519720 -1.84609866 -0.56327742 4 2 13917 2.50400000 886843729 886843729 -13.00000000
3.84753799 -4.45427132 0.30846813 9 3 13918 5.89400000 886843731 886843731 3.00000000
1.88139045 -2.17807436 -0.55945200 3 4 13918 2.93200000 886843733 886843733 -11.00000000
3.83607936 -4.44257307 0.51352161 12 5 13919 5.89200000 886843736 886843736 5.00000000
2.30399203 -2.66920042 -0.55847102 1 6 13920 3.57000000 886843738 886843738 -9.00000000
3.83215594 -4.44116259 0.72024781 10 7 13921 5.91000000 886843740 886843740 7.00000000
3.01583481 -3.49634480 -0.56693619 4 8 13922 4.65200000 886843743 886843743 -7.00000000
3.82733703 -4.43870926 0.92828214 42 9 13923 5.93400000 886843745 886843745 9.00000000
3.83818126 -4.45128536 -0.51421887 15 10 13923 5.90000000 886843747 886843747 -5.00000000
3.81333423 -4.42403030 1.13531351 12 11 13924 5.95000000 886843750 886843750 11.00000000
3.84209323 -4.45896864 -0.30846813 12 12 13925 5.89400000 886843752 886843752 -3.00000000
3.82303524 -4.43841696 1.35240579 10 13 13926 6.01200000 886843754 886843754 13.00000000
3.83478308 -4.45362759 -0.10258525 9 14 13927 5.87800000 886843756 886843756 -1.00000000
3.81357265 -4.43055820 1.56637287 9 15 13928 6.05200000 886843759 886843759 15.00000000
1.43369865 -1.66918421 -0.58958977 9 0 13934 2.27800000 886843780 886843780 -15.00000000
3.81944227 -4.44835758 0.10234091 11 1 13935 5.86400000 886843782 886843782 1.00000000
1.57891273 -1.83954847 -0.55967820 6 2 13936 2.48800000 886843784 886843784 -13.00000000
3.81193709 -4.44275331 0.30679336 9 3 13937 5.86200000 886843786 886843786 3.00000000
1.83708334 -2.14109206 -0.54838502 7 4 13937 2.87400000 886843789 886843789 -11.00000000
3.81613779 -4.44922018 0.51282442 12 5 13938 5.88400000 886843791 886843791 5.00000000
2.28869891 -2.66932797 -0.55690670 1 6 13939 3.56000000 886843793 886843793 -9.00000000
3.80448914 -4.43877363 0.71781045 10 7 13940 5.89000000 886843796 886843796 7.00000000
3.00551558 -3.50783396 -0.56717992 4 8 13941 4.65400000 886843798 886843798 -7.00000000
3.81259680 -4.45137691 0.92828214 57 9 13942 5.93400000 886843800 886843800 9.00000000
3.81951094 -4.45944929 -0.51369596 15 10 13942 5.89400000 886843803 886843803 -5.00000000
3.79608893 -4.43366909 1.13455033 12 11 13943 5.94600000 886843805 886843805 11.00000000
3.81170130 -4.45347691 -0.30721205 12 12 13944 5.87000000 886843807 886843807 -3.00000000
3.78929234 -4.42885923 1.34565723 8 13 13945 5.98200000 886843809 886843809 13.00000000
3.81349444 -4.45872116 -0.10241072 9 14 13946 5.86800000 886843812 886843812 -1.00000000
3.78833389 -4.42930365 1.56171417 9 15 13946 6.03400000 886843814 886843814 15.00000000
1.36392927 -1.59921539 -0.56319022 4 0 13954 2.17600000 886843835 886843835 -15.00000000
3.79351234 -4.44948912 0.10206167 11 1 13955 5.84800000 886843837 886843837 1.00000000
1.57501006 -1.84801507 -0.56057805 12 2 13956 2.49200000 886843839 886843839 -13.00000000
3.79252005 -4.45147133 0.30647936 9 3 13957 5.85600000 886843842 886843842 3.00000000
1.76721120 -2.07426453 -0.52968580 20 4 13957 2.77600000 886843844 886843844 -11.00000000
3.79154086 -4.45189619 0.51160419 12 5 13958 5.87000000 886843846 886843846 5.00000000
2.28577018 -2.68482137 -0.55847102 1 6 13959 3.57000000 886843849 886843849 -9.00000000
3.78382540 -4.44597960 0.71683550 10 7 13960 5.88200000 886843851 886843851 7.00000000
2.99582529 -3.52132773 -0.56766742 4 8 13961 4.65800000 886843853 886843853 -7.00000000
3.77783895 -4.44208622 0.92358911 61 9 13962 5.90400000 886843856 886843856 9.00000000
3.80133986 -4.46971941 -0.51334733 15 10 13962 5.89000000 886843858 886843858 -5.00000000
3.77295947 -4.43791819 1.13226056 12 11 13963 5.93400000 886843860 886843860 11.00000000
3.79613256 -4.46675491 -0.30721205 12 12 13964 5.87000000 886843862 886843862 -3.00000000
3.76371574 -4.43017817 1.34205794 8 13 13965 5.96600000 886843865 886843865 13.00000000
3.79143500 -4.46438456 -0.10223620 9 14 13966 5.85800000 886843867 886843867 -1.00000000
3.76409602 -4.43219328 1.55809069 9 15 13966 6.02000000 886843869 886843869 15.00000000
1.35431397 -1.59978032 -0.56163734 4 0 13975 2.17000000 886843890 886843890 -15.00000000
3.77071977 -4.45573092 0.10188715 11 1 13976 5.83800000 886843892 886843892 1.00000000
1.53046787 -1.80914187 -0.54708099 13 2 13977 2.43200000 886843895 886843895 -13.00000000
3.76147890 -4.44638491 0.30522329 9 3 13977 5.83200000 886843897 886843897 3.00000000
1.81284106 -2.14368939 -0.54571372 26 4 13978 2.86000000 886843899 886843899 -11.00000000
3.76619458 -4.45511198 0.51038402 12 5 13979 5.85600000 886843902 886843902 5.00000000
2.27718949 -2.69468975 -0.55878389 3 6 13980 3.57200000 886843904 886843904 -9.00000000
3.76238060 -4.45375252 0.71586055 10 7 13981 5.87400000 886843906 886843906 7.00000000
2.98033714 -3.52925110 -0.56717992 4 8 13982 4.65400000 886843908 886843908 -7.00000000
3.74446726 -4.43411732 0.91920894 52 9 13982 5.87600000 886843911 886843911 9.00000000
3.76950932 -4.46535254 -0.51125556 15 10 13983 5.86600000 886843913 886843913 -5.00000000
3.75793457 -4.45321751 1.13264215 12 11 13984 5.93600000 886843915 886843915 11.00000000
3.77200866 -4.47147846 -0.30658403 12 12 13985 5.85800000 886843918 886843918 -3.00000000
3.73865938 -4.43351507 1.33890867 8 13 13986 5.95200000 886843920 886843920 13.00000000
3.75829172 -4.45837498 -0.10178243 9 14 13987 5.83200000 886843922 886843922 -1.00000000
3.73910999 -4.43561983 1.55446720 9 15 13987 6.00600000 886843925 886843925 15.00000000
1.34126318 -1.59562516 -0.55853152 4 0 13995 2.15800000 886843945 886843945 -15.00000000
3.74485183 -4.45661831 0.10160791 11 1 13996 5.82200000 886843948 886843948 1.00000000
1.59558773 -1.89952660 -0.57272536 6 2 13997 2.54600000 886843950 886843950 -13.00000000
3.74515700 -4.46014166 0.30522329 9 3 13998 5.83200000 886843952 886843952 3.00000000
1.82302177 -2.17105317 -0.55105639 13 4 13998 2.88800000 886843955 886843955 -11.00000000
3.73652983 -4.45144510 0.50846660 12 5 13999 5.83400000 886843957 886843957 5.00000000
2.27792740 -2.71472812 -0.56128687 1 6 14000 3.58800000 886843959 886843959 -9.00000000
3.73915672 -4.45773315 0.71439809 10 7 14001 5.86200000 886843961 886843961 7.00000000
2.96799970 -3.53963280 -0.56717992 4 8 14002 4.65400000 886843964 886843964 -7.00000000
3.72819018 -4.44781160 0.91920894 19 9 14003 5.87600000 886843966 886843966 9.00000000
3.73854089 -4.46016026 -0.50916386 14 10 14003 5.84200000 886843968 886843968 -5.00000000
3.73101878 -4.45276451 1.12920761 12 11 14004 5.91800000 886843971 886843971 11.00000000
3.75124741 -4.47849369 -0.30616534 12 12 14005 5.85000000 886843973 886843973 -3.00000000
3.71940756 -4.44205570 1.33755898 8 13 14006 5.94600000 886843975 886843975 13.00000000
3.72987127 -4.45613241 -0.10143339 9 14 14007 5.81200000 886843978 886843978 -1.00000000
3.70547152 -4.42855215 1.54722023 8 15 14008 5.97800000 886843980 886843980 15.00000000
1.33596444 -1.60006428 -0.55853152 4 0 14014 2.15800000 886844001 886844001 -15.00000000
3.72108293 -4.45826530 0.10136358 11 1 14015 5.80800000 886844003 886844003 1.00000000
1.56306243 -1.87338471 -0.56327742 4 2 14016 2.50400000 886844005 886844005 -13.00000000
3.72600842 -4.46575117 0.30480462 9 3 14016 5.82400000 886844008 886844008 3.00000000
1.80575240 -2.16502523 -0.54800344 8 4 14017 2.87200000 886844010 886844010 -11.00000000
3.71281672 -4.45309925 0.50724643 12 5 14018 5.82000000 886844012 886844012 5.00000000
2.25120640 -2.70102310 -0.55690670 1 6 14019 3.56000000 886844014 886844014 -9.00000000
3.71418834 -4.45790720 0.71244818 10 7 14020 5.84600000 886844017 886844017 7.00000000
2.95751595 -3.55098104 -0.56742364 4 8 14021 4.65600000 886844019 886844019 -7.00000000
3.71215630 -4.45863199 0.91889602 9 9 14022 5.87400000 886844021 886844021 9.00000000
3.72245502 -4.47100210 -0.50898951 14 10 14022 5.84000000 886844024 886844024 -5.00000000
3.70116162 -4.44700480 1.12462819 12 11 14023 5.89400000 886844026 886844026 11.00000000
3.71849203 -4.46941376 -0.30469993 12 12 14024 5.82200000 886844028 886844028 -3.00000000
3.69967222 -4.44837236 1.33575940 8 13 14025 5.93800000 886844031 886844031 13.00000000
3.71379519 -4.46693897 -0.10139848 9 14 14026 5.81000000 886844033 886844033 -1.00000000
3.68907046 -4.43720007 1.54618502 8 15 14026 5.97400000 886844035 886844035 15.00000000
1.33653593 -1.61215401 -0.56111968 4 0 14034 2.16800000 886844056 886844056 -15.00000000
3.69529009 -4.45890999 0.10108434 11 1 14035 5.79200000 886844058 886844058 1.00000000
1.54283810 -1.86232221 -0.55832851 3 2 14036 2.48200000 886844060 886844060 -13.00000000
3.70275235 -4.46950197 0.30417657 9 3 14036 5.81200000 886844063 886844063 3.00000000
1.78816628 -2.15921879 -0.54495049 13 4 14037 2.85600000 886844065 886844065 -11.00000000
3.69470882 -4.46296310 0.50689781 12 5 14038 5.81600000 886844067 886844067 5.00000000
2.23168898 -2.69669008 -0.55440372 3 6 14039 3.54400000 886844070 886844070 -9.00000000
3.69101262 -4.46166801 0.71098572 10 7 14040 5.83400000 886844072 886844072 7.00000000
2.93624711 -3.55057454 -0.56571752 4 8 14041 4.64200000 886844074 886844074 -7.00000000
3.68650126 -4.45938301 0.91639310 9 9 14042 5.85800000 886844077 886844077 9.00000000
3.70301723 -4.47936153 -0.50846660 14 10 14042 5.83400000 886844079 886844079 -5.00000000
3.67811227 -4.45081663 1.12233853 12 11 14043 5.88200000 886844081 886844081 11.00000000
3.69269204 -4.47004795 -0.30386257 12 12 14044 5.80600000 886844084 886844084 -3.00000000
3.67295408 -4.44773579 1.33171022 8 13 14045 5.92000000 886844086 886844086 13.00000000
3.69436097 -4.47524881 -0.10129377 9 14 14046 5.80400000 886844088 886844088 -1.00000000
3.67109966 -4.44707108 1.54514968 8 15 14046 5.97000000 886844090 886844090 15.00000000
1.33184552 -1.61853361 -0.56163734 4 0 14055 2.17000000 886844111 886844111 -15.00000000
3.67384100 -4.46624660 0.10094472 11 1 14056 5.78400000 886844113 886844113 1.00000000
1.54342830 -1.87699568 -0.56102794 3 2 14057 2.49400000 886844116 886844116 -13.00000000
3.67161250 -4.46671438 0.30302519 9 3 14058 5.79000000 886844118 886844118 3.00000000
1.87498713 -2.28102279 -0.57395345 5 4 14058 3.00800000 886844120 886844120 -11.00000000
3.67200184 -4.46877766 0.50602627 12 5 14059 5.80600000 886844123 886844123 5.00000000
2.21552086 -2.69721937 -0.55283940 7 6 14060 3.53400000 886844125 886844125 -9.00000000
3.66833639 -4.46749544 0.70976704 10 7 14061 5.82400000 886844127 886844127 7.00000000
2.92447329 -3.56284714 -0.56596124 4 8 14062 4.64400000 886844130 886844130 -7.00000000
3.66339278 -4.46306276 0.91451585 9 9 14062 5.84600000 886844132 886844132 9.00000000
3.67772794 -4.48212194 -0.50724643 14 10 14063 5.82000000 886844134 886844134 -5.00000000
3.66550970 -4.46882153 1.12348342 12 11 14064 5.88800000 886844137 886844137 11.00000000
3.66868544 -4.47428560 -0.30323452 12 12 14065 5.79400000 886844139 886844139 -3.00000000
3.64674497 -4.44911098 1.32811105 8 13 14066 5.90400000 886844141 886844141 13.00000000
3.66019011 -4.46710443 -0.10080510 9 14 14067 5.77600000 886844143 886844143 -1.00000000
3.64665246 -4.45216703 1.54204392 8 15 14068 5.95800000 886844146 886844146 15.00000000
1.32129860 -1.61718869 -0.55956680 4 0 14075 2.16200000 886844166 886844166 -15.00000000
3.65569878 -4.47594595 0.10087491 11 1 14076 5.78000000 886844169 886844169 1.00000000
1.52947223 -1.87331474 -0.55832851 3 2 14077 2.48200000 886844171 886844171 -13.00000000
3.65425396 -4.47577095 0.30281585 9 3 14077 5.78600000 886844173 886844173 3.00000000
1.87322021 -2.29515862 -0.57586157 5 4 14078 3.01800000 886844176 886844176 -11.00000000
3.65008307 -4.47384930 0.50515467 12 5 14079 5.79600000 886844178 886844178 5.00000000
2.15490389 -2.64217329 -0.54001176 7 6 14080 3.45200000 886844180 886844180 -9.00000000
3.64644766 -4.47258043 0.70854837 10 7 14081 5.81400000 886844183 886844183 7.00000000
2.90449429 -3.56380105 -0.56449878 4 8 14082 4.63200000 886844185 886844185 -7.00000000
3.63328576 -4.45961380 0.91107434 9 9 14083 5.82400000 886844187 886844187 9.00000000
3.65325093 -4.48411989 -0.50602627 14 10 14083 5.80600000 886844190 886844190 -5.00000000
3.64120984 -4.47093344 1.12081206 12 11 14084 5.87400000 886844192 886844192 11.00000000
3.64295697 -4.47467375 -0.30239716 12 12 14085 5.77800000 886844194 886844194 -3.00000000
3.62504196 -4.45425606 1.32586157 8 13 14086 5.89400000 886844196 886844196 13.00000000
3.63321710 -4.46589279 -0.10049096 9 14 14087 5.75800000 886844199 886844199 -1.00000000
3.61768150 -4.44838238 1.53634989 8 15 14088 5.93600000 886844201 886844201 15.00000000
1.31105924 -1.61556113 -0.55749625 4 0 14094 2.15400000 886844222 886844222 -15.00000000
3.62319851 -4.46630239 0.10038624 10 1 14095 5.75200000 886844224 886844224 1.00000000
1.53307116 -1.89048517 -0.56192774 3 2 14096 2.49800000 886844226 886844226 -13.00000000
3.62932754 -4.47545433 0.30197847 9 3 14096 5.77000000 886844229 886844229 3.00000000
1.80378318 -2.22510362 -0.55678064 3 4 14097 2.91800000 886844231 886844231 -11.00000000
3.62017441 -4.46735382 0.50306296 12 5 14098 5.77200000 886844233 886844233 5.00000000
2.14861727 -2.65237451 -0.54063749 21 6 14099 3.45600000 886844236 886844236 -9.00000000
3.62410045 -4.47539139 0.70708591 10 7 14100 5.80200000 886844238 886844238 7.00000000
2.90265226 -3.58575654 -0.56644869 4 8 14101 4.64800000 886844240 886844240 -7.00000000
3.61304307 -4.46332932 0.90950996 9 9 14101 5.81400000 886844243 886844243 9.00000000
3.61329484 -4.46523333 -0.50253999 14 10 14102 5.76600000 886844245 886844245 -5.00000000
3.61031246 -4.46314049 1.11585104 12 11 14103 5.84800000 886844247 886844247 11.00000000
3.62558675 -4.48362350 -0.30218780 12 12 14104 5.77400000 886844249 886844249 -3.00000000
3.60290098 -4.45715952 1.32316208 8 13 14105 5.88200000 886844252 886844252 13.00000000
3.61587405 -4.47480583 -0.10042115 9 14 14106 5.75400000 886844254 886844254 -1.00000000
3.59441280 -4.44983482 1.53272641 8 15 14107 5.92200000 886844256 886844256 15.00000000
1.31147230 -1.62764919 -0.56008440 4 0 14114 2.16400000 886844277 886844277 -15.00000000
3.59504247 -4.46334934 0.10003719 10 1 14115 5.73200000 886844279 886844279 1.00000000
1.52157426 -1.88975358 -0.56012815 3 2 14116 2.49000000 886844282 886844282 -13.00000000
3.61368322 -4.48809576 0.30197847 9 3 14116 5.77000000 886844284 886844284 3.00000000
1.78861916 -2.22220993 -0.55449092 2 4 14117 2.90600000 886844286 886844286 -11.00000000
3.59956241 -4.47375393 0.50236571 12 5 14118 5.76400000 886844289 886844289 5.00000000
2.14305973 -2.66447639 -0.54157615 17 6 14119 3.46200000 886844291 886844291 -9.00000000
3.59352994 -4.46945000 0.70416105 10 7 14120 5.77800000 886844293 886844293 7.00000000
2.89882326 -3.60669780 -0.56815487 4 8 14121 4.66200000 886844296 886844296 -7.00000000
3.58877850 -4.46513605 0.90731990 9 9 14121 5.80000000 886844298 886844298 9.00000000
3.60267782 -4.48403168 -0.50323725 14 10 14122 5.77400000 886844300 886844300 -5.00000000
3.58856416 -4.46806240 1.11394286 12 11 14123 5.83800000 886844302 886844302 11.00000000
3.59240842 -4.47444773 -0.30072239 12 12 14124 5.74600000 886844305 886844305 -3.00000000
3.58000207 -4.46058989 1.32046270 8 13 14125 5.87000000 886844307 886844307 13.00000000
3.58771825 -4.47180271 -0.10007210 9 14 14126 5.73400000 886844309 886844309 -1.00000000
3.57885790 -4.46235466 1.53272641 8 15 14127 5.92200000 886844312 886844312 15.00000000
1.30940318 -1.63674271 -0.56163734 4 0 14134 2.17000000 886844332 886844332 -15.00000000
3.57444477 -4.46962404 0.09989757 10 1 14135 5.72400000 886844335 886844335 1.00000000
1.51010108 -1.88896477 -0.55832851 3 2 14136 2.48200000 886844337 886844337 -13.00000000
3.58926487 -4.48976231 0.30124578 9 3 14136 5.75600000 886844339 886844339 3.00000000
1.78575385 -2.23457456 -0.55601740 2 4 14137 2.91400000 886844342 886844342 -11.00000000
3.57894993 -4.48006487 0.50166845 12 5 14138 5.75600000 886844344 886844344 5.00000000
2.19414663 -2.74757624 -0.55690670 7 6 14139 3.56000000 886844346 886844346 -9.00000000
3.57047606 -4.47265816 0.70269865 10 7 14140 5.76600000 886844348 886844348 7.00000000
2.87383389 -3.60127854 -0.56571752 4 8 14141 4.64200000 886844351 886844351 -7.00000000
3.57070613 -4.47454786 0.90669417 9 9 14141 5.79600000 886844353 886844353 9.00000000
3.57954884 -4.48723507 -0.50219136 14 10 14142 5.76200000 886844355 886844355 -5.00000000
3.55825758 -4.46214199 1.10936356 12 11 14143 5.81400000 886844358 886844358 11.00000000
3.56680799 -4.47446632 -0.29988503 12 12 14144 5.73000000 886844360 886844360 -3.00000000
3.55226541 -4.45781898 1.31596363 8 13 14145 5.85000000 886844362 886844362 13.00000000
3.56959486 -4.48117065 -0.10000229 9 14 14146 5.73000000 886844365 886844365 -1.00000000
3.56163335 -4.47117615 1.53169107 8 15 14146 5.91800000 886844367 886844367 15.00000000
1.30127883 -1.63827801 -0.56060207 4 0 14154 2.16600000 886844388 886844388 -15.00000000
3.55633402 -4.47894192 0.09982777 10 1 14155 5.72000000 886844390 886844390 1.00000000
1.50592124 -1.89727724 -0.55922830 3 2 14156 2.48600000 886844392 886844392 -13.00000000
3.54997873 -4.47254086 0.29925701 9 3 14156 5.71800000 886844395 886844395 3.00000000
1.77550232 -2.23771858 -0.55525416 2 4 14157 2.91000000 886844397 886844397 -11.00000000
3.56824231 -4.49877453 0.50236571 9 5 14158 5.76400000 886844399 886844399 5.00000000
2.20908785 -2.78617620 -0.56316406 1 6 14159 3.60000000 886844401 886844401 -9.00000000
3.54497766 -4.47264862 0.70074874 10 7 14160 5.75000000 886844404 886844404 7.00000000
2.86371112 -3.61439991 -0.56620497 2 8 14161 4.64600000 886844406 886844406 -7.00000000
3.54034472 -4.46840525 0.90293974 9 9 14161 5.77200000 886844408 886844408 9.00000000
3.56262660 -4.49814081 -0.50201708 14 10 14162 5.76000000 886844411 886844411 -5.00000000
3.53534818 -4.46530008 1.10707378 12 11 14163 5.80200000 886844413 886844413 11.00000000
3.55736494 -4.49471998 -0.30040839 12 12 14164 5.74000000 886844415 886844415 -3.00000000
3.52700996 -4.45796537 1.31236446 9 13 14165 5.83400000 886844418 886844418 13.00000000
3.54152632 -4.47791910 -0.09965324 9 14 14166 5.71000000 886844420 886844420 -1.00000000
3.53683496 -4.47359180 1.52806759 8 15 14167 5.90400000 886844422 886844422 15.00000000
1.29315972 -1.63977647 -0.55956680 4 0 14174 2.16200000 886844443 886844443 -15.00000000
3.54191613 -4.49289894 0.09986267 7 1 14175 5.72200000 886844445 886844445 1.00000000
1.49928927 -1.90252233 -0.55922830 3 2 14176 2.48600000 886844448 886844448 -13.00000000
3.52985454 -4.48081541 0.29894298 4 3 14177 5.71200000 886844450 886844450 3.00000000
1.77496982 -2.25315571 -0.55754387 2 4 14177 2.92200000 886844452 886844452 -11.00000000
3.52293324 -4.47363520 0.49818224 15 5 14178 5.71600000 886844454 886844454 5.00000000
2.18346453 -2.77369237 -0.55909675 1 6 14179 3.57400000 886844457 886844457 -9.00000000
3.52934361 -4.48499537 0.70074874 10 7 14180 5.75000000 886844459 886844459 7.00000000
2.84248567 -3.61345267 -0.56449878 4 8 14181 4.63200000 886844461 886844461 -7.00000000
3.51495481 -4.46831512 0.90043676 9 9 14181 5.75600000 886844464 886844464 9.00000000
3.52842999 -4.48705673 -0.49940240 14 10 14182 5.73000000 886844466 886844466 -5.00000000
3.51609993 -4.47298336 1.10592890 12 11 14183 5.79600000 886844468 886844468 11.00000000
3.52931356 -4.49140596 -0.29936168 9 12 14184 5.72000000 886844471 886844471 -3.00000000
3.50179720 -4.45799017 1.30876529 9 13 14185 5.81800000 886844473 886844473 13.00000000
3.50487924 -4.46351719 -0.09905986 6 14 14186 5.67600000 886844475 886844475 -1.00000000
3.50647044 -4.46554375 1.52133834 12 15 14186 5.87800000 886844478 886844478 15.00000000
1.28504598 -1.64123833 -0.55853152 4 0 14194 2.15800000 886844498 886844498 -15.00000000
3.50772357 -4.48161459 0.09933910 26 1 14195 5.69200000 886844501 886844501 1.00000000
1.49023747 -1.90467465 -0.55832851 3 2 14196 2.48200000 886844503 886844503 -13.00000000
3.50557876 -4.48209667 0.29821029 28 3 14197 5.69800000 886844505 886844505 3.00000000
1.75983703 -2.25005913 -0.55525416 2 4 14197 2.91000000 886844507 886844507 -11.00000000
3.49870539 -4.47491837 0.49696204 21 5 14198 5.70200000 886844510 886844510 5.00000000
2.16890359 -2.77507162 -0.55784529 1 6 14199 3.56600000 886844512 886844512 -9.00000000
3.50511146 -4.48633814 0.69904256 10 7 14200 5.73600000 886844514 886844514 7.00000000
2.83352065 -3.62804627 -0.56523001 4 8 14201 4.63800000 886844517 886844517 -7.00000000
3.49004459 -4.47026920 0.89824671 9 9 14202 5.74200000 886844519 886844519 9.00000000
3.50293708 -4.48678255 -0.49800792 14 10 14202 5.71400000 886844521 886844521 -5.00000000
3.49925685 -4.48368168 1.10554731 12 11 14203 5.79400000 886844524 886844524 11.00000000
3.49395752 -4.47850275 -0.29768690 21 12 14204 5.68800000 886844526 886844526 -3.00000000
3.48980975 -4.47479630 1.31011498 34 13 14205 5.82400000 886844528 886844528 13.00000000
3.48190045 -4.46626186 -0.09885043 29 14 14206 5.66400000 886844531 886844531 -1.00000000
3.49126720 -4.47988939 1.52185595 38 15 14207 5.88000000 886844533 886844533 15.00000000
1.27930915 -1.64571404 -0.55853152 4 0 14214 2.15800000 886844554 886844554 -15.00000000
3.47610736 -4.47330475 0.09888534 10 1 14215 5.66600000 886844556 886844556 1.00000000
1.47640705 -1.90063107 -0.55562907 3 2 14216 2.47000000 886844558 886844558 -13.00000000
1.74956393 -2.25308728 -0.55449092 2 4 14217 2.90600000 886844563 886844563 -11.00000000
2.14951563 -2.77014041 -0.55534238 1 6 14219 3.55000000 886844567 886844567 -9.00000000
3.47847986 -4.48442888 0.69684893 10 7 14220 5.71800000 886844570 886844570 7.00000000
2.83178687 -3.65203357 -0.56742364 4 8 14221 4.65600000 886844572 886844572 -7.00000000
3.48125386 -4.48962307 0.89981103 28 9 14221 5.75200000 886844574 886844574 9.00000000
3.47993040 -4.48953438 -0.49696204 14 10 14222 5.70200000 886844577 886844577 -5.00000000
3.47516727 -4.48500586 1.10287595 33 11 14223 5.78000000 886844579 886844579 11.00000000
3.47830343 -4.49067163 -0.29768690 18 12 14224 5.68800000 886844581 886844581 -3.00000000
3.48967814 -4.50698185 1.31596363 39 13 14225 5.85000000 886844584 886844584 13.00000000
3.49412894 -4.51435757 1.52962053 36 15 14226 5.91000000 886844588 886844588 15.00000000
1.28063869 -1.65934575 -0.56163734 4 0 14234 2.17000000 886844609 886844609 -15.00000000
3.44703507 -4.46799517 0.09850138 5 1 14235 5.64400000 886844611 886844611 1.00000000
1.47452390 -1.91194570 -0.55742872 3 2 14236 2.47800000 886844613 886844613 -13.00000000
3.45469141 -4.48115253 0.29653552 6 3 14237 5.66600000 886844616 886844616 3.00000000
1.74648321 -2.26539993 -0.55601740 3 4 14237 2.91400000 886844618 886844618 -11.00000000
3.45035291 -4.47714090 0.49452168 5 5 14238 5.67400000 886844620 886844620 5.00000000
2.15791607 -2.80109954 -0.56003541 1 6 14239 3.58000000 886844623 886844623 -9.00000000
3.47249460 -4.50912619 0.69879884 7 7 14240 5.73400000 886844625 886844625 7.00000000
2.80933428 -3.64931226 -0.56547374 4 8 14241 4.64000000 886844627 886844627 -7.00000000
3.47923183 -4.52113819 0.90356547 38 9 14242 5.77600000 886844630 886844630 9.00000000
3.45937729 -4.49533844 -0.49626479 14 10 14242 5.69400000 886844632 886844632 -5.00000000
3.48462868 -4.52978706 1.11088991 45 11 14243 5.82200000 886844634 886844634 11.00000000
3.50242853 -4.55621576 1.32676136 40 13 14245 5.89800000 886844639 886844639 13.00000000
3.44819856 -4.48728991 -0.09878062 6 14 14246 5.66000000 886844641 886844641 -1.00000000
3.49991941 -4.55624247 1.53945565 38 15 14247 5.94800000 886844643 886844643 15.00000000
1.27248871 -1.66073895 -0.56060207 4 0 14254 2.16600000 886844664 886844664 -15.00000000
3.42898607 -4.47682524 0.09843157 2 1 14255 5.64000000 886844666 886844666 1.00000000
1.46310222 -1.91089201 -0.55562907 3 2 14256 2.47000000 886844669 886844669 -13.00000000
3.46937633 -4.53283501 0.29915231 2 3 14257 5.71600000 886844671 886844671 3.00000000
1.73856485 -2.27148247 -0.55601740 3 4 14257 2.91400000 886844673 886844673 -11.00000000
3.45770669 -4.51922226 0.49783361 9 5 14258 5.71200000 886844676 886844676 5.00000000
2.14692521 -2.80704594 -0.55972254 1 6 14259 3.57800000 886844678 886844678 -9.00000000
3.47964191 -4.55118275 0.70342988 7 7 14260 5.77200000 886844680 886844680 7.00000000
2.78693533 -3.64647889 -0.56352383 2 8 14261 4.62400000 886844683 886844683 -7.00000000
3.48461199 -4.55933189 0.90888423 40 9 14261 5.81000000 886844685 886844685 9.00000000
3.44608378 -4.51055288 -0.49661341 14 10 14262 5.69800000 886844687 886844687 -5.00000000
3.49501109 -4.57624865 1.11928558 48 11 14263 5.86600000 886844689 886844689 11.00000000
3.43596029 -4.50055790 -0.29674488 6 12 14264 5.67000000 886844692 886844692 -3.00000000
3.50069046 -4.58700323 1.33216012 40 13 14265 5.92200000 886844694 886844694 13.00000000
3.46768808 -4.54540491 -0.09979286 2 14 14266 5.71800000 886844696 886844696 -1.00000000
3.50939798 -4.60007763 1.55032611 38 15 14266 5.99000000 886844699 886844699 15.00000000
1.26434469 -1.66209555 -0.55956680 4 0 14274 2.16200000 886844719 886844719 -15.00000000
3.44238782 -4.52696991 0.09926929 10 1 14275 5.68800000 886844722 886844722 1.00000000
1.46114028 -1.92219317 -0.55742872 3 2 14276 2.47800000 886844724 886844724 -13.00000000
3.45232415 -4.54332733 0.29904765 9 3 14277 5.71400000 886844726 886844726 3.00000000
1.72112286 -2.26503205 -0.55296445 2 4 14277 2.89800000 886844729 886844729 -11.00000000
3.47203922 -4.57092905 0.50219136 9 5 14278 5.76200000 886844731 886844731 5.00000000
2.13591909 -2.81294990 -0.55940962 1 6 14279 3.57600000 886844733 886844733 -9.00000000
3.49733925 -4.60757446 0.71025455 7 7 14280 5.82800000 886844736 886844736 7.00000000
2.79098845 -3.67832446 -0.56693619 2 8 14281 4.65200000 886844738 886844738 -7.00000000
3.48459029 -4.59410715 0.91326439 38 9 14282 5.83800000 886844740 886844740 9.00000000
3.44235849 -4.53842831 -0.49835655 10 10 14282 5.71800000 886844742 886844742 -5.00000000
3.50511146 -4.62283802 1.12768114 42 11 14283 5.91000000 886844745 886844745 11.00000000
3.42988086 -4.52525759 -0.29758224 9 12 14284 5.68600000 886844747 886844747 -3.00000000
3.50113320 -4.62094069 1.33845878 41 13 14285 5.95000000 886844749 886844749 13.00000000
3.43369031 -4.53357029 -0.09926929 15 14 14286 5.68800000 886844752 886844752 -1.00000000
3.51700282 -4.64525366 1.56119645 42 15 14287 6.03200000 886844754 886844754 15.00000000
1.25154984 -1.65724897 -0.55646098 4 0 14294 2.15000000 886844775 886844775 -15.00000000
3.45668578 -4.57885790 0.10014191 7 1 14295 5.73800000 886844777 886844777 1.00000000
1.45911705 -1.93350387 -0.55922830 3 2 14296 2.48600000 886844779 886844779 -13.00000000
3.48696232 -4.62231779 0.30344388 7 3 14297 5.79800000 886844782 886844782 3.00000000
1.72029996 -2.28042984 -0.55525416 2 4 14297 2.91000000 886844784 886844784 -11.00000000
3.47525644 -4.60847330 0.50498039 9 5 14298 5.79400000 886844786 886844786 5.00000000
2.11895251 -2.81092405 -0.55753243 1 6 14299 3.56400000 886844789 886844789 -9.00000000
3.50034904 -4.64512014 0.71415436 7 7 14300 5.86000000 886844791 886844791 7.00000000
2.75663280 -3.65950418 -0.56254888 2 8 14301 4.61600000 886844793 886844793 -7.00000000
3.49191880 -4.63561583 0.91920894 42 9 14301 5.87600000 886844795 886844795 9.00000000
3.45286226 -4.58543253 -0.50219136 10 10 14302 5.76200000 886844798 886844798 -5.00000000
3.50076032 -4.65073013 1.13149738 42 11 14303 5.93000000 886844800 886844800 11.00000000
3.45249152 -4.58827209 -0.30093175 9 12 14304 5.75000000 886844802 886844802 -3.00000000
3.50958180 -4.66583824 1.34790671 14 13 14305 5.99200000 886844805 886844805 13.00000000
3.45149398 -4.59028053 -0.10024662 9 14 14306 5.74400000 886844807 886844807 -1.00000000
3.52131629 -4.68313980 1.56999636 40 15 14306 6.06600000 886844809 886844809 15.00000000
1.24807501 -1.66469896 -0.55749625 4 0 14314 2.15400000 886844830 886844830 -15.00000000
3.46226835 -4.61969900 0.10077020 7 1 14315 5.77400000 886844832 886844832 1.00000000
1.44534838 -1.92922771 -0.55652893 3 2 14316 2.47400000 886844835 886844835 -13.00000000
3.48277855 -4.65044785 0.30449060 7 3 14317 5.81800000 886844837 886844837 3.00000000
1.71232939 -2.28642106 -0.55525416 2 4 14317 2.91000000 886844839 886844839 -11.00000000
3.48064137 -4.64928484 0.50811797 9 5 14318 5.83000000 886844842 886844842 5.00000000
2.10439324 -2.81197739 -0.55628097 1 6 14319 3.55600000 886844844 886844844 -9.00000000
3.49838257 -4.67638445 0.71707922 7 7 14320 5.88400000 886844846 886844846 7.00000000
2.74740863 -3.67387342 -0.56328011 2 8 14321 4.62200000 886844848 886844848 -7.00000000
3.49264622 -4.67211580 0.92390198 19 9 14322 5.90600000 886844851 886844851 9.00000000
3.45830774 -4.62618113 -0.50532901 10 10 14322 5.79800000 886844853 886844853 -5.00000000
3.50095773 -4.68493891 1.13683999 48 11 14323 5.95800000 886844855 886844855 11.00000000
3.46036029 -4.63229799 -0.30302519 9 12 14324 5.79000000 886844858 886844858 -3.00000000
3.52358913 -4.71865797 1.35960412 13 13 14325 6.04400000 886844860 886844860 13.00000000
3.46655083 -4.64396477 -0.10115415 6 14 14326 5.79600000 886844862 886844862 -1.00000000
3.52030253 -4.71769094 1.57724321 38 15 14327 6.09400000 886844865 886844865 15.00000000
1.24888420 -1.67856181 -0.56060207 4 0 14335 2.16600000 886844885 886844885 -15.00000000
3.47395420 -4.67086744 0.10160791 8 1 14336 5.82200000 886844888 886844888 1.00000000
1.43826771 -1.93451226 -0.55652893 3 2 14337 2.47400000 886844890 886844890 -13.00000000
3.48358107 -4.68722677 0.30606067 7 3 14338 5.84800000 886844892 886844892 3.00000000
1.70862210 -2.29898453 -0.55678064 2 4 14338 2.91800000 886844895 886844895 -11.00000000
3.49209404 -4.70039463 0.51230145 9 5 14339 5.87800000 886844897 886844897 5.00000000
2.09878373 -2.82601476 -0.55753243 1 6 14340 3.56400000 886844899 886844899 -9.00000000
3.49068546 -4.70192623 0.71902913 7 7 14341 5.90000000 886844901 886844901 7.00000000
2.67595744 -3.60580850 -0.55133688 8 8 14342 4.52400000 886844904 886844904 -7.00000000
3.51045537 -4.73028088 0.93297517 30 9 14342 5.96400000 886844906 886844906 9.00000000
3.47219276 -4.68042946 -0.50986111 11 10 14343 5.85000000 886844908 886844908 -5.00000000
3.50949073 -4.73243189 1.14523554 43 11 14344 6.00200000 886844911 886844911 11.00000000
3.47071528 -4.68185234 -0.30543265 9 12 14345 5.83600000 886844913 886844913 -3.00000000
3.51207185 -4.73936939 1.36185372 25 13 14346 6.05400000 886844915 886844915 13.00000000
3.48759627 -4.70805836 -0.10227110 9 14 14347 5.86000000 886844918 886844918 -1.00000000
3.53141141 -4.76720619 1.58966660 38 15 14347 6.14200000 886844920 886844920 15.00000000
1.24301732 -1.68291092 -0.56060207 4 0 14355 2.16600000 886844941 886844941 -15.00000000
3.47900867 -4.71192217 0.10223620 8 1 14356 5.85800000 886844943 886844943 1.00000000
1.43382072 -1.94265676 -0.55742872 3 2 14357 2.47800000 886844945 886844945 -13.00000000
3.48024178 -4.71703720 0.30721205 7 3 14358 5.87000000 886844948 886844948 3.00000000
1.69825554 -2.30177522 -0.55601740 3 4 14358 2.91400000 886844950 886844950 -11.00000000
3.50168276 -4.74783182 0.51613629 9 5 14359 5.92200000 886844952 886844952 5.00000000
2.08538985 -2.82855392 -0.55659384 1 6 14360 3.55800000 886844954 886844954 -9.00000000
3.50487208 -4.75563049 0.72536635 7 7 14361 5.95200000 886844957 886844957 7.00000000
2.71398401 -3.68385005 -0.56181765 2 8 14362 4.61000000 886844959 886844959 -7.00000000
3.50915384 -4.76318073 0.93704247 16 9 14362 5.99000000 886844961 886844961 9.00000000
3.46764874 -4.70856380 -0.51160419 11 10 14363 5.87000000 886844964 886844964 -5.00000000
3.52437615 -4.78734112 1.15553927 18 11 14364 6.05600000 886844966 886844966 11.00000000
3.47566009 -4.72289419 -0.30731672 18 12 14365 5.87200000 886844968 886844968 -3.00000000
3.52668595 -4.79398298 1.37400103 9 13 14366 6.10800000 886844971 886844971 13.00000000
3.47824907 -4.72986937 -0.10248053 11 14 14367 5.87200000 886844973 886844973 -1.00000000
3.54336166 -4.81841278 1.60260749 38 15 14367 6.19200000 886844975 886844975 15.00000000
1.22828901 -1.67456186 -0.55646098 4 0 14374 2.15000000 886844996 886844996 -15.00000000
3.48937798 -4.75891113 0.10300411 8 1 14375 5.90200000 886844998 886844998 1.00000000
1.42506671 -1.94425726 -0.55652893 3 2 14376 2.47400000 886845001 886845001 -13.00000000
3.49645209 -4.77205133 0.31003821 7 3 14377 5.92400000 886845003 886845003 3.00000000
1.68597186 -2.30105948 -0.55449092 3 4 14377 2.90600000 886845005 886845005 -11.00000000
3.50475550 -4.78513527 0.51892531 9 5 14378 5.95400000 886845007 886845007 5.00000000
2.07483149 -2.83385992 -0.55628097 5 6 14379 3.55600000 886845010 886845010 -9.00000000
3.51722026 -4.80567217 0.73121607 8 7 14380 6.00000000 886845012 886845012 7.00000000
2.72636771 -3.72647357 -0.56693619 4 8 14381 4.65200000 886845014 886845014 -7.00000000
3.50999761 -4.79931784 0.94173551 17 9 14382 6.02000000 886845017 886845017 9.00000000
3.46730542 -4.74094343 -0.51387024 11 10 14382 5.89600000 886845019 886845019 -5.00000000
3.53049636 -4.82911491 1.16279006 15 11 14383 6.09400000 886845021 886845021 11.00000000
3.46469307 -4.74084377 -0.30773541 28 12 14384 5.88000000 886845024 886845024 -3.00000000
3.53835869 -4.84341669 1.38479865 41 13 14385 6.15600000 886845026 886845026 13.00000000
3.45428967 -4.73007345 -0.10223620 24 14 14386 5.85800000 886845028 886845028 -1.00000000
3.54217505 -4.85041809 1.60933685 40 15 14386 6.21800000 886845030 886845030 15.00000000
1.21902478 -1.67415404 -0.55490804 4 0 14394 2.14400000 886845051 886845051 -15.00000000
3.48215938 -4.78399658 0.10328334 8 1 14395 5.91800000 886845054 886845054 1.00000000
1.42056441 -1.95237136 -0.55742872 3 2 14396 2.47800000 886845056 886845056 -13.00000000
3.51031828 -4.82622242 0.31275967 7 3 14397 5.97600000 886845058 886845058 3.00000000
1.68023896 -2.31010604 -0.55525416 3 4 14397 2.91000000 886845060 886845060 -11.00000000
3.50560570 -4.82151222 0.52153999 9 5 14398 5.98400000 886845063 886845063 5.00000000
3.45973969 -4.76017570 -0.93203652 2 6 14399 5.95800000 886845065 886845065 -9.00000000
3.51909280 -4.84361601 0.73511589 7 7 14400 6.03200000 886845067 886845067 7.00000000
2.71217680 -3.73436165 -0.56669247 4 8 14401 4.65000000 886845070 886845070 -7.00000000
3.52107644 -4.84990501 0.94924432 17 9 14402 6.06800000 886845072 886845072 9.00000000
3.46244073 -4.76914072 -0.51561338 11 10 14402 5.91600000 886845074 886845074 -5.00000000
3.53091526 -4.86524296 1.16851425 34 11 14403 6.12400000 886845077 886845077 11.00000000
3.44577765 -4.74967575 -0.30752608 31 12 14404 5.87600000 886845079 886845079 -3.00000000
3.53744721 -4.87782431 1.39109731 9 13 14405 6.18400000 886845081 886845081 13.00000000
3.42954159 -4.73076916 -0.10199186 24 14 14406 5.84400000 886845083 886845083 -1.00000000
3.54024410 -4.88526821 1.61658370 40 15 14407 6.24600000 886845086 886845086 15.00000000
1.21883190 -1.68622732 -0.55749625 5 0 14414 2.15400000 886845107 886845107 -15.00000000
3.48417735 -4.82205582 0.10384182 8 1 14415 5.95000000 886845109 886845109 1.00000000
1.41145861 -1.95415866 -0.55652893 3 2 14416 2.47400000 886845111 886845111 -13.00000000
3.50748014 -4.85787773 0.31401575 7 3 14417 6.00000000 886845113 886845113 3.00000000
1.67446351 -2.31914043 -0.55601740 2 4 14417 2.91400000 886845116 886845116 -11.00000000
3.50391245 -4.85472202 0.52380604 9 5 14418 6.01000000 886845118 886845118 5.00000000
2.06424332 -2.86109138 -0.55878389 1 6 14419 3.57200000 886845120 886845120 -9.00000000
3.52422667 -4.88646078 0.73974693 10 7 14420 6.07000000 886845123 886845123 7.00000000
2.68867683 -3.72931385 -0.56449878 2 8 14421 4.63200000 886845125 886845125 -7.00000000
3.52260494 -4.88780737 0.95425022 20 9 14422 6.10000000 886845127 886845127 9.00000000
3.47838926 -4.82645607 -0.52049410 11 10 14422 5.97200000 886845130 886845130 -5.00000000
3.53456736 -4.90621090 1.17538345 46 11 14423 6.16000000 886845132 886845132 11.00000000
3.41750550 -4.74546766 -0.30647936 31 12 14424 5.85600000 886845134 886845134 -3.00000000
3.54089284 -4.91861057 1.39919555 19 13 14425 6.22000000 886845136 886845136 13.00000000
3.40833521 -4.73621941 -0.10185225 24 14 14426 5.83600000 886845139 886845139 -1.00000000
3.55336308 -4.93775034 1.63004231 40 15 14426 6.29800000 886845141 886845141 15.00000000
1.21406460 -1.69204128 -0.55801386 4 0 14434 2.15600000 886845162 886845162 -15.00000000
3.49995780 -4.87968683 0.10481916 8 1 14435 6.00600000 886845164 886845164 1.00000000
1.40235770 -1.95590627 -0.55562907 3 2 14436 2.47000000 886845166 886845166 -13.00000000
3.51493502 -4.90418243 0.31621385 7 3 14437 6.04200000 886845169 886845169 3.00000000
1.67322016 -2.33454561 -0.55830711 3 4 14437 2.92600000 886845171 886845171 -11.00000000
3.51595449 -4.90741348 0.52816379 9 5 14438 6.06000000 886845173 886845173 5.00000000
2.03469038 -2.84097791 -0.55346513 1 6 14439 3.53800000 886845176 886845176 -9.00000000
3.53488207 -4.93747091 0.74559665 23 7 14440 6.11800000 886845178 886845178 7.00000000
2.67448735 -3.73706222 -0.56425506 2 8 14441 4.63000000 886845180 886845180 -7.00000000
3.53770375 -4.94505787 0.96301055 35 9 14442 6.15600000 886845183 886845183 9.00000000
3.49282050 -4.88231993 -0.52520049 11 10 14442 6.02600000 886845185 886845185 -5.00000000
3.53226614 -4.93927908 1.18034446 46 11 14443 6.18600000 886845187 886845187 11.00000000
3.39162779 -4.74436951 -0.30564198 31 12 14444 5.84000000 886845189 886845189 -3.00000000
3.53956437 -4.95313787 1.40549421 40 13 14445 6.24800000 886845192 886845192 13.00000000
3.38945723 -4.74483347 -0.10178243 24 14 14446 5.83200000 886845194 886845194 -1.00000000
3.55294943 -4.97370291 1.63780689 36 15 14446 6.32800000 886845196 886845196 15.00000000
1.20927167 -1.69784236 -0.55853152 4 0 14454 2.15800000 886845217 886845217 -15.00000000
3.50609922 -4.92445421 0.10551725 8 1 14455 6.04600000 886845219 886845219 1.00000000
1.39326179 -1.95761406 -0.55472928 3 2 14456 2.46600000 886845222 886845222 -13.00000000
3.51370835 -4.93696499 0.31757459 7 3 14456 6.06800000 886845224 886845224 3.00000000
1.65140355 -2.32117558 -0.55372769 3 4 14457 2.90200000 886845226 886845226 -11.00000000
3.52882576 -4.96187115 0.53269589 9 5 14458 6.11200000 886845229 886845229 5.00000000
3.38337708 -4.75911474 -0.92484057 2 6 14459 5.91200000 886845231 886845231 -9.00000000
3.53717422 -4.97728777 0.74974018 31 7 14460 6.15200000 886845233 886845233 7.00000000
2.64648080 -3.72533727 -0.56108648 2 8 14461 4.60400000 886845235 886845235 -7.00000000
3.54073405 -4.98413897 0.96832931 40 9 14461 6.19000000 886845238 886845238 9.00000000
3.49536777 -4.92209768 -0.52816379 11 10 14462 6.06000000 886845240 886845240 -5.00000000
3.55136943 -5.00280762 1.19255626 50 11 14463 6.25000000 886845242 886845242 11.00000000
3.37042284 -4.74966431 -0.30522329 31 12 14464 5.83200000 886845245 886845245 -3.00000000
