# .PCD v0.7 - Point Cloud Data file format
VERSION 0.7
FIELDS x y z intensity laser_id azimuth distance_m adjustedtime timestamp vertical_angle
SIZE 4 4 4 1 1 2 8 8 4 8
TYPE F F F U U U F U U F
COUNT 1 1 1 1 1 1 1 1 1 1
WIDTH 539
HEIGHT 1
VIEWPOINT 0 0 0 1 0 0 0
POINTS 539
DATA ascii
-1.12335050 5.34918594 -0.86570835 2 6 34814 5.53400000 879201654 879201654 -9.00000000
-0.92207962 4.39458466 0.55133688 2 7 34815 4.52400000 879201656 879201656 7.00000000
-1.39459527 6.65234661 -0.83456129 2 8 34816 6.84800000 879201658 879201658 -7.00000000
-0.96681744 4.61581898 -0.41259527 8 10 34817 4.73400000 879201663 879201663 -5.00000000
-2.25002122 10.75149441 2.13515258 50 11 34818 11.19000000 879201665 879201665 11.00000000
-0.78729641 3.76529241 -0.20159811 3 12 34819 3.85200000 879201668 879201668 -3.00000000
-2.17028356 10.38856220 2.45016694 59 13 34820 10.89200000 879201670 879201670 13.00000000
-0.77999479 3.73688269 -0.06663328 6 14 34821 3.81800000 879201672 879201672 -1.00000000
-0.44658497 2.15458345 -0.58958977 4 0 34829 2.27800000 879201695 879201695 -15.00000000
-0.77290744 3.73222876 0.06652857 6 1 34830 3.81200000 879201698 879201698 1.00000000
-0.52435637 2.53424859 -0.59746999 3 2 34831 2.65600000 879201700 879201700 -13.00000000
-0.78400761 3.79249573 0.20295884 8 3 34832 3.87800000 879201702 879201702 3.00000000
-0.62280720 3.01271772 -0.59799540 2 4 34832 3.13400000 879201704 879201704 -11.00000000
-0.79030198 3.82631183 0.34182483 4 5 34833 3.92200000 879201707 879201707 5.00000000
-1.10467160 5.35307455 -0.86570835 2 6 34834 5.53400000 879201709 879201709 -9.00000000
-0.89150155 4.32389688 0.54207486 1 7 34835 4.44800000 879201711 879201711 7.00000000
-1.38338113 6.71550226 -0.84187341 2 8 34836 6.90800000 879201714 879201714 -7.00000000
-0.94869107 4.60940838 -0.41172373 11 10 34837 4.72400000 879201718 879201718 -5.00000000
-2.21366405 10.76505184 2.13629746 46 11 34838 11.19600000 879201721 879201721 11.00000000
-0.77213860 3.75823569 -0.20107475 3 12 34839 3.84200000 879201723 879201723 -3.00000000
-2.13557506 10.40371037 2.45196652 55 13 34840 10.90000000 879201725 879201725 13.00000000
-0.76654416 3.73762369 -0.06659839 6 14 34841 3.81600000 879201728 879201728 -1.00000000
-1.36347711 6.65413380 1.82001555 2 15 34842 7.03200000 879201730 879201730 15.00000000
-0.43945533 2.15999198 -0.59062505 4 0 34850 2.28200000 879201751 879201751 -15.00000000
-0.75523961 3.71544051 0.06617953 6 1 34851 3.79200000 879201753 879201753 1.00000000
-0.51584011 2.53997302 -0.59836978 3 2 34852 2.66000000 879201755 879201755 -13.00000000
-0.76930779 3.79142904 0.20274949 6 3 34853 3.87400000 879201757 879201757 3.00000000
-0.61488408 3.03037262 -0.60104835 4 4 34853 3.15000000 879201760 879201760 -11.00000000
-0.77350152 3.81551409 0.34060463 4 5 34854 3.90800000 879201762 879201762 5.00000000
-1.08386779 5.35127926 -0.86476970 2 6 34855 5.52800000 879201764 879201764 -9.00000000
-0.85911119 4.24541759 0.53183782 1 7 34856 4.36400000 879201767 879201767 7.00000000
-1.36662602 6.75944185 -0.84674817 2 8 34857 6.94800000 879201769 879201769 -7.00000000
-0.93336833 4.62066603 -0.41242099 13 10 34858 4.73200000 879201774 879201774 -5.00000000
-2.17302823 10.76731968 2.13515258 50 11 34859 11.19000000 879201776 879201776 11.00000000
-0.76230651 3.78061891 -0.20212147 1 12 34860 3.86200000 879201778 879201778 -3.00000000
-2.09588981 10.40382576 2.45016694 57 13 34861 10.89200000 879201781 879201781 13.00000000
-0.75362909 3.74432874 -0.06666819 6 14 34862 3.82000000 879201783 879201783 -1.00000000
-1.34405339 6.67779160 1.82519186 2 15 34862 7.05200000 879201785 879201785 15.00000000
-0.42812747 2.14256883 -0.58544868 5 0 34870 2.26200000 879201806 879201806 -15.00000000
-0.74109125 3.71217108 0.06607481 6 1 34871 3.78600000 879201808 879201808 1.00000000
-0.50544608 2.53411365 -0.59657019 3 2 34872 2.65200000 879201810 879201810 -13.00000000
-0.75762987 3.80192637 0.20316818 6 3 34873 3.88200000 879201813 879201813 3.00000000
-0.60200024 3.02094817 -0.59875864 2 4 34873 3.13800000 879201815 879201815 -11.00000000
-0.75784397 3.80646658 0.33955878 4 5 34874 3.89600000 879201817 879201817 5.00000000
-1.06364012 5.34728003 -0.86351824 2 6 34875 5.52000000 879201820 879201820 -9.00000000
-0.85512078 4.30290747 0.53866249 1 7 34876 4.42000000 879201822 879201822 7.00000000
-1.32060051 6.65124035 -0.83261138 2 8 34877 6.83200000 879201824 879201824 -7.00000000
-0.92537469 4.66493654 -0.41608152 8 10 34878 4.77400000 879201829 879201829 -5.00000000
-2.12970495 10.74595261 2.12942839 50 11 34879 11.16000000 879201831 879201831 11.00000000
-0.74677742 3.77150154 -0.20149343 1 12 34880 3.85000000 879201833 879201833 -3.00000000
-0.74016660 3.74497485 -0.06663328 6 14 34882 3.81800000 879201838 879201838 -1.00000000
-1.32443416 6.70731115 1.83192122 4 15 34883 7.07800000 879201840 879201840 15.00000000
-0.42399815 2.15914178 -0.58958977 9 0 34889 2.27800000 879201861 879201861 -15.00000000
-0.72800720 3.71068358 0.06600500 6 1 34890 3.78200000 879201863 879201863 1.00000000
-0.49778953 2.53960061 -0.59746999 3 2 34891 2.65600000 879201866 879201866 -13.00000000
-0.74117976 3.78481746 0.20212147 6 3 34892 3.86200000 879201868 879201868 3.00000000
-0.59424293 3.03448772 -0.60104835 2 4 34892 3.15000000 879201870 879201870 -11.00000000
-0.74598223 3.81286955 0.33990741 4 5 34893 3.90000000 879201873 879201873 5.00000000
-1.04703891 5.35659409 -0.86445683 2 6 34894 5.52600000 879201875 879201875 -9.00000000
-0.83019388 4.25116730 0.53183782 1 7 34895 4.36400000 879201877 879201877 7.00000000
-1.30689991 6.69844675 -0.83797359 2 8 34896 6.87600000 879201880 879201880 -7.00000000
-0.91981101 4.71882486 -0.42061362 8 10 34897 4.82600000 879201884 879201884 -5.00000000
-2.09443378 10.75488281 2.12981009 50 11 34898 11.16200000 879201886 879201886 11.00000000
-1.48920774 7.66130972 1.80185795 6 13 34900 8.01000000 879201891 879201891 13.00000000
-0.72621888 3.73955679 -0.06649367 6 14 34901 3.81000000 879201893 879201893 -1.00000000
-1.37959075 7.10399818 1.93907225 22 15 34901 7.49200000 879201896 879201896 15.00000000
-0.41865256 2.17199039 -0.59269559 9 0 34909 2.29000000 879201916 879201916 -15.00000000
-0.71429378 3.70927501 0.06593519 6 1 34910 3.77800000 879201919 879201919 1.00000000
-0.48818532 2.53749537 -0.59657019 3 2 34911 2.65200000 879201921 879201921 -13.00000000
-0.72796375 3.78738165 0.20212147 6 3 34912 3.86200000 879201923 879201923 3.00000000
-0.58587039 3.04811144 -0.60333806 2 4 34912 3.16200000 879201926 879201926 -11.00000000
-0.73529834 3.82914662 0.34112757 4 5 34913 3.91400000 879201928 879201928 5.00000000
-0.73170674 3.81403732 -0.61510032 2 6 34914 3.93200000 879201930 879201930 -9.00000000
-0.81534946 4.25403929 0.53183782 1 7 34915 4.36400000 879201933 879201933 7.00000000
-1.29545653 6.76535749 -0.84577322 2 8 34916 6.94000000 879201935 879201935 -7.00000000
-0.89809257 4.69461012 -0.41817325 5 10 34917 4.79800000 879201939 879201939 -5.00000000
-2.05724788 10.76405621 2.13019156 50 11 34918 11.16400000 879201942 879201942 11.00000000
-1.46245575 7.66646147 1.80185795 9 13 34920 8.01000000 879201946 879201946 13.00000000
-0.71353531 3.74403334 -0.06652857 6 14 34921 3.81200000 879201949 879201949 -1.00000000
-1.70186651 8.93844700 2.43807530 36 15 34922 9.42000000 879201951 879201951 15.00000000
-0.41216636 2.17716289 -0.59373087 5 0 34928 2.29400000 879201972 879201972 -15.00000000
-0.70310432 3.71751785 0.06603990 6 1 34929 3.78400000 879201974 879201974 1.00000000
-0.48266253 2.55441928 -0.60016942 3 2 34930 2.66800000 879201976 879201976 -13.00000000
-0.71317744 3.77799916 0.20149343 6 3 34931 3.85000000 879201979 879201979 3.00000000
-0.57357419 3.03846240 -0.60104835 2 4 34931 3.15000000 879201981 879201981 -11.00000000
-0.72038096 3.81981659 0.34008172 4 5 34932 3.90200000 879201983 879201983 5.00000000
-0.72417533 3.84361982 -0.61948049 2 6 34933 3.96000000 879201986 879201986 -9.00000000
-0.95164269 5.06062937 -0.63225818 2 8 34935 5.18800000 879201990 879201990 -7.00000000
-0.88031256 4.68581390 -0.41712737 5 10 34936 4.78600000 879201995 879201995 -5.00000000
-2.02335238 10.78046703 2.13209963 50 11 34937 11.17400000 879201997 879201997 11.00000000
-0.69604641 3.71212411 -0.19793458 1 12 34938 3.78200000 879201999 879201999 -3.00000000
-1.44527733 7.71532393 1.81220567 2 13 34939 8.05600000 879202002 879202002 13.00000000
-0.69633377 3.72082639 -0.06607481 6 14 34940 3.78600000 879202004 879202004 -1.00000000
-1.50426733 8.03798103 2.19116211 9 15 34940 8.46600000 879202006 879202006 15.00000000
-0.40033156 2.15579581 -0.58751923 4 0 34948 2.27000000 879202027 879202027 -15.00000000
-0.68793494 3.70815253 0.06583048 6 1 34949 3.77200000 879202029 879202029 1.00000000
-0.47303274 2.55225635 -0.59926963 3 2 34950 2.66400000 879202032 879202032 -13.00000000
-0.70143998 3.78832126 0.20191212 6 3 34951 3.85800000 879202034 879202034 3.00000000
-0.56439424 3.04816771 -0.60257483 2 4 34951 3.15800000 879202036 879202036 -11.00000000
-0.70196933 3.79487991 0.33764136 4 5 34952 3.87400000 879202039 879202039 5.00000000
-1.01372218 5.48558331 -0.88354188 2 6 34953 5.64800000 879202041 879202041 -9.00000000
-0.95053434 5.15371990 -0.64347011 2 8 34955 5.28000000 879202045 879202045 -7.00000000
-0.86575580 4.69865513 -0.41799894 5 10 34956 4.79600000 879202050 879202050 -5.00000000
-1.98606467 10.78939533 2.13248134 9 11 34957 11.17600000 879202052 879202052 11.00000000
-0.68344563 3.71649551 -0.19803926 1 12 34958 3.78400000 879202055 879202055 -3.00000000
-0.68370235 3.72520137 -0.06610972 6 14 34960 3.78800000 879202059 879202059 -1.00000000
-1.63471425 8.91562080 2.42875791 29 15 34961 9.38400000 879202062 879202062 15.00000000
-0.39349616 2.16098142 -0.58855450 4 0 34968 2.27400000 879202082 879202082 -15.00000000
-0.67355525 3.70266175 0.06569086 6 1 34969 3.76400000 879202085 879202085 1.00000000
-0.46272707 2.54622245 -0.59746999 3 2 34970 2.65600000 879202087 879202087 -13.00000000
-0.69070935 3.80450249 0.20264482 6 3 34971 3.87200000 879202089 879202089 3.00000000
-0.55515349 3.05784607 -0.60410130 2 4 34971 3.16600000 879202092 879202092 -11.00000000
-0.69085181 3.80906963 0.33868721 6 5 34972 3.88600000 879202094 879202094 5.00000000
-0.99632865 5.49880695 -0.88510621 6 6 34973 5.65800000 879202096 879202096 -9.00000000
-0.77150130 4.26220942 0.53183782 1 7 34974 4.36400000 879202098 879202098 7.00000000
-0.92547405 5.11793852 -0.63859534 2 8 34975 5.24000000 879202101 879202101 -7.00000000
-0.90495706 5.00947142 -0.44536585 6 10 34976 5.11000000 879202105 879202105 -5.00000000
-1.60180855 8.87581062 1.75315309 6 11 34977 9.18800000 879202108 879202108 11.00000000
-0.67649281 3.75227308 -0.19981869 3 12 34978 3.81800000 879202110 879202110 -3.00000000
-1.87359536 10.40258789 2.44026899 30 13 34979 10.84800000 879202112 879202112 13.00000000
-0.67175716 3.73346949 -0.06621443 6 14 34980 3.79400000 879202115 879202115 -1.00000000
-1.60856104 8.94000626 2.43393421 40 15 34980 9.40400000 879202117 879202117 15.00000000
-0.38798720 2.17375255 -0.59166032 4 0 34988 2.28600000 879202138 879202138 -15.00000000
-0.66062647 3.70499039 0.06569086 6 1 34989 3.76400000 879202140 879202140 1.00000000
-0.45212755 2.53822947 -0.59522051 4 2 34990 2.64600000 879202142 879202142 -13.00000000
-0.67392588 3.78722668 0.20159811 6 3 34991 3.85200000 879202145 879202145 3.00000000
-0.54585207 3.06749678 -0.60562778 2 4 34991 3.17400000 879202147 879202147 -11.00000000
-0.67999250 3.82518935 0.33990741 6 5 34992 3.90000000 879202149 879202149 5.00000000
-0.97747356 5.50419664 -0.88541907 2 6 34993 5.66000000 879202151 879202151 -9.00000000
-0.75661868 4.26487684 0.53183782 1 7 34994 4.36400000 879202154 879202154 7.00000000
-0.89859670 5.07031727 -0.63225818 2 8 34995 5.18800000 879202156 879202156 -7.00000000
-0.94512445 5.33827162 -0.47430155 10 10 34996 5.44200000 879202161 879202161 -5.00000000
-1.59167409 8.99927616 1.77643180 3 11 34997 9.31000000 879202163 879202163 11.00000000
-0.66964591 3.79001403 -0.20170277 5 12 34998 3.85400000 879202165 879202165 -3.00000000
-1.83591723 10.40138817 2.43846941 48 13 34999 10.84000000 879202168 879202168 13.00000000
-0.65906811 3.73776078 -0.06624933 6 14 35000 3.79600000 879202170 879202170 -1.00000000
-1.57633841 8.93985939 2.43238139 45 15 35000 9.39800000 879202172 879202172 15.00000000
-0.38172826 2.18270540 -0.59373087 4 0 35008 2.29400000 879202193 879202193 -15.00000000
-0.64872205 3.71318340 0.06579557 6 1 35009 3.77000000 879202195 879202195 1.00000000
-0.44058436 2.52443457 -0.59162128 6 2 35010 2.63000000 879202198 879202198 -13.00000000
-0.65761447 3.77184796 0.20065606 6 3 35011 3.83400000 879202200 879202200 3.00000000
-0.53379238 3.06164718 -0.60410130 2 4 35011 3.16600000 879202202 879202202 -11.00000000
-0.66321731 3.80791116 0.33816427 4 5 35012 3.88000000 879202204 879202204 5.00000000
-0.67314827 3.86892533 -0.62198341 2 6 35013 3.97600000 879202207 879202207 -9.00000000
-0.74172688 4.26749182 0.53183782 1 7 35014 4.36400000 879202209 879202209 7.00000000
-0.88089252 5.07342291 -0.63225818 2 8 35015 5.18800000 879202211 879202211 -7.00000000
-0.93533748 5.39257812 -0.47883365 13 10 35016 5.49400000 879202216 879202216 -5.00000000
-1.65979874 9.57930279 1.88977230 9 11 35017 9.90400000 879202218 879202218 11.00000000
-0.65436840 3.78052044 -0.20107475 1 12 35018 3.84200000 879202221 879202221 -3.00000000
-0.64465541 3.73215652 -0.06610972 6 14 35020 3.78800000 879202225 879202225 -1.00000000
-1.54578054 8.94911480 2.43341660 45 15 35020 9.40200000 879202227 879202227 15.00000000
-0.37410685 2.18402457 -0.59373087 4 0 35028 2.29400000 879202248 879202248 -15.00000000
-0.63609397 3.71739626 0.06583048 6 1 35029 3.77200000 879202251 879202251 1.00000000
-0.43439648 2.54132414 -0.59522051 4 2 35030 2.64600000 879202253 879202253 -13.00000000
-0.64646131 3.78593302 0.20128408 8 3 35031 3.84600000 879202255 879202255 3.00000000
-0.51715386 3.02865744 -0.59723216 4 4 35031 3.13000000 879202257 879202257 -11.00000000
-0.64791107 3.79841900 0.33711842 4 5 35032 3.86800000 879202260 879202260 5.00000000
-0.66295725 3.89072466 -0.62511212 2 6 35033 3.99600000 879202262 879202262 -9.00000000
-1.45898175 8.57142067 1.06757545 2 7 35034 8.76000000 879202264 879202264 7.00000000
-0.87182933 5.12734938 -0.63859534 2 8 35035 5.24000000 879202267 879202267 -7.00000000
-0.90583169 5.33295393 -0.47325569 10 10 35036 5.43000000 879202271 879202271 -5.00000000
-1.66838872 9.83279419 1.93861938 6 11 35037 10.16000000 879202274 879202274 11.00000000
-0.64250296 3.79065824 -0.20149343 1 12 35038 3.85000000 879202276 879202276 -3.00000000
-0.62995636 3.72452569 -0.06593519 6 14 35040 3.77800000 879202280 879202280 -1.00000000
-1.51007342 8.93757629 2.42875791 45 15 35041 9.38400000 879202283 879202283 15.00000000
-0.36264676 2.16245437 -0.58751923 4 0 35048 2.27000000 879202304 879202304 -15.00000000
-0.62113160 3.70776081 0.06562105 6 1 35049 3.76000000 879202306 879202306 1.00000000
-0.42873931 2.56204510 -0.59971952 4 2 35050 2.66600000 879202308 879202308 -13.00000000
-0.63159549 3.77831674 0.20076072 6 3 35051 3.83600000 879202310 879202310 3.00000000
-0.51175779 3.06142640 -0.60333806 2 4 35051 3.16200000 879202313 879202313 -11.00000000
-0.63432002 3.79869223 0.33694410 4 5 35052 3.86600000 879202315 879202315 5.00000000
-0.64352185 3.85794282 -0.61948049 2 6 35053 3.96000000 879202317 879202317 -9.00000000
-1.42579031 8.55688000 1.06513810 2 7 35054 8.74000000 879202320 879202320 7.00000000
-0.86044478 5.16952419 -0.64347011 2 8 35055 5.28000000 879202322 879202322 -7.00000000
-1.83702767 11.04870892 1.77396679 3 9 35056 11.34000000 879202324 879202324 9.00000000
-0.88459647 5.32036018 -0.47186118 10 10 35056 5.41400000 879202327 879202327 -5.00000000
-1.79295802 10.79529953 2.12713861 37 11 35057 11.14800000 879202329 879202329 11.00000000
-0.62795961 3.78499675 -0.20107475 1 12 35058 3.84200000 879202331 879202331 -3.00000000
-1.72816992 10.42773342 2.44026899 53 13 35059 10.84800000 879202333 879202333 13.00000000
-0.61564511 3.71881056 -0.06579557 6 14 35060 3.77000000 879202336 879202336 -1.00000000
-1.47790289 8.92728710 2.42461681 40 15 35060 9.36800000 879202338 879202338 15.00000000
-0.35759905 2.17895770 -0.59166032 4 0 35068 2.28600000 879202359 879202359 -15.00000000
-0.60689133 3.70201278 0.06548143 8 1 35069 3.75200000 879202361 879202361 1.00000000
-0.41947857 2.56160283 -0.59926963 3 2 35070 2.66400000 879202363 879202363 -13.00000000
-0.62001497 3.79035378 0.20128408 8 3 35071 3.84600000 879202366 879202366 3.00000000
-0.50043446 3.05931902 -0.60257483 2 4 35071 3.15800000 879202368 879202368 -11.00000000
-0.62137753 3.80284953 0.33711842 4 5 35072 3.86800000 879202370 879202370 5.00000000
-0.63005120 3.86016583 -0.61948049 2 6 35073 3.96000000 879202373 879202373 -9.00000000
-1.39271820 8.54221344 1.06270063 2 7 35074 8.72000000 879202375 879202375 7.00000000
-0.83984178 5.15682220 -0.64152020 2 8 35075 5.26400000 879202377 879202377 -7.00000000
-1.85522580 11.40405846 1.82997036 12 9 35076 11.69800000 879202380 879202380 9.00000000
-0.86921871 5.34308100 -0.47360429 10 10 35076 5.43400000 879202382 879202382 -5.00000000
-1.75400484 10.79374123 2.12561226 46 11 35077 11.14000000 879202384 879202384 11.00000000
-0.61794382 3.80688024 -0.20212147 1 12 35078 3.86200000 879202386 879202386 -3.00000000
-1.69425511 10.44909096 2.44386816 59 13 35079 10.86400000 879202389 879202389 13.00000000
-0.60553771 3.73870277 -0.06610972 8 14 35080 3.78800000 879202391 879202391 -1.00000000
-1.44796729 8.94001961 2.42668748 40 15 35080 9.37600000 879202393 879202393 15.00000000
-0.35029709 2.18210030 -0.59217799 4 0 35088 2.28800000 879202414 879202414 -15.00000000
-0.59333193 3.70015979 0.06541162 7 1 35089 3.74800000 879202416 879202416 1.00000000
-0.40991792 2.55920315 -0.59836978 3 2 35090 2.66000000 879202419 879202419 -13.00000000
-0.60523111 3.77858424 0.20055139 6 3 35090 3.83200000 879202421 879202421 3.00000000
-0.49285406 3.08043313 -0.60639101 2 4 35091 3.17800000 879202423 879202423 -11.00000000
-0.60809934 3.80499554 0.33711842 4 5 35092 3.86800000 879202426 879202426 5.00000000
-0.61657286 3.86234140 -0.61948049 2 6 35093 3.96000000 879202428 879202428 -9.00000000
-1.35351419 8.48821259 1.05538857 2 7 35094 8.66000000 879202430 879202430 7.00000000
-0.81808907 5.13619757 -0.63859534 2 8 35095 5.24000000 879202432 879202432 -7.00000000
-0.85118872 5.35001802 -0.47395292 10 10 35096 5.43800000 879202437 879202437 -5.00000000
-1.71446824 10.78816414 2.12332249 46 11 35097 11.12800000 879202439 879202439 11.00000000
-1.65532911 10.43954372 2.44026899 62 13 35099 10.84800000 879202444 879202444 13.00000000
-0.59185785 3.73684335 -0.06603990 9 14 35100 3.78400000 879202446 879202446 -1.00000000
-1.41644979 8.94311142 2.42616963 42 15 35100 9.37400000 879202449 879202449 15.00000000
-0.34357664 2.18903518 -0.59373087 4 0 35108 2.29400000 879202469 879202469 -15.00000000
-0.58165127 3.71011066 0.06555124 8 1 35109 3.75600000 879202472 879202472 1.00000000
-0.40128365 2.56254363 -0.59881973 3 2 35110 2.66200000 879202474 879202474 -13.00000000
-0.59045190 3.77485728 0.20023736 6 3 35111 3.82600000 879202476 879202476 3.00000000
-0.47845757 3.05885887 -0.60181159 4 4 35111 3.15400000 879202479 879202479 -11.00000000
-0.59450614 3.80512643 0.33694410 4 5 35112 3.86600000 879202481 879202481 5.00000000
-0.60491455 3.87618065 -0.62135768 2 6 35113 3.97200000 879202483 879202483 -9.00000000
-1.31653857 8.44581223 1.04953873 2 7 35114 8.61200000 879202485 879202485 7.00000000
-0.80320942 5.15863657 -0.64103276 2 8 35115 5.26000000 879202488 879202488 -7.00000000
-0.83557028 5.37264347 -0.47569606 10 10 35116 5.45800000 879202492 879202492 -5.00000000
-1.67680001 10.79408264 2.12332249 43 11 35117 11.12800000 879202495 879202495 11.00000000
-1.61649048 10.42985249 2.43666983 60 13 35119 10.83200000 879202499 879202499 13.00000000
-0.57850432 3.73691058 -0.06600500 9 14 35120 3.78200000 879202502 879202502 -1.00000000
-1.38248122 8.94060612 2.42409921 40 15 35121 9.36600000 879202504 879202504 15.00000000
-0.33552372 2.18246603 -0.59166032 4 0 35126 2.28600000 879202525 879202525 -15.00000000
-0.57029623 3.71389604 0.06558614 9 1 35127 3.75800000 879202527 879202527 1.00000000
-0.39382207 2.56764412 -0.59971952 3 2 35128 2.66600000 879202529 879202529 -13.00000000
-0.57924908 3.77659249 0.20023736 6 3 35128 3.82600000 879202532 879202532 3.00000000
-0.46825093 3.05646563 -0.60104835 5 4 35129 3.15000000 879202534 879202534 -11.00000000
-0.58164495 3.80106688 0.33642116 4 5 35130 3.86000000 879202536 879202536 5.00000000
-0.59094346 3.86634588 -0.61948049 2 6 35131 3.96000000 879202538 879202538 -9.00000000
-1.28880060 8.44205666 1.04856384 2 7 35132 8.60400000 879202541 879202541 7.00000000
-0.79118848 5.18860817 -0.64444506 2 8 35133 5.28800000 879202543 879202543 -7.00000000
-0.81838757 5.37327242 -0.47552174 10 10 35134 5.45600000 879202548 879202548 -5.00000000
-1.64170015 10.79153347 2.12179613 43 11 35135 11.12000000 879202550 879202550 11.00000000
-0.58237654 3.83268619 -0.20316818 1 12 35136 3.88200000 879202552 879202552 -3.00000000
-1.58313143 10.43102646 2.43577003 60 13 35137 10.82800000 879202555 879202555 13.00000000
-0.56496334 3.72684693 -0.06579557 9 14 35138 3.77000000 879202557 879202557 -1.00000000
-1.35334194 8.92747879 2.41944051 40 15 35138 9.34800000 879202559 879202559 15.00000000
-0.32675594 2.17598224 -0.58958977 4 0 35146 2.27800000 879202580 879202580 -15.00000000
-0.55703223 3.71388674 0.06555124 11 1 35147 3.75600000 879202582 879202582 1.00000000
-0.38572308 2.57478499 -0.60106921 3 2 35148 2.67200000 879202584 879202584 -13.00000000
-0.56606281 3.77859163 0.20023736 8 3 35148 3.82600000 879202587 879202587 3.00000000
-0.45932215 3.06973124 -0.60333806 5 4 35149 3.16200000 879202589 879202589 -11.00000000
-0.56896222 3.80701518 0.33676979 4 5 35150 3.86400000 879202591 879202591 5.00000000
-0.57627726 3.86057019 -0.61822903 2 6 35151 3.95200000 879202594 879202594 -9.00000000
-1.25639713 8.42687035 1.04612648 4 7 35152 8.58400000 879202596 879202596 7.00000000
-0.76254612 5.12065458 -0.63567048 2 8 35153 5.21600000 879202598 879202598 -7.00000000
-0.79669517 5.35638952 -0.47377861 10 10 35154 5.43600000 879202603 879202603 -5.00000000
-1.60344362 10.79331493 2.12103271 43 11 35155 11.11600000 879202605 879202605 11.00000000
-1.54842484 10.44805431 2.43846941 60 13 35157 10.84000000 879202610 879202610 13.00000000
-0.55312204 3.73670888 -0.06593519 9 14 35158 3.77800000 879202612 879202612 -1.00000000
-1.32160521 8.92832661 2.41840506 38 15 35158 9.34400000 879202614 879202614 15.00000000
-0.32140002 2.19240093 -0.59373087 4 0 35166 2.29400000 879202635 879202635 -15.00000000
-0.54145765 3.69800115 0.06523710 13 1 35167 3.73800000 879202637 879202637 1.00000000
-0.37616909 2.57225919 -0.60016942 3 2 35168 2.66800000 879202640 879202640 -13.00000000
-0.55336440 3.78854609 0.20065606 6 3 35169 3.83400000 879202642 879202642 3.00000000
-0.45002276 3.08102918 -0.60524613 4 4 35169 3.17200000 879202644 879202644 -11.00000000
-0.55451936 3.80109191 0.33607253 4 5 35170 3.85600000 879202647 879202647 5.00000000
-0.56108892 3.85082984 -0.61635178 2 6 35171 3.94000000 879202649 879202649 -9.00000000
-1.22611654 8.42531109 1.04539526 7 7 35172 8.57800000 879202651 879202651 7.00000000
-0.75494617 5.19400549 -0.64444506 2 8 35173 5.28800000 879202654 879202654 -7.00000000
-0.77827924 5.36110926 -0.47395292 10 10 35174 5.43800000 879202658 879202658 -5.00000000
-1.56294107 10.77941704 2.11721659 43 11 35175 11.09600000 879202661 879202661 11.00000000
-0.55159789 3.80898571 -0.20170277 1 12 35176 3.85400000 879202663 879202663 -3.00000000
-1.51194489 10.45339584 2.43846941 62 13 35177 10.84000000 879202665 879202665 13.00000000
-0.54036099 3.74059582 -0.06597009 11 14 35178 3.78000000 879202667 879202667 -1.00000000
-1.28887236 8.93311024 2.41840506 40 15 35179 9.34400000 879202670 879202670 15.00000000
-0.31429222 2.19733429 -0.59476614 4 0 35186 2.29800000 879202690 879202690 -15.00000000
-0.53024268 3.71174622 0.06544653 12 1 35187 3.75000000 879202693 879202693 1.00000000
-0.36608693 2.56583977 -0.59836978 3 2 35188 2.66000000 879202695 879202695 -13.00000000
-0.54051596 3.78838301 0.20055139 8 3 35188 3.83200000 879202697 879202697 3.00000000
-0.43954217 3.08452487 -0.60562778 2 4 35189 3.17400000 879202700 879202700 -11.00000000
-0.54068619 3.79905939 0.33572391 4 5 35190 3.85200000 879202702 879202702 5.00000000
-0.54847759 3.85863209 -0.61729038 2 6 35191 3.94600000 879202704 879202704 -9.00000000
-1.19446719 8.41381645 1.04344535 7 7 35192 8.56200000 879202707 879202707 7.00000000
-0.73402441 5.17695475 -0.64200771 2 8 35193 5.26800000 879202709 879202709 -7.00000000
-0.75956076 5.36379337 -0.47395292 6 10 35194 5.43800000 879202714 879202714 -5.00000000
-1.52585423 10.78869438 2.11797976 43 11 35195 11.10000000 879202716 879202716 11.00000000
-0.54612035 3.86626148 -0.20463359 1 12 35196 3.91000000 879202718 879202718 -3.00000000
-1.47435760 10.45089149 2.43666983 60 13 35197 10.83200000 879202720 879202720 13.00000000
-0.52562660 3.73057842 -0.06576066 19 14 35198 3.76800000 879202723 879202723 -1.00000000
-1.25660539 8.92990303 2.41633463 40 15 35199 9.33600000 879202725 879202725 15.00000000
-0.30581960 2.19267797 -0.59321326 3 0 35206 2.29200000 879202746 879202746 -15.00000000
-0.51617950 3.70565224 0.06530690 12 1 35207 3.74200000 879202748 879202748 1.00000000
-0.35685971 2.56517196 -0.59791988 3 2 35208 2.65800000 879202750 879202750 -13.00000000
-0.52426153 3.76848626 0.19939999 6 3 35208 3.81000000 879202753 879202753 3.00000000
-0.42931286 3.08992958 -0.60639101 4 4 35209 3.17800000 879202755 879202755 -11.00000000
-0.52796942 3.80487061 0.33607253 4 5 35210 3.85600000 879202757 879202757 5.00000000
-0.53744555 3.87813306 -0.62010622 2 6 35211 3.96400000 879202760 879202760 -9.00000000
-1.16726744 8.43366623 1.04539526 4 7 35212 8.57800000 879202762 879202762 7.00000000
-0.71757984 5.19128370 -0.64347011 2 8 35213 5.28000000 879202764 879202764 -7.00000000
-0.74192286 5.37430668 -0.47465017 6 10 35214 5.44600000 879202769 879202769 -5.00000000
-1.48764908 10.79006577 2.11721659 43 11 35215 11.09600000 879202771 879202771 11.00000000
-0.51518506 3.74151444 -0.19793458 1 12 35216 3.78200000 879202773 879202773 -3.00000000
-1.43574429 10.44052982 2.43307066 62 13 35217 10.81600000 879202776 879202776 13.00000000
-0.51124084 3.72248507 -0.06558614 48 14 35218 3.75800000 879202778 879202778 -1.00000000
-1.22647667 8.94189072 2.41840506 38 15 35219 9.34400000 879202780 879202780 15.00000000
-0.29764351 2.18990350 -0.59217799 3 0 35226 2.28800000 879202801 879202801 -15.00000000
-0.50458604 3.71733904 0.06548143 14 1 35227 3.75200000 879202803 879202803 1.00000000
-0.34973586 2.57991958 -0.60106921 3 2 35228 2.67200000 879202806 879202806 -13.00000000
-0.51217705 3.77821016 0.19981869 6 3 35228 3.81800000 879202808 879202808 3.00000000
-0.41799760 3.08751822 -0.60562778 2 4 35229 3.17400000 879202810 879202810 -11.00000000
-0.51415080 3.80274153 0.33572391 4 5 35230 3.85200000 879202813 879202813 5.00000000
-0.52522671 3.88977361 -0.62167054 2 6 35231 3.97400000 879202815 879202815 -9.00000000
-1.13941300 8.44949245 1.04685771 4 7 35232 8.59000000 879202817 879202817 7.00000000
-0.69733495 5.17801809 -0.64152020 2 8 35233 5.26400000 879202820 879202820 -7.00000000
-0.72554868 5.39463520 -0.47621897 3 10 35234 5.46400000 879202824 879202824 -5.00000000
-1.45049834 10.79908371 2.11797976 43 11 35235 11.10000000 879202826 879202826 11.00000000
-0.50583905 3.77100348 -0.19939999 1 12 35236 3.81000000 879202829 879202829 -3.00000000
-1.39980876 10.44934082 2.43397045 59 13 35237 10.82000000 879202831 879202831 13.00000000
-0.49718320 3.71631885 -0.06544653 93 14 35238 3.75000000 879202833 879202833 -1.00000000
-1.19474447 8.94228745 2.41736984 40 15 35239 9.34000000 879202836 879202836 15.00000000
-0.29037988 2.19087863 -0.59217799 3 0 35245 2.28800000 879202856 879202856 -15.00000000
-0.49146897 3.71304464 0.06537671 12 1 35246 3.74600000 879202859 879202859 1.00000000
-0.34168938 2.58492899 -0.60196900 3 2 35247 2.67600000 879202861 879202861 -13.00000000
-0.50016868 3.78384781 0.20002803 6 3 35247 3.82200000 879202863 879202863 3.00000000
-0.40621510 3.07720923 -0.60333806 2 4 35248 3.16200000 879202866 879202866 -11.00000000
-0.49997520 3.79257369 0.33467805 4 5 35249 3.84000000 879202868 879202868 5.00000000
-0.50665247 3.84840751 -0.61478746 6 6 35250 3.93000000 879202870 879202870 -9.00000000
-1.11164606 8.45519257 1.04710138 2 7 35251 8.59200000 879202872 879202872 7.00000000
-0.68222755 5.19604778 -0.64347011 2 8 35252 5.28000000 879202875 879202875 -7.00000000
-0.71309495 5.43849659 -0.47987953 3 10 35253 5.50600000 879202879 879202879 -5.00000000
-1.41264009 10.78826141 2.11492682 46 11 35254 11.08400000 879202882 879202882 11.00000000
-0.50783330 3.88356233 -0.20526162 1 12 35255 3.92200000 879202884 879202884 -3.00000000
-1.36414051 10.44619560 2.43217087 62 13 35256 10.81200000 879202886 879202886 13.00000000
-0.48408094 3.71199846 -0.06534181 100 14 35257 3.74400000 879202889 879202889 -1.00000000
-1.16514671 8.93450356 2.41426396 38 15 35257 9.32800000 879202891 879202891 15.00000000
-0.28347197 2.19762683 -0.59373087 4 0 35265 2.29400000 879202912 879202912 -15.00000000
-0.47697216 3.70283771 0.06516729 12 1 35266 3.73400000 879202914 879202914 1.00000000
-0.33216694 2.58224034 -0.60106921 3 2 35267 2.67200000 879202916 879202916 -13.00000000
-0.48772201 3.79151344 0.20034204 8 3 35267 3.82800000 879202919 879202919 3.00000000
-0.39797255 3.09808087 -0.60715425 2 4 35268 3.18200000 879202921 879202921 -11.00000000
-0.48597309 3.78836727 0.33415511 4 5 35269 3.83400000 879202923 879202923 5.00000000
-0.50501293 3.94224262 -0.62949228 22 6 35270 4.02400000 879202925 879202925 -9.00000000
-1.08111751 8.45114517 1.04612648 2 7 35271 8.58400000 879202928 879202928 7.00000000
-0.66559505 5.21021223 -0.64493257 2 8 35272 5.29200000 879202930 879202930 -7.00000000
-1.37348485 10.78144169 2.11263728 46 11 35274 11.07200000 879202937 879202937 11.00000000
-0.48469606 3.81002235 -0.20128408 1 12 35275 3.84600000 879202939 879202939 -3.00000000
-1.32815933 10.45476055 2.43307066 57 13 35276 10.81600000 879202942 879202942 13.00000000
-0.47263071 3.72556829 -0.06555124 100 14 35277 3.75600000 879202944 879202944 -1.00000000
-1.13336349 8.94637966 2.41633463 40 15 35278 9.33600000 879202946 879202946 15.00000000
-0.27676091 2.20627022 -0.59580141 4 0 35285 2.30200000 879202967 879202967 -15.00000000
-0.46404395 3.70447993 0.06516729 13 1 35286 3.73400000 879202969 879202969 1.00000000
-0.32266745 2.57951665 -0.60016942 3 2 35287 2.66800000 879202972 879202972 -13.00000000
-0.47307947 3.78732991 0.20002803 8 3 35288 3.82200000 879202974 879202974 3.00000000
-0.38764250 3.10334754 -0.60791749 2 4 35288 3.18600000 879202976 879202976 -11.00000000
-0.47422591 3.80190301 0.33520100 6 5 35289 3.84600000 879202978 879202978 5.00000000
-0.49613205 3.98318601 -0.63574964 87 6 35290 4.06400000 879202981 879202981 -9.00000000
-1.05185592 8.45683765 1.04637015 2 7 35291 8.58600000 879202983 879202983 7.00000000
-0.64104253 5.16128492 -0.63859534 2 8 35292 5.24000000 879202985 879202985 -7.00000000
-1.33632481 10.79006767 2.11340046 46 11 35294 11.07600000 879202992 879202992 11.00000000
-0.46747151 3.77997661 -0.19960934 1 12 35295 3.81400000 879202995 879202995 -3.00000000
-1.28974652 10.44386005 2.42947149 62 13 35296 10.80000000 879202997 879202997 13.00000000
-0.46133634 3.74108815 -0.06579557 101 14 35297 3.77000000 879202999 879202999 -1.00000000
-1.10368991 8.95008850 2.41633463 38 15 35297 9.33600000 879203002 879203002 15.00000000
-0.26975918 2.21297574 -0.59735435 4 0 35305 2.30800000 879203022 879203022 -15.00000000
-0.45231819 3.71600246 0.06534181 13 1 35306 3.74400000 879203025 879203025 1.00000000
-0.31460181 2.58836532 -0.60196900 3 2 35307 2.67600000 879203027 879203027 -13.00000000
-0.45841253 3.77706194 0.19939999 6 3 35308 3.81000000 879203029 879203029 3.00000000
-0.37728050 3.10857964 -0.60868067 2 4 35308 3.19000000 879203031 879203031 -11.00000000
-0.46119162 3.80551314 0.33537531 4 5 35309 3.84800000 879203034 879203034 5.00000000
-1.02161527 8.45454597 1.04563892 2 7 35311 8.58000000 879203038 879203038 7.00000000
-0.62016881 5.13984156 -0.63567048 2 8 35312 5.21600000 879203041 879203041 -7.00000000
-1.29771435 10.78686905 2.11187387 43 11 35314 11.06800000 879203048 879203048 11.00000000
-0.45522693 3.78951716 -0.20002803 1 12 35315 3.82200000 879203050 879203050 -3.00000000
-1.25235450 10.44055939 2.42767167 60 13 35316 10.79200000 879203052 879203052 13.00000000
-0.44732344 3.73473358 -0.06565595 105 14 35317 3.76200000 879203055 879203055 -1.00000000
-1.07133758 8.95791054 2.41736984 38 15 35318 9.34000000 879203057 879203057 15.00000000
-0.26021627 2.19855618 -0.59321326 3 0 35325 2.29200000 879203078 879203078 -15.00000000
-0.43864009 3.71160102 0.06523710 12 1 35326 3.73800000 879203080 879203080 1.00000000
-0.30556482 2.58944774 -0.60196900 3 2 35327 2.67600000 879203082 879203082 -13.00000000
-0.44616020 3.78657341 0.19981869 8 3 35328 3.81800000 879203084 879203084 3.00000000
-0.36550829 3.10207868 -0.60715425 2 4 35328 3.18200000 879203087 879203087 -11.00000000
-0.44743949 3.80314231 0.33502668 4 5 35329 3.84400000 879203089 879203089 5.00000000
-0.45794120 3.89826775 -0.62167054 2 6 35330 3.97400000 879203091 879203091 -9.00000000
-0.99649107 8.49552059 1.05026996 2 7 35331 8.61800000 879203094 879203094 7.00000000
-0.60176182 5.13803148 -0.63518304 2 8 35332 5.21200000 879203096 879203096 -7.00000000
-1.26050866 10.79523373 2.11263728 46 11 35334 11.07200000 879203103 879203103 11.00000000
-0.44199628 3.79108334 -0.20002803 1 12 35335 3.82200000 879203105 879203105 -3.00000000
-1.21635318 10.44873905 2.42857170 60 13 35336 10.79600000 879203108 879203108 13.00000000
-0.43289879 3.72435427 -0.06544653 108 14 35337 3.75000000 879203110 879203110 -1.00000000
-1.04118013 8.95757580 2.41633463 40 15 35337 9.33600000 879203112 879203112 15.00000000
-0.25364214 2.20904732 -0.59580141 4 0 35345 2.30200000 879203133 879203133 -15.00000000
-0.42477047 3.70516300 0.06509747 12 1 35346 3.73000000 879203135 879203135 1.00000000
-0.29741058 2.59824300 -0.60376865 3 2 35347 2.68400000 879203137 879203137 -13.00000000
-0.43293986 3.78810763 0.19981869 6 3 35348 3.81800000 879203140 879203140 3.00000000
-0.35512364 3.10723662 -0.60791749 2 4 35348 3.18600000 879203142 879203142 -11.00000000
-0.43325776 3.79676270 0.33432943 6 5 35349 3.83600000 879203144 879203144 5.00000000
-0.44544902 3.90965581 -0.62323493 4 6 35350 3.98400000 879203147 879203147 -9.00000000
-0.96772760 8.50683594 1.05124497 2 7 35351 8.62600000 879203149 879203149 7.00000000
-0.58606339 5.15982485 -0.63762039 2 8 35352 5.23200000 879203151 879203151 -7.00000000
-1.22237670 10.79566574 2.11187387 46 11 35354 11.06800000 879203158 879203158 11.00000000
-0.43100387 3.81244922 -0.20107475 1 12 35355 3.84200000 879203160 879203160 -3.00000000
-1.17899859 10.44517517 2.42677188 57 13 35356 10.78800000 879203163 879203163 13.00000000
-1.00661385 8.94597435 2.41219354 38 15 35358 9.32000000 879203167 879203167 15.00000000
-0.24473216 2.20616484 -0.59476614 4 0 35367 2.29800000 879203188 879203188 -15.00000000
-0.41010031 3.70279145 0.06502767 12 1 35368 3.72600000 879203190 879203190 1.00000000
-0.28614676 2.58774424 -0.60106921 3 2 35369 2.67200000 879203193 879203193 -13.00000000
-0.41795307 3.78577161 0.19960934 6 3 35370 3.81400000 879203195 879203195 3.00000000
-0.34275925 3.10467458 -0.60715425 2 4 35370 3.18200000 879203197 879203197 -11.00000000
-0.41780293 3.79047680 0.33363217 6 5 35371 3.82800000 879203200 879203200 5.00000000
-0.43000162 3.90741038 -0.62260920 2 6 35372 3.98000000 879203202 879203202 -9.00000000
-0.93202144 8.48286438 1.04783261 2 7 35373 8.59800000 879203204 879203204 7.00000000
-0.56971008 5.19360924 -0.64152020 2 8 35374 5.26400000 879203207 879203207 -7.00000000
-1.17984855 10.79052162 2.10996580 50 11 35376 11.05800000 879203213 879203213 11.00000000
-0.41506153 3.80216312 -0.20044671 1 12 35377 3.83000000 879203216 879203216 -3.00000000
-1.13888335 10.44962502 2.42677188 60 13 35378 10.78800000 879203218 879203218 13.00000000
-0.40515384 3.72345161 -0.06537671 84 14 35379 3.74600000 879203220 879203220 -1.00000000
-0.97381854 8.94960308 2.41219354 40 15 35379 9.32000000 879203223 879203223 15.00000000
-0.23806117 2.21660972 -0.59735435 4 0 35387 2.30800000 879203243 879203243 -15.00000000
-0.39759904 3.70817709 0.06509747 13 1 35388 3.73000000 879203246 879203246 1.00000000
-0.27752694 2.59260249 -0.60196900 3 2 35389 2.67600000 879203248 879203248 -13.00000000
-0.40494797 3.78919339 0.19971400 6 3 35390 3.81600000 879203250 879203250 3.00000000
-0.33233708 3.10975623 -0.60791749 2 4 35390 3.18600000 879203253 879203253 -11.00000000
-0.40837386 3.82757282 0.33676979 6 5 35391 3.86400000 879203255 879203255 5.00000000
-0.41594115 3.90495920 -0.62198341 2 6 35392 3.97600000 879203257 879203257 -9.00000000
-0.90408432 8.50185776 1.04978251 2 7 35393 8.61400000 879203260 879203260 7.00000000
-0.72048765 6.78660965 -0.83797359 2 8 35394 6.87600000 879203262 879203262 -7.00000000
-1.14114249 10.78481293 2.10805774 46 11 35396 11.04800000 879203269 879203269 11.00000000
-0.39675152 3.75591993 -0.19793458 1 12 35397 3.78200000 879203271 879203271 -3.00000000
-1.10158288 10.44578457 2.42497230 60 13 35398 10.78000000 879203273 879203273 13.00000000
-0.39299160 3.73279810 -0.06551633 86 14 35399 3.75400000 879203276 879203276 -1.00000000
-0.94181776 8.96079731 2.41426396 40 15 35400 9.32800000 879203278 879203278 15.00000000
-0.23129658 2.21926808 -0.59787202 4 0 35405 2.31000000 879203299 879203299 -15.00000000
-0.38615444 3.71139693 0.06513238 13 1 35406 3.73200000 879203301 879203301 1.00000000
-0.26897803 2.58958507 -0.60106921 3 2 35407 2.67200000 879203303 879203303 -13.00000000
-0.39283589 3.78846049 0.19960934 6 3 35408 3.81400000 879203306 879203306 3.00000000
-0.32216090 3.10687947 -0.60715425 2 4 35408 3.18200000 879203308 879203308 -11.00000000
-0.39593691 3.82487321 0.33642116 4 5 35409 3.86000000 879203310 879203310 5.00000000
-0.40488964 3.91803598 -0.62386066 2 6 35410 3.98800000 879203313 879203313 -9.00000000
-0.88022244 8.53230095 1.05319488 2 7 35411 8.64200000 879203315 879203315 7.00000000
-0.74451339 7.22918653 -0.89232731 4 8 35412 7.32200000 879203317 879203317 -7.00000000
-1.10665405 10.78248596 2.10691285 50 11 35414 11.04200000 879203324 879203324 11.00000000
-0.38698569 3.77701640 -0.19898130 1 12 35415 3.80200000 879203326 879203326 -3.00000000
-1.06757140 10.43756199 2.42227292 57 13 35416 10.76800000 879203329 879203329 13.00000000
-0.38065338 3.72804618 -0.06541162 100 14 35417 3.74800000 879203331 879203331 -1.00000000
-0.91640383 8.97508335 2.41736984 40 15 35417 9.34000000 879203333 879203333 15.00000000
-0.22354849 2.22006202 -0.59787202 4 0 35425 2.31000000 879203354 879203354 -15.00000000
-0.37339690 3.71471190 0.06516729 12 1 35426 3.73400000 879203356 879203356 1.00000000
-0.26168814 2.60795927 -0.60511833 3 2 35427 2.69000000 879203359 879203359 -13.00000000
-0.37960929 3.78980851 0.19960934 6 3 35428 3.81400000 879203361 879203361 3.00000000
-0.31092256 3.10407805 -0.60639101 2 4 35428 3.17800000 879203363 879203363 -11.00000000
-0.38099736 3.81037188 0.33502668 6 5 35429 3.84400000 879203366 879203366 5.00000000
-0.39434978 3.95087528 -0.62886655 2 6 35430 4.02000000 879203368 879203368 -9.00000000
-0.85397643 8.57087708 1.05758214 2 7 35431 8.67800000 879203370 879203370 7.00000000
-0.71750611 7.21396303 -0.89013368 4 8 35432 7.30400000 879203372 879203372 -7.00000000
-0.40845448 4.11398125 -0.36169633 6 10 35433 4.15000000 879203377 879203377 -5.00000000
-1.06978393 10.79409790 2.10843945 50 11 35434 11.05000000 879203379 879203379 11.00000000
-0.37655196 3.80616999 -0.20044671 1 12 35435 3.83000000 879203382 879203382 -3.00000000
-1.03074801 10.43734646 2.42137313 60 13 35436 10.76400000 879203384 879203384 13.00000000
-0.36744156 3.72736216 -0.06537671 31 14 35437 3.74600000 879203386 879203386 -1.00000000
-0.88255644 8.96876907 2.41478181 40 15 35438 9.33000000 879203389 879203389 15.00000000
-0.21430296 2.20544648 -0.59373087 4 0 35445 2.29400000 879203409 879203409 -15.00000000
-0.36042789 3.71599269 0.06516729 12 1 35446 3.73400000 879203412 879203412 1.00000000
-0.25145629 2.59721875 -0.60241890 3 2 35447 2.67800000 879203414 879203414 -13.00000000
-0.36676234 3.79508662 0.19981869 8 3 35448 3.81800000 879203416 879203416 3.00000000
-0.30084080 3.11296105 -0.60791749 2 4 35448 3.18600000 879203419 879203419 -11.00000000
-0.36654651 3.79977942 0.33398080 4 5 35449 3.83200000 879203421 879203421 5.00000000
-0.38055626 3.95222759 -0.62886655 2 6 35450 4.02000000 879203423 879203423 -9.00000000
-0.82443315 8.57775784 1.05806959 2 7 35451 8.68200000 879203425 879203425 7.00000000
-0.68966627 7.18875933 -0.88672131 4 8 35452 7.27600000 879203428 879203428 -7.00000000
-0.39390159 4.11339855 -0.36152202 11 10 35453 4.14800000 879203432 879203432 -5.00000000
-1.03097820 10.78604031 2.10614967 50 11 35454 11.03800000 879203435 879203435 11.00000000
-0.36288425 3.80348468 -0.20023736 1 12 35455 3.82600000 879203437 879203437 -3.00000000
-0.99467808 10.44476128 2.42227292 59 13 35456 10.76800000 879203439 879203439 13.00000000
-0.35442841 3.72862196 -0.06537671 100 14 35457 3.74600000 879203442 879203442 -1.00000000
-0.85153037 8.95818424 2.41115832 38 15 35457 9.31600000 879203444 879203444 15.00000000
-0.20768395 2.21772170 -0.59683675 4 0 35465 2.30600000 879203465 879203465 -15.00000000
-0.34745443 3.71722817 0.06516729 12 1 35466 3.73400000 879203467 879203467 1.00000000
-0.24184571 2.59225965 -0.60106921 3 2 35467 2.67200000 879203469 879203469 -13.00000000
-0.35425350 3.80429840 0.20023736 8 3 35468 3.82600000 879203472 879203472 3.00000000
-0.29106489 3.12572122 -0.61020714 2 4 35468 3.19800000 879203474 879203474 -11.00000000
-0.35364932 3.80500364 0.33432943 6 5 35469 3.83600000 879203476 879203476 5.00000000
-0.36420354 3.92599487 -0.62448639 2 6 35470 3.99200000 879203478 879203478 -9.00000000
-0.80144089 8.65569496 1.06733167 2 7 35471 8.75800000 879203481 879203481 7.00000000
-0.65360814 7.07252264 -0.87209702 2 8 35472 7.15600000 879203483 879203483 -7.00000000
-0.38155374 4.13657188 -0.36343944 9 10 35473 4.17000000 879203488 879203488 -5.00000000
-0.99098182 10.76415825 2.10118866 50 11 35474 11.01200000 879203490 879203490 11.00000000
-0.34814340 3.78881717 -0.19939999 3 12 35475 3.81000000 879203492 879203492 -3.00000000
-0.95750111 10.44040680 2.42047334 57 13 35476 10.76000000 879203495 879203495 13.00000000
-0.34159321 3.73182797 -0.06541162 100 14 35477 3.74800000 879203497 879203497 -1.00000000
-0.82007921 8.95917797 2.41064048 38 15 35477 9.31400000 879203499 879203499 15.00000000
-0.20032859 2.21839809 -0.59683675 4 0 35484 2.30600000 879203520 879203520 -15.00000000
-0.33548474 3.72234321 0.06523710 15 1 35485 3.73800000 879203522 879203522 1.00000000
-0.23324814 2.59304738 -0.60106921 3 2 35486 2.67200000 879203525 879203525 -13.00000000
-0.34127888 3.80147362 0.20002803 8 3 35487 3.82200000 879203527 879203527 3.00000000
-0.27999583 3.11884761 -0.60868067 2 4 35487 3.19000000 879203529 879203529 -11.00000000
-0.34174076 3.81409311 0.33502668 6 5 35488 3.84400000 879203531 879203531 5.00000000
-0.35083058 3.92324615 -0.62386066 2 6 35489 3.98800000 879203534 879203534 -9.00000000
-0.77273315 8.65830517 1.06733167 2 7 35490 8.75800000 879203536 879203536 7.00000000
-0.61852741 6.94415188 -0.85601026 2 8 35491 7.02400000 879203538 879203538 -7.00000000
-0.36730504 4.13186073 -0.36291650 14 10 35492 4.16400000 879203543 879203543 -5.00000000
-0.95528114 10.76738548 2.10118866 50 11 35493 11.01200000 879203545 879203545 11.00000000
-0.33487269 3.78199291 -0.19898130 1 12 35494 3.80200000 879203548 879203548 -3.00000000
-0.92218804 10.43576050 2.41867375 57 13 35495 10.75200000 879203550 879203550 13.00000000
-0.33079723 3.75086784 -0.06572577 34 14 35496 3.76600000 879203552 879203552 -1.00000000
-0.79019529 8.95992470 2.41012287 38 15 35496 9.31200000 879203554 879203554 15.00000000
-0.19425400 2.23833013 -0.60201311 4 0 35504 2.32600000 879203575 879203575 -15.00000000
-0.32214421 3.71950698 0.06516729 13 1 35505 3.73400000 879203578 879203578 1.00000000
-0.22419530 2.59384584 -0.60106921 3 2 35506 2.67200000 879203580 879203580 -13.00000000
-0.32594746 3.77876329 0.19877197 6 3 35507 3.79800000 879203582 879203582 3.00000000
-0.26978222 3.12763000 -0.61020714 2 4 35507 3.19800000 879203584 879203584 -11.00000000
-0.32842502 3.81526279 0.33502668 4 5 35508 3.84400000 879203587 879203587 5.00000000
-0.33679563 3.92051053 -0.62323493 2 6 35509 3.98400000 879203589 879203589 -9.00000000
-0.73911411 8.62139320 1.06245697 2 7 35510 8.71800000 879203591 879203591 7.00000000
-0.58446956 6.83155251 -0.84187341 2 8 35511 6.90800000 879203594 879203594 -7.00000000
-0.35406634 4.14701414 -0.36413670 11 10 35512 4.17800000 879203598 879203598 -5.00000000
-0.91785675 10.77261066 2.10157037 50 11 35513 11.01400000 879203601 879203601 11.00000000
-0.32234585 3.79109907 -0.19939999 1 12 35514 3.81000000 879203603 879203603 -3.00000000
-0.88443673 10.42338181 2.41507459 57 13 35515 10.73600000 879203605 879203605 13.00000000
-0.31719607 3.74602199 -0.06562105 108 14 35516 3.76000000 879203607 879203607 -1.00000000
-0.75751287 8.96468544 2.41064048 38 15 35517 9.31400000 879203610 879203610 15.00000000
-0.18483649 2.21974254 -0.59683675 4 0 35524 2.30600000 879203631 879203631 -15.00000000
-0.21610591 2.60626507 -0.60376865 3 2 35526 2.68400000 879203635 879203635 -13.00000000
-0.31456679 3.80177307 0.19992335 9 3 35527 3.82000000 879203637 879203637 3.00000000
-0.25756797 3.11290002 -0.60715425 2 4 35527 3.18200000 879203640 879203640 -11.00000000
-0.31477737 3.81241465 0.33467805 4 5 35528 3.84000000 879203642 879203642 5.00000000
-0.32505485 3.94528675 -0.62698936 2 6 35529 4.00800000 879203644 879203644 -9.00000000
-0.71064192 8.64370441 1.06489432 2 7 35530 8.73800000 879203647 879203647 7.00000000
-0.56970882 6.94434404 -0.85552281 2 8 35531 7.02000000 879203649 879203649 -7.00000000
-0.33780023 4.12638140 -0.36221927 11 10 35532 4.15600000 879203654 879203654 -5.00000000
-0.88088715 10.78357601 2.10309672 50 11 35533 11.02200000 879203656 879203656 11.00000000
-0.31105766 3.81608915 -0.20065606 1 12 35534 3.83400000 879203658 879203658 -3.00000000
-0.84804696 10.42640495 2.41507459 56 13 35535 10.73600000 879203660 879203660 13.00000000
-0.30233866 3.72518182 -0.06523710 100 14 35536 3.73800000 879203663 879203663 -1.00000000
-0.72762448 8.96522236 2.41012287 40 15 35536 9.31200000 879203665 879203665 15.00000000
-0.17647266 2.21267128 -0.59476614 4 0 35544 2.29800000 879203686 879203686 -15.00000000
-0.29585224 3.71767855 0.06509747 100 1 35545 3.73000000 879203688 879203688 1.00000000
-0.20639002 2.59923315 -0.60196900 3 2 35546 2.67600000 879203690 879203690 -13.00000000
-0.24794082 3.12943721 -0.61020714 2 4 35547 3.19800000 879203695 879203695 -11.00000000
-0.30021152 3.79760075 0.33328357 4 5 35548 3.82400000 879203697 879203697 5.00000000
-0.31097060 3.94245887 -0.62636358 2 6 35549 4.00400000 879203700 879203700 -9.00000000
-0.68046540 8.64613247 1.06489432 2 7 35550 8.73800000 879203702 879203702 7.00000000
-0.55416763 7.05711412 -0.86917216 6 8 35551 7.13200000 879203704 879203704 -7.00000000
-0.32246065 4.11561775 -0.36117339 9 10 35552 4.14400000 879203709 879203709 -5.00000000
-0.84155697 10.76505470 2.09889889 46 11 35553 11.00000000 879203711 879203711 11.00000000
-0.29462886 3.77732754 -0.19856262 1 12 35554 3.79400000 879203713 879203713 -3.00000000
