# .PCD v0.7 - Point Cloud Data file format
VERSION 0.7
FIELDS x y z intensity laser_id azimuth distance_m adjustedtime timestamp vertical_angle
SIZE 4 4 4 1 1 2 8 8 4 8
TYPE F F F U U U F U U F
COUNT 1 1 1 1 1 1 1 1 1 1
WIDTH 548
HEIGHT 1
VIEWPOINT 0 0 0 1 0 0 0
POINTS 548
DATA ascii
1.68650174 11.15147305 -0.19686314 6 14 860 11.28000000 879307343 879307343 -1.00000000
1.33124959 8.79209900 2.38268805 38 15 861 9.20600000 879307345 879307345 15.00000000
0.34003899 2.23258781 -0.60511893 4 0 866 2.33800000 879307366 879307366 -15.00000000
1.70012462 11.14940453 0.19686314 6 1 867 11.28000000 879307368 879307368 1.00000000
0.40173459 2.63149047 -0.61456627 3 2 868 2.73200000 879307370 879307370 -13.00000000
1.70753229 11.18488407 0.59296638 28 3 868 11.33000000 879307373 879307373 3.00000000
0.48260847 3.15754604 -0.62089247 2 4 869 3.25400000 879307375 879307375 -11.00000000
1.71118140 11.18262100 0.98974061 17 5 870 11.35600000 879307377 879307377 5.00000000
0.60724992 3.96376896 -0.63512391 2 6 871 4.06000000 879307379 879307379 -9.00000000
1.72354996 11.23721409 1.39589143 29 7 872 11.45400000 879307382 879307382 7.00000000
0.81469917 5.30550241 -0.65906942 2 8 873 5.40800000 879307384 879307384 -7.00000000
1.73042369 11.25580883 1.80368936 31 9 874 11.53000000 879307386 879307386 9.00000000
1.21007311 7.87110758 -0.69672298 4 10 874 7.99400000 879307389 879307389 -5.00000000
1.52882469 9.93293381 1.95350254 21 11 875 10.23800000 879307391 879307391 11.00000000
1.69029677 10.96930122 -0.58166182 8 12 876 11.11400000 879307393 879307393 -3.00000000
1.57028580 10.17867851 2.37773275 57 13 877 10.57000000 879307396 879307396 13.00000000
1.69863415 10.99790001 -0.19424528 2 14 878 11.13000000 879307398 879307398 -1.00000000
1.35674071 8.78429222 2.38165283 40 15 878 9.20200000 879307400 879307400 15.00000000
0.34902027 2.23902249 -0.60718948 4 0 886 2.34600000 879307421 879307421 -15.00000000
1.71621585 10.99719429 0.19428019 3 1 887 11.13200000 879307423 879307423 1.00000000
0.40971449 2.62237048 -0.61276668 3 2 888 2.72400000 879307425 879307425 -13.00000000
1.72899079 11.06637573 0.58700007 34 3 888 11.21600000 879307428 879307428 3.00000000
0.49302062 3.15196300 -0.62012923 2 4 889 3.25000000 879307430 879307430 -11.00000000
1.73540998 11.08209610 0.98137367 33 5 890 11.26000000 879307432 879307432 5.00000000
0.61955261 3.95186758 -0.63355958 2 6 891 4.05000000 879307435 879307435 -9.00000000
1.74275768 11.10365868 1.38004839 36 7 892 11.32400000 879307437 879307437 7.00000000
0.83198130 5.29478216 -0.65809447 2 8 893 5.40000000 879307439 879307439 -7.00000000
1.74913609 11.11895752 1.78272712 31 9 894 11.39600000 879307442 879307442 9.00000000
1.72735584 10.98050499 -0.97248375 4 10 894 11.15800000 879307444 879307444 -5.00000000
1.56440401 9.93335438 1.95464730 25 11 895 10.24400000 879307446 879307446 11.00000000
1.72764337 10.95741558 -0.58134782 21 12 896 11.10800000 879307449 879307449 -3.00000000
1.60702181 10.18083477 2.37953234 60 13 897 10.57800000 879307451 879307451 13.00000000
1.73264372 10.96425152 -0.19375661 14 14 898 11.10200000 879307453 879307453 -1.00000000
1.38739526 8.77950287 2.38165283 40 15 898 9.20200000 879307455 879307455 15.00000000
0.35722438 2.23772836 -0.60718948 4 0 907 2.34600000 879307476 879307476 -15.00000000
1.75303972 10.96910954 0.19389623 20 1 908 11.11000000 879307478 879307478 1.00000000
0.41870746 2.61700273 -0.61186689 3 2 909 2.72000000 879307481 879307481 -13.00000000
1.76136160 10.99654770 0.58365059 10 3 910 11.15200000 879307483 879307483 3.00000000
0.50519085 3.15401196 -0.62089247 4 4 910 3.25400000 879307485 879307485 -11.00000000
1.76592159 11.01270866 0.97579569 12 5 911 11.19600000 879307488 879307488 5.00000000
0.63747686 3.97102475 -0.63700116 2 6 912 4.07200000 879307490 879307490 -9.00000000
1.76989865 11.01291943 1.36956763 10 7 913 11.23800000 879307492 879307492 7.00000000
1.76204562 10.95185375 -1.36201179 2 8 914 11.17600000 879307495 879307495 -7.00000000
1.77601409 11.03867340 1.77083814 12 9 914 11.32000000 879307497 879307497 9.00000000
1.26953435 7.88191748 -0.69846612 4 10 915 8.01400000 879307499 879307499 -5.00000000
1.60267627 9.93918324 1.95693707 25 11 916 10.25600000 879307502 879307502 11.00000000
1.77224874 10.97861385 -0.58281320 8 12 917 11.13600000 879307504 879307504 -3.00000000
1.64308202 10.16718102 2.37773275 59 13 918 10.57000000 879307506 879307506 13.00000000
1.77696991 10.98348999 -0.19421038 8 14 919 11.12800000 879307508 879307508 -1.00000000
1.42140472 8.77601814 2.38217044 40 15 920 9.20400000 879307511 879307511 15.00000000
0.36690050 2.24790740 -0.61029530 4 0 927 2.35800000 879307531 879307531 -15.00000000
1.79260826 10.97081757 0.19403586 10 1 928 11.11800000 879307534 879307534 1.00000000
0.42658159 2.60783243 -0.61006725 3 2 929 2.71200000 879307536 879307536 -13.00000000
1.80039716 11.00641441 0.58448797 10 3 929 11.16800000 879307538 879307538 3.00000000
0.51619732 3.15222907 -0.62089247 4 4 930 3.25400000 879307541 879307541 -11.00000000
1.80499709 11.01041031 0.97614431 12 5 931 11.20000000 879307543 879307543 5.00000000
0.65261412 3.97657251 -0.63825262 2 6 932 4.08000000 879307545 879307545 -9.00000000
1.80961740 11.01450920 1.37054265 12 7 933 11.24600000 879307548 879307548 7.00000000
0.87049270 5.29261065 -0.65858191 2 8 934 5.40400000 879307550 879307550 -7.00000000
1.81293058 11.01064873 1.76739657 12 9 935 11.29800000 879307552 879307552 9.00000000
1.29833448 7.88530159 -0.69916338 4 10 935 8.02200000 879307555 879307555 -5.00000000
1.64023447 9.95096207 1.96037161 21 11 936 10.27400000 879307557 879307557 11.00000000
1.81121075 10.97630215 -0.58302253 12 12 937 11.14000000 879307559 879307559 -3.00000000
1.67602134 10.14600182 2.37413335 60 13 938 10.55400000 879307561 879307561 13.00000000
1.81725621 10.98905754 -0.19441980 12 14 939 11.14000000 879307564 879307564 -1.00000000
1.45266116 8.77481461 2.38320565 42 15 940 9.20800000 879307566 879307566 15.00000000
0.37347353 2.23899078 -0.60822475 4 0 947 2.35000000 879307587 879307587 -15.00000000
1.83715034 11.00196838 0.19469905 13 1 948 11.15600000 879307589 879307589 1.00000000
0.43825242 2.62170410 -0.61366647 3 2 949 2.72800000 879307591 879307591 -13.00000000
1.84012294 11.00794315 0.58490664 10 3 949 11.17600000 879307594 879307594 3.00000000
0.52784556 3.15428066 -0.62165570 2 4 950 3.25800000 879307596 879307596 -11.00000000
1.84539461 11.01583195 0.97719020 12 5 951 11.21200000 879307598 879307598 5.00000000
0.66453069 3.96258116 -0.63637543 2 6 952 4.06800000 879307601 879307601 -9.00000000
1.85068345 11.02378654 1.37249255 10 7 953 11.26200000 879307603 879307603 7.00000000
0.88896203 5.28953981 -0.65858191 2 8 954 5.40400000 879307605 879307605 -7.00000000
1.84976065 11.00652504 1.76770949 12 9 954 11.30000000 879307608 879307608 9.00000000
1.32519031 7.87679195 -0.69881475 4 10 955 8.01800000 879307610 879307610 -5.00000000
1.67626405 9.95291996 1.96189809 21 11 956 10.28200000 879307612 879307612 11.00000000
1.85150647 10.98172951 -0.58365059 12 12 957 11.15200000 879307614 879307614 -3.00000000
1.71175158 10.14201164 2.37458324 60 13 958 10.55600000 879307617 879307617 13.00000000
1.85560405 10.98264694 -0.19441980 10 14 959 11.14000000 879307619 879307619 -1.00000000
1.48134911 8.75826168 2.38010001 38 15 960 9.19600000 879307621 879307621 15.00000000
0.37998879 2.23005605 -0.60615420 4 0 967 2.34200000 879307642 879307642 -15.00000000
1.87587941 10.99745941 0.19473395 13 1 968 11.15800000 879307644 879307644 1.00000000
0.44772923 2.62207937 -0.61411637 3 2 969 2.73000000 879307647 879307647 -13.00000000
1.88122594 11.01720238 0.58574402 10 3 969 11.19200000 879307649 879307649 3.00000000
0.53752971 3.14467835 -0.62012923 2 4 970 3.25000000 879307651 879307651 -11.00000000
1.88383579 11.00932312 0.97719020 12 5 971 11.21200000 879307654 879307654 5.00000000
0.67835861 3.96023726 -0.63637543 2 6 972 4.06800000 879307656 879307656 -9.00000000
1.89049435 11.02508545 1.37346745 14 7 973 11.27000000 879307658 879307658 7.00000000
0.90775639 5.28836107 -0.65882570 2 8 974 5.40600000 879307661 879307661 -7.00000000
1.89151120 11.01947021 1.77083814 12 9 974 11.32000000 879307663 879307663 9.00000000
1.89590764 11.03353310 -0.97945625 4 10 975 11.23800000 879307665 879307665 -5.00000000
1.71432412 9.96635628 1.96571422 18 11 976 10.30200000 879307667 879307667 11.00000000
1.89457357 11.00275517 -0.58511597 12 12 977 11.18000000 879307670 879307670 -3.00000000
1.74515724 10.12445164 2.37188387 66 13 978 10.54400000 879307672 879307672 13.00000000
1.89834964 11.00172043 -0.19487357 10 14 979 11.16600000 879307674 879307674 -1.00000000
1.51158321 8.75113392 2.37958241 42 15 980 9.19400000 879307677 879307677 15.00000000
0.38870507 2.23639679 -0.60822475 4 0 986 2.35000000 879307697 879307697 -15.00000000
1.91233802 10.99117851 0.19473395 13 1 987 11.15800000 879307700 879307700 1.00000000
0.45541877 2.61482048 -0.61276668 3 2 988 2.72400000 879307702 879307702 -13.00000000
1.92186236 11.03451538 0.58700007 13 3 988 11.21600000 879307704 879307704 3.00000000
0.54795486 3.14287853 -0.62012923 2 4 989 3.25000000 879307707 879307707 -11.00000000
1.92238903 11.01479244 0.97823608 12 5 990 11.22400000 879307709 879307709 5.00000000
0.69148749 3.95796609 -0.63637543 2 6 991 4.06800000 879307711 879307711 -9.00000000
1.92841244 11.02657795 1.37444246 14 7 992 11.27800000 879307713 879307713 7.00000000
0.92768449 5.29900932 -0.66053182 2 8 993 5.42000000 879307716 879307716 -7.00000000
1.93281174 11.04037762 1.77521837 12 9 993 11.34800000 879307718 879307718 9.00000000
1.93454933 11.03895950 -0.98050213 4 10 994 11.25000000 879307720 879307720 -5.00000000
1.74566817 9.95094872 1.96380615 15 11 995 10.29200000 879307723 879307723 11.00000000
1.92897689 10.98460960 -0.58448797 12 12 996 11.16800000 879307725 879307725 -3.00000000
1.76927459 10.06486893 2.35928655 59 13 997 10.48800000 879307727 879307727 13.00000000
1.93759465 11.01111984 -0.19515280 10 14 998 11.18200000 879307730 879307730 -1.00000000
1.53839862 8.74253654 2.37854695 40 15 998 9.19000000 879307732 879307732 15.00000000
0.39752156 2.24073291 -0.60977769 4 0 1006 2.35600000 879307753 879307753 -15.00000000
1.95383954 11.00215626 0.19504809 13 1 1007 11.17600000 879307755 879307755 1.00000000
0.46317911 2.60554028 -0.61096704 3 2 1008 2.71600000 879307757 879307757 -13.00000000
1.96106744 11.03167248 0.58720940 13 3 1008 11.22000000 879307760 879307760 3.00000000
0.56029803 3.14867806 -0.62165570 2 4 1009 3.25800000 879307762 879307762 -11.00000000
1.96292245 11.01978397 0.97928190 16 5 1010 11.23600000 879307764 879307764 5.00000000
0.70599270 3.95941758 -0.63700116 2 6 1011 4.07200000 879307766 879307766 -9.00000000
1.96689057 11.01977921 1.37444246 12 7 1012 11.27800000 879307769 879307769 7.00000000
0.94268441 5.27619743 -0.65809447 2 8 1013 5.40000000 879307771 879307771 -7.00000000
1.97203290 11.03745270 1.77584410 12 9 1013 11.35200000 879307773 879307773 9.00000000
1.40342319 7.84703827 -0.69742024 4 10 1014 8.00200000 879307776 879307776 -5.00000000
1.78385258 9.96411896 1.96762240 15 11 1015 10.31200000 879307778 879307778 11.00000000
1.97224092 11.00533199 -0.58595335 12 12 1016 11.19600000 879307780 879307780 -3.00000000
1.77962244 9.92052650 2.32689381 59 13 1017 10.34400000 879307783 879307783 13.00000000
1.97778606 11.01413059 -0.19532733 10 14 1018 11.19200000 879307785 879307785 -1.00000000
1.57145667 8.74254322 2.38010001 42 15 1019 9.19600000 879307787 879307787 15.00000000
0.40573159 2.23926091 -0.60977769 3 0 1027 2.35600000 879307808 879307808 -15.00000000
1.99522197 11.00082397 0.19515280 13 1 1028 11.18200000 879307810 879307810 1.00000000
0.47342199 2.60766006 -0.61186689 3 2 1029 2.72000000 879307813 879307813 -13.00000000
2.00376868 11.02602673 0.58731413 13 3 1030 11.22200000 879307815 879307815 3.00000000
0.57253683 3.15046668 -0.62241894 2 4 1030 3.26200000 879307817 879307817 -11.00000000
2.00472522 11.02035618 0.97997916 12 5 1031 11.24400000 879307819 879307819 5.00000000
0.72156161 3.96263361 -0.63793975 2 6 1032 4.07800000 879307822 879307822 -9.00000000
2.01082659 11.03202534 1.37687981 14 7 1033 11.29800000 879307824 879307824 7.00000000
2.00883269 11.01019287 -1.37419868 2 8 1034 11.27600000 879307826 879307826 -7.00000000
2.01424670 11.03986740 1.77740836 12 9 1034 11.36200000 879307829 879307829 9.00000000
1.44148147 7.89280128 -0.70195234 4 10 1035 8.05400000 879307831 879307831 -5.00000000
1.82989347 10.00965786 1.97792602 21 11 1036 10.36600000 879307833 879307833 11.00000000
2.01436186 11.00785255 -0.58647674 12 12 1037 11.20600000 879307836 879307836 -3.00000000
1.79560626 9.80276012 2.30079937 64 13 1038 10.22800000 879307838 879307838 13.00000000
2.02066612 11.02057648 -0.19557166 12 14 1039 11.20600000 879307840 879307840 -1.00000000
1.60231256 8.73890495 2.38061762 40 15 1039 9.19800000 879307843 879307843 15.00000000
0.41389665 2.23973060 -0.61029530 4 0 1047 2.35800000 879307863 879307863 -15.00000000
2.03979325 11.02721977 0.19574618 13 1 1048 11.21600000 879307866 879307866 1.00000000
0.48465031 2.61748862 -0.61456627 3 2 1049 2.73200000 879307868 879307868 -13.00000000
2.04333639 11.02485657 0.58762813 13 3 1050 11.22800000 879307870 879307870 3.00000000
0.58209944 3.14072752 -0.62089247 2 4 1050 3.25400000 879307872 879307872 -11.00000000
2.04536176 11.02504539 0.98102504 12 5 1051 11.25600000 879307875 879307875 5.00000000
0.73286474 3.94649553 -0.63574964 2 6 1052 4.06400000 879307877 879307877 -9.00000000
2.05440211 11.05226231 1.38029218 14 7 1053 11.32600000 879307879 879307879 7.00000000
2.05524158 11.04604912 -1.37956095 2 8 1054 11.32000000 879307882 879307882 -7.00000000
2.05433464 11.03046894 1.77709556 12 9 1055 11.36000000 879307884 879307884 9.00000000
1.46099818 7.84462976 -0.69811749 4 10 1055 8.01000000 879307886 879307886 -5.00000000
1.89036810 10.14023972 2.00502086 28 11 1056 10.50800000 879307889 879307889 11.00000000
2.05643773 11.02038860 -0.58752346 12 12 1057 11.22600000 879307891 879307891 -3.00000000
1.80834508 9.68149567 2.27380514 62 13 1058 10.10800000 879307893 879307893 13.00000000
2.05985761 11.01738644 -0.19564147 12 14 1059 11.21000000 879307896 879307896 -1.00000000
1.63255477 8.72347927 2.37802935 40 15 1060 9.18800000 879307898 879307898 15.00000000
0.41807473 2.22323060 -0.60615420 4 0 1065 2.34200000 879307919 879307919 -15.00000000
2.07368636 11.01682758 0.19567639 13 1 1066 11.21200000 879307921 879307921 1.00000000
0.49214935 2.61212301 -0.61366647 3 2 1067 2.72800000 879307923 879307923 -13.00000000
2.08203340 11.03997135 0.58877951 13 3 1068 11.25000000 879307925 879307925 3.00000000
0.59560180 3.15817571 -0.62470865 2 4 1068 3.27400000 879307928 879307928 -11.00000000
2.08294439 11.03422737 0.98241955 12 5 1069 11.27200000 879307930 879307930 5.00000000
0.74892700 3.96358418 -0.63887835 2 6 1070 4.08400000 879307932 879307932 -9.00000000
2.09058928 11.05355549 1.38126719 14 7 1071 11.33400000 879307935 879307935 7.00000000
2.08993363 11.03953743 -1.37956095 2 8 1072 11.32000000 879307937 879307937 -7.00000000
2.09183049 11.04955673 1.78116286 12 9 1072 11.38600000 879307939 879307939 9.00000000
1.49528015 7.89089775 -0.70264959 4 10 1073 8.06200000 879307942 879307942 -5.00000000
1.95367897 10.30013371 2.03784013 34 11 1074 10.68000000 879307944 879307944 11.00000000
2.09477448 11.03349495 -0.58857018 12 12 1075 11.24600000 879307946 879307946 -3.00000000
1.82201564 9.58770084 2.25310969 62 13 1076 10.01600000 879307949 879307949 13.00000000
2.09670162 11.02264786 -0.19585091 12 14 1077 11.22200000 879307951 879307951 -1.00000000
1.65843058 8.71859646 2.37802935 42 15 1077 9.18800000 879307953 879307953 15.00000000
0.42655998 2.22555232 -0.60718948 4 0 1085 2.34600000 879307974 879307974 -15.00000000
2.11476684 11.02326870 0.19592072 13 1 1086 11.22600000 879307976 879307976 1.00000000
0.50089687 2.60847545 -0.61321658 3 2 1087 2.72600000 879307978 879307978 -13.00000000
2.12395024 11.05028915 0.58972156 13 3 1088 11.26800000 879307981 879307981 3.00000000
0.60439885 3.14450955 -0.62241894 2 4 1088 3.26200000 879307983 879307983 -11.00000000
2.12295413 11.03471565 0.98311681 12 5 1089 11.28000000 879307985 879307985 5.00000000
0.75976962 3.94542789 -0.63637543 4 6 1090 4.06800000 879307988 879307988 -9.00000000
2.12916064 11.04619122 1.38126719 14 7 1091 11.33400000 879307990 879307990 7.00000000
2.12582374 11.01853085 -1.37785482 2 8 1092 11.30600000 879307992 879307992 -7.00000000
2.13306403 11.04569435 1.78178859 12 9 1093 11.39000000 879307995 879307995 9.00000000
1.51677108 7.85433006 -0.69986063 4 10 1093 8.03000000 879307997 879307997 -5.00000000
2.00042629 10.34915066 2.04890704 37 11 1094 10.73800000 879307999 879307999 11.00000000
2.13289642 11.02415562 -0.58846551 12 12 1095 11.24400000 879308001 879308001 -3.00000000
1.83138931 9.45692444 2.22386622 53 13 1096 9.88600000 879308004 879308004 13.00000000
2.13973141 11.03882027 -0.19626977 10 14 1097 11.24600000 879308006 879308006 -1.00000000
1.69111061 8.71625233 2.37906456 42 15 1098 9.19200000 879308008 879308008 15.00000000
0.43654764 2.23542619 -0.61029530 4 0 1105 2.35800000 879308029 879308029 -15.00000000
2.15476704 11.02367020 0.19606033 13 1 1106 11.23400000 879308031 879308031 1.00000000
0.50812823 2.59714866 -0.61096704 3 2 1107 2.71600000 879308034 879308034 -13.00000000
2.16404533 11.05064774 0.59014022 13 3 1108 11.27600000 879308036 879308036 3.00000000
0.61914450 3.16164732 -0.62623513 2 4 1108 3.28200000 879308038 879308038 -11.00000000
2.16605830 11.05070019 0.98520851 16 5 1109 11.30400000 879308041 879308041 5.00000000
0.77353710 3.94275165 -0.63637543 4 6 1110 4.06800000 879308043 879308043 -9.00000000
2.16923594 11.04648304 1.38224208 14 7 1111 11.34200000 879308045 879308045 7.00000000
2.16695261 11.02467823 -1.37956095 2 8 1112 11.32000000 879308048 879308048 -7.00000000
2.17349100 11.05794334 1.78491724 12 9 1112 11.41000000 879308050 879308050 9.00000000
1.54802454 7.86853695 -0.70160371 4 10 1113 8.05000000 879308052 879308052 -5.00000000
2.04033256 10.36136723 2.05272317 43 11 1114 10.75800000 879308054 879308054 11.00000000
2.17290998 11.02448082 -0.58888417 12 12 1115 11.25200000 879308057 879308057 -3.00000000
1.84364414 9.34532070 2.19912148 60 13 1116 9.77600000 879308059 879308059 13.00000000
2.18057537 11.04305458 -0.19647919 10 14 1117 11.25800000 879308061 879308061 -1.00000000
1.72262514 8.72386360 2.38268805 38 15 1117 9.20600000 879308064 879308064 15.00000000
0.44359431 2.23009920 -0.60926002 4 0 1125 2.35400000 879308084 879308084 -15.00000000
2.19713831 11.03569317 0.19640939 13 1 1126 11.25400000 879308087 879308087 1.00000000
0.51947600 2.60682607 -0.61366647 3 2 1127 2.72800000 879308089 879308089 -13.00000000
2.20416880 11.05086136 0.59055895 13 3 1128 11.28400000 879308091 879308091 3.00000000
0.62633675 3.14021349 -0.62241894 2 4 1128 3.26200000 879308094 879308094 -11.00000000
2.20851994 11.06260967 0.98695165 12 5 1129 11.32400000 879308096 879308096 5.00000000
0.78690809 3.93809032 -0.63606256 4 6 1130 4.06600000 879308098 879308098 -9.00000000
2.21245408 11.06220245 1.38516700 14 7 1131 11.36600000 879308101 879308101 7.00000000
2.21126747 11.04624367 -1.38321710 2 8 1132 11.35000000 879308103 879308103 -7.00000000
2.21749854 11.06733418 1.78773308 12 9 1133 11.42800000 879308105 879308105 9.00000000
1.57352436 7.85331726 -0.70073217 4 10 1133 8.04000000 879308107 879308107 -5.00000000
2.07764602 10.35995674 2.05386806 46 11 1134 10.76400000 879308110 879308110 11.00000000
2.21255851 11.02270317 -0.58919817 12 12 1135 11.25800000 879308112 879308112 -3.00000000
1.85821331 9.24903202 2.17797613 52 13 1136 9.68200000 879308114 879308114 13.00000000
2.21871543 11.03341484 -0.19644429 10 14 1137 11.25600000 879308117 879308117 -1.00000000
1.75839996 8.73643017 2.38786459 38 15 1138 9.22600000 879308119 879308119 15.00000000
0.44907513 2.21717668 -0.60615420 4 0 1145 2.34200000 879308140 879308140 -15.00000000
2.23922229 11.04559517 0.19672352 13 1 1146 11.27200000 879308142 879308142 1.00000000
0.52857232 2.60499692 -0.61366647 3 2 1147 2.72800000 879308144 879308144 -13.00000000
2.24511504 11.05484390 0.59118694 13 3 1148 11.29600000 879308147 879308147 3.00000000
0.63573140 3.13031220 -0.62089247 2 4 1148 3.25400000 879308149 879308149 -11.00000000
2.24950337 11.06654835 0.98799747 12 5 1149 11.33600000 879308151 879308151 5.00000000
0.80616337 3.96241975 -0.64044273 2 6 1150 4.09400000 879308154 879308154 -9.00000000
2.25501585 11.07386398 1.38760436 12 7 1151 11.38600000 879308156 879308156 7.00000000
2.25377703 11.05790901 -1.38565445 2 8 1152 11.37000000 879308158 879308158 -7.00000000
2.25379252 11.05798435 1.78742015 12 9 1152 11.42600000 879308160 879308160 9.00000000
1.60092795 7.84777689 -0.70073217 4 10 1153 8.04000000 879308163 879308163 -5.00000000
2.11536741 10.36033535 2.05539441 50 11 1154 10.77200000 879308165 879308165 11.00000000
2.25342083 11.02665424 -0.58982623 12 12 1155 11.27000000 879308167 879308167 -3.00000000
2.26042414 11.04127598 -0.19672352 8 14 1157 11.27200000 879308172 879308172 -1.00000000
1.78503656 8.71919537 2.38475871 40 15 1157 9.21400000 879308174 879308174 15.00000000
0.45720187 2.21748781 -0.60667187 4 0 1165 2.34400000 879308195 879308195 -15.00000000
2.27736092 11.03575325 0.19668862 13 1 1166 11.27000000 879308197 879308197 1.00000000
0.53923899 2.61076975 -0.61546606 3 2 1167 2.73600000 879308200 879308200 -13.00000000
2.28773332 11.06649876 0.59223366 13 3 1168 11.31600000 879308202 879308202 3.00000000
0.64903903 3.13960958 -0.62318218 2 4 1168 3.26600000 879308204 879308204 -11.00000000
2.28892660 11.06253052 0.98834610 12 5 1169 11.34000000 879308207 879308207 5.00000000
0.81798702 3.94990993 -0.63887835 2 6 1170 4.08400000 879308209 879308209 -9.00000000
2.29607439 11.07758713 1.38906682 12 7 1171 11.39800000 879308211 879308211 7.00000000
2.29195929 11.04803085 -1.38541067 2 8 1172 11.36800000 879308213 879308213 -7.00000000
2.29792118 11.06705666 1.79023600 12 9 1173 11.44400000 879308216 879308216 9.00000000
1.62588167 7.83043623 -0.69968629 8 10 1173 8.02800000 879308218 879308218 -5.00000000
2.15151882 10.35288906 2.05539441 46 11 1174 10.77200000 879308220 879308220 11.00000000
2.29555774 11.03631973 -0.59076828 12 12 1175 11.28800000 879308223 879308223 -3.00000000
1.82423782 8.76269054 2.06640029 6 13 1176 9.18600000 879308225 879308225 13.00000000
2.30139923 11.04506397 -0.19693296 8 14 1177 11.28400000 879308227 879308227 -1.00000000
1.81737638 8.71448517 2.38527632 45 15 1178 9.21600000 879308230 879308230 15.00000000
0.46533626 2.21776891 -0.60718948 4 0 1185 2.34600000 879308250 879308250 -15.00000000
2.31833482 11.03947830 0.19689804 13 1 1186 11.28200000 879308253 879308253 1.00000000
0.54834896 2.60887146 -0.61546606 3 2 1187 2.73600000 879308255 879308255 -13.00000000
2.32963800 11.07408142 0.59307104 13 3 1188 11.33200000 879308257 879308257 3.00000000
0.65918607 3.13348246 -0.62241894 2 4 1188 3.26200000 879308260 879308260 -11.00000000
2.33245397 11.07786942 0.99043787 12 5 1189 11.36400000 879308262 879308262 5.00000000
0.83054781 3.94123173 -0.63793975 4 6 1190 4.07800000 879308264 879308264 -9.00000000
2.33636713 11.07727432 1.39004171 12 7 1191 11.40600000 879308266 879308266 7.00000000
2.33379030 11.05550098 -1.38736057 2 8 1192 11.38400000 879308269 879308269 -7.00000000
2.33909631 11.08063698 1.79367757 12 9 1192 11.46600000 879308271 879308271 9.00000000
1.65279329 7.82276392 -0.69951200 8 10 1193 8.02600000 879308273 879308273 -5.00000000
2.18398857 10.32802868 2.05195999 50 11 1194 10.75400000 879308276 879308276 11.00000000
2.33448124 11.03019333 -0.59087294 12 12 1195 11.29000000 879308278 879308278 -3.00000000
1.86450624 8.80202389 2.07719803 8 13 1196 9.23400000 879308280 879308280 13.00000000
2.34284282 11.05065632 -0.19717729 12 14 1197 11.29800000 879308283 879308283 -1.00000000
1.84666538 8.71030045 2.38579392 40 15 1197 9.21800000 879308285 879308285 15.00000000
0.47468811 2.22368813 -0.60926002 4 0 1205 2.35400000 879308306 879308306 -15.00000000
2.36061597 11.04891872 0.19721219 13 1 1206 11.30000000 879308308 879308308 1.00000000
0.55337733 2.58788490 -0.61096704 3 2 1207 2.71600000 879308310 879308310 -13.00000000
2.36827970 11.06588173 0.59307104 13 3 1208 11.33200000 879308313 879308313 3.00000000
0.67094165 3.13500190 -0.62318218 2 4 1208 3.26600000 879308315 879308315 -11.00000000
2.37361264 11.08134937 0.99148375 12 5 1209 11.37600000 879308317 879308317 5.00000000
0.84264392 3.93058252 -0.63668829 4 6 1210 4.07000000 879308319 879308319 -9.00000000
2.37751842 11.08069706 1.39150417 12 7 1211 11.41800000 879308322 879308322 7.00000000
2.37486768 11.05893230 -1.38882303 2 8 1212 11.39600000 879308324 879308324 -7.00000000
2.38024926 11.08399200 1.79555476 12 9 1212 11.47800000 879308326 879308326 9.00000000
1.68343902 7.83253002 -0.70090646 8 10 1213 8.04200000 879308329 879308329 -5.00000000
2.22002673 10.32034206 2.05195999 50 11 1214 10.75400000 879308331 879308331 11.00000000
2.37212896 11.01807213 -0.59066361 12 12 1215 11.28600000 879308333 879308333 -3.00000000
2.38646126 11.06586838 -0.19759615 10 14 1217 11.32200000 879308338 879308338 -1.00000000
1.87787318 8.70757866 2.38682914 24 15 1217 9.22200000 879308340 879308340 15.00000000
0.48244733 2.22201777 -0.60926002 4 0 1225 2.35400000 879308361 879308361 -15.00000000
2.40341592 11.06015205 0.19756123 13 1 1226 11.32000000 879308363 879308363 1.00000000
0.56654882 2.60497975 -0.61546606 3 2 1227 2.73600000 879308366 879308366 -13.00000000
2.40986586 11.07120895 0.59380376 13 3 1228 11.34600000 879308368 879308368 3.00000000
0.68104565 3.12880421 -0.62241894 2 4 1228 3.26200000 879308370 879308370 -11.00000000
2.41482377 11.08467674 0.99252957 12 5 1229 11.38800000 879308372 879308372 5.00000000
0.86014640 3.94498754 -0.63950408 2 6 1230 4.08800000 879308375 879308375 -9.00000000
2.41956878 11.08784580 1.39345407 12 7 1231 11.43400000 879308377 879308377 7.00000000
2.41387963 11.05251503 -1.38906682 2 8 1232 11.39800000 879308379 879308379 -7.00000000
2.42212343 11.08098316 1.79649341 12 9 1233 11.48400000 879308382 879308382 9.00000000
1.71162033 7.83049870 -0.70125508 8 10 1233 8.04600000 879308384 879308384 -5.00000000
2.25855541 10.32403755 2.05424953 50 11 1234 10.76600000 879308386 879308386 11.00000000
2.41655517 11.03703976 -0.59212899 12 12 1235 11.31400000 879308389 879308389 -3.00000000
1.93383563 8.82496071 2.08574629 53 13 1236 9.27200000 879308391 879308391 13.00000000
2.42464542 11.05551720 -0.19756123 12 14 1237 11.32000000 879308393 879308393 -1.00000000
1.58338559 7.21967316 1.98048329 6 15 1237 7.65200000 879308395 879308395 15.00000000
0.48853475 2.21277452 -0.60718948 4 0 1245 2.34600000 879308416 879308416 -15.00000000
2.44502854 11.06536293 0.19780557 13 1 1246 11.33400000 879308419 879308419 1.00000000
0.57395530 2.59537530 -0.61366647 3 2 1247 2.72800000 879308421 879308421 -13.00000000
2.45108652 11.07442951 0.59443182 13 3 1248 11.35800000 879308423 879308423 3.00000000
0.69450861 3.13790894 -0.62470865 2 4 1248 3.27400000 879308425 879308425 -11.00000000
2.45436358 11.08007050 0.99287820 12 5 1249 11.39200000 879308428 879308428 5.00000000
0.87904233 3.96510363 -0.64325851 2 6 1250 4.11200000 879308430 879308430 -9.00000000
2.46341753 11.10258770 1.39637899 10 7 1251 11.45800000 879308432 879308432 7.00000000
1.17049515 5.27105427 -0.66296923 2 8 1252 5.44000000 879308435 879308435 -7.00000000
2.46250296 11.08017445 1.79774487 12 9 1253 11.49200000 879308437 879308437 9.00000000
1.73807895 7.82058668 -0.70090646 8 10 1253 8.04200000 879308439 879308439 -5.00000000
2.29415298 10.31417370 2.05386806 46 11 1254 10.76400000 879308442 879308442 11.00000000
2.45593500 11.03243637 -0.59233832 12 12 1255 11.31800000 879308444 879308444 -3.00000000
1.96547616 8.82196045 2.08664608 59 13 1256 9.27600000 879308446 879308446 13.00000000
2.46365666 11.04893780 -0.19759615 12 14 1257 11.32200000 879308448 879308448 -1.00000000
1.61278176 7.22701931 1.98410678 13 15 1258 7.66600000 879308451 879308451 15.00000000
0.49794808 2.21859550 -0.60926002 4 0 1265 2.35400000 879308472 879308472 -15.00000000
2.48583031 11.06651688 0.19798011 13 1 1266 11.34400000 879308474 879308474 1.00000000
0.58386618 2.59715867 -0.61456627 3 2 1267 2.73200000 879308476 879308476 -13.00000000
2.49498940 11.08918858 0.59568787 10 3 1268 11.38200000 879308478 879308478 3.00000000
0.70287204 3.12397337 -0.62241894 4 4 1268 3.26200000 879308481 879308481 -11.00000000
2.49565148 11.08309746 0.99392408 12 5 1269 11.40400000 879308483 879308483 5.00000000
0.88896924 3.94466758 -0.64044273 2 6 1270 4.09400000 879308485 879308485 -9.00000000
2.50390482 11.10166740 1.39735389 12 7 1271 11.46600000 879308488 879308488 7.00000000
1.18451655 5.24757242 -0.66053182 2 8 1272 5.42000000 879308490 879308490 -7.00000000
2.50638843 11.09463310 1.80149925 12 9 1273 11.51600000 879308492 879308492 9.00000000
1.76975763 7.83390617 -0.70264959 8 10 1273 8.06200000 879308495 879308495 -5.00000000
2.32927632 10.30227280 2.05310488 50 11 1274 10.76000000 879308497 879308497 11.00000000
2.50412774 11.06665230 -0.59464115 4 12 1275 11.36200000 879308499 879308499 -3.00000000
1.99625862 8.81504631 2.08664608 55 13 1276 9.27600000 879308501 879308501 13.00000000
2.50486183 11.05197239 -0.19780557 6 14 1277 11.33400000 879308504 879308504 -1.00000000
1.63374937 7.20844316 1.98048329 18 15 1277 7.65200000 879308506 879308506 15.00000000
0.50311154 2.20554304 -0.60615420 4 0 1285 2.34200000 879308527 879308527 -15.00000000
0.59119219 2.58750558 -0.61276668 3 2 1287 2.72400000 879308531 879308531 -13.00000000
2.53590894 11.09014702 0.59621119 2 3 1288 11.39200000 879308534 879308534 3.00000000
0.71727347 3.13681173 -0.62547189 2 4 1288 3.27800000 879308536 879308536 -11.00000000
0.89920527 3.92613626 -0.63793975 2 6 1290 4.07800000 879308541 879308541 -9.00000000
1.20726514 5.26275444 -0.66296923 2 8 1292 5.44000000 879308545 879308545 -7.00000000
2.54642653 11.09159184 1.80243790 12 9 1293 11.52200000 879308548 879308548 9.00000000
1.79441738 7.81602955 -0.70160371 8 10 1293 8.05000000 879308550 879308550 -5.00000000
2.36170673 10.27877235 2.05005193 46 11 1294 10.74400000 879308552 879308552 11.00000000
2.02614260 8.80422592 2.08574629 56 13 1296 9.27200000 879308557 879308557 13.00000000
1.66193676 7.21587420 1.98410678 18 15 1297 7.66600000 879308561 879308561 15.00000000
0.51347381 2.21703672 -0.60977769 3 0 1304 2.35600000 879308582 879308582 -15.00000000
0.60065013 2.58932757 -0.61366647 3 2 1306 2.72800000 879308587 879308587 -13.00000000
0.72500777 3.12294149 -0.62318218 2 4 1307 3.26600000 879308591 879308591 -11.00000000
0.91579896 3.93852520 -0.64044273 2 6 1309 4.09400000 879308596 879308596 -9.00000000
1.22110844 5.24325514 -0.66101933 2 8 1311 5.42400000 879308600 879308600 -7.00000000
1.82303989 7.82167816 -0.70264959 8 10 1312 8.06200000 879308605 879308605 -5.00000000
2.39577937 10.27088451 2.05005193 50 11 1313 10.74400000 879308607 879308607 11.00000000
2.05355406 8.78986835 2.08394647 57 13 1315 9.26400000 879308612 879308612 13.00000000
1.68981469 7.22725344 1.98876560 18 15 1316 7.68400000 879308617 879308617 15.00000000
0.52076715 2.21335030 -0.60926002 4 0 1324 2.35400000 879308637 879308637 -15.00000000
0.61057884 2.59100866 -0.61456627 3 2 1326 2.73200000 879308642 879308642 -13.00000000
0.73500311 3.11657000 -0.62241894 2 4 1327 3.26200000 879308647 879308647 -11.00000000
0.92954141 3.93530464 -0.64044273 2 6 1329 4.09400000 879308651 879308651 -9.00000000
1.24168837 5.24861956 -0.66223800 2 8 1331 5.43400000 879308656 879308656 -7.00000000
1.85583985 7.83853245 -0.70474136 8 10 1332 8.08600000 879308660 879308660 -5.00000000
2.43206954 10.26436901 2.05043340 50 11 1333 10.74600000 879308663 879308663 11.00000000
2.08332396 8.77885437 2.08304667 59 13 1335 9.26000000 879308667 879308667 13.00000000
1.71763277 7.22664976 1.99031842 18 15 1337 7.69000000 879308672 879308672 15.00000000
0.52759194 2.20776105 -0.60822475 4 0 1344 2.35000000 879308693 879308693 -15.00000000
0.61871225 2.58507109 -0.61366647 3 2 1346 2.72800000 879308697 879308697 -13.00000000
0.74862140 3.12544084 -0.62470865 2 4 1347 3.27400000 879308702 879308702 -11.00000000
0.94788057 3.95124459 -0.64357138 2 6 1349 4.11400000 879308706 879308706 -9.00000000
1.25582814 5.22688198 -0.66004437 2 8 1351 5.41600000 879308711 879308711 -7.00000000
1.87946391 7.81650925 -0.70334685 8 10 1352 8.07000000 879308716 879308716 -5.00000000
2.46650600 10.25009060 2.04928851 50 11 1353 10.74000000 879308718 879308718 11.00000000
2.11395526 8.77152824 2.08304667 60 13 1355 9.26000000 879308723 879308723 13.00000000
1.74249363 7.22467041 1.99135375 18 15 1356 7.69400000 879308727 879308727 15.00000000
0.53529525 2.20590615 -0.60822475 4 0 1364 2.35000000 879308748 879308748 -15.00000000
0.63187397 2.59993815 -0.61771560 4 2 1366 2.74600000 879308752 879308752 -13.00000000
0.75767076 3.11517811 -0.62318218 2 4 1367 3.26600000 879308757 879308757 -11.00000000
0.95371956 3.91528440 -0.63825262 2 6 1369 4.08000000 879308762 879308762 -9.00000000
1.28159344 5.25332260 -0.66394418 2 8 1371 5.44800000 879308766 879308766 -7.00000000
1.90295672 7.79441690 -0.70195234 8 10 1372 8.05400000 879308771 879308771 -5.00000000
2.50180459 10.23951149 2.04890704 50 11 1373 10.73800000 879308773 879308773 11.00000000
2.14456058 8.76409626 2.08304667 60 13 1375 9.26000000 879308778 879308778 13.00000000
1.76816130 7.22042036 1.99187136 18 15 1376 7.69600000 879308782 879308782 15.00000000
0.54299206 2.20402408 -0.60822475 4 0 1384 2.35000000 879308803 879308803 -15.00000000
0.63767785 2.58447266 -0.61456627 4 2 1386 2.73200000 879308808 879308808 -13.00000000
0.77136391 3.12395048 -0.62547189 2 4 1387 3.27800000 879308812 879308812 -11.00000000
0.96927744 3.91960192 -0.63950408 2 6 1389 4.08800000 879308817 879308817 -9.00000000
1.29992318 5.24881697 -0.66394418 2 8 1391 5.44800000 879308822 879308822 -7.00000000
1.93494570 7.80706549 -0.70369548 8 10 1392 8.07400000 879308826 879308826 -5.00000000
2.53516889 10.22118855 2.04699898 46 11 1393 10.72800000 879308829 879308829 11.00000000
2.17701912 8.76412201 2.08484626 60 13 1395 9.26800000 879308833 879308833 13.00000000
1.80021012 7.23638773 1.99808300 15 15 1397 7.72000000 879308838 879308838 15.00000000
0.55161953 2.20586348 -0.60926002 4 0 1404 2.35400000 879308858 879308858 -15.00000000
0.64669549 2.58223104 -0.61456627 3 2 1406 2.73200000 879308863 879308863 -13.00000000
0.78130931 3.11743021 -0.62470865 2 4 1407 3.27400000 879308868 879308868 -11.00000000
0.98776251 3.93535423 -0.64263278 2 6 1409 4.10800000 879308872 879308872 -9.00000000
1.32017279 5.25194836 -0.66491914 2 8 1411 5.45600000 879308877 879308877 -7.00000000
1.96315777 7.80412817 -0.70404410 8 10 1412 8.07800000 879308882 879308882 -5.00000000
2.56891489 10.20466137 2.04547238 43 11 1413 10.72000000 879308884 879308884 11.00000000
2.20474005 8.74513149 2.08214688 60 13 1415 9.25600000 879308888 879308888 13.00000000
1.82782340 7.23942518 2.00067115 13 15 1417 7.73000000 879308893 879308893 15.00000000
0.56160289 2.21131659 -0.61133057 4 0 1425 2.36200000 879308914 879308914 -15.00000000
0.65711617 2.58362079 -0.61546606 3 2 1427 2.73600000 879308918 879308918 -13.00000000
0.79563552 3.12596107 -0.62699836 2 4 1428 3.28600000 879308923 879308923 -11.00000000
0.99827629 3.91639400 -0.64012980 2 6 1430 4.09200000 879308928 879308928 -9.00000000
1.33548534 5.23168707 -0.66296923 2 8 1432 5.44000000 879308932 879308932 -7.00000000
1.99520004 7.81039333 -0.70526427 4 10 1433 8.09200000 879308937 879308937 -5.00000000
2.60775828 10.20088387 2.04661727 53 11 1434 10.72600000 879308939 879308939 11.00000000
2.23387790 8.72566509 2.07944751 64 13 1436 9.24400000 879308944 879308944 13.00000000
1.85866296 7.24951935 2.00532985 9 15 1438 7.74800000 879308948 879308948 15.00000000
0.56642598 2.19811845 -0.60822475 4 0 1445 2.35000000 879308969 879308969 -15.00000000
0.66710454 2.58508492 -0.61636591 3 2 1447 2.74000000 879308974 879308974 -13.00000000
0.80359697 3.11175942 -0.62470865 2 4 1448 3.27400000 879308978 879308978 -11.00000000
1.01144636 3.91097307 -0.63981694 2 6 1450 4.09000000 879308983 879308983 -9.00000000
1.35373926 5.22699356 -0.66296923 2 8 1452 5.44000000 879308988 879308988 -7.00000000
2.01795244 7.78602314 -0.70369548 4 10 1453 8.07400000 879308992 879308992 -5.00000000
2.64384294 10.19361973 2.04699898 46 11 1454 10.72800000 879308994 879308994 11.00000000
2.26628208 8.72535801 2.08124709 60 13 1456 9.25200000 879308999 879308999 13.00000000
1.89027917 7.26729250 2.01205921 9 15 1458 7.77400000 879309004 879309004 15.00000000
0.57175905 2.18875146 -0.60615420 4 0 1464 2.34200000 879309024 879309024 -15.00000000
0.67961890 2.59794092 -0.61996508 3 2 1466 2.75600000 879309029 879309029 -13.00000000
0.81192273 3.10148048 -0.62318218 4 4 1467 3.26600000 879309034 879309034 -11.00000000
1.03142321 3.93434882 -0.64419711 2 6 1469 4.11800000 879309038 879309038 -9.00000000
1.37509763 5.23783588 -0.66491914 2 8 1471 5.45600000 879309043 879309043 -7.00000000
2.04781079 7.79470444 -0.70508999 4 10 1472 8.09000000 879309047 879309047 -5.00000000
2.29520392 8.71779537 2.08124709 59 13 1475 9.25200000 879309054 879309054 13.00000000
1.94312370 7.37527227 2.04363513 9 15 1476 7.89600000 879309059 879309059 15.00000000
0.58335406 2.20168161 -0.61029530 4 0 1484 2.35800000 879309080 879309080 -15.00000000
0.68368554 2.57671714 -0.61546606 3 2 1486 2.73600000 879309084 879309084 -13.00000000
0.82778221 3.11760259 -0.62699836 2 4 1487 3.28600000 879309089 879309089 -11.00000000
1.04007435 3.91163397 -0.64106846 2 6 1489 4.09800000 879309093 879309093 -9.00000000
1.39439428 5.23684072 -0.66540664 2 8 1491 5.46000000 879309098 879309098 -7.00000000
2.07398105 7.78365850 -0.70474136 4 10 1492 8.08600000 879309103 879309103 -5.00000000
2.32662630 8.71349621 2.08214688 60 13 1495 9.25600000 879309110 879309110 13.00000000
2.02603292 7.57712507 2.10161066 13 15 1497 8.12000000 879309114 879309114 15.00000000
0.58802795 2.18843770 -0.60718948 4 0 1504 2.34600000 879309135 879309135 -15.00000000
0.68913144 2.56114244 -0.61231679 4 2 1506 2.72200000 879309140 879309140 -13.00000000
0.83559698 3.10331964 -0.62470865 4 4 1507 3.27400000 879309144 879309144 -11.00000000
1.05475068 3.91179419 -0.64169419 2 6 1509 4.10200000 879309149 879309149 -9.00000000
1.41266572 5.23194122 -0.66540664 2 8 1511 5.46000000 879309153 879309153 -7.00000000
2.09853983 7.76675415 -0.70386976 8 10 1512 8.07600000 879309158 879309158 -5.00000000
2.97055101 10.98647594 2.21223950 62 11 1513 11.59400000 879309160 879309160 11.00000000
2.35193491 8.68651104 2.07764792 59 13 1515 9.23600000 879309165 879309165 13.00000000
2.04255986 7.53866625 2.09281087 13 15 1516 8.08600000 879309170 879309170 15.00000000
0.59871030 2.19755530 -0.61029530 4 0 1524 2.35800000 879309190 879309190 -15.00000000
0.70165759 2.57188153 -0.61546606 3 2 1526 2.73600000 879309195 879309195 -13.00000000
0.85159504 3.11932349 -0.62852484 4 4 1527 3.29400000 879309199 879309199 -11.00000000
1.07256627 3.92333221 -0.64419711 2 6 1529 4.11800000 879309204 879309204 -9.00000000
1.42567861 5.20783186 -0.66296923 2 8 1531 5.44000000 879309209 879309209 -7.00000000
2.12984943 7.77475452 -0.70526427 8 10 1532 8.09200000 879309213 879309213 -5.00000000
3.01614952 11.00254726 2.21758223 62 11 1533 11.62200000 879309216 879309216 11.00000000
2.38327384 8.68200684 2.07854772 60 13 1535 9.24000000 879309220 879309220 13.00000000
2.07734537 7.55720758 2.10005784 38 15 1537 8.11400000 879309225 879309225 15.00000000
0.60702235 2.19928241 -0.61133057 4 0 1543 2.36200000 879309246 879309246 -15.00000000
0.71329725 2.58081031 -0.61816549 3 2 1545 2.74800000 879309250 879309250 -13.00000000
0.85774773 3.10134459 -0.62547189 2 4 1546 3.27800000 879309255 879309255 -11.00000000
1.08873403 3.93117619 -0.64607435 2 6 1548 4.13000000 879309259 879309259 -9.00000000
1.44612348 5.21455288 -0.66443163 2 8 1550 5.45200000 879309264 879309264 -7.00000000
2.15348864 7.75996971 -0.70456702 4 10 1551 8.08400000 879309269 879309269 -5.00000000
3.05629587 11.00572681 2.22025347 65 11 1552 11.63600000 879309271 879309271 11.00000000
2.41205120 8.67405605 2.07854772 59 13 1554 9.24000000 879309276 879309276 13.00000000
2.09227252 7.51900482 2.09125781 38 15 1555 8.08000000 879309280 879309280 15.00000000
0.61157268 2.18598747 -0.60822475 4 0 1563 2.35000000 879309301 879309301 -15.00000000
0.72177595 2.57642841 -0.61771560 4 2 1565 2.74600000 879309305 879309305 -13.00000000
0.86856824 3.09833145 -0.62547189 2 4 1566 3.27800000 879309310 879309310 -11.00000000
1.09497547 3.90072584 -0.64169419 2 6 1568 4.10200000 879309315 879309315 -9.00000000
1.46216822 5.20182896 -0.66345668 2 8 1570 5.44400000 879309319 879309319 -7.00000000
2.17678642 7.73897934 -0.70334685 8 10 1571 8.07000000 879309324 879309324 -5.00000000
3.09841776 11.00822067 2.22292471 62 11 1572 11.65000000 879309326 879309326 11.00000000
2.44125748 8.66183186 2.07764792 60 13 1574 9.23600000 879309331 879309331 13.00000000
2.12296534 7.52244139 2.09436369 40 15 1576 8.09200000 879309335 879309335 15.00000000
0.61814553 2.18012238 -0.60718948 4 0 1583 2.34600000 879309356 879309356 -15.00000000
0.72703928 2.56077051 -0.61456627 3 2 1585 2.73200000 879309361 879309361 -13.00000000
0.87830508 3.09150362 -0.62470865 2 4 1586 3.27400000 879309365 879309365 -11.00000000
1.11398995 3.91587973 -0.64482284 2 6 1588 4.12200000 879309370 879309370 -9.00000000
1.48358011 5.20814848 -0.66491914 2 8 1590 5.45600000 879309375 879309375 -7.00000000
2.20924902 7.75049448 -0.70508999 8 10 1591 8.09000000 879309379 879309379 -5.00000000
3.13897872 11.00488949 2.22445130 62 11 1592 11.65800000 879309381 879309381 11.00000000
2.47254825 8.65700531 2.07854772 60 13 1594 9.24000000 879309386 879309386 13.00000000
2.15002251 7.52278996 2.09643435 40 15 1595 8.10000000 879309391 879309391 15.00000000
0.62788564 2.18537807 -0.60926002 4 0 1603 2.35400000 879309411 879309411 -15.00000000
0.73597360 2.55821729 -0.61456627 3 2 1605 2.73200000 879309416 879309416 -13.00000000
0.88800484 3.08464575 -0.62394542 2 4 1606 3.27000000 879309421 879309421 -11.00000000
1.12765217 3.91196728 -0.64482284 2 6 1608 4.12200000 879309425 879309425 -9.00000000
1.49734688 5.18768024 -0.66296923 2 8 1610 5.44000000 879309430 879309430 -7.00000000
2.23518419 7.73890734 -0.70474136 8 10 1611 8.08600000 879309434 879309434 -5.00000000
3.18391514 11.01649857 2.22903061 59 11 1612 11.68200000 879309437 879309437 11.00000000
2.49950147 8.63709068 2.07584834 59 13 1614 9.22800000 879309441 879309441 13.00000000
2.17811799 7.51671457 2.09695196 42 15 1616 8.10200000 879309446 879309446 15.00000000
0.63659012 2.18688297 -0.61029530 4 0 1623 2.35800000 879309467 879309467 -15.00000000
0.74489897 2.55563259 -0.61456627 3 2 1625 2.73200000 879309471 879309471 -13.00000000
0.90206504 3.09283566 -0.62623513 2 4 1626 3.28200000 879309476 879309476 -11.00000000
1.13465548 3.88525319 -0.64106846 2 6 1628 4.09800000 879309481 879309481 -9.00000000
1.51767480 5.19004297 -0.66394418 2 8 1630 5.44800000 879309485 879309485 -7.00000000
2.26442242 7.73870659 -0.70543855 13 10 1631 8.09400000 879309490 879309490 -5.00000000
3.22566056 11.01662159 2.23132038 62 11 1632 11.69400000 879309492 879309492 11.00000000
2.52744246 8.62083244 2.07404876 60 13 1634 9.22000000 879309497 879309497 13.00000000
2.20575142 7.51871920 2.09954000 40 15 1635 8.11200000 879309501 879309501 15.00000000
0.64421988 2.18464732 -0.61029530 4 0 1643 2.35800000 879309522 879309522 -15.00000000
0.75602263 2.56049275 -0.61636591 3 2 1645 2.74000000 879309527 879309527 -13.00000000
0.91174304 3.08590245 -0.62547189 2 4 1646 3.27800000 879309531 879309531 -11.00000000
1.15493512 3.90399957 -0.64482284 2 6 1648 4.12200000 879309536 879309536 -9.00000000
1.54423904 5.21326399 -0.66760027 2 8 1650 5.47800000 879309540 879309540 -7.00000000
2.28802466 7.71929407 -0.70439273 8 10 1651 8.08200000 879309545 879309545 -5.00000000
3.26912022 11.02223492 2.23475504 56 11 1652 11.71200000 879309547 879309547 11.00000000
2.55973840 8.61943054 2.07584834 57 13 1654 9.22800000 879309552 879309552 13.00000000
2.22833872 7.49391842 2.09488130 40 15 1656 8.09400000 879309557 879309557 15.00000000
0.64666212 2.16780281 -0.60615420 4 0 1661 2.34200000 879309577 879309577 -15.00000000
0.76406288 2.55810499 -0.61636591 3 2 1663 2.74000000 879309582 879309582 -13.00000000
0.92030877 3.07926083 -0.62470865 2 4 1664 3.27400000 879309587 879309587 -11.00000000
1.16606152 3.89656711 -0.64419711 2 6 1666 4.11800000 879309591 879309591 -9.00000000
1.55434191 5.18746948 -0.66491914 2 8 1668 5.45600000 879309596 879309596 -7.00000000
2.31684184 7.72733545 -0.70578718 8 10 1669 8.09800000 879309600 879309600 -5.00000000
3.30598807 11.01943207 2.23628139 59 11 1670 11.72000000 879309603 879309603 11.00000000
2.58792567 8.61507893 2.07674813 56 13 1672 9.23200000 879309607 879309607 13.00000000
2.24945140 7.48357391 2.09384608 42 15 1673 8.09000000 879309612 879309612 15.00000000
0.65645999 2.17292953 -0.60822475 4 0 1681 2.35000000 879309633 879309633 -15.00000000
0.77073079 2.54796124 -0.61456627 3 2 1683 2.73200000 879309637 879309637 -13.00000000
0.93560183 3.09106207 -0.62776160 2 4 1684 3.29000000 879309642 879309642 -11.00000000
1.18080187 3.89625382 -0.64482284 2 6 1686 4.12200000 879309646 879309646 -9.00000000
1.57705128 5.19720888 -0.66686904 2 8 1688 5.47200000 879309651 879309651 -7.00000000
2.34843183 7.73445272 -0.70718169 8 10 1689 8.11400000 879309656 879309656 -5.00000000
2.61798215 8.60599232 2.07674813 59 13 1692 9.23200000 879309663 879309663 13.00000000
2.27556038 7.47567606 2.09384608 45 15 1693 8.09000000 879309667 879309667 15.00000000
0.66517121 2.17431951 -0.60926002 4 0 1701 2.35400000 879309688 879309688 -15.00000000
0.78304452 2.55643511 -0.61726570 3 2 1703 2.74400000 879309693 879309693 -13.00000000
0.94638592 3.08777738 -0.62776160 2 4 1704 3.29000000 879309697 879309697 -11.00000000
1.19091797 3.88077760 -0.64294565 2 6 1706 4.11000000 879309702 879309702 -9.00000000
1.58818698 5.16890144 -0.66394418 2 8 1708 5.44800000 879309706 879309706 -7.00000000
2.38010001 7.74144316 -0.70857620 8 10 1709 8.13000000 879309711 879309711 -5.00000000
3.39380527 11.03173637 2.24353218 56 11 1710 11.75800000 879309713 879309713 11.00000000
2.64456487 8.58562756 2.07404876 62 13 1712 9.22000000 879309718 879309718 13.00000000
2.30164146 7.46768761 2.09384608 42 15 1713 8.09000000 879309722 879309722 15.00000000
0.67504328 2.17936587 -0.61133057 4 0 1721 2.36200000 879309743 879309743 -15.00000000
0.79023170 2.54810238 -0.61591601 4 2 1723 2.73800000 879309748 879309748 -13.00000000
0.95832223 3.08820510 -0.62852484 4 4 1724 3.29400000 879309752 879309752 -11.00000000
1.20445716 3.87659693 -0.64294565 2 6 1726 4.11000000 879309757 879309757 -9.00000000
1.61093736 5.17849016 -0.66589409 4 8 1728 5.46400000 879309762 879309762 -7.00000000
2.41421413 7.75591612 -0.71066791 8 10 1729 8.15400000 879309766 879309766 -5.00000000
3.43929839 11.04231644 2.24811149 59 11 1730 11.78200000 879309769 879309769 11.00000000
2.67103720 8.56518173 2.07134938 59 13 1732 9.20800000 879309773 879309773 13.00000000
2.33014798 7.46288919 2.09488130 42 15 1734 8.09400000 879309778 879309778 15.00000000
0.68186980 2.17319059 -0.61029530 4 0 1742 2.35800000 879309799 879309799 -15.00000000
0.80423808 2.56006217 -0.61951518 4 2 1744 2.75400000 879309803 879309803 -13.00000000
0.96551359 3.07156157 -0.62585348 4 4 1745 3.28000000 879309808 879309808 -11.00000000
1.21628547 3.86461926 -0.64169419 2 6 1747 4.10200000 879309812 879309812 -9.00000000
1.63467944 5.18769789 -0.66784400 2 8 1749 5.48000000 879309817 879309817 -7.00000000
2.44262457 7.74701548 -0.71066791 8 10 1750 8.15400000 879309822 879309822 -5.00000000
