# .PCD v0.7 - Point Cloud Data file format
VERSION 0.7
FIELDS x y z intensity laser_id azimuth distance_m adjustedtime timestamp vertical_angle
SIZE 4 4 4 1 1 2 8 8 4 8
TYPE F F F U U U F U U F
COUNT 1 1 1 1 1 1 1 1 1 1
WIDTH 555
HEIGHT 1
VIEWPOINT 0 0 0 1 0 0 0
POINTS 555
DATA ascii
2.58515048 3.13380885 -0.35542113 11 10 3952 4.07800000 881615944 881615944 -5.00000000
2.62036157 3.17536402 0.80025291 14 11 3953 4.19400000 881615947 881615947 11.00000000
2.59002233 3.13748288 -0.21321669 7 12 3954 4.07400000 881615949 881615949 -3.00000000
2.60208941 3.15098047 0.94344473 46 13 3955 4.19400000 881615951 881615951 13.00000000
2.59173083 3.13732147 -0.07103129 7 14 3956 4.07000000 881615954 881615954 -1.00000000
2.61385608 3.16297984 1.09946334 22 15 3957 4.24800000 881615956 881615956 15.00000000
1.45921779 1.76138616 -0.61288351 3 0 3964 2.36800000 881615977 881615977 -15.00000000
2.58772373 3.12246871 0.07078696 7 1 3965 4.05600000 881615979 881615979 1.00000000
1.73626864 2.09431887 -0.62806332 3 2 3966 2.79200000 881615981 881615981 -13.00000000
2.61370897 3.15158391 0.21457742 8 3 3967 4.10000000 881615984 881615984 3.00000000
2.09045863 2.52065396 -0.63653880 4 4 3967 3.33600000 881615986 881615986 -11.00000000
2.61170149 3.14804482 0.35786149 6 5 3968 4.10600000 881615988 881615988 5.00000000
2.57480669 3.10247135 -0.63856548 9 6 3969 4.08200000 881615991 881615991 -9.00000000
2.62351894 3.16004395 0.50429535 7 7 3970 4.13800000 881615993 881615993 7.00000000
2.58475399 3.11224580 -0.49673945 12 8 3971 4.07600000 881615995 881615995 -7.00000000
2.60491729 3.13652396 0.64576149 42 9 3971 4.12800000 881615997 881615997 9.00000000
2.58334160 3.10944080 -0.35367802 9 10 3972 4.05800000 881616000 881616000 -5.00000000
2.61511660 3.14656949 0.79529190 20 11 3973 4.16800000 881616002 881616002 11.00000000
2.59457397 3.12074399 -0.21269332 7 12 3974 4.06400000 881616004 881616004 -3.00000000
2.61058044 3.13888168 0.94254494 21 13 3975 4.19000000 881616007 881616007 13.00000000
2.59755063 3.12210655 -0.07089168 7 14 3976 4.06200000 881616009 881616009 -1.00000000
2.60826826 3.13498855 1.09273398 36 15 3976 4.22200000 881616011 881616011 15.00000000
1.46783257 1.75924850 -0.61391878 3 0 3984 2.37200000 881616032 881616032 -15.00000000
2.58451247 3.09652948 0.07040301 7 1 3985 4.03400000 881616034 881616034 1.00000000
1.73357677 2.07627845 -0.62446415 3 2 3986 2.77600000 881616037 881616037 -13.00000000
2.61445141 3.13017797 0.21374005 8 3 3987 4.08400000 881616039 881616039 3.00000000
2.09672761 2.51032805 -0.63577557 4 4 3987 3.33200000 881616041 881616041 -11.00000000
2.61500931 3.12973547 0.35681561 6 5 3988 4.09400000 881616044 881616044 5.00000000
2.57548594 3.08133936 -0.63606256 9 6 3989 4.06600000 881616046 881616046 -9.00000000
2.61670709 3.12954640 0.50088298 8 7 3990 4.11000000 881616048 881616048 7.00000000
2.59178114 3.09863615 -0.49600822 12 8 3991 4.07000000 881616050 881616050 -7.00000000
2.61259270 3.12241030 0.64482284 30 9 3992 4.12200000 881616053 881616053 9.00000000
2.58906555 3.09429216 -0.35298076 9 10 3992 4.05000000 881616055 881616055 -5.00000000
2.61348319 3.12236714 0.79147571 44 11 3993 4.14800000 881616057 881616057 11.00000000
2.59262967 3.09635496 -0.21164660 7 12 3994 4.04400000 881616060 881616060 -3.00000000
2.61151075 3.11779881 0.93894571 12 13 3995 4.17400000 881616062 881616062 13.00000000
2.60072708 3.10382390 -0.07068224 7 14 3996 4.05000000 881616064 881616064 -1.00000000
2.61725903 3.12244654 1.09169877 62 15 3997 4.21800000 881616067 881616067 15.00000000
1.47396457 1.75411415 -0.61391878 4 0 4004 2.37200000 881616087 881616087 -15.00000000
2.59401894 3.08595824 0.07036810 7 1 4005 4.03200000 881616090 881616090 1.00000000
1.74583054 2.07618046 -0.62626374 3 2 4006 2.78400000 881616092 881616092 -13.00000000
2.61636209 3.11033392 0.21300735 8 3 4007 4.07000000 881616094 881616094 3.00000000
2.11558795 2.51501298 -0.63882852 4 4 4007 3.34800000 881616097 881616097 -11.00000000
2.62078691 3.11449051 0.35611835 6 5 4008 4.08600000 881616099 881616099 5.00000000
2.58113766 3.06628561 -0.63481104 9 6 4009 4.05800000 881616101 881616101 -9.00000000
2.61355019 3.10369062 0.49820188 7 7 4010 4.08800000 881616103 881616103 7.00000000
2.58723474 3.07135177 -0.49308336 10 8 4011 4.04600000 881616106 881616106 -7.00000000
2.62165999 3.11221886 0.64450997 18 9 4011 4.12000000 881616108 881616108 9.00000000
2.59728312 3.08218861 -0.35263214 13 10 4012 4.04600000 881616110 881616110 -5.00000000
2.61930490 3.10722089 0.78994924 70 11 4013 4.14000000 881616113 881616113 11.00000000
2.59054661 3.07201767 -0.21059988 9 12 4014 4.02400000 881616115 881616115 -3.00000000
2.60638690 3.08861375 -0.07054263 7 14 4016 4.04200000 881616120 881616120 -1.00000000
2.62759900 3.11375022 1.09169877 68 15 4016 4.21800000 881616122 881616122 15.00000000
1.48756635 1.75780630 -0.61702460 4 0 4024 2.38400000 881616143 881616143 -15.00000000
2.60089898 3.07230592 0.07026339 7 1 4025 4.02600000 881616145 881616145 1.00000000
1.75054836 2.06709957 -0.62536395 3 2 4026 2.78000000 881616147 881616147 -13.00000000
2.61300230 3.08441901 0.21185595 8 3 4027 4.04800000 881616150 881616150 3.00000000
2.11673975 2.49862504 -0.63653880 4 4 4027 3.33600000 881616152 881616152 -11.00000000
2.62777829 3.10076332 0.35559544 8 5 4028 4.08000000 881616154 881616154 5.00000000
2.58671570 3.05122995 -0.63355958 9 6 4029 4.05000000 881616156 881616156 -9.00000000
2.62565207 3.09606266 0.49844560 7 7 4030 4.09000000 881616159 881616159 7.00000000
2.58895040 3.05170584 -0.49137720 8 8 4031 4.03200000 881616161 881616161 -7.00000000
2.61972857 3.08798504 0.64138132 8 9 4031 4.10000000 881616163 881616163 9.00000000
2.59771276 3.06095099 -0.35123765 13 10 4032 4.03000000 881616166 881616166 -5.00000000
2.62251163 3.08907914 0.78765953 62 11 4033 4.12800000 881616168 881616168 11.00000000
2.59349704 3.05382204 -0.20997186 9 12 4034 4.01200000 881616170 881616170 -3.00000000
2.61428738 3.07721400 0.93219715 57 13 4035 4.14400000 881616173 881616173 13.00000000
2.59902263 3.05816436 -0.07005396 8 14 4036 4.01400000 881616175 881616175 -1.00000000
2.62969470 3.09425497 1.08807528 66 15 4036 4.20400000 881616177 881616177 15.00000000
1.49369311 1.75260305 -0.61702460 4 0 4044 2.38400000 881616198 881616198 -15.00000000
2.60512066 3.05559993 0.07008886 7 1 4045 4.01600000 881616200 881616200 1.00000000
1.76534069 2.06987262 -0.62806332 3 2 4046 2.79200000 881616203 881616203 -13.00000000
2.61208606 3.06160450 0.21091390 8 3 4047 4.03000000 881616205 881616205 3.00000000
2.12035179 2.48524690 -0.63501233 4 4 4047 3.32800000 881616207 881616207 -11.00000000
2.62177134 3.07187057 0.35332939 6 5 4048 4.05400000 881616209 881616209 5.00000000
2.59222007 3.03617287 -0.63230813 9 6 4049 4.04200000 881616212 881616212 -9.00000000
2.62741876 3.07631207 0.49673945 7 7 4050 4.07600000 881616214 881616214 7.00000000
2.59056091 3.03208518 -0.48967102 10 8 4051 4.01800000 881616216 881616216 -7.00000000
2.62076163 3.06634951 0.63887835 8 9 4052 4.08400000 881616219 881616219 9.00000000
2.60320354 3.04580641 -0.35054040 13 10 4052 4.02200000 881616221 881616221 -5.00000000
2.63072681 3.07692170 0.78689629 70 11 4053 4.12400000 881616223 881616223 11.00000000
2.60414100 3.04475045 -0.20997186 9 12 4054 4.01200000 881616226 881616226 -3.00000000
2.61614466 3.05770469 0.92904788 55 13 4055 4.13000000 881616228 881616228 13.00000000
2.59407830 3.03084278 -0.06963510 8 14 4056 3.99000000 881616230 881616230 -1.00000000
2.62917399 3.07184768 1.08341658 68 15 4056 4.18600000 881616232 881616232 15.00000000
1.49099422 1.73711693 -0.61340111 4 0 4064 2.37000000 881616253 881616253 -15.00000000
2.60274410 3.03131580 0.06973982 6 1 4065 3.99600000 881616256 881616256 1.00000000
1.78271294 2.07552433 -0.63166255 3 2 4066 2.80800000 881616258 881616258 -13.00000000
2.62015390 3.04943824 0.21070457 7 3 4067 4.02600000 881616260 881616260 3.00000000
2.13157296 2.48080850 -0.63577557 4 4 4067 3.33200000 881616262 881616262 -11.00000000
2.61299777 3.04003596 0.35071471 6 5 4068 4.02400000 881616265 881616265 5.00000000
2.59249949 3.01512313 -0.62980515 9 6 4069 4.02600000 881616267 881616267 -9.00000000
2.63425779 3.06260705 0.49600822 7 7 4070 4.07000000 881616269 881616269 7.00000000
2.59077096 3.01098609 -0.48772112 8 8 4071 4.00200000 881616272 881616272 -7.00000000
2.62500596 3.04969692 0.63731402 8 9 4072 4.07400000 881616274 881616274 9.00000000
2.60342145 3.02462053 -0.34914592 13 10 4072 4.00600000 881616276 881616276 -5.00000000
2.63120317 3.05581808 0.78384334 64 11 4073 4.10800000 881616279 881616279 11.00000000
2.60562897 3.02504873 -0.20923916 8 12 4074 3.99800000 881616281 881616281 -3.00000000
2.62553000 3.04707766 0.92859793 55 13 4075 4.12800000 881616283 881616283 13.00000000
2.60203099 3.01873994 -0.06956529 9 14 4076 3.98600000 881616285 881616285 -1.00000000
2.62527680 3.04463387 1.07720482 70 15 4077 4.16200000 881616288 881616288 15.00000000
1.50179875 1.73801005 -0.61547166 4 0 4083 2.37800000 881616309 881616309 -15.00000000
2.59839725 3.00602698 0.06935586 8 1 4084 3.97400000 881616311 881616311 1.00000000
1.76919174 2.04601598 -0.62446415 3 2 4085 2.77600000 881616313 881616313 -13.00000000
2.62894511 3.03922200 0.21059988 8 3 4086 4.02400000 881616315 881616315 3.00000000
2.14492536 2.47966552 -0.63730204 4 4 4086 3.34000000 881616318 881616318 -11.00000000
2.61784959 3.02532768 0.35001746 6 5 4087 4.01600000 881616320 881616320 5.00000000
2.59214115 2.99456120 -0.62730223 9 6 4088 4.01000000 881616322 881616322 -9.00000000
2.63270402 3.04034877 0.49381459 7 7 4089 4.05200000 881616325 881616325 7.00000000
2.61243916 3.01588225 -0.48991477 6 8 4090 4.02000000 881616327 881616327 -7.00000000
2.62734294 3.03201818 0.63543677 8 9 4091 4.06200000 881616329 881616329 9.00000000
2.60691333 3.00844193 -0.34827435 8 10 4091 3.99600000 881616332 881616332 -5.00000000
2.63103461 3.03520799 0.78079039 62 11 4092 4.09200000 881616334 881616334 11.00000000
2.60910368 3.00884676 -0.20871580 7 12 4093 3.98800000 881616336 881616336 -3.00000000
2.63178921 3.03393817 0.92724824 55 13 4094 4.12200000 881616338 881616338 13.00000000
2.60940599 3.00707412 -0.06949548 6 14 4095 3.98200000 881616341 881616341 -1.00000000
2.63103032 3.03199410 1.07565200 64 15 4095 4.15600000 881616343 881616343 15.00000000
1.50532007 1.72984254 -0.61443639 3 0 4103 2.37400000 881616364 881616364 -15.00000000
2.61150026 2.99995494 0.06942567 6 1 4104 3.97800000 881616366 881616366 1.00000000
1.77632284 2.03982782 -0.62446415 3 2 4105 2.77600000 881616368 881616368 -13.00000000
2.62641907 3.01496696 0.20955317 7 3 4106 4.00400000 881616371 881616371 3.00000000
2.15614700 2.47512388 -0.63806528 4 4 4106 3.34400000 881616373 881616373 -11.00000000
2.62054014 3.00715876 0.34897161 6 5 4107 4.00400000 881616375 881616375 5.00000000
2.59219384 2.97358251 -0.62479925 8 6 4108 3.99400000 881616378 881616378 -9.00000000
2.63025379 3.01617908 0.49137720 7 7 4109 4.03200000 881616380 881616380 7.00000000
2.59032679 2.96934748 -0.48382130 33 8 4110 3.97000000 881616382 881616382 -7.00000000
2.63791060 3.02282858 0.63543677 8 9 4111 4.06200000 881616385 881616385 9.00000000
2.58726883 2.96479702 -0.34426519 12 10 4111 3.95000000 881616387 881616387 -5.00000000
2.63644910 3.02008939 0.77926391 68 11 4112 4.08400000 881616389 881616389 11.00000000
2.58017850 2.95458984 -0.20557563 12 12 4113 3.92800000 881616391 881616391 -3.00000000
2.62826085 3.00858927 0.92229933 55 13 4114 4.10000000 881616394 881616394 13.00000000
2.60014868 2.97536111 -0.06897191 13 14 4115 3.95200000 881616396 881616396 -1.00000000
2.63397074 3.01406360 1.07254612 66 15 4115 4.14400000 881616398 881616398 15.00000000
1.51771545 1.73184192 -0.61702460 4 0 4123 2.38400000 881616419 881616419 -15.00000000
2.60218287 2.96826577 0.06890210 17 1 4124 3.94800000 881616421 881616421 1.00000000
1.78857195 2.03947544 -0.62626374 3 2 4125 2.78400000 881616424 881616424 -13.00000000
2.60479736 2.97020221 0.20704104 16 3 4125 3.95600000 881616426 881616426 3.00000000
2.15700555 2.45872760 -0.63577557 4 4 4126 3.33200000 881616428 881616428 -11.00000000
2.62839293 2.99499798 0.34862298 17 5 4127 4.00000000 881616431 881616431 5.00000000
2.60255790 2.96451592 -0.62479925 8 6 4128 3.99400000 881616433 881616433 -9.00000000
2.61849785 2.98162293 0.48723364 9 7 4129 3.99800000 881616435 881616435 7.00000000
2.59150481 2.94984818 -0.48211512 5 8 4130 3.95600000 881616437 881616437 -7.00000000
2.63488269 2.99922395 0.63230813 8 9 4130 4.04200000 881616440 881616440 9.00000000
2.59497166 2.95275474 -0.34391657 23 10 4131 3.94600000 881616442 881616442 -5.00000000
2.64178991 3.00497031 0.77773744 66 11 4132 4.07600000 881616444 881616444 11.00000000
2.60102820 2.95756364 -0.20641302 21 12 4133 3.94400000 881616447 881616447 -3.00000000
2.62201309 2.98037601 0.91645062 54 13 4134 4.07400000 881616449 881616449 13.00000000
2.60655546 2.96176314 -0.06886720 22 14 4135 3.94600000 881616451 881616451 -1.00000000
2.64319944 3.00340080 1.07202852 70 15 4135 4.14200000 881616454 881616454 15.00000000
1.51991653 1.72218823 -0.61547166 4 0 4143 2.37800000 881616474 881616474 -15.00000000
2.60988116 2.95616627 0.06883229 16 1 4144 3.94400000 881616477 881616477 1.00000000
1.79826021 2.03614092 -0.62716353 3 2 4145 2.78800000 881616479 881616479 -13.00000000
2.60640955 2.95015764 0.20630834 17 3 4146 3.94200000 881616481 881616481 3.00000000
2.16297507 2.44824052 -0.63501233 5 4 4146 3.32800000 881616484 881616484 -11.00000000
2.62167883 2.96639729 0.34635693 15 5 4147 3.97400000 881616486 881616486 5.00000000
2.59718919 2.93765402 -0.62104481 8 6 4148 3.97000000 881616488 881616488 -9.00000000
2.62888980 2.97246456 0.48723364 11 7 4149 3.99800000 881616490 881616490 7.00000000
2.59520912 2.93335032 -0.48089644 1 8 4150 3.94600000 881616493 881616493 -7.00000000
2.63014746 2.97179556 0.62855369 8 9 4151 4.01800000 881616495 881616495 9.00000000
2.64705753 2.98985076 0.77621096 70 11 4152 4.06800000 881616500 881616500 11.00000000
2.62981606 2.96828818 0.91555077 54 13 4154 4.07000000 881616504 881616504 13.00000000
2.64265537 2.98068309 1.06736970 62 15 4156 4.12400000 881616509 881616509 15.00000000
1.52591884 1.71687222 -0.61547166 4 0 4163 2.37800000 881616530 881616530 -15.00000000
1.81312716 2.03858829 -0.62986296 3 2 4165 2.80000000 881616534 881616534 -13.00000000
2.17411780 2.44360900 -0.63577557 5 4 4166 3.33200000 881616539 881616539 -11.00000000
2.59954643 2.91971827 -0.61916763 8 6 4168 3.95800000 881616543 881616543 -9.00000000
2.64849162 2.97364664 0.48893979 5 7 4169 4.01200000 881616546 881616546 7.00000000
2.59486818 2.91241622 -0.47894651 7 8 4170 3.93000000 881616548 881616548 -7.00000000
2.63393331 2.95522332 0.62698936 10 9 4171 4.00800000 881616550 881616550 9.00000000
2.58635783 2.90184450 -0.34008172 8 10 4171 3.90200000 881616553 881616553 -5.00000000
2.64571929 2.96740413 0.77277642 36 11 4172 4.05000000 881616555 881616555 11.00000000
2.60432982 2.91995621 -0.20505227 5 12 4173 3.91800000 881616557 881616557 -3.00000000
2.64145875 2.96054435 0.91600066 21 13 4174 4.07200000 881616560 881616560 13.00000000
2.59654307 2.90918064 -0.06806438 4 14 4175 3.90000000 881616562 881616562 -1.00000000
2.64737940 2.96613812 1.06529915 38 15 4175 4.11600000 881616564 881616564 15.00000000
1.53447938 1.71441424 -0.61650699 4 0 4183 2.38200000 881616585 881616585 -15.00000000
2.60244346 2.90658808 0.06809929 8 1 4184 3.90200000 881616587 881616587 1.00000000
1.80983078 2.02063417 -0.62626374 3 2 4185 2.78400000 881616589 881616589 -13.00000000
2.62109995 2.92639709 0.20588966 6 3 4185 3.93400000 881616592 881616592 3.00000000
2.18656468 2.44039154 -0.63692045 5 4 4186 3.33800000 881616594 881616594 -11.00000000
2.62636662 2.93021846 0.34426519 6 5 4187 3.95000000 881616596 881616596 5.00000000
2.60972214 2.91062617 -0.61916763 8 6 4188 3.95800000 881616599 881616599 -9.00000000
2.64692640 2.95108366 0.48674616 6 7 4189 3.99400000 881616601 881616601 7.00000000
2.61562443 2.91516089 -0.48089644 3 8 4190 3.94600000 881616603 881616603 -7.00000000
2.64687181 2.94895124 0.62761509 14 9 4191 4.01200000 881616606 881616606 9.00000000
2.61510324 2.91355705 -0.34252205 6 10 4191 3.93000000 881616608 881616608 -5.00000000
2.64556813 2.94646406 0.76972347 12 11 4192 4.03400000 881616610 881616610 11.00000000
2.60916805 2.90490389 -0.20463359 7 12 4193 3.91000000 881616613 881616613 -3.00000000
2.65568423 2.95565462 0.91735041 11 13 4194 4.07800000 881616615 881616615 13.00000000
2.60801888 2.90158653 -0.06809929 4 14 4195 3.90200000 881616617 881616617 -1.00000000
2.65255141 2.95113182 1.06322861 10 15 4195 4.10800000 881616619 881616619 15.00000000
1.53528070 1.70330763 -0.61443639 4 0 4203 2.37400000 881616640 881616640 -15.00000000
2.61926889 2.90491199 0.06827381 3 1 4204 3.91200000 881616642 881616642 1.00000000
1.80904174 2.00562191 -0.62356430 3 2 4205 2.77200000 881616645 881616645 -13.00000000
2.63180804 2.91677070 0.20588966 3 3 4206 3.93400000 881616647 881616647 3.00000000
2.19507003 2.43274426 -0.63692045 5 4 4206 3.33800000 881616649 881616649 -11.00000000
2.63390899 2.91807485 0.34391657 1 5 4207 3.94600000 881616652 881616652 5.00000000
2.63442850 2.91762638 -0.62260920 8 6 4208 3.98000000 881616654 881616654 -9.00000000
2.65055847 2.93446064 0.48552746 6 7 4209 3.98400000 881616656 881616656 7.00000000
2.64574718 2.92810631 -0.48455250 5 8 4210 3.97600000 881616659 881616659 -7.00000000
2.66458225 2.94895172 0.62949228 14 9 4210 4.02400000 881616661 881616661 9.00000000
2.64663363 2.92805982 -0.34531105 2 10 4211 3.96200000 881616663 881616663 -5.00000000
2.65978742 2.94158006 0.77086836 10 11 4212 4.04000000 881616666 881616666 11.00000000
2.63804936 2.91651559 -0.20609899 1 12 4213 3.93800000 881616668 881616668 -3.00000000
2.66729259 2.94781160 0.91780031 9 13 4214 4.08000000 881616670 881616670 13.00000000
2.65033793 2.92804646 -0.06893700 1 14 4215 3.95000000 881616672 881616672 -1.00000000
2.66983342 2.94855022 1.06581688 8 15 4216 4.11800000 881616675 881616675 15.00000000
1.54381382 1.70079899 -0.61547166 4 0 4223 2.37800000 881616695 881616695 -15.00000000
2.65358996 2.92239928 0.06890210 1 1 4224 3.94800000 881616698 881616698 1.00000000
1.82389331 2.00794983 -0.62626374 3 2 4225 2.78400000 881616700 881616700 -13.00000000
2.63609457 2.90211368 0.20547096 1 3 4225 3.92600000 881616702 881616702 3.00000000
2.19430661 2.41489601 -0.63424909 5 4 4226 3.32400000 881616705 881616705 -11.00000000
2.67624211 2.94424701 0.34810004 1 5 4227 3.99400000 881616707 881616707 5.00000000
2.65788627 2.92302799 -0.62573785 11 6 4228 4.00000000 881616709 881616709 -9.00000000
2.67280722 2.93840671 0.48772112 7 7 4229 4.00200000 881616712 881616712 7.00000000
2.64660001 2.90857553 -0.48284635 26 8 4230 3.96200000 881616714 881616714 -7.00000000
2.67537284 2.93916583 0.62949228 8 9 4231 4.02400000 881616716 881616716 9.00000000
2.65415597 2.91585684 -0.34496242 25 10 4231 3.95800000 881616719 881616719 -5.00000000
2.68722248 2.95114899 0.77582937 8 11 4232 4.06600000 881616721 881616721 11.00000000
2.65090370 2.91024232 -0.20630834 15 12 4233 3.94200000 881616723 881616723 -3.00000000
2.68281627 2.94424462 0.91959989 8 13 4234 4.08800000 881616725 881616725 13.00000000
2.65919566 2.91729927 -0.06890210 17 14 4235 3.94800000 881616728 881616728 -1.00000000
2.69312620 2.95348763 1.07099319 8 15 4236 4.13800000 881616730 881616730 15.00000000
1.54292965 1.68853951 -0.61288351 3 0 4242 2.36800000 881616751 881616751 -15.00000000
2.67001224 2.92096353 0.06907663 22 1 4243 3.95800000 881616753 881616753 1.00000000
1.83843219 2.01051950 -0.62896317 3 2 4244 2.79600000 881616755 881616755 -13.00000000
2.67265940 2.92283511 0.20756440 19 3 4244 3.96600000 881616758 881616758 3.00000000
2.20230246 2.40760612 -0.63424909 5 4 4245 3.32400000 881616760 881616760 -11.00000000
2.68330073 2.93241644 0.34775141 18 5 4246 3.99000000 881616762 881616762 5.00000000
2.68090272 2.92876911 -0.62886655 9 6 4247 4.02000000 881616765 881616765 -9.00000000
2.69460201 2.94270349 0.48991477 7 7 4248 4.02000000 881616767 881616767 7.00000000
2.68841124 2.93491411 -0.48869607 6 8 4249 4.01000000 881616769 881616769 -7.00000000
2.69393349 2.94094276 0.63168240 8 9 4249 4.03800000 881616772 881616772 9.00000000
2.67592502 2.92025971 -0.34653124 8 10 4250 3.97600000 881616774 881616774 -5.00000000
2.71158671 2.95814109 0.78002715 8 11 4251 4.08800000 881616776 881616776 11.00000000
2.66863871 2.91026807 -0.20693637 14 12 4252 3.95400000 881616778 881616778 -3.00000000
2.70442080 2.94825673 0.92364901 8 13 4253 4.10600000 881616781 881616781 13.00000000
2.65668702 2.89520454 -0.06858796 6 14 4254 3.93000000 881616783 881616783 -1.00000000
2.70813084 2.95023346 1.07306373 8 15 4255 4.14600000 881616785 881616785 15.00000000
1.55404687 1.68882978 -0.61495405 4 0 4262 2.37600000 881616806 881616806 -15.00000000
2.69779801 2.93075204 0.06953039 6 1 4263 3.98400000 881616808 881616808 1.00000000
1.85071921 2.00982404 -0.63076276 3 2 4264 2.80400000 881616811 881616811 -13.00000000
2.70043373 2.93258786 0.20892514 4 3 4264 3.99200000 881616813 881616813 3.00000000
2.21202326 2.40134811 -0.63463074 5 4 4265 3.32600000 881616815 881616815 -11.00000000
2.69217038 2.92156696 0.34757710 4 5 4266 3.98800000 881616818 881616818 5.00000000
2.69512606 2.92375040 -0.62980515 9 6 4267 4.02600000 881616820 881616820 -9.00000000
2.72773433 2.95808864 0.49405831 7 7 4268 4.05400000 881616822 881616822 7.00000000
2.70806122 2.93572569 -0.49040225 8 8 4269 4.02400000 881616825 881616825 -7.00000000
2.72159457 2.95039678 0.63574964 8 9 4269 4.06400000 881616827 881616827 9.00000000
2.69691157 2.92261505 -0.34792572 8 10 4270 3.99200000 881616829 881616829 -5.00000000
2.72855449 2.95587087 0.78193527 8 11 4271 4.09800000 881616831 881616831 11.00000000
2.70859075 2.93321657 -0.20923916 7 12 4272 3.99800000 881616834 881616834 -3.00000000
2.72659636 2.95168161 0.92769814 8 13 4273 4.12400000 881616836 881616836 13.00000000
2.70341969 2.92556715 -0.06953039 8 14 4274 3.98400000 881616838 881616838 -1.00000000
2.72365808 2.94643664 1.07513428 8 15 4275 4.15400000 881616841 881616841 15.00000000
1.55861950 1.68197775 -0.61443639 4 0 4282 2.37400000 881616861 881616861 -15.00000000
2.70801187 2.92131710 0.06953039 8 1 4283 3.98400000 881616864 881616864 1.00000000
1.84977317 1.99477804 -0.62806332 3 2 4284 2.79200000 881616866 881616866 -13.00000000
2.73509860 2.94950485 0.21080923 7 3 4284 4.02800000 881616868 881616868 3.00000000
2.22439766 2.39793015 -0.63577557 5 4 4285 3.33200000 881616871 881616871 -11.00000000
2.73081207 2.94282126 0.35123765 6 5 4286 4.03000000 881616873 881616873 5.00000000
2.71337914 2.92301130 -0.63168240 9 6 4287 4.03800000 881616875 881616875 -9.00000000
2.73669267 2.94709420 0.49381459 7 7 4288 4.05200000 881616877 881616877 7.00000000
2.72774959 2.93643570 -0.49210840 8 8 4289 4.03800000 881616880 881616880 -7.00000000
2.74397659 2.95390415 0.63856548 8 9 4289 4.08200000 881616882 881616882 9.00000000
2.72337222 2.93069744 -0.35001746 9 10 4290 4.01600000 881616884 881616884 -5.00000000
2.74152899 2.94920421 0.78269851 8 11 4291 4.10200000 881616887 881616887 11.00000000
2.72561336 2.93105698 -0.20976251 7 12 4292 4.00800000 881616889 881616889 -3.00000000
2.75015593 2.95641446 0.93219715 8 13 4293 4.14400000 881616891 881616891 13.00000000
2.73677373 2.94099927 -0.07012377 7 14 4294 4.01800000 881616894 881616894 -1.00000000
2.75183845 2.95718789 1.08238125 8 15 4294 4.18200000 881616896 881616896 15.00000000
1.56975317 1.68217659 -0.61650699 4 0 4302 2.38200000 881616917 881616917 -15.00000000
2.73456740 2.92938781 0.06994925 7 1 4303 4.00800000 881616919 881616919 1.00000000
1.85140491 1.98261189 -0.62626374 3 2 4304 2.78400000 881616921 881616921 -13.00000000
2.74537778 2.93993950 0.21080923 7 3 4304 4.02800000 881616924 881616924 3.00000000
2.23677492 2.39445472 -0.63692045 5 4 4305 3.33800000 881616926 881616926 -11.00000000
2.75195050 2.94491673 0.35263214 6 5 4306 4.04600000 881616928 881616928 5.00000000
2.73570657 2.92650962 -0.63449818 11 6 4307 4.05600000 881616930 881616930 -9.00000000
2.75645423 2.94767284 0.49552074 7 7 4308 4.06600000 881616933 881616933 7.00000000
2.74883199 2.93849373 -0.49405831 10 8 4309 4.05400000 881616935 881616935 -7.00000000
2.76776576 2.95873380 0.64169419 8 9 4309 4.10200000 881616937 881616937 9.00000000
2.74719906 2.93572092 -0.35176057 9 10 4310 4.03600000 881616940 881616940 -5.00000000
2.76924896 2.95824885 0.78765953 8 11 4311 4.12800000 881616942 881616942 11.00000000
2.74948001 2.93610334 -0.21080923 7 12 4312 4.02800000 881616944 881616944 -3.00000000
2.76978493 2.95675206 0.93534648 7 13 4313 4.15800000 881616947 881616947 13.00000000
2.76069665 2.94601965 -0.07047281 7 14 4314 4.03800000 881616949 881616949 -1.00000000
2.77058578 2.95553851 1.08548713 8 15 4315 4.19400000 881616951 881616951 15.00000000
1.57796824 1.67977786 -0.61754227 4 0 4321 2.38600000 881616972 881616972 -15.00000000
2.76343799 2.94070482 0.07043792 8 1 4322 4.03600000 881616974 881616974 1.00000000
1.86063874 1.97930121 -0.62716353 3 2 4323 2.78800000 881616977 881616977 -13.00000000
2.76520085 2.94052339 0.21154194 7 3 4324 4.04200000 881616979 881616979 3.00000000
2.24201322 2.38416386 -0.63615721 5 4 4324 3.33400000 881616981 881616981 -11.00000000
2.78490877 2.96044517 0.35559544 6 5 4325 4.08000000 881616983 881616983 5.00000000
2.75622606 2.92893004 -0.63700116 9 6 4326 4.07200000 881616986 881616986 -9.00000000
2.78118110 2.95441556 0.49820188 7 7 4327 4.08800000 881616988 881616988 7.00000000
2.76400495 2.93514276 -0.49503326 10 8 4328 4.06200000 881616990 881616990 -7.00000000
2.78704166 2.95960593 0.64388424 8 9 4328 4.11600000 881616993 881616993 9.00000000
2.77058077 2.94109726 -0.35350370 9 10 4329 4.05600000 881616995 881616995 -5.00000000
2.78577590 2.95619345 0.78956765 8 11 4330 4.13800000 881616997 881616997 11.00000000
2.77290154 2.94150281 -0.21185595 7 12 4331 4.04800000 881617000 881617000 -3.00000000
2.78091168 2.94896865 0.93579638 8 13 4332 4.16000000 881617002 881617002 13.00000000
2.77593970 2.94266701 -0.07061244 7 14 4333 4.04600000 881617004 881617004 -1.00000000
2.78781104 2.95525146 1.08859289 8 15 4333 4.20600000 881617007 881617007 15.00000000
1.58116698 1.67145276 -0.61650699 4 0 4341 2.38200000 881617027 881617027 -15.00000000
2.78880525 2.94701767 0.07082187 8 1 4342 4.05800000 881617030 881617030 1.00000000
1.87825406 1.98411596 -0.63076276 3 2 4343 2.80400000 881617032 881617032 -13.00000000
2.78918147 2.94535518 0.21258865 7 3 4344 4.06200000 881617034 881617034 3.00000000
2.23817253 2.36349368 -0.63272262 5 4 4344 3.31600000 881617036 881617036 -11.00000000
2.80481696 2.96083093 0.35681561 6 5 4345 4.09400000 881617039 881617039 5.00000000
2.77458572 2.92789435 -0.63887835 9 6 4346 4.08400000 881617041 881617041 -9.00000000
2.80513382 2.95909572 0.50063926 7 7 4347 4.10800000 881617043 881617043 7.00000000
2.78789306 2.93988085 -0.49747065 10 8 4348 4.08200000 881617046 881617046 -7.00000000
2.79787040 2.94937110 0.64388424 8 9 4349 4.11600000 881617048 881617048 9.00000000
2.78631520 2.93719006 -0.35420093 9 10 4349 4.06400000 881617050 881617050 -5.00000000
2.81094337 2.96211624 0.79376543 8 11 4350 4.16000000 881617053 881617053 11.00000000
2.79827809 2.94773936 -0.21300735 7 12 4351 4.07000000 881617055 881617055 -3.00000000
2.80997539 2.95902681 0.94209504 8 13 4352 4.18800000 881617057 881617057 13.00000000
2.79170346 2.93875861 -0.07075205 7 14 4353 4.05400000 881617060 881617060 -1.00000000
2.81326246 2.96041799 1.09428692 8 15 4354 4.22800000 881617062 881617062 15.00000000
1.58195162 1.66005218 -0.61443639 4 0 4362 2.37400000 881617083 881617083 -15.00000000
2.80510712 2.94256592 0.07096148 7 1 4363 4.06600000 881617085 881617085 1.00000000
1.88282382 1.97439790 -0.62986296 3 2 4364 2.80000000 881617087 881617087 -13.00000000
2.81925869 2.95534468 0.21405406 7 3 4365 4.09000000 881617089 881617089 3.00000000
2.25495100 2.36379766 -0.63501233 5 4 4365 3.32800000 881617092 881617092 -11.00000000
2.81977677 2.95485497 0.35733855 6 5 4366 4.10000000 881617094 881617094 5.00000000
2.79348230 2.92627835 -0.64075559 9 6 4367 4.09600000 881617096 881617096 -9.00000000
2.83104134 2.96458650 0.50332040 7 7 4368 4.13000000 881617099 881617099 7.00000000
2.80961919 2.94112611 -0.49942058 10 8 4369 4.09800000 881617101 881617101 -7.00000000
2.81906462 2.95101380 0.64638722 8 9 4369 4.13200000 881617103 881617103 9.00000000
2.80532074 2.93560052 -0.35524681 9 10 4370 4.07600000 881617106 881617106 -5.00000000
2.82585120 2.95605135 0.79491025 8 11 4371 4.16600000 881617108 881617108 11.00000000
2.82148671 2.95045447 -0.21394938 7 12 4372 4.08800000 881617110 881617110 -3.00000000
2.83561969 2.96419764 0.94704396 9 13 4373 4.21000000 881617113 881617113 13.00000000
2.81489897 2.94150949 -0.07106620 7 14 4374 4.07200000 881617115 881617115 -1.00000000
2.83426428 2.96174574 1.09842801 8 15 4374 4.24400000 881617117 881617117 15.00000000
1.58372378 1.65033841 -0.61288351 4 0 4382 2.36800000 881617138 881617138 -15.00000000
2.82228565 2.93996930 0.07113601 7 1 4383 4.07600000 881617140 881617140 1.00000000
1.88970435 1.96781361 -0.62986296 3 2 4384 2.80000000 881617142 881617142 -13.00000000
2.84616113 2.96276951 0.21531013 7 3 4385 4.11400000 881617145 881617145 3.00000000
2.26726866 2.36015964 -0.63615721 5 4 4385 3.33400000 881617147 881617147 -11.00000000
2.84525967 2.96079659 0.35925597 6 5 4386 4.12200000 881617149 881617149 5.00000000
2.81600070 2.92932606 -0.64357138 9 6 4387 4.11400000 881617152 881617152 -9.00000000
2.85100412 2.96470237 0.50502658 7 7 4388 4.14400000 881617154 881617154 7.00000000
2.84051180 2.95275974 -0.50307667 10 8 4389 4.12800000 881617156 881617156 -7.00000000
2.85451698 2.96628189 0.65201885 8 9 4390 4.16800000 881617159 881617159 9.00000000
2.83489227 2.94588900 -0.35768718 9 10 4390 4.10400000 881617161 881617161 -5.00000000
2.85249138 2.96314192 0.79948968 8 11 4391 4.19000000 881617163 881617163 11.00000000
2.84146643 2.95065832 -0.21468209 7 12 4392 4.10200000 881617165 881617165 -3.00000000
2.86622930 2.97533345 0.95379245 9 13 4393 4.24000000 881617168 881617168 13.00000000
2.83902550 2.94606471 -0.07141525 7 14 4394 4.09200000 881617170 881617170 -1.00000000
2.85716748 2.96385527 1.10308683 8 15 4395 4.26200000 881617172 881617172 15.00000000
1.59158468 1.64813411 -0.61391878 4 0 4400 2.37200000 881617193 881617193 -15.00000000
2.84262276 2.94259405 0.07141525 7 1 4401 4.09200000 881617195 881617195 1.00000000
1.88233507 1.94785392 -0.62536395 3 2 4402 2.78000000 881617198 881617198 -13.00000000
2.85961938 2.95812154 0.21562414 7 3 4403 4.12000000 881617200 881617200 3.00000000
2.28149462 2.36008263 -0.63806528 5 4 4403 3.34400000 881617202 881617202 -11.00000000
2.87532258 2.97332692 0.36187065 6 5 4404 4.15200000 881617205 881617205 5.00000000
2.83343029 2.92898345 -0.64544863 9 6 4405 4.12600000 881617207 881617207 -9.00000000
2.86168432 2.95715737 0.50527030 7 7 4406 4.14600000 881617209 881617209 7.00000000
2.85391617 2.94810033 -0.50380784 10 8 4407 4.13400000 881617212 881617212 -7.00000000
2.87429714 2.96915364 0.65452182 8 9 4407 4.18400000 881617214 881617214 9.00000000
2.85937929 2.95271230 -0.35960460 9 10 4408 4.12600000 881617216 881617216 -5.00000000
2.86998224 2.96262646 0.80177939 8 11 4409 4.20200000 881617218 881617218 11.00000000
2.85628176 2.94745421 -0.21510078 7 12 4410 4.11000000 881617221 881617221 -3.00000000
2.87963176 2.97051191 0.95514220 9 13 4411 4.24600000 881617223 881617223 13.00000000
2.86636448 2.95579338 -0.07186901 7 14 4412 4.11800000 881617225 881617225 -1.00000000
2.88881183 2.97894120 1.11188662 8 15 4412 4.29600000 881617228 881617228 15.00000000
1.60406208 1.64949322 -0.61650699 4 0 4420 2.38200000 881617248 881617248 -15.00000000
2.87379241 2.95415401 0.07193882 7 1 4421 4.12200000 881617251 881617251 1.00000000
1.89184105 1.94406462 -0.62626374 3 2 4422 2.78400000 881617253 881617253 -13.00000000
2.87828684 2.95670819 0.21625218 7 3 4423 4.13200000 881617255 881617255 3.00000000
2.28424120 2.34647751 -0.63653880 5 4 4423 3.33600000 881617258 881617258 -11.00000000
2.89402413 2.97183633 0.36291650 7 5 4424 4.16400000 881617260 881617260 5.00000000
2.85190749 2.92756486 -0.64732581 9 6 4425 4.13800000 881617262 881617262 -9.00000000
2.88999987 2.96563220 0.50843889 7 7 4426 4.17200000 881617265 881617265 7.00000000
2.87388945 2.94807053 -0.50551403 8 8 4427 4.14800000 881617267 881617267 -7.00000000
2.88653946 2.96001315 0.65483469 8 9 4428 4.18600000 881617269 881617269 9.00000000
2.88496995 2.95840383 -0.36152202 9 10 4428 4.14800000 881617271 881617271 -5.00000000
2.89401555 2.96664357 0.80559558 8 11 4429 4.22200000 881617274 881617274 11.00000000
2.87631726 2.94747186 -0.21583349 7 12 4430 4.12400000 881617276 881617276 -3.00000000
2.89815092 2.96880865 0.95784158 8 13 4431 4.25800000 881617278 881617278 13.00000000
2.87806177 2.94720054 -0.07190391 7 14 4432 4.12000000 881617281 881617281 -1.00000000
2.91591024 2.98491597 1.11809826 8 15 4433 4.32000000 881617283 881617283 15.00000000
1.60575521 1.63974321 -0.61495405 4 0 4440 2.37600000 881617304 881617304 -15.00000000
2.90087938 2.96124625 0.07235768 7 1 4441 4.14600000 881617306 881617306 1.00000000
1.89861560 1.93744898 -0.62626374 3 2 4442 2.78400000 881617308 881617308 -13.00000000
2.90396976 2.96233201 0.21740356 7 3 4443 4.15400000 881617311 881617311 3.00000000
2.28417206 2.33007789 -0.63424909 5 4 4443 3.32400000 881617313 881617313 -11.00000000
2.91414523 2.97167397 0.36413670 7 5 4444 4.17800000 881617315 881617315 5.00000000
2.87179255 2.92746305 -0.64951593 11 6 4445 4.15200000 881617318 881617318 -9.00000000
2.91979957 2.97536182 0.51185125 7 7 4446 4.20000000 881617320 881617320 7.00000000
2.89945936 2.95360327 -0.50819516 8 8 4447 4.17000000 881617322 881617322 -7.00000000
2.91294503 2.96734071 0.65858912 8 9 4447 4.21000000 881617324 881617324 9.00000000
2.90365505 2.95684481 -0.36256790 9 10 4448 4.16000000 881617327 881617327 -5.00000000
2.92499065 2.97753143 0.81131983 8 11 4449 4.25200000 881617329 881617329 11.00000000
2.90198731 2.95308375 -0.21698487 7 12 4450 4.14600000 881617331 881617331 -3.00000000
2.92762208 2.97813010 0.96414024 8 13 4451 4.28600000 881617334 881617334 13.00000000
2.90095067 2.94996834 -0.07221806 7 14 4452 4.13800000 881617336 881617336 -1.00000000
2.93391991 2.98349452 1.12120414 8 15 4452 4.33200000 881617338 881617338 15.00000000
1.61146915 1.63412809 -0.61495405 3 0 4460 2.37600000 881617359 881617359 -15.00000000
2.91681576 2.95679665 0.07249729 7 1 4461 4.15400000 881617361 881617361 1.00000000
1.91084218 1.93635809 -0.62806332 3 2 4462 2.79200000 881617364 881617364 -13.00000000
2.93113017 2.96923351 0.21865962 7 3 4463 4.17800000 881617366 881617366 3.00000000
2.30332541 2.33326769 -0.63730204 5 4 4463 3.34000000 881617368 881617368 -11.00000000
2.93290019 2.96998954 0.36518255 7 5 4464 4.19000000 881617371 881617371 5.00000000
2.88060570 2.91601562 -0.64920300 11 6 4465 4.15000000 881617373 881617373 -9.00000000
2.94272566 2.97785950 0.51404488 7 7 4466 4.21800000 881617375 881617375 7.00000000
2.92928982 2.96322846 -0.51160753 8 8 4467 4.19800000 881617377 881617377 -7.00000000
2.94046926 2.97349930 0.66234350 8 9 4468 4.23400000 881617380 881617380 9.00000000
2.92516637 2.95802450 -0.36396238 9 10 4468 4.17600000 881617382 881617382 -5.00000000
2.94917345 2.98126030 0.81513602 8 11 4469 4.27200000 881617384 881617384 11.00000000
2.92913604 2.95997167 -0.21824093 7 12 4470 4.17000000 881617387 881617387 -3.00000000
2.95170975 2.98174191 0.96863925 8 13 4471 4.30600000 881617389 881617389 13.00000000
2.92670822 2.95545411 -0.07260201 7 14 4472 4.16000000 881617391 881617391 -1.00000000
2.95027351 2.97821093 1.12327468 8 15 4473 4.34000000 881617394 881617394 15.00000000
1.62124729 1.63260543 -0.61650699 4 0 4480 2.38200000 881617414 881617414 -15.00000000
2.93698406 2.95652795 0.07274163 7 1 4481 4.16800000 881617417 881617417 1.00000000
1.90934789 1.92138255 -0.62536395 3 2 4482 2.78000000 881617419 881617419 -13.00000000
2.96118999 2.97881436 0.22012503 7 3 4483 4.20600000 881617421 881617421 3.00000000
2.30176735 2.31546688 -0.63463074 6 4 4483 3.32600000 881617424 881617424 -11.00000000
2.95870328 2.97527409 0.36710000 7 5 4484 4.21200000 881617426 881617426 5.00000000
2.89355302 2.90874362 -0.64982879 11 6 4485 4.15400000 881617428 881617428 -9.00000000
2.96150374 2.97601199 0.51550734 7 7 4486 4.23000000 881617430 881617430 7.00000000
2.95642138 2.96986771 -0.51453239 8 8 4487 4.22200000 881617433 881617433 -7.00000000
2.96843076 2.98193169 0.66641080 8 9 4487 4.26000000 881617435 881617435 9.00000000
2.94953275 2.96191359 -0.36570549 9 10 4488 4.19600000 881617437 881617437 -5.00000000
2.97064638 2.98207498 0.81818897 8 11 4489 4.28800000 881617440 881617440 11.00000000
2.95072889 2.96104693 -0.21907832 8 12 4490 4.18600000 881617442 881617442 -3.00000000
2.97585797 2.98522162 0.97313827 8 13 4491 4.32600000 881617444 881617444 13.00000000
2.95536304 2.96362758 -0.07305577 7 14 4492 4.18600000 881617447 881617447 -1.00000000
2.97650266 2.98482633 1.12948632 8 15 4492 4.36400000 881617449 881617449 15.00000000
1.62283814 1.62283814 -0.61495405 3 0 4500 2.37600000 881617470 881617470 -15.00000000
2.96142888 2.96039534 0.07309068 7 1 4501 4.18800000 881617472 881617472 1.00000000
1.91052926 1.90919602 -0.62356430 3 2 4502 2.77200000 881617474 881617474 -13.00000000
2.98146105 2.97834039 0.22085774 7 3 4503 4.22000000 881617477 881617477 3.00000000
2.32233644 2.31990576 -0.63806528 5 4 4503 3.34400000 881617479 881617479 -11.00000000
2.98175931 2.97759891 0.36866879 7 5 4504 4.23000000 881617481 881617481 5.00000000
2.90648484 2.90141654 -0.65045452 11 6 4505 4.15800000 881617483 881617483 -9.00000000
2.98030496 2.97406936 0.51696974 7 7 4506 4.24200000 881617486 881617486 7.00000000
2.97098613 2.96373558 -0.51526356 8 8 4507 4.22800000 881617488 881617488 -7.00000000
2.98441553 2.97713208 0.66766232 8 9 4507 4.26800000 881617490 881617490 9.00000000
2.97678328 2.96848226 -0.36779723 9 10 4508 4.22000000 881617493 881617493 -5.00000000
2.99216104 2.98277569 0.82124192 8 11 4509 4.30400000 881617495 881617495 11.00000000
2.96953535 2.95918775 -0.21970634 8 12 4510 4.19800000 881617497 881617497 -3.00000000
2.99454379 2.98306751 0.97583765 8 13 4511 4.33800000 881617500 881617500 13.00000000
2.98552752 2.97304773 -0.07354444 7 14 4512 4.21400000 881617502 881617502 -1.00000000
2.99922347 2.98668671 1.13414502 8 15 4512 4.38200000 881617504 881617504 15.00000000
1.63151729 1.61960125 -0.61598933 3 0 4521 2.38000000 881617525 881617525 -15.00000000
2.98929238 2.96642399 0.07350954 7 1 4522 4.21200000 881617527 881617527 1.00000000
1.92581499 1.91041529 -0.62626374 3 2 4523 2.78400000 881617530 881617530 -13.00000000
2.99802995 2.97301817 0.22127642 7 3 4524 4.22800000 881617532 881617532 3.00000000
2.32664156 2.30723119 -0.63692045 8 4 4524 3.33800000 881617534 881617534 -11.00000000
3.01246214 2.98628759 0.37110916 7 5 4525 4.25800000 881617536 881617536 5.00000000
2.92130899 2.89491558 -0.65139312 9 6 4526 4.16400000 881617539 881617539 -9.00000000
3.00528812 2.97709656 0.51940715 7 7 4527 4.26200000 881617541 881617541 7.00000000
2.98747087 2.95841360 -0.51623851 8 8 4528 4.23600000 881617543 881617543 -7.00000000
3.01688266 2.98649645 0.67235535 8 9 4529 4.29800000 881617546 881617546 9.00000000
3.00463462 2.97437191 -0.36988896 9 10 4529 4.24400000 881617548 881617548 -5.00000000
3.02121449 2.98974109 0.82620293 8 11 4530 4.33000000 881617550 881617550 11.00000000
3.00165987 2.96935320 -0.22127642 8 12 4531 4.22800000 881617553 881617553 -3.00000000
3.01377106 2.98029351 0.97853708 8 13 4532 4.35000000 881617555 881617555 13.00000000
3.00635886 2.97192621 -0.07378878 7 14 4533 4.22800000 881617557 881617557 -1.00000000
3.01839328 2.98382258 1.13725090 8 15 4533 4.39400000 881617559 881617559 15.00000000
1.63303351 1.60982776 -0.61443639 4 0 4541 2.37400000 881617580 881617580 -15.00000000
3.01956940 2.97562170 0.07399821 7 1 4542 4.24000000 881617583 881617583 1.00000000
1.93247187 1.90368128 -0.62626374 3 2 4543 2.78400000 881617585 881617585 -13.00000000
3.02404332 2.97795033 0.22242782 7 3 4544 4.25000000 881617587 881617587 3.00000000
2.32628798 2.29083037 -0.63463074 5 4 4544 3.32600000 881617589 881617589 -11.00000000
3.03138709 2.98414016 0.37215501 7 5 4545 4.27000000 881617592 881617592 5.00000000
2.94125223 2.89439964 -0.65358317 9 6 4546 4.17800000 881617594 881617594 -9.00000000
3.03830409 2.98886180 0.52330697 7 7 4547 4.29400000 881617596 881617596 7.00000000
3.01476407 2.96466970 -0.51916343 8 8 4548 4.26000000 881617599 881617599 -7.00000000
3.03292394 2.98148656 0.67360681 8 9 4549 4.30600000 881617601 881617601 9.00000000
3.02068210 2.96945262 -0.37058622 9 10 4549 4.25200000 881617603 881617603 -5.00000000
3.04283476 2.99018526 0.82925588 8 11 4550 4.34600000 881617606 881617606 11.00000000
3.02198005 2.96865487 -0.22200912 8 12 4551 4.24200000 881617608 881617608 -3.00000000
3.04084086 2.98614025 0.98393589 8 13 4552 4.37400000 881617610 881617610 13.00000000
3.02527666 2.96981907 -0.07399821 7 14 4553 4.24000000 881617612 881617612 -1.00000000
3.04309773 2.98627067 1.14242721 8 15 4554 4.41400000 881617615 881617615 15.00000000
1.63450146 1.60006332 -0.61288351 3 0 4561 2.36800000 881617636 881617636 -15.00000000
3.03279638 2.96786046 0.07406801 7 1 4562 4.24400000 881617638 881617638 1.00000000
1.94467723 1.90237498 -0.62806332 3 2 4563 2.79200000 881617640 881617640 -13.00000000
3.04869938 2.98134041 0.22347453 7 3 4564 4.27000000 881617642 881617642 3.00000000
2.33567405 2.28406882 -0.63501233 5 4 4564 3.32800000 881617645 881617645 -11.00000000
3.05318308 2.98468256 0.37354952 7 5 4565 4.28600000 881617647 881617647 5.00000000
2.93862247 2.87168956 -0.65076739 9 6 4566 4.16000000 881617649 881617649 -9.00000000
3.06433845 2.99349666 0.52598810 7 7 4567 4.31600000 881617652 881617652 7.00000000
3.04071689 2.96938419 -0.52184451 8 8 4568 4.28200000 881617654 881617654 -7.00000000
3.05744791 2.98468041 0.67673552 8 9 4569 4.32600000 881617656 881617656 9.00000000
3.03815770 2.96584916 -0.37145779 9 10 4569 4.26200000 881617659 881617659 -5.00000000
3.06589961 2.99188614 0.83269048 8 11 4570 4.36400000 881617661 881617661 11.00000000
3.05376911 2.97900820 -0.22357920 8 12 4571 4.27200000 881617663 881617663 -3.00000000
3.06798792 2.99183393 0.98933476 9 13 4572 4.39800000 881617665 881617665 13.00000000
3.05567145 2.97878289 -0.07448687 7 14 4573 4.26800000 881617668 881617668 -1.00000000
3.06405044 2.98695087 1.14656842 8 15 4573 4.43000000 881617670 881617670 15.00000000
1.64700282 1.60108101 -0.61547166 4 0 4581 2.37800000 881617691 881617691 -15.00000000
3.05174232 2.96561766 0.07427744 7 1 4582 4.25600000 881617693 881617693 1.00000000
1.95130599 1.89557528 -0.62806332 3 2 4583 2.79200000 881617695 881617695 -13.00000000
3.07914734 2.99016023 0.22493994 7 3 4584 4.29800000 881617698 881617698 3.00000000
2.34644961 2.27863741 -0.63577557 5 4 4584 3.33200000 881617700 881617700 -11.00000000
3.07930827 2.98927236 0.37546694 7 5 4585 4.30800000 881617702 881617702 5.00000000
2.94862866 2.86141419 -0.65076739 9 6 4586 4.16000000 881617705 881617705 -9.00000000
3.08046842 2.98831081 0.52696306 7 7 4587 4.32400000 881617707 881617707 7.00000000
3.07243943 2.97948122 -0.52550060 8 8 4588 4.31200000 881617709 881617709 -7.00000000
3.08344936 2.98911405 0.68017703 8 9 4589 4.34800000 881617712 881617712 9.00000000
3.06279731 2.96909380 -0.37320089 9 10 4589 4.28200000 881617714 881617714 -5.00000000
3.07914424 2.98389840 0.83345371 8 11 4590 4.36800000 881617716 881617716 11.00000000
3.07132196 2.97527885 -0.22410257 8 12 4591 4.28200000 881617718 881617718 -3.00000000
3.09941149 3.00144148 0.99608326 9 13 4592 4.42800000 881617721 881617721 13.00000000
3.07898164 2.98061633 -0.07480101 7 14 4593 4.28600000 881617723 881617723 -1.00000000
3.09527826 2.99639225 1.15433300 8 15 4593 4.46000000 881617725 881617725 15.00000000
1.66064107 1.60366237 -0.61857754 4 0 4600 2.39000000 881617746 881617746 -15.00000000
3.08170152 2.97492552 0.07476611 7 1 4601 4.28400000 881617748 881617748 1.00000000
1.94916749 1.88097477 -0.62536395 3 2 4602 2.78000000 881617751 881617751 -13.00000000
3.09427476 2.98601961 0.22535862 7 3 4602 4.30600000 881617753 881617753 3.00000000
2.35964465 2.27629590 -0.63730204 5 4 4603 3.34000000 881617755 881617755 -11.00000000
3.10354567 2.99287486 0.37721005 7 5 4604 4.32800000 881617758 881617758 5.00000000
2.95525670 2.84887862 -0.65014166 9 6 4605 4.15600000 881617760 881617760 -9.00000000
3.10894322 2.99598622 0.53013164 7 7 4606 4.35000000 881617762 881617762 7.00000000
3.09516954 2.98167133 -0.52769428 8 8 4607 4.33000000 881617764 881617764 -7.00000000
3.11131907 2.99722862 0.68424433 8 9 4607 4.37400000 881617767 881617767 9.00000000
3.09128308 2.97688723 -0.37546694 10 10 4608 4.30800000 881617769 881617769 -5.00000000
3.10599494 2.99001002 0.83803308 8 11 4609 4.39200000 881617771 881617771 11.00000000
3.09124541 2.97477174 -0.22483526 8 12 4610 4.29600000 881617774 881617774 -3.00000000
3.11777401 2.99925303 0.99878269 8 13 4611 4.44000000 881617776 881617776 13.00000000
3.10470390 2.98563647 -0.07518496 7 14 4612 4.30800000 881617778 881617778 -1.00000000
3.12886977 3.00887561 1.16313279 8 15 4612 4.49400000 881617781 881617781 15.00000000
1.66901743 1.60053015 -0.61961281 4 0 4620 2.39400000 881617801 881617801 -15.00000000
3.10794616 2.97937226 0.07515007 7 1 4621 4.30600000 881617804 881617804 1.00000000
1.95009351 1.86876619 -0.62356430 3 2 4622 2.77200000 881617806 881617806 -13.00000000
3.11817861 2.98709321 0.22630067 7 3 4623 4.32400000 881617808 881617808 3.00000000
2.35906982 2.25989676 -0.63501233 5 4 4623 3.32800000 881617811 881617811 -11.00000000
3.13555884 3.00269341 0.37982473 7 5 4624 4.35800000 881617813 881617813 5.00000000
2.97659874 2.84947348 -0.65264457 9 6 4625 4.17200000 881617815 881617815 -9.00000000
3.12655306 2.99197793 0.53135031 7 7 4626 4.36000000 881617817 881617817 7.00000000
3.10986209 2.97496557 -0.52842546 8 8 4627 4.33600000 881617820 881617820 -7.00000000
3.13084960 2.99399638 0.68612158 8 9 4628 4.38600000 881617822 881617822 9.00000000
3.11317515 2.97709465 -0.37686142 10 10 4628 4.32400000 881617824 881617824 -5.00000000
3.13344264 2.99542928 0.84261250 8 11 4629 4.41600000 881617827 881617827 11.00000000
3.11749387 2.97914195 -0.22598666 8 12 4630 4.31800000 881617829 881617829 -3.00000000
3.14090633 3.00046659 1.00283182 9 13 4631 4.45800000 881617831 881617831 13.00000000
3.12233758 2.98168612 -0.07535949 7 14 4632 4.31800000 881617834 881617834 -1.00000000
3.15943980 3.01606297 1.17037976 8 15 4633 4.52200000 881617836 881617836 15.00000000
1.66620016 1.58670104 -0.61650699 4 0 4640 2.38200000 881617857 881617857 -15.00000000
3.14150119 2.99056578 0.07570854 7 1 4641 4.33800000 881617859 881617859 1.00000000
1.96507502 1.87000799 -0.62626374 3 2 4642 2.78400000 881617861 881617861 -13.00000000
3.14832282 2.99601245 0.22776608 7 3 4642 4.35200000 881617864 881617864 3.00000000
2.36409903 2.24894190 -0.63424909 5 4 4643 3.32400000 881617866 881617866 -11.00000000
3.15468383 2.99996805 0.38087061 7 5 4644 4.37000000 881617868 881617868 5.00000000
2.98366380 2.83634377 -0.65201885 9 6 4645 4.16800000 881617870 881617870 -9.00000000
3.16000175 3.00292516 0.53525013 7 7 4646 4.39200000 881617873 881617873 7.00000000
3.13749838 2.98049855 -0.53135031 8 8 4647 4.36000000 881617875 881617875 -7.00000000
3.15560555 2.99665213 0.68925023 8 9 4648 4.40600000 881617877 881617877 9.00000000
3.14088511 2.98267317 -0.37895316 10 10 4648 4.34800000 881617880 881617880 -5.00000000
3.16950893 3.00880337 0.84948164 9 11 4649 4.45200000 881617882 881617882 11.00000000
