# .PCD v0.7 - Point Cloud Data file format
VERSION 0.7
FIELDS x y z intensity laser_id azimuth distance_m adjustedtime timestamp vertical_angle
SIZE 4 4 4 1 1 2 8 8 4 8
TYPE F F F U U U F U U F
COUNT 1 1 1 1 1 1 1 1 1 1
WIDTH 537
HEIGHT 1
VIEWPOINT 0 0 0 1 0 0 0
POINTS 537
DATA ascii
3.49538541 -4.48033333 1.31191456 34 13 14204 5.83200000 885244591 885244591 13.00000000
3.49497747 -4.48142242 -0.09919948 29 14 14205 5.68400000 885244593 885244593 -1.00000000
3.49680018 -4.48537397 1.52392650 38 15 14206 5.88800000 885244596 885244596 15.00000000
1.27930915 -1.64571404 -0.55853152 4 0 14214 2.15800000 885244617 885244617 -15.00000000
3.47733450 -4.47488356 0.09892024 13 1 14215 5.66800000 885244619 885244619 1.00000000
1.47879791 -1.90370905 -0.55652893 3 2 14216 2.47400000 885244621 885244621 -13.00000000
1.75438035 -2.25928974 -0.55601740 3 4 14217 2.91400000 885244626 885244626 -11.00000000
3.49977469 -4.51025677 -0.90419120 2 6 14219 5.78000000 885244630 885244630 -9.00000000
3.47239637 -4.47658634 0.69563019 10 7 14220 5.70800000 885244633 885244633 7.00000000
2.81962276 -3.63634610 -0.56498629 4 8 14221 4.63600000 885244635 885244635 -7.00000000
3.47925997 -4.48866940 0.89949816 21 9 14222 5.75000000 885244637 885244637 9.00000000
3.48725390 -4.49898243 -0.49800792 14 10 14222 5.71400000 885244640 885244640 -5.00000000
3.47516727 -4.48500586 1.10287595 33 11 14223 5.78000000 885244642 885244642 11.00000000
3.46729612 -4.47646093 -0.29674488 24 12 14224 5.67000000 885244644 885244644 -3.00000000
3.48132682 -4.49619579 1.31281435 37 13 14225 5.83600000 885244646 885244646 13.00000000
3.49885869 -4.52046824 1.53169107 36 15 14226 5.91800000 885244651 885244651 15.00000000
1.28299928 -1.66240442 -0.56267262 4 0 14234 2.17400000 885244672 885244672 -15.00000000
1.47928429 -1.91811824 -0.55922830 3 2 14236 2.48600000 885244676 885244676 -13.00000000
3.44981360 -4.47482538 0.29611683 6 3 14237 5.65800000 885244679 885244679 3.00000000
1.74648321 -2.26539993 -0.55601740 3 4 14237 2.91400000 885244681 885244681 -11.00000000
3.45035291 -4.47714090 0.49452168 5 5 14238 5.67400000 885244683 885244683 5.00000000
2.15791607 -2.80109954 -0.56003541 1 6 14239 3.58000000 885244686 885244686 -9.00000000
3.47249460 -4.50912619 0.69879884 7 7 14240 5.73400000 885244688 885244688 7.00000000
2.81296706 -3.65403128 -0.56620497 4 8 14241 4.64600000 885244690 885244690 -7.00000000
3.47682238 -4.51800728 0.90293974 35 9 14242 5.77200000 885244693 885244693 9.00000000
3.46423769 -4.50165415 -0.49696204 14 10 14242 5.70200000 885244695 885244695 -5.00000000
3.47984052 -4.52356243 1.10936356 36 11 14243 5.81400000 885244697 885244697 11.00000000
3.49767804 -4.55003595 1.32496166 39 13 14245 5.89000000 885244702 885244702 13.00000000
3.44332480 -4.48094749 -0.09864100 6 14 14246 5.65200000 885244704 885244704 -1.00000000
3.50424600 -4.56022692 1.54100859 36 15 14246 5.95400000 885244706 885244706 15.00000000
1.27248871 -1.66073895 -0.56060207 4 0 14254 2.16600000 885244727 885244727 -15.00000000
3.44236159 -4.49428797 0.09881552 5 1 14255 5.66200000 885244729 885244729 1.00000000
1.46784103 -1.91708112 -0.55742872 3 2 14256 2.47800000 885244732 885244732 -13.00000000
3.45559692 -4.51319981 0.29789627 2 3 14256 5.69200000 885244734 885244734 3.00000000
1.74095130 -2.27460051 -0.55678064 2 4 14257 2.91800000 885244736 885244736 -11.00000000
3.46618152 -4.53029871 0.49905378 6 5 14258 5.72600000 885244739 885244739 5.00000000
2.14332485 -2.80233884 -0.55878389 1 6 14259 3.57200000 885244741 885244741 -9.00000000
3.47723055 -4.54802847 0.70294237 7 7 14260 5.76800000 885244743 885244743 7.00000000
2.80260587 -3.66698241 -0.56669247 2 8 14261 4.65000000 885244745 885244745 -7.00000000
3.47501564 -4.54677629 0.90638131 42 9 14261 5.79400000 885244748 885244748 9.00000000
3.43882632 -4.50105333 -0.49556756 14 10 14262 5.68600000 885244750 885244750 -5.00000000
3.50573564 -4.59029102 1.12272012 45 11 14263 5.88400000 885244752 885244752 11.00000000
3.43838429 -4.50373268 -0.29695421 6 12 14264 5.67400000 885244755 885244755 -3.00000000
3.49832582 -4.58390522 1.33126032 40 13 14265 5.91800000 885244757 885244757 13.00000000
3.43372679 -4.50088882 -0.09881552 2 14 14266 5.66200000 885244759 885244759 -1.00000000
3.50705457 -4.59700584 1.54929078 38 15 14266 5.98600000 885244762 885244762 15.00000000
1.25498784 -1.64979506 -0.55542564 4 0 14274 2.14600000 885244782 885244782 -15.00000000
3.43996692 -4.52378607 0.09919948 10 1 14275 5.68400000 885244785 885244785 1.00000000
1.46585739 -1.92839873 -0.55922830 3 2 14276 2.48600000 885244787 885244787 -13.00000000
3.45232415 -4.54332733 0.29904765 11 3 14277 5.71400000 885244789 885244789 3.00000000
1.72824967 -2.27441096 -0.55525416 2 4 14277 2.91000000 885244792 885244792 -11.00000000
3.46601367 -4.56299591 0.50131983 9 5 14278 5.75200000 885244794 885244794 5.00000000
2.12994599 -2.80508351 -0.55784529 1 6 14279 3.56600000 885244796 885244796 -9.00000000
3.49253845 -4.60124969 0.70927960 7 7 14280 5.82000000 885244798 885244798 7.00000000
2.77179003 -3.65302205 -0.56303638 2 8 14281 4.62000000 885244801 885244801 -7.00000000
3.48936534 -4.60040283 0.91451585 38 9 14282 5.84600000 885244803 885244803 9.00000000
3.43633819 -4.53049135 -0.49748498 10 10 14282 5.70800000 885244805 885244805 -5.00000000
3.49918056 -4.61501598 1.12577307 42 11 14283 5.90000000 885244808 885244808 11.00000000
3.43229365 -4.52844143 -0.29779160 9 12 14284 5.69000000 885244810 885244810 -3.00000000
3.50113320 -4.62094069 1.33845878 41 13 14285 5.95000000 885244812 885244812 13.00000000
3.43851972 -4.53994656 -0.09940891 15 14 14286 5.69600000 885244815 885244815 -1.00000000
3.50534153 -4.62985182 1.55602014 42 15 14287 6.01200000 885244817 885244817 15.00000000
1.25882602 -1.66627908 -0.55956680 4 0 14293 2.16200000 885244838 885244838 -15.00000000
3.44784403 -4.56548834 0.09986267 7 1 14294 5.72200000 885244840 885244840 1.00000000
1.45710623 -1.93013847 -0.55832851 3 2 14295 2.48200000 885244842 885244842 -13.00000000
3.48616886 -4.61791229 0.30323452 7 3 14295 5.79400000 885244845 885244845 3.00000000
1.72779369 -2.28953218 -0.55754387 3 4 14296 2.92200000 885244847 885244847 -11.00000000
3.47966027 -4.61263800 0.50550330 9 5 14297 5.80000000 885244849 885244849 5.00000000
2.10635996 -2.79320502 -0.55409086 1 6 14298 3.54200000 885244851 885244851 -9.00000000
3.49637985 -4.63816833 0.71317941 7 7 14299 5.85200000 885244854 885244854 7.00000000
2.76802349 -3.67329121 -0.56474257 2 8 14300 4.63400000 885244856 885244856 -7.00000000
3.49310732 -4.63719368 0.91952181 40 9 14301 5.87800000 885244858 885244858 9.00000000
3.44047594 -4.56732416 -0.50027394 10 10 14301 5.74000000 885244861 885244861 -5.00000000
3.49802899 -4.64541435 1.13035250 42 11 14302 5.92400000 885244863 885244863 11.00000000
3.43527508 -4.56373405 -0.29936168 9 12 14303 5.72000000 885244865 885244865 -3.00000000
3.51742625 -4.67456865 1.35060608 19 13 14304 6.00400000 885244868 885244868 13.00000000
3.46792173 -4.61045313 -0.10070039 9 14 14305 5.77000000 885244870 885244870 -1.00000000
3.52329469 -4.68406916 1.57051396 40 15 14305 6.06800000 885244872 885244872 15.00000000
1.25416112 -1.67220855 -0.56008440 4 0 14313 2.16400000 885244893 885244893 -15.00000000
3.46787262 -4.62549448 0.10090981 8 1 14314 5.78200000 885244895 885244895 1.00000000
1.44802248 -1.93209422 -0.55742872 3 2 14315 2.47800000 885244897 885244897 -13.00000000
3.47841263 -4.64124060 0.30396724 7 3 14315 5.80800000 885244900 885244900 3.00000000
1.71743691 -2.29240704 -0.55678064 3 4 14316 2.91800000 885244902 885244902 -11.00000000
3.48623013 -4.65505648 0.50881523 9 5 14317 5.83800000 885244904 885244904 5.00000000
2.11198711 -2.82109785 -0.55815816 1 6 14318 3.56800000 885244907 885244907 -9.00000000
3.49206233 -4.66623783 0.71561676 7 7 14319 5.87200000 885244909 885244909 7.00000000
2.74923873 -3.67498326 -0.56352383 2 8 14320 4.62400000 885244911 885244911 -7.00000000
3.49464440 -4.67308807 0.92421484 21 9 14321 5.90800000 885244914 885244914 9.00000000
3.45195603 -4.61600399 -0.50428313 10 10 14321 5.78600000 885244916 885244916 -5.00000000
3.50295091 -4.68590021 1.13722157 45 11 14322 5.96000000 885244918 885244918 11.00000000
3.45877767 -4.62849379 -0.30281585 9 12 14323 5.78600000 885244921 885244921 -3.00000000
3.52324629 -4.71648169 1.35915422 11 13 14324 6.04200000 885244923 885244923 13.00000000
3.46975422 -4.64656448 -0.10122396 6 14 14325 5.80000000 885244925 885244925 -1.00000000
3.52888441 -4.72574949 1.58034909 38 15 14325 6.10600000 885244927 885244927 15.00000000
1.24485517 -1.67192769 -0.55853152 4 0 14333 2.15800000 885244948 885244948 -15.00000000
3.47797251 -4.67286253 0.10167772 11 1 14334 5.82600000 885244950 885244950 1.00000000
1.44126940 -1.93713701 -0.55742872 3 2 14335 2.47800000 885244953 885244953 -13.00000000
3.48283315 -4.68280506 0.30585134 7 3 14336 5.84400000 885244955 885244955 3.00000000
1.70239460 -2.28893614 -0.55449092 3 4 14336 2.90600000 885244957 885244957 -11.00000000
3.49135709 -4.69597769 0.51195282 9 5 14337 5.87400000 885244960 885244960 5.00000000
2.10212684 -2.82845306 -0.55815816 1 6 14338 3.56800000 885244962 885244962 -9.00000000
3.49942970 -4.71026850 0.72049153 7 7 14339 5.91200000 885244964 885244964 7.00000000
2.66538024 -3.58893752 -0.54889953 6 8 14340 4.50400000 885244967 885244967 -7.00000000
3.50975084 -4.72588348 0.93234938 30 9 14340 5.96000000 885244969 885244969 9.00000000
3.46432519 -4.66641903 -0.50846660 10 10 14341 5.83400000 885244971 885244971 -5.00000000
3.51699257 -4.73908949 1.14714372 46 11 14342 6.01200000 885244974 885244974 11.00000000
3.46520948 -4.67101622 -0.30480462 9 12 14343 5.82400000 885244976 885244976 -3.00000000
3.50443959 -4.72562075 1.35825443 27 13 14344 6.03800000 885244978 885244978 13.00000000
3.48090339 -4.69559574 -0.10202677 9 14 14345 5.84600000 885244980 885244980 -1.00000000
3.53109336 -4.76503801 1.58914888 36 15 14346 6.14000000 885244983 885244983 15.00000000
1.23786318 -1.67470932 -0.55801386 4 0 14353 2.15600000 885245003 885245003 -15.00000000
3.47827673 -4.70749092 0.10216638 8 1 14354 5.85400000 885245006 885245006 1.00000000
1.43681431 -1.94529116 -0.55832851 3 2 14355 2.48200000 885245008 885245008 -13.00000000
3.48271108 -4.71521425 0.30721205 7 3 14355 5.87000000 885245010 885245010 3.00000000
1.68972981 -2.28854704 -0.55296445 3 4 14356 2.89800000 885245013 885245013 -11.00000000
3.50097346 -4.74340296 0.51578766 9 5 14357 5.91800000 885245015 885245015 5.00000000
2.10045028 -2.84690046 -0.56034827 1 6 14358 3.58200000 885245017 885245017 -9.00000000
3.50417542 -4.75121164 0.72487885 7 7 14359 5.94800000 885245020 885245020 7.00000000
2.71880388 -3.68769574 -0.56254888 2 8 14360 4.61600000 885245022 885245022 -7.00000000
3.50060964 -4.74984694 0.93453950 19 9 14361 5.97400000 885245024 885245024 9.00000000
3.46456385 -4.70093775 -0.51090693 11 10 14361 5.86200000 885245027 885245027 -5.00000000
3.52022481 -4.77820778 1.15363121 15 11 14362 6.04600000 885245029 885245029 11.00000000
3.47967720 -4.72489691 -0.30752608 18 12 14363 5.87600000 885245031 885245031 -3.00000000
3.52951455 -4.79432106 1.37445092 10 13 14364 6.11000000 885245033 885245033 13.00000000
3.47871447 -4.72704458 -0.10244562 9 14 14365 5.87000000 885245036 885245036 -1.00000000
3.53161025 -4.80067682 1.59691346 38 15 14366 6.17000000 885245038 885245038 15.00000000
1.22972405 -1.67590499 -0.55697858 4 0 14373 2.15200000 885245059 885245059 -15.00000000
3.48074675 -4.74540234 0.10272487 11 1 14374 5.88600000 885245061 885245061 1.00000000
1.42771065 -1.94715166 -0.55742872 3 2 14375 2.47800000 885245063 885245063 -13.00000000
3.49575567 -4.76760912 0.30982885 7 3 14375 5.92000000 885245066 885245066 3.00000000
1.68405223 -2.29759836 -0.55372769 3 4 14376 2.90200000 885245068 885245068 -11.00000000
3.50323558 -4.78130960 0.51857668 9 5 14377 5.95000000 885245070 885245070 5.00000000
2.06598830 -2.82074857 -0.55377799 5 6 14378 3.54000000 885245073 885245073 -9.00000000
3.52040434 -4.80826139 0.73170352 7 7 14379 6.00400000 885245075 885245075 7.00000000
2.71529412 -3.70997882 -0.56449878 4 8 14380 4.63200000 885245077 885245077 -7.00000000
3.52100611 -4.81084490 0.94423842 17 9 14380 6.03600000 885245080 885245080 9.00000000
3.46460366 -4.73551464 -0.51334733 11 10 14381 5.89000000 885245082 885245082 -5.00000000
3.53249812 -4.83008337 1.16317165 15 11 14382 6.09600000 885245084 885245084 11.00000000
3.47023559 -4.74668837 -0.30815411 25 12 14383 5.88800000 885245086 885245086 -3.00000000
3.53690434 -4.83965254 1.38389885 37 13 14384 6.15200000 885245089 885245089 13.00000000
3.45747447 -4.73269987 -0.10230601 24 14 14385 5.86200000 885245091 885245091 -1.00000000
3.53647852 -4.84261751 1.60674858 38 15 14386 6.20800000 885245093 885245093 15.00000000
1.22386658 -1.68018734 -0.55697858 4 0 14393 2.15200000 885245114 885245114 -15.00000000
3.47828603 -4.77692223 0.10314372 8 1 14394 5.91000000 885245116 885245116 1.00000000
1.41861153 -1.94897234 -0.55652893 3 2 14395 2.47400000 885245119 885245119 -13.00000000
3.50259972 -4.81207848 0.31192231 7 3 14395 5.96000000 885245121 885245121 3.00000000
1.67833197 -2.30663776 -0.55449092 2 4 14396 2.90600000 885245123 885245123 -11.00000000
3.50644732 -4.82090044 0.52153999 9 5 14397 5.98400000 885245126 885245126 5.00000000
3.46289372 -4.76276731 -0.93266231 2 6 14398 5.96200000 885245128 885245128 -9.00000000
3.51993823 -4.84300137 0.73511589 7 7 14399 6.03200000 885245130 885245130 7.00000000
2.71282864 -3.73388815 -0.56669247 4 8 14400 4.65000000 885245133 885245133 -7.00000000
3.52509141 -4.85187197 0.94987005 17 9 14400 6.07200000 885245135 885245135 9.00000000
3.47732282 -4.78788137 -0.51770508 11 10 14401 5.94000000 885245137 885245137 -5.00000000
3.53061080 -4.86303806 1.16813266 34 11 14402 6.12200000 885245139 885245139 11.00000000
3.43956804 -4.73937559 -0.30689806 31 12 14403 5.86400000 885245142 885245142 -3.00000000
3.54287601 -4.88351631 1.39289689 9 13 14404 6.19200000 885245144 885245144 13.00000000
3.43741107 -4.73988342 -0.10220129 24 14 14405 5.85600000 885245146 885245146 -1.00000000
3.54223061 -4.88621426 1.61710143 38 15 14406 6.24800000 885245149 885245149 15.00000000
1.22025812 -1.68758011 -0.55801386 6 0 14413 2.15600000 885245169 885245169 -15.00000000
3.49673343 -4.83765459 0.10419086 8 1 14414 5.97000000 885245172 885245172 1.00000000
1.41179967 -1.95391226 -0.55652893 3 2 14415 2.47400000 885245174 885245174 -13.00000000
3.51151514 -4.85989094 0.31422508 7 3 14415 6.00400000 885245176 885245176 3.00000000
1.67256916 -2.31566525 -0.55525416 2 4 14416 2.91000000 885245179 885245179 -11.00000000
3.50942516 -4.86057138 0.52450323 9 5 14417 6.01800000 885245181 885245181 5.00000000
2.06127453 -2.85592580 -0.55784529 1 6 14418 3.56600000 885245183 885245183 -9.00000000
3.52275658 -4.88262606 0.73925942 7 7 14419 6.06600000 885245185 885245185 7.00000000
2.68236041 -3.71918440 -0.56303638 2 8 14420 4.62000000 885245188 885245188 -7.00000000
3.52431083 -4.88657761 0.95425022 20 9 14420 6.10000000 885245190 885245190 9.00000000
3.48156214 -4.82908106 -0.52084273 11 10 14421 5.97600000 885245192 885245192 -5.00000000
3.53427577 -4.90400124 1.17500174 46 11 14422 6.15800000 885245195 885245195 11.00000000
3.41366386 -4.73838902 -0.30606067 31 12 14423 5.84800000 885245197 885245197 -3.00000000
3.53833485 -4.91324854 1.39784586 18 13 14424 6.21400000 885245199 885245199 13.00000000
3.41617155 -4.74536180 -0.10206167 24 14 14425 5.84800000 885245202 885245202 -1.00000000
3.55761099 -4.94183350 1.63159525 38 15 14425 6.30400000 885245204 885245204 15.00000000
1.21661294 -1.69496810 -0.55904913 4 0 14433 2.16000000 885245225 885245225 -15.00000000
3.50547242 -4.88557482 0.10495877 8 1 14434 6.01400000 885245227 885245227 1.00000000
1.40269911 -1.95566142 -0.55562907 3 2 14435 2.47000000 885245229 885245229 -13.00000000
3.50617027 -4.88834858 0.31527179 7 3 14435 6.02400000 885245232 885245232 3.00000000
1.66905165 -2.32787156 -0.55678064 2 4 14436 2.91800000 885245234 885245234 -11.00000000
3.51797175 -4.90841913 0.52833813 9 5 14437 6.06200000 885245236 885245236 5.00000000
2.04669094 -2.85668039 -0.55659384 1 6 14438 3.55800000 885245238 885245238 -9.00000000
3.53458786 -4.93523979 0.74535292 21 7 14439 6.11600000 885245241 885245241 7.00000000
2.66936159 -3.72852492 -0.56303638 2 8 14440 4.62000000 885245243 885245243 -7.00000000
3.53712964 -4.94061041 0.96238482 35 9 14440 6.15200000 885245245 885245245 9.00000000
3.49135351 -4.87846947 -0.52485186 11 10 14441 6.02200000 885245248 885245248 -5.00000000
3.54112434 -4.94983959 1.18301582 46 11 14442 6.20000000 885245250 885245250 11.00000000
3.39710283 -4.75027609 -0.30606067 31 12 14443 5.84800000 885245252 885245252 -3.00000000
3.53589582 -4.94617844 1.40369463 39 13 14444 6.24000000 885245255 885245255 13.00000000
3.38563466 -4.73773384 -0.10164282 24 14 14445 5.82400000 885245257 885245257 -1.00000000
3.55744123 -4.97999096 1.63987744 38 15 14446 6.33600000 885245259 885245259 15.00000000
1.20508397 -1.69133794 -0.55646098 4 0 14453 2.15000000 885245280 885245280 -15.00000000
3.50927877 -4.92709970 0.10558706 8 1 14454 6.05000000 885245282 885245282 1.00000000
1.39812446 -1.96372080 -0.55652893 3 2 14455 2.47400000 885245285 885245285 -13.00000000
3.51023412 -4.93208361 0.31726056 7 3 14456 6.06200000 885245287 885245287 3.00000000
1.64725506 -2.31448936 -0.55220121 2 4 14456 2.89400000 885245289 885245289 -11.00000000
3.52507186 -4.95476151 0.53199863 9 5 14457 6.10400000 885245291 885245291 5.00000000
3.39565635 -4.77462196 -0.92796922 2 6 14458 5.93200000 885245294 885245294 -9.00000000
3.54034328 -4.97990608 0.75022769 31 7 14459 6.15600000 885245296 885245296 7.00000000
2.65633035 -3.73782015 -0.56303638 4 8 14460 4.62000000 885245298 885245298 -7.00000000
3.53244948 -4.97063923 0.96582639 42 9 14460 6.17400000 885245301 885245301 9.00000000
3.49276519 -4.91661501 -0.52764088 11 10 14461 6.05400000 885245303 885245303 -5.00000000
3.55565262 -5.00698996 1.19370103 43 11 14462 6.25600000 885245305 885245305 11.00000000
3.37818837 -4.75884771 -0.30585134 31 12 14463 5.84400000 885245308 885245308 -3.00000000
3.55131388 -5.00457954 1.41674173 42 13 14464 6.29800000 885245310 885245310 13.00000000
3.35982060 -4.73647499 -0.10136358 24 14 14465 5.80800000 885245312 885245312 -1.00000000
3.56214380 -5.02169847 1.64971256 38 15 14465 6.37400000 885245315 885245315 15.00000000
1.19471073 -1.68922520 -0.55439037 4 0 14473 2.14200000 885245335 885245335 -15.00000000
3.50591159 -4.95891333 0.10600591 8 1 14474 6.07400000 885245338 885245338 1.00000000
1.39800954 -1.97813773 -0.55922830 3 2 14475 2.48600000 885245340 885245340 -13.00000000
3.52065468 -4.98345613 0.31977269 7 3 14476 6.11000000 885245342 885245342 3.00000000
1.64369714 -2.32663918 -0.55372769 3 4 14476 2.90200000 885245344 885245344 -11.00000000
3.52154684 -4.98656607 0.53409040 9 5 14477 6.12800000 885245347 885245347 5.00000000
3.35960197 -4.75901175 -0.92265046 2 6 14478 5.89800000 885245349 885245349 -9.00000000
3.53896236 -5.01494026 0.75364000 39 7 14479 6.18400000 885245351 885245351 7.00000000
2.63640118 -3.73733687 -0.56157392 4 8 14480 4.60800000 885245354 885245354 -7.00000000
3.54039049 -5.02068329 0.97302240 40 9 14481 6.22000000 885245356 885245356 9.00000000
3.48476720 -4.94180346 -0.52903533 11 10 14481 6.07000000 885245358 885245358 -5.00000000
3.56077576 -5.05146408 1.20133340 43 11 14482 6.29600000 885245361 885245361 11.00000000
3.35465384 -4.76081514 -0.30522329 31 12 14483 5.83200000 885245363 885245363 -3.00000000
3.55626702 -5.04880905 1.42573977 45 13 14484 6.33800000 885245365 885245365 13.00000000
3.33866167 -4.74163389 -0.10122396 24 14 14485 5.80000000 885245368 885245368 -1.00000000
3.56039357 -5.05841732 1.65747714 40 15 14486 6.40400000 885245370 885245370 15.00000000
1.18962109 -1.69517398 -0.55490804 4 0 14494 2.14400000 885245391 885245391 -15.00000000
3.49919677 -4.98810053 0.10635497 8 1 14495 6.09400000 885245393 885245393 1.00000000
1.38179898 -1.97048414 -0.55562907 3 2 14496 2.47000000 885245395 885245395 -13.00000000
3.54249096 -5.05356789 0.32343620 7 3 14497 6.18000000 885245397 885245397 3.00000000
1.63515854 -2.33264780 -0.55372769 3 4 14497 2.90200000 885245400 885245400 -11.00000000
3.53640389 -5.04675770 0.53914541 9 5 14498 6.18600000 885245402 885245402 5.00000000
3.34213686 -4.77129364 -0.92265046 2 6 14499 5.89800000 885245404 885245404 -9.00000000
3.54902291 -5.06853008 0.75973350 36 7 14500 6.23400000 885245407 885245407 7.00000000
2.62837696 -3.75510621 -0.56279260 4 8 14501 4.61800000 885245409 885245409 -7.00000000
3.54663110 -5.06699610 0.97959262 42 9 14501 6.26200000 885245411 885245411 9.00000000
3.11025929 -4.44521236 -0.47465017 13 10 14502 5.44600000 885245414 885245414 -5.00000000
3.55348969 -5.08056879 1.20514965 40 11 14503 6.31600000 885245416 885245416 11.00000000
3.31200433 -4.73706770 -0.30292052 30 12 14504 5.78800000 885245418 885245418 -3.00000000
5.85864639 -8.38257408 2.36108637 24 13 14505 10.49600000 885245421 885245421 13.00000000
3.35561824 -4.80301666 -0.10227110 31 14 14506 5.86000000 885245423 885245423 -1.00000000
4.57056665 -6.54201555 2.13836288 9 15 14506 8.26200000 885245425 885245425 15.00000000
1.18700910 -1.70407176 -0.55646098 4 0 14514 2.15000000 885245446 885245446 -15.00000000
3.51718688 -5.05115700 0.10743701 8 1 14515 6.15600000 885245448 885245448 1.00000000
1.37268567 -1.97209668 -0.55472928 3 2 14516 2.46600000 885245450 885245450 -13.00000000
3.52825141 -5.07082081 0.32375023 2 3 14517 6.18600000 885245453 885245453 3.00000000
1.62476349 -2.33511829 -0.55296445 3 4 14517 2.89800000 885245455 885245455 -11.00000000
3.52559185 -5.06888533 0.54019129 3 5 14518 6.19800000 885245457 885245457 5.00000000
1.99933648 -2.87559724 -0.55471659 1 6 14519 3.54600000 885245460 885245460 -9.00000000
3.54377103 -5.09881830 0.76241463 34 7 14520 6.25600000 885245462 885245462 7.00000000
2.61638594 -3.76588821 -0.56303638 4 8 14521 4.62000000 885245464 885245464 -7.00000000
3.54606485 -5.10592079 0.98459852 12 9 14522 6.29400000 885245467 885245467 9.00000000
3.50386810 -5.04516220 -0.53740233 11 10 14522 6.16600000 885245469 885245469 -5.00000000
6.52173805 -9.39404297 2.22292471 37 11 14523 11.65000000 885245471 885245471 11.00000000
3.47081137 -5.00128984 -0.31904000 32 12 14524 6.09600000 885245473 885245473 -3.00000000
5.81602097 -8.38375950 2.35568738 46 13 14525 10.47200000 885245476 885245476 13.00000000
3.48469234 -5.02503538 -0.10673892 27 14 14526 6.11600000 885245478 885245478 -1.00000000
4.53555202 -6.54284668 2.13318658 20 15 14527 8.24200000 885245480 885245480 15.00000000
1.18245065 -1.70958745 -0.55697858 4 0 14533 2.15200000 885245501 885245501 -15.00000000
3.51861310 -5.08911037 0.10799549 5 1 14534 6.18800000 885245503 885245503 1.00000000
1.36835444 -1.97984409 -0.55562907 3 2 14535 2.47000000 885245506 885245506 -13.00000000
3.52163410 -5.09728193 0.32469228 10 3 14536 6.20400000 885245508 885245508 3.00000000
1.61701107 -2.34049344 -0.55296445 3 4 14536 2.89800000 885245510 885245510 -11.00000000
3.52574682 -5.10514021 0.54280597 9 5 14537 6.22800000 885245513 885245513 5.00000000
1.99540102 -2.89033937 -0.55628097 1 6 14538 3.55600000 885245515 885245515 -9.00000000
2.59148383 -3.75656986 -0.56035525 4 8 14540 4.59800000 885245520 885245520 -7.00000000
3.50408459 -5.08135700 -0.54001701 11 10 14541 6.19600000 885245524 885245524 -5.00000000
6.50837851 -9.44148064 2.22903061 34 11 14542 11.68200000 885245526 885245526 11.00000000
3.47007298 -5.03579617 -0.32050541 32 12 14543 6.12400000 885245529 885245529 -3.00000000
5.80034733 -8.42065334 2.36063647 45 13 14544 10.49400000 885245531 885245531 13.00000000
3.46120501 -5.02668142 -0.10652949 27 14 14545 6.10400000 885245533 885245533 -1.00000000
4.51168823 -6.55228996 2.13163376 20 15 14545 8.23600000 885245536 885245536 15.00000000
1.17647588 -1.71370459 -0.55697858 4 0 14553 2.15200000 885245556 885245556 -15.00000000
3.51779985 -5.12609339 0.10851906 8 1 14554 6.21800000 885245559 885245559 1.00000000
1.36584461 -1.99103630 -0.55742872 3 2 14555 2.47800000 885245561 885245561 -13.00000000
1.60216951 -2.33640885 -0.55067474 3 4 14556 2.88600000 885245566 885245566 -11.00000000
1.98083341 -2.89076900 -0.55502951 1 6 14558 3.54800000 885245570 885245570 -9.00000000
2.58620596 -3.77705836 -0.56206143 4 8 14560 4.61200000 885245575 885245575 -7.00000000
3.28038740 -4.79267931 -0.50811797 10 10 14561 5.83000000 885245579 885245579 -5.00000000
6.48868513 -9.48358536 2.23361015 34 11 14562 11.70600000 885245582 885245582 11.00000000
3.45021868 -5.04458141 -0.32029605 32 12 14563 6.12000000 885245584 885245584 -3.00000000
5.78411674 -8.46015358 2.36603522 48 13 14564 10.51800000 885245586 885245586 13.00000000
3.43686771 -5.02882719 -0.10632006 24 14 14565 6.09200000 885245589 885245589 -1.00000000
4.48001432 -6.55761623 2.12801027 20 15 14566 8.22200000 885245591 885245591 15.00000000
1.16613555 -1.71141493 -0.55490804 4 0 14573 2.14400000 885245612 885245612 -15.00000000
1.35449922 -1.98934865 -0.55562907 3 2 14575 2.47000000 885245616 885245616 -13.00000000
1.60505056 -2.35821724 -0.55449092 3 4 14576 2.90600000 885245621 885245621 -11.00000000
1.96961975 -2.89603233 -0.55471659 1 6 14578 3.54600000 885245626 885245626 -9.00000000
2.57300568 -3.78606296 -0.56206143 4 8 14580 4.61200000 885245630 885245630 -7.00000000
3.59951830 -5.29851913 -0.56041145 11 10 14581 6.43000000 885245635 885245635 -5.00000000
6.47208595 -9.53053951 2.23933434 37 11 14582 11.73600000 885245637 885245637 11.00000000
3.42585826 -5.04667950 -0.31966802 32 12 14583 6.10800000 885245639 885245639 -3.00000000
5.76768064 -8.49964237 2.37143397 48 13 14584 10.54200000 885245642 885245642 13.00000000
3.41480255 -5.03417349 -0.10618044 24 14 14585 6.08400000 885245644 885245644 -1.00000000
4.44306087 -6.55005407 2.12076330 20 15 14585 8.19400000 885245646 885245646 15.00000000
1.16015446 -1.71547508 -0.55490804 4 0 14593 2.14400000 885245667 885245667 -15.00000000
1.34754694 -1.99406457 -0.55562907 3 2 14595 2.47000000 885245672 885245672 -13.00000000
3.41834712 -5.06409407 -0.96770358 2 6 14598 6.18600000 885245681 885245681 -9.00000000
2.56643462 -3.80489564 -0.56352383 4 8 14600 4.62400000 885245685 885245685 -7.00000000
3.59659481 -5.33417892 -0.56285179 11 10 14601 6.45800000 885245690 885245690 -5.00000000
5.76834679 -8.55836868 2.00616574 12 11 14602 10.51400000 885245692 885245692 11.00000000
3.39929318 -5.04535580 -0.31883064 32 12 14603 6.09200000 885245695 885245695 -3.00000000
5.75648260 -8.54720116 2.37908244 51 13 14604 10.57600000 885245697 885245697 13.00000000
3.38157439 -5.02283955 -0.10569178 24 14 14605 6.05600000 885245699 885245699 -1.00000000
4.41578817 -6.56148672 2.11921024 18 15 14606 8.18800000 885245702 885245702 15.00000000
1.15661323 -1.72252047 -0.55594331 4 0 14612 2.14800000 885245722 885245722 -15.00000000
1.33441234 -1.98881280 -0.55292970 3 2 14614 2.45800000 885245727 885245727 -13.00000000
1.58677459 -2.36582685 -0.55372769 3 4 14615 2.90200000 885245732 885245732 -11.00000000
3.37954021 -5.04258347 -0.96144623 4 6 14617 6.14600000 885245736 885245736 -9.00000000
2.55269837 -3.81173587 -0.56328011 4 8 14619 4.62200000 885245741 885245741 -7.00000000
3.57666969 -5.34276533 -0.56250316 11 10 14620 6.45400000 885245745 885245745 -5.00000000
6.43326902 -9.61353111 2.24849319 31 11 14621 11.78400000 885245748 885245748 11.00000000
3.35367084 -5.01343870 -0.31610918 48 12 14622 6.04000000 885245750 885245750 -3.00000000
5.73568964 -8.57758331 2.38223171 51 13 14623 10.59000000 885245752 885245752 13.00000000
3.35712075 -5.02238846 -0.10544744 33 14 14624 6.04200000 885245755 885245755 -1.00000000
4.38656473 -6.56247807 2.11506915 9 15 14624 8.17200000 885245757 885245757 15.00000000
1.15487874 -1.73297775 -0.55801386 4 0 14632 2.15600000 885245778 885245778 -15.00000000
1.32962215 -1.99670279 -0.55382949 3 2 14634 2.46200000 885245782 885245782 -13.00000000
1.57415509 -2.36481404 -0.55220121 3 4 14635 2.89400000 885245787 885245787 -11.00000000
3.35644746 -5.04612541 -0.95988190 4 6 14637 6.13600000 885245791 885245791 -9.00000000
2.52729034 -3.80243778 -0.56059897 2 8 14639 4.60000000 885245796 885245796 -7.00000000
3.55358791 -5.34857941 -0.56180590 15 10 14640 6.44600000 885245801 885245801 -5.00000000
6.41922331 -9.66536713 2.25536227 37 11 14641 11.82000000 885245803 885245803 11.00000000
3.34388304 -5.03676224 -0.31684187 35 12 14642 6.05400000 885245805 885245805 -3.00000000
5.71325636 -8.60891819 2.38538098 51 13 14643 10.60400000 885245808 885245808 13.00000000
3.34399056 -5.04074192 -0.10558706 29 14 14644 6.05000000 885245810 885245810 -1.00000000
4.36897039 -6.58579922 2.11765742 18 15 14644 8.18200000 885245812 885245812 15.00000000
1.14638841 -1.73397589 -0.55697858 4 0 14653 2.15200000 885245833 885245833 -15.00000000
1.32659161 -2.00806642 -0.55562907 3 2 14655 2.47000000 885245838 885245838 -13.00000000
1.55898583 -2.36073828 -0.54991150 3 4 14656 2.88200000 885245842 885245842 -11.00000000
3.33792996 -5.05839348 -0.95988190 4 6 14658 6.13600000 885245847 885245847 -9.00000000
2.50896573 -3.80504608 -0.55962402 2 8 14660 4.59200000 885245851 885245851 -7.00000000
3.54273224 -5.37487650 -0.56320041 15 10 14661 6.46200000 885245856 885245856 -5.00000000
6.40967846 -9.72817516 2.26452112 40 11 14662 11.86800000 885245858 885245858 11.00000000
3.31990719 -5.04064417 -0.31631851 32 12 14663 6.04400000 885245861 885245861 -3.00000000
5.69988203 -8.65747070 2.39302921 54 13 14664 10.63800000 885245863 885245863 13.00000000
3.31889701 -5.04294205 -0.10537763 31 14 14665 6.03800000 885245865 885245865 -1.00000000
4.33205843 -6.58240318 2.11144567 15 15 14665 8.15800000 885245867 885245867 15.00000000
1.12761128 -1.71858442 -0.55076694 4 0 14673 2.12800000 885245888 885245888 -15.00000000
1.31957412 -2.01268482 -0.55562907 3 2 14675 2.47000000 885245893 885245893 -13.00000000
1.55073571 -2.36616564 -0.54991150 3 4 14676 2.88200000 885245897 885245897 -11.00000000
3.30077267 -5.04026842 -0.95425022 6 6 14678 6.10000000 885245902 885245902 -9.00000000
2.50219011 -3.82374716 -0.56108648 2 8 14680 4.60400000 885245907 885245907 -7.00000000
3.52722096 -5.39221239 -0.56372333 15 10 14681 6.46800000 885245911 885245911 -5.00000000
6.37675619 -9.75213242 2.26490283 34 11 14682 11.87000000 885245914 885245914 11.00000000
3.30666280 -5.05888939 -0.31673720 32 12 14683 6.05200000 885245916 885245916 -3.00000000
5.68668175 -8.70341587 2.40022779 52 13 14684 10.67000000 885245918 885245918 13.00000000
3.29908657 -5.05114794 -0.10530782 33 14 14685 6.03400000 885245920 885245920 -1.00000000
4.29945469 -6.58529568 2.10730457 11 15 14686 8.14200000 885245923 885245923 15.00000000
1.12612379 -1.72878921 -0.55283749 4 0 14692 2.13600000 885245944 885245944 -15.00000000
1.30438793 -2.00398374 -0.55202991 3 2 14694 2.45400000 885245948 885245948 -13.00000000
1.54073930 -2.36800385 -0.54914826 3 4 14695 2.87800000 885245953 885245953 -11.00000000
3.29265428 -5.06443548 -0.95675319 4 6 14697 6.11600000 885245957 885245957 -9.00000000
2.49382210 -3.83868241 -0.56206143 2 8 14699 4.61200000 885245962 885245962 -7.00000000
3.53210807 -5.43896961 -0.56738389 24 10 14700 6.51000000 885245967 885245967 -5.00000000
6.35720968 -9.79298592 2.26948214 34 11 14701 11.89400000 885245969 885245969 11.00000000
3.28008389 -5.05474806 -0.31579515 35 12 14702 6.03400000 885245971 885245971 -3.00000000
5.67369652 -8.74674988 2.40697622 47 13 14703 10.70000000 885245973 885245973 13.00000000
3.28449416 -5.06541586 -0.10537763 31 14 14704 6.03800000 885245976 885245976 -1.00000000
4.27559185 -6.59390783 2.10575175 9 15 14704 8.13600000 885245978 885245978 15.00000000
1.12847245 -1.74568868 -0.55697858 4 0 14712 2.15200000 885245999 885245999 -15.00000000
1.29949951 -2.01179862 -0.55292970 3 2 14714 2.45800000 885246003 885246003 -13.00000000
1.54524350 -2.39315939 -0.55372769 3 4 14715 2.90200000 885246008 885246008 -11.00000000
3.27281404 -5.07257843 -0.95612746 4 6 14717 6.11200000 885246013 885246013 -9.00000000
2.47180247 -3.83401680 -0.56011152 2 8 14719 4.59600000 885246017 885246017 -7.00000000
3.53468680 -5.48476028 -0.57087010 24 10 14720 6.55000000 885246022 885246022 -5.00000000
6.34425163 -9.84812546 2.27711463 40 11 14721 11.93400000 885246024 885246024 11.00000000
3.26458216 -5.06952524 -0.31600451 35 12 14722 6.03800000 885246026 885246026 -3.00000000
5.64629459 -8.77141762 2.40832591 47 13 14723 10.70600000 885246029 885246029 13.00000000
3.26679254 -5.07684994 -0.10537763 31 14 14724 6.03800000 885246031 885246031 -1.00000000
4.24836731 -6.60229397 2.10368109 9 15 14724 8.12800000 885246033 885246033 15.00000000
1.12206662 -1.74981296 -0.55697858 4 0 14733 2.15200000 885246054 885246054 -15.00000000
1.29211712 -2.01654816 -0.55292970 3 2 14735 2.45800000 885246059 885246059 -13.00000000
1.53434396 -2.39550066 -0.55296445 3 4 14736 2.89800000 885246063 885246063 -11.00000000
3.26058936 -5.09452248 -0.95800465 4 6 14738 6.12400000 885246068 885246068 -9.00000000
2.44276023 -3.81963778 -0.55669916 2 8 14740 4.56800000 885246072 885246072 -7.00000000
3.53280401 -5.52621651 -0.57383341 20 10 14741 6.58400000 885246077 885246077 -5.00000000
6.32185698 -9.89281845 2.28207564 40 11 14742 11.96000000 885246079 885246079 11.00000000
3.24597955 -5.08145666 -0.31600451 35 12 14743 6.03800000 885246082 885246082 -3.00000000
5.61830282 -8.79862309 2.41012549 47 13 14744 10.71400000 885246084 885246084 13.00000000
3.24278355 -5.08036137 -0.10520311 33 14 14745 6.02800000 885246086 885246086 -1.00000000
4.22414017 -6.61782074 2.10368109 6 15 14745 8.12800000 885246089 885246089 15.00000000
1.11284041 -1.74882948 -0.55542564 4 0 14753 2.14600000 885246109 885246109 -15.00000000
1.29343522 -2.03420186 -0.55652893 3 2 14755 2.47400000 885246114 885246114 -13.00000000
1.52176023 -2.39421415 -0.55143797 3 4 14756 2.89000000 885246119 885246119 -11.00000000
3.23855019 -5.09920311 -0.95675319 4 6 14758 6.11600000 885246123 885246123 -9.00000000
2.43260336 -3.83316946 -0.55743039 2 8 14760 4.57400000 885246128 885246128 -7.00000000
3.52416515 -5.55533886 -0.57557654 16 10 14761 6.60400000 885246132 885246132 -5.00000000
3.23036075 -5.09612989 -0.31621385 35 12 14763 6.04200000 885246137 885246137 -3.00000000
5.59798622 -8.83464146 2.41462469 48 13 14764 10.73400000 885246139 885246139 13.00000000
3.21646976 -5.07813501 -0.10492387 33 14 14765 6.01200000 885246142 885246142 -1.00000000
4.19262218 -6.62183285 2.10005784 6 15 14766 8.11400000 885246144 885246144 15.00000000
1.10187638 -1.74434376 -0.55283749 4 0 14772 2.13600000 885246165 885246165 -15.00000000
1.28044140 -2.02859235 -0.55382949 3 2 14774 2.46200000 885246169 885246169 -13.00000000
1.51590765 -2.40256810 -0.55220121 3 4 14775 2.89400000 885246174 885246174 -11.00000000
3.21530175 -5.09988832 -0.95487595 4 6 14777 6.10400000 885246178 885246178 -9.00000000
2.42305303 -3.84625387 -0.55816162 2 8 14779 4.58000000 885246183 885246183 -7.00000000
3.51103210 -5.57542419 -0.57644808 16 10 14780 6.61400000 885246188 885246188 -5.00000000
3.21344376 -5.10681438 -0.31621385 35 12 14782 6.04200000 885246192 885246192 -3.00000000
5.58733511 -8.88284874 2.42272282 55 13 14783 10.77000000 885246195 885246195 13.00000000
3.19961238 -5.08877325 -0.10492387 36 14 14784 6.01200000 885246197 885246197 -1.00000000
4.17282677 -6.63660717 2.10057545 6 15 14784 8.11600000 885246199 885246199 15.00000000
1.09988475 -1.75472689 -0.55490804 4 0 14792 2.14400000 885246220 885246220 -15.00000000
1.26921487 -2.02644324 -0.55202991 3 2 14794 2.45400000 885246224 885246224 -13.00000000
1.50751185 -2.40784502 -0.55220121 3 4 14795 2.89400000 885246229 885246229 -11.00000000
3.18909883 -5.09768343 -0.95237303 4 6 14797 6.08800000 885246234 885246234 -9.00000000
2.40750790 -3.85132194 -0.55767411 2 8 14799 4.57600000 885246238 885246238 -7.00000000
3.49788380 -5.59778404 -0.57749397 16 10 14800 6.62600000 885246243 885246243 -5.00000000
3.19136667 -5.11122370 -0.31579515 35 12 14802 6.03400000 885246248 885246248 -3.00000000
5.56764412 -8.92048264 2.42767167 50 13 14803 10.79200000 885246250 885246250 13.00000000
3.18394685 -5.10330439 -0.10499368 36 14 14804 6.01600000 885246252 885246252 -1.00000000
4.45538712 -7.14119864 2.25534916 15 15 14804 8.71400000 885246254 885246254 15.00000000
1.09579349 -1.76183641 -0.55594331 4 0 14812 2.14800000 885246275 885246275 -15.00000000
1.26213360 -2.03086138 -0.55202991 3 2 14814 2.45400000 885246280 885246280 -13.00000000
3.17128515 -5.10878468 -0.95237303 4 6 14817 6.08800000 885246289 885246289 -9.00000000
2.39404964 -3.85970235 -0.55767411 2 8 14819 4.57600000 885246294 885246294 -7.00000000
3.46257401 -5.58455992 -0.57487929 12 10 14820 6.59600000 885246298 885246298 -5.00000000
3.16719460 -5.11214542 -0.31516713 39 12 14822 6.02200000 885246303 885246303 -3.00000000
5.53544569 -8.93820667 2.42722178 55 13 14823 10.79000000 885246305 885246305 13.00000000
3.17032385 -5.12118816 -0.10513330 36 14 14824 6.02400000 885246307 885246307 -1.00000000
4.45053148 -7.19197845 2.26621962 27 15 14825 8.75600000 885246310 885246310 15.00000000
1.09268057 -1.77058268 -0.55749625 4 0 14832 2.15400000 885246330 885246330 -15.00000000
1.25299120 -2.03193712 -0.55113006 3 2 14834 2.45000000 885246335 885246335 -13.00000000
3.15550470 -5.12318707 -0.95299876 6 6 14837 6.09200000 885246344 885246344 -9.00000000
3.15049911 -5.11906099 -0.73804075 9 8 14839 6.05600000 885246349 885246349 -7.00000000
3.43992710 -5.59152174 -0.57435632 8 10 14840 6.59000000 885246354 885246354 -5.00000000
3.15142250 -5.12657309 -0.31537646 35 12 14842 6.02600000 885246358 885246358 -3.00000000
5.52665710 -8.99400139 2.43711972 53 13 14843 10.83400000 885246360 885246360 13.00000000
3.13986874 -5.11177635 -0.10471444 38 14 14844 6.00000000 885246363 885246363 -1.00000000
4.42641020 -7.20911646 2.26673722 33 15 14845 8.75800000 885246365 885246365 15.00000000
1.08245814 -1.76779604 -0.55542564 4 0 14852 2.14600000 885246386 885246386 -15.00000000
1.25199306 -2.04627228 -0.55382949 3 2 14854 2.46200000 885246390 885246390 -13.00000000
3.13760233 -5.13417053 -0.95299876 4 6 14857 6.09200000 885246400 885246400 -9.00000000
2.37739110 -3.89326382 -0.56011152 2 8 14859 4.59600000 885246404 885246404 -7.00000000
3.41623592 -5.59669304 -0.57365912 8 10 14860 6.58200000 885246409 885246409 -5.00000000
3.12830830 -5.12901640 -0.31485310 13 12 14862 6.01600000 885246413 885246413 -3.00000000
5.51145983 -9.03986073 2.44431806 51 13 14863 10.86600000 885246416 885246416 13.00000000
4.40121889 -7.22452354 2.26673722 33 15 14865 8.75800000 885246420 885246420 15.00000000
1.06925941 -1.76000643 -0.55180222 4 0 14872 2.13200000 885246441 885246441 -15.00000000
1.24282014 -2.04729843 -0.55292970 3 2 14874 2.45800000 885246446 885246446 -13.00000000
1.81075561 -2.98638296 -0.55315226 1 6 14877 3.53600000 885246455 885246455 -9.00000000
2.35555768 -3.88795638 -0.55816162 2 8 14879 4.58000000 885246460 885246460 -7.00000000
3.37397265 -5.57109070 -0.56982422 8 10 14880 6.53800000 885246464 885246464 -5.00000000
5.48557043 -9.06489277 -0.55528450 8 12 14882 10.61000000 885246469 885246469 -3.00000000
5.48592281 -9.06904888 2.44701767 36 13 14883 10.87800000 885246471 885246471 13.00000000
4.37397528 -7.23653603 2.26570201 33 15 14885 8.75400000 885246476 885246476 15.00000000
1.06940258 -1.77346873 -0.55490804 4 0 14891 2.14400000 885246496 885246496 -15.00000000
1.23200130 -2.04473186 -0.55113006 3 2 14893 2.45000000 885246501 885246501 -13.00000000
1.77843380 -2.95513582 -0.54626918 1 6 14896 3.49200000 885246510 885246510 -9.00000000
2.33855963 -3.88894153 -0.55718666 2 8 14898 4.57200000 885246515 885246515 -7.00000000
3.35958552 -5.58907938 -0.57052147 8 10 14899 6.54600000 885246519 885246519 -5.00000000
5.43696928 -9.05221462 -0.55340040 8 12 14901 10.57400000 885246524 885246524 -3.00000000
5.47387409 -9.11726379 2.45511580 48 13 14902 10.91400000 885246526 885246526 13.00000000
4.35618973 -7.25852346 2.26829004 36 15 14903 8.76400000 885246531 885246531 15.00000000
1.06717265 -1.78382206 -0.55697858 4 0 14911 2.15200000 885246552 885246552 -15.00000000
1.22685611 -2.05236530 -0.55202991 3 2 14913 2.45400000 885246556 885246556 -13.00000000
1.78025949 -2.98167849 -0.55002356 1 6 14916 3.51600000 885246565 885246565 -9.00000000
2.32903886 -3.90389991 -0.55816162 2 8 14918 4.58000000 885246570 885246570 -7.00000000
3.33189154 -5.58708286 -0.56912702 8 10 14919 6.53000000 885246575 885246575 -5.00000000
5.40022612 -9.06255913 -0.55287707 8 12 14921 10.56400000 885246579 885246579 -3.00000000
5.44799948 -9.14636135 2.45781517 50 13 14922 10.92600000 885246582 885246582 13.00000000
4.33647299 -7.28606176 2.27191353 33 15 14924 8.77800000 885246586 885246586 15.00000000
1.05798149 -1.78255248 -0.55542564 4 0 14931 2.14600000 885246607 885246607 -15.00000000
1.21968460 -2.05663514 -0.55202991 3 2 14933 2.45400000 885246612 885246612 -13.00000000
1.76581371 -2.98107624 -0.54877210 1 6 14936 3.50800000 885246621 885246621 -9.00000000
2.30528641 -3.89492297 -0.55572420 2 8 14938 4.56000000 885246625 885246625 -7.00000000
3.31033969 -5.59524965 -0.56877840 12 10 14939 6.52600000 885246630 885246630 -5.00000000
5.33908367 -9.03149509 -0.54984158 8 12 14941 10.50600000 885246635 885246635 -3.00000000
5.42694473 -9.18377781 2.46276402 51 13 14942 10.94800000 885246637 885246637 13.00000000
4.31130505 -7.29873848 2.27139592 36 15 14943 8.77600000 885246642 885246642 15.00000000
1.04881215 -1.78124058 -0.55387276 4 0 14951 2.14000000 885246662 885246662 -15.00000000
1.21249819 -2.06088018 -0.55202991 3 2 14953 2.45400000 885246667 885246667 -13.00000000
1.76140189 -2.99744034 -0.55064934 1 6 14956 3.52000000 885246676 885246676 -9.00000000
2.29368687 -3.90636992 -0.55621171 2 8 14958 4.56400000 885246681 885246681 -7.00000000
3.28070331 -5.58958769 -0.56703526 12 10 14959 6.50600000 885246685 885246685 -5.00000000
5.29944229 -9.03629398 -0.54900420 4 12 14961 10.49000000 885246690 885246690 -3.00000000
5.41160870 -9.23124504 2.47041249 52 13 14962 10.98200000 885246692 885246692 13.00000000
4.28843069 -7.32115889 2.27346659 38 15 14964 8.78400000 885246697 885246697 15.00000000
1.03612220 -1.77524376 -0.55076694 4 0 14973 2.12800000 885246718 885246718 -15.00000000
1.21046638 -2.07562089 -0.55472928 3 2 14975 2.46600000 885246722 885246722 -13.00000000
1.42279756 -2.44069004 -0.54914826 5 4 14976 2.87800000 885246727 885246727 -11.00000000
2.29464722 -3.94259882 -0.56011152 2 8 14980 4.59600000 885246736 885246736 -7.00000000
3.26122046 -5.60558796 -0.56738389 12 10 14981 6.51000000 885246741 885246741 -5.00000000
5.26069164 -9.04966831 -0.54858547 4 12 14983 10.48200000 885246745 885246745 -3.00000000
5.39472580 -9.28396988 2.47896051 51 13 14984 11.02000000 885246748 885246748 13.00000000
4.25865746 -7.33181620 2.27191353 33 15 14985 8.77800000 885246752 885246752 15.00000000
1.03379095 -1.78553712 -0.55283749 4 0 14993 2.13600000 885246773 885246773 -15.00000000
1.19735873 -2.06971288 -0.55202991 3 2 14995 2.45400000 885246777 885246777 -13.00000000
2.27491570 -3.94026971 -0.55864906 2 8 15000 4.58400000 885246791 885246791 -7.00000000
3.23366642 -5.60313272 -0.56598938 11 10 15001 6.49400000 885246796 885246796 -5.00000000
5.21709728 -9.04721451 -0.54732943 4 12 15003 10.45800000 885246800 885246800 -3.00000000
5.37493753 -9.32469273 2.48480940 50 13 15004 11.04600000 885246803 885246803 13.00000000
4.23464918 -7.35239792 2.27346659 36 15 15006 8.78400000 885246807 885246807 15.00000000
1.03202736 -1.79547560 -0.55490804 4 0 15011 2.14400000 885246828 885246828 -15.00000000
1.18890953 -2.07008457 -0.55113006 3 2 15013 2.45000000 885246833 885246833 -13.00000000
2.24969292 -3.92500782 -0.55548048 2 8 15018 4.55800000 885246847 885246847 -7.00000000
3.22298098 -5.62536478 -0.56720960 12 10 15019 6.50800000 885246851 885246851 -5.00000000
5.17872620 -9.04622650 -0.54628271 4 12 15021 10.43800000 885246856 885246856 -3.00000000
5.35529518 -9.35844612 2.48930836 46 13 15022 11.06600000 885246858 885246858 13.00000000
4.21665239 -7.37163734 2.27553701 38 15 15023 8.79200000 885246863 885246863 15.00000000
1.02766740 -1.80242360 -0.55594331 4 0 15031 2.14800000 885246883 885246883 -15.00000000
1.18360555 -2.07760835 -0.55202991 3 2 15033 2.45400000 885246888 885246888 -13.00000000
1.39218903 -2.44473147 -0.54685861 2 4 15034 2.86600000 885246893 885246893 -11.00000000
1.71449482 -3.01315665 -0.54908496 1 6 15036 3.51000000 885246897 885246897 -9.00000000
3.20726275 -5.64350986 -0.56790680 12 10 15039 6.51600000 885246906 885246906 -5.00000000
5.14613104 -9.06251144 -0.54617804 8 12 15041 10.43600000 885246911 885246911 -3.00000000
5.33029127 -9.39064026 2.49290752 44 13 15042 11.08200000 885246913 885246913 13.00000000
4.19818306 -7.40216637 2.28019571 33 15 15044 8.81000000 885246918 885246918 15.00000000
1.01915288 -1.80281460 -0.55490804 4 0 15052 2.14400000 885246939 885246939 -15.00000000
1.17789972 -2.08532619 -0.55292970 3 2 15054 2.45800000 885246943 885246943 -13.00000000
1.38128877 -2.44639850 -0.54609537 3 4 15055 2.86200000 885246948 885246948 -11.00000000
1.71120441 -3.03318405 -0.55158794 1 6 15057 3.52600000 885246953 885246953 -9.00000000
2.22057414 -3.93927646 -0.55523676 2 8 15059 4.55600000 885246957 885246957 -7.00000000
3.17775416 -5.63960505 -0.56633800 11 10 15060 6.49800000 885246962 885246962 -5.00000000
5.11386061 -9.08305264 -0.54628271 8 12 15062 10.43800000 885246966 885246966 -3.00000000
4.82751751 -8.57796192 2.27245545 38 13 15063 10.10200000 885246969 885246969 13.00000000
4.16947746 -7.41172457 2.27864289 38 15 15064 8.80400000 885246973 885246973 15.00000000
1.00907433 -1.79962099 -0.55283749 4 0 15072 2.13600000 885246994 885246994 -15.00000000
1.16870832 -2.08602476 -0.55202991 3 2 15074 2.45400000 885246999 885246999 -13.00000000
1.37849653 -2.46148276 -0.54838502 3 4 15075 2.87400000 885247003 885247003 -11.00000000
1.68227863 -3.00638580 -0.54564339 1 6 15077 3.48800000 885247008 885247008 -9.00000000
2.21262240 -3.95739961 -0.55669916 2 8 15079 4.56800000 885247012 885247012 -7.00000000
3.14444065 -5.62631416 -0.56389767 11 10 15080 6.47000000 885247017 885247017 -5.00000000
5.05875349 -9.05899715 -0.54377061 8 12 15082 10.39000000 885247022 885247022 -3.00000000
4.80229425 -8.60326862 2.27470517 51 13 15083 10.11200000 885247024 885247024 13.00000000
4.13663816 -7.41683340 2.27553701 38 15 15085 8.79200000 885247029 885247029 15.00000000
1.00466418 -1.80650902 -0.55387276 4 0 15092 2.14000000 885247049 885247049 -15.00000000
1.16141963 -2.09009171 -0.55202991 3 2 15094 2.45400000 885247054 885247054 -13.00000000
1.37180257 -2.46971202 -0.54914826 2 4 15095 2.87800000 885247059 885247059 -11.00000000
1.67848432 -3.02433014 -0.54783350 1 6 15097 3.50200000 885247063 885247063 -9.00000000
3.12478209 -5.63725615 -0.56389767 11 10 15100 6.47000000 885247072 885247072 -5.00000000
5.01935911 -9.06262302 -0.54293323 4 12 15102 10.37400000 885247077 885247077 -3.00000000
4.77789736 -8.63020897 2.27740455 50 13 15103 10.12400000 885247079 885247079 13.00000000
4.11763287 -7.44065189 2.27864289 36 15 15104 8.80400000 885247084 885247084 15.00000000
0.99741918 -1.80831337 -0.55335510 4 0 15112 2.13800000 885247105 885247105 -15.00000000
1.14847326 -2.08389282 -0.54933047 3 2 15114 2.44200000 885247109 885247109 -13.00000000
1.36506796 -2.47792482 -0.54991150 2 4 15115 2.88200000 885247114 885247114 -11.00000000
1.67267990 -3.03882337 -0.54939783 1 6 15117 3.51200000 885247118 885247118 -9.00000000
3.11276412 -5.66209698 -0.56529212 11 10 15120 6.48600000 885247128 885247128 -5.00000000
4.98288631 -9.07133579 -0.54240984 4 12 15122 10.36400000 885247132 885247132 -3.00000000
4.74117756 -8.63487720 2.27425528 50 13 15123 10.11000000 885247135 885247135 13.00000000
