# .PCD v0.7 - Point Cloud Data file format
VERSION 0.7
FIELDS x y z intensity laser_id azimuth distance_m adjustedtime timestamp vertical_angle
SIZE 4 4 4 1 1 2 8 8 4 8
TYPE F F F U U U F U U F
COUNT 1 1 1 1 1 1 1 1 1 1
WIDTH 551
HEIGHT 1
VIEWPOINT 0 0 0 1 0 0 0
POINTS 551
DATA ascii
2.45593524 1.09088576 -0.62041503 7 2 6605 2.75800000 885923270 885923270 -13.00000000
7.78123331 3.45629501 0.44621637 13 3 6605 8.52600000 885923272 885923272 3.00000000
2.94274592 1.30650413 -0.62585348 5 4 6606 3.28000000 885923274 885923274 -11.00000000
7.77257013 3.44919896 0.74396139 79 5 6607 8.53600000 885923277 885923277 5.00000000
3.71616459 1.64832962 -0.64388424 6 6 6608 4.11600000 885923279 885923279 -9.00000000
7.78704119 3.45236778 1.04588270 92 7 6609 8.58200000 885923281 885923281 7.00000000
5.05443668 2.23981810 -0.67881227 9 8 6610 5.57000000 885923284 885923284 -7.00000000
8.04932404 3.56696939 1.39445686 7 9 6610 8.91400000 885923286 885923286 9.00000000
6.32673216 2.80230069 -0.60538381 16 10 6611 6.94600000 885923288 885923288 -5.00000000
8.10169506 3.58679438 1.72224200 9 11 6612 9.02600000 885923290 885923290 11.00000000
7.76961374 3.43815303 -0.44527432 17 12 6613 8.50800000 885923293 885923293 -3.00000000
7.87373352 3.48258424 1.98766756 2 13 6614 8.83600000 885923295 885923295 13.00000000
7.76200342 3.43154573 -0.14813602 14 14 6615 8.48800000 885923297 885923297 -1.00000000
7.63353348 3.37315726 2.23619652 45 15 6616 8.64000000 885923300 885923300 15.00000000
2.08620977 0.91882360 -0.61081296 4 0 6623 2.36000000 885923320 885923320 -15.00000000
7.75823307 3.41532040 0.14796150 12 1 6624 8.47800000 885923323 885923323 1.00000000
2.45437694 1.07995176 -0.61906528 9 2 6625 2.75200000 885923325 885923325 -13.00000000
7.79142237 3.42830801 0.44611168 15 3 6625 8.52400000 885923327 885923327 3.00000000
2.96166563 1.30254710 -0.62890643 5 4 6626 3.29600000 885923330 885923330 -11.00000000
7.78091478 3.42044306 0.74361283 79 5 6627 8.53200000 885923332 885923332 5.00000000
3.71827865 1.63375843 -0.64325851 4 6 6628 4.11200000 885923334 885923334 -9.00000000
7.78995705 3.42117381 1.04466403 100 7 6629 8.57200000 885923336 885923336 7.00000000
5.06404209 2.22295904 -0.67905599 9 8 6630 5.57200000 885923339 885923339 -7.00000000
8.18110561 3.59125423 1.41510618 10 9 6630 9.04600000 885923341 885923341 9.00000000
6.32187939 2.77379513 -0.60398930 12 10 6631 6.93000000 885923343 885923343 -5.00000000
8.20586205 3.59870577 1.74170446 12 11 6632 9.12800000 885923346 885923346 11.00000000
7.76693392 3.40459633 -0.44443694 12 12 6633 8.49200000 885923348 885923348 -3.00000000
7.92511082 3.47228360 1.99756539 2 13 6634 8.88000000 885923350 885923350 13.00000000
7.77027082 3.40282607 -0.14806622 14 14 6635 8.48400000 885923353 885923353 -1.00000000
7.75439262 3.39587259 2.26829004 45 15 6635 8.76400000 885923355 885923355 15.00000000
2.09294558 0.91308069 -0.61184824 4 0 6643 2.36400000 885923376 885923376 -15.00000000
7.75727606 3.38262343 0.14771716 12 1 6644 8.46400000 885923378 885923378 1.00000000
2.45098615 1.06826329 -0.61726570 9 2 6645 2.74400000 885923380 885923380 -13.00000000
7.78869486 3.39470601 0.44527432 15 3 6645 8.50800000 885923383 885923383 3.00000000
2.96079469 1.28984880 -0.62776160 5 4 6646 3.29000000 885923385 885923385 -11.00000000
7.78915358 3.39167094 0.74326420 79 5 6647 8.52800000 885923387 885923387 5.00000000
3.72033620 1.61919272 -0.64263278 6 6 6648 4.10800000 885923389 885923389 -9.00000000
7.79092979 3.38920975 1.04320157 99 7 6649 8.56000000 885923392 885923392 7.00000000
5.05902767 2.19972777 -0.67734981 9 8 6650 5.55800000 885923394 885923394 -7.00000000
8.27692223 3.59890819 1.42949820 10 9 6650 9.13800000 885923396 885923396 9.00000000
6.34065962 2.75568151 -0.60486084 28 10 6651 6.94000000 885923399 885923399 -5.00000000
8.22557640 3.57316875 1.74323094 6 11 6652 9.13600000 885923401 885923401 11.00000000
7.77144289 3.37428212 -0.44401824 12 12 6653 8.48400000 885923403 885923403 -3.00000000
7.88891649 3.42365170 1.98541796 3 13 6654 8.82600000 885923406 885923406 13.00000000
7.77843237 3.37409043 -0.14799641 14 14 6655 8.48000000 885923408 885923408 -1.00000000
7.84122896 3.39970422 2.29003096 51 15 6656 8.84800000 885923410 885923410 15.00000000
2.10466933 0.91033566 -0.61443639 4 0 6661 2.37400000 885923431 885923431 -15.00000000
7.76786470 3.35823655 0.14771716 12 1 6662 8.46400000 885923433 885923433 1.00000000
2.45790768 1.06210399 -0.61816549 9 2 6663 2.74800000 885923436 885923436 -13.00000000
7.79257488 3.36569118 0.44485563 15 3 6664 8.50000000 885923438 885923438 3.00000000
2.96843696 1.28209770 -0.62852484 5 4 6664 3.29400000 885923440 885923440 -11.00000000
7.79245329 3.36402512 0.74256694 76 5 6665 8.52000000 885923442 885923442 5.00000000
3.73628712 1.61219263 -0.64450997 6 6 6666 4.12000000 885923445 885923445 -9.00000000
7.79242516 3.36078644 1.04198289 97 7 6667 8.55000000 885923447 885923447 7.00000000
5.05132961 2.17753696 -0.67539990 9 8 6668 5.54200000 885923449 885923449 -7.00000000
7.74942827 3.34063840 1.33657610 5 9 6668 8.54400000 885923452 885923452 9.00000000
6.34196615 2.73259449 -0.60416359 36 10 6669 6.93200000 885923454 885923454 -5.00000000
7.70483398 3.31822562 1.63065362 12 11 6670 8.54600000 885923456 885923456 11.00000000
7.77650166 3.34748173 -0.44370425 17 12 6671 8.47800000 885923459 885923459 -3.00000000
7.76511288 3.33936715 -0.14754264 18 14 6673 8.45400000 885923463 885923463 -1.00000000
7.71995354 3.31994653 2.25172567 20 15 6673 8.70000000 885923466 885923466 15.00000000
2.09895539 0.89917982 -0.61184824 4 0 6681 2.36400000 885923486 885923486 -15.00000000
7.70600939 3.29961634 0.14632097 12 1 6682 8.38400000 885923489 885923489 1.00000000
2.46518326 1.05505133 -0.61906528 9 2 6683 2.75200000 885923491 885923491 -13.00000000
7.69226170 3.29055285 0.43847063 21 3 6684 8.37800000 885923493 885923493 3.00000000
2.96567416 1.26863956 -0.62699836 5 4 6684 3.28600000 885923495 885923495 -11.00000000
7.69423103 3.28980660 0.73210824 21 5 6685 8.40000000 885923498 885923498 5.00000000
3.75460720 1.60457468 -0.64670008 6 6 6686 4.13400000 885923500 885923500 -9.00000000
7.69092655 3.28521872 1.02687109 28 7 6687 8.42600000 885923502 885923502 7.00000000
5.07898235 2.16846538 -0.67808104 9 8 6688 5.56400000 885923505 885923505 -7.00000000
7.68531227 3.27964878 1.32343554 25 9 6689 8.46000000 885923507 885923507 9.00000000
6.33680630 2.70418429 -0.60276914 40 10 6689 6.91600000 885923509 885923509 -5.00000000
7.70553446 3.28668904 1.62836397 25 11 6690 8.53400000 885923512 885923512 11.00000000
7.67790365 3.27331972 -0.43742391 17 12 6691 8.35800000 885923514 885923514 -3.00000000
7.69452524 3.27881908 1.93097985 28 13 6692 8.58400000 885923516 885923516 13.00000000
7.65529680 3.26052427 -0.14523892 22 14 6693 8.32200000 885923519 885923519 -1.00000000
7.70896292 3.28179216 2.24499631 22 15 6694 8.67400000 885923521 885923521 15.00000000
2.09705639 0.88885206 -0.61029530 4 0 6703 2.35800000 885923542 885923542 -15.00000000
7.67074871 3.24972153 0.14541344 31 1 6704 8.33200000 885923544 885923544 1.00000000
2.47101068 1.04633784 -0.61951518 7 2 6705 2.75400000 885923546 885923546 -13.00000000
7.68460751 3.25242925 0.43731925 36 3 6706 8.35600000 885923548 885923548 3.00000000
2.97052336 1.25724280 -0.62699836 5 4 6706 3.28600000 885923551 885923551 -11.00000000
7.68111658 3.24937129 0.72966790 32 5 6707 8.37200000 885923553 885923553 5.00000000
3.74254632 1.58245325 -0.64357138 6 6 6708 4.11400000 885923555 885923555 -9.00000000
7.69434166 3.25179982 1.02565241 30 7 6709 8.41600000 885923558 885923558 7.00000000
5.09458542 2.15203714 -0.67905599 6 8 6710 5.57200000 885923560 885923560 -7.00000000
7.69182205 3.24915266 1.32249701 25 9 6710 8.45400000 885923562 885923562 9.00000000
6.32878780 2.67208314 -0.60102600 40 10 6711 6.89600000 885923565 885923565 -5.00000000
7.70362759 3.25097108 1.62531102 28 11 6712 8.51800000 885923567 885923567 11.00000000
7.67017269 3.23527622 -0.43627253 38 12 6713 8.33600000 885923569 885923569 -3.00000000
7.71962786 3.25454950 1.93412912 30 13 6714 8.59800000 885923572 885923572 13.00000000
7.66407442 3.22955322 -0.14516912 42 14 6715 8.31800000 885923574 885923574 -1.00000000
7.73340130 3.25876665 2.24861979 20 15 6715 8.68800000 885923576 885923576 15.00000000
2.10727143 0.88451731 -0.61236584 4 0 6723 2.36600000 885923597 885923597 -15.00000000
7.66729403 3.21673679 0.14513421 31 1 6724 8.31600000 885923599 885923599 1.00000000
2.46925664 1.03544521 -0.61816549 9 2 6725 2.74800000 885923601 885923601 -13.00000000
7.70328188 3.22867346 0.43773794 26 3 6726 8.36400000 885923604 885923604 3.00000000
2.97489405 1.24686611 -0.62699836 5 4 6726 3.28600000 885923606 885923606 -11.00000000
7.69976282 3.22561884 0.73036510 21 5 6727 8.38000000 885923608 885923608 5.00000000
3.74986959 1.57014263 -0.64388424 6 6 6728 4.11600000 885923611 885923611 -9.00000000
7.72945118 3.23488450 1.02882099 23 7 6729 8.44200000 885923613 885923613 7.00000000
5.09840393 2.13270855 -0.67856848 9 8 6730 5.56800000 885923615 885923615 -7.00000000
7.72737122 3.23084497 1.32656431 10 9 6731 8.48000000 885923618 885923618 9.00000000
6.33072376 2.64690089 -0.60032874 40 10 6731 6.88800000 885923620 885923620 -5.00000000
7.67404747 3.20540333 -0.43585384 25 12 6733 8.32800000 885923624 885923624 -3.00000000
8.16793156 3.41002154 2.04345536 48 13 6734 9.08400000 885923627 885923627 13.00000000
7.67899179 3.20432091 -0.14523892 16 14 6735 8.32200000 885923629 885923629 -1.00000000
7.85762119 3.27725005 2.28123116 40 15 6736 8.81400000 885923631 885923631 15.00000000
2.10127425 0.87381560 -0.60977769 4 0 6742 2.35600000 885923652 885923652 -15.00000000
7.73885489 3.21662116 0.14628607 15 1 6743 8.38200000 885923654 885923654 1.00000000
2.46547818 1.02426064 -0.61636591 9 2 6744 2.74000000 885923657 885923657 -13.00000000
7.77666092 3.22915220 0.44129679 15 3 6745 8.43200000 885923659 885923659 3.00000000
2.99351764 1.24301720 -0.63005131 5 4 6745 3.30200000 885923661 885923661 -11.00000000
7.80058670 3.23749089 0.73890638 54 5 6746 8.47800000 885923664 885923664 5.00000000
3.73863411 1.55088687 -0.64106846 6 6 6747 4.09800000 885923666 885923666 -9.00000000
7.80981731 3.23812652 1.03808308 97 7 6748 8.51800000 885923668 885923668 7.00000000
5.10544825 2.11578989 -0.67856848 9 8 6749 5.56800000 885923671 885923671 -7.00000000
6.33762598 2.62513065 -0.60015446 36 10 6750 6.88600000 885923675 885923675 -5.00000000
7.77137280 3.21583033 -0.44077343 17 12 6752 8.42200000 885923680 885923680 -3.00000000
8.19900322 3.39110970 2.04840422 45 13 6753 9.10600000 885923682 885923682 13.00000000
7.79491234 3.22238469 -0.14722849 16 14 6754 8.43600000 885923684 885923684 -1.00000000
7.86609316 3.25181055 2.28071332 56 15 6754 8.81200000 885923687 885923687 15.00000000
2.11324334 0.87015319 -0.61236584 4 0 6762 2.36600000 885923707 885923707 -15.00000000
7.80551195 3.21241975 0.14733322 12 1 6763 8.44200000 885923710 885923710 1.00000000
2.46903849 1.01564837 -0.61636591 9 2 6764 2.74000000 885923712 885923712 -13.00000000
7.81189966 3.21186018 0.44265753 21 3 6765 8.45800000 885923714 885923714 3.00000000
2.98331213 1.22658789 -0.62699836 5 4 6765 3.28600000 885923717 885923717 -11.00000000
7.81921148 3.21327138 0.73960364 79 5 6766 8.48600000 885923719 885923719 5.00000000
3.75864291 1.54383135 -0.64357138 6 6 6767 4.11400000 885923721 885923721 -9.00000000
7.81923628 3.21009159 1.03783929 100 7 6768 8.51600000 885923724 885923724 7.00000000
5.09811068 2.09192705 -0.67661858 9 8 6769 5.55200000 885923726 885923726 -7.00000000
6.35228062 2.60526013 -0.60067737 40 10 6770 6.89200000 885923730 885923730 -5.00000000
7.80103254 3.19625592 -0.44182014 17 12 6772 8.44200000 885923735 885923735 -3.00000000
8.21800423 3.36542344 2.05020380 47 13 6773 9.11400000 885923737 885923737 13.00000000
7.79871035 3.19212580 -0.14708889 14 14 6774 8.42800000 885923740 885923740 -1.00000000
7.87795877 3.22295809 2.28071332 63 15 6775 8.81200000 885923742 885923742 15.00000000
2.10359597 0.85803330 -0.60874242 4 0 6781 2.35200000 885923763 885923763 -15.00000000
7.80315971 3.18123341 0.14708889 12 1 6782 8.42800000 885923765 885923765 1.00000000
2.47600245 1.00892580 -0.61726570 9 2 6783 2.74400000 885923767 885923767 -13.00000000
7.81325865 3.18217063 0.44213417 13 3 6784 8.44800000 885923770 885923770 3.00000000
2.98372674 1.21520710 -0.62623513 6 4 6784 3.28200000 885923772 885923772 -11.00000000
7.81690693 3.18206573 0.73838347 100 5 6785 8.47200000 885923774 885923774 5.00000000
3.77289033 1.53508103 -0.64513576 6 6 6786 4.12400000 885923777 885923777 -9.00000000
7.81512785 3.17816186 1.03588939 100 7 6787 8.50000000 885923779 885923779 7.00000000
5.10869789 2.07650471 -0.67710608 9 8 6788 5.55600000 885923781 885923781 -7.00000000
6.35165596 2.58043146 -0.59980583 32 10 6789 6.88200000 885923786 885923786 -5.00000000
7.81528997 3.17187142 -0.44202948 17 12 6791 8.44600000 885923790 885923790 -3.00000000
8.24356556 3.34401321 2.05380321 37 13 6792 9.13000000 885923793 885923793 13.00000000
7.78330851 3.15572762 -0.14660022 14 14 6793 8.40000000 885923795 885923795 -1.00000000
7.87014198 3.19093394 2.27553701 63 15 6793 8.79200000 885923797 885923797 15.00000000
2.11195207 0.85285527 -0.61029530 4 0 6801 2.35800000 885923818 885923818 -15.00000000
7.79938221 3.14798832 0.14680964 12 1 6802 8.41200000 885923820 885923820 1.00000000
2.48493075 1.00246406 -0.61861539 7 2 6803 2.75000000 885923823 885923823 -13.00000000
7.82061434 3.15338397 0.44192481 10 3 6804 8.44400000 885923825 885923825 3.00000000
2.99523377 1.20772123 -0.62776160 6 4 6804 3.29000000 885923827 885923827 -11.00000000
7.80209494 3.14433384 0.73594308 90 5 6805 8.44400000 885923830 885923830 5.00000000
3.76723194 1.51747346 -0.64325851 6 6 6806 4.11200000 885923832 885923832 -9.00000000
7.82617378 3.15086269 1.03588939 100 7 6807 8.50000000 885923834 885923834 7.00000000
5.11959791 2.06014132 -0.67759353 9 8 6808 5.56000000 885923836 885923836 -7.00000000
6.34213972 2.55080962 -0.59806269 8 10 6809 6.86200000 885923841 885923841 -5.00000000
7.81890106 3.14159298 -0.44161081 17 12 6811 8.43800000 885923846 885923846 -3.00000000
8.25337982 3.31449127 2.05335331 35 13 6812 9.12800000 885923848 885923848 13.00000000
7.78685331 3.12556005 -0.14646059 14 14 6813 8.39200000 885923850 885923850 -1.00000000
7.86744070 3.15631270 2.27139592 58 15 6814 8.77600000 885923853 885923853 15.00000000
2.11297488 0.84512967 -0.60977769 4 0 6820 2.35600000 885923873 885923873 -15.00000000
7.80235100 3.11913824 0.14667003 12 1 6821 8.40400000 885923876 885923876 1.00000000
2.48462224 0.99277204 -0.61771560 7 2 6822 2.74600000 885923878 885923878 -13.00000000
7.83102846 3.12743258 0.44192481 13 3 6823 8.44400000 885923880 885923880 3.00000000
3.00286865 1.19923830 -0.62852484 6 4 6823 3.29400000 885923883 885923883 -11.00000000
7.80692816 3.11622810 0.73542017 83 5 6824 8.43800000 885923885 885923885 5.00000000
3.76306963 1.50131261 -0.64169419 6 6 6825 4.10200000 885923887 885923887 -9.00000000
7.82182837 3.11901069 1.03393948 100 7 6826 8.48400000 885923889 885923889 7.00000000
5.13377762 2.04609275 -0.67856848 9 8 6827 5.56800000 885923892 885923892 -7.00000000
6.35796738 2.53271365 -0.59875995 12 10 6828 6.87000000 885923896 885923896 -5.00000000
7.80886316 3.10752416 -0.44045940 12 12 6830 8.41600000 885923901 885923901 -3.00000000
7.79717541 3.09972072 -0.14646059 14 14 6832 8.39200000 885923906 885923906 -1.00000000
7.87372732 3.13015342 2.27036071 54 15 6832 8.77200000 885923908 885923908 15.00000000
2.12668920 0.84201586 -0.61288351 4 0 6840 2.36800000 885923929 885923929 -15.00000000
7.80947256 3.09041238 0.14660022 12 1 6841 8.40000000 885923931 885923931 1.00000000
2.48807240 0.98409307 -0.61771560 7 2 6842 2.74600000 885923933 885923933 -13.00000000
7.81775141 3.09053254 0.44056407 13 3 6843 8.41800000 885923936 885923936 3.00000000
3.01068807 1.19019258 -0.62928808 8 4 6843 3.29800000 885923938 885923938 -11.00000000
7.82146406 3.09042215 0.73576880 83 5 6844 8.44200000 885923940 885923940 5.00000000
3.77563643 1.49107015 -0.64294565 6 6 6845 4.11000000 885923942 885923942 -9.00000000
7.81789637 3.08585787 1.03198957 100 7 6846 8.46800000 885923945 885923945 7.00000000
5.11688328 2.01868939 -0.67539990 9 8 6847 5.54200000 885923947 885923947 -7.00000000
6.35935545 2.50758123 -0.59806269 16 10 6848 6.86200000 885923952 885923952 -5.00000000
7.78807211 3.06780314 -0.43867999 17 12 6850 8.38200000 885923956 885923956 -3.00000000
7.80422640 3.07102013 -0.14639078 16 14 6852 8.38800000 885923961 885923961 -1.00000000
7.87381983 3.09840560 2.26725483 56 15 6852 8.76000000 885923963 885923963 15.00000000
2.13350439 0.83525229 -0.61391878 4 0 6862 2.37200000 885923984 885923984 -15.00000000
7.80638361 3.05457401 0.14632097 15 1 6863 8.38400000 885923986 885923986 1.00000000
2.48457313 0.97169316 -0.61591601 7 2 6864 2.73800000 885923989 885923989 -13.00000000
7.82211971 3.05758333 0.44014540 13 3 6865 8.41000000 885923991 885923991 3.00000000
3.01157880 1.17719412 -0.62852484 13 4 6865 3.29400000 885923993 885923993 -11.00000000
7.81657076 3.05384183 0.73420000 76 5 6866 8.42400000 885923995 885923995 5.00000000
3.79237437 1.48087299 -0.64482284 6 6 6867 4.12200000 885923998 885923998 -9.00000000
7.82044125 3.05220795 1.03077090 95 7 6868 8.45800000 885924000 885924000 7.00000000
5.13199377 2.00191283 -0.67637485 9 8 6869 5.55000000 885924002 885924002 -7.00000000
6.38564348 2.48965836 -0.59963149 32 10 6870 6.88000000 885924007 885924007 -5.00000000
7.80723858 3.04077601 -0.43909869 21 12 6872 8.39000000 885924012 885924012 -3.00000000
7.81036997 3.03885627 -0.14628607 20 14 6874 8.38200000 885924016 885924016 -1.00000000
7.88745928 3.06885004 2.26777244 49 15 6874 8.76200000 885924018 885924018 15.00000000
2.12559891 0.82361197 -0.61081296 4 0 6882 2.36000000 885924039 885924039 -15.00000000
7.81699848 3.02730608 0.14632097 18 1 6883 8.38400000 885924042 885924042 1.00000000
2.49158454 0.96442133 -0.61681581 7 2 6884 2.74200000 885924044 885924044 -13.00000000
7.82901955 3.02881932 0.43993604 13 3 6885 8.40600000 885924046 885924046 3.00000000
3.01383853 1.16596615 -0.62814319 22 4 6885 3.29200000 885924048 885924048 -11.00000000
7.81974983 3.02366400 0.73350275 79 5 6886 8.41600000 885924051 885924051 5.00000000
3.79383516 1.46620190 -0.64419711 6 6 6887 4.11800000 885924053 885924053 -9.00000000
7.84030676 3.02846718 1.03198957 100 7 6888 8.46800000 885924055 885924055 7.00000000
5.12413549 1.97826695 -0.67442495 9 8 6889 5.53400000 885924058 885924058 -7.00000000
6.37570715 2.46018052 -0.59788841 32 10 6890 6.86000000 885924062 885924062 -5.00000000
7.82525969 3.01637864 -0.43951735 17 12 6892 8.39800000 885924067 885924067 -3.00000000
7.80600071 3.00582576 -0.14600684 20 14 6894 8.36600000 885924071 885924071 -1.00000000
7.88242769 3.03367543 2.26311374 51 15 6895 8.74400000 885924074 885924074 15.00000000
2.12096167 0.81416094 -0.60874242 4 0 6900 2.35200000 885924095 885924095 -15.00000000
7.80966759 2.99628663 0.14600684 21 1 6901 8.36600000 885924097 885924097 1.00000000
2.50188041 0.95937997 -0.61861539 7 2 6902 2.75000000 885924099 885924099 -13.00000000
7.84222603 3.00563836 0.44014540 13 3 6903 8.41000000 885924101 885924101 3.00000000
3.01748657 1.15649223 -0.62814319 15 4 6903 3.29200000 885924104 885924104 -11.00000000
7.81432581 2.99338102 0.73210824 79 5 6904 8.40000000 885924106 885924106 5.00000000
3.79288840 1.45215702 -0.64325851 6 6 6905 4.11200000 885924108 885924108 -9.00000000
7.84236622 3.00098348 1.03101468 100 7 6906 8.46000000 885924111 885924111 7.00000000
5.14144993 1.96641409 -0.67588741 9 8 6907 5.54600000 885924113 885924113 -7.00000000
6.37968254 2.43871570 -0.59753978 16 10 6908 6.85600000 885924118 885924118 -5.00000000
7.82723379 2.98892999 -0.43909869 17 12 6910 8.39000000 885924122 885924122 -3.00000000
7.81353712 2.98057485 -0.14597192 22 14 6912 8.36400000 885924127 885924127 -1.00000000
7.88056421 3.00614333 2.26000786 49 15 6912 8.73200000 885924129 885924129 15.00000000
2.13101459 0.80949646 -0.61081296 4 0 6920 2.36000000 885924150 885924150 -15.00000000
7.81260061 2.96616840 0.14586721 25 1 6921 8.35800000 885924152 885924152 1.00000000
2.50156999 0.94925821 -0.61771560 7 2 6922 2.74600000 885924154 885924154 -13.00000000
7.84893513 2.97682905 0.43993604 13 3 6923 8.40600000 885924157 885924157 3.00000000
3.02884793 1.14873695 -0.62966967 9 4 6923 3.30000000 885924159 885924159 -11.00000000
7.82472706 2.96608567 0.73210824 90 5 6924 8.40000000 885924161 885924161 5.00000000
3.78130913 1.43260980 -0.64044273 6 6 6925 4.09400000 885924164 885924164 -9.00000000
7.84165525 2.96937227 1.02955222 100 7 6926 8.44800000 885924166 885924166 7.00000000
5.15942240 1.95267093 -0.67734981 9 8 6927 5.55800000 885924168 885924168 -7.00000000
6.37324810 2.41079235 -0.59614527 16 10 6928 6.84000000 885924173 885924173 -5.00000000
7.81893635 2.95452976 -0.43805194 17 12 6930 8.37000000 885924177 885924177 -3.00000000
7.82389355 2.95328236 -0.14597192 18 14 6932 8.36400000 885924182 885924182 -1.00000000
7.88920212 2.97793436 2.25949025 47 15 6932 8.73000000 885924184 885924184 15.00000000
2.13048983 0.79994988 -0.60977769 4 0 6942 2.35600000 885924205 885924205 -15.00000000
7.82018805 2.93474317 0.14579740 18 1 6943 8.35400000 885924207 885924207 1.00000000
2.49424863 0.93553966 -0.61501616 7 2 6944 2.73400000 885924210 885924210 -13.00000000
7.85044289 2.94453406 0.43941268 15 3 6944 8.39600000 885924212 885924212 3.00000000
3.05161953 1.14399016 -0.63348585 6 4 6945 3.32000000 885924214 885924214 -11.00000000
7.83046103 2.93392205 0.73158532 76 5 6946 8.39400000 885924217 885924217 5.00000000
3.79973149 1.42292941 -0.64263278 6 6 6947 4.10800000 885924219 885924219 -9.00000000
7.84184408 2.93506575 1.02808976 99 7 6948 8.43600000 885924221 885924221 7.00000000
5.14828920 1.92589068 -0.67491245 9 8 6949 5.53800000 885924223 885924223 -7.00000000
6.38059139 2.38560534 -0.59597099 16 10 6950 6.83800000 885924228 885924228 -5.00000000
7.81899691 2.92029262 -0.43742391 17 12 6952 8.35800000 885924233 885924233 -3.00000000
7.83517551 2.92321920 -0.14597192 18 14 6954 8.36400000 885924237 885924237 -1.00000000
7.89695835 2.94626951 2.25845504 47 15 6954 8.72600000 885924240 885924240 15.00000000
2.13870215 0.79452646 -0.61133057 4 0 6962 2.36200000 885924260 885924260 -15.00000000
7.82850981 2.90673184 0.14576250 21 1 6963 8.35200000 885924263 885924263 1.00000000
2.50115323 0.92818338 -0.61591601 7 2 6964 2.73800000 885924265 885924265 -13.00000000
7.84245634 2.90879560 0.43836597 13 3 6965 8.37600000 885924267 885924267 3.00000000
3.04086852 1.12786913 -0.63043290 5 4 6965 3.30400000 885924270 885924270 -11.00000000
7.83878660 2.90587807 0.73141098 79 5 6966 8.39200000 885924272 885924272 5.00000000
3.81023216 1.41171610 -0.64357138 6 6 6967 4.11400000 885924274 885924274 -9.00000000
7.84645700 2.90560651 1.02735853 97 7 6968 8.43000000 885924276 885924276 7.00000000
5.15870380 1.90928614 -0.67539990 9 8 6969 5.54200000 885924279 885924279 -7.00000000
6.39822340 2.36677456 -0.59684253 16 10 6970 6.84800000 885924283 885924283 -5.00000000
7.82164955 2.89021254 -0.43700522 17 12 6972 8.35000000 885924288 885924288 -3.00000000
7.82657194 2.88892698 -0.14562288 18 14 6974 8.34400000 885924293 885924293 -1.00000000
7.90951633 2.91797471 2.25897264 51 15 6975 8.72800000 885924295 885924295 15.00000000
2.13756156 0.78646952 -0.61029530 4 0 6980 2.35800000 885924316 885924316 -15.00000000
7.83947992 2.88281369 0.14579740 18 1 6981 8.35400000 885924318 885924318 1.00000000
2.51137328 0.92301023 -0.61771560 7 2 6982 2.74600000 885924320 885924320 -13.00000000
7.85105228 2.88551378 0.43836597 15 3 6982 8.37600000 885924323 885924323 3.00000000
3.03702545 1.11560273 -0.62890643 5 4 6983 3.29600000 885924325 885924325 -11.00000000
7.84226608 2.87917757 0.73088807 83 5 6984 8.38600000 885924327 885924327 5.00000000
3.80908489 1.39769757 -0.64263278 6 6 6985 4.10800000 885924329 885924329 -9.00000000
7.85740995 2.88162541 1.02760231 100 7 6986 8.43200000 885924332 885924332 7.00000000
5.16281271 1.89238703 -0.67515618 9 8 6987 5.54000000 885924334 885924334 -7.00000000
6.39253139 2.34186482 -0.59562236 16 10 6988 6.83400000 885924339 885924339 -5.00000000
7.83256626 2.86631227 -0.43710992 17 12 6990 8.35200000 885924343 885924343 -3.00000000
7.82434034 2.86020541 -0.14541344 18 14 6992 8.33200000 885924348 885924348 -1.00000000
7.90906715 2.89117742 2.25638437 47 15 6992 8.71800000 885924350 885924350 15.00000000
2.13666320 0.77768177 -0.60926002 4 0 7000 2.35400000 885924371 885924371 -15.00000000
7.83634043 2.85064578 0.14555307 15 1 7001 8.34000000 885924373 885924373 1.00000000
2.51457977 0.91423833 -0.61771560 7 2 7002 2.74600000 885924375 885924375 -13.00000000
7.85356855 2.85536098 0.43794727 18 3 7002 8.36800000 885924378 885924378 3.00000000
3.04274631 1.10566521 -0.62928808 5 4 7003 3.29800000 885924380 885924380 -11.00000000
7.83915949 2.84702444 0.72966790 76 5 7004 8.37200000 885924382 885924382 5.00000000
3.80465651 1.38102293 -0.64106846 6 6 7005 4.09800000 885924385 885924385 -9.00000000
7.85435820 2.84944153 1.02589619 97 7 7006 8.41800000 885924387 885924387 7.00000000
5.15818977 1.87029397 -0.67369372 9 8 7007 5.52800000 885924389 885924389 -7.00000000
6.41565275 2.32496715 -0.59701681 16 10 7008 6.85000000 885924394 885924394 -5.00000000
7.84252357 2.83895397 -0.43710992 17 12 7010 8.35200000 885924399 885924399 -3.00000000
7.82675457 2.83015585 -0.14527383 18 14 7012 8.32400000 885924403 885924403 -1.00000000
7.89731073 2.85566902 2.25017285 47 15 7012 8.69400000 885924405 885924405 15.00000000
2.13923025 0.77059209 -0.60926002 4 0 7019 2.35400000 885924426 885924426 -15.00000000
7.83822441 2.82193446 0.14541344 15 1 7020 8.33200000 885924428 885924428 1.00000000
2.51026320 0.90325546 -0.61591601 7 2 7021 2.73800000 885924431 885924431 -13.00000000
7.86160851 2.82725358 0.43784261 15 3 7022 8.36600000 885924433 885924433 3.00000000
3.05378580 1.09822655 -0.63081455 6 4 7022 3.30600000 885924435 885924435 -11.00000000
7.84105778 2.81831765 0.72897065 76 5 7023 8.36400000 885924438 885924438 5.00000000
3.80177903 1.36572719 -0.63981694 6 6 7024 4.09000000 885924440 885924440 -9.00000000
7.86002779 2.82203817 1.02540863 97 7 7025 8.41400000 885924442 885924442 7.00000000
5.18117952 1.85921276 -0.67588741 9 8 7026 5.54600000 885924445 885924445 -7.00000000
7.82051802 2.80477142 -0.72687888 17 10 7027 8.34000000 885924449 885924449 -5.00000000
7.82745171 2.80417490 -0.43574917 17 12 7029 8.32600000 885924454 885924454 -3.00000000
7.83233118 2.80283833 -0.14520402 18 14 7031 8.32000000 885924458 885924458 -1.00000000
7.91086864 2.82938600 2.25120807 47 15 7032 8.69800000 885924461 885924461 15.00000000
2.15100598 0.76636189 -0.61184824 4 0 7039 2.36400000 885924481 885924481 -15.00000000
7.84049177 2.79187369 0.14527383 28 1 7040 8.32400000 885924484 885924484 1.00000000
2.50605702 0.89187396 -0.61411637 7 2 7041 2.73000000 885924486 885924486 -13.00000000
7.85400581 2.79514122 0.43690056 23 3 7041 8.34800000 885924488 885924488 3.00000000
3.06130004 1.08887601 -0.63157779 5 4 7042 3.31000000 885924491 885924491 -11.00000000
7.85084772 2.79093003 0.72897065 76 5 7043 8.36400000 885924493 885924493 5.00000000
3.81024575 1.35377097 -0.64044273 6 6 7044 4.09400000 885924495 885924495 -9.00000000
7.85486507 2.78927016 1.02345872 97 7 7045 8.39800000 885924498 885924498 7.00000000
5.17267179 1.83580410 -0.67393744 9 8 7046 5.53000000 885924500 885924500 -7.00000000
7.82650566 2.77612352 -0.72653025 17 10 7047 8.33600000 885924505 885924505 -5.00000000
7.83342743 2.77550077 -0.43553984 17 12 7049 8.32200000 885924509 885924509 -3.00000000
7.84772253 2.77748299 -0.14530873 16 14 7051 8.32600000 885924514 885924514 -1.00000000
7.91887569 2.80111051 2.25069046 47 15 7052 8.69600000 885924516 885924516 15.00000000
2.15380049 0.75847286 -0.61184824 4 0 7060 2.36400000 885924537 885924537 -15.00000000
7.84689951 2.76179028 0.14520402 18 1 7061 8.32000000 885924539 885924539 1.00000000
2.50930905 0.88268280 -0.61411637 7 2 7062 2.73000000 885924541 885924541 -13.00000000
7.84724092 2.76037121 0.43595850 23 3 7062 8.33000000 885924544 885924544 3.00000000
3.05230570 1.07309043 -0.62890643 5 4 7063 3.29600000 885924546 885924546 -11.00000000
7.85538483 2.76015496 0.72844768 76 5 7064 8.35800000 885924548 885924548 5.00000000
3.81890965 1.34110558 -0.64106846 6 6 7065 4.09800000 885924551 885924551 -9.00000000
7.86503553 2.76046205 1.02345872 92 7 7066 8.39800000 885924553 885924553 7.00000000
5.16438007 1.81157637 -0.67198753 9 8 7067 5.51400000 885924555 885924555 -7.00000000
7.82722712 2.74412346 -0.72565871 17 10 7068 8.32600000 885924560 885924560 -5.00000000
7.83223724 2.74281049 -0.43491179 17 12 7070 8.31000000 885924564 885924564 -3.00000000
7.84086180 2.74275851 -0.14499459 18 14 7072 8.30800000 885924569 885924569 -1.00000000
7.92361784 2.77015495 2.24913740 47 15 7073 8.69000000 885924571 885924571 15.00000000
2.14183974 0.74586755 -0.60770714 4 0 7080 2.34800000 885924592 885924592 -15.00000000
7.85838079 2.73503995 0.14523892 15 1 7081 8.32200000 885924594 885924594 1.00000000
2.51973724 0.87647927 -0.61591601 7 2 7082 2.73800000 885924597 885924597 -13.00000000
7.86814690 2.73689938 0.43658656 49 3 7082 8.34200000 885924599 885924599 3.00000000
3.04676080 1.05920601 -0.62699836 5 4 7083 3.28600000 885924601 885924601 -11.00000000
7.85367966 2.72879434 0.72740185 76 5 7084 8.34600000 885924604 885924604 5.00000000
3.82916594 1.32971096 -0.64200705 6 6 7085 4.10400000 885924606 885924606 -9.00000000
7.87462330 2.73299122 1.02345872 95 7 7086 8.39800000 885924608 885924608 7.00000000
5.17254734 1.79418886 -0.67223132 9 8 7087 5.51600000 885924611 885924611 -7.00000000
7.81793308 2.71025872 -0.72391558 17 10 7088 8.30600000 885924615 885924615 -5.00000000
7.84176397 2.71545410 -0.43491179 17 12 7090 8.31000000 885924620 885924620 -3.00000000
7.83715916 2.71079636 -0.14475025 16 14 7092 8.29400000 885924624 885924624 -1.00000000
7.92958784 2.74121690 2.24810219 47 15 7093 8.68600000 885924627 885924627 15.00000000
2.14808345 0.73964447 -0.60874242 4 0 7100 2.35200000 885924647 885924647 -15.00000000
7.85275316 2.70238662 0.14495969 15 1 7101 8.30600000 885924650 885924650 1.00000000
2.52646685 0.86894596 -0.61681581 7 2 7102 2.74200000 885924652 885924652 -13.00000000
7.87009811 2.70681953 0.43616787 36 3 7102 8.33400000 885924654 885924654 3.00000000
3.06157947 1.05239356 -0.62928808 5 4 7103 3.29800000 885924657 885924657 -11.00000000
7.85185146 2.69747925 0.72635597 76 5 7104 8.33400000 885924659 885924659 5.00000000
3.83378410 1.31633663 -0.64200705 6 6 7105 4.10400000 885924661 885924661 -9.00000000
7.88036013 2.70419836 1.02297127 95 7 7106 8.39400000 885924663 885924663 7.00000000
5.17877865 1.77612233 -0.67223132 9 8 7107 5.51600000 885924666 885924666 -7.00000000
7.62379360 2.61318159 -0.70508999 17 10 7108 8.09000000 885924670 885924670 -5.00000000
7.85497379 2.68935871 -0.43512115 21 12 7110 8.31400000 885924675 885924675 -3.00000000
7.84468174 2.68277597 -0.14471535 18 14 7112 8.29200000 885924680 885924680 -1.00000000
7.92401123 2.70990539 2.24396110 47 15 7112 8.67000000 885924682 885924682 15.00000000
2.15065217 0.73214173 -0.60874242 4 0 7120 2.35200000 885924703 885924703 -15.00000000
7.84131384 2.66787386 0.14457573 15 1 7121 8.28400000 885924705 885924705 1.00000000
2.51841474 0.85635746 -0.61411637 7 2 7122 2.73000000 885924707 885924707 -13.00000000
7.87949848 2.67933130 0.43616787 36 3 7122 8.33400000 885924710 885924710 3.00000000
3.06895185 1.04296362 -0.63005131 5 4 7123 3.30200000 885924712 885924712 -11.00000000
7.86121941 2.67005467 0.72635597 76 5 7124 8.33400000 885924714 885924714 5.00000000
3.83274412 1.30104125 -0.64106846 6 6 7125 4.09800000 885924716 885924716 -9.00000000
7.87659264 2.67220998 1.02126515 99 7 7126 8.38000000 885924719 885924719 7.00000000
5.19622707 1.76185882 -0.67369372 9 8 7127 5.52800000 885924721 885924721 -7.00000000
7.62720823 2.58463526 -0.70456702 30 10 7128 8.08400000 885924726 885924726 -5.00000000
7.85485458 2.65872169 -0.43459779 21 12 7130 8.30400000 885924730 885924730 -3.00000000
7.95800114 2.69208694 1.93952799 3 13 7131 8.62200000 885924733 885924733 13.00000000
7.85210419 2.65473604 -0.14468046 16 14 7132 8.29000000 885924735 885924735 -1.00000000
7.92656946 2.67837071 2.24189067 47 15 7133 8.66200000 885924737 885924737 15.00000000
2.16051865 0.72709483 -0.61081296 4 0 7140 2.36000000 885924758 885924758 -15.00000000
7.86574173 2.64558625 0.14485498 21 1 7141 8.30000000 885924760 885924760 1.00000000
2.51954150 0.84694040 -0.61366647 9 2 7142 2.72800000 885924763 885924763 -13.00000000
7.88358593 2.64852524 0.43585384 44 3 7143 8.32800000 885924765 885924765 3.00000000
3.07815695 1.03412032 -0.63119614 6 4 7143 3.30800000 885924767 885924767 -11.00000000
7.86860323 2.64196348 0.72618163 76 5 7144 8.33200000 885924769 885924769 5.00000000
3.83913493 1.28828299 -0.64138132 6 6 7145 4.10000000 885924772 885924772 -9.00000000
7.87834406 2.64217448 1.02029014 99 7 7146 8.37200000 885924774 885924774 7.00000000
5.19293451 1.74055552 -0.67247504 9 8 7147 5.51800000 885924776 885924776 -7.00000000
7.66263247 2.56685543 -0.70700741 30 10 7148 8.11200000 885924781 885924781 -5.00000000
7.84893513 2.62621689 -0.43376040 17 12 7150 8.28800000 885924786 885924786 -3.00000000
7.96735001 2.66429186 1.93952799 5 13 7151 8.62200000 885924788 885924788 13.00000000
7.86321974 2.62794495 -0.14471535 14 14 7152 8.29200000 885924790 885924790 -1.00000000
7.93540764 2.65207052 2.24189067 47 15 7152 8.66200000 885924793 885924793 15.00000000
2.16670966 0.72076839 -0.61184824 4 0 7160 2.36400000 885924813 885924813 -15.00000000
7.87492847 2.61811352 0.14485498 15 1 7161 8.30000000 885924816 885924816 1.00000000
2.53542781 0.84244174 -0.61681581 11 2 7162 2.74200000 885924818 885924818 -13.00000000
7.87572384 2.61532545 0.43491179 52 3 7163 8.31000000 885924820 885924820 3.00000000
3.06870556 1.01903820 -0.62852484 5 4 7163 3.29400000 885924822 885924822 -11.00000000
7.87588644 2.61385322 0.72600734 76 5 7164 8.33000000 885924825 885924825 5.00000000
3.85110831 1.27736163 -0.64263278 6 6 7165 4.10800000 885924827 885924827 -9.00000000
7.87998199 2.61215925 1.01931524 99 7 7166 8.36400000 885924829 885924829 7.00000000
5.18390369 1.71742380 -0.67052513 9 8 7167 5.50200000 885924832 885924832 -7.00000000
7.83609819 2.59457660 -0.72217250 17 10 7168 8.28600000 885924836 885924836 -5.00000000
7.85426188 2.59754872 -0.43355107 17 12 7170 8.28400000 885924841 885924841 -3.00000000
7.95624828 2.62973714 1.93457901 5 13 7171 8.60000000 885924843 885924843 13.00000000
7.86095238 2.59671783 -0.14450592 18 14 7172 8.28000000 885924846 885924846 -1.00000000
7.94507456 2.62296796 2.24189067 47 15 7173 8.66200000 885924848 885924848 15.00000000
2.15795326 0.71033376 -0.60874242 4 0 7178 2.35200000 885924869 885924869 -15.00000000
7.87171745 2.58961153 0.14464554 15 1 7179 8.28800000 885924871 885924871 1.00000000
2.53250813 0.83264631 -0.61546606 11 2 7180 2.73600000 885924873 885924873 -13.00000000
7.88769627 2.59181714 0.43512115 55 3 7181 8.31400000 885924875 885924875 3.00000000
3.07002664 1.00877964 -0.62814319 5 4 7181 3.29200000 885924878 885924878 -11.00000000
7.87838030 2.58723259 0.72548443 76 5 7182 8.32400000 885924880 885924880 5.00000000
3.87011719 1.27018476 -0.64513576 6 6 7183 4.12400000 885924882 885924882 -9.00000000
7.88814926 2.58739066 1.01931524 99 7 7184 8.36400000 885924885 885924885 7.00000000
5.18738699 1.70051134 -0.67028141 9 8 7185 5.50000000 885924887 885924887 -7.00000000
7.83474398 2.56684446 -0.72130090 17 10 7186 8.27600000 885924892 885924892 -5.00000000
7.86807823 2.57472467 -0.43386507 17 12 7188 8.29000000 885924896 885924896 -3.00000000
7.96261835 2.60412312 1.93412912 3 13 7189 8.59800000 885924899 885924899 13.00000000
7.85576630 2.56766033 -0.14426160 16 14 7190 8.26600000 885924901 885924901 -1.00000000
7.93078709 2.59218073 2.23567891 49 15 7190 8.63800000 885924903 885924903 15.00000000
2.16409397 0.70399201 -0.60977769 4 0 7198 2.35600000 885924924 885924924 -15.00000000
7.86739683 2.55779028 0.14440121 21 1 7199 8.27400000 885924926 885924926 1.00000000
2.53725266 0.82440335 -0.61591601 6 2 7200 2.73800000 885924928 885924928 -13.00000000
7.89099646 2.56241751 0.43480712 70 3 7201 8.30800000 885924931 885924931 3.00000000
3.07913113 0.99987620 -0.62928808 5 4 7201 3.29800000 885924933 885924933 -11.00000000
7.87220287 2.55479598 0.72408992 79 5 7202 8.30800000 885924935 885924935 5.00000000
3.85761619 1.25118279 -0.64231992 6 6 7203 4.10600000 885924938 885924938 -9.00000000
7.90090990 2.56106448 1.01980269 99 7 7204 8.36800000 885924940 885924940 7.00000000
5.19517994 1.68300533 -0.67052513 9 8 7205 5.50200000 885924942 885924942 -7.00000000
7.84555149 2.54009414 -0.72147524 17 10 7206 8.27800000 885924947 885924947 -5.00000000
7.86941624 2.54478598 -0.43344638 17 12 7208 8.28200000 885924951 885924951 -3.00000000
7.97166014 2.57631254 1.93412912 4 13 7209 8.59800000 885924954 885924954 13.00000000
7.86468124 2.54022288 -0.14426160 18 14 7210 8.26600000 885924956 885924956 -1.00000000
7.93104219 2.56012845 2.23309064 51 15 7211 8.62800000 885924958 885924958 15.00000000
2.16285968 0.69525123 -0.60874242 4 0 7218 2.35200000 885924979 885924979 -15.00000000
7.86295033 2.52603102 0.14415687 15 1 7219 8.26000000 885924981 885924981 1.00000000
2.54011488 0.81554163 -0.61591601 7 2 7220 2.73800000 885924984 885924984 -13.00000000
7.90179443 2.53546739 0.43491179 76 3 7221 8.31000000 885924986 885924986 3.00000000
3.07886386 0.98792231 -0.62852484 5 4 7221 3.29400000 885924988 885924988 -11.00000000
7.87348366 2.52486777 0.72339267 79 5 7222 8.30000000 885924991 885924991 5.00000000
3.86007905 1.23710668 -0.64200705 6 6 7223 4.10400000 885924993 885924993 -9.00000000
7.89845848 2.52983642 1.01834023 100 7 7224 8.35600000 885924995 885924995 7.00000000
5.19724178 1.66365016 -0.67003763 9 8 7225 5.49800000 885924998 885924998 -7.00000000
7.99193430 2.55823827 1.32906723 5 9 7225 8.49600000 885925000 885925000 9.00000000
7.85247278 2.51208544 -0.72130090 17 10 7226 8.27600000 885925002 885925002 -5.00000000
7.96434736 2.54634309 1.62531102 3 11 7227 8.51800000 885925004 885925004 11.00000000
7.87254381 2.51547742 -0.43313238 17 12 7228 8.27600000 885925007 885925007 -3.00000000
7.98802996 2.55084181 1.93592882 6 13 7229 8.60600000 885925009 885925009 13.00000000
7.87540531 2.51336241 -0.14429650 14 14 7230 8.26800000 885925011 885925011 -1.00000000
7.94684982 2.53616333 2.23516130 65 15 7230 8.63600000 885925014 885925014 15.00000000
2.16895604 0.68886673 -0.60977769 4 0 7238 2.35600000 885925034 885925034 -15.00000000
7.87171984 2.49856877 0.14415687 15 1 7239 8.26000000 885925037 885925037 1.00000000
2.53180099 0.80313456 -0.61321658 7 2 7240 2.72600000 885925039 885925039 -13.00000000
7.89346170 2.50243735 0.43396974 81 3 7241 8.29200000 885925041 885925041 3.00000000
3.08229351 0.97716904 -0.62852484 5 4 7241 3.29400000 885925044 885925044 -11.00000000
7.88984632 2.49977589 0.72408992 90 5 7242 8.30800000 885925046 885925046 5.00000000
3.85872412 1.22183609 -0.64106846 6 6 7243 4.09800000 885925048 885925048 -9.00000000
7.88831520 2.49626112 1.01590288 100 7 7244 8.33600000 885925051 885925051 7.00000000
5.19923210 1.64430118 -0.66955018 9 8 7245 5.49400000 885925053 885925053 -7.00000000
7.86689281 2.48646116 -0.72182387 17 10 7246 8.28200000 885925057 885925057 -5.00000000
7.86603975 2.48317170 -0.43229499 17 12 7248 8.26000000 885925062 885925062 -3.00000000
7.98015928 2.51766586 1.93187964 7 13 7249 8.58800000 885925064 885925064 13.00000000
7.88222361 2.48525548 -0.14426160 16 14 7250 8.26600000 885925067 885925067 -1.00000000
7.95609236 2.50701976 2.23516130 54 15 7251 8.63600000 885925069 885925069 15.00000000
2.17687702 0.68302649 -0.61133057 4 0 7258 2.36200000 885925090 885925090 -15.00000000
7.88611794 2.47287107 0.14426160 18 1 7259 8.26600000 885925092 885925092 1.00000000
2.54202724 0.79662305 -0.61501616 7 2 7260 2.73400000 885925094 885925094 -13.00000000
7.89071321 2.47128725 0.43334171 81 3 7261 8.28000000 885925097 885925097 3.00000000
3.08193874 0.96523035 -0.62776160 5 4 7261 3.29000000 885925099 885925099 -11.00000000
7.89091873 2.46983933 0.72339267 79 5 7262 8.30000000 885925101 885925101 5.00000000
3.87050676 1.21071804 -0.64231992 9 6 7263 4.10600000 885925104 885925104 -9.00000000
7.90077019 2.46989512 1.01639032 100 7 7264 8.34000000 885925106 885925106 7.00000000
5.19925547 1.62436652 -0.66881895 9 8 7265 5.48800000 885925108 885925108 -7.00000000
7.86981869 2.45720410 -0.72130090 17 10 7266 8.27600000 885925113 885925113 -5.00000000
7.87275267 2.45510459 -0.43219033 17 12 7268 8.25800000 885925117 885925117 -3.00000000
7.97587585 2.48573589 1.92873037 6 13 7269 8.57400000 885925120 885925120 13.00000000
7.87748623 2.45356369 -0.14401726 18 14 7270 8.25200000 885925122 885925122 -1.00000000
7.96067286 2.47947359 2.23412609 58 15 7270 8.63200000 885925124 885925124 15.00000000
2.16817641 0.67199218 -0.60822475 4 0 7278 2.35000000 885925145 885925145 -15.00000000
7.88515091 2.44237018 0.14408706 18 1 7279 8.25600000 885925147 885925147 1.00000000
2.54293084 0.78716862 -0.61456627 6 2 7280 2.73200000 885925150 885925150 -13.00000000
7.90310764 2.44490910 0.43355107 89 3 7281 8.28400000 885925152 885925152 3.00000000
3.07778692 0.95214558 -0.62623513 5 4 7281 3.28200000 885925154 885925154 -11.00000000
7.89568472 2.44110298 0.72304404 94 5 7282 8.29600000 885925157 885925157 5.00000000
3.87848401 1.19836640 -0.64294565 6 6 7283 4.11000000 885925159 885925159 -9.00000000
7.90175676 2.43995857 1.01541531 99 7 7284 8.33200000 885925161 885925161 7.00000000
5.21248150 1.60854924 -0.66979390 9 8 7285 5.49600000 885925163 885925163 -7.00000000
7.87644434 2.42913127 -0.72112662 17 10 7286 8.27400000 885925168 885925168 -5.00000000
7.88509226 2.42878437 -0.43239966 17 12 7288 8.26200000 885925173 885925173 -3.00000000
7.98636627 2.45845294 1.92918026 5 13 7289 8.57600000 885925175 885925175 13.00000000
7.86880112 2.42075920 -0.14370312 16 14 7290 8.23400000 885925177 885925177 -1.00000000
7.95124197 2.44460249 2.22894955 58 15 7291 8.61200000 885925180 885925180 15.00000000
2.16496730 0.66272336 -0.60667187 4 0 7298 2.34400000 885925200 885925200 -15.00000000
7.88597918 2.41249084 0.14394745 15 1 7299 8.24800000 885925203 885925203 1.00000000
2.55684471 0.78170586 -0.61726570 9 2 7300 2.74400000 885925205 885925205 -13.00000000
7.90968370 2.41672349 0.43344638 99 3 7301 8.28200000 885925207 885925207 3.00000000
3.08109188 0.94139630 -0.62623513 5 4 7301 3.28200000 885925210 885925210 -11.00000000
7.88700819 2.40829015 0.72147524 83 5 7302 8.27800000 885925212 885925212 5.00000000
3.87319684 1.18193781 -0.64138132 6 6 7303 4.10000000 885925214 885925214 -9.00000000
7.90642786 2.41120315 1.01492786 100 7 7304 8.32800000 885925216 885925216 7.00000000
5.21616554 1.58976579 -0.66955018 9 8 7305 5.49400000 885925219 885925219 -7.00000000
7.86772203 2.39639783 -0.71955782 17 10 7306 8.25600000 885925223 885925223 -5.00000000
7.88970089 2.40008283 -0.43219033 17 12 7308 8.25800000 885925228 885925228 -3.00000000
7.98557711 2.42772627 1.92693079 3 13 7309 8.56600000 885925230 885925230 13.00000000
7.88676977 2.39618397 -0.14387764 16 14 7310 8.24400000 885925233 885925233 -1.00000000
7.94451714 2.41372895 2.22480845 58 15 7310 8.59600000 885925235 885925235 15.00000000
2.18206096 0.65963423 -0.61081296 4 0 7318 2.36000000 885925256 885925256 -15.00000000
7.89052391 2.38379240 0.14387764 15 1 7319 8.24400000 885925258 885925258 1.00000000
2.54649878 0.76883334 -0.61411637 7 2 7320 2.73000000 885925260 885925260 -13.00000000
7.91998339 2.38967586 0.43355107 89 3 7321 8.28400000 885925263 885925263 3.00000000
3.08999777 0.93233693 -0.62737995 5 4 7321 3.28800000 885925265 885925265 -11.00000000
7.89536667 2.38074470 0.72147524 83 5 7322 8.27800000 885925267 885925267 5.00000000
3.86973333 1.16613090 -0.64012980 6 6 7323 4.09200000 885925269 885925269 -9.00000000
7.91099501 2.38244510 1.01444042 100 7 7324 8.32400000 885925272 885925272 7.00000000
5.23118734 1.57440877 -0.67076886 9 8 7325 5.50400000 885925274 885925274 -7.00000000
7.87603903 2.36891961 -0.71955782 17 10 7326 8.25600000 885925279 885925279 -5.00000000
7.88846636 2.36965513 -0.43166697 17 12 7328 8.24800000 885925283 885925283 -3.00000000
7.99960184 2.40151763 1.92828047 3 13 7329 8.57200000 885925286 885925286 13.00000000
7.89508581 2.36863923 -0.14387764 16 14 7330 8.24400000 885925288 885925288 -1.00000000
7.95289421 2.38598275 2.22480845 56 15 7330 8.59600000 885925290 885925290 15.00000000
2.18064785 0.65090829 -0.60977769 4 0 7338 2.35600000 885925311 885925311 -15.00000000
7.89879704 2.35623479 0.14387764 15 1 7339 8.24400000 885925313 885925313 1.00000000
2.54543209 0.75882626 -0.61321658 7 2 7340 2.72600000 885925316 885925316 -13.00000000
7.91679192 2.35859370 0.43292302 89 3 7341 8.27200000 885925318 885925318 3.00000000
3.09511495 0.92210567 -0.62776160 5 4 7341 3.29000000 885925320 885925320 -11.00000000
7.90171909 2.35260177 0.72130090 90 5 7342 8.27600000 885925322 885925322 5.00000000
3.86999369 1.15148914 -0.63950408 6 6 7343 4.08800000 885925325 885925325 -9.00000000
7.90404129 2.35028982 1.01249051 100 7 7344 8.30800000 885925327 885925327 7.00000000
5.22142839 1.55161524 -0.66881895 6 8 7345 5.48800000 885925329 885925329 -7.00000000
7.88044024 2.34027839 -0.71920919 17 10 7346 8.25200000 885925334 885925334 -5.00000000
7.88903093 2.33983302 -0.43124828 17 12 7348 8.24000000 885925339 885925339 -3.00000000
7.99859428 2.37081003 1.92603087 2 13 7349 8.56200000 885925341 885925341 13.00000000
7.89947128 2.33993006 -0.14380783 14 14 7350 8.24000000 885925343 885925343 -1.00000000
7.96487904 2.35930467 2.22584391 56 15 7350 8.60000000 885925345 885925345 15.00000000
2.19031906 0.64547682 -0.61184824 4 0 7358 2.36400000 885925366 885925366 -15.00000000
7.88970947 2.32356405 0.14356349 15 1 7359 8.22600000 885925369 885925369 1.00000000
2.55554318 0.75213724 -0.61501616 7 2 7360 2.73400000 885925371 885925371 -13.00000000
7.91348028 2.32756329 0.43229499 100 3 7361 8.26000000 885925373 885925373 3.00000000
3.09831476 0.91129607 -0.62776160 5 4 7361 3.29000000 885925375 885925375 -11.00000000
7.91179466 2.32556725 0.72147524 83 5 7362 8.27800000 885925378 885925378 5.00000000
3.88157082 1.14020026 -0.64075559 6 6 7363 4.09600000 885925380 885925380 -9.00000000
7.90838766 2.32156682 1.01200306 100 7 7364 8.30400000 885925382 885925382 7.00000000
5.22681284 1.53337955 -0.66881895 9 8 7365 5.48800000 885925385 885925385 -7.00000000
7.89238501 2.31387734 -0.71955782 17 10 7366 8.25600000 885925389 885925389 -5.00000000
7.90290070 2.31396461 -0.43156230 17 12 7368 8.24600000 885925394 885925394 -3.00000000
8.00308037 2.34178090 1.92513108 1 13 7369 8.55800000 885925396 885925396 13.00000000
7.89415598 2.30841279 -0.14356349 16 14 7370 8.22600000 885925398 885925398 -1.00000000
7.96605587 2.32792854 2.22377324 63 15 7371 8.59200000 885925401 885925401 15.00000000
2.18502808 0.63605016 -0.60977769 4 0 7377 2.35600000 885925422 885925422 -15.00000000
7.90505171 2.29962230 0.14370312 18 1 7378 8.23400000 885925424 885925424 1.00000000
2.55615187 0.74311459 -0.61456627 6 2 7379 2.73200000 885925426 885925426 -13.00000000
7.91540146 2.29963660 0.43198100 100 3 7380 8.25400000 885925428 885925428 3.00000000
3.09000802 0.89773029 -0.62547189 5 4 7380 3.27800000 885925431 885925431 -11.00000000
7.91180944 2.29709578 0.72077799 83 5 7381 8.27000000 885925433 885925433 5.00000000
3.89671326 1.13062501 -0.64263278 6 6 7382 4.10800000 885925435 885925435 -9.00000000
7.91985559 2.29643464 1.01249051 100 7 7383 8.30800000 885925438 885925438 7.00000000
