# .PCD v0.7 - Point Cloud Data file format
VERSION 0.7
FIELDS x y z intensity laser_id azimuth distance_m adjustedtime timestamp vertical_angle
SIZE 4 4 4 1 1 2 8 8 4 8
TYPE F F F U U U F U U F
COUNT 1 1 1 1 1 1 1 1 1 1
WIDTH 535
HEIGHT 1
VIEWPOINT 0 0 0 1 0 0 0
POINTS 535
DATA ascii
-7.43030024 6.26132774 -0.50922883 8 12 31012 9.73000000 879091075 879091075 -3.00000000
-7.33961964 6.18710470 2.21621776 25 13 31013 9.85200000 879091078 879091078 13.00000000
-7.45363951 6.28544617 2.61251950 42 15 31014 10.09400000 879091082 879091082 15.00000000
-1.58721328 1.34224916 -0.55697858 4 0 31022 2.15200000 879091103 879091103 -15.00000000
-1.83862603 1.55596101 -0.55607903 3 2 31024 2.47200000 879091107 879091107 -13.00000000
-2.15322876 1.82284272 -0.54838502 3 4 31025 2.87400000 879091112 879091112 -11.00000000
-2.66025400 2.25366569 -0.55221367 1 6 31027 3.53000000 879091117 879091117 -9.00000000
-3.38118863 2.86644220 -0.54426849 2 8 31029 4.46600000 879091121 879091121 -7.00000000
-4.65736628 3.94973397 -0.53426468 3 10 31030 6.13000000 879091126 879091126 -5.00000000
-7.41753531 6.29498005 -0.50985688 8 12 31032 9.74200000 879091131 879091131 -3.00000000
-7.30312204 6.20007515 2.21171880 28 13 31033 9.83200000 879091133 879091133 13.00000000
-7.43165398 6.31142569 2.61251950 42 15 31034 10.09400000 879091137 879091137 15.00000000
-1.57981157 1.34500051 -0.55594331 4 0 31041 2.14800000 879091158 879091158 -15.00000000
-1.83345616 1.56204951 -0.55607903 3 2 31043 2.47200000 879091163 879091163 -13.00000000
-2.15912580 1.84016085 -0.55143797 3 4 31044 2.89000000 879091167 879091167 -11.00000000
-2.64074206 2.25222015 -0.54971069 1 6 31046 3.51400000 879091172 879091172 -9.00000000
-3.37468457 2.88021612 -0.54475594 2 8 31048 4.47000000 879091177 879091177 -7.00000000
-4.65030432 3.97033143 -0.53496194 3 10 31049 6.13800000 879091181 879091181 -5.00000000
-7.41787863 6.33770657 -0.51132232 8 12 31051 9.77000000 879091186 879091186 -3.00000000
-7.26474524 6.20906544 2.20632005 25 13 31052 9.80800000 879091188 879091188 13.00000000
-7.40076923 6.32979488 2.60941362 42 15 31054 10.08200000 879091193 879091193 15.00000000
-1.58097339 1.35553670 -0.55801386 4 0 31061 2.15600000 879091213 879091213 -15.00000000
-1.82503450 1.56590199 -0.55517918 3 2 31063 2.46800000 879091218 879091218 -13.00000000
-2.15268922 1.84768641 -0.55143797 3 4 31064 2.89000000 879091223 879091223 -11.00000000
-2.63885808 2.26657271 -0.55096221 1 6 31066 3.52200000 879091227 879091227 -9.00000000
-3.38568592 2.91009378 -0.54816830 2 8 31068 4.49800000 879091232 879091232 -7.00000000
-4.64850235 3.99693155 -0.53635645 3 10 31069 6.15400000 879091237 879091237 -5.00000000
-7.39571095 6.36356115 -0.51132232 8 12 31071 9.77000000 879091241 879091241 -3.00000000
-7.22087288 6.21531725 2.19957137 18 13 31072 9.77800000 879091243 879091243 13.00000000
-7.37570143 6.35306835 2.60837841 45 15 31074 10.07800000 879091248 879091248 15.00000000
-1.57623196 1.36104715 -0.55801386 4 0 31081 2.15600000 879091269 879091269 -15.00000000
-1.81808281 1.57098901 -0.55472928 4 2 31083 2.46600000 879091273 879091273 -13.00000000
-2.16107941 1.86802804 -0.55525416 3 4 31084 2.91000000 879091278 879091278 -11.00000000
-2.61449623 2.26155472 -0.54752064 1 6 31086 3.50000000 879091283 879091283 -9.00000000
-3.35599566 2.90500474 -0.54499972 2 8 31088 4.47200000 879091287 879091287 -7.00000000
-4.63904095 4.01704645 -0.53687936 3 10 31089 6.16000000 879091292 879091292 -5.00000000
-7.37194347 6.38803005 -0.51121759 8 12 31091 9.76800000 879091296 879091296 -3.00000000
-7.16379309 6.20985031 2.18877387 10 13 31092 9.73000000 879091299 879091299 13.00000000
-7.25570631 6.29396152 2.57369661 45 15 31094 9.94400000 879091303 879091303 15.00000000
-1.58021808 1.37414682 -0.56111968 4 0 31101 2.16800000 879091324 879091324 -15.00000000
-1.81552804 1.57988417 -0.55562907 4 2 31103 2.47000000 879091329 879091329 -13.00000000
-2.15158391 1.87298214 -0.55449092 3 4 31104 2.90600000 879091333 879091333 -11.00000000
-2.63041782 2.29142761 -0.55252653 1 6 31106 3.53200000 879091338 879091338 -9.00000000
-3.35331655 2.92322373 -0.54621840 2 8 31108 4.48200000 879091343 879091343 -7.00000000
-4.62499046 4.03321505 -0.53687936 7 10 31109 6.16000000 879091347 879091347 -5.00000000
-7.37066793 6.43210888 -0.51268303 8 12 31111 9.79600000 879091352 879091352 -3.00000000
-7.31662035 6.39169550 2.60320187 42 15 31114 10.05800000 879091359 879091359 15.00000000
-1.56983829 1.37428951 -0.55904913 4 0 31120 2.16000000 879091379 879091379 -15.00000000
-1.81760812 1.59231663 -0.55787861 3 2 31122 2.48000000 879091384 879091384 -13.00000000
-2.14536119 1.88010681 -0.55449092 3 4 31123 2.90600000 879091389 879091389 -11.00000000
-2.61537886 2.29362559 -0.55096221 1 6 31125 3.52200000 879091393 879091393 -9.00000000
-3.33614421 2.92778087 -0.54499972 2 8 31127 4.47200000 879091398 879091398 -7.00000000
-4.62656307 4.06167459 -0.53862250 7 10 31128 6.18000000 879091402 879091402 -5.00000000
-7.35830069 6.46442509 -0.51331109 8 12 31130 9.80800000 879091407 879091407 -3.00000000
-8.47390366 7.44712734 2.60448337 42 13 31131 11.57800000 879091409 879091409 13.00000000
-7.18043327 6.31260729 2.56179094 40 15 31132 9.89800000 879091414 879091414 15.00000000
-1.55923522 1.37465072 -0.55697858 4 0 31140 2.15200000 879091435 879091435 -15.00000000
-1.81788409 1.60380852 -0.55967820 3 2 31142 2.48800000 879091439 879091439 -13.00000000
-2.13878512 1.88758409 -0.55449092 3 4 31143 2.90600000 879091444 879091444 -11.00000000
-2.60883713 2.30404878 -0.55127507 1 6 31145 3.52400000 879091448 879091448 -9.00000000
-3.34226584 2.95386863 -0.54768085 4 8 31147 4.49400000 879091453 879091453 -7.00000000
-4.59892321 4.06592226 -0.53705370 7 10 31148 6.16200000 879091458 879091458 -5.00000000
-7.37159109 6.52183294 -0.51582319 8 12 31150 9.85600000 879091462 879091462 -3.00000000
-8.43472290 7.46503735 2.60043430 53 13 31151 11.56000000 879091465 879091465 13.00000000
-7.28162146 6.44903469 2.60630774 47 15 31153 10.07000000 879091469 879091469 15.00000000
-1.55683374 1.38319385 -0.55801386 4 0 31162 2.15600000 879091490 879091490 -15.00000000
-1.80297434 1.60300779 -0.55697882 3 2 31164 2.47600000 879091495 879091495 -13.00000000
-2.12858772 1.89317298 -0.55372769 3 4 31165 2.90200000 879091499 879091499 -11.00000000
-2.59701991 2.31142235 -0.55064934 1 6 31167 3.52000000 879091504 879091504 -9.00000000
-3.33238173 2.96800065 -0.54792458 2 8 31169 4.49600000 879091508 879091508 -7.00000000
-4.61302900 4.11005878 -0.54053992 7 10 31170 6.20200000 879091513 879091513 -5.00000000
-7.35543966 6.55806446 -0.51645124 8 12 31172 9.86800000 879091518 879091518 -3.00000000
-8.41181469 7.50255775 2.60223389 57 13 31173 11.56800000 879091520 879091520 13.00000000
-7.25649405 6.47439384 2.60579014 47 15 31174 10.06800000 879091525 879091525 15.00000000
-1.56063426 1.39634860 -0.56111968 4 0 31182 2.16800000 879091545 879091545 -15.00000000
-1.79446411 1.60669184 -0.55607903 3 2 31184 2.47200000 879091550 879091550 -13.00000000
-2.11319184 1.89273250 -0.55143797 3 4 31185 2.89000000 879091554 879091554 -11.00000000
-2.59334874 2.32442880 -0.55158794 1 6 31187 3.52600000 879091559 879091559 -9.00000000
-3.31461215 2.97298741 -0.54670590 2 8 31189 4.48600000 879091564 879091564 -7.00000000
-4.58827353 4.11682224 -0.53931975 3 10 31190 6.18800000 879091568 879091568 -5.00000000
-7.31764174 6.57035637 -0.51540452 8 12 31192 9.84800000 879091573 879091573 -3.00000000
-8.37397671 7.52145767 2.59863448 55 13 31193 11.55200000 879091575 879091575 13.00000000
-7.23415232 6.50223780 2.60630774 45 15 31195 10.07000000 879091580 879091580 15.00000000
-1.55599523 1.40151620 -0.56111968 4 0 31201 2.16800000 879091601 879091601 -15.00000000
-1.79636383 1.61915720 -0.55832851 4 2 31203 2.48200000 879091605 879091605 -13.00000000
-2.11856818 1.91024721 -0.55449092 3 4 31204 2.90600000 879091610 879091610 -11.00000000
-2.58855963 2.33566260 -0.55221367 1 6 31206 3.53000000 879091614 879091614 -9.00000000
-3.30473518 2.98396277 -0.54670590 2 8 31208 4.48600000 879091619 879091619 -7.00000000
-4.60416698 4.15872478 -0.54280597 7 10 31209 6.22800000 879091624 879091624 -5.00000000
-7.32396507 6.62003279 -0.51739329 8 12 31211 9.88600000 879091628 879091628 -3.00000000
-8.34031582 7.54134321 2.59593511 56 13 31212 11.54000000 879091631 879091631 13.00000000
-7.21512222 6.52622843 2.60682535 47 15 31213 10.07200000 879091635 879091635 15.00000000
-1.54536986 1.40174747 -0.55904913 4 0 31221 2.16000000 879091656 879091656 -15.00000000
-1.78781509 1.62279832 -0.55742872 4 2 31223 2.47800000 879091660 879091660 -13.00000000
-2.10607338 1.91235173 -0.55296445 2 4 31224 2.89800000 879091665 879091665 -11.00000000
-2.58477664 2.34866929 -0.55315226 1 6 31226 3.53600000 879091670 879091670 -9.00000000
-3.31045485 3.01017046 -0.54938698 2 8 31228 4.50800000 879091674 879091674 -7.00000000
-4.57488346 4.16136456 -0.54106283 7 10 31229 6.20800000 879091679 879091679 -5.00000000
-7.30524349 6.64959097 -0.51770729 4 12 31231 9.89200000 879091683 879091683 -3.00000000
-8.31105900 7.56778622 2.59503531 48 13 31232 11.53600000 879091686 879091686 13.00000000
-7.16973448 6.53311205 2.59906077 45 15 31234 10.04200000 879091690 879091690 15.00000000
-1.53476202 1.40192163 -0.55697858 4 0 31241 2.15200000 879091711 879091711 -15.00000000
-1.79220819 1.63823259 -0.56057805 4 2 31243 2.49200000 879091716 879091716 -13.00000000
-2.10228300 1.92234123 -0.55372769 3 4 31244 2.90200000 879091720 879091720 -11.00000000
-2.57510519 2.35634398 -0.55283940 1 6 31246 3.53400000 879091725 879091725 -9.00000000
-3.28235888 3.00562072 -0.54646212 2 8 31248 4.48400000 879091730 879091730 -7.00000000
-4.56914520 4.18538332 -0.54210871 3 10 31249 6.22000000 879091734 879091734 -5.00000000
-6.99414110 6.40894938 1.84397817 9 11 31250 9.66400000 879091736 879091736 11.00000000
-7.29376602 6.68584728 -0.51854467 4 12 31251 9.90800000 879091739 879091739 -3.00000000
-8.29177284 7.60333633 2.59728479 39 13 31252 11.54600000 879091741 879091741 13.00000000
-7.05122375 6.46805143 2.56386137 47 15 31253 9.90600000 879091746 879091746 15.00000000
-1.53270268 1.40988612 -0.55801386 4 0 31261 2.15600000 879091766 879091766 -15.00000000
-1.78217745 1.64051914 -0.55922830 4 2 31263 2.48600000 879091771 879091771 -13.00000000
-2.10133672 1.93498743 -0.55525416 3 4 31264 2.91000000 879091776 879091776 -11.00000000
-2.57412767 2.37201166 -0.55440372 1 6 31266 3.54400000 879091780 879091780 -9.00000000
-3.29373741 3.03724527 -0.55011821 4 8 31268 4.51400000 879091785 879091785 -7.00000000
-4.55597210 4.20265770 -0.54228306 7 10 31269 6.22200000 879091789 879091789 -5.00000000
-6.96162701 6.42400455 1.84130681 18 11 31270 9.65000000 879091792 879091792 11.00000000
-7.29533243 6.73429680 -0.52032405 4 12 31271 9.94200000 879091794 879091794 -3.00000000
-8.26518154 7.63223410 2.59728479 59 13 31272 11.54600000 879091796 879091796 13.00000000
-7.13104486 6.58956194 2.60164905 47 15 31274 10.05200000 879091801 879091801 15.00000000
-1.53627527 1.42310464 -0.56111968 4 0 31281 2.16800000 879091822 879091822 -15.00000000
-1.77358186 1.64408052 -0.55832851 4 2 31283 2.48200000 879091826 879091826 -13.00000000
-2.10032797 1.94765043 -0.55678064 3 4 31284 2.91800000 879091831 879091831 -11.00000000
-2.55424833 2.37023306 -0.55190080 1 6 31286 3.52800000 879091836 879091836 -9.00000000
-3.29038858 3.05547810 -0.55133688 2 8 31288 4.52400000 879091840 879091840 -7.00000000
-4.56608963 4.24158764 -0.54524630 7 10 31289 6.25600000 879091845 879091845 -5.00000000
-6.96792412 6.47499466 1.84893918 18 11 31290 9.69000000 879091847 879091847 11.00000000
-7.29811192 6.78419828 -0.52220815 4 12 31291 9.97800000 879091849 879091849 -3.00000000
-8.22850037 7.65174913 2.59413552 57 13 31292 11.53200000 879091852 879091852 13.00000000
-7.11481142 6.61843634 2.60371971 47 15 31293 10.06000000 879091856 879091856 15.00000000
-1.53129840 1.42845857 -0.56111968 4 0 31301 2.16800000 879091877 879091877 -15.00000000
-1.77922821 1.66089976 -0.56192774 4 2 31303 2.49800000 879091882 879091882 -13.00000000
-2.08490705 1.94693041 -0.55449092 3 4 31304 2.90600000 879091886 879091886 -11.00000000
-2.55750537 2.38992429 -0.55440372 1 6 31306 3.54400000 879091891 879091891 -9.00000000
-3.25360441 3.04253960 -0.54694963 2 8 31308 4.48800000 879091895 879091895 -7.00000000
-4.55271101 4.25886154 -0.54542065 3 10 31309 6.25800000 879091900 879091900 -5.00000000
-6.97825003 6.53013086 1.85771632 6 11 31310 9.73600000 879091902 879091902 11.00000000
-7.29771566 6.83147097 -0.52388293 4 12 31311 10.01000000 879091905 879091905 -3.00000000
-8.19462872 7.67376518 2.59188604 54 13 31312 11.52200000 879091907 879091907 13.00000000
-7.09050608 6.64446926 2.60371971 47 15 31314 10.06000000 879091912 879091912 15.00000000
-1.52092004 1.42823899 -0.55904913 4 0 31320 2.16000000 879091932 879091932 -15.00000000
-1.77087057 1.66412175 -0.56102794 4 2 31322 2.49400000 879091937 879091937 -13.00000000
-2.08416128 1.95921230 -0.55601740 3 4 31323 2.91400000 879091942 879091942 -11.00000000
-2.56251526 2.41057372 -0.55721956 3 6 31325 3.56200000 879091946 879091946 -9.00000000
-3.26662374 3.07508278 -0.55084944 2 8 31327 4.52000000 879091951 879091951 -7.00000000
-4.53276110 4.26847172 -0.54472339 3 10 31328 6.25000000 879091955 879091955 -5.00000000
-7.26048613 6.84193563 -0.52283621 4 12 31330 9.99000000 879091960 879091960 -3.00000000
-8.17339039 7.70490742 2.59323573 55 13 31331 11.52800000 879091962 879091962 13.00000000
-7.06959677 6.66671181 2.60371971 47 15 31332 10.06000000 879091967 879091967 15.00000000
-1.51311791 1.43088448 -0.55801386 4 0 31340 2.15600000 879091988 879091988 -15.00000000
-1.76505089 1.67029309 -0.56102794 4 2 31342 2.49400000 879091992 879091992 -13.00000000
-2.07160664 1.96107674 -0.55449092 2 4 31343 2.90600000 879091997 879091997 -11.00000000
-2.56125569 2.42629647 -0.55878389 3 6 31345 3.57200000 879092001 879092001 -9.00000000
-3.25586987 3.08646679 -0.55084944 2 8 31347 4.52000000 879092006 879092006 -7.00000000
-4.53084517 4.29660702 -0.54629219 3 10 31348 6.26800000 879092011 879092011 -5.00000000
-7.25684166 6.88648558 -0.52430159 4 12 31350 10.01800000 879092015 879092015 -3.00000000
-8.14927197 7.73607445 2.59413552 55 13 31351 11.53200000 879092018 879092018 13.00000000
-7.03787756 6.68336678 2.60061383 47 15 31352 10.04800000 879092022 879092022 15.00000000
-1.50811398 1.43615758 -0.55801386 4 0 31360 2.15600000 879092043 879092043 -15.00000000
-1.76062047 1.67778850 -0.56147784 3 2 31362 2.49600000 879092048 879092048 -13.00000000
-2.07611680 1.97913313 -0.55754387 3 4 31363 2.92200000 879092052 879092052 -11.00000000
-2.54705334 2.42976809 -0.55753243 1 6 31365 3.56400000 879092057 879092057 -9.00000000
-3.24651217 3.09918380 -0.55109316 2 8 31367 4.52200000 879092061 879092061 -7.00000000
-4.52302408 4.31927633 -0.54716372 7 10 31368 6.27800000 879092066 879092066 -5.00000000
-7.23275900 6.91177464 -0.52430159 4 12 31370 10.01800000 879092071 879092071 -3.00000000
-8.12221909 7.76447344 2.59413552 56 13 31371 11.53200000 879092073 879092073 13.00000000
-7.01590157 6.70922804 2.60113144 47 15 31372 10.05000000 879092077 879092077 15.00000000
-1.51424634 1.45211005 -0.56215495 4 0 31380 2.17200000 879092098 879092098 -15.00000000
-1.74631679 1.67582822 -0.55877841 3 2 31382 2.48400000 879092103 879092103 -13.00000000
-2.07202816 1.98908722 -0.55830711 3 4 31383 2.92600000 879092107 879092107 -11.00000000
-2.53855634 2.43864417 -0.55753243 3 6 31385 3.56400000 879092112 879092112 -9.00000000
-3.24712276 3.12150311 -0.55304307 2 8 31387 4.53800000 879092117 879092117 -7.00000000
-4.50648355 4.33365726 -0.54698944 7 10 31388 6.27600000 879092121 879092121 -5.00000000
-7.23161459 6.95913792 -0.52597636 4 12 31390 10.05000000 879092126 879092126 -3.00000000
-8.08945084 7.78737211 2.59233594 56 13 31391 11.52400000 879092128 879092128 13.00000000
-6.99265528 6.73623800 2.60164905 47 15 31393 10.05200000 879092133 879092133 15.00000000
-1.50664294 1.45444000 -0.56111968 4 0 31399 2.16800000 879092154 879092154 -15.00000000
-1.74074996 1.68160999 -0.55877841 3 2 31401 2.48400000 879092158 879092158 -13.00000000
-2.05977368 1.99049032 -0.55678064 2 4 31402 2.91800000 879092163 879092163 -11.00000000
-2.53045559 2.44704890 -0.55753243 1 6 31404 3.56400000 879092167 879092167 -9.00000000
-3.23818016 3.13363409 -0.55328679 2 8 31406 4.54000000 879092172 879092172 -7.00000000
-4.49208784 4.34857750 -0.54698944 7 10 31407 6.27600000 879092177 879092177 -5.00000000
-7.21997356 6.99419785 -0.52681375 4 12 31409 10.06600000 879092181 879092181 -3.00000000
-8.05798435 7.80873013 2.59053636 57 13 31410 11.51600000 879092183 879092183 13.00000000
-6.96868372 6.75548363 2.60061383 47 15 31411 10.04800000 879092188 879092188 15.00000000
-1.49740124 1.45565057 -0.55956680 4 0 31419 2.16200000 879092209 879092209 -15.00000000
-1.73626637 1.68903494 -0.55922830 4 2 31421 2.48600000 879092213 879092213 -13.00000000
-2.05562711 2.00040650 -0.55754387 3 4 31422 2.92200000 879092218 879092218 -11.00000000
-2.53180480 2.46551394 -0.55972254 1 6 31424 3.57800000 879092223 879092223 -9.00000000
-3.24286056 3.16015816 -0.55596793 2 8 31426 4.56200000 879092227 879092227 -7.00000000
-4.46974754 4.35727739 -0.54611790 7 10 31427 6.26600000 879092232 879092232 -5.00000000
-7.24698305 7.06956577 -0.53058195 4 12 31429 10.13800000 879092236 879092236 -3.00000000
-8.03346729 7.83953238 2.59143615 55 13 31430 11.52000000 879092239 879092239 13.00000000
-6.94506025 6.77976751 2.60061383 47 15 31431 10.04800000 879092243 879092243 15.00000000
-1.48678887 1.45546305 -0.55749625 4 0 31439 2.15400000 879092264 879092264 -15.00000000
-1.74149656 1.70599496 -0.56282753 4 2 31441 2.50200000 879092269 879092269 -13.00000000
-2.04021859 1.99932516 -0.55525416 2 4 31442 2.91000000 879092273 879092273 -11.00000000
-2.52318311 2.47433662 -0.55972254 1 6 31444 3.57800000 879092278 879092278 -9.00000000
-3.23889399 3.17841053 -0.55718666 2 8 31446 4.57200000 879092282 879092282 -7.00000000
-4.46019793 4.37843609 -0.54681516 7 10 31447 6.27400000 879092287 879092287 -5.00000000
-7.19946527 7.07242489 -0.52890718 4 12 31449 10.10600000 879092292 879092292 -3.00000000
-8.00883293 7.87025833 2.59233594 56 13 31450 11.52400000 879092294 879092294 13.00000000
-6.91033125 6.79313469 2.59647274 47 15 31451 10.03200000 879092299 879092299 15.00000000
-1.48720241 1.46606886 -0.55956680 4 0 31459 2.16200000 879092319 879092319 -15.00000000
-1.73830557 1.71480060 -0.56372732 4 2 31461 2.50600000 879092324 879092324 -13.00000000
-2.03602195 2.00919271 -0.55601740 2 4 31462 2.91400000 879092329 879092329 -11.00000000
-2.50188065 2.47063708 -0.55690670 1 6 31464 3.56000000 879092333 879092333 -9.00000000
-3.22213149 3.18411565 -0.55621171 2 8 31466 4.56400000 879092338 879092338 -7.00000000
-4.44205332 4.39117718 -0.54646653 7 10 31467 6.27000000 879092342 879092342 -5.00000000
-7.20029211 7.12279606 -0.53079128 4 12 31469 10.14200000 879092347 879092347 -3.00000000
-7.98408222 7.90090799 2.59323573 56 13 31470 11.52800000 879092349 879092349 13.00000000
-6.88813210 6.82113552 2.59750795 49 15 31472 10.03600000 879092354 879092354 15.00000000
-1.48755991 1.47669530 -0.56163734 4 0 31479 2.17000000 879092375 879092375 -15.00000000
-1.72401404 1.71261764 -0.56102794 4 2 31481 2.49400000 879092379 879092379 -13.00000000
-2.03735161 2.02459073 -0.55830711 2 4 31482 2.92600000 879092384 879092384 -11.00000000
-2.50444698 2.49049830 -0.55940962 1 6 31484 3.57600000 879092388 879092388 -9.00000000
-3.20396185 3.18834233 -0.55499297 2 8 31486 4.55400000 879092393 879092393 -7.00000000
-4.46764708 4.44741917 -0.55152154 15 10 31487 6.32800000 879092398 879092398 -5.00000000
-7.18104506 7.15352440 -0.53120995 4 12 31489 10.15000000 879092402 879092402 -3.00000000
-7.94679165 7.91910028 2.59008646 53 13 31490 11.51400000 879092405 879092405 13.00000000
-6.87094688 6.84939528 2.59957838 47 15 31491 10.04400000 879092409 879092409 15.00000000
-1.48649502 1.48597622 -0.56319022 4 0 31499 2.17600000 879092430 879092430 -15.00000000
-1.71802533 1.71862519 -0.56102794 4 2 31501 2.49400000 879092434 879092434 -13.00000000
-2.01917005 2.02058029 -0.55525416 2 4 31502 2.91000000 879092439 879092439 -11.00000000
-2.49992561 2.50341868 -0.56034827 1 6 31504 3.58200000 879092444 879092444 -9.00000000
-3.19281292 3.19950700 -0.55499297 2 8 31506 4.55400000 879092448 879092448 -7.00000000
-4.45631647 4.46721888 -0.55204445 7 10 31507 6.33400000 879092453 879092453 -5.00000000
-7.16167068 7.18420553 -0.53162867 4 12 31509 10.15800000 879092458 879092458 -3.00000000
-7.91910028 7.94679165 2.59008646 51 13 31510 11.51400000 879092460 879092460 13.00000000
-6.84426975 6.87060022 2.59854317 47 15 31511 10.04000000 879092464 879092464 15.00000000
-1.46904552 1.47882104 -0.55853152 4 0 31519 2.15800000 879092485 879092485 -15.00000000
-1.72025323 1.73290980 -0.56372732 4 2 31521 2.50600000 879092490 879092490 -13.00000000
-2.01763630 2.03319049 -0.55678064 2 4 31522 2.91800000 879092494 879092494 -11.00000000
-2.48282623 2.50371408 -0.55847102 1 6 31524 3.57000000 879092499 879092499 -9.00000000
-3.19420075 3.22332263 -0.55718666 2 8 31526 4.57200000 879092504 879092504 -7.00000000
-4.43228292 4.47425413 -0.55099863 7 10 31527 6.32200000 879092508 879092508 -5.00000000
-7.15200567 7.22477388 -0.53278005 4 12 31529 10.18000000 879092513 879092513 -3.00000000
-7.88857126 7.97161579 2.58918667 55 13 31530 11.51000000 879092515 879092515 13.00000000
-6.81632471 6.89289236 2.59750795 47 15 31532 10.03600000 879092520 879092520 15.00000000
-1.46116114 1.48118937 -0.55749625 4 0 31539 2.15400000 879092540 879092540 -15.00000000
-1.71145761 1.73612845 -0.56282753 4 2 31541 2.50200000 879092545 879092545 -13.00000000
-2.01328278 2.04301763 -0.55754387 3 4 31542 2.92200000 879092550 879092550 -11.00000000
-2.47684360 2.51518035 -0.55909675 1 6 31544 3.57400000 879092554 879092554 -9.00000000
-3.18849921 3.24011254 -0.55816162 2 8 31546 4.58000000 879092559 879092559 -7.00000000
-4.41524076 4.48827839 -0.55082428 3 10 31547 6.32000000 879092564 879092564 -5.00000000
-7.12254286 7.24542236 -0.53246599 4 12 31549 10.17400000 879092568 879092568 -3.00000000
-7.86616039 8.00466347 2.59098625 54 13 31550 11.51800000 879092570 879092570 13.00000000
-6.78139400 6.90561676 2.59336686 47 15 31552 10.02000000 879092575 879092575 15.00000000
-1.46138942 1.49180090 -0.55956680 4 0 31559 2.16200000 879092596 879092596 -15.00000000
-1.70266056 1.73930681 -0.56192774 4 2 31561 2.49800000 879092600 879092600 -13.00000000
-2.00613904 2.05003285 -0.55754387 3 4 31562 2.92200000 879092605 879092605 -11.00000000
-2.48047900 2.53652167 -0.56191260 1 6 31564 3.59200000 879092610 879092610 -9.00000000
-3.18271923 3.25690174 -0.55913657 2 8 31566 4.58800000 879092614 879092614 -7.00000000
-4.40093899 4.50508833 -0.55099863 7 10 31567 6.32200000 879092619 879092619 -5.00000000
-7.12790155 7.30168247 -0.53476882 4 12 31569 10.21800000 879092623 879092623 -3.00000000
-7.83953238 8.03346729 2.59143615 55 13 31570 11.52000000 879092626 879092626 13.00000000
-6.75859642 6.93062925 2.59388447 47 15 31572 10.02200000 879092630 879092630 15.00000000
-1.46694970 1.50797081 -0.56370789 4 0 31579 2.17800000 879092651 879092651 -15.00000000
-1.69657886 1.74523962 -0.56192774 4 2 31581 2.49800000 879092656 879092656 -13.00000000
-2.00170732 2.05983901 -0.55830711 3 4 31582 2.92600000 879092660 879092660 -11.00000000
-2.47436213 2.54799891 -0.56253833 1 6 31584 3.59600000 879092665 879092665 -9.00000000
-3.17409611 3.27084064 -0.55962402 2 8 31586 4.59200000 879092670 879092670 -7.00000000
-4.39073563 4.52614307 -0.55169582 7 10 31587 6.33000000 879092674 879092674 -5.00000000
-7.11905289 7.34372711 -0.53602487 4 12 31589 10.24200000 879092679 879092679 -3.00000000
-7.81144238 8.06078339 2.59143615 57 13 31590 11.52000000 879092681 879092681 13.00000000
-6.73705053 6.95695448 2.59491968 47 15 31592 10.02600000 879092686 879092686 15.00000000
-1.46462595 1.51560545 -0.56474316 4 0 31598 2.18200000 879092706 879092706 -15.00000000
-1.69078207 1.75085616 -0.56192774 4 2 31600 2.49800000 879092711 879092711 -13.00000000
-1.98941159 2.06081557 -0.55678064 3 4 31601 2.91800000 879092716 879092716 -11.00000000
-2.47687078 2.56756377 -0.56504130 1 6 31603 3.61200000 879092720 879092720 -9.00000000
-3.15496588 3.27277350 -0.55816162 2 8 31605 4.58000000 879092725 879092725 -7.00000000
-4.38261509 4.54785156 -0.55256742 7 10 31606 6.34000000 879092729 879092729 -5.00000000
-7.10158777 7.37448788 -0.53654820 4 12 31608 10.25200000 879092734 879092734 -3.00000000
-7.77520847 8.07681465 2.58828688 53 13 31609 11.50600000 879092736 879092736 13.00000000
-6.71650124 6.97947741 2.59543729 47 15 31610 10.02800000 879092741 879092741 15.00000000
-1.45665133 1.51792097 -0.56370789 4 0 31618 2.17800000 879092762 879092762 -15.00000000
-1.69005537 1.76237345 -0.56372732 4 2 31620 2.50600000 879092766 879092766 -13.00000000
-1.99035752 2.07625079 -0.55907035 3 4 31621 2.93000000 879092771 879092771 -11.00000000
-2.47062612 2.57904696 -0.56566703 1 6 31623 3.61600000 879092775 879092775 -9.00000000
-3.14901328 3.28950238 -0.55913657 2 8 31625 4.58800000 879092780 879092780 -7.00000000
-4.38186598 4.57895660 -0.55448484 7 10 31626 6.36200000 879092785 879092785 -5.00000000
-7.09650850 7.42088413 -0.53811830 4 12 31628 10.28200000 879092789 879092789 -3.00000000
-7.74966097 8.10672379 2.58918667 54 13 31629 11.51000000 879092792 879092792 13.00000000
-6.68553734 6.99845982 2.59336686 47 15 31631 10.02000000 879092796 879092796 15.00000000
-1.45134401 1.52299643 -0.56370789 4 0 31638 2.17800000 879092817 879092817 -15.00000000
-1.68120551 1.76543963 -0.56282753 4 2 31640 2.50200000 879092822 879092822 -13.00000000
-1.99663436 2.09740543 -0.56288654 3 4 31641 2.95000000 879092826 879092826 -11.00000000
-2.44663191 2.57191181 -0.56222546 1 6 31643 3.59400000 879092831 879092831 -9.00000000
-3.14298248 3.30622935 -0.56011152 2 8 31645 4.59600000 879092835 879092835 -7.00000000
-4.35487604 4.58266973 -0.55309033 7 10 31646 6.34600000 879092840 879092840 -5.00000000
-7.07331228 7.44850683 -0.53832763 4 12 31648 10.28600000 879092845 879092845 -3.00000000
-7.72265768 8.13513947 2.58963656 55 13 31649 11.51200000 879092847 879092847 13.00000000
-6.65564346 7.01358509 2.59077859 47 15 31650 10.01000000 879092852 879092852 15.00000000
-1.45000243 1.53226280 -0.56526077 4 0 31658 2.18400000 879092872 879092872 -15.00000000
-1.67904961 1.77554512 -0.56417722 4 2 31660 2.50800000 879092877 879092877 -13.00000000
-1.97581410 2.09009552 -0.55907035 3 4 31661 2.93000000 879092881 879092881 -11.00000000
-2.43899584 2.58187246 -0.56253833 1 6 31663 3.59600000 879092886 879092886 -9.00000000
-3.14232373 3.32872820 -0.56206143 2 8 31665 4.61200000 879092891 879092891 -7.00000000
-4.35662937 4.61668110 -0.55535638 7 10 31666 6.37200000 879092895 879092895 -5.00000000
-7.04178762 7.46733952 -0.53790897 4 12 31668 10.27800000 879092900 879092900 -3.00000000
-7.69688702 8.16488266 2.59053636 55 13 31669 11.51600000 879092902 879092902 13.00000000
-6.63651609 7.04496288 2.59336686 47 15 31671 10.02000000 879092907 879092907 15.00000000
-1.44464493 1.53731489 -0.56526077 4 0 31678 2.18400000 879092928 879092928 -15.00000000
-1.67017353 1.77855420 -0.56327742 4 2 31680 2.50400000 879092932 879092932 -13.00000000
-1.98194313 2.11129355 -0.56288654 3 4 31681 2.95000000 879092937 879092937 -11.00000000
-2.43402314 2.59469247 -0.56347692 1 6 31683 3.60200000 879092941 879092941 -9.00000000
-3.12525463 3.33388376 -0.56108648 2 8 31685 4.60400000 879092946 879092946 -7.00000000
-4.34593725 4.63767576 -0.55605364 7 10 31686 6.38000000 879092951 879092951 -5.00000000
-7.01158333 7.48750114 -0.53759491 4 12 31688 10.27200000 879092955 879092955 -3.00000000
-7.66168070 8.18458652 2.58828688 54 13 31689 11.50600000 879092958 879092958 13.00000000
-6.61311769 7.06693172 2.59336686 47 15 31690 10.02000000 879092962 879092962 15.00000000
-1.44454193 1.54799795 -0.56733137 4 0 31698 2.19200000 879092983 879092983 -15.00000000
-1.66794217 1.78864896 -0.56462717 4 2 31700 2.51000000 879092987 879092987 -13.00000000
-1.96385181 2.10671020 -0.55983359 3 4 31701 2.93400000 879092992 879092992 -11.00000000
-2.42629766 2.60461855 -0.56378978 1 6 31703 3.60400000 879092997 879092997 -9.00000000
-3.11359835 3.34477258 -0.56108648 2 8 31705 4.60400000 879093001 879093001 -7.00000000
-4.34193754 4.66594458 -0.55762243 11 10 31706 6.39800000 879093006 879093006 -5.00000000
-7.00580597 7.53386927 -0.53916502 4 12 31708 10.30200000 879093010 879093010 -3.00000000
-7.62908411 8.20699883 2.58693719 56 13 31709 11.50000000 879093013 879093013 13.00000000
-6.58454227 7.08829165 2.59233165 47 15 31711 10.01600000 879093017 879093017 15.00000000
-1.43283415 1.54569590 -0.56474316 4 0 31717 2.18200000 879093038 879093038 -15.00000000
-1.66465020 1.79702950 -0.56552696 4 2 31719 2.51400000 879093043 879093043 -13.00000000
-1.94885147 2.10456800 -0.55754387 3 4 31720 2.92200000 879093047 879093047 -11.00000000
-2.42301345 2.61844945 -0.56504130 1 6 31722 3.61200000 879093052 879093052 -9.00000000
-3.09979391 3.35216427 -0.56059897 2 8 31724 4.60000000 879093057 879093057 -7.00000000
-4.31832647 4.67153883 -0.55657655 7 10 31725 6.38600000 879093061 879093061 -5.00000000
-7.01330948 7.59227085 -0.54167712 4 12 31727 10.35000000 879093066 879093066 -3.00000000
-7.60182667 8.23225307 2.58693719 56 13 31728 11.50000000 879093068 879093068 13.00000000
-1.42088807 1.54358125 -0.56215495 4 0 31737 2.17200000 879093093 879093093 -15.00000000
-1.65836728 1.80282927 -0.56552696 4 2 31739 2.51400000 879093098 879093098 -13.00000000
-1.95478201 2.12580943 -0.56136006 3 4 31740 2.94200000 879093103 879093103 -11.00000000
-2.40851235 2.62107325 -0.56378978 1 6 31742 3.60400000 879093107 879093107 -9.00000000
-3.09881496 3.37466145 -0.56254888 2 8 31744 4.61600000 879093112 879093112 -7.00000000
-4.29929876 4.68364859 -0.55622792 11 10 31745 6.38200000 879093116 879093116 -5.00000000
-7.00971651 7.64172649 -0.54345655 4 12 31747 10.38400000 879093121 879093121 -3.00000000
-7.57699537 8.26304722 2.58828688 54 13 31748 11.50600000 879093123 879093123 13.00000000
-5.74261618 6.26696587 2.27760768 27 15 31750 8.80000000 879093128 879093128 15.00000000
-1.42331171 1.55708706 -0.56526077 4 0 31757 2.18400000 879093149 879093149 -15.00000000
-1.64680696 1.80285168 -0.56372732 4 2 31759 2.50600000 879093153 879093153 -13.00000000
-1.94470203 2.12972045 -0.56059682 2 4 31760 2.93800000 879093158 879093158 -11.00000000
-2.39269090 2.62216854 -0.56222546 1 6 31762 3.59400000 879093163 879093163 -9.00000000
-3.08835387 3.38692474 -0.56279260 2 8 31764 4.61800000 879093167 879093167 -7.00000000
-4.28963423 4.70598984 -0.55709952 7 10 31765 6.39200000 879093172 879093172 -5.00000000
-6.97896433 7.66171885 -0.54314256 4 12 31767 10.37800000 879093176 879093176 -3.00000000
-7.55204201 8.29376793 2.58963656 55 13 31768 11.51200000 879093179 879093179 13.00000000
-5.72700453 6.29168940 2.27967811 40 15 31769 8.80800000 879093183 879093183 15.00000000
-1.42046452 1.56490672 -0.56629604 4 0 31777 2.18800000 879093204 879093204 -15.00000000
-1.64050376 1.80858922 -0.56372732 4 2 31779 2.50600000 879093209 879093209 -13.00000000
-1.93989360 2.13940454 -0.56136006 3 4 31780 2.94200000 879093213 879093213 -11.00000000
-2.38352346 2.63050461 -0.56222546 1 6 31782 3.59400000 879093218 879093218 -9.00000000
-3.07118297 3.39179850 -0.56181765 2 8 31784 4.61000000 879093222 879093222 -7.00000000
-4.27585554 4.72388935 -0.55744815 3 10 31785 6.39600000 879093227 879093227 -5.00000000
-6.94279909 7.67566490 -0.54240984 4 12 31787 10.36400000 879093232 879093232 -3.00000000
-7.51651049 8.31285191 2.58738708 53 13 31788 11.50200000 879093234 879093234 13.00000000
-5.70131540 6.30977058 2.27864289 45 15 31790 8.80400000 879093239 879093239 15.00000000
-1.41989195 1.57584333 -0.56836665 4 0 31798 2.19600000 879093259 879093259 -15.00000000
-1.62995207 1.81024516 -0.56237763 4 2 31800 2.50000000 879093264 879093264 -13.00000000
-1.92153192 2.13482666 -0.55830711 3 4 31801 2.92600000 879093269 879093269 -11.00000000
-2.38047123 2.64656639 -0.56378978 1 6 31803 3.60400000 879093273 879093273 -9.00000000
-3.05740380 3.40155578 -0.56157392 2 8 31805 4.60800000 879093278 879093278 -7.00000000
-4.28381348 4.76768780 -0.56076002 3 10 31806 6.43400000 879093282 879093282 -5.00000000
-6.94664431 7.73672676 -0.54492199 4 12 31808 10.41200000 879093287 879093287 -3.00000000
-7.48469019 8.33889484 2.58693719 55 13 31809 11.50000000 879093289 879093289 13.00000000
-5.67796516 6.32819557 2.27812529 45 15 31810 8.80200000 879093294 879093294 15.00000000
-1.40923011 1.57503128 -0.56629604 4 0 31818 2.18800000 879093315 879093315 -15.00000000
-1.62751997 1.82028198 -0.56372732 4 2 31820 2.50600000 879093319 879093319 -13.00000000
-1.92453480 2.15323114 -0.56136006 3 4 31821 2.94200000 879093324 879093324 -11.00000000
-2.37121844 2.65485978 -0.56378978 1 6 31823 3.60400000 879093328 879093328 -9.00000000
-3.05344248 3.42109323 -0.56303638 2 8 31825 4.62000000 879093333 879093333 -7.00000000
-4.26183939 4.77666521 -0.56006283 3 10 31826 6.42600000 879093338 879093338 -5.00000000
-6.92889977 7.77136326 -0.54565465 4 12 31828 10.42600000 879093342 879093342 -3.00000000
-7.45942640 8.36933517 2.58828688 54 13 31829 11.50600000 879093345 879093345 13.00000000
-5.65198565 6.34364986 2.27657223 45 15 31830 8.79600000 879093349 879093349 15.00000000
-1.39629912 1.57103193 -0.56319022 4 0 31837 2.17600000 879093370 879093370 -15.00000000
-1.62794507 1.83295417 -0.56597686 3 2 31839 2.51600000 879093375 879093375 -13.00000000
-1.91217005 2.15372896 -0.55983359 3 4 31840 2.93400000 879093379 879093379 -11.00000000
-2.36240149 2.66270828 -0.56378978 1 6 31842 3.60400000 879093384 879093384 -9.00000000
-3.04998255 3.44011235 -0.56449878 2 8 31844 4.63200000 879093388 879093388 -7.00000000
-4.24068975 4.78480768 -0.55936557 3 10 31845 6.41800000 879093393 879093393 -5.00000000
-6.92692661 7.82121038 -0.54753876 4 12 31847 10.46200000 879093398 879093398 -3.00000000
-7.43809032 8.40132046 2.59053636 57 13 31848 11.51600000 879093400 879093400 13.00000000
-5.62323618 6.35367775 2.27346659 45 15 31849 8.78400000 879093404 879093404 15.00000000
-1.39591992 1.58169007 -0.56526077 4 0 31857 2.18400000 879093425 879093425 -15.00000000
-1.61766994 1.83424103 -0.56462717 4 2 31859 2.51000000 879093430 879093430 -13.00000000
-1.92022038 2.17806244 -0.56441301 3 4 31860 2.95800000 879093434 879093434 -11.00000000
-2.35309267 2.67093849 -0.56378978 1 6 31862 3.60400000 879093439 879093439 -9.00000000
-3.04844952 3.46265745 -0.56644869 2 8 31864 4.64800000 879093444 879093444 -7.00000000
-4.24502230 4.82351208 -0.56215453 3 10 31865 6.45000000 879093448 879093448 -5.00000000
-6.89958334 7.84534216 -0.54753876 4 12 31867 10.46200000 879093453 879093453 -3.00000000
-7.40871906 8.42723370 2.59053636 57 13 31868 11.51600000 879093455 879093455 13.00000000
-5.59991121 6.37424517 2.27346659 47 15 31870 8.78400000 879093460 879093460 15.00000000
-1.39802980 1.59527051 -0.56836665 4 0 31877 2.19600000 879093481 879093481 -15.00000000
-1.60740578 1.83547843 -0.56327742 4 2 31879 2.50400000 879093485 879093485 -13.00000000
-1.90743303 2.17884326 -0.56288654 3 4 31880 2.95000000 879093490 879093490 -11.00000000
-2.34375501 2.67913604 -0.56378978 1 6 31882 3.60400000 879093494 879093494 -9.00000000
-3.01543975 3.44936490 -0.56254888 2 8 31884 4.61600000 879093499 879093499 -7.00000000
-4.22553730 4.83529997 -0.56180590 3 10 31885 6.44600000 879093504 879093504 -5.00000000
-6.87478352 7.87238741 -0.54774809 4 12 31887 10.46600000 879093508 879093508 -3.00000000
-7.37797594 8.45157528 2.59008646 53 13 31888 11.51400000 879093510 879093510 13.00000000
-5.58128309 6.39569139 2.27450180 45 15 31889 8.78800000 879093515 879093515 15.00000000
-1.38991642 1.59722614 -0.56733137 4 0 31897 2.19200000 879093536 879093536 -15.00000000
-1.60354650 1.84401917 -0.56417722 3 2 31899 2.50800000 879093540 879093540 -13.00000000
-1.89208782 2.17659807 -0.56059682 3 4 31900 2.93800000 879093545 879093545 -11.00000000
-2.33957052 2.69326615 -0.56504130 1 6 31902 3.61200000 879093550 879093550 -9.00000000
-3.00338078 3.45986986 -0.56254888 2 8 31904 4.61600000 879093554 879093554 -7.00000000
-4.22691441 4.87108755 -0.56424630 3 10 31905 6.47400000 879093559 879093559 -5.00000000
-6.86558056 7.91746235 -0.54921353 4 12 31907 10.49400000 879093563 879093563 -3.00000000
-7.34204721 8.46991539 2.58783698 55 13 31908 11.50400000 879093566 879093566 13.00000000
-5.56398439 6.42097425 2.27657223 45 15 31909 8.79600000 879093570 879093570 15.00000000
-1.38180649 1.59914470 -0.56629604 4 0 31917 2.18800000 879093591 879093591 -15.00000000
-1.60474157 1.85845506 -0.56687665 4 2 31919 2.52000000 879093596 879093596 -13.00000000
-1.88576138 2.18467546 -0.56097847 3 4 31920 2.94000000 879093600 879093600 -11.00000000
-2.32886481 2.69992042 -0.56472844 1 6 31922 3.61000000 879093605 879093605 -9.00000000
-3.00683784 3.48837566 -0.56547374 2 8 31924 4.64000000 879093609 879093609 -7.00000000
-4.19818068 4.87222862 -0.56267750 3 10 31925 6.45600000 879093614 879093614 -5.00000000
-6.83790159 7.94137907 -0.54921353 4 12 31927 10.49400000 879093619 879093619 -3.00000000
-7.31497955 8.49844551 2.58873677 57 13 31928 11.50800000 879093621 879093621 13.00000000
-5.54279709 6.44182158 2.27709007 47 15 31929 8.79800000 879093626 879093626 15.00000000
-1.37370002 1.60102606 -0.56526077 4 0 31937 2.18400000 879093646 879093646 -15.00000000
-1.60585523 1.87292182 -0.56957608 3 2 31939 2.53200000 879093651 879093651 -13.00000000
-1.88451207 2.19869804 -0.56288654 3 4 31940 2.95000000 879093656 879093656 -11.00000000
-2.32970595 2.72003579 -0.56723136 1 6 31942 3.62600000 879093660 879093660 -9.00000000
-2.99722433 3.50186658 -0.56596124 2 8 31944 4.64400000 879093665 879093665 -7.00000000
-4.18762398 4.89442253 -0.56354904 3 10 31945 6.46600000 879093669 879093669 -5.00000000
-6.84907675 8.01074123 -0.55235368 4 12 31947 10.55400000 879093674 879093674 -3.00000000
-7.28526974 8.52392769 2.58873677 57 13 31948 11.50800000 879093676 879093676 13.00000000
-5.50911236 6.45034170 2.27294874 47 15 31950 8.78200000 879093681 879093681 15.00000000
-1.37687302 1.61610508 -0.56888425 4 0 31957 2.19800000 879093702 879093702 -15.00000000
-1.59551787 1.87406445 -0.56822634 4 2 31959 2.52600000 879093706 879093706 -13.00000000
-1.87682569 2.20526266 -0.56288654 3 4 31960 2.95000000 879093711 879093711 -11.00000000
-2.31635785 2.72363710 -0.56629276 1 6 31962 3.62000000 879093715 879093715 -9.00000000
-3.00812173 3.53953481 -0.57034850 2 8 31964 4.68000000 879093720 879093720 -7.00000000
-4.16277409 4.89989996 -0.56250316 3 10 31965 6.45400000 879093725 879093725 -5.00000000
-6.82882786 8.04373550 -0.55298173 4 12 31967 10.56600000 879093729 879093729 -3.00000000
-7.26051521 8.55525017 2.59053636 57 13 31968 11.51600000 879093732 879093732 13.00000000
-5.48144293 6.46120930 2.27036071 47 15 31969 8.77200000 879093736 879093736 15.00000000
-1.36997557 1.61942649 -0.56836665 4 0 31977 2.19600000 879093757 879093757 -15.00000000
-1.57764363 1.86622846 -0.56417722 4 2 31979 2.50800000 879093761 879093761 -13.00000000
-1.87671971 2.22079778 -0.56517625 3 4 31980 2.96200000 879093766 879093766 -11.00000000
-2.30046415 2.72415996 -0.56472844 1 6 31982 3.61000000 879093771 879093771 -9.00000000
-2.95990157 3.50753474 -0.56352383 2 8 31984 4.62400000 879093775 879093775 -7.00000000
-4.15335274 4.92353821 -0.56354904 3 10 31985 6.46600000 879093780 879093780 -5.00000000
-6.80843210 8.07668591 -0.55360973 4 12 31987 10.57800000 879093785 879093785 -3.00000000
-7.22432852 8.57309055 2.58828688 53 13 31988 11.50600000 879093787 879093787 13.00000000
-5.45636654 6.47734880 2.26932549 45 15 31989 8.76800000 879093791 879093791 15.00000000
-1.36985350 1.62963760 -0.57043719 4 0 31995 2.20400000 879093812 879093812 -15.00000000
-1.57929337 1.88012850 -0.56687665 3 2 31997 2.52000000 879093817 879093817 -13.00000000
-1.87730849 2.23570371 -0.56746596 3 4 31998 2.97400000 879093821 879093821 -11.00000000
-2.29697347 2.73742652 -0.56597990 1 6 32000 3.61800000 879093826 879093826 -9.00000000
-2.96417332 3.53506947 -0.56644869 2 8 32002 4.64800000 879093831 879093831 -7.00000000
-4.15450335 4.95641232 -0.56581509 3 10 32003 6.49200000 879093835 879093835 -5.00000000
-6.79328442 8.11028385 -0.55444711 4 12 32005 10.59400000 879093840 879093840 -3.00000000
-7.19360685 8.59126186 2.58693719 55 13 32006 11.50000000 879093842 879093842 13.00000000
-5.43609667 6.49688864 2.26984310 47 15 32008 8.77000000 879093847 879093847 15.00000000
-1.35672939 1.62551057 -0.56733137 4 0 32015 2.19200000 879093867 879093867 -15.00000000
-1.57022452 1.88263679 -0.56597686 3 2 32017 2.51600000 879093872 879093872 -13.00000000
-1.85692072 2.22716427 -0.56364977 3 4 32018 2.95400000 879093877 879093877 -11.00000000
-2.30637097 2.76819253 -0.57067293 1 6 32020 3.64800000 879093881 879093881 -9.00000000
-2.96451712 3.56065035 -0.56888610 2 8 32022 4.66800000 879093886 879093886 -7.00000000
-4.13462782 4.96782112 -0.56546646 3 10 32023 6.48800000 879093891 879093891 -5.00000000
-7.41960526 8.91793919 2.25498080 21 11 32024 11.81800000 879093893 879093893 11.00000000
-6.78792143 8.16158772 -0.55633122 4 12 32025 10.63000000 879093895 879093895 -3.00000000
-7.16855717 8.62231350 2.58873677 55 13 32026 11.50800000 879093897 879093897 13.00000000
-5.40597820 6.50690937 2.26673722 47 15 32028 8.75800000 879093902 879093902 15.00000000
-1.34611619 1.62428677 -0.56526077 4 0 32035 2.18400000 879093923 879093923 -15.00000000
-1.56612933 1.89110816 -0.56687665 3 2 32037 2.52000000 879093927 879093927 -13.00000000
-1.84913516 2.23363256 -0.56364977 3 4 32038 2.95400000 879093932 879093932 -11.00000000
-2.28284335 2.75948381 -0.56723136 1 6 32040 3.62600000 879093937 879093937 -9.00000000
-2.97230697 3.59545660 -0.57278591 2 8 32042 4.70000000 879093941 879093941 -7.00000000
-4.12868404 4.99604559 -0.56703526 4 10 32043 6.50600000 879093946 879093946 -5.00000000
-6.74921656 8.17291260 -0.55549383 4 12 32045 10.61400000 879093950 879093950 -3.00000000
-7.14337826 8.65329552 2.59053636 60 13 32046 11.51600000 879093953 879093953 13.00000000
-5.37954378 6.52126932 2.26518416 47 15 32048 8.75200000 879093957 879093957 15.00000000
-1.34166563 1.63046741 -0.56577843 4 0 32055 2.18600000 879093978 879093978 -15.00000000
-1.56199396 1.89957380 -0.56777644 3 2 32057 2.52400000 879093983 879093983 -13.00000000
-1.84631371 2.24614000 -0.56517625 2 4 32058 2.96200000 879093987 879093987 -11.00000000
-2.26692796 2.75980330 -0.56566703 1 6 32060 3.61600000 879093992 879093992 -9.00000000
-2.95973825 3.60580993 -0.57278591 2 8 32062 4.70000000 879093997 879093997 -7.00000000
-4.13144064 5.03507090 -0.56982422 4 10 32063 6.53800000 879094001 879094001 -5.00000000
-6.73077774 8.20877743 -0.55633122 4 12 32065 10.63000000 879094006 879094006 -3.00000000
-7.11312914 8.67817783 2.59053636 56 13 32066 11.51600000 879094008 879094008 13.00000000
-5.35919571 6.54299688 2.26621962 47 15 32068 8.75600000 879094013 879094013 15.00000000
-1.34394765 1.64608216 -0.56940192 4 0 32077 2.20000000 879094033 879094033 -15.00000000
-1.55715251 1.90857732 -0.56867629 3 2 32079 2.52800000 879094038 879094038 -13.00000000
-1.84512055 2.26234126 -0.56746596 3 4 32080 2.97400000 879094043 879094043 -11.00000000
-2.26380229 2.77767467 -0.56754422 1 6 32082 3.62800000 879094047 879094047 -9.00000000
-2.94336414 3.61406946 -0.57229841 2 8 32084 4.69600000 879094052 879094052 -7.00000000
-4.11207724 5.05089760 -0.56982422 4 10 32085 6.53800000 879094056 879094056 -5.00000000
-6.71937561 8.25934982 -0.55800599 4 12 32087 10.66200000 879094061 879094061 -3.00000000
-7.07729578 8.70240211 2.58963656 59 13 32088 11.51200000 879094063 879094063 13.00000000
-5.33396006 6.56109619 2.26570201 47 15 32089 8.75400000 879094068 879094068 15.00000000
-1.34184313 1.65526545 -0.57095480 4 0 32097 2.20600000 879094089 879094089 -15.00000000
-1.54066765 1.90188730 -0.56507707 3 2 32099 2.51200000 879094093 879094093 -13.00000000
-1.83227026 2.26266527 -0.56593949 3 4 32100 2.96600000 879094098 879094098 -11.00000000
-2.26030564 2.79323792 -0.56910861 1 6 32102 3.63800000 879094102 879094102 -9.00000000
-2.93197894 3.62586522 -0.57254219 2 8 32104 4.69800000 879094107 879094107 -7.00000000
-4.08941126 5.05902290 -0.56912702 4 10 32105 6.53000000 879094112 879094112 -5.00000000
-6.69050407 8.28275490 -0.55800599 8 12 32107 10.66200000 879094116 879094116 -3.00000000
-7.04197884 8.72098923 2.58783698 57 13 32108 11.50400000 879094119 879094119 13.00000000
-5.30623722 6.57609177 2.26414895 47 15 32110 8.74800000 879094123 879094123 15.00000000
-1.32572997 1.64593220 -0.56629604 4 0 32115 2.18800000 879094144 879094144 -15.00000000
-1.54446018 1.91886270 -0.56867629 3 2 32117 2.52800000 879094149 879094149 -13.00000000
-1.81530714 2.25617361 -0.56288654 3 4 32118 2.95000000 879094153 879094153 -11.00000000
-2.23666596 2.78185129 -0.56535417 1 6 32120 3.61400000 879094158 879094158 -9.00000000
-2.91311359 3.62577343 -0.57107973 2 8 32122 4.68600000 879094162 879094162 -7.00000000
-4.08846903 5.09048557 -0.57121873 4 10 32123 6.55400000 879094167 879094167 -5.00000000
-6.67445135 8.31619358 -0.55884331 8 12 32125 10.67800000 879094172 879094172 -3.00000000
-7.01454639 8.74306870 2.58783698 59 13 32126 11.50400000 879094174 879094174 13.00000000
-5.28428459 6.58879232 2.26311374 45 15 32127 8.74400000 879094179 879094179 15.00000000
-1.32359624 1.65507603 -0.56784898 4 0 32135 2.19400000 879094199 879094199 -15.00000000
-1.54018581 1.92728686 -0.56957608 3 2 32137 2.53200000 879094204 879094204 -13.00000000
-1.82457566 2.28397083 -0.56822920 3 4 32138 2.97800000 879094208 879094208 -11.00000000
-2.24789262 2.81588626 -0.57067293 1 6 32140 3.64800000 879094213 879094213 -9.00000000
-2.90291524 3.63902378 -0.57156724 2 8 32142 4.69000000 879094218 879094218 -7.00000000
-4.07812834 5.11407280 -0.57226461 4 10 32143 6.56600000 879094222 879094222 -5.00000000
-6.65907335 8.35662365 -0.55999476 4 12 32145 10.70000000 879094227 879094227 -3.00000000
-6.98641300 8.77054977 2.58873677 59 13 32146 11.50800000 879094229 879094229 13.00000000
-5.24806881 6.59300137 2.25793743 40 15 32148 8.72400000 879094234 879094234 15.00000000
-1.31300569 1.65363443 -0.56577843 4 0 32155 2.18600000 879094255 879094255 -15.00000000
-1.52618146 1.92349195 -0.56687665 3 2 32157 2.52000000 879094259 879094259 -13.00000000
-1.81659210 2.29032588 -0.56822920 2 4 32158 2.97800000 879094264 879094264 -11.00000000
-2.23191452 2.81597543 -0.56910861 1 6 32160 3.63800000 879094268 879094268 -9.00000000
-2.90744996 3.67092061 -0.57497954 2 8 32162 4.71800000 879094273 879094273 -7.00000000
-4.06025219 5.12827682 -0.57226461 4 10 32163 6.56600000 879094278 879094278 -5.00000000
-6.63853693 8.39078140 -0.56072742 4 12 32165 10.71400000 879094282 879094282 -3.00000000
-6.95575523 8.79488373 2.58873677 60 13 32166 11.50800000 879094285 879094285 13.00000000
-5.18544102 6.55884361 2.24033761 22 15 32167 8.65600000 879094289 879094289 15.00000000
-1.31440139 1.66731024 -0.56888425 4 0 32175 2.19800000 879094310 879094310 -15.00000000
-1.52669334 1.93799233 -0.56957608 3 2 32177 2.53200000 879094314 879094314 -13.00000000
-1.80615699 2.29356837 -0.56746596 2 4 32178 2.97400000 879094319 879094319 -11.00000000
-2.22940087 2.83306313 -0.57098579 1 6 32180 3.65000000 879094324 879094324 -9.00000000
-2.89216423 3.67792606 -0.57449210 2 8 32182 4.71400000 879094328 879094328 -7.00000000
-4.05217648 5.15494967 -0.57365912 4 10 32183 6.58200000 879094333 879094333 -5.00000000
-7.04155540 8.96108723 2.21529245 12 11 32184 11.61000000 879094335 879094335 11.00000000
