# .PCD v0.7 - Point Cloud Data file format
VERSION 0.7
FIELDS x y z intensity laser_id azimuth distance_m adjustedtime timestamp vertical_angle
SIZE 4 4 4 1 1 2 8 8 4 8
TYPE F F F U U U F U U F
COUNT 1 1 1 1 1 1 1 1 1 1
WIDTH 535
HEIGHT 1
VIEWPOINT 0 0 0 1 0 0 0
POINTS 535
DATA ascii
-1.46642327 1.50848281 -0.56370789 4 0 31581 2.17800000 887892690 887892690 -15.00000000
-1.70004308 1.75002515 -0.56327742 4 2 31583 2.50400000 887892695 887892695 -13.00000000
-2.00645924 2.06617141 -0.55983359 3 4 31584 2.93400000 887892699 887892699 -11.00000000
-2.45558858 2.53043365 -0.55847102 1 6 31586 3.57000000 887892704 887892704 -9.00000000
-3.16189861 3.26054788 -0.55767411 2 8 31588 4.57600000 887892709 887892709 -7.00000000
-4.39470243 4.53339767 -0.55239308 7 10 31589 6.33800000 887892713 887892713 -5.00000000
-7.09981298 7.32899761 -0.53476882 4 12 31591 10.21800000 887892718 887892718 -3.00000000
-7.81133938 8.06630898 2.59233594 57 13 31592 11.52400000 887892720 887892720 13.00000000
-6.73462200 6.95930576 2.59491968 47 15 31594 10.02600000 887892725 887892725 15.00000000
-1.45846522 1.51081264 -0.56267262 4 0 31601 2.17400000 887892745 887892745 -15.00000000
-1.68851209 1.75033867 -0.56147784 4 2 31603 2.49600000 887892750 887892750 -13.00000000
-2.00196028 2.07598901 -0.56059682 3 4 31604 2.93800000 887892755 887892755 -11.00000000
-2.45633602 2.54894662 -0.56066114 1 6 31606 3.58400000 887892759 887892759 -9.00000000
-3.16151357 3.28300428 -0.55962402 2 8 31608 4.59200000 887892764 887892764 -7.00000000
-4.39128733 4.56162882 -0.55396187 3 10 31609 6.35600000 887892768 887892768 -5.00000000
-7.08249426 7.36237192 -0.53539681 4 12 31611 10.23000000 887892773 887892773 -3.00000000
-7.77638149 8.08650398 2.59008646 54 13 31612 11.51400000 887892775 887892775 13.00000000
-6.71150684 6.98160028 2.59491968 47 15 31613 10.02600000 887892780 887892780 15.00000000
-1.46254075 1.52565634 -0.56629604 4 0 31621 2.18800000 887892801 887892801 -15.00000000
-1.68778431 1.76185095 -0.56327742 4 2 31623 2.50400000 887892805 887892805 -13.00000000
-1.99470150 2.08296442 -0.56059682 3 4 31624 2.93800000 887892810 887892810 -11.00000000
-2.46654391 2.57748580 -0.56504130 1 6 31626 3.61200000 887892814 887892814 -9.00000000
-3.14043069 3.28397727 -0.55791783 2 8 31628 4.57800000 887892819 887892819 -7.00000000
-4.39598894 4.59853268 -0.55657655 7 10 31629 6.38600000 887892824 887892824 -5.00000000
-7.07330704 7.40437984 -0.53665292 4 12 31631 10.25400000 887892828 887892828 -3.00000000
-7.74137735 8.10655212 2.58783698 55 13 31632 11.50400000 887892831 887892831 13.00000000
-6.68987417 7.01034498 2.59647274 47 15 31634 10.03200000 887892835 887892835 15.00000000
-1.44788229 1.52095771 -0.56267262 4 0 31641 2.17400000 887892856 887892856 -15.00000000
-1.67625141 1.76208389 -0.56147784 4 2 31643 2.49600000 887892861 887892861 -13.00000000
-1.97930098 2.08137846 -0.55830711 2 4 31644 2.92600000 887892865 887892865 -11.00000000
-2.44528508 2.57319260 -0.56222546 1 6 31646 3.59400000 887892870 887892870 -9.00000000
-3.13441610 3.30067730 -0.55889279 2 8 31648 4.58600000 887892874 887892874 -7.00000000
-4.36207771 4.59506464 -0.55431050 3 10 31649 6.36000000 887892879 887892879 -5.00000000
-7.04604340 7.42757654 -0.53654820 4 12 31651 10.25200000 887892884 887892884 -3.00000000
-7.71705627 8.13776779 2.58918667 53 13 31652 11.51000000 887892886 887892886 13.00000000
-6.64931250 7.01426506 2.58974338 47 15 31653 10.00600000 887892891 887892891 15.00000000
-1.43991017 1.52319479 -0.56163734 4 0 31661 2.17000000 887892911 887892911 -15.00000000
-1.67544329 1.77359080 -0.56327742 4 2 31663 2.50400000 887892916 887892916 -13.00000000
-1.97202361 2.08827496 -0.55830711 3 4 31664 2.92600000 887892920 887892920 -11.00000000
-2.42950916 2.57452917 -0.56066114 1 6 31666 3.58400000 887892925 887892925 -9.00000000
-3.12968516 3.31881928 -0.56011152 2 8 31668 4.59600000 887892930 887892930 -7.00000000
-4.34191132 4.60591364 -0.55378759 7 10 31669 6.35400000 887892934 887892934 -5.00000000
-7.05705023 7.49137878 -0.53937435 4 12 31671 10.30600000 887892939 887892939 -3.00000000
-7.68993902 8.16607380 2.58963656 56 13 31672 11.51200000 887892941 887892941 13.00000000
-6.62620687 7.04140234 2.59077859 47 15 31674 10.01000000 887892946 887892946 15.00000000
-1.44092751 1.53550565 -0.56422549 4 0 31682 2.18000000 887892967 887892967 -15.00000000
-1.67426348 1.78540576 -0.56507707 4 2 31684 2.51200000 887892971 887892971 -13.00000000
-1.97509801 2.10694718 -0.56136006 3 4 31685 2.94200000 887892976 887892976 -11.00000000
-2.42005682 2.58341646 -0.56066114 1 6 31687 3.58400000 887892980 887892980 -9.00000000
-3.12021327 3.33316636 -0.56059897 2 8 31689 4.60000000 887892985 887892985 -7.00000000
-4.34269810 4.64070845 -0.55605364 7 10 31690 6.38000000 887892990 887892990 -5.00000000
-7.01590395 7.50260592 -0.53832763 4 12 31692 10.28600000 887892994 887892994 -3.00000000
-7.65862608 8.19278049 2.58918667 54 13 31693 11.51000000 887892997 887892997 13.00000000
-6.60290623 7.06590080 2.59129620 49 15 31694 10.01200000 887893001 887893001 15.00000000
-1.43819284 1.54335272 -0.56526077 4 0 31702 2.18400000 887893022 887893022 -15.00000000
-1.65872478 1.78125608 -0.56192774 4 2 31704 2.49800000 887893026 887893026 -13.00000000
-1.97308207 2.11957693 -0.56288654 2 4 31705 2.95000000 887893031 887893031 -11.00000000
-2.41506052 2.59618735 -0.56159973 1 6 31707 3.59000000 887893036 887893036 -9.00000000
-3.11666870 3.35276127 -0.56206143 2 8 31709 4.61200000 887893040 887893040 -7.00000000
-4.33189774 4.66167736 -0.55675089 11 10 31710 6.38800000 887893045 887893045 -5.00000000
-7.00054455 7.53875875 -0.53916502 4 12 31712 10.30200000 887893049 887893049 -3.00000000
-7.62467813 8.21375179 2.58738708 54 13 31713 11.50200000 887893052 887893052 13.00000000
-6.57827806 7.09147072 2.59181380 47 15 31715 10.01400000 887893056 887893056 15.00000000
-1.43596232 1.55069828 -0.56629604 4 0 31720 2.18800000 887893077 887893077 -15.00000000
-1.65709126 1.79074931 -0.56327742 4 2 31722 2.50400000 887893082 887893082 -13.00000000
-1.95308185 2.11135292 -0.55907035 3 4 31723 2.93000000 887893086 887893086 -11.00000000
-2.40689254 2.60376167 -0.56159973 1 6 31725 3.59000000 887893091 887893091 -9.00000000
-3.08456874 3.33920527 -0.55816162 2 8 31727 4.58000000 887893096 887893096 -7.00000000
-4.32263803 4.68111849 -0.55744815 11 10 31728 6.39600000 887893100 887893100 -5.00000000
-7.01746035 7.60474873 -0.54230517 4 12 31730 10.36200000 887893105 887893105 -3.00000000
-7.59751511 8.23623180 2.58693719 55 13 31731 11.50000000 887893107 887893107 13.00000000
-5.78061056 6.26877689 2.28485441 11 15 31732 8.82800000 887893112 887893112 15.00000000
-1.43184829 1.55712330 -0.56681371 4 0 31740 2.19000000 887893132 887893132 -15.00000000
-1.65346742 1.79939258 -0.56417722 4 2 31742 2.50800000 887893137 887893137 -13.00000000
-1.94835627 2.12104940 -0.55983359 3 4 31743 2.93400000 887893142 887893142 -11.00000000
-2.41782618 2.63397598 -0.56629276 1 6 31745 3.62000000 887893146 887893146 -9.00000000
-3.09704757 3.37628365 -0.56254888 2 8 31747 4.61600000 887893151 887893151 -7.00000000
-4.29819202 4.68736792 -0.55640227 11 10 31748 6.38400000 887893155 887893155 -5.00000000
-6.99761868 7.63656044 -0.54282856 4 12 31750 10.37200000 887893160 887893160 -3.00000000
-7.56871891 8.26270199 2.58693719 55 13 31751 11.50000000 887893162 887893162 13.00000000
-5.74455166 6.27567196 2.27967811 29 15 31753 8.80800000 887893167 887893167 15.00000000
-1.41701460 1.55237305 -0.56319022 4 0 31761 2.17600000 887893188 887893188 -15.00000000
-1.65211439 1.81119967 -0.56597686 4 2 31763 2.51600000 887893192 887893192 -13.00000000
-1.94321477 2.13107753 -0.56059682 3 4 31764 2.93800000 887893197 887893197 -11.00000000
-2.40150356 2.63551927 -0.56472844 1 6 31766 3.61000000 887893202 887893202 -9.00000000
-3.08732510 3.39054775 -0.56303638 2 8 31768 4.62000000 887893206 887893206 -7.00000000
-4.29037142 4.71340370 -0.55762243 7 10 31769 6.39800000 887893211 887893211 -5.00000000
-6.97630167 7.66954422 -0.54335189 4 12 31771 10.38200000 887893215 887893215 -3.00000000
-7.53969479 8.29182911 2.58738708 53 13 31772 11.50200000 887893218 887893218 13.00000000
-5.71871233 6.29139709 2.27812529 42 15 31773 8.80200000 887893222 887893222 15.00000000
-1.41158724 1.55730999 -0.56319022 4 0 31781 2.17600000 887893243 887893243 -15.00000000
-1.64054906 1.81117833 -0.56417722 4 2 31783 2.50800000 887893248 887893248 -13.00000000
-1.94103503 2.14366889 -0.56212330 2 4 31784 2.94600000 887893252 887893252 -11.00000000
-2.37108350 2.62045002 -0.55972254 1 6 31786 3.57800000 887893257 887893257 -9.00000000
-3.07280827 3.39835882 -0.56254888 2 8 31788 4.61600000 887893261 887893261 -7.00000000
-4.28458071 4.74017572 -0.55901694 3 10 31789 6.41400000 887893266 887893266 -5.00000000
-6.93476105 7.67754555 -0.54220051 4 12 31791 10.36000000 887893271 887893271 -3.00000000
-7.51331711 8.32098961 2.58828688 53 13 31792 11.50600000 887893273 887893273 13.00000000
-5.69043827 6.30657816 2.27605462 45 15 31794 8.79400000 887893278 887893278 15.00000000
-1.41362286 1.57108974 -0.56629604 4 0 31802 2.18800000 887893298 887893298 -15.00000000
-1.62999082 1.81283176 -0.56282753 4 2 31804 2.50200000 887893303 887893303 -13.00000000
-1.93578982 2.15368915 -0.56288654 3 4 31805 2.95000000 887893308 887893308 -11.00000000
-2.38126302 2.65116692 -0.56441557 1 6 31807 3.60800000 887893312 887893312 -9.00000000
-3.05105042 3.39925742 -0.56084269 2 8 31809 4.60200000 887893317 887893317 -7.00000000
-4.26983929 4.75881338 -0.55936557 3 10 31810 6.41800000 887893321 887893321 -5.00000000
-6.93190813 7.73116493 -0.54418927 4 12 31812 10.39800000 887893326 887893326 -3.00000000
-7.48146820 8.34702015 2.58783698 55 13 31813 11.50400000 887893328 887893328 13.00000000
-5.67096758 6.32928038 2.27709007 45 15 31814 8.79800000 887893333 887893333 15.00000000
-1.41327870 1.58177710 -0.56836665 4 0 31822 2.19600000 887893354 887893354 -15.00000000
-1.62365294 1.81851041 -0.56282753 3 2 31824 2.50200000 887893358 887893358 -13.00000000
-1.93087482 2.16336250 -0.56364977 3 4 31825 2.95400000 887893363 887893363 -11.00000000
-2.38777232 2.67715335 -0.56816995 1 6 31827 3.63200000 887893367 887893367 -9.00000000
-3.05105329 3.42322421 -0.56303638 2 8 31829 4.62000000 887893372 887893372 -7.00000000
-4.25982904 4.78112698 -0.56023711 3 10 31830 6.42800000 887893377 887893377 -5.00000000
-6.91815996 7.77023172 -0.54523599 4 12 31832 10.41800000 887893381 887893381 -3.00000000
-7.45228577 8.37308502 2.58783698 55 13 31833 11.50400000 887893384 887893384 13.00000000
-5.65782881 6.35914040 2.28071332 42 15 31834 8.81200000 887893388 887893388 15.00000000
-1.40060675 1.57754135 -0.56526077 4 0 31840 2.18400000 887893409 887893409 -15.00000000
-1.62827837 1.83526409 -0.56642675 4 2 31842 2.51800000 887893414 887893414 -13.00000000
-1.92146361 2.16648030 -0.56288654 3 4 31843 2.95000000 887893418 887893418 -11.00000000
-2.37672949 2.68168497 -0.56754422 1 6 31845 3.62800000 887893423 887893423 -9.00000000
-3.02975488 3.42090392 -0.56108648 2 8 31847 4.60400000 887893427 887893427 -7.00000000
-4.24214602 4.79150248 -0.55988848 3 10 31848 6.42400000 887893432 887893432 -5.00000000
-6.90694952 7.80688620 -0.54628271 4 12 31850 10.43800000 887893437 887893437 -3.00000000
-7.42723513 8.39791584 2.58828688 54 13 31851 11.50600000 887893439 887893439 13.00000000
-5.62630653 6.36385775 2.27605462 47 15 31852 8.79400000 887893443 887893443 15.00000000
-1.39253652 1.57952261 -0.56422549 4 0 31860 2.18000000 887893464 887893464 -15.00000000
-1.62186217 1.84093666 -0.56642675 4 2 31862 2.51800000 887893469 887893469 -13.00000000
-1.91129434 2.17022753 -0.56212330 3 4 31863 2.94600000 887893473 887893473 -11.00000000
-2.35169363 2.67217016 -0.56378978 1 6 31865 3.60400000 887893478 887893478 -9.00000000
-3.03614831 3.45232797 -0.56449878 2 8 31867 4.63200000 887893483 887893483 -7.00000000
-4.23460340 4.81675577 -0.56110865 3 10 31868 6.43800000 887893487 887893487 -5.00000000
-6.90074730 7.85495567 -0.54795748 4 12 31870 10.47000000 887893492 887893492 -3.00000000
-7.40301943 8.42964745 2.59008646 54 13 31871 11.51400000 887893494 887893494 13.00000000
-5.59784698 6.37862825 2.27398419 45 15 31873 8.78600000 887893499 887893499 15.00000000
-1.38955939 1.58728099 -0.56526077 4 0 31880 2.18400000 887893520 887893520 -15.00000000
-1.61157691 1.84218669 -0.56507707 4 2 31882 2.51200000 887893524 887893524 -13.00000000
-1.90629196 2.17984176 -0.56288654 3 4 31883 2.95000000 887893529 887893529 -11.00000000
-2.34235168 2.68036294 -0.56378978 1 6 31885 3.60400000 887893533 887893533 -9.00000000
-3.01755047 3.45542884 -0.56328011 2 8 31887 4.62200000 887893538 887893538 -7.00000000
-4.21383286 4.82700491 -0.56058574 3 10 31888 6.43200000 887893543 887893543 -5.00000000
-6.87853813 7.88501644 -0.54837614 4 12 31890 10.47800000 887893547 887893547 -3.00000000
-7.37226868 8.45396805 2.58963656 57 13 31891 11.51200000 887893549 887893549 13.00000000
-5.57539463 6.39569998 2.27346659 47 15 31892 8.78400000 887893554 887893554 15.00000000
-1.38907993 1.59795368 -0.56733137 4 0 31900 2.19200000 887893575 887893575 -15.00000000
-1.60641468 1.84927201 -0.56552696 4 2 31902 2.51400000 887893579 887893579 -13.00000000
-1.90382028 2.19241214 -0.56441301 3 4 31903 2.95800000 887893584 887893584 -11.00000000
-2.34463334 2.70195055 -0.56660563 1 6 31905 3.62200000 887893589 887893589 -9.00000000
-3.00677085 3.46744084 -0.56352383 2 8 31907 4.62400000 887893593 887893593 -7.00000000
-4.20217800 4.84770679 -0.56128299 3 10 31908 6.44000000 887893598 887893598 -5.00000000
-6.86666441 7.92709446 -0.54963219 4 12 31910 10.50200000 887893602 887893602 -3.00000000
-7.34143829 8.47817802 2.58918667 54 13 31911 11.51000000 887893605 887893605 13.00000000
-5.55682850 6.41950512 2.27501941 47 15 31912 8.79000000 887893609 887893609 15.00000000
-1.38826203 1.60888469 -0.56940192 4 0 31921 2.20000000 887893630 887893630 -15.00000000
-1.59708083 1.85219574 -0.56462717 4 2 31923 2.51000000 887893635 887893635 -13.00000000
-1.90218079 2.20681047 -0.56632107 3 4 31924 2.96800000 887893639 887893639 -11.00000000
-2.33342528 2.70902920 -0.56629276 1 6 31926 3.62000000 887893644 887893644 -9.00000000
-2.99145174 3.47542882 -0.56303638 2 8 31928 4.62000000 887893648 887893648 -7.00000000
-4.20517397 4.88724041 -0.56407195 3 10 31929 6.47200000 887893653 887893653 -5.00000000
-6.83756399 7.95220852 -0.54963219 4 12 31931 10.50200000 887893658 887893658 -3.00000000
-7.30650425 8.50059509 2.58783698 55 13 31932 11.50400000 887893660 887893660 13.00000000
-5.53452158 6.44129372 2.27553701 47 15 31933 8.79200000 887893665 887893665 15.00000000
-1.38012362 1.61078680 -0.56836665 4 0 31941 2.19600000 887893685 887893685 -15.00000000
-1.59314060 1.86071992 -0.56552696 3 2 31943 2.51400000 887893690 887893690 -13.00000000
-1.87276387 2.18808079 -0.55983359 3 4 31944 2.93400000 887893695 887893695 -11.00000000
-2.33294249 2.72766614 -0.56848282 1 6 31946 3.63400000 887893699 887893699 -9.00000000
-2.97801232 3.48434091 -0.56279260 2 8 31948 4.61800000 887893704 887893704 -7.00000000
-4.19844246 4.91400766 -0.56546646 3 10 31949 6.48800000 887893708 887893708 -5.00000000
-6.83829498 8.00944519 -0.55193502 4 12 31951 10.54600000 887893713 887893713 -3.00000000
-7.27678680 8.52604771 2.58783698 56 13 31952 11.50400000 887893715 887893715 13.00000000
-5.50586128 6.45565605 2.27346659 47 15 31954 8.78400000 887893720 887893720 15.00000000
-1.36475790 1.60358512 -0.56422549 4 0 31960 2.18000000 887893741 887893741 -15.00000000
-1.59453642 1.87489951 -0.56822634 3 2 31962 2.52600000 887893745 887893745 -13.00000000
-1.87567079 2.20624518 -0.56288654 3 4 31963 2.95000000 887893750 887893750 -11.00000000
-2.31493139 2.72484946 -0.56629276 1 6 31965 3.62000000 887893754 887893754 -9.00000000
-2.99085140 3.52294970 -0.56742364 2 8 31967 4.65600000 887893759 887893759 -7.00000000
-4.16665363 4.90967417 -0.56337470 3 10 31968 6.46400000 887893764 887893764 -5.00000000
-6.82719851 8.05035591 -0.55319107 4 12 31970 10.57000000 887893768 887893768 -3.00000000
-7.25351429 8.55607700 2.58963656 59 13 31971 11.51200000 887893771 887893771 13.00000000
-5.48055744 6.46702623 2.27139592 47 15 31972 8.77600000 887893775 887893775 15.00000000
-1.36164594 1.61129034 -0.56526077 4 0 31980 2.18400000 887893796 887893796 -15.00000000
-1.58043826 1.87152088 -0.56552696 4 2 31982 2.51400000 887893800 887893800 -13.00000000
-1.87049091 2.21577954 -0.56364977 3 4 31983 2.95400000 887893805 887893805 -11.00000000
-2.30031109 2.72687387 -0.56504130 3 6 31985 3.61200000 887893810 887893810 -9.00000000
-2.98621225 3.54247499 -0.56888610 2 8 31987 4.66800000 887893814 887893814 -7.00000000
-4.15719366 4.93333006 -0.56442058 3 10 31988 6.47600000 887893819 887893819 -5.00000000
-6.80420208 8.08024979 -0.55360973 4 12 31990 10.57800000 887893824 887893824 -3.00000000
-7.22611380 8.58432674 2.59053636 55 13 31991 11.51600000 887893826 887893826 13.00000000
-5.45048666 6.47724867 2.26829004 47 15 31992 8.76400000 887893830 887893830 15.00000000
-1.36069715 1.62219059 -0.56733137 4 0 32001 2.19200000 887893851 887893851 -15.00000000
-1.57106447 1.87431395 -0.56462717 3 2 32003 2.51000000 887893856 887893856 -13.00000000
-1.86235714 2.22262025 -0.56364977 3 4 32004 2.95400000 887893860 887893860 -11.00000000
-2.29537368 2.74134493 -0.56629276 1 6 32006 3.62000000 887893865 887893865 -9.00000000
-2.96046972 3.53817153 -0.56644869 2 8 32008 4.64800000 887893870 887893870 -7.00000000
-4.15698004 4.96992970 -0.56686097 4 10 32009 6.50400000 887893874 887893874 -5.00000000
-6.79759645 8.13271809 -0.55549383 4 12 32011 10.61400000 887893879 887893879 -3.00000000
-7.19210291 8.60776234 2.58963656 59 13 32012 11.51200000 887893881 887893881 13.00000000
-5.42805195 6.50109529 2.26932549 47 15 32014 8.76800000 887893886 887893886 15.00000000
-1.35502636 1.62693048 -0.56733137 4 0 32021 2.19200000 887893906 887893906 -15.00000000
-1.56451237 1.87978649 -0.56462717 3 2 32023 2.51000000 887893911 887893911 -13.00000000
-1.86212134 2.23816276 -0.56593949 3 4 32024 2.96600000 887893916 887893916 -11.00000000
-2.30473375 2.77212501 -0.57098579 1 6 32026 3.65000000 887893920 887893920 -9.00000000
-2.95317531 3.55459166 -0.56742364 2 8 32028 4.65600000 887893925 887893925 -7.00000000
-4.13324165 4.97674608 -0.56598938 3 10 32029 6.49400000 887893930 887893930 -5.00000000
-7.40900850 8.92419338 2.25459909 21 11 32030 11.81600000 887893932 887893932 11.00000000
-6.76406431 8.15024948 -0.55507517 4 12 32031 10.60600000 887893934 887893934 -3.00000000
-7.15952396 8.62981606 2.58873677 56 13 32032 11.50800000 887893936 887893936 13.00000000
-5.40779209 6.52297735 2.27036071 47 15 32034 8.77200000 887893941 887893941 15.00000000
-1.35180140 1.63462794 -0.56836665 4 0 32041 2.19600000 887893962 887893962 -15.00000000
-1.57035494 1.90025806 -0.56912619 3 2 32043 2.53000000 887893966 887893966 -13.00000000
-1.84429431 2.23254061 -0.56288654 3 4 32044 2.95000000 887893971 887893971 -11.00000000
-2.27995253 2.76187277 -0.56723136 1 6 32046 3.62600000 887893976 887893976 -9.00000000
-2.95590806 3.58325410 -0.57034850 2 8 32048 4.68000000 887893980 887893980 -7.00000000
-4.11964750 4.99575520 -0.56651235 3 10 32049 6.50000000 887893985 887893985 -5.00000000
-6.74065399 8.17997551 -0.55549383 4 12 32051 10.61400000 887893989 887893989 -3.00000000
-7.13183451 8.65776253 2.58963656 59 13 32052 11.51200000 887893992 887893992 13.00000000
-5.37393951 6.52839041 2.26570201 47 15 32054 8.75400000 887893996 887893996 15.00000000
-1.34240937 1.63485754 -0.56681371 4 0 32061 2.19000000 887894017 887894017 -15.00000000
-1.56123996 1.90271497 -0.56822634 3 2 32063 2.52600000 887894022 887894022 -13.00000000
-1.84396052 2.24807239 -0.56517625 3 4 32064 2.96200000 887894026 887894026 -11.00000000
-2.26904559 2.76828671 -0.56691849 1 6 32066 3.62400000 887894031 887894031 -9.00000000
-2.95344496 3.60583591 -0.57229841 2 8 32068 4.69600000 887894036 887894036 -7.00000000
-4.11733055 5.02860403 -0.56860405 4 10 32069 6.52400000 887894040 887894040 -5.00000000
-6.73735476 8.23437119 -0.55758727 4 12 32071 10.65400000 887894045 887894045 -3.00000000
-7.10403776 8.68562222 2.59053636 56 13 32072 11.51600000 887894047 887894047 13.00000000
-5.34500551 6.53963041 2.26311374 47 15 32074 8.74400000 887894052 887894052 15.00000000
-1.33848798 1.64056373 -0.56733137 4 0 32079 2.19200000 887894072 887894072 -15.00000000
-1.54540360 1.89552736 -0.56462717 3 2 32081 2.51000000 887894077 887894077 -13.00000000
-1.84433079 2.26298523 -0.56746596 3 4 32082 2.97400000 887894082 887894082 -11.00000000
-2.25784278 2.77233815 -0.56629276 1 6 32084 3.62000000 887894086 887894086 -9.00000000
-2.93458414 3.60585880 -0.57083601 2 8 32086 4.68400000 887894091 887894091 -7.00000000
-4.10151243 5.04151392 -0.56860405 4 10 32087 6.52400000 887894095 887894095 -5.00000000
-6.71145248 8.25549603 -0.55758727 4 12 32089 10.65400000 887894100 887894100 -3.00000000
-7.07917404 8.71092129 2.59143615 60 13 32090 11.52000000 887894102 887894102 13.00000000
-5.32557869 6.55546045 2.26311374 47 15 32091 8.74400000 887894107 887894107 15.00000000
-1.34004927 1.65423262 -0.57043719 4 0 32099 2.20400000 887894128 887894128 -15.00000000
-1.53387308 1.89485157 -0.56282753 3 2 32101 2.50200000 887894132 887894132 -13.00000000
-1.83148026 2.26330471 -0.56593949 2 4 32102 2.96600000 887894137 887894137 -11.00000000
-2.25311995 2.78634667 -0.56754422 1 6 32104 3.62800000 887894141 887894141 -9.00000000
-2.90950322 3.60064030 -0.56839859 2 8 32106 4.66400000 887894146 887894146 -7.00000000
-6.68886709 8.28664398 -0.55811065 8 12 32109 10.66400000 887894155 887894155 -3.00000000
-7.04138184 8.72647953 2.58873677 59 13 32110 11.50800000 887894158 887894158 13.00000000
-5.30030346 6.57343197 2.26259613 45 15 32112 8.74200000 887894162 887894162 15.00000000
-1.33547747 1.66040552 -0.57095480 4 0 32119 2.20600000 887894183 887894183 -15.00000000
-1.54189932 1.91842151 -0.56822634 3 2 32121 2.52600000 887894188 887894188 -13.00000000
-1.82602799 2.27274489 -0.56670272 3 4 32122 2.97000000 887894192 887894192 -11.00000000
-2.25080037 2.80343652 -0.56942147 1 6 32124 3.64000000 887894197 887894197 -9.00000000
-2.90933919 3.62625790 -0.57083601 2 8 32126 4.68400000 887894201 887894201 -7.00000000
-4.07868147 5.08556747 -0.57034719 4 10 32127 6.54400000 887894206 887894206 -5.00000000
-6.67488909 8.32864380 -0.55936670 4 12 32129 10.68800000 887894211 887894211 -3.00000000
-7.00600386 8.74492264 2.58693719 56 13 32130 11.50000000 887894213 887894213 13.00000000
-5.28089142 6.59398794 2.26363134 45 15 32131 8.74600000 887894218 887894218 15.00000000
-1.32485139 1.65901875 -0.56888425 4 0 32139 2.19800000 887894238 887894238 -15.00000000
-1.53276241 1.92074573 -0.56732655 3 2 32141 2.52200000 887894243 887894243 -13.00000000
-1.82298076 2.28524423 -0.56822920 3 4 32142 2.97800000 887894247 887894247 -11.00000000
-2.23238158 2.80046368 -0.56723136 1 6 32144 3.62600000 887894252 887894252 -9.00000000
-2.90655828 3.64881277 -0.57278591 2 8 32146 4.70000000 887894257 887894257 -7.00000000
-4.05097580 5.08730507 -0.56895268 4 10 32147 6.52800000 887894261 887894261 -5.00000000
-6.64080143 8.34564114 -0.55894804 4 12 32149 10.68000000 887894266 887894266 -3.00000000
-6.97786188 8.77237511 2.58783698 55 13 32150 11.50400000 887894268 887894268 13.00000000
-5.24346495 6.59666395 2.25793743 36 15 32152 8.72400000 887894273 887894273 15.00000000
-1.31396210 1.65780759 -0.56681371 4 0 32160 2.19000000 887894294 887894294 -15.00000000
-1.53055191 1.93246126 -0.56912619 3 2 32162 2.53000000 887894298 887894298 -13.00000000
-1.81946731 2.29806733 -0.56975567 3 4 32163 2.98600000 887894303 887894303 -11.00000000
-2.22945619 2.81792188 -0.56910861 1 6 32165 3.63800000 887894307 887894307 -9.00000000
-2.88824058 3.65321255 -0.57181096 2 8 32167 4.69200000 887894312 887894312 -7.00000000
-4.05948114 5.13650751 -0.57278752 4 10 32168 6.57200000 887894317 887894317 -5.00000000
-6.65473175 8.42635155 -0.56271619 4 12 32170 10.75200000 887894321 887894321 -3.00000000
-6.94445515 8.79636097 2.58738708 54 13 32171 11.50200000 887894324 887894324 13.00000000
-5.15697622 6.53455257 2.23050261 22 15 32172 8.61800000 887894328 887894328 15.00000000
-1.31294596 1.66845667 -0.56888425 4 0 32180 2.19800000 887894349 887894349 -15.00000000
-1.52138782 1.93472838 -0.56822634 3 2 32182 2.52600000 887894353 887894353 -13.00000000
-1.80658138 2.29823041 -0.56822920 2 4 32183 2.97800000 887894358 887894358 -11.00000000
-2.21472526 2.81947327 -0.56785709 1 6 32185 3.63000000 887894363 887894363 -9.00000000
-2.89508200 3.68825626 -0.57571077 2 8 32187 4.72400000 887894367 887894367 -7.00000000
-4.05628586 5.16945601 -0.57487929 4 10 32188 6.59600000 887894372 887894372 -5.00000000
-7.03494453 8.96877289 2.21567416 12 11 32189 11.61200000 887894374 887894374 11.00000000
-6.62774229 8.45267296 -0.56292552 4 12 32190 10.75600000 887894376 887894376 -3.00000000
-6.91731453 8.82514954 2.58873677 56 13 32191 11.50800000 887894379 887894379 13.00000000
-5.07462120 6.47888756 2.20513821 15 15 32193 8.52000000 887894383 887894383 15.00000000
-1.30711389 1.67302954 -0.56888425 4 0 32200 2.19800000 887894404 887894404 -15.00000000
-1.50742972 1.93081093 -0.56552696 3 2 32202 2.51400000 887894409 887894409 -13.00000000
-1.80579531 2.31380892 -0.57051891 3 4 32203 2.99000000 887894413 887894413 -11.00000000
-2.19636655 2.81628323 -0.56566703 1 6 32205 3.61600000 887894418 887894418 -9.00000000
-2.87730908 3.69207644 -0.57473582 2 8 32207 4.71600000 887894423 887894423 -7.00000000
-4.01862526 5.15843582 -0.57209027 4 10 32208 6.56400000 887894427 887894427 -5.00000000
-6.61169243 8.49309254 -0.56407696 4 12 32210 10.77800000 887894432 887894432 -3.00000000
-6.87928581 8.84001446 2.58603740 57 13 32211 11.49600000 887894434 887894434 13.00000000
-5.03412962 6.47128344 2.19685602 18 15 32212 8.48800000 887894439 887894439 15.00000000
-1.30600214 1.68368793 -0.57095480 4 0 32220 2.20600000 887894459 887894459 -15.00000000
-1.50068080 1.93606102 -0.56552696 3 2 32222 2.51400000 887894464 887894464 -13.00000000
-1.80011261 2.32320189 -0.57128215 2 4 32223 2.99400000 887894469 887894469 -11.00000000
-2.20466280 2.84736156 -0.57036006 1 6 32225 3.64600000 887894473 887894473 -9.00000000
-2.86197424 3.69895744 -0.57424837 2 8 32227 4.71200000 887894478 887894478 -7.00000000
-4.02009773 5.19764805 -0.57487929 4 10 32228 6.59600000 887894482 887894482 -5.00000000
-6.58689117 8.52244091 -0.56449562 4 12 32230 10.78600000 887894487 887894487 -3.00000000
-6.84600353 8.86088943 2.58513761 60 13 32231 11.49200000 887894489 887894489 13.00000000
-5.00447464 6.48204517 2.19426775 18 15 32233 8.47800000 887894494 887894494 15.00000000
-1.29598927 1.68166184 -0.56888425 4 0 32238 2.19800000 887894515 887894515 -15.00000000
-1.50648117 1.95620573 -0.57002598 3 2 32240 2.53400000 887894519 887894519 -13.00000000
-1.78322434 2.31640029 -0.56822920 2 4 32241 2.97800000 887894524 887894524 -11.00000000
-2.20172882 2.86210203 -0.57192439 1 6 32243 3.65600000 887894529 887894529 -9.00000000
-2.85033941 3.70793033 -0.57424837 2 8 32245 4.71200000 887894533 887894533 -7.00000000
-4.01831675 5.22920942 -0.57697099 4 10 32246 6.62000000 887894538 887894538 -5.00000000
-6.56008482 8.54309273 -0.56449562 8 12 32248 10.78600000 887894542 887894542 -3.00000000
-6.82050562 8.88544464 2.58603740 57 13 32249 11.49600000 887894545 887894545 13.00000000
-4.96875525 6.47540808 2.18702102 20 15 32250 8.45000000 887894549 887894549 15.00000000
-1.28306794 1.67696965 -0.56577843 4 0 32258 2.18600000 887894570 887894570 -15.00000000
-1.49964356 1.96145236 -0.57002598 4 2 32260 2.53400000 887894575 887894575 -13.00000000
-1.77512777 2.32261086 -0.56822920 3 4 32261 2.97800000 887894579 887894579 -11.00000000
-2.18453097 2.86035061 -0.57004720 1 6 32263 3.64400000 887894584 887894584 -9.00000000
-2.85423946 3.73994994 -0.57766068 2 8 32265 4.74000000 887894588 887894588 -7.00000000
-4.00003910 5.24320412 -0.57697099 4 10 32266 6.62000000 887894593 887894593 -5.00000000
-6.84672022 8.97784996 2.19468498 12 11 32267 11.50200000 887894595 887894595 11.00000000
-6.56897163 8.61676693 -0.56784511 8 12 32268 10.85000000 887894598 887894598 -3.00000000
-5.92718363 7.77772427 2.25760889 22 13 32269 10.03600000 887894600 887894600 13.00000000
-4.92626190 6.46898508 2.17873883 22 15 32271 8.41800000 887894605 887894605 15.00000000
-1.28392255 1.69089258 -0.56888425 4 0 32279 2.19800000 887894625 887894625 -15.00000000
-1.49480033 1.97004056 -0.57092577 3 2 32281 2.53800000 887894630 887894630 -13.00000000
-1.77134883 2.33535814 -0.56975567 3 4 32282 2.98600000 887894635 887894635 -11.00000000
-2.17164636 2.86518955 -0.56942147 1 6 32284 3.64000000 887894639 887894639 -9.00000000
-2.84051275 3.75038600 -0.57766068 2 8 32286 4.74000000 887894644 887894644 -7.00000000
-3.94230986 5.20699883 -0.57139307 4 10 32287 6.55600000 887894648 887894648 -5.00000000
-6.78059435 8.95905113 2.18399978 15 11 32288 11.44600000 887894651 887894651 11.00000000
-6.53373051 8.63600636 -0.56753111 4 12 32289 10.84400000 887894653 887894653 -3.00000000
-5.90451431 7.80716753 2.25985837 51 13 32290 10.04600000 887894655 887894655 13.00000000
-4.89899063 6.47997713 2.17666817 22 15 32291 8.41000000 887894660 887894660 15.00000000
-1.27568662 1.69227874 -0.56784898 4 0 32299 2.19400000 887894681 887894681 -15.00000000
-1.48087943 1.96590710 -0.56822634 3 2 32301 2.52600000 887894685 887894685 -13.00000000
-1.76791000 2.34780049 -0.57128215 3 4 32302 2.99400000 887894690 887894690 -11.00000000
-2.16163158 2.87275267 -0.56942147 1 6 32304 3.64000000 887894694 887894694 -9.00000000
-2.81786013 3.74758554 -0.57571077 2 8 32306 4.72400000 887894699 887894699 -7.00000000
-3.94924927 5.25417423 -0.57505357 4 10 32307 6.59800000 887894704 887894704 -5.00000000
-6.75045967 8.98423481 2.18438148 21 11 32308 11.44800000 887894706 887894706 11.00000000
-6.51793909 8.67792511 -0.56878716 8 12 32309 10.86800000 887894708 887894708 -3.00000000
-5.87722635 7.82773066 2.25985837 55 13 32310 10.04600000 887894711 887894711 13.00000000
-4.86938381 6.48776817 2.17356229 22 15 32311 8.39800000 887894715 887894715 15.00000000
-1.27671659 1.70600152 -0.57095480 4 0 32319 2.20600000 887894736 887894736 -15.00000000
-1.47867632 1.97730684 -0.57002598 3 2 32321 2.53400000 887894741 887894741 -13.00000000
-1.75029993 2.34137774 -0.56822920 2 4 32322 2.97800000 887894745 887894745 -11.00000000
-2.17287016 2.90876698 -0.57505310 1 6 32324 3.67600000 887894750 887894750 -9.00000000
-2.81426120 3.77012491 -0.57766068 2 8 32326 4.74000000 887894754 887894754 -7.00000000
-3.94994926 5.29347706 -0.57784259 4 10 32327 6.63000000 887894759 887894759 -5.00000000
-6.71318865 8.99987507 2.18247318 21 11 32328 11.43800000 887894761 887894761 11.00000000
-6.49238300 8.70702839 -0.56920588 4 12 32329 10.87600000 887894764 887894764 -3.00000000
-5.84870195 7.84663582 2.25940847 62 13 32330 10.04400000 887894766 887894766 13.00000000
-4.83978176 6.49543095 2.17045641 20 15 32331 8.38600000 887894770 887894770 15.00000000
-1.26384127 1.70114338 -0.56784898 4 0 32339 2.19400000 887894791 887894791 -15.00000000
-1.47176528 1.98245645 -0.57002598 3 2 32341 2.53400000 887894796 887894796 -13.00000000
-1.74913633 2.35693240 -0.57051891 3 4 32342 2.99000000 887894800 887894800 -11.00000000
-2.16505671 2.91950727 -0.57567883 1 6 32344 3.68000000 887894805 887894805 -9.00000000
-2.78217340 3.75440717 -0.57376087 2 8 32346 4.70800000 887894810 887894810 -7.00000000
-3.92433190 5.29762697 -0.57679671 4 10 32347 6.61800000 887894814 887894814 -5.00000000
-6.66187048 8.99643135 2.17598581 25 11 32348 11.40400000 887894817 887894817 11.00000000
-6.46907997 8.73926926 -0.56983387 4 12 32349 10.88800000 887894819 887894819 -3.00000000
-5.81895828 7.86387062 2.25850868 66 13 32350 10.04000000 887894821 887894821 13.00000000
-4.80675411 6.50069952 2.16631532 18 15 32352 8.37000000 887894826 887894826 15.00000000
-1.26133549 1.71020889 -0.56940192 4 0 32359 2.20000000 887894847 887894847 -15.00000000
-1.46714854 1.99071920 -0.57092577 3 2 32361 2.53800000 887894851 887894851 -13.00000000
-1.74555635 2.36934614 -0.57204539 2 4 32362 2.99800000 887894856 887894856 -11.00000000
-2.14548373 2.91432071 -0.57317591 1 6 32364 3.66400000 887894860 887894860 -9.00000000
-2.78787231 3.78968024 -0.57766068 2 8 32366 4.74000000 887894865 887894865 -7.00000000
-3.89873362 5.30166245 -0.57575083 4 10 32367 6.60600000 887894870 887894870 -5.00000000
-6.61414671 8.99748516 2.17064309 31 11 32368 11.37600000 887894872 887894872 11.00000000
-6.44444847 8.76984501 -0.57035726 4 12 32369 10.89800000 887894874 887894874 -3.00000000
-5.79378033 7.88727570 2.25940847 64 13 32370 10.04400000 887894876 887894876 13.00000000
-4.77487946 6.50258923 2.16165662 18 15 32371 8.35200000 887894881 887894881 15.00000000
-1.25764048 1.71771872 -0.57043719 4 0 32379 2.20400000 887894902 887894902 -15.00000000
-1.46249199 1.99897385 -0.57182556 3 2 32381 2.54200000 887894906 887894906 -13.00000000
-1.73959303 2.37859416 -0.57280862 2 4 32382 3.00200000 887894911 887894911 -11.00000000
-2.14462209 2.93455100 -0.57567883 1 6 32384 3.68000000 887894916 887894916 -9.00000000
-2.77462673 3.79938865 -0.57766068 2 8 32386 4.74000000 887894920 887894920 -7.00000000
-3.90604806 5.35064173 -0.57958567 4 10 32387 6.65000000 887894925 887894925 -5.00000000
-6.56881189 9.00148773 2.16606379 25 11 32388 11.35200000 887894927 887894927 11.00000000
-6.43380690 8.81971741 -0.57213670 4 12 32389 10.93200000 887894929 887894929 -3.00000000
-5.76850939 7.91060114 2.26030827 60 13 32390 10.04800000 887894932 887894932 13.00000000
-4.74760056 6.51297283 2.15958619 11 15 32391 8.34400000 887894936 887894936 15.00000000
-1.24936533 1.71897292 -0.56940192 4 0 32399 2.20000000 887894958 887894958 -15.00000000
-1.44405377 1.98829913 -0.56732655 4 2 32401 2.52200000 887894963 887894963 -13.00000000
-1.72666597 2.37829709 -0.57128215 3 4 32402 2.99400000 887894967 887894967 -11.00000000
-2.12972569 2.93562365 -0.57442737 1 6 32404 3.67200000 887894972 887894972 -9.00000000
-2.75668716 3.80262208 -0.57668573 2 8 32406 4.73200000 887894976 887894976 -7.00000000
-3.86396456 5.33197784 -0.57609946 4 10 32407 6.61000000 887894981 887894981 -5.00000000
-6.52237797 9.00369358 2.16110277 25 11 32408 11.32600000 887894983 887894983 11.00000000
-6.40649509 8.84697437 -0.57245070 4 12 32409 10.93800000 887894986 887894986 -3.00000000
-5.73857594 7.92753172 2.25940847 62 13 32410 10.04400000 887894988 887894988 13.00000000
-4.80637789 6.64219093 2.19685602 22 15 32411 8.48800000 887894993 887894993 15.00000000
-1.25240004 1.73585677 -0.57354301 4 0 32419 2.21600000 887895013 887895013 -15.00000000
-1.44394243 2.00281215 -0.57002598 3 2 32421 2.53400000 887895018 887895018 -13.00000000
-1.71376216 2.37793899 -0.56975567 3 4 32422 2.98600000 887895023 887895023 -11.00000000
-2.11023021 2.93021607 -0.57192439 1 6 32424 3.65600000 887895027 887895027 -9.00000000
-2.74803472 3.81866646 -0.57766068 2 8 32426 4.74000000 887895032 887895032 -7.00000000
-3.88488746 5.40042400 -0.58202606 4 10 32427 6.67800000 887895036 887895036 -5.00000000
-6.48632479 9.02003002 2.15957618 25 11 32428 11.31800000 887895039 887895039 11.00000000
-6.40821600 8.91469288 -0.57538152 4 12 32429 10.99400000 887895041 887895041 -3.00000000
-5.70404577 7.93801928 2.25670886 64 13 32430 10.03200000 887895043 887895043 13.00000000
-4.92059326 6.85277653 2.26052547 40 15 32432 8.73400000 887895048 887895048 15.00000000
-1.23988605 1.73057795 -0.57043719 4 0 32438 2.20400000 887895069 887895069 -15.00000000
-1.43275523 2.00125146 -0.56822634 3 2 32440 2.52600000 887895073 887895073 -13.00000000
-1.71729302 2.39957428 -0.57357186 4 4 32441 3.00600000 887895078 887895078 -11.00000000
-2.10969424 2.95005202 -0.57442737 1 6 32443 3.67200000 887895082 887895082 -9.00000000
-2.73535633 3.82775831 -0.57766068 2 8 32445 4.74000000 887895087 887895087 -7.00000000
-3.87390637 5.42300415 -0.58307195 4 10 32446 6.69000000 887895092 887895092 -5.00000000
-6.44953203 9.03190422 2.15728641 21 11 32447 11.30600000 887895094 887895094 11.00000000
-6.38326025 8.94239616 -0.57580018 4 12 32448 11.00200000 887895096 887895096 -3.00000000
-5.67769098 7.95689106 2.25670886 64 13 32449 10.03200000 887895099 887895099 13.00000000
-4.93718243 6.92167473 2.27812529 45 15 32450 8.80200000 887895103 887895103 15.00000000
-1.22823954 1.72702384 -0.56784898 4 0 32458 2.19400000 887895124 887895124 -15.00000000
-1.44156504 2.02847910 -0.57452500 3 2 32460 2.55400000 887895128 887895128 -13.00000000
-1.70435846 2.39915204 -0.57204539 2 4 32461 2.99800000 887895133 887895133 -11.00000000
-2.09023619 2.94451189 -0.57192439 1 6 32463 3.65600000 887895138 887895138 -9.00000000
-2.72197843 3.83728313 -0.57766068 2 8 32465 4.74000000 887895142 887895142 -7.00000000
-3.84112358 5.41699076 -0.58098018 4 10 32466 6.66600000 887895147 887895147 -5.00000000
-6.40774775 9.03994656 2.15385199 25 11 32467 11.28800000 887895149 887895149 11.00000000
-6.36239862 8.97929001 -0.57674223 4 12 32468 11.02000000 887895152 887895152 -3.00000000
-5.64988136 7.97666121 2.25670886 64 13 32469 10.03200000 887895154 887895154 13.00000000
-4.94089985 6.97828293 2.29106617 47 15 32470 8.85200000 887895158 887895158 15.00000000
-1.22220361 1.73130071 -0.56784898 4 0 32478 2.19400000 887895179 887895179 -15.00000000
-1.42548895 2.02075958 -0.57092577 4 2 32480 2.53800000 887895184 887895184 -13.00000000
-1.70049906 2.41150451 -0.57357186 2 4 32481 3.00600000 887895188 887895188 -11.00000000
-2.08904791 2.96470857 -0.57442737 1 6 32483 3.67200000 887895193 887895193 -9.00000000
-2.71771002 3.85974598 -0.57961059 2 8 32485 4.75600000 887895198 887895198 -7.00000000
-3.81531072 5.42058992 -0.57993430 4 10 32486 6.65400000 887895202 887895202 -5.00000000
-6.35468864 9.03175163 2.14660120 21 11 32487 11.25000000 887895205 887895205 11.00000000
-6.34365559 9.01941490 -0.57789361 4 12 32488 11.04200000 887895207 887895207 -3.00000000
-5.62424517 7.99952316 2.25760889 66 13 32489 10.03600000 887895209 887895209 13.00000000
-4.94527435 7.03902531 2.30504251 45 15 32491 8.90600000 887895214 887895214 15.00000000
-1.22280443 1.74504900 -0.57095480 4 0 32498 2.20600000 887895234 887895234 -15.00000000
-1.41507328 2.02093410 -0.56957608 4 2 32500 2.53200000 887895239 887895239 -13.00000000
-1.69432259 2.42064261 -0.57433510 4 4 32501 3.01000000 887895244 887895244 -11.00000000
-2.07868624 2.97198248 -0.57442737 1 6 32503 3.67200000 887895248 887895248 -9.00000000
-2.69512296 3.85619235 -0.57766068 2 8 32505 4.74000000 887895253 887895253 -7.00000000
-3.82831621 5.47960615 -0.58481503 4 10 32506 6.71000000 887895258 887895258 -5.00000000
-6.31862688 9.04744053 2.14507484 21 11 32507 11.24200000 887895260 887895260 11.00000000
-6.31098986 9.03986549 -0.57778895 4 12 32508 11.04000000 887895262 887895262 -3.00000000
-5.58736515 8.00632191 2.25400949 68 13 32509 10.02000000 887895264 887895264 13.00000000
-4.95161438 7.10061359 2.31953621 47 15 32511 8.96200000 887895269 887895269 15.00000000
-1.21780872 1.75089264 -0.57147247 4 0 32518 2.20800000 887895290 887895290 -15.00000000
-1.40912247 2.02746153 -0.57002598 4 2 32520 2.53400000 887895294 887895294 -13.00000000
-1.67914164 2.41686821 -0.57204539 3 4 32521 2.99800000 887895299 887895299 -11.00000000
-2.07055259 2.98246574 -0.57505310 1 6 32523 3.67600000 887895304 887895304 -9.00000000
-2.68164587 3.86557674 -0.57766068 2 8 32525 4.74000000 887895308 887895308 -7.00000000
-3.80235338 5.48311281 -0.58376914 4 10 32526 6.69800000 887895313 887895313 -5.00000000
-6.26911116 9.04362488 2.13896894 15 11 32527 11.21000000 887895315 887895315 11.00000000
-6.28508425 9.07004833 -0.57831234 4 12 32528 11.05000000 887895317 887895317 -3.00000000
-5.55272579 8.01616478 2.25131011 64 13 32529 10.00800000 887895320 887895320 13.00000000
-4.96088266 7.16709661 2.33558297 47 15 32531 9.02400000 887895324 887895324 15.00000000
-1.20729935 1.74877381 -0.56940192 4 0 32538 2.20000000 887895345 887895345 -15.00000000
-1.40314329 2.03397202 -0.57047588 4 2 32540 2.53600000 887895350 887895350 -13.00000000
-1.66623676 2.41624975 -0.57051891 2 4 32541 2.99000000 887895354 887895354 -11.00000000
-2.06012917 2.98967505 -0.57505310 1 6 32543 3.67600000 887895359 887895359 -9.00000000
-2.68164587 3.89453363 -0.58058554 2 8 32545 4.76400000 887895364 887895364 -7.00000000
-3.80352426 5.52589369 -0.58690679 4 10 32546 6.73400000 887895368 887895368 -5.00000000
-6.23416615 9.06060123 2.13782406 12 11 32547 11.20400000 887895370 887895370 11.00000000
-6.25112200 9.08864021 -0.57810295 4 12 32548 11.04600000 887895373 887895373 -3.00000000
-5.52912664 8.04192162 2.25310969 64 13 32549 10.01600000 887895375 887895375 13.00000000
-4.96427679 7.22576904 2.34904170 47 15 32551 9.07600000 887895380 887895380 15.00000000
-1.19900370 1.74979019 -0.56836665 4 0 32558 2.19600000 887895400 887895400 -15.00000000
-1.40814555 2.05654478 -0.57542479 3 2 32560 2.55800000 887895405 887895405 -13.00000000
-1.66001010 2.42529154 -0.57128215 3 4 32561 2.99400000 887895410 887895410 -11.00000000
-2.04522014 2.99032617 -0.57380164 1 6 32563 3.66800000 887895414 887895414 -9.00000000
-2.66579485 3.90059280 -0.58009809 2 8 32565 4.76000000 887895419 887895419 -7.00000000
-3.76622939 5.51281452 -0.58411777 4 10 32566 6.70200000 887895423 887895423 -5.00000000
-6.19142914 9.06609440 2.13400769 9 11 32567 11.18400000 887895426 887895426 11.00000000
-6.23061943 9.12690067 -0.57914966 4 12 32568 11.06600000 887895428 887895428 -3.00000000
-5.49662781 8.05473423 2.25131011 66 13 32569 10.00800000 887895430 887895430 13.00000000
-4.96314955 7.27570534 2.35991216 45 15 32570 9.11800000 887895435 887895435 15.00000000
-1.19288850 1.75396478 -0.56836665 4 0 32578 2.19600000 887895456 887895456 -15.00000000
-1.39438617 2.05177689 -0.57272536 3 2 32580 2.54600000 887895460 887895460 -13.00000000
-1.66477287 2.45055890 -0.57586157 2 4 32581 3.01800000 887895465 887895465 -11.00000000
-2.03255057 2.99417830 -0.57317591 1 6 32583 3.66400000 887895469 887895469 -9.00000000
-2.66776395 3.93287373 -0.58351040 2 8 32585 4.78800000 887895474 887895474 -7.00000000
-3.73354530 5.50613928 -0.58202606 4 10 32586 6.67800000 887895479 887895479 -5.00000000
-6.15423679 9.07952595 2.13209963 3 11 32587 11.17400000 887895481 887895481 11.00000000
-6.21664762 9.17504978 -0.58082443 4 12 32588 11.09800000 887895483 887895483 -3.00000000
-5.46847773 8.07387257 2.25131011 64 13 32589 10.00800000 887895486 887895486 13.00000000
-4.97001600 7.34344339 2.37595892 47 15 32591 9.18000000 887895490 887895490 15.00000000
-1.19355226 1.76751697 -0.57147247 4 0 32597 2.20800000 887895511 887895511 -15.00000000
-1.37667453 2.04023576 -0.56822634 3 2 32599 2.52600000 887895516 887895516 -13.00000000
-1.65883303 2.45932126 -0.57662481 2 4 32600 3.02200000 887895520 887895520 -11.00000000
-2.03806686 3.02383471 -0.57755607 1 6 32602 3.69200000 887895525 887895525 -9.00000000
-2.63474727 3.91206193 -0.57912314 2 8 32604 4.75200000 887895529 887895529 -7.00000000
-3.75532246 5.57798862 -0.58830124 4 10 32605 6.75000000 887895534 887895534 -5.00000000
-6.12190199 9.09662724 2.13133645 3 11 32606 11.17000000 887895536 887895536 11.00000000
-6.19956589 9.21550083 -0.58208048 4 12 32607 11.12200000 887895539 887895539 -3.00000000
-5.43514919 8.08225918 2.24861073 68 13 32608 9.99600000 887895541 887895541 13.00000000
-4.98679876 7.41834211 2.39511156 45 15 32609 9.25400000 887895546 887895546 15.00000000
-1.18522418 1.76846290 -0.57043719 4 0 32617 2.20400000 887895566 887895566 -15.00000000
-1.38472545 2.06769729 -0.57452500 3 2 32619 2.55400000 887895571 887895571 -13.00000000
-1.64805400 2.46183372 -0.57586157 4 4 32620 3.01800000 887895575 887895575 -11.00000000
-2.01871276 3.01779532 -0.57505310 1 6 32622 3.67600000 887895580 887895580 -9.00000000
-2.62548804 3.92783642 -0.58009809 2 8 32624 4.76000000 887895585 887895585 -7.00000000
-3.73804259 5.59437609 -0.58864987 4 10 32625 6.75400000 887895589 887895589 -5.00000000
-6.19175863 9.27362823 -0.58438331 4 12 32627 11.16600000 887895594 887895594 -3.00000000
-5.40041304 8.09145737 2.24591136 62 13 32628 9.98400000 887895596 887895596 13.00000000
-4.99601936 7.49121475 2.41271114 45 15 32630 9.32200000 887895601 887895601 15.00000000
-1.18042338 1.77399194 -0.57095480 4 0 32636 2.20600000 887895622 887895622 -15.00000000
-1.37354517 2.06578684 -0.57272536 3 2 32638 2.54600000 887895626 887895626 -13.00000000
-1.63770783 2.46401525 -0.57509834 2 4 32639 3.01400000 887895631 887895631 -11.00000000
-2.01415873 3.03270078 -0.57661742 1 6 32641 3.68600000 887895635 887895635 -9.00000000
-2.61683917 3.94313717 -0.58107305 2 8 32643 4.76800000 887895640 887895640 -7.00000000
-3.72607899 5.61670303 -0.58969575 4 10 32644 6.76600000 887895645 887895645 -5.00000000
-6.17200756 9.31075668 -0.58543003 4 12 32646 11.18600000 887895649 887895649 -3.00000000
-5.36924505 8.10282326 2.24411178 62 13 32647 9.97600000 887895652 887895652 13.00000000
-5.00233126 7.55196953 2.42720509 47 15 32648 9.37800000 887895656 887895656 15.00000000
-1.17103004 1.77326536 -0.56940192 4 0 32656 2.20000000 887895677 887895677 -15.00000000
-1.37061906 2.07707500 -0.57452500 3 2 32658 2.55400000 887895681 887895681 -13.00000000
-1.62477267 2.46316147 -0.57357186 4 4 32659 3.00600000 887895686 887895686 -11.00000000
-2.01008296 3.04960895 -0.57849467 1 6 32661 3.69800000 887895691 887895691 -9.00000000
-2.58777261 3.92903805 -0.57766068 2 8 32663 4.74000000 887895695 887895695 -7.00000000
-3.69768548 5.61636209 -0.58830124 4 10 32664 6.75000000 887895700 887895700 -5.00000000
-6.14605570 9.34225559 -0.58605802 4 12 32666 11.19800000 887895704 887895704 -3.00000000
-5.33664513 8.11500359 2.24231219 64 13 32667 9.96800000 887895707 887895707 13.00000000
-5.00220203 7.61222935 2.44066358 47 15 32669 9.43000000 887895711 887895711 15.00000000
-1.16875756 1.78400922 -0.57147247 4 0 32677 2.20800000 887895732 887895732 -15.00000000
-1.36299706 2.08208466 -0.57452500 3 2 32679 2.55400000 887895737 887895737 -13.00000000
-1.62003386 2.47567129 -0.57509834 4 4 32680 3.01400000 887895741 887895741 -11.00000000
-1.98267615 3.03215623 -0.57380164 1 6 32682 3.66800000 887895746 887895746 -9.00000000
-2.59507060 3.97173262 -0.58253545 2 8 32684 4.78000000 887895751 887895751 -7.00000000
-3.68579149 5.64322186 -0.58969575 4 10 32685 6.76600000 887895755 887895755 -5.00000000
-6.12487221 9.38479042 -0.58731413 4 12 32687 11.22200000 887895760 887895760 -3.00000000
-5.31112576 8.14103699 2.24411178 64 13 32688 9.97600000 887895762 887895762 13.00000000
-5.01253462 7.68627977 2.45878100 45 15 32689 9.50000000 887895767 887895767 15.00000000
-1.16252303 1.78807819 -0.57147247 4 0 32697 2.20800000 887895787 887895787 -15.00000000
-1.34510446 2.07048798 -0.57002598 3 2 32699 2.53400000 887895792 887895792 -13.00000000
-1.61779785 2.49119020 -0.57738805 4 4 32700 3.02600000 887895797 887895797 -11.00000000
-1.97638094 3.04568672 -0.57505310 1 6 32702 3.67600000 887895801 887895801 -9.00000000
-2.59847093 4.00741625 -0.58643526 2 8 32704 4.81200000 887895806 887895806 -7.00000000
-3.66607070 5.65605354 -0.58969575 4 10 32705 6.76600000 887895810 887895810 -5.00000000
-6.09859037 9.41617107 -0.58794212 4 12 32707 11.23400000 887895815 887895815 -3.00000000
-5.27632141 8.14971161 2.24141240 64 13 32708 9.96400000 887895817 887895817 13.00000000
-5.01895714 7.75812674 2.47586298 45 15 32710 9.56600000 887895822 887895822 15.00000000
-1.16109157 1.79821324 -0.57354301 4 0 32715 2.21600000 887895843 887895843 -15.00000000
-1.34281921 2.08125353 -0.57182556 3 2 32717 2.54200000 887895847 887895847 -13.00000000
-1.60996366 2.49626040 -0.57738805 4 4 32718 3.02600000 887895852 887895852 -11.00000000
