# .PCD v0.7 - Point Cloud Data file format
VERSION 0.7
FIELDS x y z intensity laser_id azimuth distance_m adjustedtime timestamp vertical_angle
SIZE 4 4 4 1 1 2 8 8 4 8
TYPE F F F U U U F U U F
COUNT 1 1 1 1 1 1 1 1 1 1
WIDTH 539
HEIGHT 1
VIEWPOINT 0 0 0 1 0 0 0
POINTS 539
DATA ascii
2.96326590 -11.06678486 2.64497447 47 13 16501 11.75800000 879250883 879250883 13.00000000
2.54268312 -9.50268936 2.63581324 40 15 16502 10.18400000 879250887 879250887 15.00000000
0.51859909 -1.94903862 -0.54041415 4 0 16510 2.08800000 879250908 879250908 -15.00000000
0.60101354 -2.26195216 -0.54033244 4 2 16512 2.40200000 879250912 879250912 -13.00000000
0.30650496 -1.15436244 0.06259380 2 3 16513 1.19600000 879250915 879250915 3.00000000
0.70182627 -2.64322591 -0.53159386 3 4 16513 2.78600000 879250917 879250917 -11.00000000
0.30300185 -1.14197254 0.10336671 3 5 16514 1.18600000 879250919 879250919 5.00000000
0.86166823 -3.24979758 -0.53250289 1 6 16515 3.40400000 879250922 879250922 -9.00000000
1.09848678 -4.14880848 -0.52696306 2 8 16517 4.32400000 879250926 879250926 -7.00000000
1.52019584 -5.74558878 -0.51997113 3 10 16518 5.96600000 879250931 879250931 -5.00000000
2.42289877 -9.17030334 -0.49708691 4 12 16520 9.49800000 879250935 879250935 -3.00000000
2.92660761 -11.08459759 2.64677405 50 13 16521 11.76600000 879250938 879250938 13.00000000
2.50783682 -9.51194477 2.63581324 40 15 16523 10.18400000 879250942 879250942 15.00000000
0.51145202 -1.95092630 -0.54041415 4 0 16531 2.08800000 879250963 879250963 -15.00000000
0.59568018 -2.27545118 -0.54303187 4 2 16533 2.41400000 879250968 879250968 -13.00000000
0.29519537 -1.12842679 0.06112840 2 3 16534 1.16800000 879250970 879250970 3.00000000
0.69412112 -2.65337801 -0.53312033 3 4 16534 2.79400000 879250972 879250972 -11.00000000
0.84925205 -3.25102282 -0.53219002 3 6 16536 3.40200000 879250977 879250977 -9.00000000
1.08227122 -4.14896536 -0.52647555 2 8 16538 4.32000000 879250982 879250982 -7.00000000
1.49912703 -5.75112200 -0.51997113 3 10 16539 5.96600000 879250986 879250986 -5.00000000
2.40939617 -9.25643635 -0.50127381 4 12 16541 9.57800000 879250991 879250991 -3.00000000
2.89086628 -11.11410999 2.65127301 50 13 16542 11.78600000 879250993 879250993 13.00000000
2.47267485 -9.51316261 2.63374257 40 15 16543 10.17600000 879250998 879250998 15.00000000
0.50608903 -1.95831096 -0.54196709 4 0 16551 2.09400000 879251018 879251018 -15.00000000
0.58140355 -2.25298643 -0.53718311 4 2 16553 2.38800000 879251023 879251023 -13.00000000
0.28925973 -1.12171435 0.06070971 2 3 16554 1.16000000 879251025 879251025 3.00000000
0.68485487 -2.65578461 -0.53312033 3 4 16554 2.79400000 879251028 879251028 -11.00000000
0.29482239 -1.14411151 0.10336671 3 5 16555 1.18600000 879251030 879251030 5.00000000
0.83395797 -3.23866367 -0.52968711 3 6 16556 3.38600000 879251032 879251032 -9.00000000
1.06975937 -4.16040802 -0.52745050 2 8 16558 4.32800000 879251037 879251037 -7.00000000
1.47904265 -5.75632000 -0.51997113 3 10 16559 5.96600000 879251041 879251041 -5.00000000
2.85302114 -11.12790871 2.65217304 50 13 16562 11.79000000 879251048 879251048 13.00000000
2.43970728 -9.52964687 2.63581324 42 15 16564 10.18400000 879251053 879251053 15.00000000
0.50068063 -1.96568179 -0.54351997 4 0 16571 2.10000000 879251074 879251074 -15.00000000
0.57593733 -2.26444530 -0.53943264 4 2 16573 2.39800000 879251078 879251078 -13.00000000
0.28731033 -1.13046014 0.06112840 2 3 16574 1.16800000 879251081 879251081 3.00000000
0.67654747 -2.66196465 -0.53388357 3 4 16574 2.79800000 879251083 879251083 -11.00000000
0.82459152 -3.24921370 -0.53093857 1 6 16576 3.39400000 879251088 879251088 -9.00000000
0.30937004 -1.21993220 0.15453033 2 7 16577 1.26800000 879251090 879251090 7.00000000
1.05425501 -4.16026831 -0.52696306 2 8 16578 4.32400000 879251092 879251092 -7.00000000
1.45894039 -5.76144743 -0.51997113 3 10 16579 5.96600000 879251097 879251097 -5.00000000
2.81416011 -11.13779926 2.65217304 50 13 16582 11.79000000 879251104 879251104 13.00000000
2.40809226 -9.53768539 2.63581324 40 15 16583 10.18400000 879251108 879251108 15.00000000
0.49381611 -1.96741748 -0.54351997 4 0 16591 2.10000000 879251129 879251129 -15.00000000
0.56708193 -2.26266146 -0.53853285 4 2 16593 2.39400000 879251134 879251134 -13.00000000
0.27559918 -1.10045731 0.05945365 2 3 16594 1.13600000 879251136 879251136 3.00000000
0.66534358 -2.65669227 -0.53235710 3 4 16594 2.79000000 879251138 879251138 -11.00000000
0.81611997 -3.26357031 -0.53281581 1 6 16596 3.40600000 879251143 879251143 -9.00000000
0.29067242 -1.16322839 0.14721817 2 7 16597 1.20800000 879251145 879251145 7.00000000
1.03299379 -4.13695955 -0.52355069 2 8 16598 4.29600000 879251147 879251147 -7.00000000
1.43882024 -5.76650524 -0.51997113 3 10 16599 5.96600000 879251152 879251152 -5.00000000
2.26404834 -9.08735847 -0.49080661 4 12 16601 9.37800000 879251157 879251157 -3.00000000
2.77526498 -11.14755535 2.65217304 47 13 16602 11.79000000 879251159 879251159 13.00000000
2.37824535 -9.56707001 2.64150715 40 15 16604 10.20600000 879251164 879251164 15.00000000
0.48438194 -1.95583272 -0.53989655 4 0 16609 2.08600000 879251184 879251184 -15.00000000
0.55997080 -2.26443172 -0.53853285 4 2 16611 2.39400000 879251189 879251189 -13.00000000
0.27357802 -1.10713458 0.05976766 2 3 16612 1.14200000 879251191 879251191 3.00000000
0.65511024 -2.65114570 -0.53083062 3 4 16612 2.78200000 879251194 879251194 -11.00000000
0.80822915 -3.27570748 -0.53438014 1 6 16614 3.41600000 879251198 879251198 -9.00000000
0.28606623 -1.16028106 0.14673069 2 7 16615 1.20400000 879251200 879251200 7.00000000
1.02569044 -4.16331387 -0.52647555 2 8 16616 4.32000000 879251203 879251203 -7.00000000
1.42069721 -5.77099705 -0.51997113 3 10 16617 5.96600000 879251207 879251207 -5.00000000
2.74208951 -11.16378880 2.65397263 46 13 16620 11.79800000 879251214 879251214 13.00000000
2.34708595 -9.56282711 2.63840127 38 15 16621 10.19400000 879251219 879251219 15.00000000
0.47572044 -1.95000446 -0.53782600 4 0 16629 2.07800000 879251240 879251240 -15.00000000
0.55344665 -2.27205276 -0.53988254 4 2 16631 2.40000000 879251244 879251244 -13.00000000
0.26782233 -1.10032034 0.05934897 2 3 16632 1.13400000 879251247 879251247 3.00000000
0.64585197 -2.65341640 -0.53083062 3 4 16632 2.78200000 879251249 879251249 -11.00000000
0.79072529 -3.25355530 -0.53031284 1 6 16634 3.39000000 879251253 879251253 -9.00000000
0.28248280 -1.16320157 0.14697443 2 7 16635 1.20600000 879251256 879251256 7.00000000
1.00459766 -4.13986158 -0.52306324 2 8 16636 4.29200000 879251258 879251258 -7.00000000
1.39303184 -5.74494028 -0.51718217 3 10 16637 5.93400000 879251263 879251263 -5.00000000
2.70585322 -11.18465710 2.65667200 47 13 16640 11.81000000 879251270 879251270 13.00000000
2.31187534 -9.56345081 2.63633084 40 15 16641 10.18600000 879251274 879251274 15.00000000
0.47071597 -1.95916677 -0.53989655 4 0 16649 2.08600000 879251295 879251295 -15.00000000
0.54505777 -2.27207589 -0.53943264 4 2 16651 2.39800000 879251300 879251300 -13.00000000
0.26770443 -1.11678648 0.06018635 2 3 16652 1.15000000 879251302 879251302 3.00000000
0.63658589 -2.65565467 -0.53083062 3 4 16652 2.78200000 879251304 879251304 -11.00000000
0.77568501 -3.24092674 -0.52780986 1 6 16654 3.37400000 879251309 879251309 -9.00000000
0.27103314 -1.13329017 0.14307460 2 7 16655 1.17400000 879251311 879251311 7.00000000
0.99198633 -4.15106583 -0.52403820 2 8 16656 4.30000000 879251313 879251313 -7.00000000
1.37482083 -5.75751972 -0.51787943 3 10 16657 5.94200000 879251318 879251318 -5.00000000
2.66950488 -11.20540810 2.65937138 47 13 16660 11.82200000 879251325 879251325 13.00000000
2.28026819 -9.57897949 2.63840127 38 15 16661 10.19400000 879251329 879251329 15.00000000
0.46431908 -1.96267784 -0.54041415 4 0 16669 2.08800000 879251350 879251350 -15.00000000
0.53667545 -2.27206802 -0.53898275 3 2 16671 2.39600000 879251355 879251355 -13.00000000
0.26151055 -1.10799479 0.05966299 2 3 16672 1.14000000 879251357 879251357 3.00000000
0.63091987 -2.67314649 -0.53388357 3 4 16672 2.79800000 879251359 879251359 -11.00000000
0.76572663 -3.24938273 -0.52874851 1 6 16674 3.38000000 879251364 879251364 -9.00000000
0.26298070 -1.11683917 0.14088096 2 7 16675 1.15600000 879251366 879251366 7.00000000
0.97021604 -4.12358570 -0.52013838 2 8 16676 4.26800000 879251369 879251369 -7.00000000
1.35380292 -5.75840473 -0.51753080 3 10 16677 5.93800000 879251373 879251373 -5.00000000
2.62859440 -11.20706940 2.65757179 48 13 16680 11.81400000 879251380 879251380 13.00000000
2.25131083 -9.61360645 2.64564824 42 15 16682 10.22200000 879251385 879251385 15.00000000
0.45877978 -1.96993113 -0.54196709 4 0 16689 2.09400000 879251406 879251406 -15.00000000
0.52785844 -2.27013135 -0.53808290 3 2 16691 2.39200000 879251410 879251410 -13.00000000
0.25538132 -1.09917378 0.05913963 2 3 16692 1.13000000 879251412 879251412 3.00000000
0.61625338 -2.65238476 -0.52930415 3 4 16692 2.77400000 879251415 879251415 -11.00000000
0.75839692 -3.26935434 -0.53156430 1 6 16694 3.39800000 879251419 879251419 -9.00000000
0.25415000 -1.09647822 0.13819984 2 7 16695 1.13400000 879251422 879251422 7.00000000
0.96298248 -4.15788984 -0.52403820 2 8 16696 4.30000000 879251424 879251424 -7.00000000
1.33638942 -5.77474165 -0.51857668 3 10 16697 5.95000000 879251429 879251429 -5.00000000
2.10829258 -9.12475204 -0.49080661 4 12 16699 9.37800000 879251433 879251433 -3.00000000
2.58858156 -11.21237850 2.65667200 48 13 16700 11.81000000 879251435 879251435 13.00000000
2.21985292 -9.62290192 2.64616585 40 15 16701 10.22400000 879251440 879251440 15.00000000
0.44887936 -1.95833945 -0.53834361 4 0 16709 2.08000000 879251461 879251461 -15.00000000
0.51775736 -2.26246190 -0.53583342 4 2 16711 2.38200000 879251465 879251465 -13.00000000
0.25243333 -1.10395253 0.05934897 5 3 16712 1.13400000 879251468 879251468 3.00000000
0.60699105 -2.65451980 -0.52930415 3 4 16712 2.77400000 879251470 879251470 -11.00000000
0.74698013 -3.27198172 -0.53156430 1 6 16714 3.39800000 879251475 879251475 -9.00000000
0.25650182 -1.12445402 0.14161217 2 7 16715 1.16200000 879251477 879251477 7.00000000
0.94934517 -4.16509676 -0.52452564 2 8 16716 4.30400000 879251479 879251479 -7.00000000
1.30472052 -5.72886276 -0.51404458 3 10 16717 5.89800000 879251484 879251484 -5.00000000
2.55029082 -11.22514725 2.65757179 47 13 16720 11.81400000 879251491 879251491 13.00000000
2.18411088 -9.62117195 2.64357781 40 15 16721 10.21400000 879251495 879251495 15.00000000
0.44127396 -1.95808697 -0.53782600 4 0 16730 2.07800000 879251517 879251517 -15.00000000
0.51587796 -2.29286265 -0.54258192 3 2 16732 2.41200000 879251522 879251522 -13.00000000
0.25033194 -1.11262107 0.05976766 7 3 16732 1.14200000 879251524 879251524 3.00000000
0.59941071 -2.66630387 -0.53121227 3 4 16733 2.78400000 879251526 879251526 -11.00000000
0.73195451 -3.26120543 -0.52937424 1 6 16735 3.38400000 879251531 879251531 -9.00000000
0.25368193 -1.13119757 0.14234339 4 7 16736 1.16800000 879251533 879251533 7.00000000
0.92712820 -4.13755560 -0.52062583 2 8 16737 4.27200000 879251535 879251535 -7.00000000
1.29851472 -5.79971075 -0.51997113 3 10 16738 5.96600000 879251540 879251540 -5.00000000
2.51337910 -11.25343800 2.66207075 47 13 16741 11.83400000 879251547 879251547 13.00000000
2.14504600 -9.61214352 2.63891888 40 15 16742 10.19600000 879251552 879251552 15.00000000
0.43485439 -1.96150136 -0.53834361 4 0 16750 2.08000000 879251572 879251572 -15.00000000
0.50281781 -2.27181697 -0.53718311 3 2 16752 2.38800000 879251577 879251577 -13.00000000
0.24883987 -1.12523198 0.06039570 7 3 16753 1.15400000 879251579 879251579 3.00000000
0.58882815 -2.66262913 -0.53006738 3 4 16753 2.77800000 879251582 879251582 -11.00000000
0.71843702 -3.25409603 -0.52780986 3 6 16755 3.37400000 879251586 879251586 -9.00000000
0.24460028 -1.10881436 0.13941853 7 7 16756 1.14400000 879251588 879251588 7.00000000
0.92122543 -4.17953777 -0.52550060 2 8 16757 4.31200000 879251591 879251591 -7.00000000
1.27826202 -5.80420828 -0.51997113 3 10 16758 5.96600000 879251595 879251595 -5.00000000
2.47575450 -11.26975632 2.66387033 47 13 16761 11.84200000 879251602 879251602 13.00000000
2.11435366 -9.64069748 2.64461303 40 15 16763 10.21800000 879251607 879251607 15.00000000
0.42875931 -1.96482015 -0.53886127 4 0 16769 2.08200000 879251628 879251628 -15.00000000
0.49528140 -2.27347183 -0.53718311 3 2 16771 2.38800000 879251632 879251632 -13.00000000
0.24147740 -1.10844481 0.05945365 7 3 16771 1.13600000 879251635 879251635 3.00000000
0.58208317 -2.67415881 -0.53197551 3 4 16772 2.78800000 879251637 879251637 -11.00000000
0.70890045 -3.26225162 -0.52874851 1 6 16774 3.38000000 879251641 879251641 -9.00000000
0.24007960 -1.10573959 0.13893105 7 7 16775 1.14000000 879251644 879251644 7.00000000
0.90315199 -4.16317034 -0.52306324 2 8 16776 4.29200000 879251646 879251646 -7.00000000
1.25900757 -5.80841494 -0.51997113 3 10 16777 5.96600000 879251651 879251651 -5.00000000
2.43836904 -11.27790356 2.66387033 46 13 16780 11.84200000 879251658 879251658 13.00000000
2.08324027 -9.64351654 2.64357781 40 15 16781 10.21400000 879251662 879251662 15.00000000
0.42595100 -1.98519337 -0.54403764 4 0 16789 2.10200000 879251683 879251683 -15.00000000
0.48611802 -2.26947045 -0.53583342 4 2 16791 2.38200000 879251687 879251687 -13.00000000
0.23551513 -1.09951615 0.05893029 7 3 16791 1.12600000 879251690 879251690 3.00000000
0.57356679 -2.68001390 -0.53273869 3 4 16792 2.79200000 879251692 879251692 -11.00000000
0.69792151 -3.26663804 -0.52906138 1 6 16794 3.38200000 879251697 879251697 -9.00000000
0.23787604 -1.11433625 0.13990600 7 7 16795 1.14800000 879251699 879251699 7.00000000
0.88612986 -4.15464878 -0.52160078 2 8 16796 4.28000000 879251701 879251701 -7.00000000
1.21297860 -5.69195938 -0.50916386 3 10 16797 5.84200000 879251706 879251706 -5.00000000
2.39817667 -11.28253460 2.66297054 46 13 16800 11.83800000 879251713 879251713 13.00000000
2.05157208 -9.66017818 2.64616585 38 15 16801 10.22400000 879251717 879251717 15.00000000
0.41543061 -1.96965575 -0.53937888 4 0 16809 2.08400000 879251738 879251738 -15.00000000
0.47939762 -2.27687430 -0.53718311 4 2 16811 2.38800000 879251743 879251743 -13.00000000
0.23107246 -1.09841752 0.05882562 7 3 16812 1.12400000 879251745 879251745 3.00000000
0.56137919 -2.66855121 -0.53006738 3 4 16812 2.77800000 879251747 879251747 -11.00000000
0.68732649 -3.27292061 -0.52968711 1 6 16814 3.38600000 879251752 879251752 -9.00000000
0.23316956 -1.11127424 0.13941853 9 7 16815 1.14400000 879251754 879251754 7.00000000
0.87406582 -4.16937399 -0.52306324 2 8 16816 4.29200000 879251757 879251757 -7.00000000
1.21842682 -5.81706285 -0.51997113 3 10 16817 5.96600000 879251761 879251761 -5.00000000
2.36037278 -11.29846668 2.66477013 47 13 16820 11.84600000 879251768 879251768 13.00000000
2.01615191 -9.66763210 2.64616585 38 15 16822 10.22400000 879251773 879251773 15.00000000
0.40776855 -1.96731055 -0.53834361 4 0 16829 2.08000000 879251793 879251793 -15.00000000
0.47223663 -2.28235030 -0.53808290 4 2 16831 2.39200000 879251798 879251798 -13.00000000
0.22904742 -1.10700107 0.05924430 10 3 16831 1.13200000 879251800 879251800 3.00000000
0.54967606 -2.65895891 -0.52777767 3 4 16832 2.76600000 879251803 879251803 -11.00000000
0.67749465 -3.28303838 -0.53093857 1 6 16834 3.39400000 879251807 879251807 -9.00000000
0.23289676 -1.12957919 0.14161217 9 7 16835 1.16200000 879251810 879251810 7.00000000
0.85470045 -4.14906836 -0.52013838 2 8 16836 4.26800000 879251812 879251812 -7.00000000
2.32248664 -11.31427288 2.66656971 45 13 16840 11.85400000 879251823 879251823 13.00000000
1.98200548 -9.67271805 2.64564824 40 15 16842 10.22200000 879251828 879251828 15.00000000
0.40089884 -1.96872199 -0.53834361 4 0 16849 2.08000000 879251849 879251849 -15.00000000
0.46232596 -2.27443647 -0.53583342 4 2 16851 2.38200000 879251853 879251853 -13.00000000
0.22677326 -1.11562276 0.05966299 10 3 16851 1.14000000 879251856 879251856 3.00000000
0.54195416 -2.66855741 -0.52930415 3 4 16852 2.77400000 879251858 879251858 -11.00000000
0.66524559 -3.28151131 -0.53031284 1 6 16854 3.39000000 879251863 879251863 -9.00000000
0.22540578 -1.11287498 0.13941853 9 7 16855 1.14400000 879251865 879251865 7.00000000
0.84060603 -4.15397215 -0.52038211 2 8 16856 4.27000000 879251867 879251867 -7.00000000
1.17778671 -5.82542753 -0.51997113 3 10 16857 5.96600000 879251872 879251872 -5.00000000
2.28605986 -11.33759403 2.67016912 44 13 16860 11.87000000 879251879 879251879 13.00000000
1.94746697 -9.67579079 2.64461303 40 15 16862 10.21800000 879251883 879251883 15.00000000
0.39440316 -1.97200370 -0.53886127 4 0 16869 2.08200000 879251904 879251904 -15.00000000
0.45171326 -2.26265931 -0.53268409 3 2 16871 2.36800000 879251909 879251909 -13.00000000
0.22170459 -1.11053181 0.05934897 10 3 16871 1.13400000 879251911 879251911 3.00000000
0.53570801 -2.68583560 -0.53235710 3 4 16872 2.79000000 879251913 879251913 -11.00000000
0.65301549 -3.27993870 -0.52968711 1 6 16874 3.38600000 879251918 879251918 -9.00000000
0.21919613 -1.10197330 0.13795610 10 7 16875 1.13200000 879251920 879251920 7.00000000
0.82571393 -4.15493393 -0.52013838 2 8 16876 4.26800000 879251923 879251923 -7.00000000
1.15744507 -5.82950306 -0.51997113 3 10 16877 5.96600000 879251927 879251927 -5.00000000
2.24495625 -11.33785820 2.66836929 46 13 16880 11.86200000 879251934 879251934 13.00000000
1.91742599 -9.70148087 2.64978933 38 15 16882 10.23800000 879251939 879251939 15.00000000
0.38975072 -1.98474228 -0.54196709 4 0 16889 2.09400000 879251959 879251959 -15.00000000
0.44606140 -2.27569628 -0.53538352 3 2 16891 2.38000000 879251964 879251964 -13.00000000
0.21667424 -1.10541904 0.05903496 10 3 16891 1.12800000 879251966 879251966 3.00000000
0.52482027 -2.67998266 -0.53083062 3 4 16892 2.78200000 879251969 879251969 -11.00000000
0.63853079 -3.26668882 -0.52718413 1 6 16894 3.37000000 879251973 879251973 -9.00000000
0.22067481 -1.13000774 0.14136843 19 7 16895 1.16000000 879251975 879251975 7.00000000
0.81196570 -4.16168785 -0.52062583 2 8 16896 4.27200000 879251978 879251978 -7.00000000
1.12031686 -5.74746227 -0.51230145 3 10 16897 5.87800000 879251982 879251982 -5.00000000
2.20536613 -11.34562492 2.66836929 44 13 16900 11.86200000 879251989 879251989 13.00000000
1.88377106 -9.70020103 2.64771891 40 15 16901 10.23000000 879251994 879251994 15.00000000
0.38135776 -1.97850299 -0.53989655 4 0 16909 2.08600000 879252015 879252015 -15.00000000
0.43958768 -2.28489399 -0.53718311 3 2 16911 2.38800000 879252019 879252019 -13.00000000
0.21319161 -1.10812986 0.05913963 10 3 16911 1.13000000 879252022 879252022 3.00000000
0.51101536 -2.65866256 -0.52625120 3 4 16912 2.75800000 879252024 879252024 -11.00000000
0.62898493 -3.27859783 -0.52874851 1 6 16914 3.38000000 879252028 879252028 -9.00000000
0.21523432 -1.12297273 0.14039348 14 7 16915 1.15200000 879252031 879252031 7.00000000
0.79295379 -4.14110041 -0.51770097 2 8 16916 4.24800000 879252033 879252033 -7.00000000
1.10099638 -5.75525141 -0.51265007 3 10 16917 5.88200000 879252038 879252038 -5.00000000
2.16720963 -11.36091137 2.67016912 45 13 16920 11.87000000 879252045 879252045 13.00000000
1.84928942 -9.71273327 2.64927173 40 15 16922 10.23600000 879252049 879252049 15.00000000
0.37227929 -1.96646976 -0.53627306 4 0 16928 2.07200000 879252070 879252070 -15.00000000
0.43164647 -2.28442430 -0.53673321 4 2 16930 2.38600000 879252075 879252075 -13.00000000
0.20932221 -1.10886729 0.05913963 13 3 16931 1.13000000 879252077 879252077 3.00000000
0.50510949 -2.67577600 -0.52930415 3 4 16931 2.77400000 879252079 879252079 -11.00000000
0.61408609 -3.25931191 -0.52530694 1 6 16933 3.35800000 879252084 879252084 -9.00000000
0.21297804 -1.13148367 0.14136843 14 7 16934 1.16000000 879252086 879252086 7.00000000
0.78068453 -4.15151072 -0.51867592 2 8 16935 4.25600000 879252088 879252088 -7.00000000
1.07381213 -5.71579218 -0.50881523 3 10 16936 5.83800000 879252093 879252093 -5.00000000
2.13095880 -11.37569714 2.67196870 44 13 16939 11.87800000 879252100 879252100 13.00000000
1.81876683 -9.71849442 2.64927173 38 15 16940 10.23600000 879252105 879252105 15.00000000
0.36541277 -1.96775723 -0.53627306 4 0 16948 2.07200000 879252125 879252125 -15.00000000
0.42331457 -2.28400111 -0.53628331 4 2 16950 2.38400000 879252130 879252130 -13.00000000
0.20654117 -1.11548281 0.05945365 15 3 16951 1.13600000 879252132 879252132 3.00000000
0.49719593 -2.68524480 -0.53083062 3 4 16951 2.78200000 879252134 879252134 -11.00000000
0.60342312 -3.26532078 -0.52593267 1 6 16953 3.36200000 879252139 879252139 -9.00000000
0.20686477 -1.12050760 0.13990600 9 7 16954 1.14800000 879252141 879252141 7.00000000
0.76546818 -4.15030622 -0.51818848 2 8 16955 4.25200000 879252144 879252144 -7.00000000
1.05385375 -5.71950531 -0.50881523 3 10 16956 5.83800000 879252148 879252148 -5.00000000
2.09264588 -11.39073277 2.67376828 42 13 16959 11.88600000 879252155 879252155 13.00000000
1.78313458 -9.72509575 2.64927173 40 15 16961 10.23600000 879252160 879252160 15.00000000
0.35992688 -1.97858667 -0.53886127 4 0 16969 2.08200000 879252181 879252181 -15.00000000
0.41354802 -2.27786779 -0.53448373 4 2 16971 2.37600000 879252185 879252185 -13.00000000
0.20138204 -1.11033678 0.05913963 18 3 16972 1.13000000 879252187 879252187 3.00000000
0.48594925 -2.67932200 -0.52930415 3 4 16972 2.77400000 879252190 879252190 -11.00000000
0.58863634 -3.25196004 -0.52342969 1 6 16974 3.34600000 879252194 879252194 -9.00000000
0.20134358 -1.11344457 0.13893105 10 7 16975 1.14000000 879252197 879252197 7.00000000
0.75236875 -4.16480494 -0.51965088 2 8 16976 4.26400000 879252199 879252199 -7.00000000
1.02368355 -5.67235088 -0.50428313 3 10 16977 5.78600000 879252204 879252204 -5.00000000
2.05088258 -11.39832592 2.67376828 44 13 16980 11.88600000 879252211 879252211 13.00000000
1.75122738 -9.74266911 2.65237761 40 15 16981 10.24800000 879252215 879252215 15.00000000
0.35403547 -1.98553658 -0.54041415 4 0 16989 2.08800000 879252236 879252236 -15.00000000
0.40627709 -2.28313446 -0.53538352 4 2 16991 2.38000000 879252240 879252240 -13.00000000
0.19505805 -1.09726799 0.05840693 18 3 16992 1.11600000 879252243 879252243 3.00000000
0.47728094 -2.68486786 -0.53006738 3 4 16992 2.77800000 879252245 879252245 -11.00000000
0.58452749 -3.29484010 -0.52999997 1 6 16994 3.38800000 879252250 879252250 -9.00000000
0.19745572 -1.11414063 0.13893105 10 7 16995 1.14000000 879252252 879252252 7.00000000
0.72882843 -4.11658382 -0.51331365 2 8 16996 4.21200000 879252254 879252254 -7.00000000
1.01081717 -5.71512842 -0.50776935 3 10 16997 5.82600000 879252259 879252259 -5.00000000
2.00972891 -11.39773941 2.67196870 43 13 17000 11.87800000 879252266 879252266 13.00000000
1.71751583 -9.76043797 2.65548348 38 15 17002 10.26000000 879252270 879252270 15.00000000
0.34611803 -1.97908783 -0.53834361 4 0 17008 2.08000000 879252291 879252291 -15.00000000
0.39702848 -2.27487063 -0.53313398 3 2 17010 2.37000000 879252296 879252296 -13.00000000
0.19141831 -1.09790874 0.05840693 10 3 17011 1.11600000 879252298 879252298 3.00000000
0.46635175 -2.67483139 -0.52777767 3 4 17011 2.76600000 879252300 879252300 -11.00000000
0.57122797 -3.28313732 -0.52780986 1 6 17013 3.37400000 879252305 879252305 -9.00000000
0.19511972 -1.12261236 0.13990600 7 7 17014 1.14800000 879252307 879252307 7.00000000
0.71585250 -4.12288952 -0.51380116 2 8 17015 4.21600000 879252310 879252310 -7.00000000
0.98981655 -5.70667076 -0.50672346 3 10 17016 5.81400000 879252314 879252314 -5.00000000
1.97391379 -11.41586208 2.67466807 43 13 17019 11.89000000 879252321 879252321 13.00000000
1.68684399 -9.76578522 2.65548348 40 15 17020 10.26000000 879252326 879252326 15.00000000
0.33790296 -1.97266746 -0.53627306 4 0 17028 2.07200000 879252346 879252346 -15.00000000
0.39236870 -2.29545140 -0.53763300 3 2 17030 2.39000000 879252351 879252351 -13.00000000
0.19397201 -1.13597679 0.06039570 10 3 17031 1.15400000 879252353 879252353 3.00000000
0.45502931 -2.66483140 -0.52548796 3 4 17031 2.75400000 879252356 879252356 -11.00000000
0.56009603 -3.28705859 -0.52812278 3 6 17033 3.37600000 879252360 879252360 -9.00000000
0.19186608 -1.12720060 0.14039348 7 7 17034 1.15200000 879252363 879252363 7.00000000
0.70877731 -4.16841745 -0.51916343 2 8 17035 4.26000000 879252365 879252365 -7.00000000
0.96855599 -5.70223379 -0.50602627 3 10 17036 5.80600000 879252369 879252369 -5.00000000
1.93470359 -11.42652607 2.67556787 44 13 17039 11.89400000 879252376 879252376 13.00000000
1.65039563 -9.76809311 2.65444803 38 15 17041 10.25600000 879252381 879252381 15.00000000
0.33165404 -1.97764540 -0.53730834 4 0 17048 2.07600000 879252402 879252402 -15.00000000
0.38178062 -2.28143096 -0.53403378 4 2 17050 2.37400000 879252406 879252406 -13.00000000
0.19099343 -1.14255667 0.06070971 27 3 17051 1.16000000 879252409 879252409 3.00000000
0.44410607 -2.65672159 -0.52357990 3 4 17051 2.74400000 879252411 879252411 -11.00000000
0.54634356 -3.27535462 -0.52593267 1 6 17053 3.36200000 879252416 879252416 -9.00000000
0.18793026 -1.12786341 0.14039348 7 7 17054 1.15200000 879252418 879252418 7.00000000
0.69096321 -4.15128469 -0.51672602 2 8 17055 4.24000000 879252420 879252420 -7.00000000
0.95518118 -5.74488831 -0.50951248 3 10 17056 5.84600000 879252425 879252425 -5.00000000
1.89544308 -11.43705463 2.67646766 42 13 17059 11.89800000 879252432 879252432 13.00000000
1.61925650 -9.78113556 2.65651870 38 15 17060 10.26400000 879252436 879252436 15.00000000
0.32600018 -1.98641646 -0.53937888 4 0 17068 2.08400000 879252457 879252457 -15.00000000
0.37224001 -2.27313423 -0.53178430 4 2 17070 2.36400000 879252462 879252462 -13.00000000
0.18668158 -1.14124537 0.06060504 57 3 17071 1.15800000 879252464 879252464 3.00000000
0.44021752 -2.69119334 -0.53006738 3 4 17071 2.77800000 879252466 879252466 -11.00000000
0.53458887 -3.27529216 -0.52561980 1 6 17073 3.36000000 879252471 879252471 -9.00000000
0.18143669 -1.11283875 0.13844357 7 7 17074 1.13600000 879252473 879252473 7.00000000
0.67519194 -4.14583397 -0.51575106 2 8 17075 4.23200000 879252475 879252475 -7.00000000
0.92744392 -5.70099068 -0.50532901 3 10 17076 5.79800000 879252480 879252480 -5.00000000
1.85550869 -11.44360161 2.67646766 44 13 17079 11.89800000 879252487 879252487 13.00000000
1.58648133 -9.80607510 2.66169500 38 15 17081 10.28400000 879252492 879252492 15.00000000
0.31937051 -1.98944974 -0.53989655 4 0 17088 2.08600000 879252512 879252512 -15.00000000
0.36553586 -2.28211641 -0.53358388 4 2 17090 2.37200000 879252517 879252517 -13.00000000
0.18175013 -1.13597357 0.06029102 85 3 17091 1.15200000 879252519 879252519 3.00000000
0.42802933 -2.67526603 -0.52663285 3 4 17091 2.76000000 879252522 879252522 -11.00000000
0.52346414 -3.27908897 -0.52593267 1 6 17093 3.36200000 879252526 879252526 -9.00000000
0.18005177 -1.12914789 0.14039348 7 7 17094 1.15200000 879252528 879252528 7.00000000
0.66009170 -4.14424515 -0.51526356 2 8 17095 4.22800000 879252531 879252531 -7.00000000
0.91192085 -5.73174047 -0.50776935 3 10 17096 5.82600000 879252535 879252535 -5.00000000
1.81494141 -11.44615936 2.67556787 43 13 17099 11.89400000 879252542 879252542 13.00000000
1.55395448 -9.81128216 2.66169500 38 15 17100 10.28400000 879252547 879252547 15.00000000
0.31092638 -1.98100996 -0.53730834 4 0 17108 2.07600000 879252568 879252568 -15.00000000
0.35666308 -2.27760267 -0.53223419 4 2 17110 2.36600000 879252572 879252572 -13.00000000
0.17716643 -1.13265455 0.06008168 60 3 17111 1.14800000 879252575 879252575 3.00000000
0.41626111 -2.66122651 -0.52357990 3 4 17111 2.74400000 879252577 879252577 -11.00000000
0.51323313 -3.28870320 -0.52718413 1 6 17113 3.37000000 879252581 879252581 -9.00000000
0.17855518 -1.14546084 0.14234339 7 7 17114 1.16800000 879252584 879252584 7.00000000
0.64745396 -4.15829277 -0.51672602 2 8 17115 4.24000000 879252586 879252586 -7.00000000
0.88639647 -5.69945145 -0.50463176 3 10 17116 5.79000000 879252591 879252591 -5.00000000
1.77616966 -11.46012783 2.67736745 45 13 17119 11.90200000 879252598 879252598 13.00000000
1.51999283 -9.81855583 2.66221261 35 15 17120 10.28600000 879252602 879252602 15.00000000
0.30283797 -1.97444510 -0.53523779 4 0 17128 2.06800000 879252623 879252623 -15.00000000
0.35283732 -2.30580235 -0.53853285 3 2 17130 2.39400000 879252628 879252628 -13.00000000
0.17351341 -1.13524032 0.06018635 47 3 17131 1.15000000 879252630 879252630 3.00000000
0.40726578 -2.66460419 -0.52396148 3 4 17131 2.74600000 879252632 879252632 -11.00000000
0.50055921 -3.28266335 -0.52593267 1 6 17133 3.36200000 879252637 879252637 -9.00000000
0.17336009 -1.13822722 0.14136843 4 7 17134 1.16000000 879252639 879252639 7.00000000
0.62756091 -4.12520218 -0.51233870 2 8 17135 4.20400000 879252641 879252641 -7.00000000
0.86290461 -5.67887354 -0.50253999 3 10 17136 5.76600000 879252646 879252646 -5.00000000
1.73732257 -11.47396469 2.67916703 46 13 17139 11.91000000 879252653 879252653 13.00000000
1.48571038 -9.82380199 2.66221261 35 15 17140 10.28600000 879252657 879252657 15.00000000
0.29680264 -1.98122180 -0.53679073 4 0 17148 2.07400000 879252678 879252678 -15.00000000
0.34248209 -2.29160118 -0.53493363 3 2 17150 2.37800000 879252683 879252683 -13.00000000
0.16984449 -1.13781452 0.06029102 42 3 17151 1.15200000 879252685 879252685 3.00000000
0.39912149 -2.67377639 -0.52548796 3 4 17151 2.75400000 879252687 879252687 -11.00000000
0.48676986 -3.26875997 -0.52342969 1 6 17153 3.34600000 879252692 879252692 -9.00000000
0.16938588 -1.13882542 0.14136843 4 7 17154 1.16000000 879252694 879252694 7.00000000
0.61374086 -4.13129473 -0.51282620 2 8 17155 4.20800000 879252697 879252697 -7.00000000
0.84307635 -5.68185091 -0.50253999 3 10 17156 5.76600000 879252701 879252701 -5.00000000
1.69840038 -11.48767090 2.68096662 44 13 17159 11.91800000 879252708 879252708 13.00000000
1.45025814 -9.83300400 2.66324806 35 15 17161 10.29000000 879252713 879252713 15.00000000
0.29044417 -1.98606884 -0.53782600 4 0 17168 2.07800000 879252734 879252734 -15.00000000
0.33307427 -2.28314114 -0.53268409 4 2 17170 2.36800000 879252738 879252738 -13.00000000
0.16529581 -1.13444769 0.06008168 45 3 17171 1.14800000 879252740 879252740 3.00000000
0.39403188 -2.70429444 -0.53121227 3 4 17171 2.78400000 879252743 879252743 -11.00000000
0.47762987 -3.28607798 -0.52593267 1 6 17173 3.36200000 879252747 879252747 -9.00000000
0.16483922 -1.13548076 0.14088096 4 7 17174 1.15600000 879252750 879252750 7.00000000
0.60273433 -4.15698624 -0.51575106 2 8 17175 4.23200000 879252752 879252752 -7.00000000
0.82894886 -5.72419596 -0.50602627 3 10 17176 5.80600000 879252757 879252757 -5.00000000
1.65940368 -11.50124454 2.68276620 36 13 17179 11.92600000 879252763 879252763 13.00000000
1.41929591 -9.84923172 2.66635370 35 15 17180 10.30200000 879252768 879252768 15.00000000
0.28432834 -1.99280798 -0.53937888 4 0 17188 2.08400000 879252789 879252789 -15.00000000
0.32565174 -2.28814840 -0.53358388 4 2 17190 2.37200000 879252793 879252793 -13.00000000
0.16021055 -1.12710822 0.05966299 50 3 17191 1.14000000 879252796 879252796 3.00000000
0.38182688 -2.68621612 -0.52739608 3 4 17191 2.76400000 879252798 879252798 -11.00000000
0.46338332 -3.26816702 -0.52280396 1 6 17193 3.34200000 879252803 879252803 -9.00000000
0.16031800 -1.13211823 0.14039348 4 7 17194 1.15200000 879252805 879252805 7.00000000
0.58432829 -4.13154745 -0.51233870 2 8 17195 4.20400000 879252807 879252807 -7.00000000
0.80784798 -5.71916342 -0.50532901 3 10 17196 5.79800000 879252812 879252812 -5.00000000
1.38705790 -9.86943054 2.67049479 35 15 17200 10.31800000 879252823 879252823 15.00000000
0.27657184 -1.98804808 -0.53782600 4 0 17208 2.07800000 879252844 879252844 -15.00000000
0.31873402 -2.29699230 -0.53538352 4 2 17210 2.38000000 879252849 879252849 -13.00000000
0.15757009 -1.13554645 0.06008168 47 3 17210 1.14800000 879252851 879252851 3.00000000
0.36975291 -2.66808605 -0.52357990 3 4 17211 2.74400000 879252853 879252853 -11.00000000
0.45170197 -3.26780796 -0.52249110 1 6 17213 3.34000000 879252858 879252858 -9.00000000
0.15853693 -1.14840257 0.14234339 2 7 17214 1.16800000 879252860 879252860 7.00000000
0.57044518 -4.13749504 -0.51282620 2 8 17215 4.20800000 879252862 879252862 -7.00000000
0.78353101 -5.69036818 -0.50253999 3 10 17216 5.76600000 879252867 879252867 -5.00000000
0.40357250 -2.94233179 0.68565083 3 13 17219 3.04800000 879252874 879252874 13.00000000
1.35128784 -9.86464214 2.66790676 40 15 17220 10.30800000 879252879 879252879 15.00000000
0.26755449 -1.97368670 -0.53368485 4 0 17228 2.06200000 879252899 879252899 -15.00000000
0.31071407 -2.29809070 -0.53538352 4 2 17230 2.38000000 879252904 879252904 -13.00000000
0.15394157 -1.14007497 0.06029102 42 3 17231 1.15200000 879252906 879252906 3.00000000
0.36096272 -2.67325163 -0.52434313 3 4 17231 2.74800000 879252909 879252909 -11.00000000
0.44161069 -3.27915311 -0.52405548 1 6 17233 3.35000000 879252913 879252913 -9.00000000
0.15664411 -1.16468799 0.14429331 2 7 17234 1.18400000 879252915 879252915 7.00000000
0.55441362 -4.12765646 -0.51136374 2 8 17235 4.19600000 879252918 879252918 -7.00000000
0.39656085 -2.95634031 0.47243208 1 9 17236 3.02000000 879252920 879252920 9.00000000
0.76048452 -5.66937208 -0.50044829 3 10 17236 5.74200000 879252922 879252922 -5.00000000
0.39205042 -2.92659140 0.57395345 10 11 17237 3.00800000 879252925 879252925 11.00000000
1.31563342 -9.87335777 2.66894197 23 15 17241 10.31200000 879252934 879252934 15.00000000
0.26142189 -1.98035431 -0.53523779 4 0 17248 2.06800000 879252955 879252955 -15.00000000
0.30167291 -2.29143310 -0.53358388 4 2 17250 2.37200000 879252959 879252959 -13.00000000
0.15094219 -1.14651978 0.06060504 22 3 17250 1.15800000 879252962 879252962 3.00000000
0.35418829 -2.69396043 -0.52815932 3 4 17251 2.76800000 879252964 879252964 -11.00000000
0.42887756 -3.27088165 -0.52249110 1 6 17253 3.34000000 879252968 879252968 -9.00000000
0.15154670 -1.15735447 0.14331836 4 7 17254 1.17600000 879252971 879252971 7.00000000
0.53948724 -4.12562990 -0.51087630 2 8 17255 4.19200000 879252973 879252973 -7.00000000
0.37958843 -2.90677905 0.46429750 8 9 17256 2.96800000 879252975 879252975 9.00000000
0.74378598 -5.69569921 -0.50253999 3 10 17256 5.76600000 879252978 879252978 -5.00000000
0.37700865 -2.89095354 0.56670272 22 11 17257 2.97000000 879252980 879252980 11.00000000
0.38075954 -2.92768526 0.68160170 50 13 17259 3.03000000 879252985 879252985 13.00000000
0.25475371 -1.98317087 -0.53575540 4 0 17268 2.07000000 879253010 879253010 -15.00000000
0.29193914 -2.27894163 -0.53043461 4 2 17270 2.35800000 879253014 879253014 -13.00000000
0.14567026 -1.13713431 0.06008168 22 3 17270 1.14800000 879253017 879253017 3.00000000
0.34254038 -2.67765379 -0.52472472 3 4 17271 2.75000000 879253019 879253019 -11.00000000
0.41820735 -3.27823734 -0.52342969 1 6 17273 3.34600000 879253024 879253024 -9.00000000
0.15001446 -1.17756820 0.14575574 7 7 17274 1.19600000 879253026 879253026 7.00000000
0.52859002 -4.15505695 -0.51428860 2 8 17275 4.22000000 879253028 879253028 -7.00000000
0.36819482 -2.89828825 0.46273315 16 9 17276 2.95800000 879253031 879253031 9.00000000
0.72389978 -5.69826078 -0.50253999 3 10 17276 5.76600000 879253033 879253033 -5.00000000
0.36765629 -2.89809489 0.56784755 50 11 17277 2.97600000 879253035 879253035 11.00000000
0.36955938 -2.92126322 0.67980206 61 13 17279 3.02200000 879253040 879253040 13.00000000
0.36996734 -2.92859292 0.79095101 6 15 17280 3.05600000 879253044 879253044 15.00000000
0.24948260 -1.99162889 -0.53782600 4 0 17286 2.07800000 879253065 879253065 -15.00000000
0.28574437 -2.28758240 -0.53223419 4 2 17288 2.36600000 879253070 879253070 -13.00000000
0.14288743 -1.14553869 0.06050036 20 3 17289 1.15600000 879253072 879253072 3.00000000
0.33436960 -2.68066478 -0.52510637 3 4 17289 2.75200000 879253074 879253074 -11.00000000
0.40498060 -3.25601172 -0.51967531 3 6 17291 3.32200000 879253079 879253079 -9.00000000
0.14631428 -1.17803371 0.14575574 7 7 17292 1.19600000 879253081 879253081 7.00000000
0.51211333 -4.12911749 -0.51087630 2 8 17293 4.19200000 879253084 879253084 -7.00000000
0.35910755 -2.89544725 0.46210742 30 9 17293 2.95400000 879253086 879253086 9.00000000
0.70599461 -5.70050716 -0.50253999 3 10 17294 5.76600000 879253088 879253088 -5.00000000
0.35830888 -2.89728713 0.56746596 66 11 17295 2.97400000 879253091 879253091 11.00000000
0.36038014 -2.92240977 0.67980206 70 13 17297 3.02200000 879253095 879253095 13.00000000
0.24229558 -1.99056995 -0.53730834 4 0 17306 2.07600000 879253120 879253120 -15.00000000
0.27916622 -2.30017304 -0.53493363 4 2 17308 2.37800000 879253125 879253125 -13.00000000
0.14029108 -1.15591979 0.06102372 20 3 17308 1.16600000 879253127 879253127 3.00000000
0.32359311 -2.67012167 -0.52281666 3 4 17309 2.74000000 879253130 879253130 -11.00000000
0.39716715 -3.28682208 -0.52436835 1 6 17311 3.35200000 879253134 879253134 -9.00000000
0.14315246 -1.18642044 0.14673069 4 7 17312 1.20400000 879253137 879253137 7.00000000
0.49674711 -4.12299633 -0.50990134 2 8 17313 4.18400000 879253139 879253139 -7.00000000
0.34802088 -2.89282155 0.46148166 38 9 17314 2.95000000 879253141 879253141 9.00000000
0.68609184 -5.70293665 -0.50253999 3 10 17314 5.76600000 879253144 879253144 -5.00000000
0.35030070 -2.91606355 0.57090050 68 11 17315 2.99200000 879253146 879253146 11.00000000
0.35017684 -2.92365003 0.67980206 63 13 17317 3.02200000 879253150 879253150 13.00000000
0.34635943 -2.90035176 0.78266877 46 15 17319 3.02400000 879253155 879253155 15.00000000
0.23318699 -1.97609627 -0.53316724 4 0 17327 2.06000000 879253176 879253176 -15.00000000
0.27027839 -2.29731011 -0.53403378 4 2 17329 2.37400000 879253180 879253180 -13.00000000
0.13652022 -1.16039336 0.06123307 22 3 17329 1.17000000 879253183 879253183 3.00000000
0.31105578 -2.64789176 -0.51823723 3 4 17330 2.71600000 879253185 879253185 -11.00000000
0.38259006 -3.26667428 -0.52092677 1 6 17332 3.33000000 879253190 879253190 -9.00000000
0.13926420 -1.19088042 0.14721817 2 7 17333 1.20800000 879253192 879253192 7.00000000
0.48301360 -4.13661957 -0.51136374 2 8 17334 4.19600000 879253194 879253194 -7.00000000
0.33815002 -2.89598083 0.46179456 40 9 17334 2.95200000 879253197 879253197 9.00000000
0.33779436 -2.90172720 0.56784755 70 11 17336 2.97600000 879253201 879253201 11.00000000
0.33766150 -2.90942788 0.67620289 47 13 17338 3.00600000 879253206 879253206 13.00000000
0.33372840 -2.88433027 0.77801007 72 15 17340 3.00600000 879253210 879253210 15.00000000
0.22562861 -1.97114027 -0.53161430 4 0 17347 2.05400000 879253231 879253231 -15.00000000
0.26137388 -2.29049492 -0.53223419 4 2 17349 2.36600000 879253236 879253236 -13.00000000
0.13382751 -1.17276907 0.06186110 25 3 17349 1.18200000 879253238 879253238 3.00000000
0.29803282 -2.61580062 -0.51174974 6 4 17350 2.68200000 879253240 879253240 -11.00000000
0.31299916 -2.75571036 -0.43926796 5 6 17352 2.80800000 879253245 879253245 -9.00000000
0.32658169 -2.87977600 0.35585847 1 7 17353 2.92000000 879253247 879253247 7.00000000
0.33003935 -2.91480899 0.46461037 35 9 17354 2.97000000 879253252 879253252 9.00000000
0.32568154 -2.88533068 0.56441301 79 11 17356 2.95800000 879253256 879253256 11.00000000
0.32576045 -2.89509654 0.67260367 54 13 17358 2.99000000 879253261 879253261 13.00000000
0.32430422 -2.89123726 0.77956295 70 15 17360 3.01200000 879253266 879253266 15.00000000
0.22165081 -1.99491811 -0.53782600 1 0 17366 2.07800000 879253286 879253286 -15.00000000
0.25291881 -2.28360128 -0.53043461 4 2 17368 2.35800000 879253291 879253291 -13.00000000
0.12883843 -1.16328084 0.06133774 22 3 17368 1.17200000 879253293 879253293 3.00000000
0.28763068 -2.60116363 -0.50869679 4 4 17369 2.66600000 879253296 879253296 -11.00000000
0.30212778 -2.74102521 -0.43676502 21 6 17371 2.79200000 879253300 879253300 -9.00000000
0.31994021 -2.91196036 0.46398461 26 9 17373 2.96600000 879253307 879253307 9.00000000
0.31632540 -2.88834643 0.56479460 70 11 17375 2.96000000 879253312 879253312 11.00000000
0.31552374 -2.89034939 0.67125392 69 13 17377 2.98400000 879253316 879253316 13.00000000
0.31501022 -2.89032125 0.77904534 84 15 17378 3.01000000 879253321 879253321 15.00000000
0.24889341 -2.32128525 -0.53898275 4 2 17388 2.39600000 879253346 879253346 -13.00000000
0.12371238 -1.15379417 0.06081438 20 3 17388 1.16200000 879253349 879253349 3.00000000
0.27750435 -2.59239125 -0.50678867 4 4 17389 2.65600000 879253351 879253351 -11.00000000
0.28941444 -2.71259975 -0.43207198 16 6 17391 2.76200000 879253355 879253355 -9.00000000
0.30550048 -2.86811471 0.35415232 63 7 17392 2.90600000 879253358 879253358 7.00000000
0.30371600 -2.85609460 0.45491141 42 9 17393 2.90800000 879253362 879253362 9.00000000
0.30748278 -2.90114689 0.56708431 57 11 17395 2.97200000 879253367 879253367 11.00000000
0.30543262 -2.89143300 0.67125392 67 13 17397 2.98400000 879253372 879253372 13.00000000
0.30643725 -2.91066885 0.78422171 79 15 17399 3.03000000 879253376 879253376 15.00000000
0.23938215 -2.30857158 -0.53583342 4 2 17408 2.38200000 879253402 879253402 -13.00000000
0.12112789 -1.17013299 0.06165176 17 3 17409 1.17800000 879253404 879253404 3.00000000
0.26724061 -2.58162713 -0.50449896 4 4 17409 2.64400000 879253406 879253406 -11.00000000
0.27913308 -2.70573354 -0.43082052 7 6 17411 2.75400000 879253411 879253411 -9.00000000
0.29487693 -2.86323953 0.35342109 34 7 17412 2.90000000 879253413 879253413 7.00000000
0.13216521 -1.28551888 -0.15867388 1 8 17413 1.30200000 879253415 879253415 -7.00000000
0.29334047 -2.85320735 0.45428568 56 9 17413 2.90400000 879253418 879253418 9.00000000
0.29415235 -2.87095404 0.56097847 44 11 17415 2.94000000 879253422 879253422 11.00000000
0.29375419 -2.87697220 0.66765475 47 13 17417 2.96800000 879253427 879253427 13.00000000
0.29697934 -2.91359091 0.78473932 76 15 17418 3.03200000 879253432 879253432 15.00000000
0.23345874 -2.33072257 -0.54078233 1 2 17428 2.40400000 879253457 879253457 -13.00000000
0.11724134 -1.17253602 0.06175643 10 3 17429 1.18000000 879253459 879253459 3.00000000
0.25822744 -2.58254433 -0.50449896 5 4 17429 2.64400000 879253461 879253461 -11.00000000
0.12846161 -1.29387403 -0.15964884 6 8 17433 1.31000000 879253471 879253471 -7.00000000
0.28404993 -2.86605787 0.45616290 54 9 17434 2.91600000 879253473 879253473 9.00000000
0.28316262 -2.86219478 0.55907035 70 11 17435 2.93000000 879253478 879253478 11.00000000
0.28237164 -2.86440468 0.66450542 54 13 17437 2.95400000 879253482 879253482 13.00000000
0.28214377 -2.87236261 0.77335131 66 15 17439 2.98800000 879253487 879253487 15.00000000
0.11391481 -1.18089020 0.06217512 27 3 17449 1.18800000 879253514 879253514 3.00000000
0.24902259 -2.58147573 -0.50411737 4 4 17449 2.64200000 879253517 879253517 -11.00000000
0.12567721 -1.30759978 -0.20805784 6 6 17451 1.33000000 879253521 879253521 -9.00000000
0.12451205 -1.30024266 -0.16038005 27 8 17453 1.31600000 879253526 879253526 -7.00000000
0.27040151 -2.82372355 0.44927979 37 9 17453 2.87200000 879253528 879253528 9.00000000
0.27074593 -2.83775878 0.55410933 66 11 17455 2.90400000 879253533 879253533 11.00000000
0.27163365 -2.85761309 0.66270578 63 13 17457 2.94600000 879253538 879253538 13.00000000
0.27225217 -2.86943603 0.77231604 64 15 17458 2.98400000 879253542 879253542 15.00000000
0.12926839 -1.38297307 -0.37218177 1 0 17466 1.43800000 879253563 879253563 -15.00000000
0.10942237 -1.17730331 0.06196577 55 3 17469 1.18400000 879253570 879253570 3.00000000
0.24091847 -2.59210348 -0.50602543 3 4 17469 2.65200000 879253572 879253572 -11.00000000
0.12020145 -1.29819572 -0.20649350 23 6 17471 1.32000000 879253577 879253577 -9.00000000
0.10796043 -1.16821158 0.14404957 2 7 17472 1.18200000 879253579 879253579 7.00000000
0.11942560 -1.29473925 -0.15964884 27 8 17473 1.31000000 879253581 879253581 -7.00000000
0.26113680 -2.83649802 0.45115700 62 9 17474 2.88400000 879253584 879253584 9.00000000
0.26047939 -2.83477664 0.55334610 64 11 17475 2.90000000 879253588 879253588 11.00000000
0.26094651 -2.85078120 0.66090620 57 13 17477 2.93800000 879253593 879253593 13.00000000
0.26155791 -2.86849070 0.77179837 77 15 17479 2.98200000 879253597 879253597 15.00000000
0.12253632 -1.36225092 -0.36648777 3 0 17486 1.41600000 879253618 879253618 -15.00000000
0.10549004 -1.17966735 0.06207044 95 3 17489 1.18600000 879253625 879253625 3.00000000
0.11619493 -1.30451012 -0.20743211 38 6 17491 1.32600000 879253632 879253632 -9.00000000
0.10739742 -1.20812726 0.14892434 9 7 17492 1.22200000 879253634 879253634 7.00000000
0.11280026 -1.27142036 -0.15672398 31 8 17493 1.28600000 879253637 879253637 -7.00000000
0.24963437 -2.81373668 0.44740257 51 9 17493 2.86000000 879253639 879253639 9.00000000
0.25058258 -2.83566856 0.55334610 67 11 17495 2.90000000 879253643 879253643 11.00000000
0.24979782 -2.83808613 0.65775687 54 13 17497 2.92400000 879253648 879253648 13.00000000
0.25255135 -2.87511563 0.77335131 66 15 17498 2.98800000 879253653 879253653 15.00000000
0.11578415 -1.33957422 -0.36027610 3 0 17506 1.39200000 879253673 879253673 -15.00000000
0.10085875 -1.17405868 0.06175643 100 3 17509 1.18000000 879253680 879253680 3.00000000
0.11029354 -1.28916228 -0.20492914 38 6 17511 1.31000000 879253687 879253687 -9.00000000
0.10402396 -1.21838427 0.15014303 6 7 17512 1.23200000 879253690 879253690 7.00000000
0.10886706 -1.27774012 -0.15745519 39 8 17513 1.29200000 879253692 879253692 -7.00000000
0.23931983 -2.81463265 0.44740257 43 9 17514 2.86000000 879253694 879253694 9.00000000
0.24101469 -2.84043837 0.55410933 70 11 17515 2.90400000 879253699 879253699 11.00000000
0.23972546 -2.83699894 0.65730697 52 13 17517 2.92200000 879253703 879253703 13.00000000
0.24136385 -2.86832166 0.77128077 71 15 17519 2.98000000 879253708 879253708 15.00000000
0.10983036 -1.32456827 -0.35613501 4 0 17526 1.37600000 879253729 879253729 -15.00000000
0.09643191 -1.17042255 0.06154709 100 3 17529 1.17600000 879253736 879253736 3.00000000
0.10514679 -1.28166437 -0.20367767 38 6 17531 1.30200000 879253743 879253743 -9.00000000
0.09863662 -1.20489061 0.14843686 6 7 17532 1.21800000 879253745 879253745 7.00000000
0.10343654 -1.26624131 -0.15599276 41 8 17533 1.28000000 879253747 879253747 -7.00000000
0.23062816 -2.82328606 0.44865406 41 9 17533 2.86800000 879253749 879253749 9.00000000
0.23077993 -2.83734894 0.55334610 71 11 17535 2.90000000 879253754 879253754 11.00000000
0.22919179 -2.83004904 0.65550739 54 13 17537 2.91400000 879253759 879253759 13.00000000
0.23029479 -2.84985065 0.76610440 60 15 17538 2.96000000 879253763 879253763 15.00000000
0.10168903 -1.28065038 -0.34422934 4 0 17546 1.33000000 879253784 879253784 -15.00000000
0.09234578 -1.17075193 0.06154709 100 3 17549 1.17600000 879253791 879253791 3.00000000
0.09928052 -1.26429975 -0.20086186 45 6 17551 1.28400000 879253798 879253798 -9.00000000
0.09412005 -1.20126951 0.14794938 7 7 17552 1.21400000 879253800 879253800 7.00000000
0.09607636 -1.22899270 -0.15136172 27 8 17553 1.24200000 879253802 879253802 -7.00000000
0.22089320 -2.83199000 0.44990551 29 9 17554 2.87600000 879253805 879253805 9.00000000
0.22026502 -2.83030772 0.55181962 70 11 17555 2.89200000 879253809 879253809 11.00000000
0.21991378 -2.83860350 0.65730697 61 13 17557 2.92200000 879253814 879253814 13.00000000
0.21955092 -2.84682322 0.76506913 61 15 17559 2.95600000 879253819 879253819 15.00000000
0.08610746 -1.13459790 -0.30488884 6 0 17566 1.17800000 879253839 879253839 -15.00000000
0.10686485 -1.41465223 -0.32752874 1 2 17568 1.45600000 879253844 879253844 -13.00000000
0.08810844 -1.16907561 0.06144241 100 3 17569 1.17400000 879253846 879253846 3.00000000
0.09501445 -1.26660848 -0.20117472 38 6 17571 1.28600000 879253853 879253853 -9.00000000
0.08874108 -1.18575430 0.14599948 7 7 17572 1.19800000 879253855 879253855 7.00000000
0.08543026 -1.14419854 -0.14088096 100 8 17573 1.15600000 879253858 879253858 -7.00000000
0.21208909 -2.84058642 0.45115700 20 9 17573 2.88400000 879253860 879253860 9.00000000
0.20980209 -2.82322812 0.55029315 83 11 17575 2.88400000 879253865 879253865 11.00000000
