# .PCD v0.7 - Point Cloud Data file format
VERSION 0.7
FIELDS x y z intensity laser_id azimuth distance_m adjustedtime timestamp vertical_angle
SIZE 4 4 4 1 1 2 8 8 4 8
TYPE F F F U U U F U U F
COUNT 1 1 1 1 1 1 1 1 1 1
WIDTH 541
HEIGHT 1
VIEWPOINT 0 0 0 1 0 0 0
POINTS 541
DATA ascii
-2.52663016 1.03109860 -0.53044903 3 4 29220 2.78000000 887086151 887086151 -11.00000000
-4.88255930 1.99352968 0.46140251 7 5 29221 5.29400000 887086153 887086153 5.00000000
-3.06487179 1.25199926 -0.52436835 3 6 29222 3.35200000 887086156 887086156 -9.00000000
-4.90440941 2.00444865 0.65053856 9 7 29223 5.33800000 887086158 887086158 7.00000000
-3.85857034 1.57779670 -0.51185125 6 8 29224 4.20000000 887086160 887086160 -7.00000000
-4.88702202 1.99933362 0.83629864 9 9 29225 5.34600000 887086163 887086163 9.00000000
-4.88485432 1.99844658 -0.46175113 9 10 29225 5.29800000 887086165 887086165 -5.00000000
-4.88575602 1.99981117 1.02617073 11 11 29226 5.37800000 887086167 887086167 11.00000000
-4.88500404 2.00049877 -0.27664787 11 12 29227 5.28600000 887086169 887086169 -3.00000000
-4.86877871 1.99484646 1.21473575 8 13 29228 5.40000000 887086172 887086172 13.00000000
-4.86065912 1.99251068 -0.09169494 6 14 29229 5.25400000 887086174 887086174 -1.00000000
-4.86879015 1.99683642 1.41004610 8 15 29230 5.44800000 887086176 887086176 15.00000000
-1.87056947 0.76946580 -0.54196709 4 0 29236 2.09400000 887086197 887086197 -15.00000000
-4.84677744 1.99472916 0.09148552 7 1 29237 5.24200000 887086199 887086199 1.00000000
-2.15874696 0.88888985 -0.53898275 4 2 29238 2.39600000 887086202 887086202 -13.00000000
-4.86418343 2.00387859 0.27570581 8 3 29239 5.26800000 887086204 887086204 3.00000000
-2.52138162 1.03872371 -0.53006738 3 4 29239 2.77800000 887086206 887086206 -11.00000000
-4.84644842 1.99756193 0.45861351 10 5 29240 5.26200000 887086209 887086209 5.00000000
-3.05522466 1.25989664 -0.52342969 3 6 29241 3.34600000 887086211 887086211 -9.00000000
-4.85369396 2.00253081 0.64468884 9 7 29242 5.29000000 887086213 887086213 7.00000000
-3.86065674 1.59361327 -0.51282620 6 8 29243 4.20800000 887086216 887086216 -7.00000000
-4.85880566 2.00563216 0.83254421 9 9 29243 5.32200000 887086218 887086218 9.00000000
-4.85241890 2.00398707 -0.45931077 13 10 29244 5.27000000 887086220 887086220 -5.00000000
-4.84462261 2.00175714 1.01892006 11 11 29245 5.34000000 887086222 887086222 11.00000000
-4.84511995 2.00295258 -0.27476376 10 12 29246 5.25000000 887086225 887086225 -3.00000000
-4.84412861 2.00353289 1.21023667 8 13 29247 5.38000000 887086227 887086227 13.00000000
-4.84109116 2.00326610 -0.09145061 6 14 29248 5.24000000 887086229 887086229 -1.00000000
-4.84285736 2.00399685 1.40435219 8 15 29248 5.42600000 887086232 887086232 15.00000000
-1.86965621 0.77673173 -0.54248470 4 0 29256 2.09600000 887086252 887086252 -15.00000000
-4.82131958 2.00396037 0.09113646 7 1 29257 5.22200000 887086255 887086255 1.00000000
-2.14843369 0.89342684 -0.53718311 4 2 29258 2.38800000 887086257 887086257 -13.00000000
-4.81474638 2.00319958 0.27329835 8 3 29259 5.22200000 887086259 887086259 3.00000000
-2.52499104 1.05053532 -0.53159386 3 4 29259 2.78600000 887086262 887086262 -11.00000000
-4.81921291 2.00604463 0.45669609 10 5 29260 5.24000000 887086264 887086264 5.00000000
-3.05263186 1.27131307 -0.52374262 3 6 29261 3.34800000 887086266 887086266 -9.00000000
-4.81369162 2.00571799 0.64030153 9 7 29262 5.25400000 887086269 887086269 7.00000000
-3.83308339 1.59791386 -0.50990134 6 8 29263 4.18400000 887086271 887086271 -7.00000000
-4.81860542 2.00973988 0.82691258 9 9 29264 5.28600000 887086273 887086273 9.00000000
-4.82332802 2.01170945 -0.45721903 13 10 29264 5.24600000 887086275 887086275 -5.00000000
-4.81586361 2.00958323 1.01434064 10 11 29265 5.31600000 887086278 887086278 11.00000000
-4.79386473 2.00138569 -0.27225164 10 12 29266 5.20200000 887086280 887086280 -3.00000000
-4.80473852 2.00691032 1.20213842 8 13 29267 5.34400000 887086282 887086282 13.00000000
-4.79347754 2.00318933 -0.09068270 8 14 29268 5.19600000 887086285 887086285 -1.00000000
-4.80696249 2.00981021 1.39606988 8 15 29269 5.39400000 887086287 887086287 15.00000000
-1.87049627 0.78474808 -0.54351997 4 0 29276 2.10000000 887086308 887086308 -15.00000000
-4.78479338 2.00839448 0.09057799 9 1 29277 5.19000000 887086310 887086310 1.00000000
-2.14889526 0.90242988 -0.53808290 4 2 29278 2.39200000 887086312 887086312 -13.00000000
-4.77273941 2.00529480 0.27130958 6 3 29279 5.18400000 887086315 887086315 3.00000000
-2.49958873 1.05021703 -0.52701443 3 4 29279 2.76200000 887086317 887086317 -11.00000000
-4.77912045 2.00895715 0.45355847 10 5 29280 5.20400000 887086319 887086319 5.00000000
-3.04635453 1.28119528 -0.52342969 3 6 29281 3.34600000 887086322 887086322 -9.00000000
-4.78470421 2.01327014 0.63737667 9 7 29282 5.23000000 887086324 887086324 7.00000000
-3.83114147 1.61282456 -0.51038879 6 8 29283 4.18800000 887086326 887086326 -7.00000000
-4.77914286 2.01191187 0.82128096 9 9 29283 5.25000000 887086328 887086328 9.00000000
-4.78322506 2.01461339 -0.45408142 12 10 29284 5.21000000 887086331 887086331 -5.00000000
-4.77987289 2.01418352 1.00823474 10 11 29285 5.28400000 887086333 887086333 11.00000000
-4.76108360 2.00724483 -0.27078623 10 12 29286 5.17400000 887086335 887086335 -3.00000000
-4.76538372 2.01003718 1.19404018 7 13 29287 5.30800000 887086338 887086338 13.00000000
-4.75145102 2.00513721 -0.09001951 8 14 29288 5.15800000 887086340 887086340 -1.00000000
-4.77535343 2.01522422 1.38882303 8 15 29288 5.36600000 887086342 887086342 15.00000000
-1.86063039 0.78825819 -0.54144943 4 0 29296 2.09200000 887086363 887086363 -15.00000000
-4.73724842 2.00791597 0.08981008 9 1 29297 5.14600000 887086365 887086365 1.00000000
-2.15649676 0.91449028 -0.54078233 4 2 29298 2.40400000 887086368 887086368 -13.00000000
-4.74732399 2.01414180 0.27026287 6 3 29299 5.16400000 887086370 887086370 3.00000000
-2.49952221 1.06046939 -0.52777767 3 4 29299 2.76600000 887086372 887086372 -11.00000000
-4.74273443 2.01317143 0.45076951 7 5 29300 5.17200000 887086375 887086375 5.00000000
-3.05640936 1.29799843 -0.52593267 1 6 29301 3.36200000 887086377 887086377 -9.00000000
-4.74476099 2.01598668 0.63298935 9 7 29302 5.19400000 887086379 887086379 7.00000000
-3.85837221 1.64016652 -0.51477611 6 8 29303 4.22400000 887086381 887086381 -7.00000000
-4.73356295 2.01317954 0.81471068 9 9 29304 5.20800000 887086384 887086384 9.00000000
-4.73216057 2.01258302 -0.44989794 12 10 29304 5.16200000 887086386 887086386 -5.00000000
-4.74390841 2.01855731 1.00212884 10 11 29305 5.25200000 887086388 887086388 11.00000000
-4.73199606 2.01446390 -0.26953018 10 12 29306 5.15000000 887086391 887086391 -3.00000000
-4.73323774 2.01596856 1.18774152 8 13 29307 5.28000000 887086393 887086393 13.00000000
-4.70027161 2.00289679 -0.08918180 8 14 29308 5.11000000 887086395 887086395 -1.00000000
-4.73950148 2.02059102 1.38054073 8 15 29309 5.33400000 887086398 887086398 15.00000000
-1.85240066 0.79279214 -0.53989655 4 0 29317 2.08600000 887086418 887086418 -15.00000000
-4.68941545 2.00794864 0.08904218 9 1 29318 5.10200000 887086421 887086421 1.00000000
-2.16029549 0.92545760 -0.54258192 4 2 29319 2.41200000 887086423 887086423 -13.00000000
-4.71420956 2.02051282 0.26879746 6 3 29320 5.13600000 887086425 887086425 3.00000000
-2.51005459 1.07581079 -0.53083062 3 4 29320 2.78200000 887086428 887086428 -11.00000000
-4.69687033 2.01405168 0.44710895 10 5 29321 5.13000000 887086430 887086430 5.00000000
-3.03347778 1.30140388 -0.52280396 3 6 29322 3.34200000 887086432 887086432 -9.00000000
-4.70997810 2.02161884 0.62933332 9 7 29323 5.16400000 887086434 887086434 7.00000000
-3.83956647 1.64881420 -0.51306993 4 8 29324 4.21000000 887086437 887086437 -7.00000000
-4.69746542 2.01721931 0.80970478 9 9 29324 5.17600000 887086439 887086439 9.00000000
-4.68081808 2.01103830 -0.44571447 9 10 29325 5.11400000 887086441 887086441 -5.00000000
-4.69499350 2.01809907 0.99335164 7 11 29326 5.20600000 887086444 887086444 11.00000000
-4.69338942 2.01838040 -0.26775074 7 12 29327 5.11600000 887086446 887086446 -3.00000000
-4.69001579 2.01789927 1.17874348 8 13 29328 5.24000000 887086448 887086448 13.00000000
-4.68555164 2.01694798 -0.08904218 8 14 29329 5.10200000 887086451 887086451 -1.00000000
-4.70402861 2.02490163 1.37225854 8 15 29329 5.30200000 887086453 887086453 15.00000000
-1.85494220 0.80155230 -0.54144943 4 0 29337 2.09200000 887086474 887086474 -15.00000000
-4.65117407 2.01081562 0.08844879 9 1 29338 5.06800000 887086476 887086476 1.00000000
-2.15705204 0.93299282 -0.54258192 4 2 29339 2.41200000 887086478 887086478 -13.00000000
-4.68513203 2.02743769 0.26754141 6 3 29340 5.11200000 887086481 887086481 3.00000000
-2.49547338 1.07988775 -0.52854091 3 4 29340 2.77000000 887086483 887086483 -11.00000000
-4.65872860 2.01697731 0.44414568 7 5 29341 5.09600000 887086485 887086485 5.00000000
-3.03435445 1.31434023 -0.52374262 3 6 29342 3.34800000 887086487 887086487 -9.00000000
-4.67374992 2.02541828 0.62543344 9 7 29343 5.13200000 887086490 887086490 7.00000000
-3.84471536 1.66694462 -0.51453239 4 8 29344 4.22200000 887086492 887086492 -7.00000000
-4.67227173 2.02574635 0.80657607 9 9 29344 5.15600000 887086494 887086494 9.00000000
-4.29723644 1.86403418 -0.40980631 19 10 29345 4.70200000 887086497 887086497 -5.00000000
-4.65190125 2.01884365 0.98571926 7 11 29346 5.16600000 887086499 887086499 11.00000000
-4.65883541 2.02281928 -0.26618066 7 12 29347 5.08600000 887086501 887086501 -3.00000000
-4.65613270 2.02261162 1.17199504 8 13 29348 5.21000000 887086504 887086504 13.00000000
-4.64547110 2.01894426 -0.08841389 8 14 29349 5.06600000 887086506 887086506 -1.00000000
-4.66149664 2.02590895 1.36190581 8 15 29349 5.26200000 887086508 887086508 15.00000000
-1.85921562 0.81111234 -0.54351997 4 0 29357 2.10000000 887086529 887086529 -15.00000000
-4.62579966 2.01903963 0.08809975 9 1 29358 5.04800000 887086531 887086531 1.00000000
-2.13949490 0.93427771 -0.53898275 4 2 29359 2.39600000 887086534 887086534 -13.00000000
-4.63044071 2.02298975 0.26481995 6 3 29360 5.06000000 887086536 887086536 3.00000000
-2.52047348 1.10116780 -0.53464681 3 4 29360 2.80200000 887086538 887086538 -11.00000000
-4.63705492 2.02684331 0.44275117 7 5 29361 5.08000000 887086540 887086540 5.00000000
-3.02431846 1.32254970 -0.52280396 3 6 29362 3.34200000 887086543 887086543 -9.00000000
-4.62664127 2.02421546 0.62007123 9 7 29363 5.08800000 887086545 887086545 7.00000000
-3.84251022 1.68194699 -0.51501983 4 8 29364 4.22600000 887086547 887086547 -7.00000000
-4.62862635 2.02700901 0.80031872 9 9 29365 5.11600000 887086550 887086550 9.00000000
-4.26697779 1.86863279 -0.40754026 24 10 29365 4.67600000 887086552 887086552 -5.00000000
-4.61965036 2.02403927 0.98037660 10 11 29366 5.13800000 887086554 887086554 11.00000000
-4.60967350 2.02062702 -0.26377323 7 12 29367 5.04000000 887086557 887086557 -3.00000000
-4.61513519 2.02398157 1.16344690 8 13 29368 5.17200000 887086559 887086559 13.00000000
-4.62374592 2.02872014 -0.08813465 8 14 29369 5.05000000 887086561 887086561 -1.00000000
-4.62255335 2.02819681 1.35258830 8 15 29369 5.22600000 887086563 887086563 15.00000000
-1.86167693 0.81993324 -0.54507291 4 0 29377 2.10600000 887086584 887086584 -15.00000000
-4.59859467 2.02630472 0.08771580 9 1 29378 5.02600000 887086587 887086587 1.00000000
-2.13622069 0.94174027 -0.53898275 4 2 29379 2.39600000 887086589 887086589 -13.00000000
-4.59411240 2.02624512 0.26314518 6 3 29380 5.02800000 887086591 887086591 3.00000000
-2.49146605 1.09886754 -0.52930415 3 4 29380 2.77400000 887086593 887086593 -11.00000000
-4.59714079 2.02853918 0.43961358 7 5 29381 5.04400000 887086596 887086596 5.00000000
-3.03956175 1.34187412 -0.52624553 3 6 29382 3.36400000 887086598 887086598 -9.00000000
-4.60502005 2.03393674 0.61812133 9 7 29383 5.07200000 887086600 887086600 7.00000000
-3.82935286 1.69214022 -0.51404488 4 8 29384 4.21800000 887086603 887086603 -7.00000000
-4.59442186 2.03117275 0.79562569 9 9 29385 5.08600000 887086605 887086605 9.00000000
-4.25131750 1.87948787 -0.40666869 16 10 29385 4.66600000 887086607 887086607 -5.00000000
-4.59819317 2.03379941 0.97732365 7 11 29386 5.12200000 887086610 887086610 11.00000000
-4.57884836 2.02619886 -0.26241249 7 12 29387 5.01400000 887086612 887086612 -3.00000000
-4.57953167 2.02745676 1.15624845 7 13 29388 5.14000000 887086614 887086614 13.00000000
-4.57824039 2.02784109 -0.08740165 6 14 29389 5.00800000 887086616 887086616 -1.00000000
-4.59212780 2.03495097 1.34585905 8 15 29390 5.20000000 887086619 887086619 15.00000000
-1.84305930 0.81904155 -0.54041415 4 0 29396 2.08800000 887086640 887086640 -15.00000000
-4.56809568 2.03098202 0.08726203 9 1 29397 5.00000000 887086642 887086642 1.00000000
-2.13842773 0.95119506 -0.54033244 3 2 29398 2.40200000 887086644 887086644 -13.00000000
-4.56729603 2.03253603 0.26199380 8 3 29399 5.00600000 887086646 887086646 3.00000000
-2.49857044 1.11191273 -0.53159386 3 4 29399 2.78600000 887086649 887086649 -11.00000000
-4.56308651 2.03161716 0.43699890 7 5 29400 5.01400000 887086651 887086651 5.00000000
-3.04411745 1.35596514 -0.52780986 1 6 29401 3.37400000 887086653 887086653 -9.00000000
-4.57286549 2.03788376 0.61470896 9 7 29402 5.04400000 887086656 887086656 7.00000000
-3.83459878 1.70967972 -0.51550734 4 8 29403 4.23000000 887086658 887086658 -7.00000000
-4.56060076 2.03432631 0.79093266 9 9 29404 5.05600000 887086660 887086660 9.00000000
-4.22322702 1.88383567 -0.40457696 13 10 29404 4.64200000 887086663 887086663 -5.00000000
-4.57170248 2.04023552 0.97312587 10 11 29405 5.10000000 887086665 887086665 11.00000000
-4.51374483 2.01531506 -0.25906298 12 12 29406 4.95000000 887086667 887086667 -3.00000000
-4.55499029 2.03468394 1.15174937 8 13 29407 5.12000000 887086669 887086669 13.00000000
-4.51124334 2.01608729 -0.08624979 12 14 29408 4.94200000 887086672 887086672 -1.00000000
-4.55749226 2.03675604 1.33757687 8 15 29408 5.16800000 887086674 887086674 15.00000000
-1.83842635 0.82467937 -0.53989655 4 0 29416 2.08600000 887086695 887086695 -15.00000000
-4.50624657 2.02235222 0.08621489 18 1 29417 4.94000000 887086697 887086697 1.00000000
-2.13687205 0.95945197 -0.54078233 4 2 29418 2.40400000 887086699 887086699 -13.00000000
-4.51644802 2.02882481 0.25948167 14 3 29419 4.95800000 887086702 887086702 3.00000000
-2.50183725 1.12384546 -0.53312033 3 4 29419 2.79400000 887086704 887086704 -11.00000000
-4.50508308 2.02466440 0.43211818 9 5 29420 4.95800000 887086706 887086706 5.00000000
-3.02495265 1.36010230 -0.52530694 1 6 29421 3.35800000 887086709 887086709 -9.00000000
-4.51322365 2.03021693 0.60764056 8 7 29422 4.98600000 887086711 887086711 7.00000000
-3.81412578 1.71653712 -0.51355743 4 8 29423 4.21400000 887086713 887086713 -7.00000000
-4.53005600 2.03969026 0.78686535 9 9 29424 5.03000000 887086716 887086716 9.00000000
-4.20390797 1.89284003 -0.40335679 11 10 29424 4.62800000 887086718 887086718 -5.00000000
-4.53233290 2.04166698 0.96625674 10 11 29425 5.06400000 887086720 887086720 11.00000000
-4.51032448 2.03269982 -0.25927234 2 12 29426 4.95400000 887086722 887086722 -3.00000000
-4.52298880 2.03935742 1.14545071 8 13 29427 5.09200000 887086725 887086725 13.00000000
-4.50053310 2.03017759 -0.08617999 2 14 29428 4.93800000 887086727 887086727 -1.00000000
-4.51865768 2.03835344 1.32825935 8 15 29428 5.13200000 887086729 887086729 15.00000000
-1.84243035 0.83460057 -0.54196709 4 0 29437 2.09400000 887086750 887086750 -15.00000000
-2.12801671 0.96486336 -0.53943264 4 2 29439 2.39800000 887086755 887086755 -13.00000000
-2.49412560 1.13138556 -0.53235710 3 4 29440 2.79000000 887086759 887086759 -11.00000000
-4.51758909 2.05022001 0.43403560 2 5 29441 4.98000000 887086762 887086762 5.00000000
-3.03433657 1.37771344 -0.52780986 1 6 29442 3.37400000 887086764 887086764 -9.00000000
-4.48406410 2.03689313 0.60471570 2 7 29443 4.96200000 887086766 887086766 7.00000000
-3.82768822 1.73953950 -0.51623851 6 8 29444 4.23600000 887086768 887086768 -7.00000000
-4.50312614 2.04650068 0.78342378 9 9 29444 5.00800000 887086771 887086771 9.00000000
-4.18424654 1.90246284 -0.40213659 10 10 29445 4.61400000 887086773 887086773 -5.00000000
-4.48192978 2.03875542 0.95709795 10 11 29446 5.01600000 887086775 887086775 11.00000000
-4.46103287 2.03018951 -0.25686488 4 12 29447 4.90800000 887086778 887086778 -3.00000000
-4.49597454 2.04703856 1.14050186 8 13 29448 5.07000000 887086780 887086780 13.00000000
-4.44756699 2.02593565 -0.08530736 6 14 29449 4.88800000 887086782 887086782 -1.00000000
-4.49357557 2.04689336 1.32308292 8 15 29449 5.11200000 887086785 887086785 15.00000000
-1.83599198 0.83942020 -0.54093182 4 0 29457 2.09000000 887086805 887086805 -15.00000000
-4.44619751 2.03375125 0.08534227 9 1 29458 4.89000000 887086808 887086808 1.00000000
-2.12640762 0.97309661 -0.53988254 4 2 29459 2.40000000 887086810 887086810 -13.00000000
-4.44733524 2.03614902 0.25634152 6 3 29460 4.89800000 887086812 887086812 3.00000000
-2.49730134 1.14335382 -0.53388357 3 4 29460 2.79800000 887086815 887086815 -11.00000000
-4.45243979 2.03942609 0.42845762 6 5 29461 4.91600000 887086817 887086817 5.00000000
-3.04028368 1.39323449 -0.52968711 1 6 29462 3.38600000 887086819 887086819 -9.00000000
-4.44264126 2.03681445 0.60008466 4 7 29463 4.92400000 887086821 887086821 7.00000000
-3.87572289 1.77771842 -0.52355069 6 8 29464 4.29600000 887086824 887086824 -7.00000000
-4.47584629 2.05392885 0.77998227 8 9 29465 4.98600000 887086826 887086826 9.00000000
-4.17395830 1.91539502 -0.40178797 10 10 29465 4.61000000 887086828 887086828 -5.00000000
-4.45872831 2.04701567 0.95366335 10 11 29466 4.99800000 887086831 887086831 11.00000000
-4.46480894 2.05075097 -0.25749290 5 12 29467 4.92000000 887086833 887086833 -3.00000000
-4.45692873 2.04807353 1.13240361 11 13 29468 5.03400000 887086835 887086835 13.00000000
-4.45136929 2.04645991 -0.08551679 4 14 29469 4.90000000 887086838 887086838 -1.00000000
-4.46673727 2.05446959 1.31738889 8 15 29470 5.09000000 887086840 887086840 15.00000000
-1.84006715 0.84906149 -0.54300237 4 0 29477 2.09800000 887086861 887086861 -15.00000000
-4.45541143 2.05680227 0.08565641 2 1 29478 4.90800000 887086863 887086863 1.00000000
-2.12299800 0.98051322 -0.53988254 4 2 29479 2.40000000 887086865 887086865 -13.00000000
-4.45325089 2.05674767 0.25707421 2 3 29479 4.91200000 887086868 887086868 3.00000000
-4.50361443 2.08096218 -0.96434867 5 4 29480 5.05400000 887086870 887086870 -11.00000000
-4.45071936 2.05746388 0.42898056 2 5 29481 4.92200000 887086872 887086872 5.00000000
-3.03360891 1.40300941 -0.52937424 3 6 29482 3.38400000 887086874 887086874 -9.00000000
-4.44271088 2.05564404 0.60105962 6 7 29483 4.93200000 887086877 887086877 7.00000000
-3.85147953 1.78289735 -0.52111334 6 8 29484 4.27600000 887086879 887086879 -7.00000000
-4.45968723 2.06538939 0.77841789 14 9 29485 4.97600000 887086881 887086881 9.00000000
-4.16905499 1.93079054 -0.40196228 10 10 29485 4.61200000 887086884 887086884 -5.00000000
-4.45689964 2.06504321 0.95480824 15 11 29486 5.00400000 887086886 887086886 11.00000000
-4.45399904 2.06464362 -0.25728357 10 12 29487 4.91600000 887086888 887086888 -3.00000000
-4.43560934 2.05705976 1.12880445 15 13 29488 5.01800000 887086891 887086891 13.00000000
-4.45871019 2.06871867 -0.08579603 10 14 29489 4.91600000 887086893 887086893 -1.00000000
-4.44938517 2.06439209 1.31428313 14 15 29489 5.07800000 887086895 887086895 15.00000000
-1.83534086 0.85466385 -0.54248470 4 0 29497 2.09600000 887086916 887086916 -15.00000000
-4.46270609 2.07909775 0.08593565 22 1 29498 4.92400000 887086918 887086918 1.00000000
-2.12839389 0.99203420 -0.54213202 3 2 29499 2.41000000 887086920 887086920 -13.00000000
-4.44966507 2.07396746 0.25728357 12 3 29499 4.91600000 887086923 887086923 3.00000000
-2.49281716 1.16241968 -0.53464681 3 4 29500 2.80200000 887086925 887086925 -11.00000000
-4.45614910 2.07888341 0.43020076 9 5 29501 4.93600000 887086927 887086927 5.00000000
-3.02332306 1.41108370 -0.52843565 1 6 29502 3.37800000 887086930 887086930 -9.00000000
-4.45709229 2.08121800 0.60398448 6 7 29503 4.95600000 887086932 887086932 7.00000000
-3.98911405 1.86354601 -0.54061240 8 8 29504 4.43600000 887086934 887086934 -7.00000000
-4.44708157 2.07843471 0.77747929 12 9 29505 4.97000000 887086937 887086937 9.00000000
-4.13160515 1.93099034 -0.39899898 10 10 29505 4.57800000 887086939 887086939 -5.00000000
-4.45144272 2.08141971 0.95518982 45 11 29506 5.00600000 887086941 887086941 11.00000000
-4.47028351 2.09118009 -0.25864428 25 12 29507 4.94200000 887086944 887086944 -3.00000000
-4.42663670 2.07170439 1.12835443 42 13 29508 5.01600000 887086946 887086946 13.00000000
-4.46232796 2.08935761 -0.08600546 24 14 29509 4.92800000 887086948 887086948 -1.00000000
-4.44565105 2.08154917 1.31531835 40 15 29509 5.08200000 887086950 887086950 15.00000000
-1.83234632 0.86106515 -0.54248470 4 0 29517 2.09600000 887086971 887086971 -15.00000000
-4.44999218 2.09211040 0.08583093 22 1 29518 4.91800000 887086973 887086973 1.00000000
-2.13549876 1.00443423 -0.54483145 3 2 29519 2.42200000 887086976 887086976 -13.00000000
-4.46010542 2.09876633 0.25833029 20 3 29520 4.93600000 887086978 887086978 3.00000000
-2.49407363 1.17362189 -0.53579164 3 4 29520 2.80800000 887086980 887086980 -11.00000000
-4.45787859 2.09866881 0.43107229 26 5 29521 4.94600000 887086983 887086983 5.00000000
-3.01837897 1.42162848 -0.52843565 3 6 29522 3.37800000 887086985 887086985 -9.00000000
-4.45518732 2.09930205 0.60471570 19 7 29523 4.96200000 887086987 887086987 7.00000000
-3.98438025 1.87830567 -0.54085612 8 8 29524 4.43800000 887086990 887086990 -7.00000000
-4.44731188 2.09653974 0.77873075 8 9 29524 4.97800000 887086992 887086992 9.00000000
-4.11402750 1.94030118 -0.39795312 7 10 29525 4.56600000 887086994 887086994 -5.00000000
-4.43172121 2.09108090 0.95251852 55 11 29526 4.99200000 887086997 887086997 11.00000000
-4.49185467 2.12041330 -0.26031905 7 12 29527 4.97400000 887086999 887086999 -3.00000000
-4.42466450 2.08964014 1.12970424 56 13 29528 5.02200000 887087001 887087001 13.00000000
-4.46766376 2.11090112 -0.08624979 6 14 29529 4.94200000 887087003 887087003 -1.00000000
-4.42751265 2.09287572 1.31221259 68 15 29530 5.07000000 887087006 887087006 15.00000000
-1.83980274 0.87242234 -0.54559052 4 0 29537 2.10800000 887087026 887087026 -15.00000000
-4.46976280 2.12048769 0.08635451 6 1 29538 4.94800000 887087029 887087029 1.00000000
-2.12669802 1.00937557 -0.54348177 4 2 29539 2.41600000 887087031 887087031 -13.00000000
-4.48018646 2.12639070 0.25990036 6 3 29539 4.96600000 887087033 887087033 3.00000000
-2.48109436 1.17811012 -0.53388357 3 4 29540 2.79800000 887087036 887087036 -11.00000000
-4.47032166 2.12362099 0.43298972 9 5 29541 4.96800000 887087038 887087038 5.00000000
-3.01875067 1.43469977 -0.52937424 3 6 29542 3.38400000 887087040 887087040 -9.00000000
-4.46396685 2.12251234 0.60690933 8 7 29543 4.98000000 887087043 887087043 7.00000000
-4.02619982 1.91522598 -0.54743707 8 8 29544 4.49200000 887087045 887087045 -7.00000000
-4.45565128 2.12046552 0.78154659 10 9 29545 4.99600000 887087047 887087047 9.00000000
-4.10722923 1.95465004 -0.39795312 5 10 29545 4.56600000 887087050 887087050 -5.00000000
-4.44566631 2.11666536 0.95709795 80 11 29546 5.01600000 887087052 887087052 11.00000000
-4.47721291 2.13264418 -0.25990036 17 12 29547 4.96600000 887087054 887087054 -3.00000000
-4.45780516 2.12435412 1.14005196 63 13 29548 5.06800000 887087056 887087056 13.00000000
-4.47831869 2.13508916 -0.08659884 16 14 29549 4.96200000 887087059 887087059 -1.00000000
-4.42889881 2.11247635 1.31480074 70 15 29550 5.08000000 887087061 887087061 15.00000000
-1.82280505 0.87216866 -0.54144943 4 0 29557 2.09200000 887087082 887087082 -15.00000000
-4.46954823 2.13953090 0.08649413 9 1 29558 4.95600000 887087084 887087084 1.00000000
-2.10558581 1.00837588 -0.53898275 4 2 29559 2.39600000 887087086 887087086 -13.00000000
-4.47994184 2.14546728 0.26031905 8 3 29559 4.97400000 887087089 887087089 3.00000000
-2.48581934 1.19100511 -0.53579164 3 4 29560 2.80800000 887087091 887087091 -11.00000000
-4.48264503 2.14868569 0.43490717 21 5 29561 4.99000000 887087093 887087093 5.00000000
-3.00303721 1.44010353 -0.52749699 1 6 29562 3.37200000 887087096 887087096 -9.00000000
-4.46011066 2.13979888 0.60739678 10 7 29563 4.98400000 887087098 887087098 7.00000000
-4.04096556 1.93957615 -0.55036193 8 8 29564 4.51600000 887087100 887087100 -7.00000000
-4.45928001 2.14035821 0.78342378 9 9 29564 5.00800000 887087103 887087103 9.00000000
-4.16324282 1.99916077 -0.40405402 13 10 29565 4.63600000 887087105 887087105 -5.00000000
-4.45594692 2.14067221 0.96091408 80 11 29566 5.03600000 887087107 887087107 11.00000000
-4.47874212 2.15258551 -0.26042372 17 12 29567 4.97600000 887087109 887087109 -3.00000000
-4.44684982 2.13821292 1.13915217 67 13 29568 5.06400000 887087112 887087112 13.00000000
-4.48525476 2.15764332 -0.08687808 16 14 29569 4.97800000 887087114 887087114 -1.00000000
-4.44760895 2.14048958 1.32256532 72 15 29570 5.11000000 887087116 887087116 15.00000000
-1.83366728 0.88524526 -0.54559052 4 0 29577 2.10800000 887087137 887087137 -15.00000000
-4.47645807 2.16207695 0.08677337 9 1 29578 4.97200000 887087139 887087139 1.00000000
-2.11258101 1.02080667 -0.54168212 4 2 29579 2.40800000 887087142 887087142 -13.00000000
-4.48501396 2.16717482 0.26105174 8 3 29579 4.98800000 887087144 887087144 3.00000000
-2.47634411 1.19711161 -0.53464681 3 4 29580 2.80200000 887087146 887087146 -11.00000000
-4.48229170 2.16778970 0.43560439 21 5 29581 4.99800000 887087149 887087149 5.00000000
-4.51477003 2.18446946 -0.79437423 4 6 29582 5.07800000 887087151 887087151 -9.00000000
-4.46690798 2.16227388 0.60934669 8 7 29583 5.00000000 887087153 887087153 7.00000000
-4.00915813 1.94155681 -0.54694963 8 8 29584 4.48800000 887087156 887087156 -7.00000000
-4.45711517 2.15849376 0.78436244 9 9 29584 5.01400000 887087158 887087158 9.00000000
-4.17237663 2.02149940 -0.40562284 38 10 29585 4.65400000 887087160 887087160 -5.00000000
-4.46258068 2.16306400 0.96396703 82 11 29586 5.05200000 887087162 887087162 11.00000000
-4.49276638 2.17866373 -0.26167977 17 12 29587 5.00000000 887087165 887087165 -3.00000000
-4.44286585 2.15542340 1.14005196 63 13 29588 5.06800000 887087167 887087167 13.00000000
-4.48129416 2.17503285 -0.08694789 18 14 29589 4.98200000 887087169 887087169 -1.00000000
-4.44532347 2.15853310 1.32411826 68 15 29590 5.11600000 887087172 887087172 15.00000000
-1.82914007 0.89015615 -0.54507291 4 0 29595 2.10600000 887087192 887087192 -15.00000000
-4.49121857 2.18663383 0.08719222 9 1 29596 4.99600000 887087195 887087195 1.00000000
-2.10936356 1.02743852 -0.54168212 4 2 29597 2.40800000 887087197 887087197 -13.00000000
-4.47638798 2.18037963 0.26094708 8 3 29597 4.98600000 887087199 887087199 3.00000000
-2.46904135 1.20316529 -0.53388357 3 4 29598 2.79800000 887087202 887087202 -11.00000000
-4.47187757 2.18011427 0.43525577 21 5 29599 4.99400000 887087204 887087204 5.00000000
-3.01472569 1.47037995 -0.53125143 1 6 29600 3.39600000 887087206 887087206 -9.00000000
-4.47971773 2.18587208 0.61202782 9 7 29601 5.02200000 887087208 887087208 7.00000000
-4.00839043 1.95675492 -0.54768085 8 8 29602 4.49400000 887087211 887087211 -7.00000000
-4.45741272 2.17595196 0.78561389 9 9 29602 5.02200000 887087213 887087213 9.00000000
-4.12840891 2.01623631 -0.40196228 31 10 29603 4.61200000 887087215 887087215 -5.00000000
-4.46987486 2.18396783 0.96701998 80 11 29604 5.06800000 887087218 887087218 11.00000000
-4.49128246 2.19539881 -0.26199380 17 12 29605 5.00600000 887087220 887087220 -3.00000000
-4.44657612 2.17450714 1.14275134 63 13 29606 5.08000000 887087222 887087222 13.00000000
-4.47443867 2.18910050 -0.08694789 18 14 29607 4.98200000 887087225 887087225 -1.00000000
-4.44410563 2.17426014 1.32567120 74 15 29607 5.12200000 887087227 887087227 15.00000000
-1.81908524 0.89312994 -0.54300237 4 0 29615 2.09800000 887087248 887087248 -15.00000000
-4.47458458 2.19788957 0.08701770 9 1 29616 4.98600000 887087250 887087250 1.00000000
-2.11800718 1.04081154 -0.54483145 4 2 29617 2.42200000 887087252 887087252 -13.00000000
-4.48846722 2.20568132 0.26209846 8 3 29617 5.00800000 887087255 887087255 3.00000000
-2.47539759 1.21697354 -0.53617328 3 4 29618 2.81000000 887087257 887087257 -11.00000000
-4.46424055 2.19571090 0.43525577 11 5 29619 4.99400000 887087259 887087259 5.00000000
-3.00071263 1.47653365 -0.52968711 1 6 29620 3.38600000 887087261 887087261 -9.00000000
-4.48096514 2.20587969 0.61324656 9 7 29621 5.03200000 887087264 887087264 7.00000000
-4.03180981 1.98564470 -0.55182439 8 8 29622 4.52800000 887087266 887087266 -7.00000000
-4.46219492 2.19760728 0.78780395 9 9 29622 5.03600000 887087268 887087268 9.00000000
-4.12134600 2.03063464 -0.40196228 31 10 29623 4.61200000 887087271 887087271 -5.00000000
-4.46574593 2.20129323 0.96778321 80 11 29624 5.07200000 887087273 887087273 11.00000000
-4.51046133 2.22431326 -0.26356387 10 12 29625 5.03600000 887087275 887087275 -3.00000000
-4.45293951 2.19691300 1.14635062 58 13 29626 5.09600000 887087278 887087278 13.00000000
-4.48111534 2.21178651 -0.08722713 16 14 29627 4.99800000 887087280 887087280 -1.00000000
-4.43264198 2.18882322 1.32463586 72 15 29628 5.11800000 887087282 887087282 15.00000000
-1.81737339 0.90096623 -0.54351997 4 0 29637 2.10000000 887087303 887087303 -15.00000000
-4.47686100 2.22038555 0.08722713 20 1 29638 4.99800000 887087305 887087305 1.00000000
-2.09828401 1.04114079 -0.54078233 4 2 29639 2.40400000 887087308 887087308 -13.00000000
-4.49209976 2.22989774 0.26283118 8 3 29640 5.02200000 887087310 887087310 3.00000000
-2.46718955 1.22472358 -0.53541005 3 4 29640 2.80600000 887087312 887087312 -11.00000000
-4.46648312 2.21815324 0.43630165 9 5 29641 5.00600000 887087314 887087314 5.00000000
-2.98794484 1.48452890 -0.52843565 3 6 29642 3.37800000 887087317 887087317 -9.00000000
-4.47601748 2.22483611 0.61373401 9 7 29643 5.03600000 887087319 887087319 7.00000000
-4.01704597 1.99757552 -0.55084944 8 8 29644 4.52000000 887087321 887087321 -7.00000000
-4.47494888 2.22527933 0.79155838 9 9 29644 5.06000000 887087324 887087324 9.00000000
-4.10103178 2.04023242 -0.40074211 34 10 29645 4.59800000 887087326 887087326 -5.00000000
-4.45726061 2.21842432 0.96778321 77 11 29646 5.07200000 887087328 887087328 11.00000000
-4.49473572 2.23805475 -0.26314518 15 12 29647 5.02800000 887087331 887087331 -3.00000000
-4.45493698 2.21920824 1.14905000 67 13 29648 5.10800000 887087333 887087333 13.00000000
-4.49406672 2.23967981 -0.08764599 16 14 29649 5.02200000 887087335 887087335 -1.00000000
-4.44533825 2.21539521 1.33084750 74 15 29649 5.14200000 887087338 887087338 15.00000000
-1.82631207 0.91335326 -0.54714346 4 0 29657 2.11400000 887087358 887087358 -15.00000000
-4.47623634 2.23957825 0.08736674 20 1 29658 5.00600000 887087361 887087361 1.00000000
-2.09812236 1.05020344 -0.54168212 4 2 29659 2.40800000 887087363 887087363 -13.00000000
-4.48607445 2.24645877 0.26293585 8 3 29660 5.02400000 887087365 887087365 3.00000000
-2.46289945 1.23332822 -0.53541005 3 4 29660 2.80600000 887087367 887087367 -11.00000000
-4.48008966 2.24443984 0.43839338 9 5 29661 5.03000000 887087370 887087370 5.00000000
-2.97921252 1.49317944 -0.52780986 1 6 29662 3.37400000 887087372 887087372 -9.00000000
-4.46467495 2.23866725 0.61324656 9 7 29663 5.03200000 887087374 887087374 7.00000000
-4.02069473 2.01692605 -0.55231184 10 8 29664 4.53200000 887087377 887087377 -7.00000000
-4.47382498 2.24520993 0.79280984 9 9 29665 5.06800000 887087379 887087379 9.00000000
-4.09922695 2.05721641 -0.40126503 31 10 29665 4.60400000 887087381 887087381 -5.00000000
-4.46001720 2.23925495 0.97007293 77 11 29666 5.08400000 887087384 887087384 11.00000000
-4.48689604 2.25373077 -0.26314518 20 12 29667 5.02800000 887087386 887087386 -3.00000000
-4.44716311 2.23474550 1.14905000 63 13 29668 5.10800000 887087388 887087388 13.00000000
-4.50230122 2.26343703 -0.08796013 14 14 29669 5.04000000 887087391 887087391 -1.00000000
-4.44064045 2.23340940 1.33188283 74 15 29670 5.14600000 887087393 887087393 15.00000000
-1.81966317 0.91798246 -0.54610819 4 0 29677 2.11000000 887087414 887087414 -15.00000000
-4.48981428 2.26600146 0.08778560 18 1 29678 5.03000000 887087416 887087416 1.00000000
-2.09792280 1.05927753 -0.54258192 4 2 29679 2.41200000 887087418 887087418 -13.00000000
-4.48177099 2.26390553 0.26314518 8 3 29680 5.02800000 887087420 887087420 3.00000000
-2.47259831 1.24899924 -0.53846300 3 4 29680 2.82200000 887087423 887087423 -11.00000000
-4.48467493 2.26635504 0.43961358 9 5 29681 5.04400000 887087425 887087425 5.00000000
-2.98632240 1.50980866 -0.52999997 3 6 29682 3.38800000 887087427 887087427 -9.00000000
-4.47631836 2.26409388 0.61592764 9 7 29683 5.05400000 887087430 887087430 7.00000000
-4.03665590 2.04260015 -0.55548048 24 8 29684 4.55800000 887087432 887087432 -7.00000000
-4.46459246 2.25914145 0.79249698 9 9 29684 5.06600000 887087434 887087434 9.00000000
-4.10090923 2.07601213 -0.40213659 100 10 29685 4.61400000 887087437 887087437 -5.00000000
-4.46618509 2.26190591 0.97312587 70 11 29686 5.10000000 887087439 887087439 11.00000000
-4.49859953 2.27930880 -0.26429659 17 12 29687 5.05000000 887087441 887087441 -3.00000000
-4.44628811 2.25377965 1.15084958 65 13 29688 5.11600000 887087444 887087444 13.00000000
-4.50150681 2.28275704 -0.08809975 14 14 29689 5.04800000 887087446 887087446 -1.00000000
-4.45043945 2.25686026 1.33705914 74 15 29689 5.16600000 887087448 887087448 15.00000000
-1.81472600 0.92345250 -0.54559052 4 0 29697 2.10800000 887087469 887087469 -15.00000000
-4.49791527 2.28982496 0.08809975 15 1 29698 5.04800000 887087471 887087471 1.00000000
-2.08900285 1.06394100 -0.54123223 4 2 29699 2.40600000 887087473 887087473 -13.00000000
-4.49341631 2.28951001 0.26429659 8 3 29700 5.05000000 887087476 887087476 3.00000000
-2.45422935 1.25049222 -0.53541005 3 4 29700 2.80600000 887087478 887087478 -11.00000000
-4.48383713 2.28561497 0.44031081 9 5 29701 5.05200000 887087480 887087480 5.00000000
-2.99863172 1.52919781 -0.53312868 3 6 29702 3.40800000 887087483 887087483 -9.00000000
-4.48076582 2.28602028 0.61763382 9 7 29703 5.06800000 887087485 887087485 7.00000000
-4.04541397 2.06480026 -0.55767411 20 8 29704 4.57600000 887087487 887087487 -7.00000000
-4.46331930 2.27908325 0.79374850 9 9 29705 5.07400000 887087490 887087490 9.00000000
-4.08299065 2.08487797 -0.40109074 91 10 29705 4.60200000 887087492 887087492 -5.00000000
-4.46875238 2.28284073 0.97541559 84 11 29706 5.11200000 887087494 887087494 11.00000000
-4.51373577 2.30681396 -0.26565731 15 12 29707 5.07600000 887087496 887087496 -3.00000000
-4.44706964 2.27372193 1.15309906 69 13 29708 5.12600000 887087499 887087499 13.00000000
-4.48995018 2.29663491 -0.08802994 10 14 29709 5.04400000 887087501 887087501 -1.00000000
-4.44901657 2.27667689 1.33912969 76 15 29710 5.17400000 887087503 887087503 15.00000000
-1.80993485 0.92858344 -0.54507291 4 0 29716 2.10600000 887087524 887087524 -15.00000000
-4.48496008 2.30198884 0.08799503 13 1 29717 5.04200000 887087526 887087526 1.00000000
-2.10799956 1.08243454 -0.54708099 4 2 29718 2.43200000 887087529 887087529 -13.00000000
-4.49823523 2.31078649 0.26502928 8 3 29719 5.06400000 887087531 887087531 3.00000000
-2.44657636 1.25682974 -0.53464681 3 4 29719 2.80200000 887087533 887087533 -11.00000000
-4.47623301 2.30047131 0.44031081 9 5 29720 5.05200000 887087536 887087536 5.00000000
-2.99705768 1.54093981 -0.53375441 3 6 29721 3.41200000 887087538 887087538 -9.00000000
-4.48728275 2.30813050 0.61958373 9 7 29722 5.08400000 887087540 887087540 7.00000000
-4.04560518 2.08183718 -0.55864906 20 8 29723 4.58400000 887087543 887087543 -7.00000000
-4.46667624 2.29851699 0.79562569 9 9 29723 5.08600000 887087545 887087545 9.00000000
-4.07782602 2.09931803 -0.40126503 99 10 29724 4.60400000 887087547 887087547 -5.00000000
-4.46813917 2.30124283 0.97694206 73 11 29725 5.12000000 887087549 887087549 11.00000000
-4.52026510 2.32908773 -0.26649469 10 12 29726 5.09200000 887087552 887087552 -3.00000000
-4.45509434 2.29649234 1.15714824 67 13 29727 5.14400000 887087554 887087554 13.00000000
-4.50008249 2.32067680 -0.08837899 8 14 29728 5.06400000 887087556 887087556 -1.00000000
-4.44184256 2.29064274 1.33912969 74 15 29728 5.17400000 887087559 887087559 15.00000000
-1.80839825 0.93578351 -0.54559052 4 0 29736 2.10800000 887087579 887087579 -15.00000000
-4.48577690 2.32222676 0.08816956 11 1 29737 5.05200000 887087582 887087582 1.00000000
-2.09901690 1.08709764 -0.54573125 4 2 29738 2.42600000 887087584 887087584 -13.00000000
-4.51319551 2.33841896 0.26639003 14 3 29739 5.09000000 887087586 887087586 3.00000000
-2.43868804 1.26355588 -0.53388357 3 4 29739 2.79800000 887087589 887087589 -11.00000000
-4.48409557 2.32433438 0.44187963 9 5 29740 5.07000000 887087591 887087591 5.00000000
-2.97412443 1.54229832 -0.53062570 3 6 29741 3.39200000 887087593 887087593 -9.00000000
-4.48448467 2.32652235 0.62031496 9 7 29742 5.09000000 887087596 887087596 7.00000000
-4.03478956 2.09411740 -0.55816162 16 8 29743 4.58000000 887087598 887087598 -7.00000000
-4.46874046 2.32033443 0.79750288 13 9 29744 5.09800000 887087600 887087600 9.00000000
-4.08108282 2.11904836 -0.40231091 100 10 29744 4.61600000 887087602 887087602 -5.00000000
-4.46007872 2.31682539 0.97694206 84 11 29745 5.12000000 887087605 887087605 11.00000000
-4.51033497 2.34393120 -0.26639003 10 12 29746 5.09000000 887087607 887087607 -3.00000000
-4.46434116 2.32101893 1.16164720 73 13 29747 5.16400000 887087609 887087609 13.00000000
-4.50792122 2.34467554 -0.08869313 8 14 29748 5.08200000 887087612 887087612 -1.00000000
-4.44884062 2.31493306 1.34378850 65 15 29749 5.19200000 887087614 887087614 15.00000000
-1.80854607 0.94387794 -0.54662585 4 0 29756 2.11200000 887087635 887087635 -15.00000000
-4.49536943 2.34712625 0.08851860 11 1 29757 5.07200000 887087637 887087637 1.00000000
-2.07793641 1.08539557 -0.54123223 3 2 29758 2.40600000 887087639 887087639 -13.00000000
-4.50677538 2.35508370 0.26649469 14 3 29759 5.09200000 887087642 887087642 3.00000000
-2.45514250 1.28297186 -0.53846300 3 4 29759 2.82200000 887087644 887087644 -11.00000000
-4.49537706 2.35012627 0.44379705 10 5 29760 5.09200000 887087646 887087646 5.00000000
-2.97572446 1.55633247 -0.53187716 3 6 29761 3.40000000 887087649 887087649 -9.00000000
-4.47985411 2.34400249 0.62080246 9 7 29762 5.09400000 887087651 887087651 7.00000000
-4.00283337 2.09530020 -0.55474925 18 8 29763 4.55200000 887087653 887087653 -7.00000000
-4.48202276 2.34613371 0.80125731 24 9 29763 5.12200000 887087655 887087655 9.00000000
-4.07366085 2.13328099 -0.40231091 100 10 29764 4.61600000 887087658 887087658 -5.00000000
-4.46587706 2.33966875 0.97999501 78 11 29765 5.13600000 887087660 887087660 11.00000000
-4.50566387 2.36151528 -0.26659936 10 12 29766 5.09400000 887087662 887087662 -3.00000000
-4.45448637 2.33568311 1.16119730 68 13 29767 5.16200000 887087665 887087665 13.00000000
-4.51387596 2.36782837 -0.08897237 8 14 29768 5.09800000 887087667 887087667 -1.00000000
-4.46337938 2.34133935 1.35051775 27 15 29768 5.21800000 887087669 887087669 15.00000000
-1.80865932 0.95198476 -0.54766113 4 0 29776 2.11600000 887087690 887087690 -15.00000000
-4.49422646 2.36653042 0.08865822 15 1 29777 5.08000000 887087692 887087692 1.00000000
-2.08448005 1.09809184 -0.54393166 3 2 29778 2.41800000 887087695 887087695 -13.00000000
-4.49499321 2.36893868 0.26628536 12 3 29779 5.08800000 887087697 887087697 3.00000000
-2.44717550 1.28970349 -0.53769976 3 4 29779 2.81800000 887087699 887087699 -11.00000000
-4.50829554 2.37695456 0.44588879 10 5 29780 5.11600000 887087702 887087702 5.00000000
-2.97376823 1.56855345 -0.53250289 3 6 29781 3.40400000 887087704 887087704 -9.00000000
-4.49095678 2.36981678 0.62348354 9 7 29782 5.11600000 887087706 887087706 7.00000000
-3.98145103 2.10184598 -0.55279934 22 8 29783 4.53600000 887087708 887087708 -7.00000000
-4.48911428 2.37084794 0.80407315 42 9 29784 5.14000000 887087711 887087711 9.00000000
-4.06971312 2.14934874 -0.40265954 100 10 29784 4.62000000 887087713 887087713 -5.00000000
-4.46809769 2.36074615 0.98228472 76 11 29785 5.14800000 887087715 887087715 11.00000000
-4.50269032 2.38002872 -0.26691338 10 12 29786 5.10000000 887087718 887087718 -3.00000000
-4.45147419 2.35395098 1.16254699 70 13 29787 5.16800000 887087720 887087720 13.00000000
-4.50204802 2.38170004 -0.08890256 8 14 29788 5.09400000 887087722 887087722 -1.00000000
-4.45989037 2.36039376 1.35207069 19 15 29789 5.22400000 887087725 887087725 15.00000000
-1.80224621 0.95585179 -0.54662585 4 0 29794 2.11200000 887087745 887087745 -15.00000000
-4.50796700 2.39188480 0.08907709 11 1 29795 5.10400000 887087748 887087748 1.00000000
-2.08618379 1.10737610 -0.54528135 4 2 29796 2.42400000 887087750 887087750 -13.00000000
-4.49987698 2.38960552 0.26701805 14 3 29797 5.10200000 887087752 887087752 3.00000000
-2.43964386 1.29554355 -0.53693652 3 4 29797 2.81400000 887087755 887087755 -11.00000000
-4.50256538 2.39204073 0.44606310 10 5 29798 5.11800000 887087757 887087757 5.00000000
-2.97580290 1.58159637 -0.53375441 3 6 29799 3.41200000 887087759 887087759 -9.00000000
-4.49400616 2.38950539 0.62494600 11 7 29800 5.12800000 887087761 887087761 7.00000000
-3.97658086 2.11527586 -0.55304307 32 8 29801 4.53800000 887087764 887087764 -7.00000000
-4.46985197 2.37766337 0.80188304 54 9 29801 5.12600000 887087766 887087766 9.00000000
-4.05238771 2.15650749 -0.40161365 100 10 29802 4.60800000 887087768 887087768 -5.00000000
-4.47625589 2.38307476 0.98571926 47 11 29803 5.16600000 887087771 887087771 11.00000000
-4.51634502 2.40542912 -0.26816943 10 12 29804 5.12400000 887087773 887087773 -3.00000000
-4.46125555 2.37708783 1.16704607 75 13 29805 5.18800000 887087775 887087775 13.00000000
-4.50513124 2.40147567 -0.08911198 8 14 29806 5.10600000 887087778 887087778 -1.00000000
-4.46991491 2.38270354 1.35724711 19 15 29806 5.24400000 887087780 887087780 15.00000000
-1.79378819 0.95940363 -0.54507291 4 0 29814 2.10600000 887087801 887087801 -15.00000000
-4.50135374 2.40854955 0.08911198 9 1 29815 5.10600000 887087803 887087803 1.00000000
-2.08058739 1.11373174 -0.54483145 3 2 29816 2.42200000 887087805 887087805 -13.00000000
-4.50559378 2.41284156 0.26785544 14 3 29817 5.11800000 887087808 887087808 3.00000000
-2.42818379 1.30034435 -0.53541005 3 4 29817 2.80600000 887087810 887087810 -11.00000000
-4.49945641 2.41056561 0.44658601 10 5 29818 5.12400000 887087812 887087812 5.00000000
-2.96329975 1.58824158 -0.53250289 3 6 29819 3.40400000 887087814 887087814 -9.00000000
-4.50313234 2.41455841 0.62738335 11 7 29820 5.14800000 887087817 887087817 7.00000000
-3.97966886 2.13477397 -0.55450553 16 8 29821 4.55000000 887087819 887087819 -7.00000000
-4.47893238 2.40258908 0.80501175 81 9 29821 5.14600000 887087821 887087821 9.00000000
-4.03254652 2.16404510 -0.40039349 100 10 29822 4.59400000 887087824 887087824 -5.00000000
-4.47136974 2.40054250 0.98648250 13 11 29823 5.17000000 887087826 887087826 11.00000000
-4.52375650 2.42968488 -0.26911148 10 12 29824 5.14200000 887087828 887087828 -3.00000000
-4.47353029 2.40371466 1.17244494 71 13 29825 5.21200000 887087831 887087831 13.00000000
-4.17967844 2.24676251 -0.08282912 16 14 29826 4.74600000 887087833 887087833 -1.00000000
-4.44625616 2.39005995 1.35258830 46 15 29826 5.22600000 887087835 887087835 15.00000000
-1.79195988 0.96688914 -0.54559052 4 0 29835 2.10800000 887087856 887087856 -15.00000000
-4.49777460 2.42788124 0.08921670 9 1 29836 5.11200000 887087858 887087858 1.00000000
-2.08335018 1.12505388 -0.54663104 4 2 29837 2.43000000 887087861 887087861 -13.00000000
-4.51429176 2.43883252 0.26890215 12 3 29838 5.13800000 887087863 887087863 3.00000000
-2.44412923 1.32043326 -0.53998947 5 4 29838 2.83000000 887087865 887087865 -11.00000000
-4.50110769 2.43272471 0.44763190 10 5 29839 5.13600000 887087867 887087867 5.00000000
-2.94703293 1.59345472 -0.53062570 1 6 29840 3.39200000 887087870 887087870 -9.00000000
-4.50298262 2.43576932 0.62860209 9 7 29841 5.15800000 887087872 887087872 7.00000000
-3.92642546 2.12478185 -0.54816830 8 8 29842 4.49800000 887087874 887087874 -7.00000000
-4.47836018 2.42447162 0.80657607 78 9 29843 5.15600000 887087877 887087877 9.00000000
-4.03860426 2.18639898 -0.40178797 89 10 29843 4.61000000 887087879 887087879 -5.00000000
-4.26546097 2.31113911 -0.25424808 9 12 29845 4.85800000 887087884 887087884 -3.00000000
-4.47496939 2.42566657 1.17514431 67 13 29846 5.22400000 887087886 887087886 13.00000000
-4.13625860 2.24300170 -0.08213103 22 14 29847 4.70600000 887087888 887087888 -1.00000000
-4.46463823 2.42107463 1.36087048 42 15 29847 5.25800000 887087890 887087890 15.00000000
-1.80384636 0.98144788 -0.55024928 4 0 29855 2.12600000 887087911 887087911 -15.00000000
-4.50332355 2.45121455 0.08949594 9 1 29856 5.12800000 887087914 887087914 1.00000000
-2.06914163 1.12672758 -0.54393166 3 2 29857 2.41800000 887087916 887087916 -13.00000000
-4.51101303 2.45744181 0.26921615 12 3 29858 5.14400000 887087918 887087918 3.00000000
-4.24111843 2.31041265 -0.93878025 5 4 29858 4.92000000 887087920 887087920 -11.00000000
-4.50658417 2.45604920 0.44902638 10 5 29859 5.15200000 887087923 887087923 5.00000000
-2.95879626 1.61318803 -0.53375441 3 6 29860 3.41200000 887087925 887087925 -9.00000000
-4.49619532 2.45242333 0.62884581 9 7 29861 5.16000000 887087927 887087927 7.00000000
-3.87019348 2.11185074 -0.54134363 18 8 29862 4.44200000 887087930 887087930 -7.00000000
-4.49067593 2.45144725 0.81033051 78 9 29863 5.18000000 887087932 887087932 9.00000000
-4.05717993 2.21480274 -0.40440264 100 10 29863 4.64000000 887087934 887087934 -5.00000000
-4.46958494 2.44094634 0.98991704 81 11 29864 5.18800000 887087937 887087937 11.00000000
-4.15045166 2.26760054 -0.24786308 21 12 29865 4.73600000 887087939 887087939 -3.00000000
-4.48015499 2.44874954 1.17874348 67 13 29866 5.24000000 887087941 887087941 13.00000000
-4.21086645 2.30251718 -0.08377155 18 14 29867 4.80000000 887087943 887087943 -1.00000000
-4.47776747 2.44947481 1.36759984 12 15 29868 5.28400000 887087946 887087946 15.00000000
-1.79719412 0.98556644 -0.54921401 4 0 29874 2.12200000 887087967 887087967 -15.00000000
-4.50919533 2.47382951 0.08977518 9 1 29875 5.14400000 887087969 887087969 1.00000000
-2.07222724 1.13733339 -0.54573125 3 2 29876 2.42600000 887087971 887087971 -13.00000000
-4.49758673 2.46950364 0.26890215 12 3 29877 5.13800000 887087973 887087973 3.00000000
-4.23343325 2.32446408 -0.93878025 5 4 29877 4.92000000 887087976 887087976 -11.00000000
-4.51413155 2.47961307 0.45059520 10 5 29878 5.17000000 887087978 887087978 5.00000000
-2.94823670 1.62013686 -0.53281581 1 6 29879 3.40600000 887087980 887087980 -9.00000000
-4.50021505 2.47401404 0.63055199 9 7 29880 5.17400000 887087983 887087983 7.00000000
-3.86142969 2.12371659 -0.54109991 34 8 29881 4.44000000 887087985 887087985 -7.00000000
-4.49290609 2.47203875 0.81220776 78 9 29882 5.19200000 887087987 887087987 9.00000000
-4.06901455 2.23880959 -0.40632007 100 10 29882 4.66200000 887087990 887087990 -5.00000000
-4.49070454 2.47184849 0.99640459 76 11 29883 5.22200000 887087992 887087992 11.00000000
-4.12366438 2.27075386 -0.24671170 27 12 29884 4.71400000 887087994 887087994 -3.00000000
-4.47713089 2.46641374 1.18009329 69 13 29885 5.24600000 887087996 887087996 13.00000000
-4.26625586 2.35121536 -0.08502813 22 14 29886 4.87200000 887087999 887087999 -1.00000000
-4.47512579 2.46632743 1.36915278 17 15 29886 5.29000000 887088001 887088001 15.00000000
-1.78190863 0.98529011 -0.54559052 4 0 29894 2.10800000 887088022 887088022 -15.00000000
-4.50753212 2.49342608 0.08991480 9 1 29895 5.15200000 887088024 887088024 1.00000000
-2.07677007 1.14927781 -0.54798079 4 2 29896 2.43600000 887088026 887088026 -13.00000000
-4.51689672 2.50066590 0.27057689 8 3 29897 5.17000000 887088029 887088029 3.00000000
