# .PCD v0.7 - Point Cloud Data file format
VERSION 0.7
FIELDS x y z intensity laser_id azimuth distance_m adjustedtime timestamp vertical_angle
SIZE 4 4 4 1 1 2 8 8 4 8
TYPE F F F U U U F U U F
COUNT 1 1 1 1 1 1 1 1 1 1
WIDTH 540
HEIGHT 1
VIEWPOINT 0 0 0 1 0 0 0
POINTS 540
DATA ascii
1.99130535 -0.86584425 -0.58182520 4 0 11350 2.24800000 885636610 885636610 -15.00000000
5.06651735 -2.20403600 0.09644200 25 1 11351 5.52600000 885636612 885636612 1.00000000
2.33897400 -1.01798582 -0.58892184 3 2 11352 2.61800000 885636615 885636615 -13.00000000
5.19547892 -2.26121521 0.29695421 26 3 11352 5.67400000 885636617 885636617 3.00000000
2.77741861 -1.20938551 -0.58883655 5 4 11353 3.08600000 885636619 885636619 -11.00000000
5.26787329 -2.29491067 0.50271434 30 5 11354 5.76800000 885636622 885636622 5.00000000
3.45329285 -1.50511920 -0.59664106 6 6 11355 3.81400000 885636624 885636624 -9.00000000
8.64864922 -3.77131367 1.15848994 27 7 11356 9.50600000 885636626 885636626 7.00000000
4.55961800 -1.98920572 -0.61080915 8 8 11357 5.01200000 885636629 885636629 -7.00000000
6.04007959 -2.63508058 1.04373074 22 9 11357 6.67200000 885636631 885636631 9.00000000
6.73622370 -2.94018388 -0.64303505 8 10 11358 7.37800000 885636633 885636633 -5.00000000
5.89954472 -2.57622170 1.25132537 12 11 11359 6.55800000 885636635 885636635 11.00000000
4.92144489 -2.15012646 -0.28146276 22 12 11360 5.37800000 885636638 885636638 -3.00000000
8.67452526 -3.79161024 2.18562436 29 13 11361 9.71600000 885636640 885636640 13.00000000
8.34671497 -3.65179563 2.44118118 33 15 11363 9.43200000 885636645 885636645 15.00000000
1.99357772 -0.87511945 -0.58337814 4 0 11370 2.25400000 885636665 885636665 -15.00000000
5.07160950 -2.22733665 0.09668633 72 1 11371 5.54000000 885636668 885636668 1.00000000
2.32113361 -1.01987290 -0.58532262 3 2 11372 2.60200000 885636670 885636670 -13.00000000
5.19486809 -2.28255081 0.29737291 26 3 11372 5.68200000 885636672 885636672 3.00000000
2.77497745 -1.21986330 -0.58921820 5 4 11373 3.08800000 885636675 885636675 -11.00000000
5.27259684 -2.31889987 0.50393450 33 5 11374 5.78200000 885636677 885636677 5.00000000
3.43897748 -1.51318634 -0.59507668 6 6 11375 3.80400000 885636679 885636679 -9.00000000
8.59909534 -3.78548408 1.15361524 6 7 11376 9.46600000 885636681 885636681 7.00000000
4.54356337 -2.00110888 -0.60959047 8 8 11377 5.00200000 885636684 885636684 -7.00000000
6.04530716 -2.66251802 1.04623365 22 9 11377 6.68800000 885636686 885636686 9.00000000
6.69310093 -2.94921899 -0.63989747 8 10 11378 7.34200000 885636688 885636688 -5.00000000
5.87434816 -2.58967161 1.24789083 12 11 11379 6.54000000 885636691 885636691 11.00000000
4.84446764 -2.13666487 -0.27748525 46 12 11380 5.30200000 885636693 885636693 -3.00000000
8.53287029 -3.76522326 2.15323138 15 13 11381 9.57200000 885636695 885636695 13.00000000
4.81487226 -2.12561965 -0.09186947 38 14 11382 5.26400000 885636698 885636698 -1.00000000
8.34869766 -3.68569589 2.44532228 40 15 11382 9.44800000 885636700 885636700 15.00000000
1.98521221 -0.87972498 -0.58182520 4 0 11390 2.24800000 885636721 885636721 -15.00000000
5.08756876 -2.25556254 0.09714010 26 1 11391 5.56600000 885636723 885636723 1.00000000
2.32468486 -1.03112948 -0.58712226 3 2 11392 2.61000000 885636725 885636725 -13.00000000
5.18139172 -2.29824090 0.29705888 21 3 11392 5.67600000 885636728 885636728 3.00000000
2.76352429 -1.22635698 -0.58769172 5 4 11393 3.08000000 885636730 885636730 -11.00000000
5.28632212 -2.34699225 0.50602627 30 5 11394 5.80600000 885636732 885636732 5.00000000
3.43367457 -1.52518141 -0.59507668 6 6 11395 3.80400000 885636734 885636734 -9.00000000
8.53503609 -3.79290533 1.14679050 6 7 11396 9.41000000 885636737 885636737 7.00000000
4.52566671 -2.01211810 -0.60812801 8 8 11397 4.99000000 885636739 885636739 -7.00000000
6.02875614 -2.68039370 1.04498219 22 9 11397 6.68000000 885636741 885636741 9.00000000
6.64453697 -2.95555973 -0.63623691 4 10 11398 7.30000000 885636744 885636744 -5.00000000
5.85630465 -2.60617018 1.24598277 12 11 11399 6.53000000 885636746 885636746 11.00000000
4.80961132 -2.14137697 -0.27591518 44 12 11400 5.27200000 885636748 885636748 -3.00000000
8.69412708 -3.87269306 2.19732189 45 13 11401 9.76800000 885636751 885636751 13.00000000
4.75262737 -2.11799431 -0.09082232 38 14 11402 5.20400000 885636753 885636753 -1.00000000
8.34395504 -3.72020411 2.44791055 40 15 11403 9.45800000 885636755 885636755 15.00000000
1.98228395 -0.88630331 -0.58182520 4 0 11409 2.24800000 885636776 885636776 -15.00000000
5.08918810 -2.27650380 0.09731462 26 1 11410 5.57600000 885636778 885636778 1.00000000
2.32481027 -1.04042482 -0.58802205 3 2 11411 2.61400000 885636781 885636781 -13.00000000
5.19156647 -2.32447505 0.29810560 19 3 11412 5.69600000 885636783 885636783 3.00000000
2.75406694 -1.23310757 -0.58654684 5 4 11412 3.07400000 885636785 885636785 -11.00000000
5.27851009 -2.36450934 0.50602627 30 5 11413 5.80600000 885636787 885636787 5.00000000
3.42859817 -1.53655946 -0.59507668 4 6 11414 3.80400000 885636790 885636790 -9.00000000
8.46625996 -3.79601097 1.13923466 6 7 11415 9.34800000 885636792 885636792 7.00000000
4.51715851 -2.02630210 -0.60788429 8 8 11416 4.98800000 885636794 885636794 -7.00000000
6.02343941 -2.70198798 1.04560792 25 9 11416 6.68400000 885636797 885636797 9.00000000
6.63106394 -2.97594595 -0.63588828 4 10 11417 7.29600000 885636799 885636799 -5.00000000
5.86374903 -2.63281345 1.24941730 12 11 11418 6.54800000 885636801 885636801 11.00000000
4.78062105 -2.14749360 -0.27465910 44 12 11419 5.24800000 885636804 885636804 -3.00000000
8.70256710 -3.91108871 2.20272064 58 13 11420 9.79200000 885636806 885636806 13.00000000
4.72733974 -2.12554240 -0.09047327 40 14 11421 5.18400000 885636808 885636808 -1.00000000
8.33574963 -3.74798346 2.44894576 38 15 11421 9.46200000 885636811 885636811 15.00000000
1.97213483 -0.89003867 -0.57975465 4 0 11429 2.24000000 885636831 885636831 -15.00000000
4.90078020 -2.21278715 0.09385904 30 1 11430 5.37800000 885636834 885636834 1.00000000
2.33182001 -1.05334711 -0.59072149 3 2 11431 2.62600000 885636836 885636836 -13.00000000
2.74437857 -1.24028790 -0.58540201 5 4 11432 3.06800000 885636840 885636840 -11.00000000
5.26840878 -2.38209939 0.50585192 27 5 11433 5.80400000 885636843 885636843 5.00000000
3.41961408 -1.54688990 -0.59445095 4 6 11434 3.80000000 885636845 885636845 -9.00000000
8.46019173 -3.82881451 1.14020956 6 7 11435 9.35600000 885636847 885636847 7.00000000
4.50282431 -2.03878260 -0.60690933 8 8 11436 4.98000000 885636850 885636850 -7.00000000
6.02429152 -2.72893739 1.04748523 25 9 11437 6.69600000 885636852 885636852 9.00000000
6.63333941 -3.00482941 -0.63710850 4 10 11437 7.31000000 885636854 885636854 -5.00000000
5.84737062 -2.65002418 1.24789083 12 11 11438 6.54000000 885636857 885636857 11.00000000
4.75854349 -2.15756989 -0.27382171 47 12 11439 5.23200000 885636859 885636859 -3.00000000
8.72435570 -3.95754313 2.21171880 64 13 11440 9.83200000 885636861 885636861 13.00000000
4.69257689 -2.12963510 -0.08994970 44 14 11441 5.15400000 885636864 885636864 -1.00000000
8.31316185 -3.77451706 2.44635773 40 15 11442 9.45200000 885636866 885636866 15.00000000
1.96901596 -0.89691728 -0.57975465 4 0 11449 2.24000000 885636887 885636887 -15.00000000
4.67648840 -2.13119864 0.08970537 49 1 11450 5.14000000 885636889 885636889 1.00000000
2.31039739 -1.05339587 -0.58622247 3 2 11451 2.60600000 885636891 885636891 -13.00000000
5.21882391 -2.38055539 0.30061772 9 3 11452 5.74400000 885636893 885636893 3.00000000
2.74896359 -1.25393391 -0.58731008 5 4 11452 3.07800000 885636896 885636896 -11.00000000
5.29268789 -2.41536450 0.50898951 30 5 11453 5.84000000 885636898 885636898 5.00000000
3.40700579 -1.55553544 -0.59319949 6 6 11454 3.79200000 885636900 885636900 -9.00000000
8.45399761 -3.86162186 1.14118457 6 7 11455 9.36400000 885636903 885636903 7.00000000
4.50109673 -2.05696321 -0.60764056 8 8 11456 4.98600000 885636905 885636905 -7.00000000
6.03317595 -2.75711036 1.05061388 25 9 11456 6.71600000 885636907 885636907 9.00000000
6.59925461 -3.01719594 -0.63484246 4 10 11457 7.28400000 885636910 885636910 -5.00000000
5.82915783 -2.66633582 1.24598277 12 11 11458 6.53000000 885636912 885636912 11.00000000
4.70739651 -2.15422058 -0.27130958 70 12 11459 5.18400000 885636914 885636914 -3.00000000
8.57759762 -3.92713094 2.17797613 17 13 11460 9.68200000 885636917 885636917 13.00000000
4.67602444 -2.14183831 -0.08977518 74 14 11461 5.14400000 885636919 885636919 -1.00000000
8.30762482 -3.80528164 2.44842815 42 15 11461 9.46000000 885636921 885636921 15.00000000
1.97640467 -0.90862668 -0.58286047 4 0 11469 2.25200000 885636942 885636942 -15.00000000
4.63813639 -2.13330436 0.08911198 49 1 11470 5.10600000 885636944 885636944 1.00000000
4.67183256 -2.14979100 -1.18729162 5 2 11471 5.27800000 885636946 885636946 -13.00000000
5.21411085 -2.40042853 0.30082709 21 3 11472 5.74800000 885636949 885636949 3.00000000
2.75170302 -1.26680601 -0.58883655 5 4 11472 3.08600000 885636951 885636951 -11.00000000
5.29327250 -2.43799210 0.50986111 25 5 11473 5.85000000 885636953 885636953 5.00000000
3.40514326 -1.56907201 -0.59382522 6 6 11474 3.79600000 885636956 885636956 -9.00000000
8.46209908 -3.90108109 1.14410937 6 7 11475 9.38800000 885636958 885636958 7.00000000
4.48307371 -2.06767392 -0.60617810 8 8 11476 4.97400000 885636960 885636960 -7.00000000
6.04455328 -2.78913617 1.05436826 25 9 11477 6.74000000 885636963 885636963 9.00000000
6.61943674 -3.05440426 -0.63780570 4 10 11477 7.31800000 885636965 885636965 -5.00000000
5.81981516 -2.68666720 1.24598277 12 11 11478 6.53000000 885636967 885636967 11.00000000
4.71616697 -2.17817640 -0.27225164 78 12 11479 5.20200000 885636969 885636969 -3.00000000
8.56383705 -3.95704842 2.17797613 21 13 11480 9.68200000 885636972 885636972 13.00000000
4.68304062 -2.16486049 -0.09005442 76 14 11481 5.16000000 885636974 885636974 -1.00000000
8.30238914 -3.83975983 2.45101643 40 15 11482 9.47000000 885636976 885636976 15.00000000
1.97672570 -0.91714621 -0.58389574 4 0 11489 2.25600000 885636997 885636997 -15.00000000
4.60164022 -2.13601041 0.08855351 49 1 11490 5.07400000 885636999 885636999 1.00000000
4.65546274 -2.16198158 -1.18504214 7 2 11491 5.26800000 885637002 885637002 -13.00000000
5.20569992 -2.41861439 0.30082709 23 3 11492 5.74800000 885637004 885637004 3.00000000
2.74014258 -1.27309453 -0.58731008 5 4 11492 3.07800000 885637006 885637006 -11.00000000
5.30460453 -2.46569228 0.51177853 15 5 11493 5.87200000 885637009 885637009 5.00000000
3.39606309 -1.57928264 -0.59319949 6 6 11494 3.79200000 885637011 885637011 -9.00000000
8.48802662 -3.94901776 1.14947164 2 7 11495 9.43200000 885637013 885637013 7.00000000
4.47402906 -2.08247256 -0.60593438 8 8 11496 4.97200000 885637016 885637016 -7.00000000
6.05318022 -2.81750107 1.05749702 25 9 11496 6.76000000 885637018 885637018 9.00000000
6.73877811 -3.13804913 -0.65035617 8 10 11497 7.46200000 885637020 885637020 -5.00000000
5.81751966 -2.71028209 1.24750924 12 11 11498 6.53800000 885637022 885637022 11.00000000
8.58706188 -4.00421286 2.18742394 7 13 11500 9.72400000 885637027 885637027 13.00000000
8.30011463 -3.87217069 2.45412207 40 15 11501 9.48200000 885637032 885637032 15.00000000
1.96651399 -0.92076397 -0.58182520 4 0 11509 2.24800000 885637052 885637052 -15.00000000
4.57604742 -2.14357734 0.08820447 51 1 11510 5.05400000 885637055 885637055 1.00000000
2.29571080 -1.07587814 -0.58532262 3 2 11511 2.60200000 885637057 885637057 -13.00000000
5.20988417 -2.44270611 0.30155978 23 3 11512 5.76200000 885637059 885637059 3.00000000
2.72501636 -1.27765107 -0.58502036 5 4 11512 3.06600000 885637062 885637062 -11.00000000
5.29776907 -2.48503971 0.51195282 12 5 11513 5.87400000 885637064 885637064 5.00000000
3.39589453 -1.59364510 -0.59413809 6 6 11514 3.79800000 885637066 885637066 -9.00000000
6.43290949 -3.02024341 0.87258452 12 7 11515 7.16000000 885637069 885637069 7.00000000
4.45954561 -2.09470129 -0.60495943 8 8 11516 4.96400000 885637071 885637071 -7.00000000
6.04996395 -2.84302878 1.05874848 25 9 11517 6.76800000 885637073 885637073 9.00000000
6.74942160 -3.17172122 -0.65244788 12 10 11517 7.48600000 885637075 885637075 -5.00000000
5.80447006 -2.72890186 1.24674594 12 11 11518 6.53400000 885637078 885637078 11.00000000
8.60477161 -4.04909801 2.19552231 6 13 11520 9.76000000 885637082 885637082 13.00000000
8.28411865 -3.90174294 2.45360446 40 15 11522 9.48000000 885637087 885637087 15.00000000
1.95613980 -0.92466301 -0.57975465 4 0 11530 2.24000000 885637108 885637108 -15.00000000
4.54104424 -2.14751148 0.08768089 54 1 11531 5.02400000 885637110 885637110 1.00000000
2.30936742 -1.09261930 -0.58982164 3 2 11532 2.62200000 885637112 885637112 -13.00000000
5.21533823 -2.46862078 0.30239716 23 3 11533 5.77800000 885637115 885637115 3.00000000
2.72031546 -1.28763020 -0.58502036 5 4 11533 3.06600000 885637117 885637117 -11.00000000
5.29402733 -2.50699854 0.51247579 12 5 11534 5.88000000 885637119 885637119 5.00000000
3.38646030 -1.60438955 -0.59351236 6 6 11535 3.79400000 885637122 885637122 -9.00000000
6.38233328 -3.02509594 0.86722225 35 7 11536 7.11600000 885637124 885637124 7.00000000
4.44466352 -2.10763025 -0.60398448 8 8 11537 4.95600000 885637126 885637126 -7.00000000
6.06499147 -2.87597895 1.06312859 25 9 11537 6.79600000 885637128 885637128 9.00000000
6.76655293 -3.21010137 -0.65523690 4 10 11538 7.51800000 885637131 885637131 -5.00000000
5.78024054 -2.74342370 1.24369299 12 11 11539 6.51800000 885637133 885637133 11.00000000
4.67466831 -2.21969557 -0.27120492 2 12 11540 5.18200000 885637135 885637135 -3.00000000
4.72266960 -2.24349856 1.20708740 11 13 11541 5.36600000 885637138 885637138 13.00000000
4.71932840 -2.24292111 -0.09120627 2 14 11542 5.22600000 885637140 885637140 -1.00000000
8.26346970 -3.92731929 2.45153403 42 15 11542 9.47200000 885637142 885637142 15.00000000
1.95290017 -0.93148559 -0.57975465 4 0 11550 2.24000000 885637163 885637163 -15.00000000
4.51005840 -2.15215397 0.08722713 63 1 11551 4.99800000 885637165 885637165 1.00000000
2.28443599 -1.09059906 -0.58442283 3 2 11552 2.59800000 885637168 885637168 -13.00000000
5.23372269 -2.49972248 0.30396724 23 3 11553 5.80800000 885637170 885637170 3.00000000
2.71934724 -1.29881036 -0.58578360 5 4 11553 3.07000000 885637172 885637172 -11.00000000
4.58953333 -2.19302940 0.44501722 30 5 11554 5.10600000 885637175 885637175 5.00000000
3.37192822 -1.61194086 -0.59194803 6 6 11555 3.78400000 885637177 885637177 -9.00000000
6.32875490 -3.02680063 0.86137253 55 7 11556 7.06800000 885637179 885637179 7.00000000
4.43190765 -2.12056184 -0.60325325 8 8 11557 4.95000000 885637181 885637181 -7.00000000
6.08469915 -2.91268849 1.06844735 17 9 11558 6.83000000 885637184 885637184 9.00000000
4.59878397 -2.20139456 -0.44606310 9 10 11558 5.11800000 885637186 885637186 -5.00000000
4.59490061 -2.20052171 0.99029869 10 11 11559 5.19000000 885637188 885637188 11.00000000
4.58583784 -2.19716525 -0.26649469 7 12 11560 5.09200000 885637191 885637191 -3.00000000
4.60937214 -2.20943046 1.18009329 28 13 11561 5.24600000 885637193 885637193 13.00000000
4.81604958 -2.30953169 -0.09323075 2 14 11562 5.34200000 885637195 885637195 -1.00000000
8.25598717 -3.96092248 2.45360446 40 15 11563 9.48000000 885637198 885637198 15.00000000
1.95311832 -0.93997234 -0.58078992 4 0 11570 2.24400000 885637218 885637218 -15.00000000
4.50612211 -2.16961884 0.08729694 74 1 11571 5.00200000 885637221 885637221 1.00000000
2.27710390 -1.09687519 -0.58352304 3 2 11572 2.59400000 885637223 885637223 -13.00000000
5.21416998 -2.51277399 0.30333921 23 3 11573 5.79600000 885637225 885637225 3.00000000
2.71479702 -1.30829465 -0.58578360 5 4 11573 3.07000000 885637228 885637228 -11.00000000
4.56569815 -2.20124912 0.44344842 30 5 11574 5.08800000 885637230 885637230 5.00000000
3.36628103 -1.62370121 -0.59194803 4 6 11575 3.78400000 885637232 885637232 -9.00000000
6.29490948 -3.03765821 0.85820389 10 7 11576 7.04200000 885637234 885637234 7.00000000
4.43520451 -2.14119720 -0.60471570 10 8 11577 4.96200000 885637237 885637237 -7.00000000
4.53802156 -2.19083452 0.79812866 31 9 11577 5.10200000 885637239 885637239 9.00000000
4.58748341 -2.21570086 -0.44571447 12 10 11578 5.11400000 885637241 885637241 -5.00000000
4.56244373 -2.20458913 0.98495603 31 11 11579 5.16200000 885637244 885637244 11.00000000
4.56375504 -2.20620537 -0.26565731 10 12 11580 5.07600000 885637246 885637246 -3.00000000
4.57005358 -2.21023440 1.17199504 42 13 11581 5.21000000 885637248 885637248 13.00000000
8.24628448 -3.98996139 2.45463991 40 15 11582 9.48400000 885637253 885637253 15.00000000
1.94982529 -0.94678426 -0.58078992 4 0 11590 2.24400000 885637274 885637274 -15.00000000
4.50211859 -2.18708253 0.08736674 54 1 11591 5.00600000 885637276 885637276 1.00000000
2.28027201 -1.10822439 -0.58532262 3 2 11592 2.60200000 885637278 885637278 -13.00000000
4.42941189 -2.15367365 0.25812092 6 3 11593 4.93200000 885637281 885637281 3.00000000
2.70844793 -1.31690466 -0.58540201 5 4 11593 3.06800000 885637283 885637283 -11.00000000
4.48811197 -2.18318343 0.43665028 47 5 11594 5.01000000 885637285 885637285 5.00000000
3.37124991 -1.64062822 -0.59382522 4 6 11595 3.79600000 885637287 885637287 -9.00000000
4.47448397 -2.17848611 0.61105287 60 7 11596 5.01400000 885637290 885637290 7.00000000
4.43305683 -2.15927386 -0.60544688 10 8 11597 4.96800000 885637292 885637292 -7.00000000
4.49837971 -2.19109154 0.79249698 47 9 11597 5.06600000 885637294 885637294 9.00000000
4.55464649 -2.21948171 -0.44327411 21 10 11598 5.08600000 885637297 885637297 -5.00000000
4.54060268 -2.21361899 0.98190308 39 11 11599 5.14600000 885637299 885637299 11.00000000
4.54166508 -2.21511817 -0.26481995 10 12 11600 5.06000000 885637301 885637301 -3.00000000
4.54829979 -2.21933675 1.16839576 51 13 11601 5.19400000 885637304 885637304 13.00000000
4.84653091 -2.36590576 -0.09413828 2 14 11602 5.39400000 885637306 885637306 -1.00000000
8.24272251 -4.02380705 2.45774555 40 15 11602 9.49600000 885637308 885637308 15.00000000
1.93973494 -0.94984657 -0.57871938 4 0 11609 2.23600000 885637329 885637329 -15.00000000
4.48765802 -2.19848108 0.08722713 49 1 11610 4.99800000 885637331 885637331 1.00000000
2.28358388 -1.11921048 -0.58712226 3 2 11611 2.61000000 885637334 885637334 -13.00000000
2.70582891 -1.32674325 -0.58578360 5 4 11612 3.07000000 885637338 885637338 -11.00000000
4.42718458 -2.17173052 0.43142092 52 5 11613 4.95000000 885637340 885637340 5.00000000
3.35869765 -1.64831758 -0.59257376 4 6 11614 3.78800000 885637343 885637343 -9.00000000
4.44228888 -2.18106389 0.60764056 48 7 11615 4.98600000 885637345 885637345 7.00000000
4.44725323 -2.18446469 -0.60837173 8 8 11616 4.99200000 885637347 885637347 -7.00000000
4.45170069 -2.18761396 0.78561389 47 9 11617 5.02200000 885637350 885637350 9.00000000
4.54189682 -2.23193717 -0.44275117 25 10 11617 5.08000000 885637352 885637352 -5.00000000
4.53147507 -2.22779775 0.98152149 55 11 11618 5.14400000 885637354 885637354 11.00000000
4.53429461 -2.23016667 -0.26481995 10 12 11619 5.06000000 885637357 885637357 -3.00000000
4.53916693 -2.23354697 1.16794586 51 13 11620 5.19200000 885637359 885637359 13.00000000
4.72563124 -2.32632351 -0.09193928 2 14 11621 5.26800000 885637361 885637361 -1.00000000
8.22586727 -4.04941225 2.45671034 42 15 11621 9.49200000 885637363 885637363 15.00000000
1.93813956 -0.95746732 -0.57923704 4 0 11629 2.23800000 885637384 885637384 -15.00000000
4.44768810 -2.19818449 0.08659884 42 1 11630 4.96200000 885637387 885637387 1.00000000
2.27616954 -1.12544739 -0.58622247 3 2 11631 2.60600000 885637389 885637389 -13.00000000
4.39137697 -2.17226124 0.25676021 44 3 11632 4.90600000 885637391 885637391 3.00000000
2.69590211 -1.33356881 -0.58463877 5 4 11632 3.06400000 885637393 885637393 -11.00000000
4.38743448 -2.17126417 0.42828333 49 5 11633 4.91400000 885637396 885637396 5.00000000
3.33876109 -1.65301979 -0.59007078 4 6 11634 3.77200000 885637398 885637398 -9.00000000
4.41863871 -2.18862724 0.60544688 57 7 11635 4.96800000 885637400 885637400 7.00000000
4.43426514 -2.19733095 -0.60764056 8 8 11636 4.98600000 885637403 885637403 -7.00000000
4.45819616 -2.21015906 0.78811681 63 9 11637 5.03800000 885637405 885637405 9.00000000
4.47695589 -2.21945930 -0.43717322 9 10 11637 5.01600000 885637407 885637407 -5.00000000
4.52718878 -2.24534678 0.98228472 63 11 11638 5.14800000 885637410 885637410 11.00000000
4.52827120 -2.24686837 -0.26492462 10 12 11639 5.06200000 885637412 885637412 -3.00000000
4.52261496 -2.24504566 1.16569638 48 13 11640 5.18200000 885637414 885637414 13.00000000
4.76942110 -2.36859870 -0.09295151 2 14 11641 5.32600000 885637416 885637416 -1.00000000
8.19193935 -4.07007885 2.45101643 45 15 11642 9.47000000 885637419 885637419 15.00000000
1.93132746 -0.96250349 -0.57820177 4 0 11649 2.23400000 885637440 885637440 -15.00000000
4.40240622 -2.19495893 0.08586584 42 1 11650 4.92000000 885637442 885637442 1.00000000
2.26176405 -1.12816691 -0.58352304 3 2 11651 2.59400000 885637444 885637444 -13.00000000
4.37304497 -2.18222594 0.25613216 50 3 11652 4.89400000 885637446 885637446 3.00000000
2.69650054 -1.34560108 -0.58578360 5 4 11652 3.07000000 885637449 885637449 -11.00000000
4.37091541 -2.18211651 0.42741176 51 5 11653 4.90400000 885637451 885637451 5.00000000
3.32943630 -1.66289890 -0.58944505 4 6 11654 3.76800000 885637453 885637453 -9.00000000
4.40386915 -2.20048857 0.60447192 65 7 11655 4.96000000 885637456 885637456 7.00000000
4.43189478 -2.21545887 -0.60837173 8 8 11656 4.99200000 885637458 885637458 -7.00000000
4.46635485 -2.23365974 0.79093266 47 9 11657 5.05600000 885637460 885637460 9.00000000
4.45848942 -2.22972631 -0.43612733 9 10 11657 5.00400000 885637463 885637463 -5.00000000
5.68163586 -2.84267116 1.23491585 12 11 11658 6.47200000 885637465 885637465 11.00000000
4.42217016 -2.21349239 -0.25916764 17 12 11659 4.95200000 885637467 885637467 -3.00000000
4.50081110 -2.25383830 1.16209710 36 13 11660 5.16600000 885637469 885637469 13.00000000
4.75397253 -2.38164997 -0.09281190 2 14 11661 5.31800000 885637472 885637472 -1.00000000
8.16458035 -4.09029961 2.44687533 45 15 11661 9.45400000 885637474 885637474 15.00000000
1.93485999 -0.97271013 -0.58027232 4 0 11669 2.24200000 885637495 885637495 -15.00000000
4.37328005 -2.19953084 0.08544698 40 1 11670 4.89600000 885637497 885637497 1.00000000
2.25433064 -1.13430321 -0.58262324 3 2 11671 2.59000000 885637499 885637499 -13.00000000
4.34399319 -2.18670106 0.25487611 72 3 11672 4.87000000 885637502 885637502 3.00000000
2.68652630 -1.35235715 -0.58463877 4 4 11672 3.06400000 885637504 885637504 -11.00000000
4.35259533 -2.19198346 0.42636588 20 5 11673 4.89200000 885637506 885637506 5.00000000
3.32361126 -1.67451060 -0.58944505 4 6 11674 3.76800000 885637509 885637509 -9.00000000
4.41388750 -2.22478247 0.60690933 31 7 11675 4.98000000 885637511 885637511 7.00000000
4.40995407 -2.22376513 -0.60642183 6 8 11676 4.97600000 885637513 885637513 -7.00000000
6.05640602 -3.05533171 1.07439196 25 9 11677 6.86800000 885637516 885637516 9.00000000
4.44534254 -2.24258351 -0.43560439 9 10 11677 4.99800000 885637518 885637518 -5.00000000
5.68745279 -2.87044764 1.23835039 21 11 11678 6.49000000 885637520 885637520 11.00000000
4.41085052 -2.22711492 -0.25895831 30 12 11679 4.94800000 885637522 885637522 -3.00000000
4.49639511 -2.27129245 1.16299701 15 13 11680 5.17000000 885637525 885637525 13.00000000
8.11749268 -4.10221910 2.43704009 47 15 11681 9.41600000 885637529 885637529 15.00000000
1.93679309 -0.98174131 -0.58182520 4 0 11688 2.24800000 885637550 885637550 -15.00000000
4.35526133 -2.20859456 0.08523756 40 1 11689 4.88400000 885637552 885637552 1.00000000
2.25403237 -1.14353597 -0.58352304 3 2 11690 2.59400000 885637555 885637555 -13.00000000
4.33175850 -2.19762659 0.25456208 78 3 11690 4.86400000 885637557 885637557 3.00000000
2.68202686 -1.36125863 -0.58463877 4 4 11691 3.06400000 885637559 885637559 -11.00000000
4.35773754 -2.21271944 0.42758608 6 5 11692 4.90600000 885637562 885637562 5.00000000
3.31099558 -1.68194437 -0.58819360 6 6 11693 3.76000000 885637564 885637564 -9.00000000
8.29445744 -4.21530199 1.14240324 47 7 11694 9.37400000 885637566 885637566 7.00000000
4.39193869 -2.23297906 -0.60495943 6 8 11695 4.96400000 885637568 885637568 -7.00000000
6.08903837 -3.09582973 1.08190072 40 9 11695 6.91600000 885637571 885637571 9.00000000
4.39170933 -2.23382711 -0.43107229 9 10 11696 4.94600000 885637573 885637573 -5.00000000
5.67440319 -2.88751149 1.23758709 18 11 11697 6.48600000 885637575 885637575 11.00000000
4.49599504 -2.28884745 -0.26440126 10 12 11698 5.05200000 885637578 885637578 -3.00000000
4.52356815 -2.30387878 1.17199504 4 13 11699 5.21000000 885637580 885637580 13.00000000
8.06425476 -4.10894299 2.42513442 45 15 11700 9.37000000 885637585 885637585 15.00000000
1.92131388 -0.98233986 -0.57820177 4 0 11708 2.23400000 885637605 885637605 -15.00000000
4.33684349 -2.21831989 0.08502813 38 1 11709 4.87200000 885637608 885637608 1.00000000
2.25349665 -1.15317249 -0.58442283 4 2 11710 2.59800000 885637610 885637610 -13.00000000
4.30767441 -2.20529699 0.25362006 22 3 11711 4.84600000 885637612 885637612 3.00000000
2.66677356 -1.36524439 -0.58234906 4 4 11711 3.05200000 885637615 885637615 -11.00000000
4.35708094 -2.23155046 0.42828333 4 5 11712 4.91400000 885637617 885637617 5.00000000
3.33674884 -1.70970595 -0.59382522 4 6 11713 3.79600000 885637619 885637619 -9.00000000
8.24612904 -4.22702408 1.13777220 49 7 11714 9.33600000 885637621 885637621 7.00000000
4.38058472 -2.24648428 -0.60447192 6 8 11715 4.96000000 885637624 885637624 -7.00000000
6.04952955 -3.10369897 1.07689488 40 9 11716 6.88400000 885637626 885637626 9.00000000
4.36083984 -2.23732018 -0.42880625 25 10 11716 4.92000000 885637628 885637628 -5.00000000
5.65730286 -2.90371513 1.23606062 18 11 11717 6.47800000 885637631 885637631 11.00000000
4.46132755 -2.29084277 -0.26283118 7 12 11718 5.02200000 885637633 885637633 -3.00000000
4.57963419 -2.35260201 1.18864143 2 13 11719 5.28400000 885637635 885637635 13.00000000
4.70785332 -2.41950798 -0.09239304 2 14 11720 5.29400000 885637638 885637638 -1.00000000
8.00618935 -4.11638880 2.41219354 45 15 11721 9.32000000 885637640 885637640 15.00000000
1.91100526 -0.98549873 -0.57613117 4 0 11728 2.22600000 885637661 885637661 -15.00000000
4.31841087 -2.22794366 0.08481870 31 1 11729 4.86000000 885637663 885637663 1.00000000
2.24599433 -1.15924406 -0.58352304 3 2 11730 2.59400000 885637665 885637665 -13.00000000
5.24275589 -2.70598793 0.30920082 23 3 11730 5.90800000 885637668 885637668 3.00000000
2.66722512 -1.37724710 -0.58349389 5 4 11731 3.05800000 885637670 885637670 -11.00000000
4.31917191 -2.23120046 0.42532003 9 5 11732 4.88000000 885637672 885637672 5.00000000
3.30268264 -1.70683217 -0.58881932 6 6 11733 3.76400000 885637674 885637674 -9.00000000
4.35508442 -2.25264168 -0.60203457 6 8 11735 4.94000000 885637679 885637679 -7.00000000
6.02813244 -3.11934972 1.07501769 37 9 11736 6.87200000 885637681 885637681 9.00000000
4.35300350 -2.25252867 -0.42880625 48 10 11736 4.92000000 885637684 885637684 -5.00000000
5.62969780 -2.91441941 1.23224449 21 11 11737 6.45800000 885637686 885637686 11.00000000
4.32738400 -2.24118686 -0.25539947 4 12 11738 4.88000000 885637688 885637688 -3.00000000
4.59042740 -2.37843513 1.19359028 3 13 11739 5.30600000 885637691 885637691 13.00000000
4.61061096 -2.38991356 -0.09064780 2 14 11740 5.19400000 885637693 885637693 -1.00000000
7.94790125 -4.11980057 2.39873481 45 15 11740 9.26800000 885637695 885637695 15.00000000
1.91955078 -0.99840343 -0.57975465 4 0 11748 2.24000000 885637716 885637716 -15.00000000
4.29641628 -2.23561978 0.08453946 25 1 11749 4.84400000 885637718 885637718 1.00000000
2.23847699 -1.16527736 -0.58262324 3 2 11750 2.59000000 885637720 885637720 -13.00000000
5.25453711 -2.73533893 0.31045690 21 3 11750 5.93200000 885637723 885637723 3.00000000
2.67110753 -1.39108324 -0.58540201 4 4 11751 3.06800000 885637725 885637725 -11.00000000
4.30428934 -2.24258137 0.42462277 24 5 11752 4.87200000 885637727 885637727 5.00000000
3.28269076 -1.71104586 -0.58631635 6 6 11753 3.74800000 885637730 885637730 -9.00000000
4.32646847 -2.25605726 0.59910971 6 7 11754 4.91600000 885637732 885637732 7.00000000
4.34015465 -2.26415753 -0.60105962 6 8 11755 4.93200000 885637734 885637734 -7.00000000
6.01020193 -3.13671708 1.07376611 40 9 11756 6.86400000 885637737 885637737 9.00000000
5.60034657 -2.92405772 1.22804666 21 11 11757 6.43600000 885637741 885637741 11.00000000
4.31068277 -2.25165510 -0.25487611 9 12 11758 4.87000000 885637744 885637744 -3.00000000
4.59418726 -2.40076208 1.19673955 2 13 11759 5.32000000 885637746 885637746 13.00000000
4.52781057 -2.36708212 -0.08918180 2 14 11760 5.11000000 885637748 885637748 -1.00000000
7.89238405 -4.12603855 2.38631153 45 15 11760 9.22000000 885637750 885637750 15.00000000
1.91434324 -1.00420046 -0.57923704 4 0 11768 2.23800000 885637771 885637771 -15.00000000
4.29743958 -2.25524974 0.08471398 21 1 11769 4.85400000 885637773 885637773 1.00000000
2.22749400 -1.16946054 -0.58082360 3 2 11770 2.58200000 885637776 885637776 -13.00000000
5.25508547 -2.76015162 0.31108493 23 3 11771 5.94400000 885637778 885637778 3.00000000
2.65928316 -1.39674699 -0.58387554 4 4 11771 3.06000000 885637780 885637780 -11.00000000
4.30349016 -2.26129937 0.42532003 29 5 11772 4.88000000 885637783 885637783 5.00000000
3.28718925 -1.72800910 -0.58819360 6 6 11773 3.76000000 885637785 885637785 -9.00000000
4.31153917 -2.26744986 0.59813476 8 7 11774 4.90800000 885637787 885637787 7.00000000
4.31817055 -2.27189946 -0.59910971 4 8 11775 4.91600000 885637790 885637790 -7.00000000
5.98228550 -3.14743257 1.07063746 37 9 11775 6.84400000 885637792 885637792 9.00000000
4.42356300 -2.32833481 -0.43734753 3 10 11776 5.01800000 885637794 885637794 -5.00000000
5.58489418 -2.94084454 1.22690189 21 11 11777 6.43000000 885637797 885637797 11.00000000
4.27098989 -2.24993253 -0.25299200 9 12 11778 4.83400000 885637799 885637799 -3.00000000
4.59784698 -2.42314410 1.19988894 2 13 11779 5.33400000 885637801 885637801 13.00000000
4.22942209 -2.22992134 -0.08345741 15 14 11780 4.78200000 885637803 885637803 -1.00000000
7.83790731 -4.13420820 2.37440586 45 15 11781 9.17400000 885637806 885637806 15.00000000
1.91082621 -1.01087654 -0.57923704 4 0 11788 2.23800000 885637826 885637826 -15.00000000
4.30191326 -2.27678466 0.08495831 25 1 11789 4.86800000 885637829 885637829 1.00000000
2.22856498 -1.17996442 -0.58217335 4 2 11790 2.58800000 885637831 885637831 -13.00000000
5.25296402 -2.78130126 0.31150362 19 3 11790 5.95200000 885637833 885637833 3.00000000
2.64745188 -1.40234530 -0.58234906 4 4 11791 3.05200000 885637836 885637836 -11.00000000
4.29380989 -2.27537465 0.42514572 33 5 11792 4.87800000 885637838 885637838 5.00000000
3.29160905 -1.74502456 -0.59007078 6 6 11793 3.77200000 885637840 885637840 -9.00000000
4.30359793 -2.28248596 0.59813476 8 7 11794 4.90800000 885637843 885637843 7.00000000
4.31021357 -2.28695869 -0.59910971 4 8 11795 4.91600000 885637845 885637845 -7.00000000
5.95151663 -3.15914989 1.06719589 40 9 11796 6.82200000 885637847 885637847 9.00000000
4.27462244 -2.26903033 -0.42340261 8 10 11796 4.85800000 885637850 885637850 -5.00000000
5.56939316 -2.95755935 1.22575700 25 11 11797 6.42400000 885637852 885637852 11.00000000
4.22959805 -2.24702358 -0.25100324 7 12 11798 4.79600000 885637854 885637854 -3.00000000
4.59280205 -2.44100809 1.20078874 2 13 11799 5.33800000 885637856 885637856 13.00000000
4.19336224 -2.22965026 -0.08289893 33 14 11800 4.75000000 885637859 885637859 -1.00000000
7.78761196 -4.14249039 2.36353540 45 15 11801 9.13200000 885637861 885637861 15.00000000
1.90387714 -1.01572180 -0.57820177 4 0 11808 2.23400000 885637882 885637882 -15.00000000
4.31510925 -2.30308604 0.08537717 40 1 11809 4.89200000 885637884 885637884 1.00000000
2.22615170 -1.18865430 -0.58262324 3 2 11810 2.59000000 885637886 885637886 -13.00000000
5.25555658 -2.80620575 0.31223631 11 3 11810 5.96600000 885637889 885637889 3.00000000
2.64080906 -1.41065300 -0.58196741 5 4 11811 3.05000000 885637891 885637891 -11.00000000
4.25948334 -2.27626324 0.42253104 36 5 11812 4.84800000 885637893 885637893 5.00000000
3.27504539 -1.75091577 -0.58819360 6 6 11813 3.76000000 885637896 885637896 -9.00000000
4.30085564 -2.30030322 0.59886593 17 7 11814 4.91400000 885637898 885637898 7.00000000
4.30920553 -2.30573654 -0.60008466 6 8 11815 4.92400000 885637900 885637900 -7.00000000
5.91314030 -3.16395736 1.06219006 47 9 11815 6.79000000 885637903 885637903 9.00000000
4.23154449 -2.26513219 -0.41991636 11 10 11816 4.81800000 885637905 885637905 -5.00000000
5.55730438 -2.97605515 1.22537541 28 11 11817 6.42200000 885637907 885637907 11.00000000
4.20940495 -2.25517154 -0.25027055 7 12 11818 4.78200000 885637909 885637909 -3.00000000
4.59112358 -2.46070743 1.20258832 2 13 11819 5.34600000 885637912 885637912 13.00000000
4.17321730 -2.23765945 -0.08265460 45 14 11820 4.73600000 885637914 885637914 -1.00000000
7.73565197 -4.14955854 2.35214758 45 15 11821 9.08800000 885637916 885637916 15.00000000
1.89351487 -1.01870024 -0.57613117 4 0 11828 2.22600000 885637937 885637937 -15.00000000
4.29823971 -2.31339598 0.08520265 46 1 11829 4.88200000 885637939 885637939 1.00000000
2.22542048 -1.19826555 -0.58352304 3 2 11830 2.59400000 885637942 885637942 -13.00000000
4.55989790 -2.45525193 0.27141428 8 3 11830 5.18600000 885637944 885637944 3.00000000
2.64105415 -1.42265570 -0.58311230 5 4 11831 3.05600000 885637946 885637946 -11.00000000
4.25501966 -2.29300809 0.42287967 38 5 11832 4.85200000 885637949 885637949 5.00000000
3.25500345 -1.75483775 -0.58569062 6 6 11833 3.74400000 885637951 885637951 -9.00000000
4.30852461 -2.32378292 0.60105962 19 7 11834 4.93200000 885637953 885637953 7.00000000
4.31161308 -2.32642007 -0.60154706 6 8 11835 4.93600000 885637956 885637956 -7.00000000
5.88641357 -3.17613649 1.05937421 50 9 11835 6.77200000 885637958 885637958 9.00000000
4.19205332 -2.26285410 -0.41677877 8 10 11836 4.78200000 885637960 885637960 -5.00000000
5.52615261 -2.98424125 1.22079599 28 11 11837 6.39800000 885637962 885637962 11.00000000
4.19799280 -2.26795292 -0.25006118 7 12 11838 4.77800000 885637965 885637965 -3.00000000
4.14779091 -2.24270225 -0.08230555 54 14 11840 4.71600000 885637969 885637969 -1.00000000
7.67184353 -4.14988089 2.33713603 45 15 11841 9.03000000 885637972 885637972 15.00000000
1.89691925 -1.02865744 -0.57820177 4 0 11847 2.23400000 885637992 885637992 -15.00000000
4.29054451 -2.32763672 0.08520265 46 1 11848 4.88200000 885637995 885637995 1.00000000
2.21800923 -1.20377958 -0.58262324 3 2 11849 2.59000000 885637997 885637997 -13.00000000
4.59210491 -2.49227190 0.27382171 8 3 11849 5.23200000 885637999 885637999 3.00000000
2.63632178 -1.43140602 -0.58311230 5 4 11850 3.05600000 885638002 885638002 -11.00000000
4.25789690 -2.31281161 0.42392552 36 5 11851 4.86400000 885638004 885638004 5.00000000
3.24222350 -1.76184940 -0.58443916 6 6 11852 3.73600000 885638006 885638006 -9.00000000
4.29381895 -2.33426523 0.60008466 19 7 11853 4.92400000 885638008 885638008 7.00000000
4.31956959 -2.34924102 -0.60374075 6 8 11854 4.95400000 885638011 885638011 -7.00000000
5.86890745 -3.19186401 1.05812275 37 9 11854 6.76400000 885638013 885638013 9.00000000
4.18277645 -2.27579069 -0.41660446 8 10 11855 4.78000000 885638015 885638015 -5.00000000
5.50932884 -2.99879599 1.21926951 31 11 11856 6.39000000 885638018 885638018 11.00000000
4.14133501 -2.25511718 -0.24713038 6 12 11857 4.72200000 885638020 885638020 -3.00000000
5.00551224 -2.72682762 1.31596363 14 13 11858 5.85000000 885638022 885638022 13.00000000
4.13506317 -2.25357366 -0.08220083 61 14 11859 4.71000000 885638025 885638025 -1.00000000
7.61466503 -4.14992619 2.32367730 45 15 11859 8.97800000 885638027 885638027 15.00000000
1.89331698 -1.03527272 -0.57820177 4 0 11867 2.23400000 885638048 885638048 -15.00000000
4.28414774 -2.34355903 0.08523756 40 1 11868 4.88400000 885638050 885638050 1.00000000
2.21037483 -1.20964348 -0.58172345 3 2 11869 2.58600000 885638052 885638052 -13.00000000
5.27368689 -2.88606310 0.31506246 17 3 11869 6.02000000 885638055 885638055 3.00000000
2.63475347 -1.44248533 -0.58387554 5 4 11870 3.06000000 885638057 885638057 -11.00000000
4.25154495 -2.32861757 0.42409983 22 5 11871 4.86600000 885638059 885638059 5.00000000
3.24471569 -1.77790225 -0.58600348 6 6 11872 3.74600000 885638061 885638061 -9.00000000
4.28912592 -2.35114765 0.60057211 19 7 11873 4.92800000 885638064 885638064 7.00000000
4.29219675 -2.35380530 -0.60105962 6 8 11874 4.93200000 885638066 885638066 -7.00000000
7.79933739 -4.27709198 1.40884876 21 9 11874 9.00600000 885638068 885638068 9.00000000
4.19052792 -2.29900241 -0.41817325 5 10 11875 4.79800000 885638071 885638071 -5.00000000
5.48850107 -3.01234126 1.21697974 31 11 11876 6.37800000 885638073 885638073 11.00000000
4.11067867 -2.25706267 -0.24576965 54 12 11877 4.69600000 885638075 885638075 -3.00000000
4.98913097 -2.74053049 1.31416404 15 13 11878 5.84200000 885638078 885638078 13.00000000
4.12016153 -2.26414180 -0.08206122 61 14 11879 4.70200000 885638080 885638080 -1.00000000
7.56893158 -4.16105509 2.31435990 45 15 11880 8.94200000 885638082 885638082 15.00000000
1.89494920 -1.04434276 -0.57975465 4 0 11886 2.24000000 885638103 885638103 -15.00000000
4.29561567 -2.36837339 0.08562151 24 1 11887 4.90600000 885638105 885638105 1.00000000
2.20293856 -1.21508431 -0.58082360 3 2 11888 2.58200000 885638108 885638108 -13.00000000
2.61620402 -1.44362652 -0.58082259 5 4 11889 3.04400000 885638112 885638112 -11.00000000
3.24917722 -1.79438221 -0.58788073 6 6 11891 3.75800000 885638117 885638117 -9.00000000
4.29868126 -2.37495756 0.60300952 19 7 11892 4.94800000 885638119 885638119 7.00000000
4.28436756 -2.36802578 -0.60105962 6 8 11893 4.93200000 885638121 885638121 -7.00000000
7.73497391 -4.27522087 1.39977562 39 9 11893 8.94800000 885638124 885638124 9.00000000
4.16544533 -2.30324483 -0.41643015 2 10 11894 4.77800000 885638126 885638126 -5.00000000
5.47161007 -3.02672386 1.21545327 31 11 11895 6.37000000 885638128 885638128 11.00000000
4.09268665 -2.26487947 -0.24514163 51 12 11896 4.68400000 885638131 885638131 -3.00000000
4.97831106 -2.75611615 1.31371415 15 13 11897 5.84000000 885638133 885638133 13.00000000
4.10913229 -2.27585459 -0.08199140 50 14 11898 4.69800000 885638135 885638135 -1.00000000
7.52709246 -4.16890144 2.30556011 42 15 11898 8.90800000 885638138 885638138 15.00000000
1.88453770 -1.04719758 -0.57768410 4 0 11906 2.23200000 885638158 885638158 -15.00000000
4.30829573 -2.39501286 0.08604036 22 1 11907 4.93000000 885638161 885638161 1.00000000
2.20208979 -1.22466087 -0.58172345 3 2 11908 2.58600000 885638163 885638163 -13.00000000
4.07706499 -2.26833344 0.24451359 6 3 11909 4.67200000 885638165 885638165 3.00000000
2.61629581 -1.45561349 -0.58196741 5 4 11909 3.05000000 885638167 885638167 -11.00000000
3.23771620 -1.80282998 -0.58694214 6 6 11911 3.75200000 885638172 885638172 -9.00000000
4.29730177 -2.39381242 0.60398448 19 7 11912 4.95600000 885638174 885638174 7.00000000
4.27260733 -2.38103390 -0.60057211 6 8 11913 4.92800000 885638177 885638177 -7.00000000
7.67094231 -4.27660894 1.39101529 52 9 11914 8.89200000 885638179 885638179 9.00000000
4.17304182 -2.32650256 -0.41799894 5 10 11914 4.79600000 885638181 885638181 -5.00000000
5.47301340 -3.05249906 1.21812463 31 11 11915 6.38400000 885638184 885638184 11.00000000
4.06905842 -2.27039337 -0.24419957 51 12 11916 4.66600000 885638186 885638186 -3.00000000
4.98397398 -2.78202534 1.31776333 15 13 11917 5.85800000 885638188 885638188 13.00000000
4.08370399 -2.28043461 -0.08164236 45 14 11918 4.67800000 885638191 885638191 -1.00000000
7.46622610 -4.17102289 2.29158378 45 15 11919 8.85400000 885638193 885638193 15.00000000
1.87244391 -1.04904830 -0.57509589 4 0 11926 2.22200000 885638214 885638214 -15.00000000
4.30339813 -2.41199231 0.08611017 22 1 11927 4.93400000 885638216 885638216 1.00000000
2.20460057 -1.23615253 -0.58352304 3 2 11928 2.59400000 885638218 885638218 -13.00000000
4.04647732 -2.26984859 0.24315286 7 3 11929 4.64600000 885638220 885638220 3.00000000
2.60434961 -1.46089530 -0.58044094 5 4 11929 3.04200000 885638223 885638223 -11.00000000
3.21934605 -1.80735171 -0.58475202 6 6 11931 3.73800000 885638227 885638227 -9.00000000
4.31141996 -2.42143536 0.60715306 17 7 11932 4.98200000 885638230 885638230 7.00000000
4.27119255 -2.39982295 -0.60154706 6 8 11933 4.93600000 885638232 885638232 -7.00000000
7.62916374 -4.28654146 1.38600934 49 9 11933 8.86000000 885638234 885638234 9.00000000
4.17010593 -2.34398389 -0.41852188 2 10 11934 4.80200000 885638237 885638237 -5.00000000
5.44179010 -3.06003761 1.21354520 31 11 11935 6.36000000 885638239 885638239 11.00000000
4.05414581 -2.28066611 -0.24378088 60 12 11936 4.65800000 885638241 885638241 -3.00000000
4.98102570 -2.80322862 1.31956291 17 13 11937 5.86600000 885638244 885638244 13.00000000
4.08268881 -2.29859972 -0.08178198 30 14 11938 4.68600000 885638246 885638246 -1.00000000
7.41195202 -4.17301226 2.27916050 45 15 11938 8.80600000 885638248 885638248 15.00000000
1.88054514 -1.06222880 -0.57871938 4 0 11946 2.23600000 885638269 885638269 -15.00000000
4.28450632 -2.42109656 0.08590075 18 1 11947 4.92200000 885638271 885638271 1.00000000
2.18670082 -1.23616838 -0.57992381 3 2 11948 2.57800000 885638273 885638273 -13.00000000
3.89075732 -2.20038819 0.23425575 5 3 11949 4.47600000 885638276 885638276 3.00000000
2.60607004 -1.47384310 -0.58196741 5 4 11949 3.05000000 885638278 885638278 -11.00000000
4.10805321 -2.32422471 0.41294390 2 5 11950 4.73800000 885638280 885638280 5.00000000
3.20786023 -1.81565917 -0.58381343 6 6 11951 3.73200000 885638283 885638283 -9.00000000
4.30985069 -2.44038248 0.60812801 19 7 11952 4.99000000 885638285 885638285 7.00000000
4.25933504 -2.41276073 -0.60105962 6 8 11953 4.93200000 885638287 885638287 -7.00000000
7.57902956 -4.29499626 1.37975204 49 9 11954 8.82000000 885638290 885638290 9.00000000
4.16536522 -2.36049056 -0.41887051 2 10 11954 4.80600000 885638292 885638292 -5.00000000
5.40716505 -3.06545877 1.20820260 28 11 11955 6.33200000 885638294 885638294 11.00000000
4.03573608 -2.28889203 -0.24315286 60 12 11956 4.64600000 885638296 885638296 -3.00000000
4.97121048 -2.82059860 1.31956291 17 13 11957 5.86600000 885638299 885638299 13.00000000
4.08159637 -2.31678534 -0.08192159 22 14 11958 4.69400000 885638301 885638301 -1.00000000
7.36300945 -4.18107176 2.26880765 47 15 11959 8.76600000 885638303 885638303 15.00000000
1.87346828 -1.06687474 -0.57768410 4 0 11966 2.23200000 885638324 885638324 -15.00000000
4.28992939 -2.44395638 0.08617999 18 1 11967 4.93800000 885638326 885638326 1.00000000
2.17560005 -1.23993409 -0.57812423 3 2 11968 2.57000000 885638329 885638329 -13.00000000
3.94204473 -2.24759078 0.23781459 7 3 11969 4.54400000 885638331 885638331 3.00000000
2.59920382 -1.48195851 -0.58158582 5 4 11969 3.04800000 885638333 885638333 -11.00000000
4.28855610 -2.44614935 0.43194386 28 5 11970 4.95600000 885638336 885638336 5.00000000
3.19807148 -1.82488763 -0.58318770 6 6 11971 3.72800000 885638338 885638338 -9.00000000
4.30475378 -2.45738006 0.60861552 17 7 11972 4.99400000 885638340 885638340 7.00000000
4.24054432 -2.42170739 -0.59959716 6 8 11973 4.92000000 885638343 885638343 -7.00000000
7.53558397 -4.30345201 1.37443316 52 9 11973 8.78600000 885638345 885638345 9.00000000
4.16747999 -2.38094616 -0.41991636 2 10 11974 4.81800000 885638347 885638347 -5.00000000
5.39302254 -3.08236623 1.20743930 31 11 11975 6.32800000 885638349 885638349 11.00000000
4.01385117 -2.29503441 -0.24231547 51 12 11976 4.63000000 885638352 885638352 -3.00000000
4.95625973 -2.83503151 1.31821322 18 13 11977 5.86000000 885638354 885638354 13.00000000
4.09604740 -2.34393024 -0.08237536 9 14 11978 4.72000000 885638356 885638356 -1.00000000
7.32059956 -4.18915415 2.26000786 40 15 11978 8.73200000 885638359 885638359 15.00000000
1.87308359 -1.07533145 -0.57871938 4 0 11986 2.23600000 885638379 885638379 -15.00000000
4.34033012 -2.49277735 0.08736674 27 1 11987 5.00600000 885638382 885638382 1.00000000
2.18815565 -1.25722909 -0.58262324 3 2 11988 2.59000000 885638384 885638384 -13.00000000
3.94110131 -2.26531863 0.23823327 16 3 11989 4.55200000 885638386 885638386 3.00000000
2.59401512 -1.49102247 -0.58158582 5 4 11989 3.04800000 885638389 885638389 -11.00000000
4.30244493 -2.47401547 0.43420991 28 5 11990 4.98200000 885638391 885638391 5.00000000
3.20538020 -1.84391987 -0.58569062 6 6 11991 3.74400000 885638393 885638393 -9.00000000
4.30647278 -2.47833252 0.61007792 20 7 11992 5.00600000 885638396 885638396 7.00000000
4.22174311 -2.43055224 -0.59813476 6 8 11993 4.90800000 885638398 885638398 -7.00000000
7.46840763 -4.30146551 1.36504710 55 9 11994 8.72600000 885638400 885638400 9.00000000
6.21022797 -3.57681084 -0.62699842 12 10 11994 7.19400000 885638402 885638402 -5.00000000
5.37882805 -3.09921241 1.20667613 28 11 11995 6.32400000 885638405 885638405 11.00000000
3.99543309 -2.30304670 -0.24168745 51 12 11996 4.61800000 885638407 885638407 -3.00000000
4.93451643 -2.84550047 1.31506383 19 13 11997 5.84600000 885638409 885638409 13.00000000
4.07744789 -2.35221839 -0.08216593 16 14 11998 4.70800000 885638412 885638412 -1.00000000
7.28177166 -4.20243835 2.25276089 42 15 11999 8.70400000 885638414 885638414 15.00000000
1.86597455 -1.07992780 -0.57768410 4 0 12006 2.23200000 885638435 885638435 -15.00000000
4.38178825 -2.53696966 0.08837899 51 1 12007 5.06400000 885638437 885638437 1.00000000
2.17026329 -1.25704575 -0.57902402 3 2 12008 2.57400000 885638439 885638439 -13.00000000
3.90897655 -2.26504302 0.23676787 22 3 12009 4.52400000 885638442 885638442 3.00000000
2.58199978 -1.49613094 -0.58005935 5 4 12009 3.04000000 885638444 885638444 -11.00000000
4.28861189 -2.48602128 0.43368697 23 5 12010 4.97600000 885638446 885638446 5.00000000
3.20234179 -1.85707939 -0.58631635 6 6 12011 3.74800000 885638449 885638449 -9.00000000
4.32526875 -2.50928807 0.61397773 18 7 12012 5.03800000 885638451 885638451 7.00000000
4.20293188 -2.43929529 -0.59667230 6 8 12013 4.89600000 885638453 885638453 -7.00000000
7.41651583 -4.30439377 1.35816407 55 9 12013 8.68200000 885638455 885638455 9.00000000
6.19253588 -3.59546566 -0.62647545 12 10 12014 7.18800000 885638458 885638458 -5.00000000
5.35609341 -3.11106658 1.20400476 31 11 12015 6.31000000 885638460 885638460 11.00000000
4.00291157 -2.32601047 -0.24262950 45 12 12016 4.63600000 885638462 885638462 -3.00000000
4.93129253 -2.86662531 1.31686342 21 13 12017 5.85400000 885638465 885638465 13.00000000
4.04328299 -2.35135770 -0.08164236 16 14 12018 4.67800000 885638467 885638467 -1.00000000
7.22938585 -4.20422554 2.24085522 45 15 12018 8.65800000 885638469 885638469 15.00000000
1.85051310 -1.07962024 -0.57406062 4 0 12026 2.21800000 885638490 885638490 -15.00000000
4.37463331 -2.55325747 0.08841389 49 1 12027 5.06600000 885638492 885638492 1.00000000
2.17932534 -1.27247453 -0.58262324 3 2 12028 2.59000000 885638495 885638495 -13.00000000
3.89932156 -2.27766681 0.23666319 26 3 12029 4.52200000 885638497 885638497 3.00000000
2.57506633 -1.50414443 -0.57967770 5 4 12029 3.03800000 885638499 885638499 -11.00000000
4.28162813 -2.50198126 0.43386129 26 5 12030 4.97800000 885638502 885638502 5.00000000
3.17196488 -1.85428929 -0.58193618 6 6 12031 3.72000000 885638504 885638504 -9.00000000
4.33361912 -2.53439212 0.61641514 15 7 12032 5.05800000 885638506 885638506 7.00000000
4.20467186 -2.45996618 -0.59813476 6 8 12033 4.90800000 885638508 885638508 -7.00000000
7.37170744 -4.31458473 1.35284531 50 9 12034 8.64800000 885638511 885638511 9.00000000
6.18166685 -3.61806607 -0.62664980 12 10 12034 7.19000000 885638513 885638513 -5.00000000
5.34181261 -3.12775993 1.20324147 31 11 12035 6.30600000 885638515 885638515 11.00000000
4.01200151 -2.35006404 -0.24367622 47 12 12036 4.65600000 885638518 885638518 -3.00000000
