# .PCD v0.7 - Point Cloud Data file format
VERSION 0.7
FIELDS x y z intensity laser_id azimuth distance_m adjustedtime timestamp vertical_angle
SIZE 4 4 4 1 1 2 8 8 4 8
TYPE F F F U U U F U U F
COUNT 1 1 1 1 1 1 1 1 1 1
WIDTH 537
HEIGHT 1
VIEWPOINT 0 0 0 1 0 0 0
POINTS 537
DATA ascii
1.35861373 -4.11288357 -0.53183782 2 8 16172 4.36400000 885050103 885050103 -7.00000000
1.77575111 -5.37882090 -0.49556756 31 10 16173 5.68600000 885050107 885050107 -5.00000000
1.78946757 -5.42673111 -0.29946634 21 12 16175 5.72200000 885050112 885050112 -3.00000000
3.56638861 -10.82176399 2.63057756 48 13 16176 11.69400000 885050114 885050114 13.00000000
1.78850257 -5.43017721 -0.09979286 130 14 16177 5.71800000 885050117 885050117 -1.00000000
3.05919719 -9.28820801 2.62028408 35 15 16177 10.12400000 885050119 885050119 15.00000000
0.63307571 -1.93118894 -0.54455525 4 0 16185 2.10400000 885050140 885050140 -15.00000000
0.73495364 -2.24461293 -0.54528135 4 2 16187 2.42400000 885050144 885050144 -13.00000000
1.34917736 -4.13269758 -0.53378773 2 8 16192 4.38000000 885050158 885050158 -7.00000000
1.75696480 -5.38498688 -0.49556756 31 10 16193 5.68600000 885050163 885050163 -5.00000000
1.77732110 -5.45383310 -0.30061772 12 12 16195 5.74400000 885050167 885050167 -3.00000000
3.53100562 -10.84155846 2.63237715 47 13 16196 11.70200000 885050170 885050170 13.00000000
3.02334094 -9.29384613 2.61873102 38 15 16198 10.11800000 885050174 885050174 15.00000000
0.62785953 -1.93695307 -0.54559052 4 0 16204 2.10800000 885050195 885050195 -15.00000000
0.72510523 -2.23962188 -0.54348177 4 2 16206 2.41600000 885050200 885050200 -13.00000000
1.03452682 -3.20104623 -0.53281581 1 6 16209 3.40600000 885050209 885050209 -9.00000000
1.34278297 -4.15981865 -0.53671259 2 8 16211 4.40400000 885050213 885050213 -7.00000000
1.74521494 -5.40974522 -0.49731067 32 10 16212 5.70600000 885050218 885050218 -5.00000000
1.77025151 -5.49391508 -0.30250183 6 12 16214 5.78000000 885050223 885050223 -3.00000000
3.49861836 -10.86433792 2.63507676 48 13 16215 11.71400000 885050225 885050225 13.00000000
2.99649596 -9.31065464 2.62080169 38 15 16216 10.12600000 885050230 885050230 15.00000000
0.61991596 -1.93545341 -0.54455525 4 0 16224 2.10400000 885050250 885050250 -15.00000000
0.71431416 -2.23285890 -0.54123223 4 2 16226 2.40600000 885050255 885050255 -13.00000000
0.84240371 -2.63483572 -0.53769976 3 4 16227 2.81800000 885050259 885050259 -11.00000000
1.02995670 -3.22533727 -0.53625733 1 6 16229 3.42800000 885050264 885050264 -9.00000000
1.31257105 -4.11530828 -0.53037536 2 8 16231 4.35200000 885050269 885050269 -7.00000000
1.73055637 -5.42909193 -0.49853083 25 10 16232 5.72000000 885050273 885050273 -5.00000000
3.46067357 -10.87648392 2.63507676 48 13 16235 11.71400000 885050280 885050280 13.00000000
2.96235037 -9.32157421 2.62080169 38 15 16237 10.12600000 885050285 885050285 15.00000000
0.61665326 -1.94865644 -0.54766113 4 0 16244 2.11600000 885050306 885050306 -15.00000000
0.70534110 -2.23162246 -0.54033244 4 2 16246 2.40200000 885050310 885050310 -13.00000000
0.82965320 -2.62652779 -0.53541005 3 4 16247 2.80600000 885050315 885050315 -11.00000000
1.01453161 -3.21572590 -0.53406727 1 6 16249 3.41400000 885050319 885050319 -9.00000000
1.31132317 -4.16151810 -0.53573763 2 8 16251 4.39600000 885050324 885050324 -7.00000000
1.71997321 -5.46170521 -0.50097120 14 10 16252 5.74800000 885050329 885050329 -5.00000000
3.42385507 -10.89221573 2.63597655 48 13 16255 11.71800000 885050336 885050336 13.00000000
2.93373871 -9.33871937 2.62287211 40 15 16256 10.13400000 885050340 885050340 15.00000000
0.60523611 -1.93604624 -0.54351997 4 0 16264 2.10000000 885050361 885050361 -15.00000000
0.70277423 -2.25081253 -0.54438156 3 2 16266 2.42000000 885050365 885050365 -13.00000000
0.82047987 -2.62940764 -0.53541005 3 4 16267 2.80600000 885050370 885050370 -11.00000000
1.00506365 -3.22490549 -0.53500587 1 6 16269 3.42000000 885050375 885050375 -9.00000000
1.28262913 -4.12058067 -0.52988791 2 8 16271 4.34800000 885050379 885050379 -7.00000000
1.70977521 -5.49621248 -0.50358588 10 10 16272 5.77800000 885050384 885050384 -5.00000000
3.38696909 -10.90782356 2.63687634 48 13 16275 11.72200000 885050391 885050391 13.00000000
2.89949083 -9.34940910 2.62287211 38 15 16277 10.13400000 885050395 885050395 15.00000000
0.59414852 -1.92532992 -0.53989655 4 0 16285 2.08600000 885050416 885050416 -15.00000000
0.69337189 -2.24964857 -0.54348177 3 2 16287 2.41600000 885050421 885050421 -13.00000000
0.81199294 -2.63614988 -0.53617328 3 4 16288 2.81000000 885050425 885050425 -11.00000000
0.99149454 -3.22290349 -0.53406727 1 6 16290 3.41400000 885050430 885050430 -9.00000000
1.27101600 -4.13663960 -0.53135031 2 8 16292 4.36000000 885050435 885050435 -7.00000000
1.70424020 -5.55005789 -0.50794369 10 10 16293 5.82800000 885050439 885050439 -5.00000000
2.80447960 -9.14449024 -0.50127381 4 12 16295 9.57800000 885050444 885050444 -3.00000000
3.34982252 -10.92947960 2.63912582 51 13 16296 11.73200000 885050446 885050446 13.00000000
2.86570621 -9.35577869 2.62183690 38 15 16297 10.13000000 885050451 885050451 15.00000000
0.58911383 -1.93293595 -0.54144943 4 0 16305 2.09200000 885050471 885050471 -15.00000000
0.68778485 -2.25951242 -0.54528135 3 2 16307 2.42400000 885050476 885050476 -13.00000000
0.80050063 -2.63145494 -0.53464681 3 4 16308 2.80200000 885050481 885050481 -11.00000000
0.98023850 -3.22634482 -0.53406727 1 6 16310 3.41400000 885050485 885050485 -9.00000000
1.25426304 -4.13345242 -0.53037536 2 8 16312 4.35200000 885050490 885050490 -7.00000000
1.69295120 -5.58266592 -0.51038402 11 10 16313 5.85600000 885050494 885050494 -5.00000000
2.77833176 -9.17333889 -0.50232053 4 12 16315 9.59800000 885050499 885050499 -3.00000000
3.31390929 -10.94856739 2.64092541 50 13 16316 11.74000000 885050501 885050501 13.00000000
2.79114723 -9.23307705 2.58456707 33 15 16318 9.98600000 885050506 885050506 15.00000000
0.58660030 -1.94782746 -0.54507291 4 0 16324 2.10600000 885050527 885050527 -15.00000000
0.67355275 -2.23938680 -0.53988254 3 2 16326 2.40000000 885050531 885050531 -13.00000000
0.79516089 -2.64537597 -0.53693652 3 4 16327 2.81400000 885050536 885050536 -11.00000000
0.96612632 -3.21822596 -0.53219002 1 6 16329 3.40200000 885050541 885050541 -9.00000000
1.24282956 -4.14519501 -0.53135031 2 8 16331 4.36000000 885050545 885050545 -7.00000000
1.68300712 -5.61687756 -0.51299870 11 10 16332 5.88600000 885050550 885050550 -5.00000000
2.74217057 -9.16336823 -0.50127381 4 12 16334 9.57800000 885050554 885050554 -3.00000000
3.27590919 -10.95389462 2.63957572 48 13 16335 11.73400000 885050557 885050557 13.00000000
2.80914903 -9.39913082 2.62856627 40 15 16336 10.15600000 885050561 885050561 15.00000000
0.58089876 -1.95356655 -0.54610819 4 0 16344 2.11000000 885050582 885050582 -15.00000000
0.67016989 -2.25666928 -0.54348177 3 2 16346 2.41600000 885050587 885050587 -13.00000000
0.78480476 -2.64437127 -0.53617328 3 4 16347 2.81000000 885050591 885050591 -11.00000000
0.95993900 -3.23862410 -0.53500587 1 6 16349 3.42000000 885050596 885050596 -9.00000000
1.22497177 -4.13808727 -0.52988791 2 8 16351 4.34800000 885050600 885050600 -7.00000000
1.70973694 -5.77938271 -0.52729225 3 10 16352 6.05000000 885050605 885050605 -5.00000000
2.71016765 -9.17288399 -0.50127381 4 12 16354 9.57800000 885050610 885050610 -3.00000000
3.23875666 -10.96900082 2.64047551 50 13 16355 11.73800000 885050612 885050612 13.00000000
2.77468061 -9.40936375 2.62856627 38 15 16357 10.15600000 885050617 885050617 15.00000000
0.57189941 -1.94816792 -0.54403764 4 0 16364 2.10200000 885050637 885050637 -15.00000000
0.66009557 -2.25151467 -0.54168212 3 2 16366 2.40800000 885050642 885050642 -13.00000000
0.77115339 -2.63202238 -0.53312033 3 4 16367 2.79400000 885050647 885050647 -11.00000000
0.94529974 -3.23057985 -0.53312868 1 6 16369 3.40800000 885050651 885050651 -9.00000000
1.22165596 -4.18044615 -0.53476268 2 8 16371 4.38800000 885050656 885050656 -7.00000000
1.69402099 -5.80061531 -0.52868676 3 10 16372 6.06600000 885050660 885050660 -5.00000000
3.20262933 -10.98772335 2.64227509 50 13 16375 11.74600000 885050667 885050667 13.00000000
2.74454331 -9.42222214 2.62960148 40 15 16376 10.16000000 885050672 885050672 15.00000000
0.56133181 -1.93716371 -0.54041415 4 0 16384 2.08800000 885050693 885050693 -15.00000000
0.65494090 -2.26316476 -0.54393166 3 2 16386 2.41800000 885050697 885050697 -13.00000000
0.76305205 -2.63846993 -0.53388357 3 4 16387 2.79800000 885050702 885050702 -11.00000000
0.93456531 -3.23575759 -0.53344154 1 6 16389 3.41000000 885050706 885050706 -9.00000000
1.20265484 -4.16942644 -0.53281277 2 8 16391 4.37200000 885050711 885050711 -7.00000000
1.66051829 -5.76054668 -0.52450323 3 10 16392 6.01800000 885050716 885050716 -5.00000000
3.16641068 -11.00632668 2.64407468 48 13 16395 11.75400000 885050723 885050723 13.00000000
2.70843410 -9.42060566 2.62649560 38 15 16396 10.14800000 885050727 885050727 15.00000000
0.55210453 -1.93177819 -0.53834361 4 0 16405 2.08000000 885050748 885050748 -15.00000000
0.64343244 -2.25430655 -0.54123223 3 2 16407 2.40600000 885050753 885050753 -13.00000000
0.75445348 -2.64502501 -0.53464681 3 4 16408 2.80200000 885050757 885050757 -11.00000000
0.92053467 -3.23156214 -0.53219002 1 6 16410 3.40200000 885050762 885050762 -9.00000000
1.18193328 -4.15471315 -0.53037536 2 8 16412 4.35200000 885050766 885050766 -7.00000000
1.62522805 -5.71676636 -0.51997113 3 10 16413 5.96600000 885050771 885050771 -5.00000000
3.12764478 -11.02348232 2.64542437 51 13 16416 11.76000000 885050778 885050778 13.00000000
2.67546868 -9.43604469 2.62804866 40 15 16417 10.15400000 885050782 885050782 15.00000000
0.54902869 -1.94670880 -0.54196709 4 0 16425 2.09400000 885050803 885050803 -15.00000000
0.63238966 -2.24528432 -0.53853285 3 2 16427 2.39400000 885050808 885050808 -13.00000000
0.74415219 -2.64386272 -0.53388357 3 4 16428 2.79800000 885050812 885050812 -11.00000000
0.90657616 -3.22524738 -0.53062570 3 6 16430 3.39200000 885050817 885050817 -9.00000000
1.16742349 -4.15881348 -0.53037536 2 8 16432 4.35200000 885050822 885050822 -7.00000000
1.61925447 -5.77228165 -0.52450323 3 10 16433 6.01800000 885050826 885050826 -5.00000000
3.09019732 -11.03808594 2.64632416 46 13 16436 11.76400000 885050833 885050833 13.00000000
2.64554739 -9.46253204 2.63270736 40 15 16438 10.17200000 885050838 885050838 15.00000000
0.54412478 -1.95410192 -0.54351997 4 0 16444 2.10000000 885050859 885050859 -15.00000000
0.62546265 -2.24924660 -0.53898275 4 2 16446 2.39600000 885050863 885050863 -13.00000000
0.73432940 -2.64253259 -0.53312033 3 4 16447 2.79400000 885050868 885050868 -11.00000000
0.90168637 -3.24917364 -0.53406727 3 6 16449 3.41400000 885050872 885050872 -9.00000000
1.14514339 -4.13205385 -0.52647555 2 8 16451 4.32000000 885050877 885050877 -7.00000000
1.59053218 -5.74305773 -0.52136564 3 10 16452 5.98200000 885050882 885050882 -5.00000000
3.05150032 -11.04076004 2.64452457 51 13 16455 11.75600000 885050888 885050888 13.00000000
2.61580682 -9.47079659 2.63270736 40 15 16456 10.17200000 885050893 885050893 15.00000000
0.53627694 -1.95226371 -0.54248470 4 0 16464 2.09600000 885050914 885050914 -15.00000000
0.61915410 -2.25705409 -0.54033244 4 2 16466 2.40200000 885050918 885050918 -13.00000000
0.72406274 -2.64129305 -0.53235710 3 4 16467 2.79000000 885050923 885050923 -11.00000000
0.88825279 -3.24468040 -0.53281581 3 6 16469 3.40600000 885050928 885050928 -9.00000000
1.12757194 -4.12453699 -0.52501315 2 8 16471 4.30800000 885050932 885050932 -7.00000000
1.57677627 -5.77163792 -0.52345741 3 10 16472 6.00600000 885050937 885050937 -5.00000000
3.01345468 -11.05322456 2.64497447 48 13 16475 11.75800000 885050944 885050944 13.00000000
2.58323956 -9.48173332 2.63322496 40 15 16476 10.17400000 885050948 885050948 15.00000000
0.52693295 -1.94480062 -0.53989655 4 0 16484 2.08600000 885050970 885050970 -15.00000000
0.61127174 -2.25920153 -0.54033244 4 2 16486 2.40200000 885050975 885050975 -13.00000000
0.33802342 -1.24930203 0.06782740 2 3 16486 1.29600000 885050977 885050977 3.00000000
0.71637577 -2.64949012 -0.53350192 3 4 16487 2.79600000 885050979 885050979 -11.00000000
0.88001090 -3.25920367 -0.53469300 1 6 16489 3.41800000 885050984 885050984 -9.00000000
1.11833572 -4.14761448 -0.52745050 2 8 16491 4.32800000 885050988 885050988 -7.00000000
1.54625273 -5.73863125 -0.51997113 3 10 16492 5.96600000 885050993 885050993 -5.00000000
2.46656299 -9.16692924 -0.49750561 4 12 16494 9.50600000 885050998 885050998 -3.00000000
2.97788954 -11.07496738 2.64767385 48 13 16495 11.77000000 885051000 885051000 13.00000000
2.54761982 -9.48136520 2.63063669 42 15 16496 10.16400000 885051005 885051005 15.00000000
0.52163720 -1.95222723 -0.54144943 4 0 16504 2.09200000 885051025 885051025 -15.00000000
0.60338193 -2.26132154 -0.54033244 4 2 16506 2.40200000 885051030 885051030 -13.00000000
0.32109252 -1.20421660 0.06531528 2 3 16507 1.24800000 885051032 885051032 3.00000000
0.70661712 -2.65007758 -0.53312033 3 4 16507 2.79400000 885051035 885051035 -11.00000000
0.86151308 -3.23553133 -0.53031284 1 6 16509 3.39000000 885051039 885051039 -9.00000000
1.10487115 -4.15532970 -0.52793801 2 8 16511 4.33200000 885051044 885051044 -7.00000000
1.52621174 -5.74399376 -0.51997113 3 10 16512 5.96600000 885051048 885051048 -5.00000000
2.43454933 -9.17548370 -0.49750561 4 12 16514 9.50600000 885051053 885051053 -3.00000000
2.94370747 -11.10224724 2.65172315 51 13 16515 11.78800000 885051055 885051055 13.00000000
2.51433516 -9.49624157 2.63218975 40 15 16517 10.17000000 885051060 885051060 15.00000000
0.51762307 -1.96328640 -0.54403764 4 0 16523 2.10200000 885051081 885051081 -15.00000000
0.59637594 -2.26519442 -0.54078233 4 2 16525 2.40400000 885051085 885051085 -13.00000000
0.31629077 -1.20135653 0.06510593 2 3 16525 1.24400000 885051088 885051088 3.00000000
0.69782525 -2.65240622 -0.53312033 3 4 16526 2.79400000 885051090 885051090 -11.00000000
0.85328859 -3.24792314 -0.53187716 3 6 16528 3.40000000 885051094 885051094 -9.00000000
1.09310043 -4.16665125 -0.52891296 2 8 16530 4.34000000 885051099 885051099 -7.00000000
1.50715566 -5.74902344 -0.51997113 3 10 16531 5.96600000 885051104 885051104 -5.00000000
2.39196968 -9.13713455 -0.49499348 4 12 16533 9.45800000 885051108 885051108 -3.00000000
2.90440893 -11.10252190 2.64947343 50 13 16534 11.77800000 885051111 885051111 13.00000000
2.48888683 -9.52091503 2.63684845 42 15 16535 10.18800000 885051115 885051115 15.00000000
0.50979477 -1.96134186 -0.54300237 4 0 16543 2.09800000 885051136 885051136 -15.00000000
0.58405918 -2.25028634 -0.53673321 4 2 16545 2.38600000 885051140 885051140 -13.00000000
0.29603896 -1.14059067 0.06175643 2 3 16545 1.18000000 885051143 885051143 3.00000000
0.68954819 -2.65862656 -0.53388357 3 4 16546 2.79800000 885051145 885051145 -11.00000000
0.84491760 -3.26235557 -0.53375441 3 6 16548 3.41200000 885051150 885051150 -9.00000000
1.07357919 -4.15122271 -0.52647555 2 8 16550 4.32000000 885051154 885051154 -7.00000000
1.48707855 -5.75424910 -0.51997113 3 10 16551 5.96600000 885051159 885051159 -5.00000000
2.37203789 -9.19184208 -0.49750561 4 12 16553 9.50600000 885051164 885051164 -3.00000000
2.86563635 -11.11259174 2.64947343 48 13 16554 11.77800000 885051166 885051166 13.00000000
2.45419121 -9.52393246 2.63529563 40 15 16555 10.18200000 885051170 885051170 15.00000000
0.50342476 -1.96498084 -0.54351997 4 0 16563 2.10000000 885051191 885051191 -15.00000000
0.57909852 -2.26363897 -0.53943264 3 2 16565 2.39800000 885051196 885051196 -13.00000000
0.28789914 -1.12618780 0.06091905 2 3 16566 1.16400000 885051198 885051198 3.00000000
0.67637366 -2.64580083 -0.53083062 3 4 16566 2.78200000 885051200 885051200 -11.00000000
0.83499044 -3.27102709 -0.53469300 1 6 16568 3.41800000 885051205 885051205 -9.00000000
1.05712092 -4.14725065 -0.52550060 2 8 16570 4.31200000 885051210 885051210 -7.00000000
1.46698344 -5.75940514 -0.51997113 3 10 16571 5.96600000 885051214 885051214 -5.00000000
2.82922864 -11.13197041 2.65172315 51 13 16574 11.78800000 885051221 885051221 13.00000000
2.41926789 -9.53286362 2.63529563 40 15 16576 10.18200000 885051226 885051226 15.00000000
0.49230638 -1.94986844 -0.53886127 4 0 16583 2.08200000 885051246 885051246 -15.00000000
0.57357538 -2.27509475 -0.54168212 4 2 16585 2.40800000 885051251 885051251 -13.00000000
0.29002202 -1.15037620 0.06217512 2 3 16585 1.18800000 885051253 885051253 3.00000000
0.66713393 -2.64814568 -0.53083062 3 4 16586 2.78200000 885051256 885051256 -11.00000000
0.81826645 -3.25284910 -0.53125143 1 6 16588 3.39600000 885051260 885051260 -9.00000000
0.30633041 -1.21865225 0.15428659 2 7 16589 1.26600000 885051263 885051263 7.00000000
1.03876913 -4.13551331 -0.52355069 2 8 16590 4.29600000 885051265 885051265 -7.00000000
1.44687045 -5.76449060 -0.51997113 3 10 16591 5.96600000 885051270 885051270 -5.00000000
2.79319429 -11.15312099 2.65442252 50 13 16594 11.80000000 885051276 885051276 13.00000000
2.38832045 -9.55062103 2.63788366 40 15 16596 10.19200000 885051281 885051281 15.00000000
0.48562253 -1.95353448 -0.53937888 4 0 16604 2.08400000 885051302 885051302 -15.00000000
0.56241614 -2.26583362 -0.53898275 4 2 16606 2.39600000 885051306 885051306 -13.00000000
0.29061523 -1.17081583 0.06322183 2 3 16606 1.20800000 885051309 885051309 3.00000000
0.65742350 -2.65057302 -0.53083062 3 4 16607 2.78200000 885051311 885051311 -11.00000000
0.27655777 -1.11584759 0.10057773 3 5 16608 1.15400000 885051313 885051313 5.00000000
0.80633867 -3.25582647 -0.53125143 1 6 16609 3.39600000 885051316 885051316 -9.00000000
0.29470864 -1.19086242 0.15063050 2 7 16610 1.23600000 885051318 885051318 7.00000000
1.02741706 -4.15470886 -0.52550060 2 8 16611 4.31200000 885051320 885051320 -7.00000000
1.42573285 -5.76975489 -0.51997113 3 10 16612 5.96600000 885051325 885051325 -5.00000000
2.75369668 -11.16895962 2.65577221 48 13 16615 11.80600000 885051332 885051332 13.00000000
2.35329962 -9.55930996 2.63788366 42 15 16617 10.19200000 885051336 885051336 15.00000000
0.48063844 -1.96272337 -0.54144943 4 0 16624 2.09200000 885051357 885051357 -15.00000000
0.55080062 -2.25263906 -0.53538352 4 2 16626 2.38000000 885051362 885051362 -13.00000000
0.27751330 -1.13496113 0.06123307 2 3 16626 1.17000000 885051364 885051364 3.00000000
0.65562284 -2.68336606 -0.53693652 3 4 16627 2.81400000 885051366 885051366 -11.00000000
0.79496878 -3.25862122 -0.53125143 1 6 16629 3.39600000 885051371 885051371 -9.00000000
0.28819925 -1.18224084 0.14941181 2 7 16630 1.22600000 885051373 885051373 7.00000000
1.01478732 -4.16598511 -0.52647555 2 8 16631 4.32000000 885051376 885051376 -7.00000000
1.40558386 -5.77469635 -0.51997113 3 10 16632 5.96600000 885051380 885051380 -5.00000000
2.71377325 -11.17471695 2.65487242 50 13 16635 11.80200000 885051387 885051387 13.00000000
2.32219338 -9.57685375 2.64047194 40 15 16637 10.20200000 885051392 885051392 15.00000000
0.47594029 -1.97181821 -0.54351997 4 0 16643 2.10000000 885051412 885051412 -15.00000000
0.54698020 -2.26960921 -0.53898275 4 2 16645 2.39600000 885051417 885051417 -13.00000000
0.26953658 -1.11840022 0.06029102 2 3 16645 1.15200000 885051419 885051419 3.00000000
0.64258409 -2.66834736 -0.53350192 3 4 16646 2.79600000 885051422 885051422 -11.00000000
0.27175286 -1.12932682 0.10162359 3 5 16647 1.16600000 885051424 885051424 5.00000000
0.78692931 -3.27276325 -0.53312868 1 6 16648 3.40800000 885051426 885051426 -9.00000000
0.27778473 -1.15616775 0.14599948 2 7 16649 1.19800000 885051428 885051428 7.00000000
0.99169868 -4.13072205 -0.52160078 2 8 16650 4.28000000 885051431 885051431 -7.00000000
1.38363791 -5.76770115 -0.51892531 3 10 16651 5.95400000 885051435 885051435 -5.00000000
2.67670155 -11.18365479 2.65487242 48 13 16654 11.80200000 885051442 885051442 13.00000000
2.29389286 -9.59161758 2.64254236 40 15 16655 10.21000000 885051447 885051447 15.00000000
0.46548072 -1.95843160 -0.53937888 4 0 16663 2.08400000 885051468 885051468 -15.00000000
0.53860450 -2.26960874 -0.53853285 3 2 16665 2.39400000 885051472 885051472 -13.00000000
0.27070382 -1.14071047 0.06144241 2 3 16665 1.17400000 885051475 885051475 3.00000000
0.62918907 -2.65338159 -0.53006738 3 4 16666 2.77800000 885051477 885051477 -11.00000000
0.77413511 -3.26972365 -0.53219002 1 6 16668 3.40200000 885051481 885051481 -9.00000000
0.27191925 -1.14940321 0.14502452 2 7 16669 1.19000000 885051484 885051484 7.00000000
0.98092705 -4.14961338 -0.52355069 2 8 16670 4.29600000 885051486 885051486 -7.00000000
1.35800040 -5.74922752 -0.51683354 3 10 16671 5.93000000 885051491 885051491 -5.00000000
2.63943505 -11.20051670 2.65667200 47 13 16674 11.81000000 885051498 885051498 13.00000000
2.25827980 -9.59807968 2.64202476 42 15 16676 10.20800000 885051502 885051502 15.00000000
0.45556059 -1.94687712 -0.53575540 4 0 16683 2.07000000 885051523 885051523 -15.00000000
0.53156549 -2.27527022 -0.53943264 3 2 16685 2.39800000 885051528 885051528 -13.00000000
0.26606706 -1.13975000 0.06133774 2 3 16686 1.17200000 885051530 885051530 3.00000000
0.62081581 -2.65938544 -0.53083062 3 4 16686 2.78200000 885051532 885051532 -11.00000000
0.25933617 -1.11179340 0.09988048 3 5 16687 1.14600000 885051534 885051534 5.00000000
0.75912982 -3.25701547 -0.52968711 1 6 16688 3.38600000 885051537 885051537 -9.00000000
0.26430333 -1.13487864 0.14307460 2 7 16689 1.17400000 885051539 885051539 7.00000000
0.97003561 -4.16847992 -0.52550060 2 8 16690 4.31200000 885051541 885051541 -7.00000000
1.33521605 -5.74228907 -0.51578766 3 10 16691 5.91800000 885051546 885051546 -5.00000000
2.11784673 -9.12253857 -0.49080661 4 12 16693 9.37800000 885051551 885051551 -3.00000000
2.60208321 -11.21725559 2.65847158 47 13 16694 11.81800000 885051553 885051553 13.00000000
2.22600293 -9.60363388 2.64150715 40 15 16695 10.20600000 885051558 885051558 15.00000000
0.45092988 -1.95786834 -0.53834361 4 0 16703 2.08000000 885051578 885051578 -15.00000000
0.52187318 -2.26951528 -0.53763300 4 2 16705 2.39000000 885051583 885051583 -13.00000000
0.26298144 -1.14456487 0.06154709 5 3 16706 1.17600000 885051585 885051585 3.00000000
0.61372721 -2.67110324 -0.53273869 3 4 16706 2.79200000 885051587 885051587 -11.00000000
0.74775606 -3.25964546 -0.52968711 1 6 16708 3.38600000 885051592 885051592 -9.00000000
0.26211429 -1.14353395 0.14404957 2 7 16709 1.18200000 885051594 885051594 7.00000000
0.94484288 -4.12540054 -0.51965088 2 8 16710 4.26400000 885051597 885051597 -7.00000000
1.31694150 -5.75468349 -0.51648492 3 10 16711 5.92600000 885051601 885051601 -5.00000000
2.08599019 -9.12987614 -0.49080661 4 12 16713 9.37800000 885051606 885051606 -3.00000000
2.56377935 -11.23006916 2.65937138 46 13 16714 11.82200000 885051608 885051608 13.00000000
2.19164753 -9.61549568 2.64254236 40 15 16716 10.21000000 885051613 885051613 15.00000000
0.44622794 -1.96885073 -0.54093182 4 0 16723 2.09000000 885051634 885051634 -15.00000000
0.51394790 -2.27132297 -0.53763300 3 2 16725 2.39000000 885051638 885051638 -13.00000000
0.25898457 -1.14547586 0.06154709 5 3 16726 1.17600000 885051640 885051640 3.00000000
0.60699731 -2.68471885 -0.53502840 3 4 16726 2.80400000 885051643 885051643 -11.00000000
0.73463345 -3.25452805 -0.52843565 1 6 16728 3.37800000 885051647 885051647 -9.00000000
0.25724751 -1.14056897 0.14356209 2 7 16729 1.17800000 885051650 885051650 7.00000000
0.93218243 -4.13641977 -0.52062583 2 8 16730 4.27200000 885051652 885051652 -7.00000000
1.30559945 -5.79812002 -0.51997113 3 10 16731 5.96600000 885051657 885051657 -5.00000000
2.52456331 -11.23895073 2.65937138 47 13 16734 11.82200000 885051664 885051664 13.00000000
2.16186452 -9.63213539 2.64513063 42 15 16735 10.22000000 885051668 885051668 15.00000000
0.43851179 -1.96662533 -0.53989655 4 0 16743 2.08600000 885051689 885051689 -15.00000000
0.50516951 -2.26929879 -0.53673321 3 2 16745 2.38600000 885051693 885051693 -13.00000000
0.25238267 -1.13467526 0.06091905 7 3 16746 1.16400000 885051696 885051696 3.00000000
0.59037566 -2.65424204 -0.52854091 3 4 16746 2.77000000 885051698 885051698 -11.00000000
0.72326851 -3.25707269 -0.52843565 1 6 16748 3.37800000 885051703 885051703 -9.00000000
0.25197464 -1.13564610 0.14283086 2 7 16749 1.17200000 885051705 885051705 7.00000000
0.91945660 -4.14740086 -0.52160078 2 8 16750 4.28000000 885051707 885051707 -7.00000000
1.28535235 -5.80264235 -0.51997113 3 10 16751 5.96600000 885051712 885051712 -5.00000000
2.48615766 -11.25150013 2.66027117 48 13 16754 11.82600000 885051719 885051719 13.00000000
2.12987566 -9.65508556 2.64927173 40 15 16756 10.23600000 885051723 885051723 15.00000000
0.43233129 -1.96799326 -0.53989655 4 0 16761 2.08600000 885051744 885051744 -15.00000000
0.49887276 -2.27468157 -0.53763300 3 2 16763 2.39000000 885051749 885051749 -13.00000000
0.24924424 -1.13741350 0.06102372 7 3 16764 1.16600000 885051751 885051751 3.00000000
0.58287472 -2.65991926 -0.52930415 3 4 16764 2.77400000 885051753 885051753 -11.00000000
0.71472126 -3.26704788 -0.52968711 1 6 16766 3.38600000 885051758 885051758 -9.00000000
0.25179687 -1.15194654 0.14478078 4 7 16767 1.18800000 885051760 885051760 7.00000000
0.90811688 -4.15802622 -0.52257574 2 8 16768 4.28800000 885051763 885051763 -7.00000000
1.25607216 -5.75604057 -0.51543903 3 10 16769 5.91400000 885051767 885051767 -5.00000000
2.45411372 -11.27448845 2.66387033 46 13 16772 11.84200000 885051774 885051774 13.00000000
2.09793472 -9.64626122 2.64513063 42 15 16773 10.22000000 885051779 885051779 15.00000000
0.42341951 -1.96004891 -0.53730834 4 0 16781 2.07600000 885051799 885051799 -15.00000000
0.49380532 -2.28974390 -0.54078233 4 2 16783 2.40400000 885051804 885051804 -13.00000000
0.24443100 -1.13437164 0.06081438 7 3 16784 1.16200000 885051806 885051806 3.00000000
0.57565403 -2.67153358 -0.53121227 3 4 16784 2.78400000 885051809 885051809 -11.00000000
0.70248193 -3.26566029 -0.52906138 1 6 16786 3.38200000 885051813 885051813 -9.00000000
0.24694003 -1.14893687 0.14429331 7 7 16787 1.18400000 885051816 885051816 7.00000000
0.89443070 -4.16505241 -0.52306324 2 8 16788 4.29200000 885051818 885051818 -7.00000000
1.23012042 -5.73311710 -0.51299870 3 10 16789 5.88600000 885051822 885051822 -5.00000000
2.41555905 -11.28679752 2.66477013 46 13 16792 11.84600000 885051829 885051829 13.00000000
2.05973983 -9.64066124 2.64150715 40 15 16794 10.20600000 885051834 885051834 15.00000000
0.41543072 -1.95780814 -0.53627306 4 0 16802 2.07200000 885051855 885051855 -15.00000000
0.48096749 -2.27056742 -0.53583342 4 2 16804 2.38200000 885051859 885051859 -13.00000000
0.24316652 -1.14893782 0.06154709 7 3 16805 1.17600000 885051862 885051862 3.00000000
0.56585854 -2.67362547 -0.53121227 3 4 16805 2.78400000 885051864 885051864 -11.00000000
0.68846625 -3.25854945 -0.52749699 1 6 16807 3.37200000 885051869 885051869 -9.00000000
0.24026723 -1.13818061 0.14283086 7 7 16808 1.17200000 885051871 885051871 7.00000000
0.87342358 -4.14110994 -0.51965088 2 8 16809 4.26400000 885051873 885051873 -7.00000000
1.22553289 -5.81556988 -0.51997113 3 10 16810 5.96600000 885051878 885051878 -5.00000000
2.37657976 -11.30701733 2.66746950 45 13 16813 11.85800000 885051885 885051885 13.00000000
2.02647233 -9.64968300 2.64202476 38 15 16814 10.20800000 885051889 885051889 15.00000000
0.41214374 -1.97626674 -0.54093182 4 0 16822 2.09000000 885051910 885051910 -15.00000000
0.47343600 -2.27414036 -0.53628331 4 2 16824 2.38400000 885051915 885051915 -13.00000000
0.23834105 -1.14586878 0.06133774 7 3 16825 1.17200000 885051917 885051917 3.00000000
0.55692220 -2.67750669 -0.53159386 3 4 16825 2.78600000 885051919 885051919 -11.00000000
0.67949712 -3.27253771 -0.52937424 1 6 16827 3.38400000 885051924 885051924 -9.00000000
0.23387340 -1.12735009 0.14136843 7 7 16828 1.16000000 885051926 885051926 7.00000000
0.85896307 -4.14413357 -0.51965088 2 8 16829 4.26400000 885051928 885051928 -7.00000000
2.33709645 -11.31524372 2.66746950 46 13 16833 11.85800000 885051940 885051940 13.00000000
1.99499178 -9.67596626 2.64720130 40 15 16835 10.22800000 885051945 885051945 15.00000000
0.40485498 -1.97580087 -0.54041415 4 0 16842 2.08800000 885051965 885051965 -15.00000000
0.46471384 -2.27196074 -0.53538352 4 2 16844 2.38000000 885051970 885051970 -13.00000000
0.23074070 -1.12908244 0.06039570 10 3 16845 1.15400000 885051972 885051972 3.00000000
0.54364163 -2.66019940 -0.52777767 3 4 16845 2.76600000 885051975 885051975 -11.00000000
0.66728002 -3.27101851 -0.52874851 1 6 16847 3.38000000 885051979 885051979 -9.00000000
0.23072968 -1.13204980 0.14185591 7 7 16848 1.16400000 885051981 885051981 7.00000000
0.83973891 -4.12376451 -0.51672602 2 8 16849 4.24000000 885051984 885051984 -7.00000000
1.18490291 -5.82398415 -0.51997113 3 10 16850 5.96600000 885051988 885051988 -5.00000000
2.29603457 -11.31569386 2.66566992 46 13 16853 11.85000000 885051995 885051995 13.00000000
1.96251035 -9.68063545 2.64668345 40 15 16854 10.22600000 885052000 885052000 15.00000000
0.39643094 -1.96962655 -0.53834361 4 0 16862 2.08000000 885052021 885052021 -15.00000000
0.45716423 -2.27547956 -0.53583342 3 2 16864 2.38200000 885052025 885052025 -13.00000000
0.22719112 -1.13183916 0.06050036 10 3 16865 1.15600000 885052028 885052028 3.00000000
0.53512526 -2.66593051 -0.52854091 3 4 16865 2.77000000 885052030 885052030 -11.00000000
0.65508181 -3.26945400 -0.52812278 1 6 16867 3.37600000 885052034 885052034 -9.00000000
0.22794563 -1.13868773 0.14258713 7 7 16868 1.17000000 885052037 885052037 7.00000000
0.83001089 -4.15002918 -0.51965088 2 8 16869 4.26400000 885052039 885052039 -7.00000000
2.25804472 -11.33128452 2.66746950 45 13 16873 11.85800000 885052051 885052051 13.00000000
1.92795229 -9.68363762 2.64564824 38 15 16874 10.22200000 885052055 885052055 15.00000000
0.39027214 -1.97282541 -0.53886127 4 0 16881 2.08200000 885052076 885052076 -15.00000000
0.45112601 -2.28463030 -0.53763300 3 2 16883 2.39000000 885052081 885052081 -13.00000000
0.22420970 -1.13650537 0.06070971 10 3 16884 1.16000000 885052083 885052083 3.00000000
0.52400184 -2.65613365 -0.52625120 3 4 16884 2.75800000 885052085 885052085 -11.00000000
0.64461797 -3.27354670 -0.52843565 1 6 16886 3.37800000 885052090 885052090 -9.00000000
0.22378516 -1.13748956 0.14234339 9 7 16887 1.16800000 885052092 885052092 7.00000000
0.81854147 -4.16444540 -0.52111334 2 8 16888 4.27600000 885052094 885052094 -7.00000000
1.12910855 -5.74980259 -0.51265007 3 10 16889 5.88200000 885052099 885052099 -5.00000000
2.22270346 -11.35018444 2.67016912 44 13 16892 11.87000000 885052106 885052106 13.00000000
1.89620042 -9.69187355 2.64616585 38 15 16893 10.22400000 885052110 885052110 15.00000000
0.38375160 -1.97607219 -0.53937888 4 0 16901 2.08400000 885052131 885052131 -15.00000000
0.44240674 -2.28236485 -0.53673321 3 2 16903 2.38600000 885052136 885052136 -13.00000000
0.22289926 -1.15100682 0.06144241 10 3 16904 1.17400000 885052138 885052138 3.00000000
0.51622009 -2.66565633 -0.52777767 3 4 16904 2.76600000 885052140 885052140 -11.00000000
0.63168770 -3.26801896 -0.52718413 1 6 16906 3.37000000 885052145 885052145 -9.00000000
0.21981321 -1.13826382 0.14234339 9 7 16907 1.16800000 885052147 885052147 7.00000000
0.79723090 -4.13219261 -0.51672602 2 8 16908 4.24000000 885052150 885052150 -7.00000000
1.10148931 -5.71458101 -0.50916386 3 10 16909 5.84200000 885052154 885052154 -5.00000000
2.18454170 -11.36552906 2.67196870 44 13 16912 11.87800000 885052161 885052161 13.00000000
1.86139321 -9.70255280 2.64720130 38 15 16914 10.22800000 885052166 885052166 15.00000000
0.37757480 -1.98119509 -0.54041415 4 0 16921 2.08800000 885052187 885052187 -15.00000000
0.43334463 -2.27815199 -0.53538352 4 2 16923 2.38000000 885052191 885052191 -13.00000000
0.21664287 -1.14000499 0.06081438 10 3 16924 1.16200000 885052193 885052193 3.00000000
0.50837815 -2.67515707 -0.52930415 3 4 16924 2.77400000 885052196 885052196 -11.00000000
0.61843574 -3.26050019 -0.52561980 1 6 16926 3.36000000 885052200 885052200 -9.00000000
0.21399066 -1.12927222 0.14112470 9 7 16927 1.15800000 885052203 885052203 7.00000000
0.78612524 -4.15250444 -0.51891965 2 8 16928 4.25800000 885052205 885052205 -7.00000000
2.14413309 -11.36925507 2.67106891 45 13 16932 11.87400000 885052216 885052216 13.00000000
1.83135426 -9.72006226 2.65030694 38 15 16933 10.24000000 885052221 885052221 15.00000000
0.37243202 -1.99199569 -0.54300237 4 0 16941 2.09800000 885052242 885052242 -15.00000000
0.42610469 -2.28348231 -0.53628331 4 2 16943 2.38400000 885052246 885052246 -13.00000000
0.21010000 -1.12701035 0.06008168 12 3 16944 1.14800000 885052249 885052249 3.00000000
0.49831745 -2.67305517 -0.52854091 3 4 16944 2.77000000 885052251 885052251 -11.00000000
0.60849607 -3.27040720 -0.52687126 1 6 16946 3.36800000 885052256 885052256 -9.00000000
0.21149857 -1.13781893 0.14209965 16 7 16947 1.16600000 885052258 885052258 7.00000000
0.76981330 -4.14546442 -0.51770097 2 8 16948 4.24800000 885052260 885052260 -7.00000000
1.06592858 -5.74563932 -0.51125556 3 10 16949 5.86600000 885052265 885052265 -5.00000000
2.10372496 -11.37283802 2.67016912 46 13 16952 11.87000000 885052272 885052272 13.00000000
1.80022228 -9.74159336 2.65444803 40 15 16953 10.25600000 885052276 885052276 15.00000000
0.36234075 -1.97618198 -0.53834361 4 0 16961 2.08000000 885052297 885052297 -15.00000000
0.41567579 -2.27153730 -0.53313398 3 2 16963 2.37000000 885052302 885052302 -13.00000000
0.20600203 -1.12573612 0.05997701 15 3 16963 1.14600000 885052304 885052304 3.00000000
0.48863065 -2.67284703 -0.52815932 3 4 16964 2.76800000 885052306 885052306 -11.00000000
0.59991294 -3.28805780 -0.52937424 1 6 16966 3.38400000 885052311 885052311 -9.00000000
0.20859344 -1.14440906 0.14283086 14 7 16967 1.17200000 885052313 885052313 7.00000000
0.75249326 -4.13250256 -0.51575106 2 8 16968 4.23200000 885052315 885052315 -7.00000000
1.03873432 -5.71012068 -0.50776935 3 10 16969 5.82600000 885052320 885052320 -5.00000000
2.06540465 -11.38778210 2.67196870 43 13 16972 11.87800000 885052327 885052327 13.00000000
1.76414025 -9.73641300 2.65134239 38 15 16973 10.24400000 885052332 885052332 15.00000000
0.35373154 -1.96792793 -0.53575540 4 0 16981 2.07000000 885052352 885052352 -15.00000000
0.41049683 -2.28831935 -0.53673321 3 2 16983 2.38600000 885052357 885052357 -13.00000000
0.20504542 -1.14417708 0.06091905 15 3 16984 1.16400000 885052359 885052359 3.00000000
0.48068294 -2.68226647 -0.52968580 3 4 16984 2.77600000 885052362 885052362 -11.00000000
0.58391082 -3.26485300 -0.52530694 1 6 16986 3.35800000 885052366 885052366 -9.00000000
0.20669229 -1.15685511 0.14429331 14 7 16987 1.18400000 885052368 885052368 7.00000000
0.73876119 -4.13901281 -0.51623851 2 8 16988 4.23600000 885052371 885052371 -7.00000000
1.01809645 -5.70978880 -0.50742072 3 10 16989 5.82200000 885052375 885052375 -5.00000000
2.02700543 -11.40259647 2.67376828 41 13 16992 11.88600000 885052382 885052382 13.00000000
1.72776771 -9.73900890 2.65030694 38 15 16994 10.24000000 885052387 885052387 15.00000000
0.34651634 -1.96921110 -0.53575540 4 0 17002 2.07000000 885052408 885052408 -15.00000000
0.40345517 -2.29748607 -0.53853285 4 2 17004 2.39400000 885052412 885052412 -13.00000000
0.20139569 -1.14685309 0.06102372 17 3 17004 1.16600000 885052415 885052415 3.00000000
0.46847412 -2.67047405 -0.52701443 3 4 17005 2.76200000 885052417 885052417 -11.00000000
0.57091868 -3.26113391 -0.52436835 1 6 17007 3.35200000 885052421 885052421 -9.00000000
0.20074092 -1.14782786 0.14307460 9 7 17008 1.17400000 885052424 885052424 7.00000000
0.72563577 -4.15342522 -0.51770097 2 8 17009 4.24800000 885052426 885052426 -7.00000000
0.99647713 -5.70955658 -0.50707209 3 10 17010 5.81800000 885052431 885052431 -5.00000000
1.98787165 -11.42530823 2.67736745 41 13 17013 11.90200000 885052438 885052438 13.00000000
1.69574654 -9.75640011 2.65341282 40 15 17014 10.25200000 885052442 885052442 15.00000000
0.34160933 -1.98183143 -0.53886127 4 0 17022 2.08200000 885052463 885052463 -15.00000000
0.39146876 -2.27583408 -0.53313398 4 2 17024 2.37000000 885052467 885052467 -13.00000000
0.19874550 -1.15542245 0.06144241 30 3 17024 1.17400000 885052470 885052470 3.00000000
0.46047947 -2.67983270 -0.52854091 3 4 17025 2.77000000 885052472 885052472 -11.00000000
0.56019938 -3.26700068 -0.52499408 1 6 17027 3.35600000 885052477 885052477 -9.00000000
0.19639789 -1.14656496 0.14283086 9 7 17028 1.17200000 885052479 885052479 7.00000000
0.71180284 -4.15984631 -0.51818848 2 8 17029 4.25200000 885052481 885052481 -7.00000000
0.97452682 -5.70121670 -0.50602627 3 10 17030 5.80600000 885052486 885052486 -5.00000000
1.94601369 -11.42065144 2.67466807 43 13 17033 11.89000000 885052493 885052493 13.00000000
1.66362500 -9.77368736 2.65651870 38 15 17034 10.26400000 885052497 885052497 15.00000000
0.33342627 -1.97342908 -0.53627306 4 0 17041 2.07200000 885052518 885052518 -15.00000000
0.38391966 -2.27711964 -0.53313398 4 2 17043 2.37000000 885052523 885052523 -13.00000000
0.19371600 -1.15020061 0.06112840 45 3 17044 1.16800000 885052525 885052525 3.00000000
0.44963396 -2.66972899 -0.52625120 3 4 17044 2.75800000 885052527 885052527 -11.00000000
0.54903519 -3.26689243 -0.52468121 3 6 17046 3.35400000 885052532 885052532 -9.00000000
0.19292332 -1.14916766 0.14307460 9 7 17047 1.17400000 885052534 885052534 7.00000000
0.69603443 -4.15043736 -0.51672602 2 8 17048 4.24000000 885052537 885052537 -7.00000000
0.95890737 -5.72406721 -0.50776935 3 10 17049 5.82600000 885052541 885052541 -5.00000000
1.90813076 -11.42704201 2.67466807 44 13 17052 11.89000000 885052548 885052548 13.00000000
1.63013339 -9.78324604 2.65755391 38 15 17054 10.26800000 885052553 885052553 15.00000000
0.32811162 -1.98411071 -0.53886127 4 0 17061 2.08200000 885052573 885052573 -15.00000000
0.37818959 -2.29190516 -0.53628331 4 2 17063 2.38400000 885052578 885052578 -13.00000000
0.19022591 -1.15280724 0.06123307 52 3 17063 1.17000000 885052580 885052580 3.00000000
0.44158930 -2.67903066 -0.52777767 3 4 17064 2.76600000 885052583 885052583 -11.00000000
0.53826940 -3.27268744 -0.52530694 1 6 17066 3.35800000 885052587 885052587 -9.00000000
0.18762350 -1.14199877 0.14209965 9 7 17067 1.16600000 885052590 885052590 7.00000000
0.68154246 -4.15284157 -0.51672602 2 8 17068 4.24000000 885052592 885052592 -7.00000000
0.93698686 -5.71558237 -0.50672346 3 10 17069 5.81400000 885052597 885052597 -5.00000000
1.86885977 -11.43747902 2.67556787 43 13 17072 11.89400000 885052603 885052603 13.00000000
1.59628451 -9.79078293 2.65807152 35 15 17074 10.27000000 885052608 885052608 15.00000000
0.31933257 -1.97380161 -0.53575540 4 0 17081 2.07000000 885052629 885052629 -15.00000000
0.37111872 -2.29898262 -0.53763300 4 2 17083 2.39000000 885052633 885052633 -13.00000000
0.18620071 -1.15346432 0.06123307 50 3 17083 1.17000000 885052636 885052636 3.00000000
0.43317264 -2.68637037 -0.52892256 3 4 17084 2.77200000 885052638 885052638 -11.00000000
0.52652854 -3.27259612 -0.52499408 1 6 17086 3.35600000 885052643 885052643 -9.00000000
0.18615592 -1.15832627 0.14404957 7 7 17087 1.18200000 885052645 885052645 7.00000000
0.66704220 -4.15519524 -0.51672602 2 8 17088 4.24000000 885052647 885052647 -7.00000000
0.91450638 -5.70308018 -0.50532901 3 10 17089 5.79800000 885052652 885052652 -5.00000000
1.83015430 -11.45163059 2.67736745 43 13 17092 11.90200000 885052659 885052659 13.00000000
1.56118584 -9.79057217 2.65651870 38 15 17094 10.26400000 885052663 885052663 15.00000000
0.31244078 -1.97490430 -0.53575540 4 0 17101 2.07000000 885052684 885052684 -15.00000000
0.36187616 -2.29256463 -0.53583342 4 2 17103 2.38200000 885052689 885052689 -13.00000000
0.18217322 -1.15410721 0.06123307 55 3 17103 1.17000000 885052691 885052691 3.00000000
0.42195824 -2.67623043 -0.52663285 3 4 17104 2.76000000 885052693 885052693 -11.00000000
0.51448792 -3.27051139 -0.52436835 1 6 17106 3.35200000 885052698 885052698 -9.00000000
0.18118705 -1.15308595 0.14331836 7 7 17107 1.17600000 885052700 885052700 7.00000000
0.64945579 -4.13788748 -0.51428860 2 8 17108 4.22000000 885052703 885052703 -7.00000000
0.88965595 -5.67474413 -0.50253999 3 10 17109 5.76600000 885052707 885052707 -5.00000000
1.79257607 -11.47335243 2.68096662 44 13 17112 11.91800000 885052714 885052714 13.00000000
1.52938128 -9.81123257 2.66065979 38 15 17114 10.28000000 885052719 885052719 15.00000000
0.30613559 -1.97980118 -0.53679073 4 0 17121 2.07400000 885052739 885052739 -15.00000000
0.35060307 -2.27262831 -0.53088450 4 2 17123 2.36000000 885052744 885052744 -13.00000000
0.17783901 -1.15276217 0.06112840 67 3 17123 1.16800000 885052746 885052746 3.00000000
0.41351086 -2.68350816 -0.52777767 3 4 17124 2.76600000 885052749 885052749 -11.00000000
0.50186789 -3.26447749 -0.52311683 1 6 17126 3.34400000 885052753 885052753 -9.00000000
0.17535315 -1.14193881 0.14185591 7 7 17127 1.16400000 885052755 885052755 7.00000000
0.63922125 -4.16759968 -0.51770097 2 8 17128 4.24800000 885052758 885052758 -7.00000000
0.87708312 -5.72508097 -0.50672346 3 10 17129 5.81400000 885052762 885052762 -5.00000000
1.75016296 -11.46412849 2.67736745 47 13 17132 11.90200000 885052769 885052769 13.00000000
1.49771130 -9.82197952 2.66221261 35 15 17133 10.28600000 885052774 885052774 15.00000000
0.29951149 -1.98276794 -0.53730834 4 0 17141 2.07600000 885052795 885052795 -15.00000000
0.34499115 -2.28925419 -0.53448373 4 2 17143 2.37600000 885052799 885052799 -13.00000000
0.17173065 -1.13955116 0.06039570 52 3 17143 1.15400000 885052802 885052802 3.00000000
0.40238783 -2.67328691 -0.52548796 3 4 17144 2.75400000 885052804 885052804 -11.00000000
0.49252310 -3.27988386 -0.52530694 3 6 17146 3.35800000 885052808 885052808 -9.00000000
0.17431042 -1.16217530 0.14429331 7 7 17147 1.18400000 885052811 885052811 7.00000000
0.61761129 -4.12268877 -0.51185125 2 8 17148 4.20000000 885052813 885052813 -7.00000000
0.85591418 -5.72022581 -0.50602627 3 10 17149 5.80600000 885052818 885052818 -5.00000000
1.71128452 -11.47787762 2.67916703 38 13 17152 11.91000000 885052825 885052825 13.00000000
1.46425974 -9.84460068 2.66687155 19 15 17154 10.30400000 885052829 885052829 15.00000000
0.29308692 -1.98958600 -0.53886127 4 0 17162 2.08200000 885052850 885052850 -15.00000000
0.33688164 -2.29243112 -0.53493363 4 2 17164 2.37800000 885052855 885052855 -13.00000000
0.16880403 -1.15008259 0.06091905 45 3 17165 1.16400000 885052857 885052857 3.00000000
0.39230195 -2.67280126 -0.52510637 3 4 17165 2.75200000 885052859 885052859 -11.00000000
0.47906750 -3.27189422 -0.52374262 1 6 17167 3.34800000 885052864 885052864 -9.00000000
0.16832618 -1.15102112 0.14283086 7 7 17168 1.17200000 885052866 885052866 7.00000000
0.60364437 -4.13278198 -0.51282620 2 8 17169 4.20800000 885052868 885052868 -7.00000000
0.82919049 -5.68389416 -0.50253999 3 10 17170 5.76600000 885052873 885052873 -5.00000000
1.67088628 -11.49564362 2.68186641 14 13 17173 11.92200000 885052880 885052880 13.00000000
0.28504068 -1.98294818 -0.53679073 4 0 17182 2.07400000 885052905 885052905 -15.00000000
0.32943070 -2.29745126 -0.53583342 4 2 17184 2.38200000 885052910 885052910 -13.00000000
0.16507162 -1.15264189 0.06102372 25 3 17185 1.16600000 885052912 885052912 3.00000000
0.38269141 -2.67221093 -0.52472472 3 4 17185 2.75000000 885052914 885052914 -11.00000000
0.46708483 -3.26963544 -0.52311683 1 6 17187 3.34400000 885052919 885052919 -9.00000000
0.16767199 -1.17518401 0.14575574 7 7 17188 1.19600000 885052921 885052921 7.00000000
0.59089488 -4.14665556 -0.51428860 2 8 17189 4.22000000 885052924 885052924 -7.00000000
0.80934495 -5.68675375 -0.50253999 3 10 17190 5.76600000 885052928 885052928 -5.00000000
0.36034748 -2.54787040 0.68949395 1 15 17195 2.66400000 885052940 885052940 15.00000000
0.27907854 -1.98574698 -0.53730834 4 0 17200 2.07600000 885052961 885052961 -15.00000000
0.32112929 -2.29075527 -0.53403378 4 2 17202 2.37400000 885052965 885052965 -13.00000000
0.16117275 -1.15117693 0.06091905 20 3 17203 1.16400000 885052967 885052967 3.00000000
0.37511119 -2.67923284 -0.52586961 3 4 17203 2.75600000 885052970 885052970 -11.00000000
0.46036243 -3.29651999 -0.52718413 1 6 17205 3.37000000 885052974 885052974 -9.00000000
0.16343080 -1.17177284 0.14526826 7 7 17206 1.19200000 885052977 885052977 7.00000000
0.57896036 -4.15635586 -0.51526356 2 8 17207 4.22800000 885052979 885052979 -7.00000000
0.79147553 -5.68926859 -0.50253999 3 10 17208 5.76600000 885052984 885052984 -5.00000000
0.35042086 -2.52211356 0.49495852 3 11 17209 2.59400000 885052986 885052986 11.00000000
0.35252136 -2.54701471 0.68897629 22 15 17212 2.66200000 885052995 885052995 15.00000000
0.27188310 -1.98479497 -0.53679073 4 0 17220 2.07400000 885053016 885053016 -15.00000000
0.31154829 -2.28027749 -0.53133440 4 2 17222 2.36200000 885053020 885053020 -13.00000000
0.15715341 -1.15173244 0.06091905 20 3 17223 1.16400000 885053023 885053023 3.00000000
0.36522576 -2.67663550 -0.52510637 3 4 17223 2.75200000 885053025 885053025 -11.00000000
0.44565606 -3.27461886 -0.52342969 1 6 17225 3.34600000 885053030 885053030 -9.00000000
0.15933955 -1.17233610 0.14526826 7 7 17226 1.19200000 885053032 885053032 7.00000000
0.56177837 -4.13868093 -0.51282620 2 8 17227 4.20800000 885053034 885053034 -7.00000000
0.77161145 -5.69199657 -0.50253999 3 10 17228 5.76600000 885053039 885053039 -5.00000000
0.34186581 -2.53182197 0.58982164 25 13 17231 2.62200000 885053046 885053046 13.00000000
0.26426005 -1.98582435 -0.53679073 4 0 17242 2.07400000 885053071 885053071 -15.00000000
0.30227762 -2.27759337 -0.53043461 4 2 17244 2.35800000 885053076 885053076 -13.00000000
0.15351719 -1.15826726 0.06123307 15 3 17245 1.17000000 885053078 885053078 3.00000000
0.35546148 -2.68191051 -0.52586961 3 4 17245 2.75600000 885053080 885053080 -11.00000000
0.43256143 -3.27238917 -0.52280396 1 6 17247 3.34200000 885053085 885053085 -9.00000000
0.15483694 -1.17293930 0.14526826 7 7 17248 1.19200000 885053087 885053087 7.00000000
0.54536396 -4.13687134 -0.51233870 2 8 17249 4.20400000 885053090 885053090 -7.00000000
0.75391102 -5.72652292 -0.50532901 3 10 17250 5.79800000 885053094 885053094 -5.00000000
0.33089989 -2.51682854 0.49343207 40 11 17251 2.58600000 885053096 885053096 11.00000000
0.32935494 -2.51186180 0.58487272 40 13 17253 2.60000000 885053101 885053101 13.00000000
0.33308899 -2.54378390 0.68742341 67 15 17254 2.65600000 885053106 885053106 15.00000000
0.25658217 -1.98098719 -0.53523779 4 0 17262 2.06800000 885053126 885053126 -15.00000000
0.29732117 -2.30182672 -0.53583342 4 2 17264 2.38200000 885053131 885053131 -13.00000000
0.14947315 -1.15879607 0.06123307 12 3 17265 1.17000000 885053133 885053133 3.00000000
0.34484190 -2.67339945 -0.52396148 3 4 17265 2.74600000 885053136 885053136 -11.00000000
0.42189211 -3.27975678 -0.52374262 1 6 17267 3.34800000 885053140 885053140 -9.00000000
0.15276505 -1.18922400 0.14721817 7 7 17268 1.20800000 885053143 885053143 7.00000000
0.53294092 -4.15450144 -0.51428860 2 8 17269 4.22000000 885053145 885053145 -7.00000000
0.31676260 -2.47271872 0.39484060 1 9 17270 2.52400000 885053147 885053147 9.00000000
0.72986656 -5.69749975 -0.50253999 3 10 17270 5.76600000 885053149 885053149 -5.00000000
0.32161427 -2.51407361 0.49266884 51 11 17271 2.58200000 885053152 885053152 11.00000000
0.31935188 -2.50333071 0.58262324 54 13 17273 2.59000000 885053156 885053156 13.00000000
0.32303193 -2.53923845 0.68587047 72 15 17275 2.65000000 885053161 885053161 15.00000000
0.24942423 -1.97995400 -0.53472012 4 0 17282 2.06600000 885053182 885053182 -15.00000000
0.28928450 -2.30285072 -0.53583342 4 2 17284 2.38200000 885053186 885053186 -13.00000000
0.14741604 -1.17516458 0.06207044 17 3 17285 1.18600000 885053189 885053189 3.00000000
0.33599660 -2.67848277 -0.52472472 3 4 17285 2.75000000 885053191 885053191 -11.00000000
0.40798920 -3.26160860 -0.52061391 3 6 17287 3.32800000 885053196 885053196 -9.00000000
0.14984320 -1.19959891 0.14843686 6 7 17288 1.21800000 885053198 885053198 7.00000000
0.51696151 -4.14451742 -0.51282620 2 8 17289 4.20800000 885053200 885053200 -7.00000000
