# .PCD v0.7 - Point Cloud Data file format
VERSION 0.7
FIELDS x y z intensity laser_id azimuth distance_m adjustedtime timestamp vertical_angle
SIZE 4 4 4 1 1 2 8 8 4 8
TYPE F F F U U U F U U F
COUNT 1 1 1 1 1 1 1 1 1 1
WIDTH 533
HEIGHT 1
VIEWPOINT 0 0 0 1 0 0 0
POINTS 533
DATA ascii
-1.77785969 -3.45637274 -0.47724035 1 8 20722 3.91600000 880762611 880762611 -7.00000000
-2.37483478 -4.61498308 -0.45408142 3 10 20723 5.21000000 880762615 880762615 -5.00000000
-3.47781634 -6.75259733 -0.39806730 4 12 20725 7.60600000 880762620 880762620 -3.00000000
-5.03414917 -9.77021503 2.53744793 47 13 20726 11.28000000 880762622 880762622 13.00000000
-4.80176067 -9.31121445 2.80715132 71 15 20728 10.84600000 880762627 880762627 15.00000000
-0.89286590 -1.72619820 -0.52074391 5 0 20735 2.01200000 880762648 880762648 -15.00000000
-1.01864254 -1.96768177 -0.51153868 4 2 20737 2.27400000 880762652 880762652 -13.00000000
-1.19360840 -2.30467272 -0.50449896 3 4 20738 2.64400000 880762657 880762657 -11.00000000
-1.42905474 -2.75692606 -0.49182996 3 6 20740 3.14400000 880762662 880762662 -9.00000000
-1.78168654 -3.43428707 -0.47504669 1 8 20742 3.89800000 880762666 880762666 -7.00000000
-2.38542247 -4.59605503 -0.45303556 3 10 20743 5.19800000 880762671 880762671 -5.00000000
-3.51977968 -6.77586460 -0.40016073 4 12 20745 7.64600000 880762675 880762675 -3.00000000
-4.83974028 -9.30895233 2.81129241 71 15 20747 10.86200000 880762682 880762682 15.00000000
-0.89709896 -1.71964538 -0.51970863 4 0 20755 2.00800000 880762703 880762703 -15.00000000
-1.02550483 -1.96411407 -0.51153868 4 2 20757 2.27400000 880762708 880762708 -13.00000000
-1.19619215 -2.29005122 -0.50220925 3 4 20758 2.63200000 880762712 880762712 -11.00000000
-1.44507587 -2.76417518 -0.49402004 1 6 20760 3.15800000 880762717 880762717 -9.00000000
-1.80010569 -3.44035912 -0.47675288 1 8 20762 3.91200000 880762721 880762721 -7.00000000
-2.40884328 -4.60182190 -0.45443004 3 10 20763 5.21400000 880762726 880762726 -5.00000000
-3.53414178 -6.74584532 -0.39911401 4 12 20765 7.62600000 880762731 880762731 -3.00000000
-4.86933994 -9.28259754 2.80870438 66 15 20768 10.85200000 880762738 880762738 15.00000000
-0.89919978 -1.70982182 -0.51763809 4 0 20774 2.00000000 880762758 880762758 -15.00000000
-1.03927374 -1.97449815 -0.51513791 4 2 20776 2.29000000 880762763 880762763 -13.00000000
-1.20377970 -2.28607178 -0.50220925 3 4 20777 2.63200000 880762768 880762768 -11.00000000
-1.44686639 -2.74538755 -0.49151710 1 6 20779 3.14200000 880762772 880762772 -9.00000000
-1.80409539 -3.42032433 -0.47480297 1 8 20781 3.89600000 880762777 880762777 -7.00000000
-2.42037082 -4.58676004 -0.45373279 3 10 20782 5.20600000 880762781 880762781 -5.00000000
-3.56955051 -6.75881338 -0.40057942 4 12 20784 7.65400000 880762786 880762786 -3.00000000
-4.90118647 -9.27237797 2.81025720 49 15 20786 10.85800000 880762793 880762793 15.00000000
-0.90606785 -1.70837927 -0.51815575 4 0 20794 2.00200000 880762814 880762814 -15.00000000
-1.04159141 -1.96225202 -0.51288843 4 2 20796 2.28000000 880762818 880762818 -13.00000000
-1.20991063 -2.27838802 -0.50144607 3 4 20797 2.62800000 880762823 880762823 -11.00000000
-1.45087826 -2.72985435 -0.48963988 2 6 20799 3.13000000 880762827 880762827 -9.00000000
-1.81322682 -3.40874815 -0.47407174 1 8 20801 3.89000000 880762832 880762832 -7.00000000
-2.43636680 -4.57828331 -0.45373279 3 10 20802 5.20600000 880762837 880762837 -5.00000000
-3.57809925 -6.71810722 -0.39890465 4 12 20804 7.62200000 880762841 880762841 -3.00000000
-0.91050047 -1.70164025 -0.51712048 4 0 20815 1.99800000 880762869 880762869 -15.00000000
-1.04417646 -1.94983160 -0.51063889 4 2 20817 2.27000000 880762874 880762874 -13.00000000
-1.23123312 -2.29816580 -0.50678867 3 4 20818 2.65600000 880762878 880762878 -11.00000000
-1.46554124 -2.73322296 -0.49120423 2 6 20820 3.14000000 880762883 880762883 -9.00000000
-1.82946301 -3.40907621 -0.47504669 1 8 20822 3.89800000 880762887 880762887 -7.00000000
-2.44936109 -4.56230116 -0.45303556 3 10 20823 5.19800000 880762892 880762892 -5.00000000
-3.59891701 -6.69791031 -0.39848596 4 12 20825 7.61400000 880762897 880762897 -3.00000000
-4.08537388 -7.59688902 2.31125402 6 15 20827 8.93000000 880762903 880762903 15.00000000
-0.92193884 -1.70865250 -0.52022630 4 0 20835 2.01000000 880762924 880762924 -15.00000000
-1.05097628 -1.94617486 -0.51063889 4 2 20837 2.27000000 880762929 880762929 -13.00000000
-1.22618330 -2.26967192 -0.50144607 3 4 20838 2.62800000 880762933 880762933 -11.00000000
-1.47601259 -2.72982812 -0.49151710 1 6 20840 3.14200000 880762938 880762938 -9.00000000
-1.82529068 -3.37298989 -0.47090313 1 8 20842 3.86400000 880762943 880762943 -7.00000000
-2.46527147 -4.55372381 -0.45303556 3 10 20843 5.19800000 880762947 880762947 -5.00000000
-3.62037206 -6.68179464 -0.39827663 4 12 20845 7.61000000 880762952 880762952 -3.00000000
-4.12332392 -7.60054302 2.31694818 9 15 20848 8.95200000 880762959 880762959 15.00000000
-0.92298496 -1.69710028 -0.51763809 4 0 20854 2.00000000 880762980 880762980 -15.00000000
-1.06208253 -1.95123708 -0.51288843 4 2 20856 2.28000000 880762984 880762984 -13.00000000
-1.22806966 -2.25524807 -0.49915633 3 4 20857 2.61600000 880762989 880762989 -11.00000000
-1.48411167 -2.72318411 -0.49120423 2 6 20859 3.14000000 880762993 880762993 -9.00000000
-1.85167468 -3.39480186 -0.47480297 1 8 20861 3.89600000 880762998 880762998 -7.00000000
-2.48608470 -4.55601740 -0.45408142 3 10 20862 5.21000000 880763003 880763003 -5.00000000
-5.12115049 -9.38116360 2.07752824 25 11 20863 10.88800000 880763005 880763005 11.00000000
-3.64825368 -6.68026972 -0.39890465 4 12 20864 7.62200000 880763007 880763007 -3.00000000
-5.39767504 -9.87951279 2.59908438 20 13 20865 11.55400000 880763009 880763009 13.00000000
-4.14440155 -7.58246660 2.31539512 9 15 20866 8.94600000 880763014 880763014 15.00000000
-0.92797440 -1.69217432 -0.51712048 4 0 20874 1.99800000 880763035 880763035 -15.00000000
-1.06607425 -1.94239283 -0.51153868 4 2 20876 2.27400000 880763039 880763039 -13.00000000
-1.24727333 -2.27159834 -0.50373572 3 4 20877 2.64000000 880763044 880763044 -11.00000000
-1.48980284 -2.71106219 -0.48995274 2 6 20879 3.13200000 880763049 880763049 -9.00000000
-1.86925328 -3.39875388 -0.47626540 1 8 20881 3.90800000 880763053 880763053 -7.00000000
-2.49428940 -4.53334665 -0.45268694 3 10 20882 5.19400000 880763058 880763058 -5.00000000
-3.65998912 -6.64649963 -0.39764860 4 12 20884 7.59800000 880763062 880763062 -3.00000000
-4.17923594 -7.58318090 2.32005382 9 15 20886 8.96400000 880763069 880763069 15.00000000
-0.93451530 -1.69077849 -0.51763809 4 0 20893 2.00000000 880763090 880763090 -15.00000000
-1.07062304 -1.93543649 -0.51063889 4 2 20895 2.27000000 880763095 880763095 -13.00000000
-1.24909580 -2.25714326 -0.50144607 3 4 20896 2.62800000 880763099 880763099 -11.00000000
-1.49495661 -2.69919467 -0.48870125 2 6 20898 3.12400000 880763104 880763104 -9.00000000
-1.88436317 -3.39948130 -0.47724035 1 8 20900 3.91600000 880763108 880763108 -7.00000000
-2.50351143 -4.51459599 -0.45164105 3 10 20901 5.18200000 880763113 880763113 -5.00000000
-3.68588638 -6.64131165 -0.39806730 4 12 20903 7.60600000 880763118 880763118 -3.00000000
-4.21092606 -7.58110189 2.32367730 11 15 20905 8.97800000 880763125 880763125 15.00000000
-0.94041151 -1.68750620 -0.51763809 5 0 20913 2.00000000 880763145 880763145 -15.00000000
-1.07737243 -1.93168747 -0.51063889 4 2 20915 2.27000000 880763150 880763150 -13.00000000
-1.26653302 -2.26991367 -0.50526220 3 4 20916 2.64800000 880763155 880763155 -11.00000000
-1.50629568 -2.69740915 -0.48932701 2 6 20918 3.12800000 880763159 880763159 -9.00000000
-1.87878609 -3.36169195 -0.47285306 1 8 20920 3.88000000 880763164 880763164 -7.00000000
-2.53092289 -4.52669764 -0.45373279 3 10 20921 5.20600000 880763168 880763168 -5.00000000
-3.69149113 -6.59703207 -0.39618319 4 12 20923 7.57000000 880763173 880763173 -3.00000000
-4.25284767 -7.59089804 2.33144188 15 15 20926 9.00800000 880763180 880763180 15.00000000
-0.95321637 -1.69583642 -0.52126157 4 0 20934 2.01400000 880763201 880763201 -15.00000000
-1.08635616 -1.93112266 -0.51153868 4 2 20936 2.27400000 880763205 880763205 -13.00000000
-1.26521540 -2.24814725 -0.50144607 3 4 20937 2.62800000 880763210 880763210 -11.00000000
-1.52392733 -2.70563936 -0.49182996 3 6 20939 3.14400000 880763214 880763214 -9.00000000
-1.89499390 -3.36170030 -0.47382802 1 8 20941 3.88800000 880763219 880763219 -7.00000000
-2.53183818 -4.48962355 -0.45094383 3 10 20942 5.17400000 880763224 880763224 -5.00000000
-3.71171880 -6.57650042 -0.39576450 4 12 20944 7.56200000 880763228 880763228 -3.00000000
-4.29072046 -7.59619093 2.33765364 20 15 20946 9.03200000 880763235 880763235 15.00000000
-0.95055795 -1.67737210 -0.51660281 4 0 20954 1.99600000 880763256 880763256 -15.00000000
-1.09309042 -1.92731869 -0.51153868 4 2 20956 2.27400000 880763260 880763260 -13.00000000
-1.26917982 -2.23688698 -0.49991956 3 4 20957 2.62000000 880763265 880763265 -11.00000000
-1.53336251 -2.70030355 -0.49182996 3 6 20959 3.14400000 880763270 880763270 -9.00000000
-1.90475523 -3.35161328 -0.47334054 1 8 20961 3.88400000 880763274 880763274 -7.00000000
-2.53961658 -4.46690226 -0.44954932 3 10 20962 5.15800000 880763279 880763279 -5.00000000
-3.73267698 -6.56003237 -0.39555517 4 12 20964 7.55800000 880763284 880763284 -3.00000000
-4.32198954 -7.58956099 2.34024191 22 15 20966 9.04200000 880763290 880763290 15.00000000
-0.95449060 -1.67068899 -0.51556754 4 0 20974 1.99200000 880763311 880763311 -15.00000000
-1.10464776 -1.93194997 -0.51378822 4 2 20976 2.28400000 880763316 880763316 -13.00000000
-1.28087950 -2.23925972 -0.50144607 3 4 20977 2.62800000 880763320 880763320 -11.00000000
-1.53885341 -2.68807721 -0.49057847 2 6 20979 3.13600000 880763325 880763325 -9.00000000
-1.91841662 -3.34838891 -0.47382802 1 8 20981 3.88800000 880763330 880763330 -7.00000000
-2.56311965 -4.47183895 -0.45094383 3 10 20982 5.17400000 880763334 880763334 -5.00000000
-3.77344131 -6.57814693 -0.39743924 4 12 20984 7.59400000 880763339 880763339 -3.00000000
-4.35555029 -7.58372068 2.34334755 22 15 20987 9.05400000 880763346 880763346 15.00000000
-0.96224493 -1.67069507 -0.51660281 5 0 20994 1.99600000 880763366 880763366 -15.00000000
-1.10457253 -1.91626394 -0.51063889 4 2 20996 2.27000000 880763371 880763371 -13.00000000
-1.29457259 -2.24497938 -0.50373572 3 4 20997 2.64000000 880763376 880763376 -11.00000000
-1.54230273 -2.67242384 -0.48870125 2 6 20999 3.12400000 880763380 880763380 -9.00000000
-1.93605006 -3.35198593 -0.47529045 1 8 21001 3.90000000 880763385 880763385 -7.00000000
-2.57472658 -4.45596409 -0.45024657 3 10 21002 5.16600000 880763390 880763390 -5.00000000
-3.77338409 -6.52516842 -0.39503181 4 12 21004 7.54800000 880763394 880763394 -3.00000000
-4.39554787 -7.59187651 2.35059452 22 15 21007 9.08200000 880763401 880763401 15.00000000
-0.97001094 -1.67066741 -0.51763809 4 0 21014 2.00000000 880763422 880763422 -15.00000000
-1.10733843 -1.90565693 -0.50883931 4 2 21016 2.26200000 880763426 880763426 -13.00000000
-1.30437446 -2.24384141 -0.50449896 3 4 21017 2.64400000 880763431 880763431 -11.00000000
-1.55162191 -2.66702390 -0.48870125 2 6 21019 3.12400000 880763436 880763436 -9.00000000
-1.91777360 -3.29374266 -0.46797827 1 8 21021 3.84000000 880763440 880763440 -7.00000000
-2.59427619 -4.45383596 -0.45094383 3 10 21022 5.17400000 880763445 880763445 -5.00000000
-3.78507376 -6.49297714 -0.39388040 4 12 21024 7.52600000 880763449 880763449 -3.00000000
-4.43662834 -7.60151386 2.35835910 13 15 21027 9.11200000 880763456 880763456 15.00000000
-0.98266757 -1.67894220 -0.52126157 5 0 21034 2.01400000 880763477 880763477 -15.00000000
-1.12087834 -1.91355050 -0.51198858 4 2 21036 2.27600000 880763482 880763482 -13.00000000
-3.51197267 -5.99559879 0.36415359 2 3 21036 6.95800000 880763484 880763484 3.00000000
-1.30425835 -2.22572374 -0.50144607 3 4 21037 2.62800000 880763486 880763486 -11.00000000
-3.51658130 -5.99866390 0.60834706 10 5 21038 6.98000000 880763489 880763489 5.00000000
-1.56392002 -2.66670346 -0.48963988 2 6 21039 3.13000000 880763491 880763491 -9.00000000
-1.95538473 -3.33154011 -0.47431549 1 8 21041 3.89200000 880763496 880763496 -7.00000000
-3.51766467 -5.99331713 1.10067284 15 9 21041 7.03600000 880763498 880763498 9.00000000
-2.60375428 -4.43444443 -0.44989794 3 10 21042 5.16200000 880763500 880763500 -5.00000000
-3.51704955 -5.98748064 1.34978282 50 11 21043 7.07400000 880763502 880763502 11.00000000
-3.59319615 -6.11467028 -0.37168998 3 12 21044 7.10200000 880763505 880763505 -3.00000000
-3.50596118 -5.96383619 1.59715247 79 13 21045 7.10000000 880763507 880763507 13.00000000
-3.53179693 -6.00538492 -0.12160837 19 14 21046 6.96800000 880763509 880763509 -1.00000000
-3.50898862 -5.96421957 1.85417962 45 15 21047 7.16400000 880763512 880763512 15.00000000
-0.98165065 -1.66385484 -0.51763809 5 0 21054 2.00000000 880763532 880763532 -15.00000000
-3.54020953 -5.99810743 0.12157346 14 1 21055 6.96600000 880763535 880763535 1.00000000
-1.12755108 -1.90962625 -0.51198858 4 2 21056 2.27600000 880763537 880763537 -13.00000000
-3.53491092 -5.98674297 0.36436293 10 3 21056 6.96200000 880763539 880763539 3.00000000
-1.30403161 -2.20763445 -0.49839309 3 4 21057 2.61200000 880763542 880763542 -11.00000000
-3.53547168 -5.98292160 0.60799849 10 5 21058 6.97600000 880763544 880763544 5.00000000
-1.57723999 -2.66803002 -0.49089134 2 6 21059 3.13800000 880763546 880763546 -9.00000000
-3.53875065 -5.98370075 0.85357291 10 7 21060 7.00400000 880763548 880763548 7.00000000
-3.54990292 -6.00016785 -0.85601026 2 8 21061 7.02400000 880763551 880763551 -7.00000000
-3.52649355 -5.96060038 1.09691846 77 9 21061 7.01200000 880763553 880763553 9.00000000
-3.56095886 -6.01645803 -0.61165899 8 10 21062 7.01800000 880763555 880763555 -5.00000000
-3.52192402 -5.94813824 1.34367692 62 11 21063 7.04200000 880763558 880763558 11.00000000
-3.55548120 -6.00242233 -0.36561900 10 12 21064 6.98600000 880763560 880763560 -3.00000000
-3.51483607 -5.93144369 1.59175360 90 13 21065 7.07600000 880763562 880763562 13.00000000
-3.53030419 -5.95517635 -0.12084046 6 14 21066 6.92400000 880763565 880763565 -1.00000000
-3.50608921 -5.91432905 1.84227395 56 15 21066 7.11800000 880763567 880763567 15.00000000
-0.98646516 -1.65875769 -0.51712048 5 0 21074 1.99800000 880763588 880763588 -15.00000000
-3.54169893 -5.95306063 0.12091027 8 1 21075 6.92800000 880763590 880763590 1.00000000
-1.13520670 -1.90735328 -0.51243848 4 2 21076 2.27800000 880763592 880763592 -13.00000000
-3.54659343 -5.95892048 0.36342087 7 3 21076 6.94400000 880763595 880763595 3.00000000
-1.32177365 -2.21993780 -0.50220925 3 4 21077 2.63200000 880763597 880763597 -11.00000000
-3.54104066 -5.94486809 0.60538381 13 5 21078 6.94600000 880763599 880763599 5.00000000
-1.58957708 -2.66759896 -0.49182996 3 6 21079 3.14400000 880763601 880763601 -9.00000000
-3.54538584 -5.94744015 0.85016054 10 7 21080 6.97600000 880763604 880763604 7.00000000
-1.97046137 -3.30416846 -0.47236559 1 8 21081 3.87600000 880763606 880763606 -7.00000000
-3.52704287 -5.91432238 1.09066105 55 9 21081 6.97200000 880763608 880763608 9.00000000
-2.63260746 -4.41273689 -0.44954932 3 10 21082 5.15800000 880763611 880763611 -5.00000000
-3.52757311 -5.91052055 1.33795273 75 11 21083 7.01200000 880763613 880763613 11.00000000
-3.55900574 -5.96082211 -0.36383957 10 12 21084 6.95200000 880763615 880763615 -3.00000000
-3.52352762 -5.89906216 1.58635485 101 13 21085 7.05200000 880763618 880763618 13.00000000
-3.55312157 -5.94625044 -0.12091027 14 14 21086 6.92800000 880763620 880763620 -1.00000000
-3.51089215 -5.87325001 1.83347416 58 15 21087 7.08400000 880763622 880763622 15.00000000
-0.99026281 -1.65199018 -0.51608515 5 0 21094 1.99400000 880763643 880763643 -15.00000000
-3.54497433 -5.91150713 0.12031689 11 1 21095 6.89400000 880763645 880763645 1.00000000
-1.14085519 -1.90170789 -0.51198858 4 2 21096 2.27600000 880763648 880763648 -13.00000000
-3.55402160 -5.92190647 0.36195546 10 3 21097 6.91600000 880763650 880763650 3.00000000
-1.32749414 -2.21194386 -0.50144607 3 4 21097 2.62800000 880763652 880763652 -11.00000000
-3.55151486 -5.91538954 0.60364068 13 5 21098 6.92600000 880763654 880763654 5.00000000
-1.59379363 -2.65356684 -0.49026561 1 6 21099 3.13400000 880763657 880763657 -9.00000000
-3.54158711 -5.89419079 0.84431082 10 7 21100 6.92800000 880763659 880763659 7.00000000
-3.58556890 -5.96503019 -0.85454786 2 8 21101 7.01200000 880763661 880763661 -7.00000000
-3.53850722 -5.88673735 1.08784533 70 9 21101 6.95400000 880763664 880763664 9.00000000
-2.63772702 -4.38644600 -0.44780621 3 10 21102 5.13800000 880763666 880763666 -5.00000000
-3.52187037 -5.85443115 1.32803059 71 11 21103 6.96000000 880763668 880763668 11.00000000
-3.56743288 -5.92782736 -0.36258352 10 12 21104 6.92800000 880763671 880763671 -3.00000000
-3.52801561 -5.86001444 1.57915640 92 13 21105 7.02000000 880763673 880763673 13.00000000
-3.55941224 -5.90982962 -0.12042160 17 14 21106 6.90000000 880763675 880763675 -1.00000000
-3.52038217 -5.84502649 1.82829773 69 15 21106 7.06400000 880763678 880763678 15.00000000
-1.00401545 -1.66175139 -0.52022630 4 0 21114 2.01000000 880763698 880763698 -15.00000000
-3.55834699 -5.88711739 0.12007256 14 1 21115 6.88000000 880763701 880763701 1.00000000
-1.14042807 -1.88604093 -0.50883931 4 2 21116 2.26200000 880763703 880763703 -13.00000000
-3.55916500 -5.88383055 0.36038539 10 3 21117 6.88600000 880763705 880763705 3.00000000
-1.34130394 -2.21737552 -0.50373572 3 4 21117 2.64000000 880763707 880763707 -11.00000000
-3.55666924 -5.87738800 0.60102600 13 5 21118 6.89600000 880763710 880763710 5.00000000
-1.59486258 -2.63446856 -0.48776266 1 6 21119 3.11800000 880763712 880763712 -9.00000000
-3.53951669 -5.84443665 0.83894855 10 7 21120 6.88400000 880763714 880763714 7.00000000
-3.58785367 -5.92191792 -0.85016054 2 8 21121 6.97600000 880763717 880763717 -7.00000000
-3.54674888 -5.85176754 1.08377802 80 9 21122 6.92800000 880763719 880763719 9.00000000
-2.66748047 -4.40106583 -0.45024657 3 10 21122 5.16600000 880763721 880763721 -5.00000000
-3.53210592 -5.82531404 1.32421446 78 11 21123 6.94000000 880763724 880763724 11.00000000
-3.56324339 -5.87435484 -0.36007139 7 12 21124 6.88000000 880763726 880763726 -3.00000000
-3.52620840 -5.81101179 1.56925857 92 13 21125 6.97600000 880763728 880763728 13.00000000
-3.56445432 -5.87172794 -0.11989803 14 14 21126 6.87000000 880763731 880763731 -1.00000000
-3.52473450 -5.80401373 1.81949794 76 15 21127 7.03000000 880763733 880763733 15.00000000
-1.00679553 -1.65328658 -0.51867336 5 0 21134 2.00400000 880763754 880763754 -15.00000000
-3.56430984 -5.85075188 0.11958389 17 1 21135 6.85200000 880763756 880763756 1.00000000
-1.15004706 -1.88704073 -0.51018900 4 2 21136 2.26800000 880763758 880763758 -13.00000000
-3.56096721 -5.84067535 0.35850132 10 3 21137 6.85000000 880763760 880763760 3.00000000
-1.33472788 -2.18921208 -0.49839309 3 4 21137 2.61200000 880763763 880763763 -11.00000000
-3.56056404 -5.83772135 0.59823704 10 5 21138 6.86400000 880763765 880763765 5.00000000
-1.60919333 -2.63731670 -0.48932701 2 6 21139 3.12800000 880763767 880763767 -9.00000000
-3.55369067 -5.82187986 0.83748615 10 7 21140 6.87200000 880763770 880763770 7.00000000
-3.59298491 -5.88394451 -0.84650445 2 8 21141 6.94600000 880763772 880763772 -7.00000000
-3.54245639 -5.80119801 1.07658195 70 9 21141 6.88200000 880763774 880763774 9.00000000
-2.67659497 -4.38152647 -0.44920069 3 10 21142 5.15400000 880763777 880763777 -5.00000000
-3.53808594 -5.78949642 1.31887174 78 11 21143 6.91200000 880763779 880763779 11.00000000
-3.57539272 -5.84824896 -0.35923401 7 12 21144 6.86400000 880763781 880763781 -3.00000000
-3.52613592 -5.76541853 1.56026053 101 13 21145 6.93600000 880763784 880763784 13.00000000
-3.57449222 -5.84219265 -0.11954898 8 14 21146 6.85000000 880763786 880763786 -1.00000000
-3.52883840 -5.76757526 1.81173337 74 15 21146 7.00000000 880763788 880763788 15.00000000
-1.01256049 -1.64976215 -0.51867336 4 0 21154 2.00400000 880763809 880763809 -15.00000000
-3.57424784 -5.82123327 0.11923484 14 1 21155 6.83200000 880763811 880763811 1.00000000
-1.16478670 -1.89629889 -0.51378822 4 2 21156 2.28400000 880763813 880763813 -13.00000000
-3.56878567 -5.80778980 0.35724524 10 3 21157 6.82600000 880763816 880763816 3.00000000
-1.35264003 -2.20126677 -0.50220925 3 4 21157 2.63200000 880763818 880763818 -11.00000000
-3.55900860 -5.78961325 0.59457648 10 5 21158 6.82200000 880763820 880763820 5.00000000
-1.62045908 -2.63504887 -0.48995274 2 6 21159 3.13200000 880763823 880763823 -9.00000000
-3.55734849 -5.78238773 0.83358634 10 7 21160 6.84000000 880763825 880763825 7.00000000
-3.59997582 -5.84938955 -0.84333587 2 8 21161 6.92000000 880763827 880763827 -7.00000000
-3.54712439 -5.76126146 1.07157612 62 9 21162 6.85000000 880763830 880763830 9.00000000
-2.69291759 -4.37385321 -0.44937500 3 10 21162 5.15600000 880763832 880763832 -5.00000000
-3.54797745 -5.76039457 1.31505561 68 11 21163 6.89200000 880763834 880763834 11.00000000
-3.57902169 -5.80852652 -0.35755926 10 12 21164 6.83200000 880763836 880763836 -3.00000000
-3.53601384 -5.73648548 1.55576146 49 13 21165 6.91600000 880763839 880763839 13.00000000
-3.56757402 -5.78542519 -0.11864146 8 14 21166 6.79800000 880763841 880763841 -1.00000000
-3.52966833 -5.72171926 1.80138052 72 15 21167 6.96000000 880763843 880763843 15.00000000
-1.01323164 -1.63800299 -0.51608515 4 0 21174 1.99400000 880763864 880763864 -15.00000000
-3.57560515 -5.77811337 0.11860655 14 1 21175 6.79600000 880763866 880763866 1.00000000
-1.16319299 -1.87896597 -0.51018900 4 2 21176 2.26800000 880763869 880763869 -13.00000000
-3.55012846 -5.73247051 0.35337237 50 3 21177 6.75200000 880763871 880763871 3.00000000
-1.35824823 -2.19319344 -0.50144607 3 4 21177 2.62800000 880763873 880763873 -11.00000000
-3.55821013 -5.74328089 0.59109026 10 5 21178 6.78200000 880763876 880763876 5.00000000
-1.63068783 -2.63105536 -0.49026561 2 6 21179 3.13400000 880763878 880763878 -9.00000000
-3.56914282 -5.75643778 0.83163643 10 7 21180 6.82400000 880763880 880763880 7.00000000
-2.02991962 -3.27264977 -0.47285306 1 8 21181 3.88000000 880763883 880763883 -7.00000000
-3.55579758 -5.73268032 1.06844735 70 9 21181 6.83000000 880763885 880763885 9.00000000
-2.68505788 -4.32718182 -0.44554016 3 10 21182 5.11200000 880763887 880763887 -5.00000000
-3.55356765 -5.72462273 1.30971289 75 11 21183 6.86400000 880763889 880763889 11.00000000
-3.59295344 -5.78581762 -0.35693121 10 12 21184 6.82000000 880763892 880763892 -3.00000000
-3.54367638 -5.70424366 1.55036271 20 13 21185 6.89200000 880763894 880763894 13.00000000
-3.57191443 -5.74746037 -0.11811788 8 14 21186 6.76800000 880763896 880763896 -1.00000000
-3.53026795 -5.68044853 1.79206312 69 15 21186 6.92400000 880763899 880763899 15.00000000
-1.02098715 -1.63773489 -0.51712048 4 0 21194 1.99800000 880763919 880763919 -15.00000000
-3.57247233 -5.72826862 0.11783865 11 1 21195 6.75200000 880763922 880763922 1.00000000
-1.17593384 -1.88481438 -0.51288843 4 2 21196 2.28000000 880763924 880763924 -13.00000000
-3.55425429 -5.69462872 0.35180229 32 3 21197 6.72200000 880763926 880763926 3.00000000
-1.36797464 -2.19176984 -0.50220925 3 4 21197 2.63200000 880763929 880763929 -11.00000000
-3.57718110 -5.72913551 0.59091592 10 5 21198 6.78000000 880763931 880763931 5.00000000
-1.63358295 -2.61529493 -0.48838839 1 6 21199 3.12200000 880763933 880763933 -9.00000000
-3.56922793 -5.71195841 0.82700539 10 7 21200 6.78600000 880763936 880763936 7.00000000
-2.04974890 -3.27901030 -0.47480297 1 8 21201 3.89600000 880763938 880763938 -7.00000000
-3.55897975 -5.69113684 1.06312859 17 9 21202 6.79600000 880763940 880763940 9.00000000
-2.70648456 -4.32791853 -0.44658601 3 10 21202 5.12400000 880763942 880763942 -5.00000000
-3.55062127 -5.67556715 1.30131733 78 11 21203 6.82000000 880763945 880763945 11.00000000
-3.58981729 -5.73599386 -0.35462844 10 12 21204 6.77600000 880763947 880763947 -3.00000000
-3.54288387 -5.65880489 1.54136467 79 13 21205 6.85200000 880763949 880763949 13.00000000
-3.57921743 -5.71462011 -0.11769903 8 14 21206 6.74400000 880763952 880763952 -1.00000000
-3.54183269 -5.65273762 1.78740430 65 15 21207 6.90600000 880763954 880763954 15.00000000
-1.02361453 -1.62925363 -0.51556754 4 0 21214 1.99200000 880763975 880763975 -15.00000000
-3.57009959 -5.68020916 0.11710565 11 1 21215 6.71000000 880763977 880763977 1.00000000
-1.17524493 -1.86914992 -0.50973910 4 2 21216 2.26600000 880763979 880763979 -13.00000000
-3.54965234 -5.64330292 0.34939486 35 3 21217 6.67600000 880763982 880763982 3.00000000
-1.38188887 -2.19695234 -0.50449896 3 4 21217 2.64400000 880763984 880763984 -11.00000000
-3.58017993 -5.68963289 0.58812696 10 5 21218 6.74800000 880763986 880763986 5.00000000
-1.63849282 -2.60288978 -0.48713693 1 6 21219 3.11400000 880763989 880763989 -9.00000000
-3.56798840 -5.66586924 0.82213056 10 7 21220 6.74600000 880763991 880763991 7.00000000
-2.04213643 -3.24160266 -0.47041565 1 8 21221 3.86000000 880763993 880763993 -7.00000000
-3.56835628 -5.66426086 1.06031275 60 9 21221 6.77800000 880763995 880763995 9.00000000
-3.59052491 -5.69724560 -0.58917284 4 10 21222 6.76000000 880763998 880763998 -5.00000000
-3.55365849 -5.63656664 1.29521143 75 11 21223 6.78800000 880764000 880764000 11.00000000
-3.58318090 -5.68119526 -0.35201165 10 12 21224 6.72600000 880764002 880764002 -3.00000000
-3.55429626 -5.63321877 1.53776538 33 13 21225 6.83600000 880764005 880764005 13.00000000
-3.58526778 -5.68010855 -0.11724526 8 14 21226 6.71800000 880764007 880764007 -1.00000000
-3.54818439 -5.62135792 1.78119266 69 15 21226 6.88200000 880764009 880764009 15.00000000
-1.03652954 -1.63709605 -0.51919103 4 0 21234 2.00600000 880764030 880764030 -15.00000000
-3.58134532 -5.65419769 0.11682641 8 1 21235 6.69400000 880764032 880764032 1.00000000
-1.18697751 -1.87326670 -0.51198858 4 2 21236 2.27600000 880764035 880764035 -13.00000000
-3.55649781 -5.61063528 0.34813878 45 3 21237 6.65200000 880764037 880764037 3.00000000
-1.38324261 -2.18216634 -0.50220925 3 4 21237 2.63200000 880764039 880764039 -11.00000000
-3.58187985 -5.64849663 0.58516365 13 5 21238 6.71400000 880764042 880764042 5.00000000
-1.65603387 -2.61049891 -0.48963988 1 6 21239 3.13000000 880764044 880764044 -9.00000000
-3.57498026 -5.63326740 0.81920570 10 7 21240 6.72200000 880764046 880764046 7.00000000
-2.05343914 -3.23445463 -0.47041565 1 8 21241 3.86000000 880764048 880764048 -7.00000000
-3.57108927 -5.62279701 1.05499399 40 9 21242 6.74400000 880764051 880764051 9.00000000
-3.60932207 -5.68299580 -0.58899850 8 10 21242 6.75800000 880764053 880764053 -5.00000000
-3.55857253 -5.60092878 1.28986883 68 11 21243 6.76000000 880764055 880764055 11.00000000
-3.58584857 -5.64168310 -0.35033688 10 12 21244 6.69400000 880764058 880764058 -3.00000000
-3.54988885 -5.58295488 1.52741766 55 13 21245 6.79000000 880764060 880764060 13.00000000
-3.58897424 -5.64225006 -0.11672170 17 14 21246 6.68800000 880764062 880764062 -1.00000000
-3.55631828 -5.58875704 1.77498102 69 15 21247 6.85800000 880764065 880764065 15.00000000
-1.03600299 -1.62369633 -0.51608515 4 0 21254 1.99400000 880764085 880764085 -15.00000000
-3.59245324 -5.62817764 0.11654717 8 1 21255 6.67800000 880764088 880764088 1.00000000
-1.19246042 -1.86746955 -0.51153868 4 2 21256 2.27400000 880764090 880764090 -13.00000000
-3.55563235 -5.56620646 0.34615001 50 3 21257 6.61400000 880764092 880764092 3.00000000
-1.38239634 -2.16408849 -0.49915633 3 4 21257 2.61600000 880764095 880764095 -11.00000000
-3.58440924 -5.60909748 0.58237469 13 5 21258 6.68200000 880764097 880764097 5.00000000
-1.66620016 -2.60636663 -0.48995274 2 6 21259 3.13200000 880764099 880764099 -9.00000000
-3.58285761 -5.60235834 0.81652462 10 7 21260 6.70000000 880764101 880764101 7.00000000
-2.07541513 -3.24398851 -0.47285306 1 8 21261 3.88000000 880764104 880764104 -7.00000000
-3.56842422 -5.57764435 1.04873669 47 9 21261 6.70400000 880764106 880764106 9.00000000
-3.60443473 -5.63176537 -0.58498937 8 10 21262 6.71200000 880764108 880764108 -5.00000000
-3.56963277 -5.57524538 1.28681588 78 11 21263 6.74400000 880764111 880764111 11.00000000
-3.60551977 -5.62913179 -0.35033688 10 12 21264 6.69400000 880764113 880764113 -3.00000000
-3.55463648 -5.54755831 1.52111900 54 13 21265 6.76200000 880764115 880764115 13.00000000
-3.58706474 -5.59601736 -0.11602360 15 14 21266 6.64800000 880764118 880764118 -1.00000000
-3.54981112 -5.53789949 1.76255774 74 15 21266 6.81000000 880764120 880764120 15.00000000
-1.03435087 -1.60869551 -0.51246172 4 0 21274 1.98000000 880764141 880764141 -15.00000000
-3.59260511 -5.58533049 0.11591888 8 1 21275 6.64200000 880764143 880764143 1.00000000
-1.20318985 -1.86985075 -0.51333833 4 2 21276 2.28200000 880764145 880764145 -13.00000000
-3.57071614 -5.54704332 0.34573132 80 3 21277 6.60600000 880764148 880764148 3.00000000
-3.59174609 -5.57971287 -1.28986883 3 4 21277 6.76000000 880764150 880764150 -11.00000000
-3.58886504 -5.57309961 0.57993430 13 5 21278 6.65400000 880764152 880764152 5.00000000
-1.66672957 -2.58724976 -0.48744980 2 6 21279 3.11600000 880764154 880764154 -9.00000000
-3.59163833 -5.57313156 0.81408721 10 7 21280 6.68000000 880764157 880764157 7.00000000
-3.62918234 -5.62923098 -0.82237434 2 8 21281 6.74800000 880764159 880764159 -7.00000000
-3.57395720 -5.54357100 1.04466939 70 9 21281 6.67800000 880764161 880764161 9.00000000
-3.60895300 -5.59570837 -0.58254898 4 10 21282 6.68400000 880764164 880764164 -5.00000000
-3.57204223 -5.53635597 1.28070998 68 11 21283 6.71200000 880764166 880764166 11.00000000
-3.60890055 -5.59134102 -0.34876680 10 12 21284 6.66400000 880764168 880764168 -3.00000000
-3.56235147 -5.51710796 1.51617014 18 13 21285 6.74000000 880764171 880764171 13.00000000
-3.59572649 -5.56666470 -0.11567455 15 14 21286 6.62800000 880764173 880764173 -1.00000000
-3.55025268 -5.49626493 1.75324023 74 15 21286 6.77400000 880764175 880764175 15.00000000
-1.04941416 -1.61966681 -0.51712048 4 0 21294 1.99800000 880764196 880764196 -15.00000000
-3.59467745 -5.54590702 0.11536041 8 1 21295 6.61000000 880764198 880764198 1.00000000
-1.20122778 -1.85255873 -0.50973910 4 2 21296 2.26600000 880764201 880764201 -13.00000000
-3.58570957 -5.52784300 0.34531263 95 3 21297 6.59800000 880764203 880764203 3.00000000
-3.60158539 -5.55231762 -1.28643429 5 4 21297 6.74200000 880764205 880764205 -11.00000000
-3.59311318 -5.53713942 0.57749397 13 5 21298 6.62600000 880764207 880764207 5.00000000
-1.67037272 -2.57313156 -0.48588544 2 6 21299 3.10600000 880764210 880764210 -9.00000000
-3.59160948 -5.53059340 0.80969989 10 7 21300 6.64400000 880764212 880764212 7.00000000
-3.64015841 -5.60321093 -0.82042444 2 8 21301 6.73200000 880764214 880764214 -7.00000000
-3.57918119 -5.50724602 1.04028916 72 9 21302 6.65000000 880764217 880764217 9.00000000
-3.62412071 -5.57639408 -0.58185172 4 10 21302 6.67600000 880764219 880764219 -5.00000000
-3.56994343 -5.49093437 1.27307761 68 11 21303 6.67200000 880764221 880764221 11.00000000
-3.60988379 -5.55024672 -0.34698740 10 12 21304 6.63000000 880764224 880764224 -3.00000000
-3.56989741 -5.48667192 1.51122117 45 13 21305 6.71800000 880764226 880764226 13.00000000
-3.59550023 -5.52391243 -0.11504626 18 14 21306 6.59200000 880764228 880764228 -1.00000000
-3.55887818 -5.46764803 1.74806380 74 15 21306 6.75400000 880764230 880764230 15.00000000
-1.05083692 -1.60952330 -0.51504987 4 0 21314 1.99000000 880764251 880764251 -15.00000000
-3.59979892 -5.51156044 0.11490665 11 1 21315 6.58400000 880764254 880764254 1.00000000
-1.20768714 -1.84835434 -0.50973910 4 2 21316 2.26600000 880764256 880764256 -13.00000000
-3.60389090 -5.51362133 0.34520796 30 3 21317 6.59600000 880764258 880764258 3.00000000
-1.40927899 -2.15606713 -0.50068283 3 4 21317 2.62400000 880764260 880764260 -11.00000000
-3.60042524 -5.50622082 0.57557654 13 5 21318 6.60400000 880764263 880764263 5.00000000
-1.67718184 -2.56397891 -0.48525971 1 6 21319 3.10200000 880764265 880764265 -9.00000000
-3.59350157 -5.49144602 0.80580008 10 7 21320 6.61200000 880764267 880764267 7.00000000
-3.63468814 -5.55227041 -0.81481844 2 8 21321 6.68600000 880764270 880764270 -7.00000000
-3.58972549 -5.48149872 1.03778625 77 9 21322 6.63400000 880764272 880764272 9.00000000
-2.79871130 -4.27362251 -0.44693464 3 10 21322 5.12800000 880764274 880764274 -5.00000000
-3.57833004 -5.46201754 1.26926148 75 11 21323 6.65200000 880764277 880764277 11.00000000
-3.61062431 -5.50921392 -0.34520796 10 12 21324 6.59600000 880764279 880764279 -3.00000000
-3.56979513 -5.44484234 1.50312293 83 13 21325 6.68200000 880764281 880764281 13.00000000
-3.60818028 -5.50129509 -0.11483683 22 14 21326 6.58000000 880764283 880764283 -1.00000000
-3.56829619 -5.43841505 1.74288750 67 15 21327 6.73400000 880764286 880764286 15.00000000
-1.06281936 -1.61552894 -0.51815575 4 0 21334 2.00200000 880764307 880764307 -15.00000000
-3.60912180 -5.48392773 0.11459250 14 1 21335 6.56600000 880764309 880764309 1.00000000
-1.21413171 -1.84412754 -0.50973910 4 2 21336 2.26600000 880764311 880764311 -13.00000000
-3.60443926 -5.47265196 0.34342855 10 3 21337 6.56200000 880764313 880764313 3.00000000
-1.41031730 -2.14129710 -0.49839309 3 4 21337 2.61200000 880764316 880764316 -11.00000000
-3.61304665 -5.48363686 0.57453066 9 5 21338 6.59200000 880764318 880764318 5.00000000
-1.70134115 -2.58119941 -0.48963988 2 6 21339 3.13000000 880764320 880764320 -9.00000000
-3.59079313 -5.44572353 0.80092531 23 7 21340 6.57200000 880764323 880764323 7.00000000
-3.63327932 -5.50806522 -0.81018740 2 8 21341 6.64800000 880764325 880764325 -7.00000000
-3.59360600 -5.44585228 1.03340602 72 9 21342 6.60600000 880764327 880764327 9.00000000
-2.81690407 -4.26881599 -0.44745758 3 10 21342 5.13400000 880764330 880764330 -5.00000000
-3.58439517 -5.42983198 1.26468205 78 11 21343 6.62800000 880764332 880764332 11.00000000
-3.61332393 -5.47157764 -0.34363788 10 12 21344 6.56600000 880764334 880764334 -3.00000000
-3.57481527 -5.41121054 1.49727416 92 13 21345 6.65600000 880764336 880764336 13.00000000
-3.61082315 -5.46364260 -0.11431326 13 14 21346 6.55000000 880764339 880764339 -1.00000000
-3.57885528 -5.41527081 1.73926401 65 15 21346 6.72000000 880764341 880764341 15.00000000
-1.06418264 -1.60536838 -0.51608515 4 0 21354 1.99400000 880764362 880764362 -15.00000000
-3.61277008 -5.44796467 0.11410383 14 1 21355 6.53800000 880764364 880764364 1.00000000
-1.21948421 -1.83825421 -0.50928921 4 2 21356 2.26400000 880764366 880764366 -13.00000000
-3.61137199 -5.44173145 0.34227714 10 3 21357 6.54000000 880764369 880764369 3.00000000
-1.41995442 -2.13963270 -0.49915633 3 4 21357 2.61600000 880764371 880764371 -11.00000000
-3.61122823 -5.43945360 0.57121873 9 5 21358 6.55400000 880764373 880764373 5.00000000
-1.70924807 -2.57359958 -0.48932701 2 6 21359 3.12800000 880764376 880764376 -9.00000000
-3.60428786 -5.42488909 0.79970664 44 7 21360 6.56200000 880764378 880764378 7.00000000
-3.63929796 -5.47551012 -0.80726254 2 8 21361 6.62400000 880764380 880764380 -7.00000000
-3.59181261 -5.40202093 1.02746153 82 9 21362 6.56800000 880764383 880764383 9.00000000
-2.81634355 -4.23572969 -0.44501722 3 10 21362 5.10600000 880764385 880764385 -5.00000000
-3.58810472 -5.39440155 1.25933933 78 11 21363 6.60000000 880764387 880764387 11.00000000
-3.62576270 -5.44895458 -0.34300986 10 12 21364 6.55400000 880764389 880764389 -3.00000000
-3.58072424 -5.37923288 1.49187541 92 13 21365 6.63200000 880764392 880764392 13.00000000
-3.61324739 -5.42603874 -0.11378969 6 14 21366 6.52000000 880764394 880764394 -1.00000000
-3.57953334 -5.37540960 1.73046410 67 15 21366 6.68600000 880764396 880764396 15.00000000
-1.06520951 -1.59540391 -0.51401460 4 0 21373 1.98600000 880764417 880764417 -15.00000000
-3.61637735 -5.41433668 0.11365007 14 1 21374 6.51200000 880764419 880764419 1.00000000
-1.22773874 -1.83744085 -0.51018900 3 2 21375 2.26800000 880764422 880764422 -13.00000000
-3.61402488 -5.40877056 0.34091642 12 3 21375 6.51400000 880764424 880764424 3.00000000
-1.43795192 -2.15123415 -0.50297248 3 4 21376 2.63600000 880764426 880764426 -11.00000000
-3.61374140 -5.40426159 0.56877840 9 5 21377 6.52600000 880764429 880764429 5.00000000
-1.71337974 -2.56134963 -0.48807552 2 6 21378 3.12000000 880764431 880764431 -9.00000000
-3.61342549 -5.39970875 0.79775673 76 7 21379 6.54600000 880764433 880764433 7.00000000
-3.63976669 -5.43701839 -0.80336273 2 8 21380 6.59200000 880764435 880764435 -7.00000000
-3.59338140 -5.36772919 1.02308142 82 9 21380 6.54000000 880764438 880764438 9.00000000
-2.81263590 -4.19987965 -0.44222823 3 10 21381 5.07400000 880764440 880764440 -5.00000000
-3.59067535 -5.35963869 1.25399673 78 11 21382 6.57200000 880764442 880764442 11.00000000
-3.63046885 -5.41699171 -0.34175378 10 12 21383 6.53000000 880764445 880764445 -3.00000000
-3.58552027 -5.34790564 1.48647654 92 13 21384 6.60800000 880764447 880764447 13.00000000
-3.62230992 -5.40074062 -0.11351045 9 14 21385 6.50400000 880764449 880764449 -1.00000000
-3.57796979 -5.33463097 1.72114670 72 15 21385 6.65000000 880764452 880764452 15.00000000
-1.07616365 -1.59969044 -0.51660281 4 0 21393 1.99600000 880764472 880764472 -15.00000000
-3.61739135 -5.37513638 0.11309160 17 1 21394 6.48000000 880764475 880764475 1.00000000
-1.22761524 -1.82344484 -0.50748956 3 2 21395 2.25600000 880764477 880764477 -13.00000000
-3.62601471 -5.38389206 0.34018371 17 3 21396 6.50000000 880764479 880764479 3.00000000
-1.44325900 -2.14294505 -0.50220925 3 4 21396 2.63200000 880764482 880764482 -11.00000000
-3.60809183 -5.35526228 0.56494355 9 5 21397 6.48200000 880764484 880764484 5.00000000
-1.71789384 -2.54880118 -0.48682407 2 6 21398 3.11200000 880764486 880764486 -9.00000000
-3.60672736 -5.34920692 0.79215074 86 7 21399 6.50000000 880764488 880764488 7.00000000
-2.15793633 -3.19927216 -0.47382802 1 8 21400 3.88800000 880764491 880764491 -7.00000000
-3.60419178 -5.34142303 1.02057850 85 9 21401 6.52400000 880764493 880764493 9.00000000
-2.83619452 -4.20324850 -0.44362274 3 10 21401 5.09000000 880764495 880764495 -5.00000000
-3.58739400 -5.31452751 1.24636436 78 11 21402 6.53200000 880764498 880764498 11.00000000
-3.63147211 -5.37780285 -0.34007904 10 12 21403 6.49800000 880764500 880764500 -3.00000000
-3.59107590 -5.31597948 1.48107779 92 13 21404 6.58400000 880764502 880764502 13.00000000
-3.62658453 -5.36652470 -0.11305669 9 14 21405 6.47800000 880764505 880764505 -1.00000000
-3.58451462 -5.30227566 1.71493495 74 15 21406 6.62600000 880764507 880764507 15.00000000
-1.07985115 -1.59253752 -0.51556754 4 0 21414 1.99200000 880764528 880764528 -15.00000000
-3.62022948 -5.33701849 0.11256802 17 1 21415 6.45000000 880764530 880764530 1.00000000
-1.23757291 -1.82377076 -0.50883931 4 2 21416 2.26200000 880764532 880764532 -13.00000000
-3.63020682 -5.34971714 0.33882299 22 3 21416 6.47400000 880764535 880764535 3.00000000
-1.45110357 -2.13764071 -0.50220925 3 4 21417 2.63200000 880764537 880764537 -11.00000000
-3.61426377 -5.32222319 0.56285179 9 5 21418 6.45800000 880764539 880764539 5.00000000
-1.72722411 -2.54248762 -0.48682407 2 6 21419 3.11200000 880764541 880764541 -9.00000000
-3.61068797 -5.31296587 0.78873837 81 7 21420 6.47200000 880764544 880764544 7.00000000
-2.16071916 -3.17820835 -0.47187811 1 8 21421 3.87200000 880764546 880764546 -7.00000000
-3.60819221 -5.30530930 1.01619828 80 9 21422 6.49600000 880764548 880764548 9.00000000
-2.87174940 -4.22247982 -0.44676033 3 10 21422 5.12600000 880764551 880764551 -5.00000000
-3.59801364 -5.28835821 1.24331141 78 11 21423 6.51600000 880764553 880764553 11.00000000
-3.63767290 -5.34464312 -0.33882299 10 12 21424 6.47400000 880764555 880764555 -3.00000000
-3.59079409 -5.27378750 1.47297955 101 13 21425 6.54800000 880764558 880764558 13.00000000
-3.63384652 -5.33501673 -0.11267274 9 14 21426 6.45600000 880764560 880764560 -1.00000000
-3.59103823 -5.27216816 1.70924103 76 15 21426 6.60400000 880764562 880764562 15.00000000
-1.09194219 -1.59832919 -0.51867336 4 0 21434 2.00400000 880764583 880764583 -15.00000000
-3.62078404 -5.29793358 0.11200955 11 1 21435 6.41800000 880764585 880764585 1.00000000
-1.24613130 -1.82265711 -0.50973910 4 2 21436 2.26600000 880764587 880764587 -13.00000000
-3.61053276 -5.28095531 0.33526415 22 3 21436 6.40600000 880764590 880764590 3.00000000
-1.45855653 -2.13256240 -0.50220925 3 4 21437 2.63200000 880764592 880764592 -11.00000000
-3.61144376 -5.27833223 0.55953985 13 5 21438 6.42000000 880764594 880764594 5.00000000
-1.73385704 -2.53318262 -0.48619831 2 6 21439 3.10800000 880764597 880764597 -9.00000000
-3.61575365 -5.28067493 0.78581351 86 7 21440 6.44800000 880764599 880764599 7.00000000
-2.15385127 -3.14444304 -0.46797827 1 8 21441 3.84000000 880764601 880764601 -7.00000000
-3.60770726 -5.26498032 1.01087952 72 9 21442 6.46200000 880764604 880764604 9.00000000
-2.87746167 -4.19928122 -0.44536585 3 10 21442 5.11000000 880764606 880764606 -5.00000000
-3.60535145 -5.25957298 1.23949528 71 11 21443 6.49600000 880764608 880764608 11.00000000
-3.64049363 -5.30885220 -0.33735758 10 12 21444 6.44600000 880764611 880764611 -3.00000000
-3.59154320 -5.23550940 1.46578109 90 13 21445 6.51600000 880764613 880764613 13.00000000
-3.61510777 -5.26788950 -0.11152088 20 14 21446 6.39000000 880764615 880764615 -1.00000000
-3.59739566 -5.24207926 1.70354700 72 15 21446 6.58200000 880764617 880764617 15.00000000
-1.08984745 -1.58336866 -0.51504987 4 0 21454 1.99000000 880764638 880764638 -15.00000000
-3.63471889 -5.27867460 0.11186992 8 1 21455 6.41000000 880764640 880764640 1.00000000
-1.25469685 -1.82150590 -0.51063889 4 2 21456 2.27000000 880764643 880764643 -13.00000000
-1.45930779 -2.11775851 -0.49991956 3 4 21457 2.62000000 880764647 880764647 -11.00000000
-3.59479189 -5.21484089 0.55413622 3 5 21458 6.35800000 880764650 880764650 5.00000000
-1.75390315 -2.54337692 -0.48932701 2 6 21459 3.12800000 880764652 880764652 -9.00000000
-3.62627387 -5.25658321 0.78410733 55 7 21460 6.43400000 880764654 880764654 7.00000000
-2.15804911 -3.12710261 -0.46651584 1 8 21461 3.82800000 880764657 880764657 -7.00000000
-3.61392689 -5.23672962 1.00775087 45 9 21461 6.44200000 880764659 880764659 9.00000000
-2.88983846 -4.18593216 -0.44501722 3 10 21462 5.10600000 880764661 880764661 -5.00000000
-3.62145734 -5.24372530 1.23873198 37 11 21463 6.49200000 880764664 880764664 11.00000000
-3.65446162 -5.28953934 -0.33693889 10 12 21464 6.43800000 880764666 880764666 -3.00000000
-3.60425663 -5.21492529 1.46353161 27 13 21465 6.50600000 880764668 880764668 13.00000000
-3.60669422 -5.21455956 1.69888818 15 15 21467 6.56400000 880764673 880764673 15.00000000
-1.09096432 -1.57320476 -0.51297933 4 0 21474 1.98200000 880764693 880764693 -15.00000000
-3.62576699 -5.22652149 0.11103221 11 1 21475 6.36200000 880764696 880764696 1.00000000
-1.26326954 -1.82031703 -0.51153868 4 2 21476 2.27400000 880764698 880764698 -13.00000000
-3.63023162 -5.23100758 0.33369407 7 3 21476 6.37600000 880764700 880764700 3.00000000
-1.46669126 -2.11265159 -0.49991956 3 4 21477 2.62000000 880764703 880764703 -11.00000000
-3.62547493 -5.22026205 0.55605364 9 5 21478 6.38000000 880764705 880764705 5.00000000
-1.76051641 -2.53399467 -0.48870125 2 6 21479 3.12400000 880764707 880764707 -9.00000000
-3.63893628 -5.23574305 0.78288865 15 7 21480 6.42400000 880764710 880764710 7.00000000
-2.17575097 -3.12932968 -0.46797827 1 8 21481 3.84000000 880764712 880764712 -7.00000000
-3.63309598 -5.22344875 1.00775087 20 9 21482 6.44200000 880764714 880764714 9.00000000
-2.89760637 -4.16600561 -0.44397137 3 10 21482 5.09400000 880764717 880764717 -5.00000000
-3.63637543 -5.22621727 1.23758709 15 11 21483 6.48600000 880764719 880764719 11.00000000
-3.66263413 -5.26199722 -0.33599684 10 12 21484 6.42000000 880764721 880764721 -3.00000000
-3.63023305 -5.21350670 1.46668088 15 13 21485 6.52000000 880764723 880764723 13.00000000
-3.63693762 -5.22119188 -0.11106712 6 14 21486 6.36400000 880764726 880764726 -1.00000000
-3.62597895 -5.20352316 1.69940591 9 15 21487 6.56600000 880764728 880764728 15.00000000
-1.10419405 -1.58047247 -0.51660281 5 0 21494 1.99600000 880764749 880764749 -15.00000000
-3.63711572 -5.20399904 0.11082278 2 1 21495 6.35000000 880764751 880764751 1.00000000
-1.26849926 -1.81429923 -0.51108879 4 2 21496 2.27200000 880764753 880764753 -13.00000000
-3.65075803 -5.22157764 0.33390340 12 3 21496 6.38000000 880764756 880764756 3.00000000
-1.47180641 -2.10430145 -0.49915633 3 4 21497 2.61600000 880764758 880764758 -11.00000000
-3.65395498 -5.22226715 0.55762243 19 5 21498 6.39800000 880764760 880764760 5.00000000
-1.76255441 -2.51812387 -0.48682407 2 6 21499 3.11200000 880764763 880764763 -9.00000000
-3.66857624 -5.23926973 0.78532606 10 7 21500 6.44400000 880764765 880764765 7.00000000
-2.20488310 -3.14773011 -0.47187811 1 8 21501 3.87200000 880764767 880764767 -7.00000000
-3.65946412 -5.22431564 1.01025379 10 9 21501 6.45800000 880764770 880764770 9.00000000
-2.90755749 -4.14933872 -0.44327411 3 10 21502 5.08600000 880764772 880764772 -5.00000000
-3.66248465 -5.22474527 1.24025846 12 11 21503 6.50000000 880764774 880764774 11.00000000
-3.67753959 -5.24427462 -0.33568281 13 12 21504 6.41400000 880764776 880764776 -3.00000000
-3.66407752 -5.22313786 1.47297955 16 13 21505 6.54800000 880764779 880764779 13.00000000
-3.66203284 -5.21828604 -0.11127654 9 14 21506 6.37600000 880764781 880764781 -1.00000000
-3.66077042 -5.21455145 1.70717037 11 15 21507 6.59600000 880764783 880764783 15.00000000
-1.11081612 -1.57818818 -0.51712048 4 0 21514 1.99800000 880764804 880764804 -15.00000000
-3.67252779 -5.21579742 0.11134636 31 1 21515 6.38000000 880764806 880764806 1.00000000
-1.26584697 -1.79711485 -0.50748956 4 2 21516 2.25600000 880764809 880764809 -13.00000000
-3.67701364 -5.22023249 0.33463609 22 3 21516 6.39400000 880764811 880764811 3.00000000
-1.48366618 -2.10557055 -0.50068283 3 4 21517 2.62400000 880764813 880764813 -11.00000000
-3.67330956 -5.21110916 0.55779678 9 5 21518 6.40000000 880764816 880764816 5.00000000
-1.77133358 -2.51195621 -0.48682407 2 6 21519 3.11200000 880764818 880764818 -9.00000000
-3.69141936 -5.23292065 0.78630102 10 7 21520 6.45200000 880764820 880764820 7.00000000
-3.69118810 -5.23065424 -0.78605729 6 8 21521 6.45000000 880764823 880764823 -7.00000000
-3.69134569 -5.23087740 1.01400816 10 9 21521 6.48200000 880764825 880764825 9.00000000
-2.94270658 -4.16846228 -0.44641173 3 10 21522 5.12200000 880764827 880764827 -5.00000000
-3.68749523 -5.22155142 1.24254823 12 11 21523 6.51200000 880764829 880764829 11.00000000
-3.70619488 -5.24608707 -0.33662486 10 12 21524 6.43200000 880764832 880764832 -3.00000000
-3.68791103 -5.21827316 1.47522902 16 13 21525 6.55800000 880764834 880764834 13.00000000
-3.69869614 -5.23159647 -0.11183502 15 14 21526 6.40800000 880764836 880764836 -1.00000000
-3.69233656 -5.22066784 1.71338212 11 15 21527 6.62000000 880764839 880764839 15.00000000
-1.11631823 -1.57430112 -0.51712048 4 0 21534 1.99800000 880764859 880764859 -15.00000000
-1.27662349 -1.79904222 -0.50928921 4 2 21536 2.26400000 880764864 880764864 -13.00000000
-3.71023917 -5.22853994 0.33599684 7 3 21536 6.42000000 880764866 880764866 3.00000000
-1.48873401 -2.09717703 -0.49991956 3 4 21537 2.62000000 880764869 880764869 -11.00000000
-3.72839212 -5.25023794 0.56337470 13 5 21538 6.46400000 880764871 880764871 5.00000000
-1.78695524 -2.51541996 -0.48870125 2 6 21539 3.12400000 880764873 880764873 -9.00000000
-3.71771264 -5.23132992 0.78800720 10 7 21540 6.46600000 880764875 880764875 7.00000000
-3.75198174 -5.27760029 -0.79507560 2 8 21541 6.52400000 880764878 880764878 -7.00000000
-3.71759439 -5.22923040 1.01619828 10 9 21541 6.49600000 880764880 880764880 9.00000000
-2.93414474 -4.12569189 -0.44292548 3 10 21542 5.08200000 880764882 880764882 -5.00000000
-3.71480417 -5.22144508 1.24560118 12 11 21543 6.52800000 880764885 880764885 11.00000000
