# .PCD v0.7 - Point Cloud Data file format
VERSION 0.7
FIELDS x y z intensity laser_id azimuth distance_m adjustedtime timestamp vertical_angle
SIZE 4 4 4 1 1 2 8 8 4 8
TYPE F F F U U U F U U F
COUNT 1 1 1 1 1 1 1 1 1 1
WIDTH 530
HEIGHT 1
VIEWPOINT 0 0 0 1 0 0 0
POINTS 530
DATA ascii
-0.12219867 -1.11578810 0.05882562 31 3 18625 1.12400000 879456727 879456727 3.00000000
-0.12016635 -1.09370327 -0.17426799 27 6 18627 1.11400000 879456734 879456734 -9.00000000
-0.12396836 -1.12469113 -0.13893105 10 8 18629 1.14000000 879456739 879456739 -7.00000000
-1.12559247 -10.11455631 2.72691751 49 15 18635 10.53600000 879456755 879456755 15.00000000
-0.11499233 -1.02517974 -0.27641875 65 0 18640 1.06800000 879456776 879456776 -15.00000000
-0.12033215 -1.07109761 0.01881369 68 1 18641 1.07800000 879456778 879456778 1.00000000
-0.11592279 -1.03022838 -0.23934792 52 2 18642 1.06400000 879456780 879456780 -13.00000000
-0.12615076 -1.11936808 0.05903496 39 3 18643 1.12800000 879456783 879456783 3.00000000
-0.12048513 -1.06909561 -0.20912667 73 4 18643 1.09600000 879456785 879456785 -11.00000000
-0.12315791 -1.08939457 -0.17364226 82 6 18645 1.11000000 879456790 879456790 -9.00000000
-0.12481683 -1.10062671 -0.13600619 39 8 18647 1.11600000 879456794 879456794 -7.00000000
-1.15691423 -10.12268829 2.73002338 49 15 18652 10.54800000 879456810 879456810 15.00000000
-0.11901426 -1.02861011 -0.27745402 65 0 18660 1.07200000 879456831 879456831 -15.00000000
-0.12430044 -1.07265747 0.01884860 73 1 18661 1.08000000 879456833 879456833 1.00000000
-0.12086619 -1.04143190 -0.24204734 60 2 18662 1.07600000 879456836 879456836 -13.00000000
-0.12890431 -1.10900140 0.05851160 47 3 18663 1.11800000 879456838 879456838 3.00000000
-0.12172285 -1.04721713 -0.20492886 57 4 18663 1.07400000 879456840 879456840 -11.00000000
-0.12741737 -1.09288216 -0.17426799 100 6 18665 1.11400000 879456845 879456845 -9.00000000
-0.12796627 -1.09426928 -0.13527498 100 8 18667 1.11000000 879456849 879456849 -7.00000000
-1.19468713 -10.12413597 2.73157620 49 15 18673 10.55400000 879456866 879456866 15.00000000
-0.12123162 -1.01667893 -0.27434820 65 0 18680 1.06000000 879456886 879456886 -15.00000000
-0.12922955 -1.08214498 0.01902312 78 1 18681 1.09000000 879456889 879456889 1.00000000
-0.12380649 -1.03519881 -0.24069762 52 2 18682 1.07000000 879456891 879456891 -13.00000000
-0.13324971 -1.11251080 0.05872094 49 3 18683 1.12200000 879456893 879456893 3.00000000
-0.12444367 -1.03898859 -0.20340239 55 4 18683 1.06600000 879456896 879456896 -11.00000000
-0.13240948 -1.10223711 -0.17583235 100 6 18685 1.12400000 879456900 879456900 -9.00000000
-0.13059795 -1.08396173 -0.13405629 100 8 18687 1.10000000 879456905 879456905 -7.00000000
-1.22825336 -10.12011909 2.73157620 49 15 18692 10.55400000 879456921 879456921 15.00000000
-0.12525062 -1.02008438 -0.27538347 75 0 18700 1.06400000 879456942 879456942 -15.00000000
-0.13227400 -1.07573307 0.01891841 83 1 18701 1.08400000 879456944 879456944 1.00000000
-0.12837192 -1.04249692 -0.24249724 50 2 18702 1.07800000 879456946 879456946 -13.00000000
-0.13639896 -1.10609221 0.05840693 47 3 18703 1.11600000 879456949 879456949 3.00000000
-0.12855022 -1.04244483 -0.20416562 55 4 18703 1.07000000 879456951 879456951 -11.00000000
-0.13674110 -1.10568917 -0.17645808 100 6 18705 1.12800000 879456955 879456955 -9.00000000
-0.13584685 -1.09531927 -0.13551871 100 8 18707 1.11200000 879456960 879456960 -7.00000000
-1.26285338 -10.11001873 2.73002338 49 15 18712 10.54800000 879456976 879456976 15.00000000
-0.12881061 -1.01964104 -0.27538347 75 0 18720 1.06400000 879456997 879456997 -15.00000000
-0.13552625 -1.07129705 0.01884860 83 1 18721 1.08000000 879456999 879456999 1.00000000
-0.13225505 -1.04397571 -0.24294713 57 2 18722 1.08000000 879457002 879457002 -13.00000000
-0.14201863 -1.11947894 0.05913963 39 3 18723 1.13000000 879457004 879457004 3.00000000
-0.13268241 -1.04588509 -0.20492886 60 4 18723 1.07400000 879457006 879457006 -11.00000000
-0.13810694 -1.08560920 -0.17332938 100 6 18725 1.10800000 879457011 879457011 -9.00000000
-0.13966940 -1.09483838 -0.13551871 100 8 18727 1.11200000 879457015 879457015 -7.00000000
-1.29862845 -10.10938072 2.73105860 49 15 18732 10.55200000 879457031 879457031 15.00000000
-0.13336429 -1.02684820 -0.27745402 75 0 18740 1.07200000 879457052 879457052 -15.00000000
-0.13952285 -1.07280040 0.01888350 76 1 18741 1.08200000 879457055 879457055 1.00000000
-0.13489175 -1.03577805 -0.24114753 62 2 18742 1.07200000 879457057 879457057 -13.00000000
-0.14618376 -1.12095690 0.05924430 26 3 18743 1.13200000 879457059 879457059 3.00000000
-0.13684018 -1.04930902 -0.20569210 52 4 18743 1.07800000 879457061 879457061 -11.00000000
-0.14343235 -1.09687269 -0.17520660 100 6 18745 1.12000000 879457066 879457066 -9.00000000
-0.14271604 -1.08843946 -0.13478750 100 8 18747 1.10600000 879457071 879457071 -7.00000000
-1.33643198 -10.11029911 2.73261142 49 15 18753 10.55800000 879457087 879457087 15.00000000
-0.13745885 -1.03020620 -0.27848929 75 0 18760 1.07600000 879457108 879457108 -15.00000000
-0.14432605 -1.08023524 0.01902312 64 1 18761 1.09000000 879457110 879457110 1.00000000
-0.13954009 -1.04302692 -0.24294713 62 2 18762 1.08000000 879457112 879457112 -13.00000000
-0.14876980 -1.11054194 0.05872094 34 3 18763 1.12200000 879457114 879457114 3.00000000
-0.13945943 -1.04104149 -0.20416562 55 4 18763 1.07000000 879457117 879457117 -11.00000000
-0.14831214 -1.10419655 -0.17645808 100 6 18765 1.12800000 879457121 879457121 -9.00000000
-0.14413002 -1.07022870 -0.13259384 100 8 18767 1.08800000 879457126 879457126 -7.00000000
-0.15069765 -1.11166131 -0.01958160 99 14 18772 1.12200000 879457140 879457140 -1.00000000
-1.37150872 -10.11729813 2.73571730 52 15 18772 10.57000000 879457142 879457142 15.00000000
-0.14052974 -1.02589214 -0.27745402 75 0 18780 1.07200000 879457163 879457163 -15.00000000
-0.15217192 -1.10944200 0.01954670 85 1 18781 1.12000000 879457165 879457165 1.00000000
-0.14238465 -1.03674161 -0.24159743 55 2 18782 1.07400000 879457167 879457167 -13.00000000
-0.15400589 -1.11990905 0.05924430 36 3 18783 1.13200000 879457170 879457170 3.00000000
-0.14255756 -1.03665853 -0.20340239 50 4 18783 1.06600000 879457172 879457172 -11.00000000
-0.15324479 -1.11149955 -0.17770955 100 6 18785 1.13600000 879457177 879457177 -9.00000000
-0.14895219 -1.07758462 -0.13356879 100 8 18787 1.09600000 879457181 879457181 -7.00000000
-0.15237285 -1.09528351 -0.01930236 88 14 18792 1.10600000 879457195 879457195 -1.00000000
-1.40628386 -10.10862160 2.73468208 52 15 18792 10.56600000 879457197 879457197 15.00000000
-0.14419831 -1.02343202 -0.27693638 70 0 18802 1.07000000 879457218 879457218 -15.00000000
-0.15671009 -1.11082959 0.01958160 100 1 18803 1.12200000 879457220 879457220 1.00000000
-0.14772718 -1.04583526 -0.24384694 57 2 18804 1.08400000 879457223 879457223 -13.00000000
-0.15922691 -1.12724757 0.05966299 40 3 18804 1.14000000 879457225 879457225 3.00000000
-0.14736177 -1.04193521 -0.20454724 47 4 18805 1.07200000 879457227 879457227 -11.00000000
-0.15584765 -1.09916806 -0.17583235 100 6 18807 1.12400000 879457232 879457232 -9.00000000
-0.15308870 -1.07700479 -0.13356879 100 8 18809 1.09600000 879457236 879457236 -7.00000000
-0.15714359 -1.09864950 -0.01937217 93 14 18814 1.11000000 879457250 879457250 -1.00000000
-1.44372010 -10.09358597 2.73209381 52 15 18814 10.55600000 879457253 879457253 15.00000000
-0.14804608 -1.02483439 -0.27745402 77 0 18822 1.07200000 879457273 879457273 -15.00000000
-0.15915540 -1.10038030 0.01940708 99 1 18823 1.11200000 879457276 879457276 1.00000000
-0.15165623 -1.04724181 -0.24429685 70 2 18824 1.08600000 879457278 879457278 -13.00000000
-0.16536355 -1.14049256 0.06039570 47 3 18825 1.15400000 879457280 879457280 3.00000000
-0.15268819 -1.05307209 -0.20683695 45 4 18825 1.08400000 879457283 879457283 -11.00000000
-0.15684217 -1.07906902 -0.17270365 100 6 18827 1.10400000 879457287 879457287 -9.00000000
-0.15741965 -1.08039248 -0.13405629 100 8 18829 1.10000000 879457292 879457292 -7.00000000
-0.16213784 -1.10600841 -0.01951179 93 14 18834 1.11800000 879457306 879457306 -1.00000000
-1.48070526 -10.08822632 2.73209381 38 15 18835 10.55600000 879457308 879457308 15.00000000
-0.15126495 -1.02436423 -0.27745402 77 0 18840 1.07200000 879457329 879457329 -15.00000000
-0.16290402 -1.10185313 0.01944198 97 1 18841 1.11400000 879457331 879457331 1.00000000
-0.15323336 -1.03519380 -0.24159743 65 2 18842 1.07400000 879457333 879457333 -13.00000000
-0.16991654 -1.14789987 0.06081438 85 3 18842 1.16200000 879457336 879457336 3.00000000
-0.15858608 -1.07006562 -0.21027151 54 4 18843 1.10200000 879457338 879457338 -11.00000000
-0.16255358 -1.09420240 -0.17520660 100 6 18845 1.12000000 879457342 879457342 -9.00000000
-0.16081302 -1.07989264 -0.13405629 100 8 18847 1.10000000 879457347 879457347 -7.00000000
-0.45535213 -3.05047417 0.59952188 1 11 18849 3.14200000 879457354 879457354 11.00000000
-0.44064236 -2.94489098 0.68745041 55 13 18851 3.05600000 879457359 879457359 13.00000000
-0.16561165 -1.10549355 -0.01951179 88 14 18852 1.11800000 879457361 879457361 -1.00000000
-0.15715078 -1.03911102 -0.28159511 71 0 18860 1.08800000 879457384 879457384 -15.00000000
-0.16794670 -1.10918641 0.01958160 90 1 18861 1.12200000 879457386 879457386 1.00000000
-0.15713802 -1.03657937 -0.24204734 62 2 18862 1.07600000 879457388 879457388 -13.00000000
-0.17212632 -1.13545156 0.06018635 67 3 18862 1.15000000 879457391 879457391 3.00000000
-0.16261494 -1.07144654 -0.21065313 76 4 18863 1.10400000 879457393 879457393 -11.00000000
-0.16548079 -1.08776963 -0.17426799 100 6 18865 1.11400000 879457398 879457398 -9.00000000
-0.16398309 -1.07539988 -0.13356879 100 8 18867 1.09600000 879457402 879457402 -7.00000000
-0.46362448 -3.03334022 0.59646893 18 11 18869 3.12600000 879457409 879457409 11.00000000
-0.44885352 -2.92985082 0.68430108 52 13 18871 3.04200000 879457414 879457414 13.00000000
-0.16886321 -1.10095561 -0.01944198 88 14 18872 1.11400000 879457416 879457416 -1.00000000
-0.44693494 -2.91392970 0.78991574 4 15 18872 3.05200000 879457418 879457418 15.00000000
-0.15918298 -1.02707374 -0.27848929 77 0 18881 1.07600000 879457439 879457439 -15.00000000
-0.17323740 -1.11646760 0.01972122 95 1 18882 1.13000000 879457441 879457441 1.00000000
-0.16213277 -1.04369903 -0.24384694 62 2 18883 1.08400000 879457444 879457444 -13.00000000
-0.17648487 -1.13478220 0.06018635 40 3 18884 1.15000000 879457446 879457446 3.00000000
-0.16412726 -1.05532384 -0.20760019 76 4 18884 1.08800000 879457448 879457448 -11.00000000
-0.17068355 -1.09496307 -0.17551947 100 6 18886 1.12200000 879457453 879457453 -9.00000000
-0.16731067 -1.07086909 -0.13308132 100 8 18888 1.09200000 879457458 879457458 -7.00000000
-0.47139803 -3.01028490 0.59227115 21 11 18890 3.10400000 879457465 879457465 11.00000000
-0.46109977 -2.93781209 0.68655062 61 13 18892 3.05200000 879457469 879457469 13.00000000
-0.17165564 -1.09242749 -0.01930236 93 14 18893 1.10600000 879457471 879457471 -1.00000000
-0.16216208 -1.02269578 -0.27745402 77 0 18901 1.07200000 879457494 879457494 -15.00000000
-0.17587949 -1.10795617 0.01958160 87 1 18902 1.12200000 879457497 879457497 1.00000000
-0.16669254 -1.04890049 -0.24519666 65 2 18903 1.09000000 879457499 879457499 -13.00000000
-0.18494907 -1.16377831 0.06175643 60 3 18903 1.18000000 879457501 879457501 3.00000000
-0.16966087 -1.06637776 -0.20988989 76 4 18904 1.10000000 879457504 879457504 -11.00000000
-0.17326041 -1.08655763 -0.17426799 100 6 18906 1.11400000 879457508 879457508 -9.00000000
-0.17167422 -1.07419896 -0.13356879 100 8 18908 1.09600000 879457513 879457513 -7.00000000
-0.47879797 -2.98923564 0.58845496 33 11 18910 3.08400000 879457520 879457520 11.00000000
-0.47258738 -2.94388103 0.68835020 70 13 18912 3.06000000 879457524 879457524 13.00000000
-0.17673708 -1.09971905 -0.01944198 93 14 18913 1.11400000 879457527 879457527 -1.00000000
-0.46490738 -2.88959479 0.78422171 58 15 18914 3.03000000 879457529 879457529 15.00000000
-0.16573097 -1.02212358 -0.27745402 77 0 18921 1.07200000 879457550 879457550 -15.00000000
-0.17910510 -1.10338783 0.01951179 90 1 18922 1.11800000 879457552 879457552 1.00000000
-0.16910258 -1.04061818 -0.24339704 65 2 18923 1.08200000 879457554 879457554 -13.00000000
-0.18836957 -1.15918279 0.06154709 45 3 18923 1.17600000 879457557 879457557 3.00000000
-0.17369743 -1.06771672 -0.21027151 71 4 18924 1.10200000 879457559 879457559 -11.00000000
-0.17514494 -1.07424843 -0.17239077 100 6 18926 1.10200000 879457564 879457564 -9.00000000
-0.17606306 -1.07751131 -0.13405629 100 8 18928 1.10000000 879457568 879457568 -7.00000000
-0.48764309 -2.97785878 0.58654684 60 11 18930 3.07400000 879457575 879457575 11.00000000
-0.48159817 -2.93452144 0.68655062 79 13 18932 3.05200000 879457580 879457580 13.00000000
-0.18122312 -1.10304189 -0.01951179 86 14 18933 1.11800000 879457582 879457582 -1.00000000
-0.47405055 -2.88223553 0.78266877 64 15 18934 3.02400000 879457584 879457584 15.00000000
-0.16992955 -1.02535045 -0.27848929 77 0 18941 1.07600000 879457605 879457605 -15.00000000
-0.18426472 -1.11064684 0.01965141 90 1 18942 1.12600000 879457607 879457607 1.00000000
-0.17177612 -1.03425431 -0.24204734 62 2 18943 1.07600000 879457610 879457610 -13.00000000
-0.19241473 -1.15851820 0.06154709 30 3 18943 1.17600000 879457612 879457612 3.00000000
-0.17903341 -1.07678723 -0.21217960 73 4 18944 1.11200000 879457614 879457614 -11.00000000
-0.18019238 -1.08142459 -0.17364226 100 6 18946 1.11000000 879457619 879457619 -9.00000000
-0.17916931 -1.07297421 -0.13356879 100 8 18948 1.09600000 879457624 879457624 -7.00000000
-0.49803478 -2.97613835 0.58654684 66 11 18950 3.07400000 879457630 879457630 11.00000000
-0.49054942 -2.92513466 0.68475103 79 13 18952 3.04400000 879457635 879457635 13.00000000
-0.18639667 -1.11029100 -0.01965141 82 14 18953 1.12600000 879457637 879457637 -1.00000000
-0.48634979 -2.89389920 0.78629225 81 15 18954 3.03800000 879457640 879457640 15.00000000
-0.17512017 -1.03427482 -0.28107747 76 0 18961 1.08600000 879457660 879457660 -15.00000000
-0.18814048 -1.10999680 0.01965141 90 1 18962 1.12600000 879457663 879457663 1.00000000
-0.17571129 -1.03556967 -0.24249724 52 2 18963 1.07800000 879457665 879457665 -13.00000000
-0.19512109 -1.14996302 0.06112840 20 3 18963 1.16800000 879457667 879457667 3.00000000
-0.18081844 -1.06454253 -0.20988989 76 4 18964 1.10000000 879457670 879457670 -11.00000000
-0.18462910 -1.08468366 -0.17426799 100 6 18966 1.11400000 879457674 879457674 -9.00000000
-0.18224603 -1.06842864 -0.13308132 100 8 18968 1.09200000 879457679 879457679 -7.00000000
-0.51073593 -2.98792815 0.58921820 70 11 18970 3.08800000 879457686 879457686 11.00000000
-0.18998934 -1.11031663 -0.05903496 100 12 18971 1.12800000 879457688 879457688 -3.00000000
-0.50009900 -2.91956306 0.68385118 84 13 18972 3.04000000 879457690 879457690 13.00000000
-0.18959525 -1.10569167 -0.01958160 84 14 18973 1.12200000 879457693 879457693 -1.00000000
-0.49431115 -2.88275003 0.78370404 84 15 18973 3.02800000 879457695 879457695 15.00000000
-0.17675449 -1.02223563 -0.27797166 85 0 18981 1.07400000 879457716 879457716 -15.00000000
-0.19474238 -1.12509656 0.01993065 85 1 18982 1.14200000 879457718 879457718 1.00000000
-0.17932503 -1.03495002 -0.24249724 55 2 18983 1.07800000 879457720 879457720 -13.00000000
-0.20152090 -1.16305053 0.06186110 7 3 18983 1.18200000 879457723 879457723 3.00000000
-0.18352674 -1.05810177 -0.20874505 71 4 18984 1.09400000 879457725 879457725 -11.00000000
-0.18909076 -1.08792508 -0.17489374 100 6 18986 1.11800000 879457729 879457729 -9.00000000
-0.50394160 -2.89640856 0.36097699 1 7 18987 2.96200000 879457732 879457732 7.00000000
-0.18665566 -1.07169724 -0.13356879 100 8 18988 1.09600000 879457734 879457734 -7.00000000
-0.51655287 -2.96582651 0.47681224 2 9 18988 3.04800000 879457736 879457736 9.00000000
-0.52318788 -2.99773121 0.59150791 57 11 18990 3.10000000 879457741 879457741 11.00000000
-0.19283272 -1.10374427 -0.05872094 100 12 18991 1.12200000 879457743 879457743 -3.00000000
-0.51028717 -2.91779971 0.68385118 94 13 18992 3.04000000 879457746 879457746 13.00000000
-0.19207434 -1.09714425 -0.01944198 86 14 18993 1.11400000 879457748 879457748 -1.00000000
-0.50353974 -2.87330770 0.78163350 88 15 18994 3.02000000 879457750 879457750 15.00000000
-0.18032168 -1.02161241 -0.27797166 80 0 19001 1.07400000 879457771 879457771 -15.00000000
-0.19658093 -1.11259472 0.01972122 87 1 19002 1.13000000 879457773 879457773 1.00000000
-0.18497299 -1.04583156 -0.24519666 50 2 19003 1.09000000 879457776 879457776 -13.00000000
-0.50836247 -2.87134337 0.15282099 10 3 19004 2.92000000 879457778 879457778 3.00000000
-0.18893042 -1.06712067 -0.21065313 76 4 19004 1.10400000 879457780 879457780 -11.00000000
-0.51353359 -2.89760494 0.25745806 7 5 19005 2.95400000 879457782 879457782 5.00000000
-0.19288717 -1.08725834 -0.17489374 100 6 19006 1.11800000 879457785 879457785 -9.00000000
-0.19039543 -1.07103920 -0.13356879 100 8 19008 1.09600000 879457789 879457789 -7.00000000
-0.53020579 -2.97655845 0.58769172 51 11 19010 3.08000000 879457796 879457796 11.00000000
-0.19808672 -1.11092937 -0.05913963 100 12 19011 1.13000000 879457799 879457799 -3.00000000
-0.52286595 -2.92942953 0.68700051 82 13 19012 3.05400000 879457801 879457801 13.00000000
-0.19519949 -1.09253001 -0.01937217 78 14 19013 1.11000000 879457803 879457803 -1.00000000
-0.50966746 -2.85260463 0.77645713 75 15 19013 3.00000000 879457806 879457806 15.00000000
-0.18457153 -1.02477920 -0.27900693 76 0 19021 1.07800000 879457826 879457826 -15.00000000
-0.20046341 -1.11190176 0.01972122 95 1 19022 1.13000000 879457829 879457829 1.00000000
-0.18793030 -1.04134393 -0.24429685 50 2 19023 1.08600000 879457831 879457831 -13.00000000
-0.52086765 -2.88330960 0.15355369 45 3 19024 2.93400000 879457833 879457833 3.00000000
-0.19405025 -1.07418263 -0.21217960 78 4 19024 1.11200000 879457835 879457835 -11.00000000
-0.52151781 -2.88403130 0.25641221 38 5 19025 2.94200000 879457838 879457838 5.00000000
-0.19386648 -1.07102811 -0.17239077 100 6 19026 1.10200000 879457840 879457840 -9.00000000
-0.52131855 -2.87719345 0.35902709 55 7 19027 2.94600000 879457842 879457842 7.00000000
-0.19554994 -1.07818103 -0.13454376 100 8 19028 1.10400000 879457845 879457845 -7.00000000
-0.52788234 -2.90763330 0.46805191 21 9 19029 2.99200000 879457847 879457847 9.00000000
-0.53357202 -2.93605733 0.58005935 58 11 19030 3.04000000 879457852 879457852 11.00000000
-0.19981864 -1.09844112 -0.05851160 100 12 19031 1.11800000 879457854 879457854 -3.00000000
-0.52785176 -2.89882827 0.68025202 47 13 19032 3.02400000 879457856 879457856 13.00000000
-0.19972910 -1.09577656 -0.01944198 76 14 19033 1.11400000 879457859 879457859 -1.00000000
-0.51630515 -2.82981229 0.77076310 64 15 19034 2.97800000 879457861 879457861 15.00000000
-0.18936376 -1.03176200 -0.28107747 76 0 19040 1.08600000 879457882 879457882 -15.00000000
-0.20487218 -1.11516440 0.01979103 90 1 19041 1.13400000 879457884 879457884 1.00000000
-0.19103004 -1.03879845 -0.24384694 45 2 19042 1.08400000 879457886 879457886 -13.00000000
-0.52753359 -2.86585236 0.15271632 73 3 19043 2.91800000 879457888 879457888 3.00000000
-0.19761130 -1.07353318 -0.21217960 78 4 19043 1.11200000 879457891 879457891 -11.00000000
-0.52602428 -2.85485435 0.25397184 49 5 19044 2.91400000 879457893 879457893 5.00000000
-0.19813365 -1.07426453 -0.17301652 100 6 19045 1.10600000 879457895 879457895 -9.00000000
-0.52905488 -2.86568832 0.35780838 52 7 19046 2.93600000 879457898 879457898 7.00000000
-0.19623837 -1.06191027 -0.13259384 100 8 19047 1.08800000 879457900 879457900 -7.00000000
-0.53234774 -2.88070822 0.46398461 36 9 19047 2.96600000 879457902 879457902 9.00000000
-0.53472692 -2.88794112 0.57090050 49 11 19049 2.99200000 879457907 879457907 11.00000000
-0.20346010 -1.09777248 -0.05851160 100 12 19050 1.11800000 879457909 879457909 -3.00000000
-0.53035241 -2.85874104 0.67125392 44 13 19051 2.98400000 879457912 879457912 13.00000000
-0.20628254 -1.11083686 -0.01972122 73 14 19052 1.13000000 879457914 879457914 -1.00000000
-0.52589810 -2.83197498 0.77179837 74 15 19052 2.98200000 879457916 879457916 15.00000000
-0.19296414 -1.03109467 -0.28107747 76 0 19060 1.08600000 879457937 879457937 -15.00000000
-0.21170908 -1.13016653 0.02007027 78 1 19061 1.15000000 879457939 879457939 1.00000000
-0.19537324 -1.04195607 -0.24474674 47 2 19062 1.08800000 879457941 879457941 -13.00000000
-0.53348136 -2.84240079 0.15156493 75 3 19063 2.89600000 879457944 879457944 3.00000000
-0.19990882 -1.06511867 -0.21065313 76 4 19063 1.10400000 879457946 879457946 -11.00000000
-0.53341126 -2.83929372 0.25275165 49 5 19064 2.90000000 879457948 879457948 5.00000000
-0.20188232 -1.07356644 -0.17301652 100 6 19065 1.10600000 879457951 879457951 -9.00000000
-0.53538275 -2.84431577 0.35537100 57 7 19066 2.91600000 879457953 879457953 7.00000000
-0.19884130 -1.05536652 -0.13186263 100 8 19067 1.08200000 879457955 879457955 -7.00000000
-0.53924161 -2.85932612 0.46085593 47 9 19068 2.94600000 879457958 879457958 9.00000000
-0.54334778 -2.87834024 0.56937402 50 11 19069 2.98400000 879457962 879457962 11.00000000
-0.20877410 -1.10490572 -0.05893029 100 12 19070 1.12600000 879457964 879457964 -3.00000000
-0.53562009 -2.83197999 0.66540521 49 13 19071 2.95800000 879457967 879457967 13.00000000
-0.20755510 -1.09635651 -0.01947688 75 14 19072 1.11600000 879457969 879457969 -1.00000000
-0.53627431 -2.83002853 0.77179837 71 15 19073 2.98200000 879457971 879457971 15.00000000
-0.19619651 -1.02655113 -0.28004220 80 0 19082 1.08200000 879457992 879457992 -15.00000000
-0.21679851 -1.13327348 0.02014008 63 1 19083 1.15400000 879457994 879457994 1.00000000
-0.20083860 -1.04885399 -0.24654636 50 2 19084 1.09600000 879457997 879457997 -13.00000000
-0.54401553 -2.83836985 0.15146026 71 3 19085 2.89400000 879457999 879457999 3.00000000
-0.20251887 -1.05663061 -0.20912667 85 4 19085 1.09600000 879458001 879458001 -11.00000000
-0.54243249 -2.82744122 0.25188011 53 5 19086 2.89000000 879458004 879458004 5.00000000
-0.20823814 -1.08442295 -0.17489374 100 6 19087 1.11800000 879458006 879458006 -9.00000000
-0.54517609 -2.83639097 0.35463980 60 7 19088 2.91000000 879458008 879458008 7.00000000
-0.20626743 -1.07213926 -0.13405629 100 8 19089 1.10000000 879458011 879458011 -7.00000000
-0.54561281 -2.83599281 0.45741439 46 9 19089 2.92400000 879458013 879458013 9.00000000
-0.55290943 -2.86852169 0.56784755 50 11 19091 2.97600000 879458017 879458017 11.00000000
-0.21301508 -1.10409594 -0.05893029 100 12 19092 1.12600000 879458020 879458020 -3.00000000
-0.54501218 -2.82224894 0.66360563 50 13 19093 2.95000000 879458022 879458022 13.00000000
-0.21252227 -1.09947813 -0.01954670 76 14 19094 1.12000000 879458024 879458024 -1.00000000
-0.54481012 -2.81856012 0.76921022 77 15 19094 2.97200000 879458027 879458027 15.00000000
-0.19830154 -1.01827514 -0.27797166 85 0 19102 1.07400000 879458047 879458047 -15.00000000
-0.22075306 -1.13250983 0.02014008 58 1 19103 1.15400000 879458050 879458050 1.00000000
-0.20860344 -1.06918597 -0.25149527 67 2 19104 1.11800000 879458052 879458052 -13.00000000
-0.55353713 -2.83449316 0.15135558 75 3 19105 2.89200000 879458054 879458054 3.00000000
-0.20771110 -1.06362462 -0.21065313 85 4 19105 1.10400000 879458057 879458057 -11.00000000
-0.54924107 -2.80988741 0.25048560 53 5 19106 2.87400000 879458059 879458059 5.00000000
-0.20974648 -1.07205772 -0.17301652 100 6 19107 1.10600000 879458061 879458061 -9.00000000
-0.55469209 -2.83252263 0.35439605 69 7 19108 2.90800000 879458064 879458064 7.00000000
-0.20924497 -1.06751668 -0.13356879 100 8 19109 1.09600000 879458066 879458066 -7.00000000
-0.55296117 -2.81846642 0.45491141 49 9 19110 2.90800000 879458068 879458068 9.00000000
-0.55913603 -2.84730959 0.56403136 50 11 19111 2.95600000 879458073 879458073 11.00000000
-0.21840860 -1.11118472 -0.05934897 92 12 19112 1.13400000 879458075 879458075 -3.00000000
-0.55335563 -2.81268096 0.66180599 54 13 19113 2.94200000 879458077 879458077 13.00000000
-0.21713158 -1.10265362 -0.01961651 76 14 19114 1.12400000 879458080 879458080 -1.00000000
-0.55177480 -2.79948592 0.76455146 70 15 19115 2.95400000 879458082 879458082 15.00000000
-0.20242830 -1.02140188 -0.27900693 76 0 19121 1.07800000 879458103 879458103 -15.00000000
-0.22528557 -1.13569450 0.02020989 60 1 19122 1.15800000 879458105 879458105 1.00000000
-0.20987077 -1.05701983 -0.24879587 70 2 19123 1.10600000 879458107 879458107 -13.00000000
-0.56137639 -2.82480621 0.15093690 71 3 19124 2.88400000 879458110 879458110 3.00000000
-0.21276778 -1.07063234 -0.21217960 78 4 19124 1.11200000 879458112 879458112 -11.00000000
-0.55816728 -2.80609655 0.25031129 57 5 19125 2.87200000 879458114 879458114 5.00000000
-0.21098611 -1.05973208 -0.17113930 100 6 19126 1.09400000 879458117 879458117 -9.00000000
-0.56020254 -2.81119943 0.35195866 67 7 19127 2.88800000 879458119 879458119 7.00000000
-0.21511358 -1.07849741 -0.13503124 100 8 19128 1.10800000 879458121 879458121 -7.00000000
-0.56026733 -2.80896664 0.45365995 49 9 19128 2.90000000 879458123 879458123 9.00000000
-0.56318927 -2.81848693 0.55868876 53 11 19130 2.92800000 879458128 879458128 11.00000000
-0.21895865 -1.09478652 -0.05851160 94 12 19131 1.11800000 879458130 879458130 -3.00000000
-0.56153226 -2.80509806 0.66045630 55 13 19132 2.93600000 879458133 879458133 13.00000000
-0.22275122 -1.11173117 -0.01979103 75 14 19133 1.13400000 879458135 879458135 -1.00000000
-0.56132597 -2.80152702 0.76558673 66 15 19133 2.95800000 879458137 879458137 15.00000000
-0.20675677 -1.02447641 -0.28004220 80 0 19141 1.08200000 879458158 879458158 -15.00000000
-0.23004039 -1.13882136 0.02027970 63 1 19142 1.16200000 879458160 879458160 1.00000000
-0.21471773 -1.06201100 -0.25014558 95 2 19143 1.11200000 879458163 879458163 -13.00000000
-0.56925267 -2.81304169 0.15041354 73 3 19144 2.87400000 879458165 879458165 3.00000000
-0.21650368 -1.06988311 -0.21217960 83 4 19144 1.11200000 879458167 879458167 -11.00000000
-0.56835449 -2.80608368 0.25048560 53 5 19145 2.87400000 879458170 879458170 5.00000000
-0.21782379 -1.07447720 -0.17364226 100 6 19146 1.11000000 879458172 879458172 -9.00000000
-0.56803828 -2.79949951 0.35073996 60 7 19147 2.87800000 879458174 879458174 7.00000000
-0.21729659 -1.06995845 -0.13405629 100 8 19148 1.10000000 879458176 879458176 -7.00000000
-0.57055891 -2.80689430 0.45365995 50 9 19149 2.90000000 879458179 879458179 9.00000000
-0.57145858 -2.80880857 0.55716228 49 11 19150 2.92000000 879458183 879458183 11.00000000
-0.22357589 -1.09792972 -0.05872094 97 12 19151 1.12200000 879458186 879458186 -3.00000000
-0.56898534 -2.79166389 0.65775687 59 13 19152 2.92400000 879458188 879458188 13.00000000
-0.22663052 -1.11094689 -0.01979103 75 14 19153 1.13400000 879458190 879458190 -1.00000000
-0.57081735 -2.79566526 0.76455146 66 15 19154 2.95400000 879458193 879458193 15.00000000
-0.21323407 -1.03695762 -0.28366569 71 0 19162 1.09600000 879458213 879458213 -15.00000000
-0.23622844 -1.14776385 0.02045422 67 1 19163 1.17200000 879458216 879458216 1.00000000
-0.21978830 -1.06694293 -0.25149527 97 2 19164 1.11800000 879458218 879458218 -13.00000000
-0.57512277 -2.78941894 0.14926215 85 3 19165 2.85200000 879458220 879458220 3.00000000
-0.22002710 -1.06715965 -0.21179798 99 4 19165 1.11000000 879458223 879458223 -11.00000000
-0.57944083 -2.80788445 0.25083423 69 5 19166 2.87800000 879458225 879458225 5.00000000
-0.22096133 -1.06980252 -0.17301652 100 6 19167 1.10600000 879458227 879458227 -9.00000000
-0.57829517 -2.79739881 0.35073996 66 7 19168 2.87800000 879458229 879458229 7.00000000
-0.21960787 -1.06137919 -0.13308132 100 8 19169 1.09200000 879458232 879458232 -7.00000000
-0.57635093 -2.78554153 0.45053127 50 9 19169 2.88000000 879458234 879458234 9.00000000
-0.58015567 -2.79900551 0.55563581 55 11 19171 2.91200000 879458239 879458239 11.00000000
-0.22840990 -1.10101414 -0.05893029 92 12 19172 1.12600000 879458241 879458241 -3.00000000
-0.57723260 -2.78001952 0.65550739 58 13 19173 2.91400000 879458243 879458243 13.00000000
-0.23070082 -1.11010873 -0.01979103 80 14 19174 1.13400000 879458246 879458246 -1.00000000
-0.58057255 -2.79365587 0.76455146 67 15 19174 2.95400000 879458248 879458248 15.00000000
-0.21487385 -1.02675247 -0.28107747 76 0 19182 1.08600000 879458269 879458269 -15.00000000
-0.24310312 -1.16063273 0.02069855 49 1 19183 1.18600000 879458271 879458271 1.00000000
-0.22471081 -1.07189107 -0.25284499 100 2 19184 1.12400000 879458273 879458273 -13.00000000
-0.58772707 -2.80107737 0.14999485 77 3 19185 2.86600000 879458276 879458276 3.00000000
-0.22334769 -1.06446373 -0.21141636 90 4 19185 1.10800000 879458278 879458278 -11.00000000
-0.58678180 -2.79414558 0.24978836 66 5 19186 2.86600000 879458280 879458280 5.00000000
-0.22631958 -1.07675719 -0.17426799 100 6 19187 1.11400000 879458282 879458282 -9.00000000
-0.58642179 -2.78759289 0.34976500 64 7 19188 2.87000000 879458285 879458285 7.00000000
-0.22576542 -1.07226110 -0.13454376 100 8 19189 1.10400000 879458287 879458287 -7.00000000
-0.58362877 -2.77191472 0.44865406 53 9 19189 2.86800000 879458289 879458289 9.00000000
-0.58870697 -2.79120040 0.55449092 63 11 19191 2.90600000 879458294 879458294 11.00000000
-0.23307683 -1.10411847 -0.05913963 71 12 19192 1.13000000 879458296 879458296 -3.00000000
-0.58733600 -2.77989435 0.65595728 60 13 19193 2.91600000 879458299 879458299 13.00000000
-0.23374701 -1.10538387 -0.01972122 80 14 19194 1.13000000 879458301 879458301 -1.00000000
-0.58872199 -2.78405190 0.76248091 64 15 19194 2.94600000 879458303 879458303 15.00000000
-0.21649180 -1.01851380 -0.27900693 76 0 19200 1.07800000 879458324 879458324 -15.00000000
-0.24758035 -1.16377521 0.02076836 24 1 19201 1.19000000 879458326 879458326 1.00000000
-0.22848296 -1.07308590 -0.25329489 100 2 19202 1.12600000 879458329 879458329 -13.00000000
-0.59818912 -2.80703068 0.15041354 77 3 19203 2.87400000 879458331 879458331 3.00000000
-0.22669069 -1.06375670 -0.21141636 90 4 19203 1.10800000 879458333 879458333 -11.00000000
-0.59555697 -2.79228830 0.24978836 69 5 19204 2.86600000 879458335 879458335 5.00000000
-0.22887641 -1.07217717 -0.17364226 100 6 19205 1.11000000 879458338 879458338 -9.00000000
-0.59807962 -2.79932570 0.35147119 69 7 19206 2.88400000 879458340 879458340 7.00000000
-0.22996309 -1.07542896 -0.13503124 100 8 19207 1.10800000 879458342 879458342 -7.00000000
-0.59281760 -2.76996398 0.44865406 62 9 19208 2.86800000 879458345 879458345 9.00000000
-0.59541690 -2.77973866 0.55258286 64 11 19209 2.89600000 879458349 879458349 11.00000000
-0.23696302 -1.10533369 -0.05924430 60 12 19210 1.13200000 879458352 879458352 -3.00000000
-0.59647518 -2.77994084 0.65640718 57 13 19211 2.91800000 879458354 879458354 13.00000000
-0.23847808 -1.11050940 -0.01982593 63 14 19212 1.13600000 879458356 879458356 -1.00000000
-0.59584302 -2.77463341 0.76041037 64 15 19212 2.93800000 879458358 879458358 15.00000000
-0.22167875 -1.02530479 -0.28107747 76 0 19220 1.08600000 879458379 879458379 -15.00000000
-0.25164118 -1.16290390 0.02076836 9 1 19221 1.19000000 879458382 879458382 1.00000000
-0.23057742 -1.06466341 -0.25149527 95 2 19222 1.11800000 879458384 879458384 -13.00000000
-0.61221480 -2.82444477 0.15146026 77 3 19223 2.89400000 879458386 879458386 3.00000000
-0.23040251 -1.06295896 -0.21141636 87 4 19223 1.10800000 879458388 879458388 -11.00000000
-0.60530025 -2.79019237 0.24978836 74 5 19224 2.86600000 879458391 879458391 5.00000000
-0.23094109 -1.06365013 -0.17239077 100 6 19225 1.10200000 879458393 879458393 -9.00000000
-0.60784745 -2.79722095 0.35147119 87 7 19226 2.88400000 879458395 879458395 7.00000000
-0.23540312 -1.08237875 -0.13600619 100 8 19227 1.11600000 879458398 879458398 -7.00000000
-0.60080236 -2.76015711 0.44740257 54 9 19228 2.86000000 879458400 879458400 9.00000000
-0.60260898 -2.76613379 0.55029315 66 11 19229 2.88400000 879458405 879458405 11.00000000
-0.24167086 -1.10840261 -0.05945365 57 12 19230 1.13600000 879458407 879458407 -3.00000000
-0.60700631 -2.78164959 0.65730697 58 13 19231 2.92200000 879458409 879458409 13.00000000
-0.24704649 -1.13116026 -0.02020989 54 14 19232 1.15800000 879458411 879458411 -1.00000000
-0.60683358 -2.77620554 0.76144564 64 15 19233 2.94200000 879458414 879458414 15.00000000
-0.22709586 -1.03203225 -0.28314802 76 0 19241 1.09400000 879458435 879458435 -15.00000000
-0.23363914 -1.06000507 -0.25059548 97 2 19243 1.11400000 879458439 879458439 -13.00000000
-0.62170231 -2.81828117 0.15125091 73 3 19244 2.89000000 879458441 879458441 3.00000000
-0.23514274 -1.06594169 -0.21217960 95 4 19244 1.11200000 879458444 879458444 -11.00000000
-0.61767042 -2.79768276 0.25065991 64 5 19245 2.87600000 879458446 879458446 5.00000000
-0.23569041 -1.06665421 -0.17301652 100 6 19246 1.10600000 879458448 879458448 -9.00000000
-0.61080885 -2.76202393 0.34732762 75 7 19247 2.85000000 879458451 879458451 7.00000000
-0.23765275 -1.07375586 -0.13503124 100 8 19248 1.10800000 879458453 879458453 -7.00000000
-0.61390531 -2.77143693 0.44959265 65 9 19249 2.87400000 879458455 879458455 9.00000000
-0.61104363 -2.75623965 0.54876667 71 11 19250 2.87600000 879458460 879458460 11.00000000
-0.24400124 -1.09971011 -0.05903496 60 12 19251 1.12800000 879458462 879458462 -3.00000000
-0.61466277 -2.76799178 0.65460759 58 13 19252 2.91000000 879458464 879458464 13.00000000
-0.25335991 -1.14000762 -0.02038441 71 14 19253 1.16800000 879458467 879458467 -1.00000000
-0.61652070 -2.77407050 0.76144564 64 15 19253 2.94200000 879458469 879458469 15.00000000
-0.23154044 -1.03500378 -0.28418332 76 0 19261 1.09800000 879458490 879458490 -15.00000000
-0.63700199 -2.84511757 0.05089122 64 1 19262 2.91600000 879458492 879458492 1.00000000
-0.23648562 -1.05537987 -0.24969567 97 2 19263 1.11000000 879458494 879458494 -13.00000000
-0.62891382 -2.80440092 0.15062289 73 3 19264 2.87800000 879458497 879458497 3.00000000
-0.23800293 -1.06128311 -0.21141636 90 4 19264 1.10800000 879458499 879458499 -11.00000000
-0.62830502 -2.79939771 0.25100854 57 5 19265 2.88000000 879458501 879458501 5.00000000
-0.24114403 -1.07353449 -0.17426799 100 6 19266 1.11400000 879458504 879458504 -9.00000000
-0.61783397 -2.74825454 0.34586519 70 7 19267 2.83800000 879458506 879458506 7.00000000
-0.23878497 -1.06129968 -0.13356879 100 8 19268 1.09600000 879458508 879458508 -7.00000000
-0.61880231 -2.74807882 0.44615111 58 9 19269 2.85200000 879458511 879458511 9.00000000
-0.61936611 -2.74834418 0.54762185 75 11 19270 2.87000000 879458515 879458515 11.00000000
-0.25091445 -1.11248994 -0.05976766 66 12 19271 1.14200000 879458517 879458517 -3.00000000
-0.62346298 -2.76202750 0.65370774 58 13 19272 2.90600000 879458520 879458520 13.00000000
-0.25777838 -1.14106679 -0.02041932 75 14 19273 1.17000000 879458522 879458522 -1.00000000
-0.62620026 -2.77190137 0.76144564 64 15 19273 2.94200000 879458524 879458524 15.00000000
-0.23283136 -1.02481103 -0.28159511 73 0 19280 1.08800000 879458545 879458545 -15.00000000
-0.64687657 -2.84493947 0.05092612 60 1 19281 2.91800000 879458547 879458547 1.00000000
-0.24344331 -1.06979108 -0.25329489 95 2 19282 1.12600000 879458550 879458550 -13.00000000
-0.64038002 -2.81409597 0.15125091 77 3 19282 2.89000000 879458552 879458552 3.00000000
-0.23977712 -1.05283105 -0.20988989 90 4 19283 1.10000000 879458554 879458554 -11.00000000
-0.63404256 -2.78175831 0.24961405 57 5 19284 2.86400000 879458557 879458557 5.00000000
-0.24645996 -1.08043253 -0.17551947 100 6 19285 1.12200000 879458559 879458559 -9.00000000
-0.63224602 -2.76941419 0.34879005 83 7 19286 2.86200000 879458561 879458561 7.00000000
-0.24318738 -1.06437254 -0.13405629 100 8 19287 1.10000000 879458563 879458563 -7.00000000
-0.62655264 -2.74226975 0.44552535 58 9 19287 2.84800000 879458566 879458566 9.00000000
-0.62935245 -2.75010276 0.54838502 75 11 19289 2.87400000 879458570 879458570 11.00000000
-0.25727755 -1.12333286 -0.06039570 83 12 19290 1.15400000 879458573 879458573 -3.00000000
-0.63261873 -2.75994492 0.65370774 56 13 19291 2.90600000 879458575 879458575 13.00000000
-0.26066664 -1.13630748 -0.02034951 84 14 19292 1.16600000 879458577 879458577 -1.00000000
-0.63538873 -2.76980972 0.76144564 64 15 19292 2.94200000 879458580 879458580 15.00000000
-0.23553807 -1.02022743 -0.28055984 73 0 19300 1.08400000 879458600 879458600 -15.00000000
-0.65635318 -2.84071589 0.05089122 63 1 19301 2.91600000 879458603 879458603 1.00000000
-0.24629803 -1.06513751 -0.25239509 97 2 19302 1.12200000 879458605 879458605 -13.00000000
-0.65249109 -2.81951332 0.15166961 73 3 19303 2.89800000 879458607 879458607 3.00000000
-0.24433601 -1.05581307 -0.21065313 95 4 19303 1.10400000 879458610 879458610 -11.00000000
-0.63925338 -2.76011801 0.24787094 57 5 19304 2.84400000 879458612 879458612 5.00000000
-0.24621549 -1.06224644 -0.17270365 100 6 19305 1.10400000 879458614 879458614 -9.00000000
-0.63652629 -2.74398541 0.34586519 73 7 19306 2.83800000 879458616 879458616 7.00000000
-0.24735016 -1.06545079 -0.13430002 100 8 19307 1.10200000 879458619 879458619 -7.00000000
-0.63570523 -2.73610663 0.44489962 59 9 19308 2.84400000 879458621 879458621 9.00000000
-0.63805902 -2.74406481 0.54762185 75 11 19309 2.87000000 879458626 879458626 11.00000000
-0.26300788 -1.13020909 -0.06081438 92 12 19310 1.16200000 879458628 879458628 -3.00000000
-0.64136487 -2.75392389 0.65280795 56 13 19311 2.90200000 879458630 879458630 13.00000000
-0.26644716 -1.14318073 -0.02048912 82 14 19312 1.17400000 879458633 879458633 -1.00000000
-0.64290327 -2.75617409 0.75833982 59 15 19313 2.93000000 879458635 879458635 15.00000000
-0.23998016 -1.02316070 -0.28159511 71 0 19320 1.08800000 879458656 879458656 -15.00000000
-0.66900694 -2.85008812 0.05110065 67 1 19321 2.92800000 879458658 879458658 1.00000000
-0.24778627 -1.05478585 -0.25014558 87 2 19322 1.11200000 879458660 879458660 -13.00000000
-0.66412115 -2.82705569 0.15219297 71 3 19322 2.90800000 879458663 879458663 3.00000000
-0.24981724 -1.06259835 -0.21217960 90 4 19323 1.11200000 879458665 879458665 -11.00000000
-0.64979672 -2.76174855 0.24821955 64 5 19324 2.84800000 879458667 879458667 5.00000000
-0.24811089 -1.05368924 -0.17145218 100 6 19325 1.09600000 879458669 879458669 -9.00000000
-0.64473480 -2.73595023 0.34513399 73 7 19326 2.83200000 879458672 879458672 7.00000000
-0.25106776 -1.06458092 -0.13430002 100 8 19327 1.10200000 879458674 879458674 -7.00000000
-0.64706719 -2.74156117 0.44615111 59 9 19328 2.85200000 879458676 879458676 9.00000000
-0.64447451 -2.72844601 0.54495049 74 11 19329 2.85600000 879458681 879458681 11.00000000
-0.26511356 -1.12150931 -0.06039570 100 12 19330 1.15400000 879458683 879458683 -3.00000000
-0.65097398 -2.75166845 0.65280795 54 13 19331 2.90200000 879458686 879458686 13.00000000
-0.27135742 -1.14613545 -0.02055893 73 14 19332 1.17800000 879458688 879458688 -1.00000000
-0.65203953 -2.75402713 0.75833982 64 15 19332 2.93000000 879458690 879458690 15.00000000
-0.24534100 -1.02983379 -0.28366569 71 0 19340 1.09600000 879458711 879458711 -15.00000000
-0.68034285 -2.85357094 0.05120536 72 1 19341 2.93400000 879458713 879458713 1.00000000
-0.24875297 -1.04254127 -0.24744616 82 2 19342 1.10000000 879458715 879458715 -13.00000000
-0.67120415 -2.81306410 0.15156493 67 3 19342 2.89600000 879458718 879458718 3.00000000
-0.25261292 -1.05790067 -0.21141636 87 4 19343 1.10800000 879458720 879458720 -11.00000000
-0.66035926 -2.76333928 0.24856818 62 5 19344 2.85200000 879458722 879458722 5.00000000
-0.25454423 -1.06434405 -0.17332938 100 6 19345 1.10800000 879458725 879458725 -9.00000000
-0.65243286 -2.72596073 0.34415904 67 7 19346 2.82400000 879458727 879458727 7.00000000
-0.25478232 -1.06369805 -0.13430002 100 8 19347 1.10200000 879458729 879458729 -7.00000000
-0.65663308 -2.73928571 0.44615111 54 9 19348 2.85200000 879458732 879458732 9.00000000
-0.65582657 -2.73381615 0.54647696 74 11 19349 2.86400000 879458736 879458736 11.00000000
-0.26809424 -1.11669290 -0.06018635 97 12 19350 1.15000000 879458739 879458739 -3.00000000
-0.65875405 -2.74180007 0.65100837 59 13 19351 2.89400000 879458741 879458741 13.00000000
-0.27675900 -1.15101409 -0.02066365 64 14 19352 1.18400000 879458743 879458743 -1.00000000
-0.66255218 -2.75549078 0.75937510 59 15 19352 2.93400000 879458745 879458745 15.00000000
-0.25075135 -1.03648186 -0.28573623 71 0 19360 1.10400000 879458766 879458766 -15.00000000
-0.69406396 -2.86672711 0.05148460 74 1 19361 2.95000000 879458768 879458768 1.00000000
-0.25422618 -1.04924238 -0.24924576 80 2 19362 1.10800000 879458771 879458771 -13.00000000
-0.67868608 -2.79893899 0.15093690 67 3 19363 2.88400000 879458773 879458773 3.00000000
-0.25722942 -1.06082833 -0.21217960 90 4 19363 1.11200000 879458775 879458775 -11.00000000
-0.67047095 -2.76295352 0.24874249 50 5 19364 2.85400000 879458778 879458778 5.00000000
-0.25779179 -1.06152940 -0.17301652 100 6 19365 1.10600000 879458780 879458780 -9.00000000
-0.66381943 -2.73138237 0.34513399 73 7 19366 2.83200000 879458782 879458782 7.00000000
-0.25755548 -1.05894446 -0.13381253 97 8 19367 1.09800000 879458785 879458785 -7.00000000
-0.66571331 -2.73709321 0.44615111 51 9 19367 2.85200000 879458787 879458787 9.00000000
-0.66583002 -2.73341775 0.54685861 77 11 19369 2.86600000 879458792 879458792 11.00000000
-0.27293664 -1.11963117 -0.06039570 97 12 19370 1.15400000 879458794 879458794 -3.00000000
-0.66785884 -2.73759055 0.65055847 63 13 19371 2.89200000 879458796 879458796 13.00000000
-0.27935228 -1.14421308 -0.02055893 45 14 19372 1.17800000 879458798 879458798 -1.00000000
-0.67264712 -2.75304413 0.75937510 61 15 19373 2.93400000 879458801 879458801 15.00000000
-0.25252455 -1.02809584 -0.28366569 73 0 19380 1.09600000 879458821 879458821 -15.00000000
-0.71122646 -2.89341521 0.05200817 34 1 19381 2.98000000 879458824 879458824 1.00000000
-0.25695616 -1.04456389 -0.24834597 85 2 19382 1.10400000 879458826 879458826 -13.00000000
-0.69750577 -2.83546185 0.15303034 57 3 19382 2.92400000 879458828 879458828 3.00000000
-0.25717643 -1.04467332 -0.20912667 83 4 19383 1.09600000 879458831 879458831 -11.00000000
-0.67534536 -2.74125075 0.24699937 52 5 19384 2.83400000 879458833 879458833 5.00000000
-0.26244137 -1.06445897 -0.17364226 100 6 19385 1.11000000 879458835 879458835 -9.00000000
-0.67762947 -2.74639440 0.34732762 83 7 19386 2.85000000 879458838 879458838 7.00000000
-0.26505727 -1.07345665 -0.13576245 100 8 19387 1.11400000 879458840 879458840 -7.00000000
-0.67194980 -2.71929336 0.44364813 50 9 19388 2.83600000 879458842 879458842 9.00000000
-0.67678124 -2.73679447 0.54800344 74 11 19389 2.87200000 879458847 879458847 11.00000000
-0.27876243 -1.12642670 -0.06081438 97 12 19390 1.16200000 879458849 879458849 -3.00000000
-0.67834771 -2.73902583 0.65145826 63 13 19391 2.89600000 879458851 879458851 13.00000000
-0.27997720 -1.12964427 -0.02031460 17 14 19392 1.16400000 879458854 879458854 -1.00000000
-0.68132281 -2.74692917 0.75833982 66 15 19393 2.93000000 879458856 879458856 15.00000000
-0.25600228 -1.02524436 -0.28314802 76 0 19402 1.09400000 879458877 879458877 -15.00000000
-0.71118104 -2.84604216 0.05120536 23 1 19403 2.93400000 879458879 879458879 1.00000000
-0.26474720 -1.05869377 -0.25194517 87 2 19404 1.12000000 879458881 879458881 -13.00000000
-0.70208907 -2.80757380 0.15166961 61 3 19404 2.89800000 879458884 879458884 3.00000000
-0.26309225 -1.05129623 -0.21065313 87 4 19405 1.10400000 879458886 879458886 -11.00000000
-0.68538195 -2.73670483 0.24682507 59 5 19406 2.83200000 879458888 879458888 5.00000000
-0.26556620 -1.05961120 -0.17301652 100 6 19407 1.10600000 879458891 879458891 -9.00000000
-0.68527228 -2.73221946 0.34586519 69 7 19408 2.83800000 879458893 879458893 7.00000000
-0.27207664 -1.08398318 -0.13722488 99 8 19409 1.12600000 879458895 879458895 -7.00000000
-0.68287379 -2.72064400 0.44427389 51 9 19409 2.84000000 879458898 879458898 9.00000000
-0.68632752 -2.73036742 0.54724020 70 11 19411 2.86800000 879458902 879458902 11.00000000
-0.28503448 -1.13309574 -0.06123307 93 12 19412 1.17000000 879458904 879458904 -3.00000000
-0.68981123 -2.74018049 0.65235806 63 13 19413 2.90000000 879458907 879458907 13.00000000
-0.29359433 -1.16540396 -0.02097779 3 14 19414 1.20200000 879458909 879458909 -1.00000000
-0.68997616 -2.73679996 0.75626928 64 15 19415 2.92200000 879458911 879458911 15.00000000
-0.26052859 -1.02808988 -0.28418332 76 0 19422 1.09800000 879458932 879458932 -15.00000000
-0.72061968 -2.84160399 0.05117046 64 1 19423 2.93200000 879458934 879458934 1.00000000
-0.27035856 -1.06531870 -0.25374478 85 2 19424 1.12800000 879458937 879458937 -13.00000000
-0.71237636 -2.80704188 0.15177427 67 3 19424 2.90000000 879458939 879458939 3.00000000
-0.26869342 -1.05798280 -0.21217960 85 4 19425 1.11200000 879458941 879458941 -11.00000000
-0.69493067 -2.73429561 0.24682507 59 5 19426 2.83200000 879458944 879458944 5.00000000
-0.26926333 -1.05867779 -0.17301652 100 6 19427 1.10600000 879458946 879458946 -9.00000000
-0.69529498 -2.73173451 0.34610894 69 7 19428 2.84000000 879458948 879458948 7.00000000
-0.27879867 -1.09456897 -0.13868731 94 8 19429 1.13800000 879458951 879458951 -7.00000000
-0.69431674 -2.72590089 0.44552535 51 9 19429 2.84800000 879458953 879458953 9.00000000
-0.69488358 -2.72415042 0.54647696 74 11 19431 2.86400000 879458957 879458957 11.00000000
-0.28602400 -1.12048256 -0.06060504 100 12 19432 1.15800000 879458960 879458960 -3.00000000
-0.70226604 -2.74908471 0.65505749 65 13 19433 2.91200000 879458962 879458962 13.00000000
-0.73796046 -2.88671255 -0.05200817 3 14 19434 2.98000000 879458964 879458964 -1.00000000
-0.69952518 -2.73437476 0.75626928 64 15 19435 2.92200000 879458967 879458967 15.00000000
-0.26345569 -1.02534914 -0.28366569 73 0 19441 1.09600000 879458987 879458987 -15.00000000
-0.72854489 -2.83338857 0.05106574 45 1 19442 2.92600000 879458990 879458990 1.00000000
-0.26806235 -1.04176915 -0.24834597 82 2 19443 1.10400000 879458992 879458992 -13.00000000
-0.71969008 -2.79692721 0.15135558 67 3 19443 2.89200000 879458994 879458994 3.00000000
-0.27317947 -1.06088841 -0.21294284 90 4 19444 1.11600000 879458997 879458997 -11.00000000
-0.70697713 -2.74355221 0.24787094 59 5 19445 2.84400000 879458999 879458999 5.00000000
-0.27178600 -1.05395341 -0.17239077 100 6 19446 1.10200000 879459001 879459001 -9.00000000
-0.70286185 -2.72364736 0.34537771 66 7 19447 2.83400000 879459003 879459003 7.00000000
-0.28044143 -1.08595026 -0.13771236 99 8 19448 1.13000000 879459006 879459006 -7.00000000
-0.70532805 -2.73123384 0.44677684 62 9 19448 2.85600000 879459008 879459008 9.00000000
-0.70391339 -2.72183108 0.54647696 74 11 19450 2.86400000 879459013 879459013 11.00000000
-0.28973809 -1.11952794 -0.06060504 100 12 19451 1.15800000 879459015 879459015 -3.00000000
-0.70942414 -2.73919463 0.65325785 61 13 19452 2.90400000 879459017 879459017 13.00000000
-0.71150476 -2.74525404 0.75989270 66 15 19453 2.93600000 879459022 879459022 15.00000000
-0.27044421 -1.03750896 -0.28728914 80 0 19461 1.11000000 879459043 879459043 -15.00000000
-0.73186922 -2.80567384 0.05061198 47 1 19462 2.90000000 879459045 879459045 1.00000000
-0.27465039 -1.05214036 -0.25104538 90 2 19463 1.11600000 879459047 879459047 -13.00000000
-0.72289079 -2.76927543 0.14999485 61 3 19463 2.86600000 879459050 879459050 3.00000000
-0.27390379 -1.04853129 -0.21065313 90 4 19464 1.10400000 879459052 879459052 -11.00000000
-0.71957302 -2.75263357 0.24891680 57 5 19465 2.85600000 879459054 879459054 5.00000000
-0.27746308 -1.06064260 -0.17364226 100 6 19466 1.11000000 879459056 879459056 -9.00000000
-0.71588397 -2.73462009 0.34708390 70 7 19467 2.84800000 879459059 879459059 7.00000000
-0.28121203 -1.07344294 -0.13624993 100 8 19468 1.11800000 879459061 879459061 -7.00000000
-0.71385634 -2.72493339 0.44615111 52 9 19468 2.85200000 879459063 879459063 9.00000000
-0.71490467 -2.72505450 0.54762185 75 11 19470 2.87000000 879459068 879459068 11.00000000
