# .PCD v0.7 - Point Cloud Data file format
VERSION 0.7
FIELDS x y z intensity laser_id azimuth distance_m adjustedtime timestamp vertical_angle
SIZE 4 4 4 1 1 2 8 8 4 8
TYPE F F F U U U F U U F
COUNT 1 1 1 1 1 1 1 1 1 1
WIDTH 551
HEIGHT 1
VIEWPOINT 0 0 0 1 0 0 0
POINTS 551
DATA ascii
7.79774570 3.54378057 1.35659969 47 9 6556 8.67200000 885723225 885723225 9.00000000
6.31223774 2.86867332 -0.60660398 20 10 6556 6.96000000 885723227 885723227 -5.00000000
7.80055714 3.54341578 1.66538095 18 11 6557 8.72800000 885723229 885723229 11.00000000
7.75261974 3.52000785 -0.44621637 17 12 6558 8.52600000 885723231 885723231 -3.00000000
7.80977392 3.54431415 1.98001921 21 13 6559 8.80200000 885723234 885723234 13.00000000
7.76694870 3.52324414 -0.14886902 16 14 6560 8.53000000 885723236 885723236 -1.00000000
7.37207460 3.34257007 2.16890359 47 15 6561 8.38000000 885723238 885723238 15.00000000
2.08752656 0.94430947 -0.61391878 4 0 6566 2.37200000 885723259 885723259 -15.00000000
7.76031446 3.50880909 0.14865960 12 1 6567 8.51800000 885723261 885723261 1.00000000
2.44528770 1.10511756 -0.61951518 7 2 6568 2.75400000 885723264 885723264 -13.00000000
7.76846409 3.50922847 0.44673973 13 3 6569 8.53600000 885723266 885723266 3.00000000
2.94677186 1.33113778 -0.62852484 5 4 6569 3.29400000 885723268 885723268 -11.00000000
7.77737236 3.51161814 0.74657607 76 5 6570 8.56600000 885723271 885723271 5.00000000
3.71624565 1.67716849 -0.64576149 6 6 6571 4.12800000 885723273 885723273 -9.00000000
7.77544165 3.50747943 1.04734516 95 7 6572 8.59400000 885723275 885723275 7.00000000
5.03262854 2.26914740 -0.67783731 9 8 6573 5.56200000 885723278 885723278 -7.00000000
7.88566017 3.55554247 1.37005305 13 9 6573 8.75800000 885723280 885723280 9.00000000
6.32666826 2.85128450 -0.60712689 24 10 6574 6.96600000 885723282 885723282 -5.00000000
7.90473175 3.56082201 1.68522501 12 11 6575 8.83200000 885723284 885723284 11.00000000
7.75089169 3.48989487 -0.44548365 17 12 6576 8.51200000 885723287 885723287 -3.00000000
7.90439224 3.55735040 2.00116467 15 13 6577 8.89600000 885723289 885723289 13.00000000
7.75609446 3.48898196 -0.14845017 14 14 6578 8.50600000 885723291 885723291 -1.00000000
7.47181177 3.36110067 2.19530320 45 15 6578 8.48200000 885723294 885723294 15.00000000
2.08199573 0.93306655 -0.61133057 4 0 6586 2.36200000 885723314 885723314 -15.00000000
7.76886559 3.48006439 0.14858979 12 1 6587 8.51400000 885723317 885723317 1.00000000
2.44913054 1.09657514 -0.61951518 7 2 6588 2.75400000 885723319 885723319 -13.00000000
7.77702045 3.48045826 0.44653037 13 3 6589 8.53200000 885723321 885723321 3.00000000
2.94602466 1.31843758 -0.62737995 5 4 6589 3.28800000 885723324 885723324 -11.00000000
7.77139521 3.47631311 0.74483299 76 5 6590 8.54600000 885723326 885723326 5.00000000
3.72568417 1.66579878 -0.64638722 4 6 6591 4.13200000 885723328 885723328 -9.00000000
7.78401279 3.47869682 1.04685771 95 7 6592 8.59000000 885723331 885723331 7.00000000
5.04051876 2.25156641 -0.67783731 9 8 6593 5.56200000 885723333 885723333 -7.00000000
7.87338638 3.51534152 1.36567283 10 9 6594 8.73000000 885723335 885723335 9.00000000
6.32566690 2.82430935 -0.60608101 12 10 6594 6.95400000 885723337 885723337 -5.00000000
7.87050009 3.51240540 1.67530298 12 11 6595 8.78000000 885723340 885723340 11.00000000
7.75573015 3.45956349 -0.44506496 17 12 6596 8.50400000 885723342 885723342 -3.00000000
7.86336613 3.50593066 1.98766756 3 13 6597 8.83600000 885723344 885723344 13.00000000
7.74813461 3.45293283 -0.14806622 14 14 6598 8.48400000 885723347 885723347 -1.00000000
7.55819798 3.36670732 2.21704388 45 15 6599 8.56600000 885723349 885723349 15.00000000
2.08347440 0.92500943 -0.61081296 4 0 6606 2.36000000 885723370 885723370 -15.00000000
7.75903225 3.44319129 0.14817093 12 1 6607 8.49000000 885723372 885723372 1.00000000
2.46006870 1.09117997 -0.62131482 7 2 6608 2.76200000 885723374 885723374 -13.00000000
7.78181839 3.45005226 0.44611168 13 3 6609 8.52400000 885723377 885723377 3.00000000
2.94701934 1.30655456 -0.62661672 5 4 6609 3.28400000 885723379 885723379 -11.00000000
7.77073193 3.44351435 0.74361283 76 5 6610 8.53200000 885723381 885723381 5.00000000
3.72425151 1.64958358 -0.64513576 6 6 6611 4.12400000 885723384 885723384 -9.00000000
7.79247808 3.44989729 1.04637015 97 7 6612 8.58600000 885723386 885723386 7.00000000
5.06105471 2.23958111 -0.67954344 9 8 6613 5.57600000 885723388 885723388 -7.00000000
8.08912563 3.57954097 1.40102708 10 9 6613 8.95600000 885723390 885723390 9.00000000
6.32455397 2.79737592 -0.60503519 12 10 6614 6.94200000 885723393 885723393 -5.00000000
8.13050652 3.59445930 1.72796631 12 11 6615 9.05600000 885723395 885723395 11.00000000
7.76593256 3.43166256 -0.44496030 17 12 6616 8.50200000 885723397 885723397 -3.00000000
7.88981676 3.48475981 1.99126673 2 13 6617 8.85200000 885723400 885723400 13.00000000
7.76013994 3.42586589 -0.14806622 16 14 6618 8.48400000 885723402 885723402 -1.00000000
7.65061617 3.37751436 2.24085522 45 15 6618 8.65800000 885723404 885723404 15.00000000
2.08669043 0.91773111 -0.61081296 4 0 6626 2.36000000 885723425 885723425 -15.00000000
7.76185083 3.41206264 0.14799641 12 1 6627 8.48000000 885723427 885723427 1.00000000
2.45137382 1.07709861 -0.61816549 9 2 6628 2.74800000 885723430 885723430 -13.00000000
7.79564285 3.42367077 0.44621637 13 3 6629 8.52600000 885723432 885723432 3.00000000
2.96414495 1.30178571 -0.62928808 5 4 6629 3.29800000 885723434 885723434 -11.00000000
7.78270435 3.41636848 0.74361283 76 5 6630 8.53200000 885723437 885723437 5.00000000
3.71551561 1.63022399 -0.64263278 6 6 6631 4.10800000 885723439 885723439 -9.00000000
7.78992939 3.41629720 1.04442024 95 7 6632 8.57000000 885723441 885723441 7.00000000
5.06338692 2.21951008 -0.67881227 9 8 6633 5.57000000 885723443 885723443 -7.00000000
8.19627571 3.59109092 1.41729629 10 9 6634 9.06000000 885723446 885723446 9.00000000
6.32333088 2.77048469 -0.60398930 16 10 6634 6.93000000 885723448 885723448 -5.00000000
8.22572899 3.60228419 1.74552071 12 11 6635 9.14800000 885723450 885723450 11.00000000
7.77237463 3.40213084 -0.44464630 12 12 6636 8.49600000 885723453 885723453 -3.00000000
7.96441984 3.48453689 2.00701332 2 13 6637 8.92200000 885723455 885723455 13.00000000
7.76838684 3.39715457 -0.14799641 14 14 6638 8.48000000 885723457 885723457 -1.00000000
7.77269268 3.39742160 2.27294874 47 15 6639 8.78200000 885723460 885723460 15.00000000
2.08988118 0.91044164 -0.61081296 4 0 6646 2.36000000 885723480 885723480 -15.00000000
7.76637983 3.38175464 0.14785679 12 1 6647 8.47200000 885723483 885723483 1.00000000
2.45511866 1.06853521 -0.61816549 9 2 6648 2.74800000 885723485 885723485 -13.00000000
7.79106283 3.38926744 0.44527432 13 3 6649 8.50800000 885723487 885723487 3.00000000
2.96507025 1.28986466 -0.62852484 5 4 6649 3.29400000 885723490 885723490 -11.00000000
7.79092836 3.38759208 0.74326420 79 5 6650 8.52800000 885723492 885723492 5.00000000
3.73205376 1.62196863 -0.64450997 6 6 6651 4.12000000 885723494 885723494 -9.00000000
7.78542042 3.38196635 1.04222667 100 7 6652 8.55200000 885723496 885723496 7.00000000
5.06017876 2.19707847 -0.67734981 9 8 6653 5.55800000 885723499 885723499 -7.00000000
8.23531818 3.57569242 1.42198932 7 9 6653 9.09000000 885723501 885723501 9.00000000
6.34210157 2.75236106 -0.60486084 28 10 6654 6.94000000 885723503 885723503 -5.00000000
7.98069477 3.46182680 1.69094932 3 11 6655 8.86200000 885723506 885723506 11.00000000
7.77504110 3.37100720 -0.44412291 17 12 6656 8.48600000 885723508 885723508 -3.00000000
7.86925125 3.41022205 1.98001921 3 13 6657 8.80200000 885723510 885723510 13.00000000
7.77652788 3.36842752 -0.14792660 14 14 6658 8.47600000 885723513 885723513 -1.00000000
7.84241533 3.39696693 2.29003096 47 15 6658 8.84800000 885723515 885723515 15.00000000
2.10014153 0.90620250 -0.61288351 4 0 6666 2.36800000 885723536 885723536 -15.00000000
7.77446461 3.35304022 0.14778697 12 1 6667 8.46800000 885723538 885723538 1.00000000
2.45525455 1.05841589 -0.61726570 9 2 6668 2.74400000 885723540 885723540 -13.00000000
7.79184055 3.35730910 0.44464630 15 3 6669 8.49600000 885723543 885723543 3.00000000
2.96775174 1.27872992 -0.62814319 5 4 6669 3.29200000 885723545 885723545 -11.00000000
7.78989649 3.35485935 0.74204397 76 5 6670 8.51400000 885723547 885723547 5.00000000
3.74132156 1.61049354 -0.64513576 6 6 6671 4.12400000 885723549 885723549 -9.00000000
7.77712011 3.34613919 1.03954554 80 7 6672 8.53000000 885723552 885723552 7.00000000
5.06416988 2.17783332 -0.67686236 9 8 6673 5.55400000 885723554 885723554 -7.00000000
7.70334387 3.31280351 1.32812858 10 9 6673 8.49000000 885723556 885723556 9.00000000
6.34617901 2.72784591 -0.60433793 40 10 6674 6.93400000 885723559 885723559 -5.00000000
7.69329596 3.30530071 1.62760079 12 11 6675 8.53000000 885723561 885723561 11.00000000
7.76473808 3.33438945 -0.44286686 17 12 6676 8.46200000 885723563 885723563 -3.00000000
7.74597120 3.32312846 -0.14712378 16 14 6678 8.43000000 885723568 885723568 -1.00000000
7.71574640 3.31016183 2.24965525 20 15 6678 8.69200000 885723570 885723570 15.00000000
2.09603000 0.89619523 -0.61081296 4 0 6685 2.36000000 885723591 885723591 -15.00000000
7.68624496 3.28480554 0.14590211 15 1 6686 8.36000000 885723593 885723593 1.00000000
2.46771145 1.05409563 -0.61951518 7 2 6687 2.75400000 885723596 885723596 -13.00000000
7.69272041 3.28439760 0.43836597 26 3 6688 8.37600000 885723598 885723598 3.00000000
2.96294785 1.26502705 -0.62623513 5 4 6688 3.28200000 885723600 885723600 -11.00000000
7.68186569 3.27817822 0.73071373 14 5 6689 8.38400000 885723602 885723602 5.00000000
3.74119043 1.59575295 -0.64419711 6 6 6690 4.11800000 885723605 885723605 -9.00000000
7.67130518 3.27050662 1.02394617 26 7 6691 8.40200000 885723607 885723607 7.00000000
5.08049488 2.16491890 -0.67808104 9 8 6692 5.56400000 885723609 885723609 -7.00000000
7.68214750 3.27196050 1.32249701 25 9 6693 8.45400000 885723612 885723612 9.00000000
6.33502626 2.69819808 -0.60242051 40 10 6693 6.91200000 885723614 885723614 -5.00000000
7.70060158 3.27823281 1.62683749 25 11 6694 8.52600000 885723616 885723616 11.00000000
7.65997124 3.25935674 -0.43627253 21 12 6695 8.33600000 885723619 885723619 -3.00000000
7.69681263 3.27344656 1.93097985 28 13 6696 8.58400000 885723621 885723621 13.00000000
7.65757132 3.25517917 -0.14523892 24 14 6697 8.32200000 885723623 885723623 -1.00000000
7.71423578 3.27926683 2.24603176 22 15 6697 8.67800000 885723625 885723625 15.00000000
2.10270333 0.89037985 -0.61184824 4 0 6705 2.36400000 885723646 885723646 -15.00000000
7.66635799 3.24470544 0.14530873 31 1 6706 8.32600000 885723649 885723649 1.00000000
2.47317052 1.04623449 -0.61996508 9 2 6707 2.75600000 885723651 885723651 -13.00000000
7.68390274 3.24896884 0.43721458 44 3 6708 8.35400000 885723653 885723653 3.00000000
2.97457862 1.25773501 -0.62776160 5 4 6708 3.29000000 885723655 885723655 -11.00000000
7.68775606 3.24901676 0.73019081 32 5 6709 8.37800000 885723658 885723658 5.00000000
3.73581982 1.57807207 -0.64231992 6 6 6710 4.10600000 885723660 885723660 -9.00000000
7.69364738 3.24834156 1.02540863 28 7 6711 8.41400000 885723662 885723662 7.00000000
5.09167862 2.14871502 -0.67856848 6 8 6712 5.56800000 885723665 885723665 -7.00000000
7.69352198 3.24512482 1.32249701 25 9 6713 8.45400000 885723667 885723667 9.00000000
6.33339167 2.67142248 -0.60137463 40 10 6713 6.90000000 885723669 885723669 -5.00000000
7.71380711 3.25209522 1.62721908 25 11 6714 8.52800000 885723672 885723672 11.00000000
7.67498255 3.23414969 -0.43648186 38 12 6715 8.34000000 885723674 885723674 -3.00000000
7.71896744 3.25109816 1.93367922 26 13 6716 8.59600000 885723676 885723676 13.00000000
7.66520119 3.22687769 -0.14516912 40 14 6717 8.31800000 885723678 885723678 -1.00000000
7.75291300 3.26220942 2.25379634 20 15 6718 8.70800000 885723681 885723681 15.00000000
2.09867239 0.88004637 -0.60977769 4 0 6725 2.35600000 885723702 885723702 -15.00000000
7.66657209 3.21328735 0.14509931 31 1 6726 8.31400000 885723704 885723704 1.00000000
2.46961808 1.03458321 -0.61816549 9 2 6727 2.74800000 885723706 885723706 -13.00000000
7.70440817 3.22598410 0.43773794 23 3 6728 8.36400000 885723708 885723708 3.00000000
2.98076177 1.24810243 -0.62814319 5 4 6728 3.29200000 885723711 885723711 -11.00000000
7.71191597 3.22754598 0.73141098 18 5 6729 8.39200000 885723713 885723713 5.00000000
3.74130559 1.56502199 -0.64231992 6 6 6730 4.10600000 885723715 885723715 -9.00000000
7.78186035 3.25362706 1.03564572 42 7 6731 8.49800000 885723718 885723718 7.00000000
5.11013746 2.13552117 -0.68003094 9 8 6732 5.58000000 885723720 885723720 -7.00000000
6.33716297 2.64699483 -0.60085171 36 10 6733 6.89400000 885723725 885723725 -5.00000000
7.67700911 3.20349360 -0.43595850 21 12 6735 8.33000000 885723729 885723729 -3.00000000
8.17091942 3.40792036 2.04390526 45 13 6736 9.08600000 885723731 885723731 13.00000000
7.69856739 3.20933461 -0.14558798 14 14 6737 8.34200000 885723734 885723734 -1.00000000
7.85462713 3.27439189 2.28019571 42 15 6737 8.81000000 885723736 885723736 15.00000000
2.11243629 0.87716031 -0.61288351 4 0 6745 2.36800000 885723757 885723757 -15.00000000
7.75900745 3.22023416 0.14663512 12 1 6746 8.40200000 885723759 885723759 1.00000000
2.46601415 1.02296960 -0.61636591 9 2 6747 2.74000000 885723761 885723761 -13.00000000
7.79311037 3.23119950 0.44213417 21 3 6748 8.44800000 885723764 885723764 3.00000000
2.99235439 1.24069774 -0.62966967 5 4 6748 3.30000000 885723766 885723766 -11.00000000
7.81148386 3.23722005 0.73977792 83 5 6749 8.48800000 885723768 885723768 5.00000000
3.75404572 1.55497670 -0.64357138 6 6 6750 4.11400000 885723771 885723771 -9.00000000
7.80784321 3.23251820 1.03759563 100 7 6751 8.51400000 885723773 885723773 7.00000000
5.10655546 2.11311650 -0.67856848 9 8 6752 5.56800000 885723775 885723775 -7.00000000
6.34636402 2.62485766 -0.60085171 40 10 6753 6.89400000 885723780 885723780 -5.00000000
7.79336071 3.22015071 -0.44192481 17 12 6755 8.44400000 885723784 885723784 -3.00000000
8.20077705 3.38681626 2.04840422 47 13 6756 9.10600000 885723787 885723787 13.00000000
7.80399227 3.22135472 -0.14736812 14 14 6757 8.44400000 885723789 885723789 -1.00000000
7.86243725 3.24548006 2.27916050 51 15 6757 8.80600000 885723791 885723791 15.00000000
2.11727214 0.87051582 -0.61340111 4 0 6765 2.37000000 885723812 885723812 -15.00000000
7.79794502 3.20453191 0.14715870 12 1 6766 8.43200000 885723814 885723814 1.00000000
2.47317529 1.01583624 -0.61726570 9 2 6767 2.74400000 885723817 885723817 -13.00000000
7.80378246 3.20533895 0.44213417 18 3 6767 8.44800000 885723819 885723819 3.00000000
2.98395395 1.22502565 -0.62699836 5 4 6768 3.28600000 885723821 885723821 -11.00000000
7.81351995 3.20615125 0.73890638 79 5 6769 8.47800000 885723824 885723824 5.00000000
3.76127839 1.54261267 -0.64388424 6 6 6770 4.11600000 885723826 885723826 -9.00000000
7.80989552 3.20147943 1.03637695 100 7 6771 8.50400000 885723828 885723828 7.00000000
5.10655308 2.09226799 -0.67759353 9 8 6772 5.56000000 885723830 885723830 -7.00000000
6.35733128 2.60344386 -0.60102600 40 10 6773 6.89600000 885723835 885723835 -5.00000000
7.79900789 3.19065833 -0.44161081 17 12 6775 8.43800000 885723840 885723840 -3.00000000
8.22337246 3.36259508 2.05110383 45 13 6776 9.11800000 885723842 885723842 13.00000000
7.79667854 3.18652868 -0.14701907 14 14 6777 8.42400000 885723844 885723844 -1.00000000
7.87550688 3.21874619 2.27967811 58 15 6777 8.80800000 885723847 885723847 15.00000000
2.10777283 0.85802126 -0.60977769 4 0 6785 2.35600000 885723867 885723867 -15.00000000
7.79796982 3.17277050 0.14694926 12 1 6786 8.42000000 885723870 885723870 1.00000000
2.47309566 1.00572884 -0.61636591 9 2 6787 2.74000000 885723872 885723872 -13.00000000
7.81177807 3.17521095 0.44192481 10 3 6788 8.44400000 885723874 885723874 3.00000000
2.99184942 1.21608078 -0.62776160 6 4 6788 3.29000000 885723877 885723877 -11.00000000
7.81912613 3.17660785 0.73838347 100 5 6789 8.47200000 885723879 885723879 5.00000000
3.77030063 1.53096032 -0.64450997 6 6 6790 4.12000000 885723881 885723881 -9.00000000
7.81734467 3.17270517 1.03588939 99 7 6791 8.50000000 885723883 885723883 7.00000000
5.10278797 2.06995273 -0.67613113 6 8 6792 5.54800000 885723886 885723886 -7.00000000
6.35345554 2.57599640 -0.59980583 20 10 6793 6.88200000 885723890 885723890 -5.00000000
7.80269289 3.16041613 -0.44119212 17 12 6795 8.43000000 885723895 885723895 -3.00000000
8.24951077 3.33971977 2.05470300 38 13 6796 9.13400000 885723897 885723897 13.00000000
7.78550959 3.15029311 -0.14660022 14 14 6797 8.40000000 885723900 885723900 -1.00000000
7.86217785 3.17971897 2.27243114 56 15 6798 8.78000000 885723902 885723902 15.00000000
2.11075521 0.85065854 -0.60977769 4 0 6805 2.35600000 885723923 885723923 -15.00000000
7.79786825 3.14104843 0.14673984 12 1 6806 8.40800000 885723925 885723925 1.00000000
2.48382235 1.00000119 -0.61816549 9 2 6807 2.74800000 885723927 885723927 -13.00000000
7.82411718 3.15003467 0.44202948 13 3 6807 8.44600000 885723930 885723930 3.00000000
2.99607611 1.20562983 -0.62776160 6 4 6808 3.29000000 885723932 885723932 -11.00000000
7.79689455 3.13591242 0.73524582 79 5 6809 8.43600000 885723934 885723934 5.00000000
3.76095915 1.51189590 -0.64200705 6 6 6810 4.10400000 885723936 885723936 -9.00000000
7.82468796 3.14391804 1.03540194 100 7 6811 8.49600000 885723939 885723939 7.00000000
5.11735106 2.05508709 -0.67710608 6 8 6812 5.55600000 885723941 885723941 -7.00000000
6.34022093 2.54489708 -0.59771407 8 10 6813 6.85800000 885723946 885723946 -5.00000000
7.81367731 3.13316035 -0.44119212 17 12 6815 8.43000000 885723950 885723950 -3.00000000
8.26292706 3.31162834 2.05515289 30 13 6816 9.13600000 885723953 885723953 13.00000000
7.79645872 3.12309742 -0.14660022 14 14 6817 8.40000000 885723955 885723955 -1.00000000
7.86191940 3.14931941 2.26932549 56 15 6817 8.76800000 885723957 885723957 15.00000000
2.11371160 0.84328544 -0.60977769 4 0 6825 2.35600000 885723978 885723978 -15.00000000
7.79764032 3.10936546 0.14653040 12 1 6826 8.39600000 885723980 885723980 1.00000000
2.48186707 0.98916048 -0.61681581 7 2 6827 2.74200000 885723982 885723982 -13.00000000
7.83692026 3.12344360 0.44213417 13 3 6827 8.44800000 885723985 885723985 3.00000000
2.99661851 1.19371116 -0.62699836 6 4 6828 3.28600000 885723987 885723987 -11.00000000
7.80779314 3.10867691 0.73524582 90 5 6829 8.43600000 885723989 885723989 5.00000000
3.76254296 1.49729764 -0.64138132 6 6 6830 4.10000000 885723992 885723992 -9.00000000
7.82454729 3.11218357 1.03393948 100 7 6831 8.48400000 885723994 885723994 7.00000000
5.13371658 2.04087853 -0.67832476 9 8 6832 5.56600000 885723996 885723996 -7.00000000
6.36387825 2.52863574 -0.59910858 12 10 6833 6.87400000 885724001 885724001 -5.00000000
7.81157207 3.10070848 -0.44045940 12 12 6835 8.41600000 885724006 885724006 -3.00000000
7.79987764 3.09291506 -0.14646059 14 14 6837 8.39200000 885724010 885724010 -1.00000000
7.86568117 3.11900854 2.26725483 51 15 6837 8.76000000 885724012 885724012 15.00000000
2.12038207 0.83695120 -0.61081296 4 0 6846 2.36000000 885724033 885724033 -15.00000000
7.80154324 3.07782936 0.14639078 12 1 6847 8.38800000 885724035 885724035 1.00000000
2.47822428 0.97719789 -0.61501616 7 2 6848 2.73400000 885724038 885724038 -13.00000000
7.83213234 3.08673811 0.44119212 13 3 6849 8.43000000 885724040 885724040 3.00000000
3.00462651 1.18415976 -0.62776160 8 4 6849 3.29000000 885724042 885724042 -11.00000000
7.81542730 3.07857871 0.73489720 79 5 6850 8.43200000 885724045 885724045 5.00000000
3.77351975 1.48566818 -0.64231992 6 6 6851 4.10600000 885724047 885724047 -9.00000000
7.81742907 3.07621551 1.03150213 100 7 6852 8.46400000 885724049 885724049 7.00000000
5.11899424 2.01332998 -0.67539990 9 8 6853 5.54200000 885724052 885724052 -7.00000000
6.36568642 2.50237823 -0.59841132 16 10 6854 6.86600000 885724056 885724056 -5.00000000
7.80615282 3.06548619 -0.43951735 17 12 6856 8.39800000 885724061 885724061 -3.00000000
7.80743790 3.06284571 -0.14639078 18 14 6858 8.38800000 885724065 885724065 -1.00000000
7.87759924 3.08878350 2.26725483 56 15 6859 8.76000000 885724068 885724068 15.00000000
2.13048840 0.83235657 -0.61288351 4 0 6866 2.36800000 885724088 885724088 -15.00000000
7.80106306 3.04621387 0.14618136 18 1 6867 8.37600000 885724091 885724091 1.00000000
2.48525095 0.96995836 -0.61591601 7 2 6868 2.73800000 885724093 885724093 -13.00000000
7.83116198 3.05639195 0.44056407 13 3 6868 8.41800000 885724095 885724095 3.00000000
3.00691271 1.17295098 -0.62737995 13 4 6869 3.28800000 885724098 885724098 -11.00000000
7.82612610 3.05127907 0.73489720 76 5 6870 8.43200000 885724100 885724100 5.00000000
3.77868271 1.47248709 -0.64231992 6 6 6871 4.10600000 885724102 885724102 -9.00000000
7.82811928 3.04890871 1.03150213 100 7 6872 8.46400000 885724105 885724105 7.00000000
5.11489153 1.99112833 -0.67393744 9 8 6873 5.53000000 885724107 885724107 -7.00000000
6.38738012 2.48519969 -0.59963149 36 10 6874 6.88000000 885724112 885724112 -5.00000000
7.80377483 3.03315425 -0.43878466 21 12 6876 8.38400000 885724116 885724116 -3.00000000
7.80689716 3.03123140 -0.14618136 20 14 6878 8.37600000 885724121 885724121 -1.00000000
7.88833332 3.06126690 2.26725483 49 15 6879 8.76000000 885724123 885724123 15.00000000
2.12242651 0.82110488 -0.60977769 4 0 6885 2.35600000 885724144 885724144 -15.00000000
7.81112194 3.02032804 0.14618136 18 1 6886 8.37600000 885724146 885724146 1.00000000
2.49572468 0.96452165 -0.61771560 7 2 6887 2.74600000 885724148 885724148 -13.00000000
7.83193922 3.02680612 0.44004071 13 3 6887 8.40800000 885724151 885724151 3.00000000
3.01811147 1.16580284 -0.62890643 20 4 6888 3.29600000 885724153 885724153 -11.00000000
7.82133198 3.01956916 0.73350275 79 5 6889 8.41600000 885724155 885724155 5.00000000
3.80197430 1.46705973 -0.64544863 6 6 6890 4.12600000 885724158 885724158 -9.00000000
7.83818722 3.02293301 1.03150213 100 7 6891 8.46400000 885724160 885724160 7.00000000
5.13257980 1.97843969 -0.67539990 9 8 6892 5.54200000 885724162 885724162 -7.00000000
6.37885332 2.45755816 -0.59806269 28 10 6893 6.86200000 885724167 885724167 -5.00000000
7.81565428 3.00797653 -0.43888932 21 12 6895 8.38600000 885724171 885724171 -3.00000000
7.81130648 3.00317335 -0.14607663 20 14 6897 8.37000000 885724176 885724176 -1.00000000
7.88762140 3.03093362 2.26414895 56 15 6898 8.74800000 885724178 885724178 15.00000000
2.12527966 0.81369120 -0.60977769 4 0 6905 2.35600000 885724199 885724199 -15.00000000
7.81974983 2.99232888 0.14614645 25 1 6906 8.37400000 885724201 885724201 1.00000000
2.50635695 0.95858860 -0.61951518 7 2 6907 2.75400000 885724204 885724204 -13.00000000
7.84059143 2.99873567 0.43993604 13 3 6907 8.40600000 885724206 885724206 3.00000000
3.01849484 1.15385854 -0.62814319 15 4 6908 3.29200000 885724208 885724208 -11.00000000
7.81693506 2.98656058 0.73210824 79 5 6909 8.40000000 885724211 885724211 5.00000000
3.79230881 1.44814193 -0.64294565 6 6 6910 4.11000000 885724213 885724213 -9.00000000
7.84127283 2.99272299 1.03052711 99 7 6911 8.45600000 885724215 885724215 7.00000000
5.13945436 1.96051157 -0.67539990 9 8 6912 5.54200000 885724218 885724218 -7.00000000
6.37994671 2.43243766 -0.59736544 16 10 6913 6.85400000 885724222 885724222 -5.00000000
7.82610607 2.98067665 -0.43888932 17 12 6915 8.38600000 885724227 885724227 -3.00000000
7.81426620 2.97304416 -0.14593703 20 14 6917 8.36200000 885724231 885724231 -1.00000000
7.88190222 2.99720240 2.25949025 49 15 6918 8.73000000 885724234 885724234 15.00000000
2.12796640 0.80663908 -0.60977769 4 0 6924 2.35600000 885724254 885724254 -15.00000000
7.81466961 2.96071339 0.14586721 18 1 6925 8.35800000 885724257 885724257 1.00000000
2.49858713 0.94613135 -0.61681581 7 2 6926 2.74200000 885724259 885724259 -13.00000000
7.84675694 2.97130418 0.43972671 13 3 6926 8.40200000 885724261 885724261 3.00000000
3.02230453 1.14384246 -0.62814319 9 4 6927 3.29200000 885724264 885724264 -11.00000000
7.82679605 2.96062231 0.73210824 76 5 6928 8.40000000 885724266 885724266 5.00000000
3.78785157 1.43206537 -0.64138132 6 6 6929 4.10000000 885724268 885724268 -9.00000000
7.83629847 2.96109033 1.02857721 100 7 6930 8.44000000 885724270 885724270 7.00000000
5.16264105 1.94976985 -0.67759353 9 8 6931 5.56000000 885724273 885724273 -7.00000000
6.38052177 2.40845323 -0.59666824 16 10 6932 6.84600000 885724277 885724277 -5.00000000
7.82099676 2.94907045 -0.43805194 17 12 6934 8.37000000 885724282 885724282 -3.00000000
7.82408190 2.94711471 -0.14593703 16 14 6936 8.36200000 885724287 885724287 -1.00000000
7.89127922 2.97242594 2.25949025 49 15 6936 8.73000000 885724289 885724289 15.00000000
2.13438654 0.80056304 -0.61081296 4 0 6944 2.36000000 885724310 885724310 -15.00000000
7.82308435 2.93271518 0.14583232 21 1 6945 8.35600000 885724312 885724312 1.00000000
2.49092531 0.93330145 -0.61411637 7 2 6946 2.73000000 885724314 885724314 -13.00000000
7.84398890 2.93899059 0.43899399 13 3 6946 8.38800000 885724317 885724317 3.00000000
3.04466438 1.14017081 -0.63195938 6 4 6947 3.31200000 885724319 885724319 -11.00000000
7.83148479 2.93118834 0.73158532 76 5 6948 8.39400000 885724321 885724321 5.00000000
3.80392814 1.42298722 -0.64325851 6 6 6949 4.11200000 885724323 885724323 -9.00000000
7.83914948 2.93093777 1.02760231 99 7 6950 8.43200000 885724326 885724326 7.00000000
5.15268040 1.92548323 -0.67539990 9 8 6951 5.54200000 885724328 885724328 -7.00000000
6.38888979 2.38616633 -0.59666824 16 10 6952 6.84600000 885724333 885724333 -5.00000000
7.81440210 2.91546869 -0.43710992 17 12 6954 8.35200000 885724337 885724337 -3.00000000
7.82495308 2.91629386 -0.14576250 20 14 6956 8.35200000 885724342 885724342 -1.00000000
7.89849997 2.94213438 2.25845504 49 15 6957 8.72600000 885724344 885724344 15.00000000
2.14260173 0.79512411 -0.61236584 4 0 6964 2.36600000 885724365 885724365 -15.00000000
7.82952404 2.90399885 0.14576250 21 1 6965 8.35200000 885724367 885724367 1.00000000
2.49782252 0.92595553 -0.61501616 7 2 6966 2.73400000 885724370 885724370 -13.00000000
7.84347105 2.90605783 0.43836597 13 3 6967 8.37600000 885724372 885724372 3.00000000
3.03389812 1.12407935 -0.62890643 5 4 6967 3.29600000 885724374 885724374 -11.00000000
7.84166861 2.90383363 0.73158532 83 5 6968 8.39400000 885724376 885724376 5.00000000
3.81072474 1.41038609 -0.64357138 6 6 6969 4.11400000 885724379 885724379 -9.00000000
7.84747076 2.90286756 1.02735853 95 7 6970 8.43000000 885724381 885724381 7.00000000
5.15192223 1.90473175 -0.67442495 9 8 6971 5.53400000 885724383 885724383 -7.00000000
6.39344215 2.36246943 -0.59631962 16 10 6972 6.84200000 885724388 885724388 -5.00000000
7.82827902 2.88955688 -0.43731925 17 12 6974 8.35600000 885724393 885724393 -3.00000000
7.82007504 2.88342762 -0.14548326 18 14 6976 8.33600000 885724397 885724397 -1.00000000
7.90458775 2.91458917 2.25741982 49 15 6976 8.72200000 885724400 885724400 15.00000000
2.13992357 0.78564280 -0.61081296 4 0 6984 2.36000000 885724420 885724420 -15.00000000
7.83961344 2.87665105 0.14576250 15 1 6985 8.35200000 885724423 885724423 1.00000000
2.50835776 0.91991478 -0.61681581 7 2 6986 2.74200000 885724425 885724425 -13.00000000
7.84981680 2.87728643 0.43815663 13 3 6987 8.37200000 885724427 885724427 3.00000000
3.03780341 1.11348212 -0.62890643 5 4 6987 3.29600000 885724429 885724429 -11.00000000
7.83679104 2.87096047 0.73019081 76 5 6988 8.37800000 885724432 885724432 5.00000000
3.80449510 1.39300048 -0.64169419 6 6 6989 4.10200000 885724434 885724434 -9.00000000
7.85755587 2.87545705 1.02735853 97 7 6990 8.43000000 885724436 885724436 7.00000000
5.16040421 1.88741851 -0.67466867 9 8 6991 5.53600000 885724439 885724439 -7.00000000
6.39416504 2.33740139 -0.59562236 16 10 6992 6.83400000 885724443 885724443 -5.00000000
7.83268929 2.86015821 -0.43700522 17 12 6994 8.35000000 885724448 885724448 -3.00000000
7.82257795 2.85337186 -0.14534365 18 14 6996 8.32800000 885724453 885724453 -1.00000000
7.90069723 2.88030434 2.25327849 47 15 6997 8.70600000 885724455 885724455 15.00000000
2.13706994 0.77656293 -0.60926002 4 0 7003 2.35400000 885724476 885724476 -15.00000000
7.83407307 2.84517717 0.14548326 15 1 7004 8.33600000 885724478 885724478 1.00000000
2.51872182 0.91425139 -0.61861539 7 2 7005 2.75000000 885724480 885724480 -13.00000000
7.85180521 2.84851527 0.43773794 15 3 7006 8.36400000 885724482 885724482 3.00000000
3.04701591 1.10541093 -0.63005131 5 4 7006 3.30200000 885724485 885724485 -11.00000000
7.83503008 2.84088206 0.72914493 76 5 7007 8.36600000 885724487 885724487 5.00000000
3.81095076 1.38104963 -0.64200705 6 6 7008 4.10400000 885724489 885724489 -9.00000000
7.85958195 2.84668064 1.02638364 97 7 7009 8.42200000 885724492 885724492 7.00000000
5.16850090 1.87097132 -0.67491245 9 8 7010 5.53800000 885724494 885724494 -7.00000000
6.42061615 2.32296324 -0.59736544 16 10 7011 6.85400000 885724499 885724499 -5.00000000
7.84025240 2.83348966 -0.43690056 17 12 7013 8.34800000 885724503 885724503 -3.00000000
7.83575916 2.82877350 -0.14541344 18 14 7015 8.33200000 885724508 885724508 -1.00000000
7.90243864 2.85284543 2.25120807 47 15 7015 8.69800000 885724510 885724510 15.00000000
2.13976765 0.76909840 -0.60926002 4 0 7023 2.35400000 885724531 885724531 -15.00000000
7.83266497 2.81375742 0.14527383 15 1 7024 8.32400000 885724533 885724533 1.00000000
2.51089311 0.90150273 -0.61591601 7 2 7025 2.73800000 885724535 885724535 -13.00000000
7.85794067 2.81974077 0.43752858 15 3 7026 8.36000000 885724538 885724538 3.00000000
3.05455184 1.09609437 -0.63081455 5 4 7026 3.30600000 885724540 885724540 -11.00000000
7.84114790 2.81217027 0.72879630 76 5 7027 8.36200000 885724542 885724542 5.00000000
3.80273151 1.36307275 -0.63981694 6 6 7028 4.09000000 885724545 885724545 -9.00000000
7.85825825 2.81521130 1.02492118 95 7 7029 8.41000000 885724547 885724547 7.00000000
5.17126274 1.85158014 -0.67442495 9 8 7030 5.53400000 885724549 885724549 -7.00000000
7.81684685 2.79729724 -0.72635597 17 10 7031 8.33400000 885724554 885724554 -5.00000000
7.83316898 2.80005407 -0.43595850 17 12 7033 8.33000000 885724558 885724558 -3.00000000
7.83240271 2.79669738 -0.14516912 16 14 7035 8.31800000 885724563 885724563 -1.00000000
7.90920305 2.82256389 2.25017285 47 15 7036 8.69400000 885724565 885724565 15.00000000
2.14075184 0.76060385 -0.60874242 4 0 7044 2.35200000 885724586 885724586 -15.00000000
7.84292507 2.78503036 0.14527383 28 1 7045 8.32400000 885724588 885724588 1.00000000
2.51050735 0.89099026 -0.61501616 7 2 7046 2.73400000 885724591 885724591 -13.00000000
7.85692883 2.78691506 0.43690056 23 3 7047 8.34800000 885724593 885724593 3.00000000
3.05669832 1.08423519 -0.63043290 6 4 7047 3.30400000 885724595 885724595 -11.00000000
7.84576845 2.78141499 0.72827339 76 5 7048 8.35600000 885724598 885724598 5.00000000
3.81887364 1.35308421 -0.64169419 6 6 7049 4.10200000 885724600 885724600 -9.00000000
7.85355377 2.78108931 1.02297127 95 7 7050 8.39400000 885724602 885724602 7.00000000
5.15930080 1.82599092 -0.67198753 9 8 7051 5.51400000 885724605 885724605 -7.00000000
7.82704687 2.76862812 -0.72635597 17 10 7052 8.33400000 885724609 885724609 -5.00000000
7.82831383 2.76600218 -0.43512115 17 12 7054 8.31400000 885724614 885724614 -3.00000000
7.84637213 2.76930237 -0.14523892 16 14 7056 8.32200000 885724618 885724618 -1.00000000
7.91536379 2.79365253 2.24913740 47 15 7056 8.69000000 885724621 885724621 15.00000000
2.15068436 0.75568825 -0.61081296 4 0 7064 2.36000000 885724641 885724641 -15.00000000
7.85071230 2.75697398 0.14523892 15 1 7065 8.32200000 885724644 885724644 1.00000000
2.51911855 0.88415760 -0.61636591 6 2 7066 2.74000000 885724646 885724646 -13.00000000
7.85530090 2.75550556 0.43627253 26 3 7067 8.33600000 885724648 885724648 3.00000000
3.05861187 1.07290888 -0.63005131 5 4 7067 3.30200000 885724651 885724651 -11.00000000
7.86107016 2.75598860 0.72879630 76 5 7068 8.36200000 885724653 885724653 5.00000000
3.81984496 1.33843923 -0.64106846 6 6 7069 4.09800000 885724655 885724655 -9.00000000
7.85946655 2.75234604 1.02248383 97 7 7070 8.39000000 885724658 885724658 7.00000000
5.16751719 1.80862629 -0.67223132 9 8 7071 5.51600000 885724660 885724660 -7.00000000
7.83290195 2.73997426 -0.72600734 17 10 7072 8.33000000 885724664 885724664 -5.00000000
7.84169197 2.73997712 -0.43533048 17 12 7074 8.31800000 885724669 885724669 -3.00000000
7.84843874 2.73926067 -0.14509931 18 14 7076 8.31400000 885724674 885724674 -1.00000000
7.92190170 2.76334977 2.24810219 47 15 7077 8.68600000 885724676 885724676 15.00000000
2.14587951 0.74601471 -0.60874242 4 0 7083 2.35200000 885724697 885724697 -15.00000000
7.85981178 2.73092484 0.14523892 15 1 7084 8.32200000 885724699 885724699 1.00000000
2.52019572 0.87515980 -0.61591601 7 2 7085 2.73800000 885724701 885724701 -13.00000000
7.87005568 2.73140574 0.43658656 49 3 7086 8.34200000 885724704 885724704 3.00000000
3.04731512 1.05761051 -0.62699836 5 4 7086 3.28600000 885724706 885724706 -11.00000000
7.85887194 2.72598767 0.72775048 76 5 7087 8.35000000 885724708 885724708 5.00000000
3.83546090 1.32964694 -0.64294565 6 6 7088 4.11000000 885724711 885724711 -9.00000000
7.87605333 2.72886753 1.02345872 95 7 7089 8.39800000 885724713 885724713 7.00000000
5.17911386 1.79342890 -0.67296249 9 8 7090 5.52200000 885724715 885724715 -7.00000000
7.79675722 2.69834542 -0.72182387 17 10 7091 8.28200000 885724720 885724720 -5.00000000
7.85073519 2.71395802 -0.43533048 17 12 7093 8.31800000 885724724 885724724 -3.00000000
7.84046793 2.70734525 -0.14478517 20 14 7095 8.29600000 885724729 885724729 -1.00000000
7.92141390 2.73529625 2.24551415 47 15 7095 8.67600000 885724731 885724731 15.00000000
2.14847040 0.73851961 -0.60874242 4 0 7103 2.35200000 885724752 885724752 -15.00000000
7.85227585 2.69762492 0.14492479 15 1 7104 8.30400000 885724754 885724754 1.00000000
2.52323532 0.86635733 -0.61591601 7 2 7105 2.73800000 885724757 885724757 -13.00000000
7.87009668 2.70067620 0.43606320 34 3 7106 8.33200000 885724759 885724759 3.00000000
3.05470204 1.04824150 -0.62776160 5 4 7106 3.29000000 885724761 885724761 -11.00000000
7.85326242 2.69336748 0.72635597 76 5 7107 8.33400000 885724764 885724764 5.00000000
3.84381604 1.31753159 -0.64357138 6 6 7108 4.11400000 885724766 885724766 -9.00000000
7.87801933 2.69878507 1.02248383 97 7 7109 8.39000000 885724768 885724768 7.00000000
5.18534231 1.77533948 -0.67296249 9 8 7110 5.52200000 885724770 885724770 -7.00000000
7.61950588 2.60725427 -0.70456702 26 10 7111 8.08400000 885724775 885724775 -5.00000000
7.85638094 2.68524551 -0.43512115 21 12 7113 8.31400000 885724780 885724780 -3.00000000
7.84608555 2.67866826 -0.14471535 18 14 7115 8.29200000 885724784 885724784 -1.00000000
7.91675901 2.70125365 2.24137282 47 15 7116 8.66000000 885724787 885724787 15.00000000
2.15103531 0.73101556 -0.60874242 4 0 7123 2.35200000 885724807 885724807 -15.00000000
7.85217714 2.66698337 0.14475025 15 1 7124 8.29400000 885724810 885724810 1.00000000
2.52255344 0.85629153 -0.61501616 7 2 7125 2.73400000 885724812 885724812 -13.00000000
7.87758446 2.67254639 0.43595850 39 3 7126 8.33000000 885724814 885724814 3.00000000
3.06392002 1.03946435 -0.62890643 5 4 7126 3.29600000 885724817 885724817 -11.00000000
7.86450338 2.66657805 0.72653025 76 5 7127 8.33600000 885724819 885724819 5.00000000
3.84090829 1.30157018 -0.64231992 6 6 7128 4.10600000 885724821 885724821 -9.00000000
7.87423038 2.66681170 1.02077758 99 7 7129 8.37600000 885724823 885724823 7.00000000
5.18962765 1.75659204 -0.67271876 9 8 7130 5.52000000 885724826 885724826 -7.00000000
7.63422203 2.58255672 -0.70508999 35 10 7131 8.09000000 885724830 885724830 -5.00000000
7.85246134 2.65332961 -0.43438843 21 12 7133 8.30000000 885724835 885724835 -3.00000000
7.96494865 2.68979025 1.94087768 3 13 7134 8.62800000 885724837 885724837 13.00000000
7.85728264 2.65190339 -0.14475025 16 14 7135 8.29400000 885724840 885724840 -1.00000000
7.92567348 2.67498589 2.24137282 47 15 7135 8.66000000 885724842 885724842 15.00000000
2.15723658 0.72473305 -0.60977769 4 0 7143 2.35600000 885724863 885724863 -15.00000000
7.85954285 2.63892150 0.14471535 18 1 7144 8.29200000 885724865 885724865 1.00000000
2.52367949 0.84686100 -0.61456627 9 2 7145 2.73200000 885724867 885724867 -13.00000000
7.87739754 2.64185691 0.43543515 44 3 7146 8.32000000 885724870 885724870 3.00000000
3.07497525 1.03126001 -0.63043290 5 4 7146 3.30400000 885724872 885724872 -11.00000000
7.86998510 2.63784313 0.72618163 76 5 7147 8.33200000 885724874 885724874 5.00000000
3.84355497 1.28752756 -0.64200705 6 6 7148 4.10400000 885724876 885724876 -9.00000000
7.87596178 2.63678861 1.01980269 99 7 7149 8.36800000 885724879 885724879 7.00000000
5.19196272 1.73720634 -0.67223132 9 8 7150 5.51600000 885724881 885724881 -7.00000000
7.67909193 2.56789804 -0.70840186 30 10 7151 8.12800000 885724886 885724886 -5.00000000
7.85220337 2.62273955 -0.43386507 21 12 7153 8.29000000 885724890 885724890 -3.00000000
7.96504688 2.65888572 1.93862820 4 13 7154 8.61800000 885724893 885724893 13.00000000
7.86459494 2.62382722 -0.14471535 16 14 7155 8.29200000 885724895 885724895 -1.00000000
7.93496275 2.64730382 2.24137282 47 15 7155 8.66000000 885724897 885724897 15.00000000
2.16341996 0.71841615 -0.61081296 4 0 7163 2.36000000 885724918 885724918 -15.00000000
7.87250233 2.61273026 0.14478517 15 1 7164 8.29600000 885724920 885724920 1.00000000
2.53586864 0.84111404 -0.61681581 11 2 7165 2.74200000 885724923 885724923 -13.00000000
7.87709188 2.61120129 0.43491179 52 3 7166 8.31000000 885724925 885724925 3.00000000
3.06551170 1.01619577 -0.62776160 5 4 7166 3.29000000 885724927 885724927 -11.00000000
7.87536240 2.60910249 0.72583300 79 5 7167 8.32800000 885724929 885724929 5.00000000
3.85177660 1.27534509 -0.64263278 6 6 7168 4.10800000 885724932 885724932 -9.00000000
7.88511801 2.60928011 1.01980269 99 7 7169 8.36800000 885724934 885724934 7.00000000
5.17537832 1.71159279 -0.66930646 9 8 7170 5.49200000 885724936 885724936 -7.00000000
7.84880590 2.59422493 -0.72321838 17 10 7171 8.29800000 885724941 885724941 -5.00000000
7.85751724 2.59406209 -0.43365574 17 12 7173 8.28600000 885724946 885724946 -3.00000000
7.96317577 2.62740278 1.93592882 4 13 7174 8.60600000 885724948 885724948 13.00000000
7.86041212 2.59197521 -0.14447102 18 14 7175 8.27800000 885724950 885724950 -1.00000000
7.93314695 2.61595964 2.23826718 49 15 7175 8.64800000 885724952 885724952 15.00000000
2.16224337 0.70965517 -0.60977769 4 0 7183 2.35600000 885724973 885724973 -15.00000000
7.87397432 2.58274102 0.14464554 15 1 7184 8.28800000 885724976 885724976 1.00000000
2.53508568 0.83104300 -0.61591601 10 2 7185 2.73800000 885724978 885724978 -13.00000000
7.88236284 2.58244562 0.43470246 57 3 7186 8.30600000 885724980 885724980 3.00000000
3.06717443 1.00487769 -0.62737995 5 4 7186 3.28800000 885724982 885724982 -11.00000000
7.87116766 2.57725668 0.72461283 76 5 7187 8.31400000 885724985 885724985 5.00000000
3.87122416 1.26680696 -0.64513576 6 6 7188 4.12400000 885724987 885724987 -9.00000000
7.89040422 2.58050609 1.01931524 99 7 7189 8.36400000 885724989 885724989 7.00000000
5.18509531 1.69475043 -0.66979390 9 8 7190 5.49600000 885724992 885724992 -7.00000000
7.84076881 2.56124353 -0.72164953 17 10 7191 8.28000000 885724996 885724996 -5.00000000
7.86272717 2.56537938 -0.43344638 17 12 7193 8.28200000 885725001 885725001 -3.00000000
7.96859312 2.59838176 1.93502891 4 13 7194 8.60200000 885725003 885725003 13.00000000
7.85990524 2.56142330 -0.14429650 14 14 7195 8.26800000 885725005 885725005 -1.00000000
7.92982340 2.58267784 2.23464370 51 15 7196 8.63400000 885725008 885725008 15.00000000
2.15711260 0.70047218 -0.60770714 4 0 7201 2.34800000 885725029 885725029 -15.00000000
7.86302900 2.55181885 0.14429650 18 1 7202 8.26800000 885725031 885725031 1.00000000
2.54324484 0.82487839 -0.61726570 7 2 7203 2.74400000 885725033 885725033 -13.00000000
7.89043713 2.55766964 0.43470246 65 3 7204 8.30600000 885725035 885725035 3.00000000
3.07965422 0.99826384 -0.62928808 5 4 7204 3.29800000 885725038 885725038 -11.00000000
7.86974859 2.54944563 0.72374129 83 5 7205 8.30400000 885725040 885725040 5.00000000
3.85827088 1.24916279 -0.64231992 6 6 7206 4.10600000 885725042 885725042 -9.00000000
7.89091778 2.55326033 1.01834023 99 7 7207 8.35600000 885725045 885725045 7.00000000
5.19983768 1.68150651 -0.67101258 9 8 7208 5.50600000 885725047 885725047 -7.00000000
7.84119320 2.53414774 -0.72095233 17 10 7209 8.27200000 885725052 885725052 -5.00000000
7.87454891 2.54189229 -0.43365574 17 12 7211 8.28600000 885725056 885725056 -3.00000000
7.97671700 2.57333493 1.93502891 5 13 7212 8.60200000 885725058 885725058 13.00000000
7.86410713 2.53549099 -0.14422669 14 14 7213 8.26400000 885725061 885725061 -1.00000000
7.93009710 2.55676699 2.23257303 51 15 7213 8.62600000 885725063 885725063 15.00000000
2.16690254 0.69529909 -0.60977769 4 0 7221 2.35600000 885725084 885725084 -15.00000000
7.86808014 2.52313495 0.14422669 15 1 7222 8.26400000 885725086 885725086 1.00000000
2.54425311 0.81540102 -0.61681581 7 2 7223 2.74200000 885725088 885725088 -13.00000000
7.89741468 2.52950215 0.43459779 81 3 7224 8.30400000 885725091 885725091 3.00000000
3.07564116 0.98511237 -0.62776160 5 4 7224 3.29000000 885725093 885725093 -11.00000000
7.88049746 2.52256703 0.72391558 90 5 7225 8.30600000 885725095 885725095 5.00000000
3.85884476 1.23448348 -0.64169419 6 6 7226 4.10200000 885725098 885725098 -9.00000000
7.88843727 2.52207327 1.01687777 99 7 7227 8.34400000 885725100 885725100 7.00000000
5.20189381 1.66213703 -0.67052513 9 8 7228 5.50200000 885725102 885725102 -7.00000000
7.98619127 2.55025458 1.32781577 5 9 7229 8.48800000 885725105 885725105 9.00000000
7.84619522 2.50554919 -0.72060370 17 10 7229 8.26800000 885725107 885725107 -5.00000000
7.87385988 2.51135516 -0.43313238 17 12 7231 8.27600000 885725111 885725111 -3.00000000
7.99122095 2.54725075 1.93637872 6 13 7232 8.60800000 885725114 885725114 13.00000000
7.87290955 2.50802469 -0.14422669 14 14 7233 8.26400000 885725116 885725116 -1.00000000
7.93897343 2.52907014 2.23257303 56 15 7233 8.62600000 885725118 885725118 15.00000000
2.16563320 0.68656337 -0.60874242 4 0 7241 2.35200000 885725139 885725139 -15.00000000
7.87683964 2.49565482 0.14422669 15 1 7242 8.26400000 885725141 885725141 1.00000000
2.53222108 0.80180883 -0.61321658 7 2 7243 2.72600000 885725144 885725144 -13.00000000
7.89433479 2.49968195 0.43396974 81 3 7243 8.29200000 885725146 885725146 3.00000000
3.08280468 0.97555500 -0.62852484 5 4 7244 3.29400000 885725148 885725148 -11.00000000
7.89115429 2.49564433 0.72408992 83 5 7245 8.30800000 885725151 885725151 5.00000000
3.85936332 1.21981549 -0.64106846 6 6 7246 4.09800000 885725153 885725153 -9.00000000
7.88394260 2.49033666 1.01517165 100 7 7247 8.33000000 885725155 885725155 7.00000000
5.20009232 1.64157856 -0.66955018 9 8 7248 5.49400000 885725157 885725157 -7.00000000
7.86059332 2.47994399 -0.72112662 17 10 7249 8.27400000 885725162 885725162 -5.00000000
7.86924362 2.47965312 -0.43239966 17 12 7251 8.26200000 885725167 885725167 -3.00000000
7.98705292 2.51524329 1.93322933 7 13 7252 8.59400000 885725169 885725169 13.00000000
7.87970877 2.47992754 -0.14419179 16 14 7253 8.26200000 885725171 885725171 -1.00000000
7.94038200 2.49902272 2.23050261 58 15 7253 8.61800000 885725174 885725174 15.00000000
2.18092155 0.68304139 -0.61236584 4 0 7261 2.36600000 885725194 885725194 -15.00000000
7.88168621 2.46694970 0.14415687 18 1 7262 8.26000000 885725197 885725197 1.00000000
2.54058409 0.79471016 -0.61456627 6 2 7263 2.73200000 885725199 885725199 -13.00000000
7.89391232 2.46775126 0.43344638 84 3 7264 8.28200000 885725201 885725201 3.00000000
3.08431745 0.96420228 -0.62814319 5 4 7264 3.29200000 885725204 885725204 -11.00000000
7.89221096 2.46570730 0.72339267 83 5 7265 8.30000000 885725206 885725206 5.00000000
3.87491131 1.20986879 -0.64294565 9 6 7266 4.11000000 885725208 885725208 -9.00000000
7.89258718 2.46280146 1.01517165 99 7 7267 8.33000000 885725210 885725210 7.00000000
5.20200062 1.62223494 -0.66906267 9 8 7268 5.49000000 885725213 885725213 -7.00000000
7.87490845 2.45426869 -0.72164953 17 10 7269 8.28000000 885725217 885725217 -5.00000000
7.87975836 2.45276284 -0.43250436 17 12 7271 8.26400000 885725222 885725222 -3.00000000
7.96973276 2.47924399 1.92693079 6 13 7272 8.56600000 885725224 885725224 13.00000000
7.87495089 2.44825149 -0.14394745 18 14 7273 8.24800000 885725227 885725227 -1.00000000
7.96055746 2.47334218 2.23360825 58 15 7274 8.63000000 885725229 885725229 15.00000000
2.17049074 0.67104894 -0.60874242 4 0 7282 2.35200000 885725250 885725250 -15.00000000
7.88685417 2.43686461 0.14408706 15 1 7283 8.25600000 885725252 885725252 1.00000000
2.55092788 0.78769296 -0.61636591 6 2 7284 2.74000000 885725254 885725254 -13.00000000
7.89866161 2.43900275 0.43323705 94 3 7284 8.27800000 885725257 885725257 3.00000000
3.07657504 0.94941777 -0.62585348 5 4 7285 3.28000000 885725259 885725259 -11.00000000
7.90119505 2.43676448 0.72339267 83 5 7286 8.30000000 885725261 885725261 5.00000000
3.88309526 1.19682205 -0.64357138 6 6 7287 4.11400000 885725263 885725263 -9.00000000
7.90156078 2.43385720 1.01517165 100 7 7288 8.33000000 885725266 885725266 7.00000000
5.21929455 1.60666192 -0.67052513 9 8 7289 5.50200000 885725268 885725268 -7.00000000
7.86861658 2.42070246 -0.72025508 17 10 7290 8.26400000 885725273 885725273 -5.00000000
7.88869524 2.42386556 -0.43250436 21 12 7292 8.26400000 885725277 885725277 -3.00000000
7.98249197 2.45116067 1.92783058 6 13 7293 8.57000000 885725280 885725280 13.00000000
7.87048912 2.41526532 -0.14370312 18 14 7294 8.23400000 885725282 885725282 -1.00000000
7.95436764 2.44100547 2.22946715 56 15 7294 8.61400000 885725284 885725284 15.00000000
2.16727710 0.66177595 -0.60718948 4 0 7302 2.34600000 885725305 885725305 -15.00000000
7.88766146 2.40698481 0.14394745 15 1 7303 8.24800000 885725307 885725307 1.00000000
2.55366182 0.77878374 -0.61636591 9 2 7304 2.74000000 885725309 885725309 -13.00000000
7.91094780 2.41258168 0.43344638 99 3 7304 8.28200000 885725312 885725312 3.00000000
3.08550429 0.94038981 -0.62699836 5 4 7305 3.28600000 885725314 885725314 -11.00000000
7.89059353 2.40336394 0.72164953 83 5 7306 8.28000000 885725316 885725316 5.00000000
3.88158011 1.18153453 -0.64263278 6 6 7307 4.10800000 885725319 885725319 -9.00000000
7.92140341 2.40972710 1.01663411 99 7 7308 8.34200000 885725321 885725321 7.00000000
5.21347570 1.58496892 -0.66906267 9 8 7309 5.49000000 885725323 885725323 -7.00000000
7.86176777 2.38858771 -0.71886057 17 10 7310 8.24800000 885725328 885725328 -5.00000000
7.89901924 2.39689398 -0.43260902 17 12 7312 8.26600000 885725333 885725333 -3.00000000
7.99099970 2.42328167 1.92783058 3 13 7313 8.57000000 885725335 885725335 13.00000000
7.87887192 2.38777733 -0.14370312 16 14 7314 8.23400000 885725337 885725337 -1.00000000
7.94804955 2.40874243 2.22532606 58 15 7314 8.59800000 885725339 885725339 15.00000000
2.17142344 0.65476441 -0.60770714 4 0 7322 2.34800000 885725360 885725360 -15.00000000
7.87878370 2.37424445 0.14363331 15 1 7323 8.23000000 885725362 885725362 1.00000000
2.55076694 0.76817924 -0.61501616 7 2 7324 2.73400000 885725365 885725365 -13.00000000
7.91973734 2.38357043 0.43344638 94 3 7325 8.28200000 885725367 885725367 3.00000000
3.09064794 0.93017942 -0.62737995 5 4 7325 3.28800000 885725369 885725369 -11.00000000
7.88557911 2.37178898 0.72042936 79 5 7326 8.26600000 885725372 885725372 5.00000000
3.87433004 1.16456628 -0.64075559 6 6 7327 4.09600000 885725374 885725374 -9.00000000
7.90695286 2.37520838 1.01370919 99 7 7328 8.31800000 885725376 885725376 7.00000000
5.22468042 1.56847322 -0.66979390 6 8 7329 5.49600000 885725379 885725379 -7.00000000
7.87387419 2.36227560 -0.71920919 17 10 7330 8.25200000 885725383 885725383 -5.00000000
7.89394522 2.36529398 -0.43187630 17 12 7332 8.25200000 885725388 885725388 -3.00000000
