# .PCD v0.7 - Point Cloud Data file format
VERSION 0.7
FIELDS x y z intensity laser_id azimuth distance_m adjustedtime timestamp vertical_angle
SIZE 4 4 4 1 1 2 8 8 4 8
TYPE F F F U U U F U U F
COUNT 1 1 1 1 1 1 1 1 1 1
WIDTH 530
HEIGHT 1
VIEWPOINT 0 0 0 1 0 0 0
POINTS 530
DATA ascii
-6.63209391 -2.94863844 -0.38037774 3 12 24603 7.26800000 884573294 884573294 -3.00000000
-9.86927986 -4.38583326 2.49335742 26 13 24604 11.08400000 884573296 884573296 13.00000000
-9.52394962 -4.22839069 2.79213977 38 15 24606 10.78800000 884573301 884573301 15.00000000
-1.76131272 -0.77940333 -0.51608515 4 0 24613 1.99400000 884573322 884573322 -15.00000000
-2.00690556 -0.88724363 -0.50658977 4 2 24615 2.25200000 884573326 884573326 -13.00000000
-2.35960889 -1.04267991 -0.50144607 3 4 24616 2.62800000 884573331 884573331 -11.00000000
-2.79018044 -1.23177981 -0.48306963 2 6 24618 3.08800000 884573335 884573335 -9.00000000
-3.49088907 -1.53966546 -0.46846575 5 8 24620 3.84400000 884573340 884573340 -7.00000000
-4.56138659 -2.01086044 -0.43612733 3 10 24621 5.00400000 884573345 884573345 -5.00000000
-9.83624840 -4.33420134 2.08935857 12 11 24622 10.95000000 884573347 884573347 11.00000000
-6.61492872 -2.91339469 -0.37880766 3 12 24623 7.23800000 884573349 884573349 -3.00000000
-9.86312675 -4.34193468 2.48795867 25 13 24624 11.06000000 884573352 884573352 13.00000000
-9.54145527 -4.19834089 2.79317522 38 15 24625 10.79200000 884573356 884573356 15.00000000
-1.76933062 -0.77557719 -0.51763809 4 0 24633 2.00000000 884573377 884573377 -15.00000000
-2.00999022 -0.88023281 -0.50658977 4 2 24635 2.25200000 884573381 884573381 -13.00000000
-2.34165215 -1.02499008 -0.49686661 3 4 24636 2.60400000 884573386 884573386 -11.00000000
-2.79808283 -1.22361565 -0.48369536 2 6 24638 3.09200000 884573391 884573391 -9.00000000
-3.47987056 -1.52031803 -0.46627212 5 8 24640 3.82600000 884573395 884573395 -7.00000000
-4.58663702 -2.00289917 -0.43787044 3 10 24641 5.02400000 884573400 884573400 -5.00000000
-9.89090252 -4.31711817 2.09775400 18 11 24642 10.99400000 884573402 884573402 11.00000000
-6.64336443 -2.89827299 -0.37985438 3 12 24643 7.25800000 884573405 884573405 -3.00000000
-9.87107754 -4.30436373 2.48615909 23 13 24644 11.05200000 884573407 884573407 13.00000000
-9.55782318 -4.16578102 2.79369283 40 15 24645 10.79400000 884573411 884573411 15.00000000
-1.76139498 -0.76477993 -0.51453227 4 0 24653 1.98800000 884573432 884573432 -15.00000000
-2.02020168 -0.87631327 -0.50838935 4 2 24655 2.26000000 884573437 884573437 -13.00000000
-2.33440828 -1.01212418 -0.49457690 3 4 24656 2.59200000 884573441 884573441 -11.00000000
-2.81683803 -1.22012222 -0.48619831 2 6 24658 3.10800000 884573446 884573446 -9.00000000
-3.49790907 -1.51368046 -0.46797827 5 8 24660 3.84000000 884573451 884573451 -7.00000000
-4.61188745 -1.99478626 -0.43961358 3 10 24661 5.04400000 884573455 884573455 -5.00000000
-6.65344048 -2.87506580 -0.37985438 3 12 24663 7.25800000 884573460 884573460 -3.00000000
-9.55883694 -4.12459898 2.78955173 35 15 24666 10.77800000 884573467 884573467 15.00000000
-1.76405382 -0.75862688 -0.51453227 5 0 24673 1.98800000 884573487 884573487 -15.00000000
-2.03399134 -0.87387162 -0.51108879 4 2 24675 2.27200000 884573492 884573492 -13.00000000
-2.35957456 -1.01326549 -0.49915633 3 4 24676 2.61600000 884573497 884573497 -11.00000000
-2.81381845 -1.20716691 -0.48494685 2 6 24678 3.10000000 884573501 884573501 -9.00000000
-3.50317144 -1.50146127 -0.46797827 5 8 24680 3.84000000 884573506 884573506 -7.00000000
-4.59684515 -1.96926081 -0.43752182 3 10 24681 5.02000000 884573511 884573511 -5.00000000
-6.64507437 -2.84396482 -0.37880766 3 12 24683 7.23800000 884573515 884573515 -3.00000000
-9.56962395 -4.08968925 2.78851628 33 15 24686 10.77400000 884573522 884573522 15.00000000
-1.76669121 -0.75246453 -0.51453227 4 0 24693 1.98800000 884573543 884573543 -15.00000000
-2.02627039 -0.86218834 -0.50838935 4 2 24695 2.26000000 884573547 884573547 -13.00000000
-2.35587049 -1.00194931 -0.49762985 3 4 24696 2.60800000 884573552 884573552 -11.00000000
-2.80347061 -1.19115770 -0.48244390 2 6 24698 3.08400000 884573557 884573557 -9.00000000
-3.51204586 -1.49077499 -0.46846575 5 8 24700 3.84400000 884573561 884573561 -7.00000000
-4.61102772 -1.95631552 -0.43821907 3 10 24701 5.02800000 884573566 884573566 -5.00000000
-6.67886686 -2.83088446 -0.38016838 3 12 24703 7.26400000 884573570 884573570 -3.00000000
-9.58384132 -4.05626011 2.78851628 23 15 24706 10.77400000 884573577 884573577 15.00000000
-1.77642691 -0.74929625 -0.51660281 4 0 24713 1.99600000 884573598 884573598 -15.00000000
-2.02208424 -0.85208315 -0.50658977 4 2 24715 2.25200000 884573603 884573603 -13.00000000
-2.37382817 -0.99981618 -0.50068283 3 4 24716 2.62400000 884573607 884573607 -11.00000000
-2.81125283 -1.18289673 -0.48306963 2 6 24718 3.08800000 884573612 884573612 -9.00000000
-3.50990820 -1.47542953 -0.46749079 5 8 24720 3.83600000 884573617 884573617 -7.00000000
-4.59762335 -1.93171871 -0.43630165 3 10 24721 5.00600000 884573621 884573621 -5.00000000
-6.66660833 -2.79827762 -0.37891233 3 12 24723 7.24000000 884573626 884573626 -3.00000000
-9.60863209 -4.02726173 2.79162216 26 15 24726 10.78600000 884573633 884573633 15.00000000
-1.77546644 -0.74160165 -0.51556754 4 0 24733 1.99200000 884573653 884573653 -15.00000000
-2.03943396 -0.85102326 -0.51018900 4 2 24735 2.26800000 884573658 884573658 -13.00000000
-2.37367988 -0.99001241 -0.49991956 3 4 24736 2.62000000 884573663 884573663 -11.00000000
-2.81901169 -1.17459595 -0.48369536 2 6 24738 3.09200000 884573667 884573667 -9.00000000
-3.50587368 -1.45935440 -0.46627212 5 8 24740 3.82600000 884573672 884573672 -7.00000000
-4.62641239 -1.92484236 -0.43839338 3 10 24741 5.03000000 884573676 884573676 -5.00000000
-6.68555689 -2.77882266 -0.37943569 3 12 24743 7.25000000 884573681 884573681 -3.00000000
-9.63085461 -3.99908066 2.79421043 30 15 24745 10.79600000 884573688 884573688 15.00000000
-1.77447391 -0.73392290 -0.51453227 5 0 24753 1.98800000 884573709 884573709 -15.00000000
-2.03878999 -0.84241080 -0.50928921 4 2 24755 2.26400000 884573713 884573713 -13.00000000
-2.36986279 -0.97872305 -0.49839309 3 4 24756 2.61200000 884573718 884573718 -11.00000000
-2.81944251 -1.16324186 -0.48306963 2 6 24758 3.08800000 884573722 884573722 -9.00000000
-3.51645255 -1.44937706 -0.46700332 5 8 24760 3.83200000 884573727 884573727 -7.00000000
-4.61468124 -1.90109229 -0.43665028 6 10 24761 5.01000000 884573732 884573732 -5.00000000
-6.71368599 -2.76307011 -0.38048241 3 12 24763 7.27000000 884573736 884573736 -3.00000000
-9.63293934 -3.95861483 2.79058695 28 15 24766 10.78200000 884573743 884573743 15.00000000
-1.77702498 -0.72772431 -0.51453227 5 0 24773 1.98800000 884573764 884573764 -15.00000000
-2.04171824 -0.83528894 -0.50928921 4 2 24775 2.26400000 884573769 884573769 -13.00000000
-2.36599588 -0.96747243 -0.49686661 3 4 24776 2.60400000 884573773 884573773 -11.00000000
-2.81982851 -1.15189910 -0.48244390 2 6 24778 3.08400000 884573778 884573778 -9.00000000
-3.53251791 -1.44159389 -0.46846575 5 8 24780 3.84400000 884573782 884573782 -7.00000000
-4.62128925 -1.88497245 -0.43665028 6 10 24781 5.01000000 884573787 884573787 -5.00000000
-6.73438740 -2.74414015 -0.38111043 3 12 24783 7.28200000 884573792 884573792 -3.00000000
-9.62633133 -3.91863704 2.78489304 28 15 24785 10.76000000 884573799 884573799 15.00000000
-1.77776408 -0.72079104 -0.51401460 5 0 24793 1.98600000 884573819 884573819 -15.00000000
-2.03739667 -0.82523060 -0.50748956 4 2 24795 2.25600000 884573824 884573824 -13.00000000
-2.38027740 -0.96362799 -0.49915633 3 4 24796 2.61600000 884573828 884573828 -11.00000000
-2.82749462 -1.14353025 -0.48306963 2 6 24798 3.08800000 884573833 884573833 -9.00000000
-3.52648520 -1.42479253 -0.46700332 5 8 24800 3.83200000 884573838 884573838 -7.00000000
-4.64262056 -1.87479794 -0.43804476 6 10 24801 5.02600000 884573842 884573842 -5.00000000
-6.72910738 -2.71463823 -0.38027304 3 12 24803 7.26600000 884573847 884573847 -3.00000000
-9.64062881 -3.88332844 2.78489304 26 15 24806 10.76000000 884573854 884573854 15.00000000
-1.78564775 -0.71673995 -0.51556754 4 0 24813 1.99200000 884573875 884573875 -15.00000000
-2.03302979 -0.81521261 -0.50568998 4 2 24815 2.24800000 884573879 884573879 -13.00000000
-2.39091587 -0.95823485 -0.50068283 3 4 24816 2.62400000 884573884 884573884 -11.00000000
-2.83513689 -1.13512194 -0.48369536 2 6 24818 3.09200000 884573888 884573888 -9.00000000
-3.54249597 -1.41689730 -0.46846575 5 8 24820 3.84400000 884573893 884573893 -7.00000000
-4.65283680 -1.86005998 -0.43839338 6 10 24821 5.03000000 884573898 884573898 -5.00000000
-6.73668766 -2.69039202 -0.38016838 3 12 24823 7.26400000 884573902 884573902 -3.00000000
-9.64986515 -3.84990573 2.78385758 26 15 24825 10.75600000 884573909 884573909 15.00000000
-1.79352474 -0.71264261 -0.51712048 5 0 24833 1.99800000 884573930 884573930 -15.00000000
-2.04491925 -0.81170583 -0.50793946 4 2 24835 2.25800000 884573934 884573934 -13.00000000
-2.37234759 -0.94119519 -0.49610338 3 4 24836 2.60000000 884573939 884573939 -11.00000000
-2.84275460 -1.12667418 -0.48432112 2 6 24838 3.09600000 884573944 884573944 -9.00000000
-3.53634620 -1.40013850 -0.46700332 5 8 24840 3.83200000 884573948 884573948 -7.00000000
-4.67041683 -1.84820592 -0.43943927 6 10 24841 5.04200000 884573953 884573953 -5.00000000
-9.67469215 -3.81876707 2.78696346 28 15 24846 10.76800000 884573964 884573964 15.00000000
-1.78881025 -0.70354933 -0.51504987 5 0 24853 1.99000000 884573985 884573985 -15.00000000
-2.04774022 -0.80456281 -0.50793946 4 2 24855 2.25800000 884573990 884573990 -13.00000000
-2.38658285 -0.93721420 -0.49839309 3 4 24856 2.61200000 884573994 884573994 -11.00000000
-2.84667015 -1.11674428 -0.48432112 2 6 24858 3.09600000 884573999 884573999 -9.00000000
-3.54860497 -1.39068305 -0.46797827 5 8 24860 3.84000000 884574004 884574004 -7.00000000
-4.66199827 -1.82607865 -0.43804476 6 10 24861 5.02600000 884574008 884574008 -5.00000000
-9.67470837 -3.78174043 2.78333998 23 15 24865 10.75400000 884574020 884574020 15.00000000
-1.78585434 -0.69519854 -0.51349699 5 0 24873 1.98400000 884574040 884574040 -15.00000000
-2.05235243 -0.79811621 -0.50838935 4 2 24875 2.26000000 884574045 884574045 -13.00000000
-2.39349961 -0.93030024 -0.49915633 3 4 24876 2.61600000 884574050 884574050 -11.00000000
-2.85423398 -1.10823071 -0.48494685 2 6 24878 3.10000000 884574054 884574054 -9.00000000
-3.54418397 -1.37469840 -0.46675959 5 8 24880 3.83000000 884574059 884574059 -7.00000000
-4.66462898 -1.80835378 -0.43769613 6 10 24881 5.02200000 884574063 884574063 -5.00000000
-7.41076851 -2.86998463 -0.41648954 114 12 24883 7.95800000 884574068 884574068 -3.00000000
-9.68129635 -3.74346852 2.78126955 23 15 24886 10.74600000 884574075 884574075 15.00000000
-1.79548097 -0.69173855 -0.51556754 5 0 24893 1.99200000 884574096 884574096 -15.00000000
-2.04966974 -0.78884745 -0.50703967 4 2 24895 2.25400000 884574100 884574100 -13.00000000
-2.39306760 -0.92052996 -0.49839309 3 4 24896 2.61200000 884574105 884574105 -11.00000000
-2.82858205 -1.08692396 -0.47994095 2 6 24898 3.06800000 884574110 884574110 -9.00000000
-3.56193376 -1.36729825 -0.46846575 5 8 24900 3.84400000 884574114 884574114 -7.00000000
-4.67463303 -1.79348755 -0.43804476 6 10 24901 5.02600000 884574119 884574119 -5.00000000
-9.69726562 -3.71272516 2.78230476 23 15 24905 10.75000000 884574130 884574130 15.00000000
-1.80149484 -0.68684340 -0.51660281 4 0 24913 1.99600000 884574151 884574151 -15.00000000
-2.04512644 -0.77891356 -0.50524008 5 2 24915 2.24600000 884574156 884574156 -13.00000000
-2.38892698 -0.90937722 -0.49686661 3 4 24916 2.60400000 884574160 884574160 -11.00000000
-2.85820842 -1.08687329 -0.48432112 2 6 24918 3.09600000 884574165 884574165 -9.00000000
-3.55926180 -1.35203671 -0.46749079 5 8 24920 3.83600000 884574169 884574169 -7.00000000
-4.68086529 -1.77715909 -0.43804476 6 10 24921 5.02600000 884574174 884574174 -5.00000000
-9.71442127 -3.67852616 2.78333998 23 15 24926 10.75400000 884574186 884574186 15.00000000
-1.80749643 -0.68191463 -0.51763809 4 0 24933 2.00000000 884574206 884574206 -15.00000000
-2.05148005 -0.77314448 -0.50613987 5 2 24935 2.25000000 884574211 884574211 -13.00000000
-2.39208674 -0.90103275 -0.49686661 4 4 24936 2.60400000 884574216 884574216 -11.00000000
-2.86568260 -1.07828104 -0.48494685 2 6 24938 3.10000000 884574220 884574220 -9.00000000
-3.56210160 -1.33890593 -0.46724707 16 8 24940 3.83400000 884574225 884574225 -7.00000000
-4.68890524 -1.76150966 -0.43821907 6 10 24941 5.02800000 884574229 884574229 -5.00000000
-9.72837543 -3.64697003 2.78385758 26 15 24945 10.75600000 884574241 884574241 15.00000000
-1.80805588 -0.67492557 -0.51712048 5 0 24953 1.99800000 884574262 884574262 -15.00000000
-2.06329584 -0.76938313 -0.50838935 4 2 24955 2.26000000 884574266 884574266 -13.00000000
-2.39889669 -0.89404857 -0.49762985 3 4 24956 2.60800000 884574271 884574271 -11.00000000
-2.87683392 -1.07102823 -0.48619831 2 6 24958 3.10800000 884574275 884574275 -9.00000000
-3.57419586 -1.32923150 -0.46822202 5 8 24960 3.84200000 884574280 884574280 -7.00000000
-4.68942261 -1.74304914 -0.43769613 6 10 24961 5.02200000 884574285 884574285 -5.00000000
-7.36398888 -2.73425460 -0.41167462 16 12 24963 7.86600000 884574289 884574289 -3.00000000
-9.72112179 -3.60559940 2.77816367 26 15 24965 10.73400000 884574296 884574296 15.00000000
-1.79952753 -0.66459447 -0.51401460 5 0 24973 1.98600000 884574317 884574317 -15.00000000
-2.06231236 -0.76082718 -0.50748956 4 2 24975 2.25600000 884574322 884574322 -13.00000000
-2.39831901 -0.88431102 -0.49686661 3 4 24976 2.60400000 884574326 884574326 -11.00000000
-2.87684774 -1.05961418 -0.48557258 2 6 24978 3.10400000 884574331 884574331 -9.00000000
-3.57695103 -1.31606174 -0.46797827 5 8 24980 3.84000000 884574335 884574335 -7.00000000
-4.69734859 -1.72735703 -0.43787044 6 10 24981 5.02400000 884574340 884574340 -5.00000000
-9.73364925 -3.57164454 2.77816367 28 15 24985 10.73400000 884574351 884574351 15.00000000
-1.80546546 -0.65963483 -0.51504987 4 0 24993 1.99000000 884574372 884574372 -15.00000000
-2.06312490 -0.75295562 -0.50703967 4 2 24995 2.25400000 884574377 884574377 -13.00000000
-2.41983509 -0.88266152 -0.50068283 3 4 24996 2.62400000 884574381 884574381 -11.00000000
-2.86196876 -1.04280293 -0.48244390 2 6 24998 3.08400000 884574386 884574386 -9.00000000
-3.59271526 -1.30764139 -0.46944070 5 8 25000 3.85200000 884574391 884574391 -7.00000000
-4.69773245 -1.70890629 -0.43734753 9 10 25001 5.01800000 884574395 884574395 -5.00000000
-9.75575447 -3.53923893 2.78075171 33 15 25006 10.74400000 884574407 884574407 15.00000000
-1.80412328 -0.65201533 -0.51401460 4 0 25013 1.98600000 884574428 884574428 -15.00000000
-2.05474305 -0.74177915 -0.50434029 4 2 25015 2.24200000 884574432 884574432 -13.00000000
-2.41182089 -0.87021148 -0.49839309 3 4 25016 2.61200000 884574437 884574437 -11.00000000
-2.86187482 -1.03146696 -0.48181814 2 6 25018 3.08000000 884574441 884574441 -9.00000000
-3.58605146 -1.29105794 -0.46797827 7 8 25020 3.84000000 884574446 884574446 -7.00000000
-4.72991514 -1.70194173 -0.43978786 6 10 25021 5.04600000 884574451 884574451 -5.00000000
-7.42604923 -2.66915083 -0.41355872 56 12 25023 7.90200000 884574455 884574455 -3.00000000
-9.77652836 -3.51013231 2.78333998 40 15 25025 10.75400000 884574462 884574462 15.00000000
-1.81730306 -0.64961535 -0.51712048 5 0 25033 1.99800000 884574483 884574483 -15.00000000
-2.07016659 -0.73918939 -0.50748956 4 2 25035 2.25600000 884574487 884574487 -13.00000000
-2.41299486 -0.86112750 -0.49801147 4 4 25036 2.61000000 884574492 884574492 -11.00000000
-2.87662196 -1.02545059 -0.48369536 2 6 25038 3.09200000 884574497 884574497 -9.00000000
-3.59614658 -1.28053021 -0.46870950 7 8 25040 3.84600000 884574501 884574501 -7.00000000
-4.72831869 -1.68274879 -0.43909064 6 10 25041 5.03800000 884574506 884574506 -5.00000000
-9.78143978 -3.47339869 2.78126955 33 15 25045 10.74600000 884574517 884574517 15.00000000
-1.81773818 -0.64262390 -0.51660281 5 0 25053 1.99600000 884574538 884574538 -15.00000000
-2.08559680 -0.73650098 -0.51063889 4 2 25055 2.27000000 884574543 884574543 -13.00000000
-2.41413474 -0.85204589 -0.49762985 4 4 25056 2.60800000 884574547 884574547 -11.00000000
-2.88763595 -1.01803029 -0.48494685 2 6 25058 3.10000000 884574552 884574552 -9.00000000
-3.59123254 -1.26467264 -0.46749079 7 8 25060 3.83600000 884574556 884574556 -7.00000000
-4.72288752 -1.66226482 -0.43804476 6 10 25061 5.02600000 884574561 884574561 -5.00000000
-9.79897213 -3.44115424 2.78282237 40 15 25065 10.75200000 884574573 884574573 15.00000000
-1.80355775 -0.63053697 -0.51194406 4 0 25073 1.97800000 884574593 884574593 -15.00000000
-2.09551406 -0.73178631 -0.51243848 4 2 25075 2.27800000 884574598 884574598 -13.00000000
-2.41524053 -0.84296685 -0.49724823 4 4 25076 2.60600000 884574603 884574603 -11.00000000
-2.87998033 -1.00404263 -0.48306963 2 6 25078 3.08800000 884574607 884574607 -9.00000000
-3.60687327 -1.25604618 -0.46895322 7 8 25080 3.84800000 884574612 884574612 -7.00000000
-4.72113466 -1.64314914 -0.43734753 6 10 25081 5.01800000 884574616 884574616 -5.00000000
-6.85745621 -2.38399363 -0.38048241 3 12 25083 7.27000000 884574621 884574621 -3.00000000
-9.80786896 -3.40394926 2.78178716 38 15 25086 10.74800000 884574628 884574628 15.00000000
-1.81305099 -0.62676227 -0.51401460 4 0 25093 1.98600000 884574649 884574649 -15.00000000
-2.07963562 -0.71810657 -0.50793946 4 2 25095 2.25800000 884574653 884574653 -13.00000000
-2.42373586 -0.83645236 -0.49839309 3 4 25096 2.61200000 884574658 884574658 -11.00000000
-2.88346744 -0.99398345 -0.48306963 2 6 25098 3.08800000 884574662 884574662 -9.00000000
-3.60372806 -1.24086308 -0.46797827 5 8 25100 3.84000000 884574667 884574667 -7.00000000
-4.73437738 -1.62925267 -0.43804476 6 10 25101 5.02600000 884574672 884574672 -5.00000000
-7.30204582 -2.51002002 -0.40466163 16 12 25103 7.73200000 884574676 884574676 -3.00000000
-9.82275772 -3.37266111 2.78282237 40 15 25105 10.75200000 884574683 884574683 15.00000000
-1.82802391 -0.62480330 -0.51763809 5 0 25113 2.00000000 884574704 884574704 -15.00000000
-2.07659698 -0.70895404 -0.50658977 4 2 25115 2.25200000 884574708 884574708 -13.00000000
-2.41920853 -0.82545090 -0.49686661 3 4 25116 2.60400000 884574713 884574713 -11.00000000
-2.89813805 -0.98773569 -0.48494685 2 6 25118 3.10000000 884574718 884574718 -9.00000000
-3.61555409 -1.23083508 -0.46895322 5 8 25120 3.84800000 884574722 884574722 -7.00000000
-4.74380827 -1.61400008 -0.43839338 9 10 25121 5.03000000 884574727 884574727 -5.00000000
-9.83264065 -3.33773184 2.78230476 35 15 25125 10.75000000 884574738 884574738 15.00000000
-1.83202398 -0.61903697 -0.51815575 5 0 25133 2.00200000 884574759 884574759 -15.00000000
-2.09013748 -0.70544016 -0.50928921 4 2 25135 2.26400000 884574764 884574764 -13.00000000
-2.43695736 -0.82202125 -0.49991956 3 4 25136 2.62000000 884574768 884574768 -11.00000000
-2.90905619 -0.98013616 -0.48619831 2 6 25138 3.10800000 884574773 884574773 -9.00000000
-3.61982846 -1.21820688 -0.46895322 5 8 25140 3.84800000 884574778 884574778 -7.00000000
-4.74185944 -1.59489071 -0.43769613 6 10 25141 5.02200000 884574782 884574782 -5.00000000
-9.85396576 -3.30474234 2.78489304 38 15 25146 10.76000000 884574794 884574794 15.00000000
-1.82867670 -0.61080217 -0.51660281 5 0 25153 1.99600000 884574814 884574814 -15.00000000
-2.09998155 -0.70060682 -0.51108879 4 2 25155 2.27200000 884574819 884574819 -13.00000000
-2.42491245 -0.80854166 -0.49686661 3 4 25156 2.60400000 884574824 884574824 -11.00000000
-2.90871143 -0.96872735 -0.48557258 2 6 25158 3.10400000 884574828 884574828 -9.00000000
-3.62782598 -1.20681715 -0.46944070 5 8 25160 3.85200000 884574833 884574833 -7.00000000
-4.74739742 -1.57832873 -0.43769613 9 10 25161 5.02200000 884574838 884574838 -5.00000000
-9.85810661 -3.26789403 2.78282237 40 15 25166 10.75200000 884574849 884574849 15.00000000
-1.82712865 -0.60320389 -0.51556754 5 0 25173 1.99200000 884574870 884574870 -15.00000000
-2.09871292 -0.69205171 -0.51018900 4 2 25175 2.26800000 884574874 884574874 -13.00000000
-2.43517828 -0.80253017 -0.49839309 3 4 25176 2.61200000 884574879 884574879 -11.00000000
-2.90081716 -0.95486236 -0.48369536 2 6 25178 3.09200000 884574884 884574884 -9.00000000
-3.63578820 -1.19538629 -0.46992818 5 8 25180 3.85600000 884574888 884574888 -7.00000000
-4.75287819 -1.56174767 -0.43769613 6 10 25181 5.02200000 884574893 884574893 -5.00000000
-9.85293102 -3.22804976 2.77816367 35 15 25186 10.73400000 884574904 884574904 15.00000000
-1.82554996 -0.59562391 -0.51453227 5 0 25193 1.98800000 884574925 884574925 -15.00000000
-2.09370446 -0.68230635 -0.50838935 4 2 25195 2.26000000 884574930 884574930 -13.00000000
-2.43796492 -0.79402494 -0.49839309 3 4 25196 2.61200000 884574934 884574934 -11.00000000
-2.90788960 -0.94595295 -0.48432112 2 6 25198 3.09600000 884574939 884574939 -9.00000000
-3.63616276 -1.18146086 -0.46944070 7 8 25200 3.85200000 884574944 884574944 -7.00000000
-4.76209068 -1.54637825 -0.43804476 6 10 25201 5.02600000 884574948 884574948 -5.00000000
-6.92107773 -2.24478865 -0.38131979 7 12 25203 7.28600000 884574953 884574953 -3.00000000
-9.87332916 -3.19661212 2.78075171 38 15 25206 10.74400000 884574960 884574960 15.00000000
-1.83129525 -0.59043354 -0.51556754 5 0 25213 1.99200000 884574980 884574980 -15.00000000
-2.09607339 -0.67499381 -0.50838935 4 2 25215 2.26000000 884574985 884574985 -13.00000000
-2.44819713 -0.78791589 -0.49991956 3 4 25216 2.62000000 884574990 884574990 -11.00000000
-2.90365148 -0.93337870 -0.48306963 2 6 25218 3.08800000 884574994 884574994 -9.00000000
-3.63648462 -1.16754746 -0.46895322 7 8 25220 3.84800000 884574999 884574999 -7.00000000
-4.77125359 -1.53096342 -0.43839338 9 10 25221 5.03000000 884575003 884575003 -5.00000000
-6.93077326 -2.22122550 -0.38142446 3 12 25223 7.28800000 884575008 884575008 -3.00000000
-9.88387489 -3.16385341 2.78075171 40 15 25225 10.74400000 884575015 884575015 15.00000000
-1.83518577 -0.58462393 -0.51608515 4 0 25233 1.99400000 884575036 884575036 -15.00000000
-2.10955882 -0.67121822 -0.51108879 4 2 25235 2.27200000 884575040 884575040 -13.00000000
-2.44344878 -0.77698553 -0.49839309 3 4 25236 2.61200000 884575045 884575045 -11.00000000
-2.92195344 -0.92802095 -0.48557258 2 6 25238 3.10400000 884575049 884575049 -9.00000000
-3.62918496 -1.15124524 -0.46749079 5 8 25240 3.83600000 884575054 884575054 -7.00000000
-4.78036737 -1.51550353 -0.43874201 6 10 25241 5.03400000 884575059 884575059 -5.00000000
-6.94038868 -2.19762206 -0.38152912 7 12 25243 7.29000000 884575063 884575063 -3.00000000
-9.89908886 -3.12877035 2.78178716 38 15 25246 10.74800000 884575070 884575070 15.00000000
-1.82984436 -0.57589453 -0.51401460 4 0 25253 1.98600000 884575091 884575091 -15.00000000
-2.10445261 -0.66151291 -0.50928921 4 2 25255 2.26400000 884575096 884575096 -13.00000000
-2.43490791 -0.76492113 -0.49610338 3 4 25256 2.60000000 884575100 884575100 -11.00000000
-2.92517519 -0.91781580 -0.48557258 2 6 25258 3.10400000 884575105 884575105 -9.00000000
-3.64454699 -1.14213181 -0.46895322 5 8 25260 3.84800000 884575109 884575109 -7.00000000
-4.76851606 -1.49344850 -0.43717322 6 10 25261 5.01600000 884575114 884575114 -5.00000000
-6.94992352 -2.17397833 -0.38163379 7 12 25263 7.29200000 884575119 884575119 -3.00000000
-9.90756607 -3.09535050 2.78126955 40 15 25265 10.74600000 884575126 884575126 15.00000000
-1.83184350 -0.56950366 -0.51401460 4 0 25273 1.98600000 884575146 884575146 -15.00000000
-2.11605453 -0.65705234 -0.51153868 4 2 25275 2.27400000 884575151 884575151 -13.00000000
-2.45631385 -0.76223570 -0.49991956 3 4 25276 2.62000000 884575155 884575155 -11.00000000
-2.91704011 -0.90409070 -0.48369536 2 6 25278 3.09200000 884575160 884575160 -9.00000000
-3.64471889 -1.12822890 -0.46846575 7 8 25280 3.84400000 884575165 884575165 -7.00000000
-4.77560377 -1.47738302 -0.43734753 6 10 25281 5.01800000 884575169 884575169 -5.00000000
-6.95746994 -2.14970541 -0.38163379 3 12 25283 7.29200000 884575174 884575174 -3.00000000
-9.90776825 -3.05560064 2.77816367 38 15 25286 10.73400000 884575181 884575181 15.00000000
-1.83197355 -0.56253880 -0.51349699 5 0 25293 1.98400000 884575202 884575202 -15.00000000
-2.11088276 -0.64737642 -0.50973910 4 2 25295 2.26600000 884575206 884575206 -13.00000000
-2.45145130 -0.75135565 -0.49839309 3 4 25296 2.61200000 884575211 884575211 -11.00000000
-2.91640043 -0.89274639 -0.48306963 2 6 25298 3.08800000 884575215 884575215 -9.00000000
-3.65812659 -1.11840153 -0.46968445 7 8 25300 3.85400000 884575220 884575220 -7.00000000
-4.79216433 -1.46419716 -0.43839338 3 10 25301 5.03000000 884575225 884575225 -5.00000000
-6.96111059 -2.12424016 -0.38142446 3 12 25303 7.28800000 884575229 884575229 -3.00000000
-9.92708588 -3.02554440 2.78075171 42 15 25305 10.74400000 884575236 884575236 15.00000000
-1.84686697 -0.56006497 -0.51712048 4 0 25313 1.99800000 884575257 884575257 -15.00000000
-2.11499476 -0.64056897 -0.51018900 4 2 25315 2.26800000 884575261 884575261 -13.00000000
-2.46157527 -0.74506891 -0.49991956 3 4 25316 2.62000000 884575266 884575266 -11.00000000
-2.92328072 -0.88370401 -0.48369536 2 6 25318 3.09200000 884575271 884575271 -9.00000000
-3.65060616 -1.10218298 -0.46822202 7 8 25320 3.84200000 884575275 884575275 -7.00000000
-4.79724598 -1.44746041 -0.43839338 6 10 25321 5.03000000 884575280 884575280 -5.00000000
-6.97039557 -2.10050488 -0.38152912 3 12 25323 7.29000000 884575284 884575284 -3.00000000
-9.93625832 -2.98858309 2.78023410 38 15 25326 10.74200000 884575291 884575291 15.00000000
-1.85056460 -0.55449194 -0.51763809 4 0 25332 2.00000000 884575312 884575312 -15.00000000
-2.11524034 -0.63299322 -0.50973910 4 2 25334 2.26600000 884575317 884575317 -13.00000000
-2.46027064 -0.73577690 -0.49915633 3 4 25335 2.61600000 884575321 884575321 -11.00000000
-2.93755150 -0.87739724 -0.48557258 2 6 25337 3.10400000 884575326 884575326 -9.00000000
-3.65043640 -1.08893621 -0.46773455 7 8 25339 3.83800000 884575331 884575331 -7.00000000
-4.81729460 -1.43609786 -0.43978786 6 10 25340 5.04600000 884575335 884575335 -5.00000000
-6.97540855 -2.07680869 -0.38142446 3 12 25342 7.28800000 884575340 884575340 -3.00000000
-9.96041203 -2.96175766 2.78437519 42 15 25344 10.75800000 884575347 884575347 15.00000000
-1.84507895 -0.54583681 -0.51556754 5 0 25352 1.99200000 884575367 884575367 -15.00000000
-2.12304354 -0.62726229 -0.51108879 4 2 25354 2.27200000 884575372 884575372 -13.00000000
-2.45152664 -0.72384876 -0.49686661 3 4 25355 2.60400000 884575377 884575377 -11.00000000
-2.94059634 -0.86713791 -0.48557258 2 6 25357 3.10400000 884575381 884575381 -9.00000000
-3.66183233 -1.07843029 -0.46870950 7 8 25359 3.84600000 884575386 884575386 -7.00000000
-4.79360819 -1.41083562 -0.43717322 9 10 25360 5.01600000 884575390 884575390 -5.00000000
-7.00944233 -2.06033254 -0.38288987 3 12 25362 7.31600000 884575395 884575395 -3.00000000
-9.96007824 -2.92196822 2.78126955 40 15 25365 10.74600000 884575402 884575402 15.00000000
-1.83594024 -0.53582317 -0.51246172 4 0 25373 1.98000000 884575423 884575423 -15.00000000
-2.12907028 -0.62056738 -0.51198858 4 2 25375 2.27600000 884575427 884575427 -13.00000000
-2.47301221 -0.72034907 -0.50068283 3 4 25376 2.62400000 884575432 884575432 -11.00000000
-2.93616796 -0.85414714 -0.48432112 2 6 25378 3.09600000 884575437 884575437 -9.00000000
-3.66957283 -1.06610942 -0.46919698 7 8 25380 3.85000000 884575441 884575441 -7.00000000
-4.81596708 -1.39825642 -0.43874201 6 10 25381 5.03400000 884575446 884575446 -5.00000000
-6.99200964 -2.02739716 -0.38152912 3 12 25383 7.29000000 884575450 884575450 -3.00000000
-9.96093941 -2.88449645 2.77868128 40 15 25385 10.73600000 884575457 884575457 15.00000000
-1.84893763 -0.53261983 -0.51556754 4 0 25393 1.99200000 884575478 884575478 -15.00000000
-2.12747788 -0.61205417 -0.51108879 4 2 25395 2.27200000 884575483 884575483 -13.00000000
-2.47551179 -0.71171230 -0.50068283 3 4 25396 2.62400000 884575487 884575487 -11.00000000
-2.93723273 -0.84334767 -0.48400822 5 6 25398 3.09400000 884575492 884575492 -9.00000000
-3.68090463 -1.05548239 -0.47017193 7 8 25400 3.85800000 884575496 884575496 -7.00000000
-4.81890345 -1.38088810 -0.43856770 6 10 25401 5.03200000 884575501 884575501 -5.00000000
-7.01440525 -2.00737429 -0.38236651 3 12 25403 7.30600000 884575506 884575506 -3.00000000
-9.98630524 -2.85221267 2.78282237 38 15 25406 10.75200000 884575513 884575513 15.00000000
-1.85450196 -0.52721912 -0.51660281 5 0 25413 1.99600000 884575533 884575533 -15.00000000
-2.11272955 -0.59983402 -0.50703967 4 2 25415 2.25400000 884575538 884575538 -13.00000000
-2.47798109 -0.70306677 -0.50068283 3 4 25416 2.62400000 884575543 884575543 -11.00000000
-2.93065596 -0.83039707 -0.48244390 4 6 25418 3.08400000 884575547 884575547 -9.00000000
-3.67501616 -1.03992474 -0.46895322 7 8 25420 3.84800000 884575552 884575552 -7.00000000
-4.83136320 -1.36622727 -0.43926495 6 10 25421 5.04000000 884575556 884575556 -5.00000000
-7.03290224 -1.98613393 -0.38299453 3 12 25423 7.31800000 884575561 884575561 -3.00000000
-10.01058292 -2.82327628 2.78696346 42 15 25425 10.76800000 884575568 884575568 15.00000000
-1.86191118 -0.52230787 -0.51815575 5 0 25433 2.00200000 884575589 884575589 -15.00000000
-2.12794590 -0.59613538 -0.51018900 4 2 25435 2.26800000 884575593 884575593 -13.00000000
-2.47663903 -0.69335419 -0.49991956 3 4 25436 2.62000000 884575598 884575598 -11.00000000
-2.95256090 -0.82548094 -0.48557258 4 6 25438 3.10400000 884575602 884575602 -9.00000000
-3.67479992 -1.02602255 -0.46846575 7 8 25440 3.84400000 884575607 884575607 -7.00000000
-4.82650709 -1.34667706 -0.43839338 3 10 25441 5.03000000 884575612 884575612 -5.00000000
-7.03594398 -1.96050024 -0.38278517 3 12 25443 7.31400000 884575616 884575616 -3.00000000
-10.02037716 -2.78831577 2.78696346 42 15 25445 10.76800000 884575623 884575623 15.00000000
-1.86186111 -0.51529008 -0.51763809 4 0 25453 2.00000000 884575644 884575644 -15.00000000
-2.13752723 -0.59078044 -0.51198858 4 2 25455 2.27600000 884575649 884575649 -13.00000000
-2.47904420 -0.68470490 -0.49991956 4 4 25456 2.62000000 884575653 884575653 -11.00000000
-2.96304154 -0.81727052 -0.48682407 2 6 25458 3.11200000 884575658 884575658 -9.00000000
-3.68027282 -1.01371598 -0.46870950 7 8 25460 3.84600000 884575662 884575662 -7.00000000
-4.83694124 -1.33140743 -0.43891633 3 10 25461 5.03600000 884575667 884575667 -5.00000000
-7.05429983 -1.93910456 -0.38341323 3 12 25463 7.32600000 884575672 884575672 -3.00000000
-10.02259731 -2.75127554 2.78489304 42 15 25465 10.76000000 884575678 884575678 15.00000000
-1.85246658 -0.50573510 -0.51453227 5 0 25473 1.98800000 884575699 884575699 -15.00000000
-2.14333653 -0.58434063 -0.51288843 4 2 25475 2.28000000 884575704 884575704 -13.00000000
-2.48520756 -0.67707938 -0.50068283 3 4 25476 2.62400000 884575708 884575708 -11.00000000
-2.95825195 -0.80484819 -0.48557258 2 6 25478 3.10400000 884575713 884575713 -9.00000000
-3.68762016 -1.00190425 -0.46919698 7 8 25480 3.85000000 884575718 884575718 -7.00000000
-4.83963680 -1.31399322 -0.43874201 3 10 25481 5.03400000 884575722 884575722 -5.00000000
-7.05331469 -1.91237807 -0.38299453 3 12 25483 7.31800000 884575727 884575727 -3.00000000
-10.02515507 -2.71250415 2.78282237 42 15 25486 10.75200000 884575734 884575734 15.00000000
-1.85599887 -0.50009197 -0.51504987 4 0 25492 1.99000000 884575755 884575755 -15.00000000
-2.13397169 -0.57419181 -0.51018900 4 2 25494 2.26800000 884575759 884575759 -13.00000000
-2.47606373 -0.66577572 -0.49839309 4 4 25495 2.61200000 884575764 884575764 -11.00000000
-2.95327353 -0.79298484 -0.48432112 2 6 25497 3.09600000 884575768 884575768 -9.00000000
-3.69859171 -0.99172658 -0.47017193 7 8 25499 3.85800000 884575773 884575773 -7.00000000
-4.83434486 -1.29535878 -0.43787044 3 10 25500 5.02400000 884575778 884575778 -5.00000000
-7.08662891 -1.89620543 -0.38445994 3 12 25502 7.34600000 884575782 884575782 -3.00000000
-10.04109192 -2.68299055 2.78489304 42 15 25504 10.76000000 884575789 884575789 15.00000000
-1.87080264 -0.49708289 -0.51867336 5 0 25512 2.00400000 884575810 884575810 -15.00000000
-2.13031220 -0.56524003 -0.50883931 4 2 25514 2.26200000 884575814 884575814 -13.00000000
-2.49734926 -0.66216016 -0.50220925 3 4 25515 2.63200000 884575819 884575819 -11.00000000
-2.95984268 -0.78368235 -0.48494685 4 6 25517 3.10000000 884575824 884575824 -9.00000000
-3.69819260 -0.97779518 -0.46968445 7 8 25519 3.85400000 884575828 884575828 -7.00000000
-4.86195278 -1.28458333 -0.43996218 3 10 25520 5.04800000 884575833 884575833 -5.00000000
-7.06616831 -1.86432374 -0.38299453 3 12 25522 7.31800000 884575837 884575837 -3.00000000
-10.05786896 -2.64989305 2.78696346 42 15 25524 10.76800000 884575844 884575844 15.00000000
-1.87991560 -0.49283594 -0.52074391 4 0 25531 2.01200000 884575866 884575866 -15.00000000
-2.14160109 -0.56064016 -0.51108879 4 2 25533 2.27200000 884575871 884575871 -13.00000000
-2.48813534 -0.65089381 -0.49991956 3 4 25534 2.62000000 884575875 884575875 -11.00000000
-2.97771502 -0.77785701 -0.48744980 2 6 25536 3.11600000 884575880 884575880 -9.00000000
-3.69757318 -0.96452409 -0.46919698 7 8 25538 3.85000000 884575884 884575884 -7.00000000
-4.84305000 -1.26242268 -0.43787044 3 10 25539 5.02400000 884575889 884575889 -5.00000000
-7.08390903 -1.84389985 -0.38362256 3 12 25541 7.33000000 884575894 884575894 -3.00000000
-10.07968903 -2.61992717 2.79058695 45 15 25543 10.78200000 884575901 884575901 15.00000000
-1.86666119 -0.48240384 -0.51660281 4 0 25551 1.99600000 884575921 884575921 -15.00000000
-2.13788414 -0.55170035 -0.50973910 4 2 25553 2.26600000 884575926 884575926 -13.00000000
-2.49039221 -0.64220464 -0.49991956 3 4 25554 2.62000000 884575931 884575931 -11.00000000
-2.99188995 -0.77041364 -0.48932701 2 6 25556 3.12800000 884575935 884575935 -9.00000000
-3.70860767 -0.95358860 -0.47017193 7 8 25558 3.85800000 884575940 884575940 -7.00000000
-4.86093521 -1.24898040 -0.43909064 3 10 25559 5.03800000 884575944 884575944 -5.00000000
-7.08256388 -1.81717575 -0.38320386 3 12 25561 7.32200000 884575949 884575949 -3.00000000
-10.08360958 -2.58152843 2.78903413 40 15 25564 10.77600000 884575956 884575956 15.00000000
-1.86450672 -0.47525680 -0.51556754 4 0 25570 1.99200000 884575977 884575977 -15.00000000
-2.15669870 -0.54893392 -0.51378822 4 2 25572 2.28400000 884575981 884575981 -13.00000000
-2.49821615 -0.63539445 -0.50106442 4 4 25573 2.62600000 884575986 884575986 -11.00000000
-2.97528243 -0.75562549 -0.48619831 2 6 25575 3.10800000 884575990 884575990 -9.00000000
-3.70982528 -0.94079721 -0.46992818 7 8 25577 3.85600000 884575995 884575995 -7.00000000
-4.85346222 -1.22991753 -0.43804476 3 10 25578 5.02600000 884576000 884576000 -5.00000000
-7.08467865 -1.79269922 -0.38299453 3 12 25580 7.31800000 884576004 884576004 -3.00000000
-10.07293987 -2.54510474 2.78385758 42 15 25582 10.75600000 884576011 884576011 15.00000000
-1.86802793 -0.46921617 -0.51608515 4 0 25590 1.99400000 884576032 884576032 -15.00000000
-2.14348006 -0.53760964 -0.51018900 4 2 25592 2.26800000 884576036 884576036 -13.00000000
-2.50613213 -0.62810206 -0.50220925 3 4 25593 2.63200000 884576041 884576041 -11.00000000
-2.97023678 -0.74331695 -0.48494685 2 6 25595 3.10000000 884576046 884576046 -9.00000000
-3.71693850 -0.92880428 -0.47041565 7 8 25597 3.86000000 884576050 884576050 -7.00000000
-4.87125731 -1.21634710 -0.43926495 3 10 25598 5.04000000 884576055 884576055 -5.00000000
-7.07538939 -1.76409268 -0.38215715 3 12 25600 7.30200000 884576060 884576060 -3.00000000
-8.43771172 -2.10062957 2.32988906 13 15 25602 9.00200000 884576066 884576066 15.00000000
-1.87356663 -0.46296689 -0.51712048 5 0 25612 1.99800000 884576087 884576087 -15.00000000
-2.15120459 -0.53077579 -0.51153868 4 2 25614 2.27400000 884576092 884576092 -13.00000000
-2.50471282 -0.61753464 -0.50144607 3 4 25615 2.62800000 884576096 884576096 -11.00000000
-2.98074150 -0.73379540 -0.48619831 2 6 25617 3.10800000 884576101 884576101 -9.00000000
-3.71469426 -0.91310394 -0.46968445 7 8 25619 3.85400000 884576106 884576106 -7.00000000
-4.87008715 -1.19620812 -0.43874201 6 10 25620 5.03400000 884576110 884576110 -5.00000000
-7.08211088 -1.73691225 -0.38215715 3 12 25622 7.30200000 884576115 884576115 -3.00000000
-8.45921135 -2.06995583 2.33351254 20 15 25625 9.01600000 884576122 884576122 15.00000000
-1.88267946 -0.45825163 -0.51919103 5 0 25632 2.00600000 884576142 884576142 -15.00000000
-2.15115070 -0.52280325 -0.51108879 4 2 25634 2.27200000 884576147 884576147 -13.00000000
-2.49540639 -0.60600793 -0.49915633 3 4 25635 2.61600000 884576152 884576152 -11.00000000
-2.99096370 -0.72524822 -0.48744980 2 6 25637 3.11600000 884576156 884576156 -9.00000000
-3.71400023 -0.89919740 -0.46919698 7 8 25639 3.85000000 884576161 884576161 -7.00000000
-4.90134430 -1.18576002 -0.44118237 6 10 25640 5.06200000 884576166 884576166 -5.00000000
-7.08813095 -1.71218050 -0.38215715 3 12 25642 7.30200000 884576170 884576170 -3.00000000
-10.10782719 -2.43600583 2.78592825 16 15 25645 10.76400000 884576177 884576177 15.00000000
-1.87487447 -0.44942543 -0.51660281 5 0 25652 1.99600000 884576198 884576198 -15.00000000
-2.15106726 -0.51483750 -0.51063889 4 2 25654 2.27000000 884576202 884576202 -13.00000000
-2.50514436 -0.59912026 -0.50068283 3 4 25655 2.62400000 884576207 884576207 -11.00000000
-3.00116253 -0.71663857 -0.48870125 2 6 25657 3.12400000 884576212 884576212 -9.00000000
-3.72290945 -0.88760877 -0.46992818 7 8 25659 3.85600000 884576216 884576216 -7.00000000
-4.90157700 -1.16772044 -0.44083375 6 10 25660 5.05800000 884576221 884576221 -5.00000000
-7.11738062 -1.69297409 -0.38341323 3 12 25662 7.32600000 884576225 884576225 -3.00000000
-10.11814880 -2.40115404 2.78644586 35 15 25665 10.76600000 884576232 884576232 15.00000000
-1.87267148 -0.44199061 -0.51556754 4 0 25672 1.99200000 884576253 884576253 -15.00000000
-2.16043830 -0.50911373 -0.51243848 4 2 25674 2.27800000 884576258 884576258 -13.00000000
-2.51104236 -0.59127200 -0.50144607 3 4 25675 2.62800000 884576262 884576262 -11.00000000
-2.99595404 -0.70434982 -0.48744980 2 6 25677 3.11600000 884576267 884576267 -9.00000000
-3.73371530 -0.87642252 -0.47090313 7 8 25679 3.86400000 884576272 884576272 -7.00000000
-4.88622570 -1.14605391 -0.43909064 6 10 25680 5.03800000 884576276 884576276 -5.00000000
-7.12713623 -1.66903019 -0.38362256 3 12 25682 7.33000000 884576281 884576281 -3.00000000
-9.27052498 -2.16584873 2.55092049 18 15 25685 9.85600000 884576288 884576288 15.00000000
-1.88541675 -0.43840337 -0.51867336 5 0 25691 2.00400000 884576308 884576308 -15.00000000
-2.16211486 -0.50194663 -0.51243848 4 2 25693 2.27800000 884576313 884576313 -13.00000000
-2.51298928 -0.58294183 -0.50144607 3 4 25694 2.62800000 884576318 884576318 -11.00000000
-2.99057531 -0.69262820 -0.48619831 2 6 25696 3.10800000 884576322 884576322 -9.00000000
-3.74820542 -0.86671960 -0.47236559 7 8 25698 3.87600000 884576327 884576327 -7.00000000
-4.89582348 -1.13118994 -0.43961358 6 10 25699 5.04400000 884576331 884576331 -5.00000000
-10.84826183 -2.50451851 2.16415572 28 11 25700 11.34200000 884576334 884576334 11.00000000
-7.12484741 -1.64359081 -0.38320386 3 12 25701 7.32200000 884576336 884576336 -3.00000000
-9.79666710 -2.25813723 2.32104492 30 13 25702 10.31800000 884576338 884576338 13.00000000
-10.11879063 -2.33052707 2.78230476 35 15 25703 10.75000000 884576343 884576343 15.00000000
-1.88128614 -0.43052647 -0.51712048 5 0 25711 1.99800000 884576364 884576364 -15.00000000
-2.15245509 -0.49179202 -0.50973910 4 2 25713 2.26600000 884576368 884576368 -13.00000000
-2.51883674 -0.57504022 -0.50220925 3 4 25714 2.63200000 884576373 884576373 -11.00000000
-2.98912287 -0.68130696 -0.48557258 2 6 25716 3.10400000 884576377 884576377 -9.00000000
-3.73959446 -0.85098785 -0.47090313 7 8 25718 3.86400000 884576382 884576382 -7.00000000
-4.90945578 -1.11630213 -0.44048512 6 10 25719 5.05400000 884576387 884576387 -5.00000000
-7.12664557 -1.61782622 -0.38299453 3 12 25721 7.31800000 884576391 884576391 -3.00000000
-9.79878902 -2.22263336 2.31969523 24 13 25722 10.31200000 884576394 884576394 13.00000000
-10.12914848 -2.29385090 2.78282237 45 15 25724 10.75200000 884576398 884576398 15.00000000
-1.89024174 -0.42598438 -0.51919103 4 0 25730 2.00600000 884576419 884576419 -15.00000000
-2.15407395 -0.48465151 -0.50973910 4 2 25732 2.26600000 884576424 884576424 -13.00000000
-2.52072978 -0.56668431 -0.50220925 3 4 25733 2.63200000 884576428 884576428 -11.00000000
-3.01064014 -0.67571688 -0.48870125 2 6 25735 3.12400000 884576433 884576433 -9.00000000
-3.73464751 -0.83684605 -0.46992818 7 8 25737 3.85600000 884576437 884576437 -7.00000000
-4.91118670 -1.09958041 -0.44031081 3 10 25738 5.05200000 884576442 884576442 -5.00000000
-7.14561558 -1.59723425 -0.38372722 3 12 25740 7.33200000 884576447 884576447 -3.00000000
-10.03813457 -2.24194956 2.37458324 6 13 25741 10.55600000 884576449 884576449 13.00000000
-10.13819027 -2.26243854 2.78333998 42 15 25742 10.75400000 884576454 884576454 15.00000000
-1.88228691 -0.41729295 -0.51660281 4 0 25750 1.99600000 884576474 884576474 -15.00000000
-2.15575266 -0.47712943 -0.50973910 4 2 25752 2.26600000 884576479 884576479 -13.00000000
-2.52269244 -0.55788183 -0.50220925 3 4 25753 2.63200000 884576483 884576483 -11.00000000
-3.01683831 -0.66605538 -0.48932701 2 6 25755 3.12800000 884576488 884576488 -9.00000000
-3.74142313 -0.82465917 -0.47041565 7 8 25757 3.86000000 884576493 884576493 -7.00000000
-4.91888618 -1.08328748 -0.44065943 3 10 25758 5.05600000 884576497 884576497 -5.00000000
-7.15894985 -1.57399726 -0.38414592 3 12 25760 7.34000000 884576502 884576502 -3.00000000
-10.13698006 -2.22319579 2.78075171 42 15 25763 10.74400000 884576509 884576509 15.00000000
-1.87821245 -0.40882981 -0.51504987 4 0 25772 1.99000000 884576530 884576530 -15.00000000
-2.17661190 -0.47298655 -0.51423812 4 2 25774 2.28600000 884576534 884576534 -13.00000000
-2.50563049 -0.54402572 -0.49839309 3 4 25775 2.61200000 884576539 884576539 -11.00000000
-3.01551247 -0.65362978 -0.48870125 2 6 25777 3.12400000 884576543 884576543 -9.00000000
-3.74844241 -0.81112677 -0.47090313 7 8 25779 3.86400000 884576548 884576548 -7.00000000
-4.90743065 -1.06102407 -0.43926495 3 10 25780 5.04000000 884576553 884576553 -5.00000000
-7.17860699 -1.54944706 -0.38487864 7 12 25782 7.35400000 884576557 884576557 -3.00000000
-10.13939476 -2.18480635 2.77919888 45 15 25784 10.73800000 884576564 884576564 15.00000000
-1.88529527 -0.40348399 -0.51660281 5 0 25792 1.99600000 884576585 884576585 -15.00000000
-2.16872096 -0.46335009 -0.51198858 4 2 25794 2.27600000 884576589 884576589 -13.00000000
-2.52479434 -0.53896487 -0.50182766 4 4 25795 2.63000000 884576594 884576594 -11.00000000
-3.01391172 -0.64227629 -0.48807552 2 6 25797 3.12000000 884576599 884576599 -9.00000000
-3.77649212 -0.80340713 -0.47407174 7 8 25799 3.89000000 884576603 884576603 -7.00000000
-4.90330887 -1.04223049 -0.43856770 3 10 25800 5.03200000 884576608 884576608 -5.00000000
-7.19374084 -1.52645242 -0.38540199 7 12 25802 7.36400000 884576612 884576612 -3.00000000
-10.14733410 -2.14762878 2.77919888 45 15 25805 10.73800000 884576619 884576619 15.00000000
-1.89033425 -0.39835590 -0.51763809 4 0 25810 2.00000000 884576640 884576640 -15.00000000
-2.16825891 -0.45613340 -0.51153868 4 2 25812 2.27400000 884576645 884576645 -13.00000000
-2.53223872 -0.53224182 -0.50297248 3 4 25813 2.63600000 884576649 884576649 -11.00000000
-3.01204801 -0.63199335 -0.48744980 2 6 25815 3.11600000 884576654 884576654 -9.00000000
-3.74596763 -0.78462064 -0.46992818 7 8 25817 3.85600000 884576659 884576659 -7.00000000
-4.92020988 -1.02967799 -0.43978786 3 10 25818 5.04600000 884576663 884576663 -5.00000000
-7.21609592 -1.50752103 -0.38634402 7 12 25820 7.38200000 884576668 884576668 -3.00000000
-10.88492393 -2.27199650 2.56714153 13 13 25821 11.41200000 884576670 884576670 13.00000000
-10.15366173 -2.11751175 2.77919888 45 15 25822 10.73800000 884576675 884576675 15.00000000
-1.89928007 -0.39332199 -0.51970863 5 0 25830 2.00800000 884576695 884576695 -15.00000000
-2.16411281 -0.44737843 -0.51018900 4 2 25832 2.26800000 884576700 884576700 -13.00000000
-2.52446795 -0.52141380 -0.50106442 4 4 25833 2.62600000 884576705 884576705 -11.00000000
-3.01810503 -0.62227327 -0.48807552 2 6 25835 3.12000000 884576709 884576709 -9.00000000
-3.76034975 -0.77394104 -0.47139063 7 8 25837 3.86800000 884576714 884576714 -7.00000000
-4.93548346 -1.01490486 -0.44083375 3 10 25838 5.05800000 884576718 884576718 -5.00000000
-10.88659286 -2.23667669 2.16033936 12 11 25839 11.32200000 884576721 884576721 11.00000000
-7.23109674 -1.48433101 -0.38686737 7 12 25840 7.39200000 884576723 884576723 -3.00000000
-10.88515186 -2.23242092 2.56534171 3 13 25841 11.40400000 884576725 884576725 13.00000000
-10.16892433 -2.08183217 2.78126955 45 15 25843 10.74600000 884576730 884576730 15.00000000
-1.88928306 -0.38437897 -0.51660281 4 0 25850 1.99600000 884576751 884576751 -15.00000000
-2.15993190 -0.43865800 -0.50883931 4 2 25852 2.26200000 884576755 884576755 -13.00000000
-2.51665235 -0.51064658 -0.49915633 3 4 25853 2.61600000 884576760 884576760 -11.00000000
-3.01251459 -0.61016577 -0.48682407 2 6 25855 3.11200000 884576765 884576765 -9.00000000
-3.75913692 -0.76002347 -0.47090313 7 8 25857 3.86400000 884576769 884576769 -7.00000000
-4.93704319 -0.99727607 -0.44065943 3 10 25858 5.05600000 884576774 884576774 -5.00000000
-7.29301167 -1.47052908 -0.38990286 7 12 25860 7.45000000 884576778 884576778 -3.00000000
-10.16440964 -2.04581237 2.77816367 45 15 25862 10.73400000 884576785 884576785 15.00000000
-1.88493001 -0.37664619 -0.51504987 5 0 25870 1.99000000 884576806 884576806 -15.00000000
-2.17673874 -0.43416521 -0.51243848 4 2 25872 2.27800000 884576811 884576811 -13.00000000
-2.52997184 -0.50416082 -0.50144607 3 4 25873 2.62800000 884576815 884576815 -11.00000000
-3.01850104 -0.60041720 -0.48744980 2 6 25875 3.11600000 884576820 884576820 -9.00000000
-3.76955533 -0.74844337 -0.47187811 7 8 25877 3.87200000 884576824 884576824 -7.00000000
-4.93072271 -0.97809815 -0.43978786 3 10 25878 5.04600000 884576829 884576829 -5.00000000
-7.44308281 -1.47377002 -0.39764860 12 12 25880 7.59800000 884576834 884576834 -3.00000000
-10.16804886 -2.00779581 2.77712846 45 15 25883 10.73000000 884576841 884576841 15.00000000
-1.88812900 -0.37043619 -0.51556754 5 0 25890 1.99200000 884576861 884576861 -15.00000000
-2.18206573 -0.42731333 -0.51333833 4 2 25892 2.28200000 884576866 884576866 -13.00000000
-2.53942323 -0.49683434 -0.50297248 3 4 25893 2.63600000 884576871 884576871 -11.00000000
-3.02833343 -0.59139144 -0.48870125 2 6 25895 3.12400000 884576875 884576875 -9.00000000
-3.77604175 -0.73604023 -0.47236559 7 8 25897 3.87600000 884576880 884576880 -7.00000000
-4.93997383 -0.96202332 -0.44031081 3 10 25898 5.05200000 884576884 884576884 -5.00000000
-7.52660418 -1.46302366 -0.40183547 56 12 25900 7.67800000 884576889 884576889 -3.00000000
-10.16896152 -1.97296238 2.77557540 42 15 25902 10.72400000 884576896 884576896 15.00000000
-1.89699852 -0.36530435 -0.51763809 4 0 25910 2.00000000 884576917 884576917 -15.00000000
-2.16823435 -0.41675127 -0.50973910 4 2 25912 2.26600000 884576921 884576921 -13.00000000
-2.55078220 -0.48981825 -0.50488061 4 4 25913 2.64600000 884576926 884576926 -11.00000000
-3.03037930 -0.58081698 -0.48870125 2 6 25915 3.12400000 884576930 884576930 -9.00000000
-3.77468848 -0.72210890 -0.47187811 5 8 25917 3.87200000 884576935 884576935 -7.00000000
-4.94721556 -0.94552177 -0.44065943 3 10 25918 5.05600000 884576940 884576940 -5.00000000
-7.46103764 -1.42326903 -0.39806730 12 12 25920 7.60600000 884576944 884576944 -3.00000000
-10.18717289 -1.93962204 2.77868128 42 15 25922 10.73600000 884576951 884576951 15.00000000
-1.90787923 -0.35980782 -0.52022630 4 0 25932 2.01000000 884576972 884576972 -15.00000000
