# .PCD v0.7 - Point Cloud Data file format
VERSION 0.7
FIELDS x y z intensity laser_id azimuth distance_m adjustedtime timestamp vertical_angle
SIZE 4 4 4 1 1 2 8 8 4 8
TYPE F F F U U U F U U F
COUNT 1 1 1 1 1 1 1 1 1 1
WIDTH 543
HEIGHT 1
VIEWPOINT 0 0 0 1 0 0 0
POINTS 543
DATA ascii
8.26362801 -0.66487575 0.72531009 76 5 9460 8.32200000 886431282 886431282 5.00000000
3.90056133 -0.31451690 -0.61979336 6 6 9461 3.96200000 886431284 886431284 -9.00000000
8.25291729 -0.66691351 1.01663411 95 7 9462 8.34200000 886431287 886431287 7.00000000
5.23937130 -0.42431098 -0.64542001 4 8 9463 5.29600000 886431289 886431289 -7.00000000
8.21550083 -0.66677648 -0.72112662 17 10 9464 8.27400000 886431294 886431294 -5.00000000
8.23534775 -0.67128092 -0.43302771 17 12 9466 8.27400000 886431298 886431298 -3.00000000
8.24316502 -0.67481476 -0.14436631 14 14 9468 8.27200000 886431303 886431303 -1.00000000
8.32162476 -0.68123776 2.23723173 54 15 9468 8.64400000 886431305 886431305 15.00000000
2.22936869 -0.18563804 -0.59942490 4 0 9476 2.31600000 886431326 886431326 -15.00000000
8.24608040 -0.68809479 0.14443612 12 1 9477 8.27600000 886431328 886431328 1.00000000
2.59640384 -0.21711344 -0.60151911 5 2 9478 2.67400000 886431330 886431330 -13.00000000
8.25382614 -0.69019181 0.43407443 13 3 9478 8.29400000 886431333 886431333 3.00000000
3.12436700 -0.26181129 -0.60944390 4 4 9479 3.19400000 886431335 886431335 -11.00000000
8.27118397 -0.69455069 0.72618163 76 5 9480 8.33200000 886431337 886431337 5.00000000
3.90140820 -0.32829612 -0.62010622 4 6 9481 3.96400000 886431340 886431340 -9.00000000
8.26438522 -0.69688511 1.01834023 99 7 9482 8.35600000 886431342 886431342 7.00000000
5.22598982 -0.44159436 -0.64395761 4 8 9483 5.28400000 886431344 886431344 -7.00000000
8.23496151 -0.69729906 -0.72304404 17 10 9484 8.29600000 886431349 886431349 -5.00000000
8.23693371 -0.70036197 -0.43323705 17 12 9486 8.27800000 886431354 886431354 -3.00000000
8.24474430 -0.70392489 -0.14443612 14 14 9488 8.27600000 886431358 886431358 -1.00000000
8.32689571 -0.71093887 2.23930240 49 15 9488 8.65200000 886431360 886431360 15.00000000
2.21523476 -0.19224966 -0.59580141 4 0 9496 2.30200000 886431381 886431381 -15.00000000
8.25558090 -0.71791428 0.14464554 12 1 9497 8.28800000 886431383 886431383 1.00000000
2.60339570 -0.22685193 -0.60331875 5 2 9498 2.68200000 886431386 886431386 -13.00000000
8.26317978 -0.72148132 0.43470246 15 3 9499 8.30600000 886431388 886431388 3.00000000
3.10974336 -0.27152038 -0.60677260 4 4 9499 3.18000000 886431390 886431390 -11.00000000
8.26672459 -0.72324467 0.72600734 76 5 9500 8.33000000 886431393 886431393 5.00000000
3.90417409 -0.34225762 -0.62073195 4 6 9501 3.96800000 886431395 886431395 -9.00000000
8.27574539 -0.72694486 1.02004635 95 7 9502 8.37000000 886431397 886431397 7.00000000
5.24419117 -0.46157426 -0.64639497 6 8 9503 5.30400000 886431400 886431400 -7.00000000
8.23049259 -0.72586513 -0.72286975 17 10 9504 8.29400000 886431404 886431404 -5.00000000
8.24040794 -0.72963846 -0.43355107 12 12 9506 8.28400000 886431409 886431409 -3.00000000
8.23626137 -0.73216891 -0.14433140 14 14 9508 8.27000000 886431413 886431413 -1.00000000
8.32615852 -0.74162513 2.23982000 47 15 9509 8.65400000 886431416 886431416 15.00000000
2.20300603 -0.19893862 -0.59269559 4 0 9516 2.29000000 886431436 886431436 -15.00000000
8.26099110 -0.74744803 0.14478517 12 1 9517 8.29600000 886431439 886431439 1.00000000
2.60258794 -0.23593809 -0.60331875 5 2 9518 2.68200000 886431441 886431441 -13.00000000
8.27665424 -0.75032163 0.43553984 13 3 9518 8.32200000 886431443 886431443 3.00000000
3.11855268 -0.28326175 -0.60868067 4 4 9519 3.19000000 886431446 886431446 -11.00000000
8.26613331 -0.75227708 0.72618163 76 5 9520 8.33200000 886431448 886431448 5.00000000
3.89115238 -0.35480738 -0.61885476 4 6 9521 3.95600000 886431450 886431450 -9.00000000
8.28106499 -0.75655061 1.02102137 95 7 9522 8.37800000 886431453 886431453 7.00000000
5.24057102 -0.47969612 -0.64615124 8 8 9523 5.30200000 886431455 886431455 -7.00000000
8.22592545 -0.75440854 -0.72269541 17 10 9524 8.29200000 886431460 886431460 -5.00000000
8.25570965 -0.76004630 -0.43449309 17 12 9526 8.30200000 886431464 886431464 -3.00000000
8.24759388 -0.76220250 -0.14457573 14 14 9528 8.28400000 886431469 886431469 -1.00000000
8.32351875 -0.77068430 2.23982000 47 15 9529 8.65400000 886431471 886431471 15.00000000
2.21775794 -0.20729689 -0.59683675 4 0 9534 2.30600000 886431492 886431492 -15.00000000
8.24665642 -0.77227825 0.14457573 12 1 9535 8.28400000 886431494 886431494 1.00000000
2.59019256 -0.24302095 -0.60061932 5 2 9536 2.67000000 886431496 886431496 -13.00000000
8.27425671 -0.77631974 0.43553984 13 3 9536 8.32200000 886431499 886431499 3.00000000
3.10787416 -0.29213887 -0.60677260 4 4 9537 3.18000000 886431501 886431501 -11.00000000
8.26968002 -0.77880257 0.72670460 76 5 9538 8.33800000 886431503 886431503 5.00000000
3.89788508 -0.36777225 -0.62010622 4 6 9539 3.96400000 886431506 886431506 -9.00000000
8.28655243 -0.78330982 1.02199626 95 7 9540 8.38600000 886431508 886431508 7.00000000
5.22520447 -0.49484736 -0.64444506 8 8 9541 5.28800000 886431510 886431510 -7.00000000
8.23541546 -0.78137642 -0.72374129 17 10 9542 8.30400000 886431515 886431515 -5.00000000
8.37479401 -0.79607558 1.63523304 3 11 9543 8.57000000 886431517 886431517 11.00000000
8.25129318 -0.78578919 -0.43438843 12 12 9544 8.30000000 886431519 886431519 -3.00000000
8.26108360 -0.78963143 -0.14485498 18 14 9546 8.30000000 886431524 886431524 -1.00000000
8.34028721 -0.79867107 2.24499631 47 15 9547 8.67400000 886431526 886431526 15.00000000
2.22086644 -0.21541005 -0.59787202 4 0 9554 2.31000000 886431547 886431547 -15.00000000
8.25585270 -0.80222017 0.14478517 12 1 9555 8.29600000 886431549 886431549 1.00000000
2.58932853 -0.25206092 -0.60061932 5 2 9556 2.67000000 886431552 886431552 -13.00000000
8.28342342 -0.80635864 0.43616787 13 3 9556 8.33400000 886431554 886431554 3.00000000
3.12637544 -0.30489117 -0.61058879 4 4 9557 3.20000000 886431556 886431556 -11.00000000
8.26889420 -0.80785811 0.72687888 76 5 9558 8.34000000 886431559 886431559 5.00000000
3.87691760 -0.37945196 -0.61697751 4 6 9559 3.94400000 886431561 886431561 -9.00000000
8.27586460 -0.81145567 1.02102137 95 7 9560 8.37800000 886431563 886431563 7.00000000
5.21949387 -0.51269561 -0.64395761 8 8 9561 5.28400000 886431566 886431566 -7.00000000
8.23263741 -0.81011862 -0.72374129 17 10 9562 8.30400000 886431570 886431570 -5.00000000
8.25247574 -0.81497937 -0.43459779 17 12 9564 8.30400000 886431575 886431575 -3.00000000
8.26225662 -0.81885767 -0.14492479 14 14 9566 8.30400000 886431579 886431579 -1.00000000
8.33937073 -0.82797015 2.24551415 47 15 9567 8.67600000 886431582 886431582 15.00000000
2.21621776 -0.22316138 -0.59683675 4 0 9575 2.30600000 886431602 886431602 -15.00000000
8.26280403 -0.83347744 0.14495969 12 1 9576 8.30600000 886431605 886431605 1.00000000
2.58838725 -0.26154959 -0.60061932 5 2 9577 2.67000000 886431607 886431607 -13.00000000
8.27445030 -0.83611107 0.43585384 21 3 9577 8.32800000 886431609 886431609 3.00000000
3.11742377 -0.31555697 -0.60906231 4 4 9578 3.19200000 886431612 886431612 -11.00000000
8.28173542 -0.83976769 0.72827339 76 5 9579 8.35600000 886431614 886431614 5.00000000
3.89515352 -0.39565527 -0.62010622 4 6 9580 3.96400000 886431616 886431616 -9.00000000
8.28468418 -0.84298843 1.02248383 92 7 9581 8.39000000 886431618 886431618 7.00000000
5.19783115 -0.52980959 -0.64152020 8 8 9582 5.26400000 886431621 886431621 -7.00000000
11.63198566 -1.18563640 1.85187125 12 9 9582 11.83800000 886431623 886431623 9.00000000
8.24943352 -0.84231114 -0.72548443 17 10 9583 8.32400000 886431625 886431625 -5.00000000
8.25738049 -0.84603500 -0.43501648 17 12 9585 8.31200000 886431630 886431630 -3.00000000
8.26317787 -0.84954387 -0.14499459 14 14 9587 8.30800000 886431635 886431635 -1.00000000
8.35180378 -0.85865551 2.24965525 45 15 9587 8.69200000 886431637 886431637 15.00000000
2.20773935 -0.23009504 -0.59476614 4 0 9595 2.29800000 886431658 886431658 -15.00000000
8.26978874 -0.86335313 0.14513421 15 1 9596 8.31600000 886431660 886431660 1.00000000
2.59521103 -0.27139390 -0.60241890 5 2 9597 2.67800000 886431662 886431662 -13.00000000
8.27942753 -0.86582011 0.43627253 18 3 9597 8.33600000 886431665 886431665 3.00000000
3.09677744 -0.32439154 -0.60524613 4 4 9598 3.17200000 886431667 886431667 -11.00000000
8.28271675 -0.86908704 0.72862202 72 5 9599 8.36000000 886431669 886431669 5.00000000
3.89767790 -0.40966246 -0.62073195 4 6 9600 3.96800000 886431671 886431671 -9.00000000
8.29551029 -0.87335718 1.02418995 90 7 9601 8.40400000 886431674 886431674 7.00000000
5.19989824 -0.54836661 -0.64200771 8 8 9602 5.26800000 886431676 886431676 -7.00000000
11.46668816 -1.20924449 1.82621598 12 9 9602 11.67400000 886431678 886431678 9.00000000
6.79410267 -0.71768582 -0.59771407 12 10 9603 6.85800000 886431681 886431681 -5.00000000
8.26232147 -0.87569553 -0.43543515 12 12 9605 8.32000000 886431685 886431685 -3.00000000
8.25419712 -0.87774819 -0.14488988 14 14 9607 8.30200000 886431690 886431690 -1.00000000
8.34283733 -0.88864678 2.24810219 47 15 9608 8.68600000 886431692 886431692 15.00000000
2.20312285 -0.23700166 -0.59373087 4 0 9614 2.29400000 886431713 886431713 -15.00000000
8.26886940 -0.89098620 0.14516912 12 1 9615 8.31800000 886431715 886431715 1.00000000
2.59817195 -0.28041667 -0.60331875 4 2 9616 2.68200000 886431718 886431718 -13.00000000
8.28231144 -0.89535946 0.43658656 13 3 9617 8.34200000 886431720 886431720 3.00000000
3.11129975 -0.33634713 -0.60829908 4 4 9617 3.18800000 886431722 886431722 -11.00000000
8.27186584 -0.89569080 0.72792476 72 5 9618 8.35200000 886431724 886431724 5.00000000
3.89237022 -0.42215937 -0.62010622 6 6 9619 3.96400000 886431727 886431727 -9.00000000
8.29651546 -0.90129006 1.02467740 90 7 9620 8.40800000 886431729 886431729 7.00000000
5.19607782 -0.56539232 -0.64176399 8 8 9621 5.26600000 886431731 886431731 -7.00000000
11.28391075 -1.22781765 1.79774487 12 9 9621 11.49200000 886431734 886431734 9.00000000
6.73226547 -0.73373592 -0.59248471 16 10 9622 6.79800000 886431736 886431736 -5.00000000
8.26334286 -0.90352374 -0.43564451 12 12 9624 8.32400000 886431741 886431741 -3.00000000
8.26913071 -0.90707767 -0.14520402 14 14 9626 8.32000000 886431745 886431745 -1.00000000
8.34192467 -0.91506279 2.24861979 47 15 9626 8.68800000 886431748 886431748 15.00000000
2.20228195 -0.24469054 -0.59373087 4 0 9634 2.29400000 886431768 886431768 -15.00000000
8.27167034 -0.92050803 0.14527383 12 1 9635 8.32400000 886431771 886431771 1.00000000
2.58943009 -0.28862077 -0.60151911 5 2 9636 2.67400000 886431773 886431773 -13.00000000
8.29104519 -0.92559421 0.43721458 13 3 9637 8.35400000 886431775 886431775 3.00000000
3.11400914 -0.34764117 -0.60906231 4 4 9637 3.19200000 886431777 886431777 -11.00000000
8.28650951 -0.92655218 0.72949356 76 5 9638 8.37000000 886431780 886431780 5.00000000
3.86142635 -0.43244594 -0.61541319 8 6 9639 3.93400000 886431782 886431782 -9.00000000
8.29529190 -0.93046606 1.02492118 90 7 9640 8.41000000 886431784 886431784 7.00000000
5.20196342 -0.58441305 -0.64273894 8 8 9641 5.27400000 886431787 886431787 -7.00000000
11.13014793 -1.25238025 1.77396679 12 9 9642 11.34000000 886431789 886431789 9.00000000
6.74352264 -0.75879085 -0.59370494 12 10 9642 6.81200000 886431791 886431791 -5.00000000
8.27403164 -0.93393081 -0.43637720 17 12 9644 8.33800000 886431796 886431796 -3.00000000
8.27187538 -0.93661177 -0.14530873 12 14 9646 8.32600000 886431801 886431801 -1.00000000
8.35003281 -0.94693744 2.25172567 45 15 9647 8.70000000 886431803 886431803 15.00000000
2.22065163 -0.25418919 -0.59890729 4 0 9653 2.31400000 886431824 886431824 -15.00000000
8.26857281 -0.94793284 0.14527383 12 1 9654 8.32400000 886431826 886431826 1.00000000
2.57684278 -0.29587227 -0.59881973 4 2 9655 2.66200000 886431828 886431828 -13.00000000
8.29586697 -0.95399594 0.43763328 13 3 9656 8.36200000 886431830 886431830 3.00000000
3.10503745 -0.35706854 -0.60753584 4 4 9656 3.18400000 886431833 886431833 -11.00000000
8.28734970 -0.95448202 0.72984219 76 5 9657 8.37400000 886431835 886431835 5.00000000
3.86782050 -0.44615397 -0.61666465 8 6 9658 3.94200000 886431837 886431837 -9.00000000
8.29018879 -0.95774132 1.02467740 90 7 9659 8.40800000 886431840 886431840 7.00000000
5.18422127 -0.59983486 -0.64078903 8 8 9660 5.25800000 886431842 886431842 -7.00000000
10.97898674 -1.27031207 1.75050163 12 9 9660 11.19000000 886431844 886431844 9.00000000
6.75086498 -0.78229576 -0.59457648 12 10 9661 6.82200000 886431847 886431847 -5.00000000
8.25898552 -0.95997977 -0.43574917 17 12 9663 8.32600000 886431851 886431851 -3.00000000
8.28064156 -0.96542656 -0.14551817 12 14 9665 8.33800000 886431856 886431856 -1.00000000
8.35277271 -0.97383630 2.25327849 47 15 9665 8.70600000 886431858 886431858 15.00000000
2.21975088 -0.26193917 -0.59890729 4 0 9673 2.31400000 886431879 886431879 -15.00000000
8.27712917 -0.97819787 0.14548326 12 1 9674 8.33600000 886431881 886431881 1.00000000
2.58159995 -0.30555248 -0.60016942 4 2 9675 2.66800000 886431883 886431883 -13.00000000
8.28455353 -0.98200768 0.43721458 13 3 9676 8.35400000 886431886 886431886 3.00000000
3.09207463 -0.36651838 -0.60524613 4 4 9676 3.17200000 886431888 886431888 -11.00000000
8.30375290 -0.98575318 0.73158532 76 5 9677 8.39400000 886431890 886431890 5.00000000
3.87016273 -0.46011886 -0.61729038 8 6 9678 3.94600000 886431893 886431893 -9.00000000
8.29862213 -0.98808187 1.02613986 90 7 9679 8.42000000 886431895 886431895 7.00000000
5.17815351 -0.61745745 -0.64030153 8 8 9680 5.25400000 886431897 886431897 -7.00000000
10.79772758 -1.28946245 1.72234344 12 9 9681 11.01000000 886431900 886431900 9.00000000
6.75600624 -0.80680090 -0.59527373 16 10 9681 6.83000000 886431902 886431902 -5.00000000
8.26153278 -0.98951572 -0.43606320 12 12 9683 8.33200000 886431906 886431906 -3.00000000
8.28317738 -0.99504107 -0.14562288 14 14 9685 8.34400000 886431911 886431911 -1.00000000
8.36449146 -1.00629020 2.25741982 47 15 9686 8.72200000 886431913 886431913 15.00000000
2.20348120 -0.26782122 -0.59476614 4 0 9693 2.29800000 886431934 886431934 -15.00000000
8.28557396 -1.00853419 0.14569269 12 1 9694 8.34800000 886431936 886431936 1.00000000
2.58438659 -0.31503370 -0.60106921 4 2 9695 2.67200000 886431939 886431939 -13.00000000
8.29495239 -1.01261437 0.43794727 10 3 9696 8.36800000 886431941 886431941 3.00000000
3.09077644 -0.37730950 -0.60524613 4 4 9696 3.17200000 886431943 886431943 -11.00000000
8.30026150 -1.01473272 0.73158532 76 5 9697 8.39400000 886431946 886431946 5.00000000
3.87245440 -0.47410557 -0.61791611 6 6 9698 3.95000000 886431948 886431948 -9.00000000
8.30891514 -1.01873446 1.02784610 92 7 9699 8.43400000 886431950 886431950 7.00000000
5.17596674 -0.63552880 -0.64030153 8 8 9700 5.25400000 886431953 886431953 -7.00000000
10.68555641 -1.31202137 1.70513570 6 9 9700 10.90000000 886431955 886431955 9.00000000
6.73930645 -0.82867676 -0.59405357 24 10 9701 6.81600000 886431957 886431957 -5.00000000
8.43911362 -1.03918314 1.65278757 3 11 9702 8.66200000 886431959 886431959 11.00000000
8.27983379 -1.02103662 -0.43721458 17 12 9703 8.35400000 886431962 886431962 -3.00000000
8.40730762 -1.03824604 1.95572448 3 13 9704 8.69400000 886431964 886431964 13.00000000
8.27568436 -1.02345777 -0.14555307 14 14 9705 8.34000000 886431966 886431966 -1.00000000
8.36494350 -1.03449655 2.25845504 47 15 9705 8.72600000 886431969 886431969 15.00000000
2.19103146 -0.27407247 -0.59166032 4 0 9713 2.28600000 886431989 886431989 -15.00000000
8.28597164 -1.03794730 0.14576250 12 1 9714 8.35200000 886431992 886431992 1.00000000
2.58713818 -0.32453808 -0.60196900 4 2 9715 2.67600000 886431994 886431994 -13.00000000
8.30325794 -1.04305661 0.43857533 10 3 9716 8.38000000 886431996 886431996 3.00000000
3.09333634 -0.38858545 -0.60600936 4 4 9716 3.17600000 886431999 886431999 -11.00000000
8.29469204 -1.04345119 0.73141098 76 5 9717 8.39200000 886432001 886432001 5.00000000
3.86881614 -0.48737317 -0.61760324 6 6 9718 3.94800000 886432003 886432003 -9.00000000
8.31121635 -1.04847717 1.02857721 90 7 9719 8.44000000 886432006 886432006 7.00000000
5.17371702 -0.65359247 -0.64030153 8 8 9720 5.25400000 886432008 886432008 -7.00000000
10.51997566 -1.33084738 1.67948043 12 9 9721 10.73600000 886432010 886432010 9.00000000
8.28810692 -1.05144060 -0.43784261 17 12 9723 8.36600000 886432017 886432017 -3.00000000
8.28793049 -1.05435801 -0.14583232 14 14 9725 8.35600000 886432022 886432022 -1.00000000
8.35534668 -1.06441617 2.25690198 47 15 9726 8.72000000 886432024 886432024 15.00000000
2.20155764 -0.28319776 -0.59476614 4 0 9733 2.29800000 886432045 886432045 -15.00000000
8.27833080 -1.06635344 0.14569269 12 1 9734 8.34800000 886432047 886432047 1.00000000
2.58598971 -0.33356690 -0.60196900 4 2 9735 2.67600000 886432049 886432049 -13.00000000
8.31541252 -1.07408082 0.43941268 10 3 9736 8.39600000 886432052 886432052 3.00000000
3.07638454 -0.39736882 -0.60295641 4 4 9736 3.16000000 886432054 886432054 -11.00000000
8.30087852 -1.07367659 0.73228258 76 5 9737 8.40200000 886432056 886432056 5.00000000
3.86317325 -0.50036740 -0.61697751 4 6 9738 3.94400000 886432059 886432059 -9.00000000
8.31341171 -1.07824826 1.02930844 90 7 9739 8.44600000 886432061 886432061 7.00000000
5.17337227 -0.67190379 -0.64054525 8 8 9740 5.25600000 886432063 886432063 -7.00000000
10.46849060 -1.35961950 1.67197156 30 9 9740 10.68800000 886432065 886432065 9.00000000
11.31683159 -1.47381699 2.21834540 3 11 9742 11.62600000 886432070 886432070 11.00000000
8.27250385 -1.07881546 -0.43721458 17 12 9743 8.35400000 886432072 886432072 -3.00000000
8.44429779 -1.10271811 1.96607220 0 13 9744 8.74000000 886432075 886432075 13.00000000
8.29609680 -1.08483756 -0.14604174 14 14 9745 8.36800000 886432077 886432077 -1.00000000
8.36517906 -1.09387112 2.26052547 47 15 9745 8.73400000 886432079 886432079 15.00000000
2.19672537 -0.29037461 -0.59373087 4 0 9753 2.29400000 886432100 886432100 -15.00000000
8.29438305 -1.09786761 0.14604174 12 1 9754 8.36800000 886432102 886432102 1.00000000
2.57708216 -0.34156746 -0.60016942 4 2 9755 2.66800000 886432105 886432105 -13.00000000
8.31953239 -1.10415161 0.43983138 15 3 9756 8.40400000 886432107 886432107 3.00000000
3.07887101 -0.40862158 -0.60371965 4 4 9756 3.16400000 886432109 886432109 -11.00000000
8.31090546 -1.10448277 0.73350275 76 5 9757 8.41600000 886432112 886432112 5.00000000
3.86140299 -0.51384938 -0.61697751 6 6 9758 3.94400000 886432114 886432114 -9.00000000
8.30369473 -1.10647440 1.02857721 90 7 9759 8.44000000 886432116 886432116 7.00000000
5.17296314 -0.69022065 -0.64078903 8 8 9760 5.25800000 886432118 886432118 -7.00000000
10.36945343 -1.38542259 1.65695381 25 9 9761 10.59200000 886432121 886432121 9.00000000
6.75790691 -0.90289783 -0.59649390 137 10 9761 6.84400000 886432123 886432123 -5.00000000
8.27660561 -1.10874605 -0.43763328 17 12 9763 8.36200000 886432128 886432128 -3.00000000
8.42301464 -1.12985575 1.96202314 0 13 9764 8.72200000 886432130 886432130 13.00000000
8.30415058 -1.11538696 -0.14625117 18 14 9765 8.38000000 886432132 886432132 -1.00000000
8.36877251 -1.12555373 2.26259613 47 15 9766 8.74200000 886432135 886432135 15.00000000
2.20345974 -0.29831108 -0.59580141 4 0 9771 2.30200000 886432155 886432155 -15.00000000
8.29485607 -1.12445700 0.14611155 15 1 9772 8.37200000 886432158 886432158 1.00000000
2.57213426 -0.34913769 -0.59926963 4 2 9773 2.66400000 886432160 886432160 -13.00000000
8.31602192 -1.13028264 0.43983138 15 3 9774 8.40400000 886432162 886432162 3.00000000
3.09313512 -0.42040738 -0.60677260 4 4 9774 3.18000000 886432165 886432165 -11.00000000
8.31726551 -1.13193011 0.73437428 76 5 9775 8.42600000 886432167 886432167 5.00000000
3.85585523 -0.52544433 -0.61635178 4 6 9776 3.94000000 886432169 886432169 -9.00000000
8.31001186 -1.13389754 1.02979600 92 7 9777 8.45000000 886432171 886432171 7.00000000
5.14520073 -0.70297521 -0.63762039 8 8 9778 5.23200000 886432174 886432174 -7.00000000
10.28309536 -1.40495217 1.64381337 28 9 9778 10.50800000 886432176 886432176 9.00000000
10.85165691 -1.48649216 2.12904668 12 11 9780 11.15800000 886432181 886432181 11.00000000
8.28297520 -1.13609934 -0.43815663 17 12 9781 8.37200000 886432183 886432183 -3.00000000
8.43486881 -1.15843296 1.96562231 1 13 9782 8.73800000 886432185 886432185 13.00000000
8.29268169 -1.14037991 -0.14611155 18 14 9783 8.37200000 886432188 886432188 -1.00000000
8.38453484 -1.15301120 2.26777244 47 15 9783 8.76200000 886432190 886432190 15.00000000
2.19857812 -0.30546904 -0.59476614 4 0 9791 2.29800000 886432211 886432211 -15.00000000
8.30276394 -1.15505791 0.14632097 21 1 9792 8.38400000 886432213 886432213 1.00000000
2.57669020 -0.35892054 -0.60061932 4 2 9793 2.67000000 886432215 886432215 -13.00000000
8.31993866 -1.16040766 0.44025007 13 3 9794 8.41200000 886432218 886432218 3.00000000
3.06831551 -0.42794752 -0.60219318 5 4 9794 3.15600000 886432220 886432220 -11.00000000
8.31918335 -1.16178262 0.73489720 76 5 9795 8.43200000 886432222 886432222 5.00000000
3.87747359 -0.54218322 -0.62010622 4 6 9796 3.96400000 886432224 886432224 -9.00000000
8.32173061 -1.16509998 1.03174591 95 7 9797 8.46600000 886432227 886432227 7.00000000
5.15451050 -0.72258455 -0.63908285 6 8 9798 5.24400000 886432229 886432229 -7.00000000
10.19205379 -1.42877197 1.63004708 28 9 9798 10.42000000 886432231 886432231 9.00000000
10.75113869 -1.51097405 2.11034751 12 11 9800 11.06000000 886432236 886432236 11.00000000
8.30664825 -1.16890168 -0.43962204 17 12 9801 8.40000000 886432238 886432238 -3.00000000
8.43656254 -1.18868470 1.96697199 1 13 9802 8.74400000 886432241 886432241 13.00000000
8.28865051 -1.16931987 -0.14611155 16 14 9803 8.37200000 886432243 886432243 -1.00000000
8.37280655 -1.18119216 2.26570201 47 15 9803 8.75400000 886432245 886432245 15.00000000
2.18602324 -0.31150645 -0.59166032 4 0 9811 2.28600000 886432266 886432266 -15.00000000
8.30066109 -1.18431532 0.14635588 18 1 9812 8.38600000 886432268 886432268 1.00000000
2.58313823 -0.36901504 -0.60241890 4 2 9813 2.67800000 886432271 886432271 -13.00000000
8.32374573 -1.19057381 0.44066876 13 3 9814 8.42000000 886432273 886432273 3.00000000
3.06874657 -0.43893331 -0.60257483 5 4 9814 3.15800000 886432275 886432275 -11.00000000
8.31507683 -1.19081497 0.73489720 76 5 9815 8.43200000 886432277 886432277 5.00000000
3.83644986 -0.55010718 -0.61384887 4 6 9816 3.92400000 886432280 886432280 -9.00000000
8.33333206 -1.19639790 1.03369582 95 7 9817 8.48200000 886432282 886432282 7.00000000
5.15588665 -0.74113762 -0.63957030 6 8 9818 5.24800000 886432284 886432284 -7.00000000
10.12418079 -1.45711315 1.62003529 28 9 9819 10.35600000 886432287 886432287 9.00000000
6.74842072 -0.97126007 -0.59649390 16 10 9819 6.84400000 886432289 886432289 -5.00000000
10.65058327 -1.53477252 2.09164810 18 11 9820 10.96200000 886432291 886432291 11.00000000
8.31437778 -1.19960141 -0.44025007 17 12 9821 8.41200000 886432294 886432294 -3.00000000
8.44007683 -1.21924114 1.96877158 2 13 9822 8.75200000 886432296 886432296 13.00000000
8.29441357 -1.19967675 -0.14628607 16 14 9823 8.38200000 886432298 886432298 -1.00000000
8.37628078 -1.21151769 2.26777244 47 15 9823 8.76200000 886432300 886432300 15.00000000
2.19256878 -0.32025203 -0.59373087 4 0 9831 2.29400000 886432321 886432321 -15.00000000
8.30636978 -1.21472967 0.14653040 15 1 9832 8.39600000 886432324 886432324 1.00000000
2.57026529 -0.37633571 -0.59971952 4 2 9833 2.66600000 886432326 886432326 -13.00000000
8.33930111 -1.22251880 0.44171548 13 3 9834 8.44000000 886432328 886432328 3.00000000
3.07690811 -0.45106637 -0.60448289 4 4 9834 3.16800000 886432330 886432330 -11.00000000
8.32269764 -1.22156870 0.73594308 76 5 9835 8.44400000 886432333 886432333 5.00000000
3.83059740 -0.56292111 -0.61322308 4 6 9836 3.92000000 886432335 886432335 -9.00000000
8.33303356 -1.22605729 1.03418326 92 7 9837 8.48600000 886432337 886432337 7.00000000
5.15719604 -0.75970912 -0.64005780 6 8 9838 5.25200000 886432340 886432340 -7.00000000
10.04086399 -1.48091507 1.60752058 28 9 9839 10.27600000 886432342 886432342 9.00000000
6.77455568 -0.99917120 -0.59910858 48 10 9839 6.87400000 886432344 886432344 -5.00000000
10.57524204 -1.56161594 2.07790995 12 11 9840 10.89000000 886432347 886432347 11.00000000
8.30618858 -1.22803259 -0.44004071 17 12 9841 8.40800000 886432349 886432349 -3.00000000
8.44733524 -1.25040710 1.97147107 3 13 9842 8.76400000 886432351 886432351 13.00000000
8.30006599 -1.23008811 -0.14646059 18 14 9843 8.39200000 886432353 886432353 -1.00000000
8.38324928 -1.24391139 2.27087831 47 15 9844 8.77400000 886432356 886432356 15.00000000
2.19520140 -0.32885846 -0.59476614 4 0 9852 2.29800000 886432377 886432377 -15.00000000
8.31966019 -1.24783528 0.14684455 12 1 9853 8.41400000 886432379 886432379 1.00000000
2.55923319 -0.38430673 -0.59746999 4 2 9854 2.65600000 886432381 886432381 -13.00000000
8.33673859 -1.25337267 0.44182014 13 3 9855 8.44200000 886432383 886432383 3.00000000
3.07523417 -0.46234077 -0.60448289 4 4 9855 3.16800000 886432386 886432386 -11.00000000
8.32801533 -1.25354755 0.73681468 76 5 9856 8.45400000 886432388 886432388 5.00000000
3.84413505 -0.57931215 -0.61572605 4 6 9857 3.93600000 886432390 886432390 -9.00000000
8.32063198 -1.25540662 1.03320825 97 7 9858 8.47800000 886432393 886432393 7.00000000
5.14652586 -0.77742010 -0.63908285 6 8 9859 5.24400000 886432395 886432395 -7.00000000
10.00216484 -1.51268518 1.60220182 20 9 9860 10.24200000 886432397 886432397 9.00000000
6.78266764 -1.02578211 -0.60015446 80 10 9860 6.88600000 886432400 886432400 -5.00000000
8.29965687 -1.25816858 -0.43993604 17 12 9862 8.40600000 886432404 886432404 -3.00000000
8.44076920 -1.28106737 1.97102118 3 13 9863 8.76200000 886432406 886432406 13.00000000
8.31131744 -1.26290441 -0.14673984 18 14 9864 8.40800000 886432409 886432409 -1.00000000
8.39413548 -1.27548862 2.27501941 47 15 9864 8.79000000 886432411 886432411 15.00000000
2.18640208 -0.33534762 -0.59269559 4 0 9872 2.29000000 886432432 886432432 -15.00000000
8.31327724 -1.27656519 0.14680964 12 1 9873 8.41200000 886432434 886432434 1.00000000
2.56750655 -0.39471835 -0.59971952 4 2 9874 2.66600000 886432436 886432436 -13.00000000
8.33428669 -1.28276944 0.44192481 13 3 9875 8.44400000 886432439 886432439 3.00000000
3.06195927 -0.47128060 -0.60219318 4 4 9875 3.15600000 886432441 886432441 -11.00000000
8.34328079 -1.28564441 0.73855776 76 5 9876 8.47400000 886432443 886432443 5.00000000
3.84208941 -0.59272712 -0.61572605 4 6 9877 3.93600000 886432446 886432446 -9.00000000
8.33581734 -1.28747344 1.03564572 92 7 9878 8.49800000 886432448 886432448 7.00000000
5.13200998 -0.79355997 -0.63762039 8 8 9879 5.23200000 886432450 886432450 -7.00000000
8.44293308 -1.30703509 1.35315812 5 9 9880 8.65000000 886432453 886432453 9.00000000
6.79873514 -1.05249977 -0.60189754 108 10 9880 6.90600000 886432455 886432455 -5.00000000
8.44909763 -1.30949938 1.66194630 3 11 9881 8.71000000 886432457 886432457 11.00000000
8.30705643 -1.28896964 -0.44056407 17 12 9882 8.41800000 886432459 886432459 -3.00000000
8.43239498 -1.30992508 1.97012138 3 13 9883 8.75800000 886432462 886432462 13.00000000
8.30488300 -1.29160130 -0.14670493 20 14 9884 8.40600000 886432464 886432464 -1.00000000
8.40108585 -1.30656302 2.27812529 47 15 9884 8.80200000 886432466 886432466 15.00000000
2.18915486 -0.34281251 -0.59373087 4 0 9890 2.29400000 886432487 886432487 -15.00000000
8.32503033 -1.30515361 0.14708889 12 1 9891 8.42800000 886432489 886432489 1.00000000
2.56817913 -0.40308461 -0.60016942 4 2 9892 2.66800000 886432492 886432492 -13.00000000
8.34622955 -1.30996954 0.44276220 15 3 9892 8.46000000 886432494 886432494 3.00000000
3.06046343 -0.48089767 -0.60219318 4 4 9893 3.15600000 886432496 886432496 -11.00000000
8.33329582 -1.31092036 0.73803484 76 5 9894 8.46800000 886432499 886432499 5.00000000
3.84996510 -0.60633105 -0.61729038 4 6 9895 3.94600000 886432501 886432501 -9.00000000
8.34741879 -1.31612813 1.03759563 95 7 9896 8.51400000 886432503 886432503 7.00000000
5.13145256 -0.80998826 -0.63786417 8 8 9897 5.23400000 886432505 886432505 -7.00000000
9.85950470 -1.55630064 1.58092666 43 9 9897 10.10600000 886432508 886432508 9.00000000
8.32269287 -1.31818497 -0.44161081 17 12 9900 8.43800000 886432515 886432515 -3.00000000
8.44171047 -1.33854604 1.97327065 3 13 9901 8.77200000 886432517 886432517 13.00000000
8.31855869 -1.32050705 -0.14701907 18 14 9902 8.42400000 886432519 886432519 -1.00000000
8.39693928 -1.33294940 2.27812529 49 15 9902 8.80200000 886432522 886432522 15.00000000
2.17459226 -0.34831324 -0.59010744 4 0 9910 2.28000000 886432542 886432542 -15.00000000
8.32437229 -1.33483863 0.14715870 15 1 9911 8.43200000 886432545 886432545 1.00000000
2.56868052 -0.41235563 -0.60061932 4 2 9912 2.67000000 886432547 886432547 -13.00000000
8.34925938 -1.34181893 0.44318089 13 3 9913 8.46800000 886432549 886432549 3.00000000
3.05101275 -0.49033168 -0.60066670 4 4 9913 3.14800000 886432552 886432552 -11.00000000
8.33456993 -1.34095049 0.73855776 76 5 9914 8.47400000 886432554 886432554 5.00000000
3.83417344 -0.61756736 -0.61510032 4 6 9915 3.93200000 886432556 886432556 -9.00000000
8.35453224 -1.34715402 1.03905797 95 7 9916 8.52600000 886432558 886432558 7.00000000
5.12859392 -0.82789540 -0.63786417 8 8 9917 5.23400000 886432561 886432561 -7.00000000
9.84203434 -1.59053624 1.57904947 69 9 9918 10.09400000 886432563 886432563 9.00000000
6.76800299 -1.09375298 -0.59980583 198 10 9918 6.88200000 886432565 886432565 -5.00000000
8.33184147 -1.34946382 -0.44234350 12 12 9920 8.45200000 886432570 886432570 -3.00000000
8.44083405 -1.36862874 1.97417045 4 13 9921 8.77600000 886432572 886432572 13.00000000
8.31784630 -1.35017693 -0.14708889 18 14 9922 8.42800000 886432575 886432575 -1.00000000
8.39199734 -1.36371672 2.27812529 49 15 9923 8.80200000 886432577 886432577 15.00000000
2.17908239 -0.35683843 -0.59166032 4 0 9930 2.28600000 886432598 886432598 -15.00000000
8.31176853 -1.36259389 0.14701907 18 1 9931 8.42400000 886432600 886432600 1.00000000
2.56337929 -0.42068830 -0.59971952 4 2 9932 2.66600000 886432602 886432602 -13.00000000
8.35264778 -1.37079251 0.44359955 15 3 9932 8.47600000 886432605 886432605 3.00000000
3.06478071 -0.50352496 -0.60371965 4 4 9933 3.16400000 886432607 886432607 -11.00000000
8.33770275 -1.37132871 0.73925501 83 5 9934 8.48200000 886432609 886432609 5.00000000
3.82029963 -0.62902176 -0.61322308 2 6 9935 3.92000000 886432611 886432611 -9.00000000
8.34586143 -1.37566292 1.03857052 97 7 9936 8.52200000 886432614 886432614 7.00000000
5.12567282 -0.84579247 -0.63786417 8 8 9937 5.23400000 886432616 886432616 -7.00000000
9.82277966 -1.62262797 1.57685935 77 9 9938 10.08000000 886432618 886432618 9.00000000
10.12830162 -1.67491329 1.99548042 3 11 9939 10.45800000 886432623 886432623 11.00000000
8.32510948 -1.37821305 -0.44223884 17 12 9940 8.45000000 886432625 886432625 -3.00000000
8.45330811 -1.40095198 1.97821963 4 13 9941 8.79400000 886432628 886432628 13.00000000
8.32689190 -1.38149452 -0.14733322 16 14 9942 8.44200000 886432630 886432630 -1.00000000
8.40267563 -1.39406765 2.28226638 49 15 9942 8.81800000 886432632 886432632 15.00000000
2.18735027 -0.36603692 -0.59424853 4 0 9950 2.29600000 886432653 886432653 -15.00000000
8.32471180 -1.39457262 0.14733322 15 1 9951 8.44200000 886432655 886432655 1.00000000
2.55420756 -0.42834440 -0.59791988 4 2 9952 2.65800000 886432657 886432657 -13.00000000
8.35963058 -1.40192235 0.44422761 13 3 9952 8.48800000 886432660 886432660 3.00000000
3.05913210 -0.51356989 -0.60295641 4 4 9953 3.16000000 886432662 886432662 -11.00000000
8.34858322 -1.40306604 0.74064952 76 5 9954 8.49800000 886432664 886432664 5.00000000
3.81613255 -0.64202553 -0.61291021 4 6 9955 3.91800000 886432667 886432667 -9.00000000
8.35275364 -1.40676510 1.04003298 95 7 9956 8.53400000 886432669 886432669 7.00000000
5.11681652 -0.86268920 -0.63713294 8 8 9957 5.22800000 886432671 886432671 -7.00000000
9.81121159 -1.65591979 1.57592082 92 9 9958 10.07400000 886432674 886432674 9.00000000
6.76806068 -1.14230180 -0.60050309 40 10 9958 6.89000000 886432676 886432676 -5.00000000
10.01592350 -1.69226849 1.97449148 6 11 9959 10.34800000 886432678 886432678 11.00000000
8.32221794 -1.40759778 -0.44234350 21 12 9960 8.45200000 886432681 886432681 -3.00000000
8.45220947 -1.43110156 1.97911942 4 13 9961 8.79800000 886432683 886432683 13.00000000
8.33779144 -1.41322577 -0.14761245 16 14 9962 8.45800000 886432685 886432685 -1.00000000
8.40918636 -1.42532694 2.28537226 47 15 9962 8.83000000 886432687 886432687 15.00000000
2.18986773 -0.37432095 -0.59528381 4 0 9970 2.30000000 886432708 886432708 -15.00000000
8.34147453 -1.42733276 0.14771716 25 1 9971 8.46400000 886432710 886432710 1.00000000
2.55269694 -0.43725762 -0.59791988 4 2 9972 2.65800000 886432713 886432713 -13.00000000
8.35049915 -1.43187737 0.44401824 15 3 9973 8.48400000 886432715 886432715 3.00000000
3.04958081 -0.52291793 -0.60142994 4 4 9973 3.15200000 886432717 886432717 -11.00000000
8.35934448 -1.43489611 0.74204397 76 5 9974 8.51400000 886432720 886432720 5.00000000
3.81776190 -0.65601146 -0.61353600 4 6 9975 3.92200000 886432722 886432722 -9.00000000
8.35170555 -1.43658614 1.04052043 97 7 9976 8.53800000 886432724 886432724 7.00000000
5.11181784 -0.88020813 -0.63688916 6 8 9977 5.22600000 886432727 886432727 -7.00000000
9.78814602 -1.68542898 1.57310498 94 9 9977 10.05600000 886432729 886432729 9.00000000
6.77777576 -1.16828883 -0.60172325 40 10 9978 6.90400000 886432731 886432731 -5.00000000
9.96932697 -1.72020996 1.96647751 21 11 9979 10.30600000 886432734 886432734 11.00000000
8.32906246 -1.43867886 -0.44297153 21 12 9980 8.46400000 886432736 886432736 -3.00000000
8.44716167 -1.46059656 1.97911942 4 13 9981 8.79800000 886432738 886432738 13.00000000
8.31901455 -1.43993413 -0.14736812 14 14 9982 8.44400000 886432740 886432740 -1.00000000
8.41913414 -1.45877707 2.28951335 47 15 9983 8.84600000 886432743 886432743 15.00000000
2.18283868 -0.38096631 -0.59373087 4 0 9990 2.29400000 886432763 886432763 -15.00000000
8.34235096 -1.45747375 0.14782189 18 1 9991 8.47000000 886432766 886432766 1.00000000
2.56075311 -0.44784412 -0.60016942 3 2 9992 2.66800000 886432768 886432768 -13.00000000
8.34963989 -1.46024895 0.44422761 13 3 9992 8.48800000 886432770 886432770 3.00000000
3.04386926 -0.53288269 -0.60066670 4 4 9993 3.14800000 886432773 886432773 -11.00000000
8.35624695 -1.46441078 0.74221832 76 5 9994 8.51600000 886432775 886432775 5.00000000
3.82906842 -0.67172325 -0.61572605 4 6 9995 3.93600000 886432777 886432777 -9.00000000
8.35837078 -1.46779037 1.04198289 92 7 9996 8.55000000 886432780 886432780 7.00000000
5.12435532 -0.90079582 -0.63883913 4 8 9997 5.24200000 886432782 886432782 -7.00000000
9.76828480 -1.71889651 1.57091486 83 9 9998 10.04200000 886432784 886432784 9.00000000
6.78150558 -1.19332170 -0.60242051 12 10 9998 6.91200000 886432787 886432787 -5.00000000
9.95746136 -1.75397718 1.96533263 43 11 9999 10.30000000 886432789 886432789 11.00000000
8.32989025 -1.46878433 -0.44328555 21 12 10000 8.47000000 886432791 886432791 -3.00000000
8.46312237 -1.49379981 1.98406827 3 13 10001 8.82000000 886432793 886432793 13.00000000
8.32969189 -1.47174752 -0.14764735 14 14 10002 8.46000000 886432796 886432796 -1.00000000
8.41779518 -1.48882937 2.29054856 47 15 10003 8.85000000 886432798 886432798 15.00000000
2.16634750 -0.38549519 -0.58958977 4 0 10009 2.27800000 886432819 886432819 -15.00000000
8.33747196 -1.48512995 0.14782189 25 1 10010 8.47000000 886432821 886432821 1.00000000
2.55541682 -0.45564926 -0.59926963 3 2 10011 2.66400000 886432823 886432823 -13.00000000
8.37621117 -1.49353886 0.44590235 15 3 10011 8.52000000 886432826 886432826 3.00000000
3.04981613 -0.54435343 -0.60219318 4 4 10012 3.15600000 886432828 886432828 -11.00000000
8.35722923 -1.49316430 0.74274123 76 5 10013 8.52200000 886432830 886432830 5.00000000
3.80737472 -0.68093944 -0.61259735 6 6 10014 3.91600000 886432833 886432833 -9.00000000
8.37299824 -1.49899793 1.04442024 97 7 10015 8.57000000 886432835 886432835 7.00000000
5.09789228 -0.91358185 -0.63591421 4 8 10016 5.21800000 886432837 886432837 -7.00000000
9.77255821 -1.75131822 1.57247925 97 9 10016 10.05200000 886432840 886432840 9.00000000
6.78731632 -1.21756244 -0.60329205 48 10 10017 6.92200000 886432842 886432842 -5.00000000
9.94192791 -1.78525269 1.96342456 50 11 10018 10.29000000 886432844 886432844 11.00000000
8.33873367 -1.49887264 -0.44401824 21 12 10019 8.48400000 886432846 886432846 -3.00000000
8.46195793 -1.52254653 1.98496807 3 13 10020 8.82400000 886432849 886432849 13.00000000
8.32279682 -1.49900723 -0.14761245 18 14 10021 8.45800000 886432851 886432851 -1.00000000
8.41281128 -1.51673567 2.29054856 47 15 10022 8.85000000 886432853 886432853 15.00000000
2.17069101 -0.39409006 -0.59114271 4 0 10029 2.28400000 886432874 886432874 -15.00000000
8.33420467 -1.51458168 0.14785679 15 1 10030 8.47200000 886432876 886432876 1.00000000
2.56148005 -0.46596164 -0.60106921 4 2 10031 2.67200000 886432879 886432879 -13.00000000
8.37684155 -1.52384055 0.44621637 13 3 10031 8.52600000 886432881 886432881 3.00000000
3.05369186 -0.55605108 -0.60333806 5 4 10032 3.16200000 886432883 886432883 -11.00000000
8.36372662 -1.52447104 0.74378711 76 5 10033 8.53400000 886432886 886432886 5.00000000
3.78748488 -0.69103450 -0.60978156 6 6 10034 3.89800000 886432888 886432888 -9.00000000
8.37552547 -1.52964258 1.04539526 90 7 10035 8.57800000 886432890 886432890 7.00000000
5.10248327 -0.93279916 -0.63688916 4 8 10036 5.22600000 886432893 886432893 -7.00000000
9.76638603 -1.78542018 1.57247925 100 9 10036 10.05200000 886432895 886432895 9.00000000
9.91632462 -1.81640840 1.95960844 56 11 10038 10.27000000 886432899 886432899 11.00000000
8.33738041 -1.52869153 -0.44422761 25 12 10039 8.48800000 886432902 886432902 -3.00000000
8.47575855 -1.55559289 1.98946714 3 13 10040 8.84400000 886432904 886432904 13.00000000
8.33914852 -1.53202474 -0.14799641 16 14 10041 8.48000000 886432906 886432906 -1.00000000
8.42266560 -1.54888773 2.29468966 47 15 10042 8.86600000 886432909 886432909 15.00000000
2.17500091 -0.40271994 -0.59269559 4 0 10049 2.29000000 886432929 886432929 -15.00000000
8.33869743 -1.54548633 0.14803131 15 1 10050 8.48200000 886432932 886432932 1.00000000
2.54642558 -0.47241178 -0.59791988 4 2 10051 2.65800000 886432934 886432934 -13.00000000
8.37147141 -1.55307186 0.44621637 13 3 10051 8.52600000 886432936 886432936 3.00000000
3.04401135 -0.56527328 -0.60181159 5 4 10052 3.15400000 886432939 886432939 -11.00000000
8.37598419 -1.55693364 0.74535590 76 5 10053 8.55200000 886432941 886432941 5.00000000
3.79864407 -0.70678043 -0.61197162 6 6 10054 3.91200000 886432943 886432943 -9.00000000
8.36623192 -1.55814230 1.04490781 95 7 10055 8.57400000 886432945 886432945 7.00000000
5.09529305 -0.94987690 -0.63640171 4 8 10056 5.22200000 886432948 886432948 -7.00000000
9.77174568 -1.82167244 1.57435644 100 9 10056 10.06400000 886432950 886432950 9.00000000
9.90992355 -1.85101175 1.95960844 53 11 10058 10.27000000 886432955 886432955 11.00000000
8.33395672 -1.55815208 -0.44433227 29 12 10059 8.49000000 886432957 886432957 -3.00000000
8.47027683 -1.58516932 1.98946714 3 13 10060 8.84400000 886432959 886432959 13.00000000
8.34947395 -1.56406999 -0.14827564 14 14 10061 8.49600000 886432962 886432962 -1.00000000
8.43457317 -1.58001113 2.29934835 47 15 10061 8.88400000 886432964 886432964 15.00000000
2.18687010 -0.41281810 -0.59631908 4 0 10069 2.30400000 886432985 886432985 -15.00000000
8.34700680 -1.57718337 0.14827564 12 1 10070 8.49600000 886432987 886432987 1.00000000
2.54859066 -0.48202190 -0.59881973 4 2 10071 2.66200000 886432989 886432989 -13.00000000
8.36011219 -1.58117080 0.44590235 13 3 10071 8.52000000 886432992 886432992 3.00000000
3.04394865 -0.57626063 -0.60219318 5 4 10072 3.15600000 886432994 886432994 -11.00000000
8.37441349 -1.58690369 0.74570453 76 5 10073 8.55600000 886432996 886432996 5.00000000
3.80391693 -0.72150838 -0.61322308 6 6 10074 3.92000000 886432998 886432998 -9.00000000
8.37634373 -1.59029865 1.04685771 90 7 10075 8.59000000 886433001 886433001 7.00000000
5.07829475 -0.96506274 -0.63469553 6 8 10076 5.20800000 886433003 886433003 -7.00000000
9.76338673 -1.85540235 1.57404363 83 9 10076 10.06200000 886433005 886433005 9.00000000
6.80355358 -1.29415572 -0.60590672 174 10 10077 6.95200000 886433008 886433008 -5.00000000
9.90725899 -1.88632691 1.96037161 56 11 10078 10.27400000 886433010 886433010 11.00000000
8.34023857 -1.58947706 -0.44496030 21 12 10079 8.50200000 886433012 886433012 -3.00000000
8.35181999 -1.59470570 -0.14841527 14 14 10081 8.50400000 886433017 886433017 -1.00000000
8.44011021 -1.61309063 2.30245423 45 15 10082 8.89600000 886433019 886433019 15.00000000
2.16265106 -0.41606951 -0.59010744 4 0 10089 2.28000000 886433040 886433040 -15.00000000
8.36894131 -1.61160409 0.14876431 12 1 10090 8.52400000 886433042 886433042 1.00000000
2.54689240 -0.49091521 -0.59881973 4 2 10091 2.66200000 886433045 886433045 -13.00000000
8.37191010 -1.61520672 0.44684440 15 3 10092 8.53800000 886433047 886433047 3.00000000
3.03613544 -0.58576673 -0.60104835 5 4 10092 3.15000000 886433049 886433049 -11.00000000
8.37469196 -1.61725950 0.74622744 72 5 10093 8.56200000 886433051 886433051 5.00000000
3.79167771 -0.73290765 -0.61165875 8 6 10094 3.91000000 886433054 886433054 -9.00000000
8.39023113 -1.62329853 1.04929507 90 7 10095 8.61000000 886433056 886433056 7.00000000
5.08463955 -0.98467046 -0.63591421 4 8 10096 5.21800000 886433058 886433058 -7.00000000
9.76072884 -1.89022279 1.57466936 77 9 10096 10.06600000 886433061 886433061 9.00000000
9.90639687 -1.92202008 1.96151650 59 11 10098 10.28000000 886433065 886433065 11.00000000
8.35032463 -1.62162626 -0.44579768 17 12 10099 8.51800000 886433068 886433068 -3.00000000
8.35012913 -1.62461305 -0.14848508 14 14 10101 8.50800000 886433072 886433072 -1.00000000
8.43471432 -1.64107025 2.30245423 47 15 10101 8.89600000 886433075 886433075 15.00000000
2.14791512 -0.42101488 -0.58648396 4 0 10109 2.26600000 886433095 886433095 -15.00000000
8.35541534 -1.63926733 0.14862469 12 1 10110 8.51600000 886433098 886433098 1.00000000
2.54898787 -0.50055355 -0.59971952 4 2 10111 2.66600000 886433100 886433100 -13.00000000
8.38973808 -1.64904273 0.44810045 15 3 10112 8.56200000 886433102 886433102 3.00000000
3.03792500 -0.59711850 -0.60181159 6 4 10112 3.15400000 886433104 886433104 -11.00000000
8.36313057 -1.64532888 0.74570453 72 5 10113 8.55600000 886433107 886433107 5.00000000
3.78521991 -0.74537534 -0.61103302 8 6 10114 3.90600000 886433109 886433109 -9.00000000
8.39035702 -1.65372765 1.05002630 87 7 10115 8.61600000 886433111 886433111 7.00000000
5.08506680 -1.00318158 -0.63640171 4 8 10116 5.22200000 886433114 886433114 -7.00000000
9.76536274 -1.92828095 1.57654655 71 9 10117 10.07800000 886433116 886433116 9.00000000
9.89962673 -1.95658815 1.96151650 59 11 10118 10.28000000 886433121 886433121 11.00000000
8.35636902 -1.65309000 -0.44642571 17 12 10119 8.53000000 886433123 886433123 -3.00000000
8.35225296 -1.65530562 -0.14862469 14 14 10121 8.51600000 886433128 886433128 -1.00000000
8.42674828 -1.67159808 2.30193663 47 15 10122 8.89400000 886433130 886433130 15.00000000
2.16537714 -0.43229201 -0.59166032 4 0 10129 2.28600000 886433151 886433151 -15.00000000
8.35748672 -1.66999054 0.14876431 12 1 10130 8.52400000 886433153 886433153 1.00000000
2.54340315 -0.50868374 -0.59881973 4 2 10131 2.66200000 886433155 886433155 -13.00000000
8.39176464 -1.67988646 0.44851914 10 3 10132 8.57000000 886433157 886433157 3.00000000
3.03774714 -0.60810459 -0.60219318 5 4 10132 3.15600000 886433160 886433160 -11.00000000
8.37101173 -1.67725170 0.74692470 72 5 10133 8.57000000 886433162 886433162 5.00000000
3.77097416 -0.75625312 -0.60915583 8 6 10134 3.89400000 886433164 886433164 -9.00000000
8.39231777 -1.68456805 1.05100119 87 7 10135 8.62400000 886433167 886433167 7.00000000
5.06207180 -1.01701558 -0.63396430 4 8 10136 5.20200000 886433169 886433169 -7.00000000
9.76666164 -1.96220982 1.57779801 66 9 10136 10.08600000 886433171 886433171 9.00000000
6.78572178 -1.36454451 -0.60555810 12 10 10137 6.94800000 886433174 886433174 -5.00000000
9.89658642 -1.99190712 1.96227968 62 11 10138 10.28400000 886433176 886433176 11.00000000
8.35446358 -1.68303788 -0.44663504 17 12 10139 8.53400000 886433178 886433178 -3.00000000
8.36406517 -1.68801069 -0.14893883 16 14 10141 8.53400000 886433183 886433183 -1.00000000
8.43630791 -1.70259035 2.30607772 47 15 10141 8.91000000 886433185 886433185 15.00000000
2.16385484 -0.43984798 -0.59166032 4 0 10149 2.28600000 886433206 886433206 -15.00000000
8.35944462 -1.70074809 0.14890394 12 1 10150 8.53200000 886433208 886433208 1.00000000
2.53397393 -0.51600337 -0.59702009 4 2 10151 2.65400000 886433210 886433210 -13.00000000
8.38584995 -1.70916891 0.44851914 10 3 10152 8.57000000 886433213 886433213 3.00000000
3.02406383 -0.61635208 -0.59990346 5 4 10152 3.14400000 886433215 886433215 -11.00000000
8.37681866 -1.70885122 0.74797058 72 5 10153 8.58200000 886433217 886433217 5.00000000
3.77024674 -0.76980686 -0.60946870 8 6 10154 3.89600000 886433220 886433220 -9.00000000
8.38444138 -1.71345496 1.05075753 90 7 10155 8.62200000 886433222 886433222 7.00000000
5.05071163 -1.03308809 -0.63298935 6 8 10156 5.19400000 886433224 886433224 -7.00000000
9.78069210 -2.00235128 1.58123958 74 9 10157 10.10800000 886433227 886433227 9.00000000
6.80238819 -1.39261842 -0.60747552 16 10 10157 6.97000000 886433229 886433229 -5.00000000
9.88572598 -2.02565217 1.96151650 62 11 10158 10.28000000 886433231 886433231 11.00000000
8.34462452 -1.71138763 -0.44642571 17 12 10159 8.53000000 886433233 886433233 -3.00000000
8.36791611 -1.71920860 -0.14911336 18 14 10161 8.54400000 886433238 886433238 -1.00000000
8.44514942 -1.73661244 2.31021881 47 15 10162 8.92600000 886433240 886433240 15.00000000
2.17373538 -0.44936770 -0.59476614 4 0 10168 2.29800000 886433261 886433261 -15.00000000
8.36550808 -1.73089075 0.14911336 12 1 10169 8.54400000 886433263 886433263 1.00000000
2.53224874 -0.52440351 -0.59702009 4 2 10170 2.65400000 886433266 886433266 -13.00000000
8.37817955 -1.73656273 0.44841447 10 3 10171 8.56800000 886433268 886433268 3.00000000
3.01239133 -0.62438458 -0.59799540 4 4 10171 3.13400000 886433270 886433270 -11.00000000
8.38671303 -1.73985803 0.74936509 76 5 10172 8.59800000 886433273 886433273 5.00000000
3.77347565 -0.78351003 -0.61040729 8 6 10173 3.90200000 886433275 886433275 -9.00000000
8.39426231 -1.74448061 1.05270743 90 7 10174 8.63800000 886433277 886433277 7.00000000
5.04920149 -1.05023551 -0.63323313 6 8 10175 5.19600000 886433280 886433280 -7.00000000
9.77628708 -2.03347063 1.58155239 80 9 10175 10.11000000 886433282 886433282 9.00000000
6.81723833 -1.41922903 -0.60921866 12 10 10176 6.99000000 886433284 886433284 -5.00000000
9.89048672 -2.06082630 1.96380615 59 11 10177 10.29200000 886433286 886433286 11.00000000
8.35649967 -1.74271977 -0.44736776 17 12 10178 8.54800000 886433289 886433289 -3.00000000
8.36608410 -1.74776602 -0.14918317 18 14 10180 8.54800000 886433293 886433293 -1.00000000
8.45856190 -1.76708567 2.31539512 47 15 10180 8.94600000 886433296 886433296 15.00000000
2.16081071 -0.45456654 -0.59166032 4 0 10188 2.28600000 886433316 886433316 -15.00000000
8.37898254 -1.76420128 0.14946240 12 1 10189 8.56400000 886433319 886433319 1.00000000
2.52849603 -0.53283769 -0.59657019 3 2 10190 2.65200000 886433321 886433321 -13.00000000
8.38965511 -1.76950705 0.44935653 13 3 10191 8.58600000 886433323 886433323 3.00000000
3.01595640 -0.63611150 -0.59914023 5 4 10191 3.14000000 886433326 886433326 -11.00000000
8.38838577 -1.77076852 0.75006235 76 5 10192 8.60600000 886433328 886433328 5.00000000
3.77458310 -0.79749382 -0.61103302 8 6 10193 3.90600000 886433330 886433330 -9.00000000
