# .PCD v0.7 - Point Cloud Data file format
VERSION 0.7
FIELDS x y z intensity laser_id azimuth distance_m adjustedtime timestamp vertical_angle
SIZE 4 4 4 1 1 2 8 8 4 8
TYPE F F F U U U F U U F
COUNT 1 1 1 1 1 1 1 1 1 1
WIDTH 551
HEIGHT 1
VIEWPOINT 0 0 0 1 0 0 0
POINTS 551
DATA ascii
8.04273319 1.12460721 0.71049362 79 5 8204 8.15200000 886027731 886027731 5.00000000
3.98908257 0.55707955 -0.63793975 4 6 8205 4.07800000 886027733 886027733 -9.00000000
8.06281948 1.12454653 0.99957234 92 7 8206 8.20200000 886027735 886027735 7.00000000
5.33602142 0.74328208 -0.66150677 9 8 8207 5.42800000 886027737 886027737 -7.00000000
6.54966450 0.91117144 -0.57853985 12 10 8208 6.63800000 886027742 886027742 -5.00000000
8.03784943 1.11534369 -0.42528197 17 12 8210 8.12600000 886027747 886027747 -3.00000000
8.02031231 1.11005688 -0.14132959 16 14 8212 8.09800000 886027751 886027751 -1.00000000
8.10605145 1.12192369 2.19271493 47 15 8212 8.47200000 886027754 886027754 15.00000000
2.23361206 0.30596679 -0.60408366 4 0 8220 2.33400000 886027774 886027774 -15.00000000
8.03789520 1.09962559 0.14160882 28 1 8221 8.11400000 886027777 886027777 1.00000000
2.63361430 0.35982376 -0.61366647 7 2 8222 2.72800000 886027779 886027779 -13.00000000
8.05223274 1.09872377 0.42591003 42 3 8223 8.13800000 886027781 886027781 3.00000000
3.15127134 0.42998964 -0.61822116 6 4 8223 3.24000000 886027784 886027784 -11.00000000
8.05055809 1.09706402 0.71084225 76 5 8224 8.15600000 886027786 886027786 5.00000000
3.97338676 0.54075420 -0.63512391 4 6 8225 4.06000000 886027788 886027788 -9.00000000
8.06669521 1.09639513 0.99957234 95 7 8226 8.20200000 886027790 886027790 7.00000000
5.33858347 0.72465140 -0.66150677 9 8 8227 5.42800000 886027793 886027793 -7.00000000
6.57254839 0.89097971 -0.58028293 4 10 8228 6.65800000 886027797 886027797 -5.00000000
8.04565239 1.08781481 -0.42549133 17 12 8230 8.13000000 886027802 886027802 -3.00000000
8.03008270 1.08285570 -0.14143430 18 14 8232 8.10400000 886027807 886027807 -1.00000000
8.10628033 1.09169030 2.19167972 47 15 8233 8.46800000 886027809 886027809 15.00000000
2.23471856 0.29777816 -0.60408366 4 0 8241 2.33400000 886027830 886027830 -15.00000000
8.03790760 1.06963027 0.14153902 25 1 8242 8.11000000 886027832 886027832 1.00000000
2.63105202 0.34965524 -0.61276668 7 2 8243 2.72400000 886027834 886027834 -13.00000000
8.06591797 1.07192504 0.42643338 39 3 8243 8.14800000 886027837 886027837 3.00000000
3.16061091 0.41946995 -0.61974764 5 4 8244 3.24800000 886027839 886027839 -11.00000000
8.04662514 1.06650281 0.71014500 79 5 8245 8.14800000 886027841 886027841 5.00000000
3.96359229 0.52463216 -0.63324672 6 6 8246 4.04800000 886027843 886027843 -9.00000000
8.06278801 1.06578135 0.99859738 95 7 8247 8.19400000 886027846 886027846 7.00000000
5.33726740 0.70456004 -0.66101933 9 8 8248 5.42400000 886027848 886027848 -7.00000000
8.01378727 1.05645800 -0.70718169 17 10 8249 8.11400000 886027853 886027853 -5.00000000
8.02978325 1.05571520 -0.42444462 17 12 8251 8.11000000 886027857 886027857 -3.00000000
8.04391193 1.05471659 -0.14160882 20 14 8253 8.11400000 886027862 886027862 -1.00000000
8.11004162 1.06338751 2.19167972 47 15 8253 8.46800000 886027864 886027864 15.00000000
2.24723911 0.29146659 -0.60718948 4 0 8261 2.34600000 886027885 886027885 -15.00000000
8.02969360 1.04002512 0.14132959 18 1 8262 8.09800000 886027887 886027887 1.00000000
2.61679530 0.33846921 -0.60916746 7 2 8263 2.70800000 886027889 886027889 -13.00000000
8.06168747 1.04273844 0.42601469 31 3 8263 8.14000000 886027892 886027892 3.00000000
3.17763257 0.41044679 -0.62280059 5 4 8264 3.26400000 886027894 886027894 -11.00000000
8.05622673 1.03917301 0.71066791 76 5 8265 8.15400000 886027896 886027896 5.00000000
3.97715449 0.51230764 -0.63512391 6 6 8266 4.06000000 886027899 886027899 -9.00000000
8.06252098 1.03712392 0.99810994 97 7 8267 8.19000000 886027901 886027901 7.00000000
5.34363222 0.68643105 -0.66150677 9 8 8268 5.42800000 886027903 886027903 -7.00000000
8.01742649 1.02847826 -0.70718169 17 10 8269 8.11400000 886027908 886027908 -5.00000000
8.03341866 1.02767968 -0.42444462 17 12 8271 8.11000000 886027913 886027913 -3.00000000
8.04952812 1.02688468 -0.14164373 18 14 8273 8.11600000 886027917 886027917 -1.00000000
8.11753654 1.03556061 2.19271493 47 15 8273 8.47200000 886027919 886027919 15.00000000
2.24824286 0.28362048 -0.60718948 4 0 8281 2.34600000 886027940 886027940 -15.00000000
8.05311489 1.01448917 0.14167863 28 1 8282 8.11800000 886027942 886027942 1.00000000
2.61989427 0.32957605 -0.60961735 9 2 8283 2.71000000 886027945 886027945 -13.00000000
8.05554676 1.01193917 0.42549133 34 3 8284 8.13000000 886027947 886027947 3.00000000
3.15761852 0.39666057 -0.61860275 6 4 8284 3.24200000 886027949 886027949 -11.00000000
8.05980492 1.01104522 0.71066791 76 5 8285 8.15400000 886027952 886027952 5.00000000
3.97891855 0.49842167 -0.63512391 6 6 8286 4.06000000 886027954 886027954 -9.00000000
8.06215286 1.00848138 0.99762243 95 7 8287 8.18600000 886027956 886027956 7.00000000
5.32432795 0.66506755 -0.65882570 9 8 8288 5.40600000 886027959 886027959 -7.00000000
8.03480721 1.00221217 -0.70840186 17 10 8289 8.12800000 886027963 886027963 -5.00000000
8.03497505 0.99938500 -0.42433992 17 12 8291 8.10800000 886027968 886027968 -3.00000000
8.04512501 0.99779588 -0.14150411 18 14 8293 8.10800000 886027972 886027972 -1.00000000
8.13086319 1.00698864 2.19530320 47 15 8294 8.48200000 886027975 886027975 15.00000000
2.24538422 0.27530074 -0.60615420 4 0 8301 2.34200000 886027995 886027995 -15.00000000
8.06851673 0.98783046 0.14188807 25 1 8302 8.13000000 886027998 886027998 1.00000000
2.62876606 0.32137480 -0.61141694 9 2 8303 2.71800000 886028000 886028000 -13.00000000
8.06480598 0.98594755 0.42580533 28 3 8303 8.13600000 886028002 886028002 3.00000000
3.14339375 0.38373283 -0.61554980 6 4 8304 3.22600000 886028005 886028005 -11.00000000
8.05735207 0.98218179 0.71014500 76 5 8305 8.14800000 886028007 886028007 5.00000000
3.98063421 0.48452961 -0.63512391 6 6 8306 4.06000000 886028009 886028009 -9.00000000
8.08138847 0.98224914 0.99957234 95 7 8307 8.20200000 886028012 886028012 7.00000000
5.33449984 0.64743483 -0.65980065 9 8 8308 5.41400000 886028014 886028014 -7.00000000
8.02836704 0.97296089 -0.70753032 17 10 8309 8.11800000 886028019 886028019 -5.00000000
8.04436302 0.97205043 -0.42465395 17 12 8311 8.11400000 886028023 886028023 -3.00000000
8.04061794 0.96875024 -0.14136449 18 14 8313 8.10000000 886028028 886028028 -1.00000000
8.12857533 0.97790825 2.19375014 47 15 8314 8.47600000 886028030 886028030 15.00000000
2.23285699 0.26625207 -0.60253072 4 0 8320 2.32800000 886028051 886028051 -15.00000000
8.05586243 0.95917749 0.14160882 25 1 8321 8.11400000 886028053 886028053 1.00000000
2.63755798 0.31357601 -0.61321658 9 2 8322 2.72600000 886028055 886028055 -13.00000000
8.07398129 0.95990562 0.42611936 28 3 8322 8.14200000 886028058 886028058 3.00000000
3.15244722 0.37423259 -0.61707628 8 4 8323 3.23400000 886028060 886028060 -11.00000000
8.06254292 0.95569175 0.71031928 76 5 8324 8.15000000 886028062 886028062 5.00000000
3.98025727 0.47109452 -0.63481104 6 6 8325 4.05800000 886028065 886028065 -9.00000000
8.08065891 0.95497894 0.99908489 97 7 8326 8.19800000 886028067 886028067 7.00000000
5.34253168 0.63043934 -0.66053182 9 8 8327 5.42000000 886028069 886028069 -7.00000000
8.01769829 0.94470048 -0.70631015 17 10 8328 8.10400000 886028074 886028074 -5.00000000
8.05349350 0.94606805 -0.42496797 17 12 8330 8.12000000 886028078 886028078 -3.00000000
8.05173111 0.94301176 -0.14150411 18 14 8332 8.10800000 886028083 886028083 -1.00000000
8.12409782 0.95005000 2.19167972 47 15 8333 8.46800000 886028085 886028085 15.00000000
2.23953009 0.25912246 -0.60408366 4 0 8340 2.33400000 886028106 886028106 -15.00000000
8.04724312 0.92967445 0.14139940 25 1 8341 8.10200000 886028108 886028108 1.00000000
2.63476467 0.30392069 -0.61231679 9 2 8342 2.72200000 886028111 886028111 -13.00000000
8.08918667 0.93308955 0.42674738 26 3 8342 8.15400000 886028113 886028113 3.00000000
3.16153574 0.36412472 -0.61860275 8 4 8343 3.24200000 886028115 886028115 -11.00000000
8.06385040 0.92731482 0.71014500 79 5 8344 8.14800000 886028118 886028118 5.00000000
3.96814013 0.45562062 -0.63262099 6 6 8345 4.04400000 886028120 886028120 -9.00000000
8.07999897 0.92631418 0.99859738 97 7 8346 8.19400000 886028122 886028122 7.00000000
5.34469986 0.61178660 -0.66053182 9 8 8347 5.42000000 886028125 886028125 -7.00000000
8.03282356 0.91806519 -0.70735604 17 10 8348 8.11600000 886028129 886028129 -5.00000000
8.05079365 0.91727209 -0.42465395 17 12 8350 8.11400000 886028134 886028134 -3.00000000
8.05497360 0.91490018 -0.14150411 18 14 8352 8.10800000 886028138 886028138 -1.00000000
8.13120365 0.92212117 2.19271493 47 15 8353 8.47200000 886028141 886028141 15.00000000
2.24810004 0.25216484 -0.60615420 4 0 8360 2.34200000 886028161 886028161 -15.00000000
8.05441380 0.90202379 0.14146921 28 1 8361 8.10600000 886028164 886028164 1.00000000
2.62225270 0.29320595 -0.60916746 7 2 8362 2.70800000 886028166 886028166 -13.00000000
8.08445549 0.90395957 0.42632869 28 3 8362 8.14600000 886028168 886028168 3.00000000
3.16668963 0.35352233 -0.61936599 8 4 8363 3.24600000 886028171 886028171 -11.00000000
8.07495880 0.90004390 0.71084225 76 5 8364 8.15600000 886028173 886028173 5.00000000
3.97559619 0.44242188 -0.63355958 9 6 8365 4.05000000 886028175 886028175 -9.00000000
8.07529163 0.89722723 0.99762243 95 7 8366 8.18600000 886028177 886028177 7.00000000
5.34482956 0.59290749 -0.66028810 9 8 8367 5.41800000 886028180 886028180 -7.00000000
8.04390049 0.89089710 -0.70805323 17 10 8368 8.12400000 886028184 886028184 -5.00000000
8.04203510 0.88784897 -0.42402592 17 12 8370 8.10200000 886028189 886028189 -3.00000000
8.06408119 0.88743377 -0.14160882 16 14 8372 8.11400000 886028194 886028194 -1.00000000
8.14381886 0.89620864 2.19530320 47 15 8372 8.48200000 886028196 886028196 15.00000000
2.25088716 0.24452460 -0.60667187 4 0 8380 2.34400000 886028217 886028217 -15.00000000
8.06546497 0.87476563 0.14160882 28 1 8381 8.11400000 886028219 886028219 1.00000000
2.62713504 0.28447038 -0.61006725 7 2 8382 2.71200000 886028221 886028221 -13.00000000
8.07564735 0.87444395 0.42570066 26 3 8382 8.13400000 886028224 886028224 3.00000000
3.16009688 0.34162232 -0.61783952 8 4 8383 3.23800000 886028226 886028226 -11.00000000
8.08399391 0.87249291 0.71136516 83 5 8384 8.16200000 886028228 886028228 5.00000000
3.97515225 0.42833015 -0.63324672 6 6 8385 4.04800000 886028230 886028230 -9.00000000
8.08626842 0.86988300 0.99859738 95 7 8386 8.19400000 886028233 886028233 7.00000000
5.33107662 0.57255113 -0.65833819 9 8 8387 5.40200000 886028235 886028235 -7.00000000
8.04299927 0.86238837 -0.70770460 13 10 8388 8.12000000 886028240 886028240 -5.00000000
8.06097317 0.86146951 -0.42486328 17 12 8390 8.11800000 886028244 886028244 -3.00000000
8.05321026 0.85779685 -0.14136449 14 14 8392 8.10000000 886028249 886028249 -1.00000000
8.15089035 0.86676264 2.19633842 47 15 8393 8.48600000 886028251 886028251 15.00000000
2.24400067 0.23624997 -0.60460126 4 0 8399 2.33600000 886028272 886028272 -15.00000000
8.06832123 0.84801477 0.14160882 25 1 8400 8.11400000 886028274 886028274 1.00000000
2.63194013 0.27616364 -0.61096704 7 2 8401 2.71600000 886028277 886028277 -13.00000000
8.07865047 0.84624940 0.42570066 26 3 8402 8.13400000 886028279 886028279 3.00000000
3.14559174 0.32950491 -0.61478657 9 4 8402 3.22200000 886028281 886028281 -11.00000000
8.07693481 0.84464449 0.71049362 79 5 8403 8.15200000 886028283 886028283 5.00000000
3.98833895 0.41637638 -0.63512391 6 6 8404 4.06000000 886028286 886028286 -9.00000000
8.08910942 0.84306318 0.99859738 97 7 8405 8.19400000 886028288 886028288 7.00000000
5.34084368 0.55569124 -0.65931314 9 8 8406 5.41000000 886028290 886028290 -7.00000000
6.57339144 0.68277270 -0.57819122 16 10 8407 6.63400000 886028295 886028295 -5.00000000
8.18216515 0.84843123 1.59897935 6 11 8408 8.38000000 886028297 886028297 11.00000000
8.05583858 0.83391100 -0.42444462 17 12 8409 8.11000000 886028300 886028300 -3.00000000
8.05004311 0.83047110 -0.14125977 16 14 8411 8.09400000 886028304 886028304 -1.00000000
8.14588642 0.84035861 2.19426775 47 15 8411 8.47800000 886028307 886028307 15.00000000
2.23904586 0.22782882 -0.60304838 4 0 8419 2.33000000 886028327 886028327 -15.00000000
8.06526375 0.81923968 0.14150411 21 1 8420 8.10800000 886028330 886028330 1.00000000
2.63870454 0.26756454 -0.61231679 7 2 8421 2.72200000 886028332 886028332 -13.00000000
8.09149075 0.81905019 0.42622402 26 3 8422 8.14400000 886028334 886028334 3.00000000
3.15062928 0.31891817 -0.61554980 8 4 8422 3.22600000 886028336 886028336 -11.00000000
8.07586956 0.81604499 0.71014500 76 5 8423 8.14800000 886028339 886028339 5.00000000
3.98190665 0.40165895 -0.63387245 4 6 8424 4.05200000 886028341 886028341 -9.00000000
8.09990311 0.81561732 0.99957234 92 7 8425 8.20200000 886028343 886028343 7.00000000
5.34670115 0.53744191 -0.65980065 9 8 8426 5.41400000 886028346 886028346 -7.00000000
6.57771683 0.66002202 -0.57836550 16 10 8427 6.63600000 886028350 886028350 -5.00000000
8.16944885 0.81829965 1.59592640 6 11 8428 8.36400000 886028353 886028353 11.00000000
8.07459927 0.80737549 -0.42528197 17 12 8429 8.12600000 886028355 886028355 -3.00000000
8.06682205 0.80375397 -0.14150411 14 14 8431 8.10800000 886028360 886028360 -1.00000000
8.14506721 0.81011438 2.19323254 47 15 8432 8.47400000 886028362 886028362 15.00000000
2.24755645 0.22037484 -0.60511893 4 0 8440 2.33800000 886028383 886028383 -15.00000000
8.06423187 0.78928393 0.14143430 21 1 8441 8.10400000 886028385 886028385 1.00000000
2.62803030 0.25675449 -0.60961735 7 2 8442 2.71000000 886028387 886028387 -13.00000000
8.09245110 0.78919405 0.42611936 26 3 8443 8.14200000 886028389 886028389 3.00000000
3.16350102 0.30851173 -0.61783952 6 4 8443 3.23800000 886028392 886028392 -11.00000000
8.07682323 0.78624696 0.70997065 76 5 8444 8.14600000 886028394 886028394 5.00000000
3.97155523 0.38591555 -0.63199526 4 6 8445 4.04000000 886028396 886028396 -9.00000000
8.09888649 0.78554094 0.99908489 95 7 8446 8.19800000 886028399 886028399 7.00000000
5.34665918 0.51765037 -0.65955687 9 8 8447 5.41200000 886028401 886028401 -7.00000000
6.56620979 0.63456744 -0.57714534 16 10 8448 6.62200000 886028406 886028406 -5.00000000
8.16066837 0.78722054 1.59363675 6 11 8449 8.35200000 886028408 886028408 11.00000000
8.06756401 0.77681804 -0.42475861 17 12 8450 8.11600000 886028410 886028410 -3.00000000
8.06971359 0.77418220 -0.14150411 16 14 8452 8.10800000 886028415 886028415 -1.00000000
8.15169144 0.78204685 2.19426775 47 15 8452 8.47800000 886028417 886028417 15.00000000
2.24831200 0.21252806 -0.60511893 4 0 8460 2.33800000 886028438 886028438 -15.00000000
8.07888317 0.76225674 0.14164373 21 1 8461 8.11600000 886028440 886028440 1.00000000
2.62503028 0.24721396 -0.60871756 7 2 8462 2.70600000 886028442 886028442 -13.00000000
8.08919048 0.76038051 0.42580533 23 3 8463 8.13600000 886028445 886028445 3.00000000
3.17628646 0.29856959 -0.62012923 5 4 8463 3.25000000 886028447 886028447 -11.00000000
8.08150196 0.75823486 0.71014500 76 5 8464 8.14800000 886028449 886028449 5.00000000
3.97681165 0.37241825 -0.63262099 4 6 8465 4.04400000 886028452 886028452 -9.00000000
8.09367275 0.75652677 0.99810994 97 7 8466 8.19000000 886028454 886028454 7.00000000
5.34843397 0.49898386 -0.65955687 9 8 8467 5.41200000 886028456 886028456 -7.00000000
6.58227158 0.61293638 -0.57836550 16 10 8468 6.63600000 886028461 886028461 -5.00000000
8.15945721 0.75836629 1.59287345 9 11 8469 8.34800000 886028463 886028463 11.00000000
8.06624889 0.74828333 -0.42454928 17 12 8470 8.11200000 886028465 886028465 -3.00000000
8.08033180 0.74674499 -0.14164373 14 14 8472 8.11600000 886028470 886028470 -1.00000000
8.16219807 0.75287390 2.19633842 47 15 8473 8.48600000 886028472 886028472 15.00000000
2.25285220 0.20542207 -0.60615420 4 0 8479 2.34200000 886028493 886028493 -15.00000000
8.08136654 0.73546201 0.14164373 15 1 8480 8.11600000 886028495 886028495 1.00000000
2.62195420 0.23815513 -0.60781777 7 2 8481 2.70200000 886028498 886028498 -13.00000000
8.08967876 0.73337132 0.42570066 23 3 8482 8.13400000 886028500 886028500 3.00000000
3.16748285 0.28714874 -0.61822116 5 4 8482 3.24000000 886028502 886028502 -11.00000000
8.09587765 0.73250872 0.71119088 79 5 8483 8.16000000 886028505 886028505 5.00000000
3.99376369 0.36064988 -0.63512391 4 6 8484 4.06000000 886028507 886028507 -9.00000000
8.10404587 0.73039579 0.99908489 97 7 8485 8.19800000 886028509 886028509 7.00000000
5.34610462 0.48088938 -0.65906942 6 8 8486 5.40800000 886028512 886028512 -7.00000000
6.58228350 0.59092724 -0.57819122 16 10 8487 6.63400000 886028516 886028516 -5.00000000
8.18148136 0.73305643 1.59668970 9 11 8488 8.36800000 886028518 886028518 11.00000000
8.07067585 0.72170842 -0.42465395 17 12 8489 8.11400000 886028521 886028521 -3.00000000
8.07081318 0.71888107 -0.14143430 14 14 8491 8.10400000 886028525 886028525 -1.00000000
8.16452312 0.72722793 2.19633842 47 15 8491 8.48600000 886028528 886028528 15.00000000
2.24970651 0.19721948 -0.60511893 4 0 8499 2.33800000 886028548 886028548 -15.00000000
8.08587646 0.70742255 0.14167863 18 1 8500 8.11800000 886028551 886028551 1.00000000
2.62859368 0.22950986 -0.60916746 6 2 8501 2.70800000 886028553 886028553 -13.00000000
8.08821011 0.70478183 0.42549133 23 3 8502 8.13000000 886028555 886028555 3.00000000
3.15673089 0.27506787 -0.61593145 4 4 8502 3.22800000 886028558 886028558 -11.00000000
8.09243107 0.70372653 0.71066791 76 5 8503 8.15400000 886028560 886028560 5.00000000
3.98712635 0.34602368 -0.63387245 4 6 8504 4.05200000 886028562 886028562 -9.00000000
8.10654545 0.70210296 0.99908489 95 7 8505 8.19800000 886028565 886028565 7.00000000
5.34379530 0.46188319 -0.65858191 6 8 8506 5.40400000 886028567 886028567 -7.00000000
6.58033609 0.56760472 -0.57784259 28 10 8507 6.63000000 886028571 886028571 -5.00000000
8.19181442 0.70516682 1.59821618 9 11 8508 8.37600000 886028574 886028574 11.00000000
8.07314587 0.69353211 -0.42465395 17 12 8509 8.11400000 886028576 886028576 -3.00000000
8.06928825 0.69036335 -0.14136449 14 14 8511 8.10000000 886028581 886028581 -1.00000000
8.16328335 0.69696993 2.19530320 47 15 8512 8.48200000 886028583 886028583 15.00000000
2.23498082 0.18806942 -0.60097784 4 0 8519 2.32200000 886028604 886028604 -15.00000000
8.09029007 0.67936063 0.14171354 15 1 8520 8.12000000 886028606 886028606 1.00000000
2.63520455 0.22082114 -0.61051714 7 2 8521 2.71400000 886028608 886028608 -13.00000000
8.10654354 0.67787588 0.42632869 21 3 8522 8.14600000 886028611 886028611 3.00000000
3.15767193 0.26404715 -0.61593145 4 4 8522 3.22800000 886028613 886028613 -11.00000000
8.08689594 0.67481166 0.70997065 76 5 8523 8.14600000 886028615 886028615 5.00000000
3.99618435 0.33275959 -0.63512391 4 6 8524 4.06000000 886028618 886028618 -9.00000000
8.11686039 0.67445910 1.00005984 92 7 8525 8.20600000 886028620 886028620 7.00000000
5.34933186 0.44355512 -0.65906942 6 8 8526 5.40800000 886028622 886028622 -7.00000000
6.58029175 0.54446733 -0.57766825 56 10 8527 6.62800000 886028627 886028627 -5.00000000
8.19813919 0.67689085 1.59897935 6 11 8528 8.38000000 886028629 886028629 11.00000000
8.07551765 0.66534734 -0.42465395 17 12 8529 8.11400000 886028631 886028631 -3.00000000
8.07962132 0.66284609 -0.14150411 14 14 8531 8.10800000 886028636 886028636 -1.00000000
8.15784836 0.66926384 2.19323254 47 15 8531 8.47400000 886028638 886028638 15.00000000
2.24332619 0.18088782 -0.60304838 4 0 8539 2.33000000 886028659 886028659 -15.00000000
8.08663177 0.65063494 0.14160882 18 1 8540 8.11400000 886028661 886028661 1.00000000
2.63207436 0.21130931 -0.60961735 7 2 8541 2.71000000 886028664 886028664 -13.00000000
8.11284161 0.64989358 0.42653805 23 3 8542 8.15000000 886028666 886028666 3.00000000
3.16835928 0.25380704 -0.61783952 4 4 8542 3.23800000 886028668 886028668 -11.00000000
8.09317398 0.64689654 0.71031928 76 5 8543 8.15000000 886028671 886028671 5.00000000
3.96975374 0.31660959 -0.63074374 4 6 8544 4.03200000 886028673 886028673 -9.00000000
8.11124992 0.64549196 0.99908489 95 7 8545 8.19800000 886028675 886028675 7.00000000
5.35876274 0.42550829 -0.66004437 6 8 8546 5.41600000 886028677 886028677 -7.00000000
6.59009695 0.52212393 -0.57836550 44 10 8547 6.63600000 886028682 886028682 -5.00000000
8.19066620 0.64749628 1.59707129 6 11 8548 8.37000000 886028684 886028684 11.00000000
8.07978153 0.63731152 -0.42475861 25 12 8549 8.11600000 886028687 886028687 -3.00000000
8.08985996 0.63526511 -0.14164373 14 14 8551 8.11600000 886028691 886028691 -1.00000000
8.16409874 0.63966113 2.19426775 47 15 8552 8.47800000 886028694 886028694 15.00000000
2.24006152 0.17314991 -0.60201311 4 0 8558 2.32600000 886028714 886028714 -15.00000000
8.09273243 0.62412268 0.14167863 18 1 8559 8.11800000 886028717 886028717 1.00000000
2.62693167 0.20213136 -0.60826766 9 2 8560 2.70400000 886028719 886028719 -13.00000000
8.10698700 0.62237537 0.42611936 23 3 8561 8.14200000 886028721 886028721 3.00000000
3.18680096 0.24465148 -0.62127411 4 4 8561 3.25600000 886028724 886028724 -11.00000000
8.10322094 0.62066364 0.71101654 76 5 8562 8.15800000 886028726 886028726 5.00000000
3.97472119 0.30374473 -0.63136947 4 6 8563 4.03600000 886028728 886028728 -9.00000000
8.10938740 0.61828870 0.99859738 97 7 8564 8.19400000 886028730 886028730 7.00000000
5.35420656 0.40728396 -0.65931314 4 8 8565 5.41000000 886028733 886028733 -7.00000000
6.59775209 0.50071985 -0.57888842 24 10 8566 6.64200000 886028737 886028737 -5.00000000
8.07985878 0.61036408 -0.42465395 17 12 8568 8.11400000 886028742 886028742 -3.00000000
8.09591007 0.60873455 -0.14171354 18 14 8570 8.12000000 886028747 886028747 -1.00000000
8.16992092 0.61429942 2.19530320 47 15 8570 8.48200000 886028749 886028749 15.00000000
2.25991845 0.16675116 -0.60718948 4 0 8578 2.34600000 886028770 886028770 -15.00000000
8.09685612 0.59601676 0.14171354 15 1 8579 8.12000000 886028772 886028772 1.00000000
2.62762117 0.19296043 -0.60826766 9 2 8580 2.70400000 886028774 886028774 -13.00000000
8.10313416 0.59363508 0.42580533 23 3 8581 8.13600000 886028777 886028777 3.00000000
3.17197156 0.23237844 -0.61822116 4 4 8581 3.24000000 886028779 886028779 -11.00000000
8.11129951 0.59281003 0.71153951 76 5 8582 8.16400000 886028781 886028781 5.00000000
3.97969747 0.29015580 -0.63199526 6 6 8583 4.04000000 886028783 886028783 -9.00000000
8.11545563 0.59026587 0.99908489 95 7 8584 8.19800000 886028786 886028786 7.00000000
5.32985687 0.38672426 -0.65614456 4 8 8585 5.38400000 886028788 886028788 -7.00000000
6.60939550 0.47840554 -0.57976002 20 10 8586 6.65200000 886028793 886028793 -5.00000000
8.08592415 0.58244336 -0.42486328 17 12 8588 8.11800000 886028797 886028797 -3.00000000
8.09599113 0.58032787 -0.14167863 16 14 8590 8.11800000 886028802 886028802 -1.00000000
8.18165016 0.58646792 2.19789124 47 15 8590 8.49200000 886028804 886028804 15.00000000
2.25087881 0.15779155 -0.60460126 6 0 8599 2.33600000 886028825 886028825 -15.00000000
8.11295033 0.56731272 0.14195788 18 1 8600 8.13400000 886028827 886028827 1.00000000
2.63025475 0.18346402 -0.60871756 7 2 8601 2.70600000 886028830 886028830 -13.00000000
8.11123276 0.56434751 0.42611936 21 3 8602 8.14200000 886028832 886028832 3.00000000
3.15713358 0.21966088 -0.61516821 4 4 8602 3.22400000 886028834 886028834 -11.00000000
8.10546780 0.56252491 0.71084225 76 5 8603 8.15600000 886028836 886028836 5.00000000
3.97285151 0.27502185 -0.63074374 6 6 8604 4.03200000 886028839 886028839 -9.00000000
8.12152481 0.56079078 0.99957234 92 7 8605 8.20200000 886028841 886028841 7.00000000
5.34312105 0.36800516 -0.65760696 4 8 8606 5.39600000 886028843 886028843 -7.00000000
6.59917831 0.45335835 -0.57871413 16 10 8607 6.64000000 886028848 886028848 -5.00000000
8.09199047 0.55307543 -0.42507264 17 12 8609 8.12200000 886028853 886028853 -3.00000000
8.08409786 0.54970104 -0.14143430 14 14 8611 8.10400000 886028857 886028857 -1.00000000
8.17410755 0.55582148 2.19530320 47 15 8611 8.48200000 886028859 886028859 15.00000000
2.23985028 0.14916335 -0.60149544 4 0 8619 2.32400000 886028880 886028880 -15.00000000
8.09692287 0.53779703 0.14164373 15 1 8620 8.11600000 886028883 886028883 1.00000000
2.63476801 0.17453922 -0.60961735 7 2 8621 2.71000000 886028885 886028885 -13.00000000
8.12710381 0.53695232 0.42685205 21 3 8622 8.15600000 886028887 886028887 3.00000000
3.16963506 0.20941566 -0.61745793 5 4 8622 3.23600000 886028889 886028889 -11.00000000
8.10738182 0.53422809 0.71084225 76 5 8623 8.15600000 886028892 886028892 5.00000000
3.97772956 0.26141140 -0.63136947 6 6 8624 4.03600000 886028894 886028894 -9.00000000
8.13531876 0.53321695 1.00103474 90 7 8625 8.21400000 886028896 886028896 7.00000000
5.35427713 0.34999937 -0.65882570 4 8 8626 5.40600000 886028899 886028899 -7.00000000
6.60270882 0.43044978 -0.57888842 48 10 8627 6.64200000 886028903 886028903 -5.00000000
8.10184383 0.52534270 -0.42549133 17 12 8629 8.13000000 886028908 886028908 -3.00000000
8.09395027 0.52199370 -0.14157392 14 14 8631 8.11200000 886028912 886028912 -1.00000000
8.17608929 0.52585810 2.19530320 47 15 8632 8.48200000 886028915 886028915 15.00000000
2.23454857 0.14136900 -0.59994256 4 0 8638 2.31800000 886028936 886028936 -15.00000000
8.09267521 0.51056600 0.14153902 18 1 8639 8.11000000 886028938 886028938 1.00000000
2.64116716 0.16616815 -0.61096704 6 2 8640 2.71600000 886028940 886028940 -13.00000000
8.13282681 0.51024902 0.42706141 21 3 8641 8.16000000 886028942 886028942 3.00000000
3.17031217 0.19890362 -0.61745793 4 4 8641 3.23600000 886028945 886028945 -11.00000000
8.11507416 0.50771338 0.71136516 76 5 8642 8.16200000 886028947 886028947 5.00000000
3.97068834 0.24772733 -0.63011801 6 6 8643 4.02800000 886028949 886028949 -9.00000000
8.12911701 0.50574327 1.00005984 92 7 8644 8.20600000 886028952 886028952 7.00000000
5.35342741 0.33211911 -0.65858191 4 8 8645 5.40400000 886028954 886028954 -7.00000000
8.21371746 0.50812840 1.30341196 10 9 8646 8.33200000 886028956 886028956 9.00000000
6.59614563 0.40805995 -0.57819122 44 10 8646 6.63400000 886028959 886028959 -5.00000000
8.09357357 0.49786001 -0.42496797 17 12 8648 8.12000000 886028963 886028963 -3.00000000
8.10162449 0.49551657 -0.14167863 16 14 8650 8.11800000 886028968 886028968 -1.00000000
8.18155766 0.50040549 2.19633842 47 15 8650 8.48600000 886028970 886028970 15.00000000
2.24659896 0.13425957 -0.60304838 4 0 8658 2.33000000 886028991 886028991 -15.00000000
8.11436939 0.48350361 0.14188807 18 1 8659 8.13000000 886028993 886028993 1.00000000
2.62422323 0.15590759 -0.60691792 5 2 8660 2.69800000 886028995 886028995 -13.00000000
8.13057041 0.48162085 0.42685205 21 3 8661 8.15600000 886028998 886028998 3.00000000
3.18666577 0.18876469 -0.62051088 4 4 8661 3.25200000 886029000 886029000 -11.00000000
8.11878586 0.47950083 0.71153951 76 5 8662 8.16400000 886029002 886029002 5.00000000
3.96758509 0.23363329 -0.62949228 6 6 8663 4.02400000 886029005 886029005 -9.00000000
8.12290573 0.47689891 0.99908489 95 7 8664 8.19800000 886029007 886029007 7.00000000
5.34068203 0.31261814 -0.65687579 4 8 8665 5.39000000 886029009 886029009 -7.00000000
6.60150814 0.38526478 -0.57853985 52 10 8666 6.63800000 886029014 886029014 -5.00000000
8.09725666 0.46972078 -0.42507264 17 12 8668 8.12200000 886029018 886029018 -3.00000000
8.12326813 0.46838471 -0.14202769 16 14 8670 8.13800000 886029023 886029023 -1.00000000
8.19096947 0.47228831 2.19840908 47 15 8670 8.49400000 886029025 886029025 15.00000000
2.25862670 0.12706773 -0.60615420 4 0 8678 2.34200000 886029047 886029047 -15.00000000
8.10602474 0.45461637 0.14171354 18 1 8679 8.12000000 886029049 886029049 1.00000000
2.63058853 0.14707273 -0.60826766 6 2 8680 2.70400000 886029052 886029052 -13.00000000
8.12414646 0.45421028 0.42643338 21 3 8680 8.14800000 886029054 886029054 3.00000000
3.16770315 0.17654750 -0.61669469 4 4 8681 3.23200000 886029056 886029056 -11.00000000
8.13234615 0.45182121 0.71258533 79 5 8682 8.17600000 886029059 886029059 5.00000000
3.97626591 0.22021936 -0.63074374 6 6 8683 4.03200000 886029061 886029061 -9.00000000
8.13244915 0.44897947 1.00005984 95 7 8684 8.20600000 886029063 886029063 7.00000000
5.33777666 0.29375562 -0.65638828 4 8 8685 5.38600000 886029065 886029065 -7.00000000
6.60679150 0.36243713 -0.57888842 60 10 8686 6.64200000 886029070 886029070 -5.00000000
8.10283566 0.44167063 -0.42528197 17 12 8688 8.12600000 886029075 886029075 -3.00000000
8.11287308 0.43937752 -0.14181826 16 14 8690 8.12600000 886029079 886029079 -1.00000000
8.19642639 0.44390255 2.19944429 47 15 8690 8.49800000 886029082 886029082 15.00000000
2.24748158 0.11857221 -0.60304838 4 0 8698 2.33000000 886029102 886029102 -15.00000000
8.12553501 0.42726332 0.14202769 18 1 8699 8.13800000 886029105 886029105 1.00000000
2.63303208 0.13799135 -0.60871756 5 2 8700 2.70600000 886029107 886029107 -13.00000000
8.12775135 0.42453495 0.42653805 15 3 8701 8.15000000 886029109 886029109 3.00000000
3.16829991 0.16548908 -0.61669469 4 4 8701 3.23200000 886029112 886029112 -11.00000000
8.12989426 0.42322409 0.71223670 79 5 8702 8.17200000 886029114 886029114 5.00000000
3.98490119 0.20674767 -0.63199526 4 6 8703 4.04000000 886029116 886029116 -9.00000000
8.14189720 0.42099923 1.00103474 97 7 8704 8.21400000 886029118 886029118 7.00000000
5.33678675 0.27501935 -0.65614456 6 8 8705 5.38400000 886029121 886029121 -7.00000000
6.60403681 0.33916855 -0.57853985 56 10 8706 6.63800000 886029125 886029125 -5.00000000
8.11430073 0.41389251 -0.42580533 17 12 8708 8.13600000 886029130 886029130 -3.00000000
8.10237503 0.41044858 -0.14160882 16 14 8710 8.11400000 886029135 886029135 -1.00000000
8.19221020 0.41356596 2.19789124 45 15 8711 8.49200000 886029137 886029137 15.00000000
2.24016380 0.11034613 -0.60097784 4 0 8718 2.32200000 886029158 886029158 -15.00000000
8.12098503 0.39860320 0.14192297 15 1 8719 8.13200000 886029160 886029160 1.00000000
2.63739038 0.12898991 -0.60961735 5 2 8720 2.71000000 886029162 886029162 -13.00000000
8.13110924 0.39767757 0.42664272 18 3 8720 8.15200000 886029165 886029165 3.00000000
3.16297555 0.15414196 -0.61554980 5 4 8721 3.22600000 886029167 886029167 -11.00000000
8.11938190 0.39426309 0.71119088 79 5 8722 8.16000000 886029169 886029169 5.00000000
3.96192169 0.19169094 -0.62824082 4 6 8723 4.01600000 886029171 886029171 -9.00000000
8.15124798 0.39295846 1.00200975 95 7 8724 8.22200000 886029174 886029174 7.00000000
5.33969736 0.25648406 -0.65638828 9 8 8725 5.38600000 886029176 886029176 -7.00000000
6.60319042 0.31601885 -0.57836550 44 10 8726 6.63600000 886029181 886029181 -5.00000000
8.12168121 0.38585013 -0.42611936 17 12 8728 8.14200000 886029185 886029185 -3.00000000
8.11574268 0.38272873 -0.14181826 16 14 8730 8.12600000 886029190 886029190 -1.00000000
8.18967628 0.38621536 2.19685602 47 15 8730 8.48800000 886029192 886029192 15.00000000
2.24053526 0.10252583 -0.60097784 4 0 8738 2.32200000 886029213 886029213 -15.00000000
8.11433601 0.36988902 0.14178336 15 1 8739 8.12400000 886029215 886029215 1.00000000
2.62614417 0.11925251 -0.60691792 5 2 8740 2.69800000 886029217 886029217 -13.00000000
8.14641380 0.36992648 0.42737541 18 3 8740 8.16600000 886029220 886029220 3.00000000
3.17133927 0.14345504 -0.61707628 5 4 8741 3.23400000 886029222 886029222 -11.00000000
8.12867069 0.36627752 0.71188813 79 5 8742 8.16800000 886029224 886029224 5.00000000
3.97440720 0.17839153 -0.63011801 4 6 8743 4.02800000 886029227 886029227 -9.00000000
8.14067173 0.36397094 1.00054729 95 7 8744 8.21000000 886029229 886029229 7.00000000
5.34650946 0.23810843 -0.65711951 6 8 8745 5.39200000 886029231 886029231 -7.00000000
6.61221504 0.29332069 -0.57906276 44 10 8746 6.64400000 886029236 886029236 -5.00000000
8.11898804 0.35732219 -0.42591003 17 12 8748 8.13800000 886029241 886029241 -3.00000000
8.11503124 0.35430995 -0.14178336 16 14 8750 8.12400000 886029245 886029245 -1.00000000
8.19676495 0.35787848 2.19840908 47 15 8750 8.49400000 886029247 886029247 15.00000000
2.25246024 0.09519371 -0.60408366 4 0 8758 2.33400000 886029268 886029268 -15.00000000
8.12157154 0.34181470 0.14188807 12 1 8759 8.13000000 886029270 886029270 1.00000000
2.62654448 0.11008483 -0.60691792 4 2 8760 2.69800000 886029273 886029273 -13.00000000
8.14372444 0.33989933 0.42716607 15 3 8761 8.16200000 886029275 886029275 3.00000000
3.17182088 0.13238412 -0.61707628 5 4 8761 3.23400000 886029277 886029277 -11.00000000
8.13587093 0.33814913 0.71241105 76 5 8762 8.17400000 886029280 886029280 5.00000000
3.98290038 0.16484392 -0.63136947 4 6 8763 4.03600000 886029282 886029282 -9.00000000
8.14585876 0.33571595 1.00103474 90 7 8764 8.21400000 886029284 886029284 7.00000000
5.32747364 0.21863021 -0.65468210 6 8 8765 5.37200000 886029287 886029287 -7.00000000
6.62315226 0.27064469 -0.57993430 40 10 8766 6.65400000 886029291 886029291 -5.00000000
8.11020756 0.32857519 -0.42538664 17 12 8768 8.12800000 886029296 886029296 -3.00000000
8.12021542 0.32614154 -0.14185315 14 14 8770 8.12800000 886029300 886029300 -1.00000000
8.20574284 0.32814220 2.20047951 47 15 8771 8.50200000 886029303 886029303 15.00000000
2.25663972 0.08748024 -0.60511893 4 0 8778 2.33800000 886029323 886029323 -15.00000000
8.12671185 0.31361726 0.14195788 12 1 8779 8.13400000 886029326 886029326 1.00000000
2.62691283 0.10091581 -0.60691792 4 2 8780 2.69800000 886029328 886029328 -13.00000000
8.14480686 0.31289190 0.42716607 18 3 8780 8.16200000 886029330 886029330 3.00000000
3.16833997 0.12116155 -0.61631304 5 4 8781 3.23000000 886029333 886029333 -11.00000000
8.14496613 0.31005073 0.71310830 76 5 8782 8.18200000 886029335 886029335 5.00000000
3.97160769 0.15049122 -0.62949228 4 6 8783 4.02400000 886029337 886029337 -9.00000000
8.14698124 0.30727956 1.00103474 90 7 8784 8.21400000 886029340 886029340 7.00000000
5.34407377 0.20062830 -0.65663201 6 8 8785 5.38800000 886029342 886029342 -7.00000000
6.63401127 0.24789591 -0.58080590 28 10 8786 6.66400000 886029347 886029347 -5.00000000
8.11928844 0.30055881 -0.42580533 17 12 8788 8.13600000 886029351 886029351 -3.00000000
8.12130451 0.29779470 -0.14185315 14 14 8790 8.12800000 886029356 886029356 -1.00000000
8.21456051 0.29977864 2.20255017 47 15 8791 8.51000000 886029358 886029358 15.00000000
2.25306988 0.07946637 -0.60408366 4 0 8798 2.33400000 886029379 886029379 -15.00000000
8.13575077 0.28552839 0.14209749 15 1 8799 8.14200000 886029381 886029381 1.00000000
2.62724900 0.09174556 -0.60691792 5 2 8800 2.69800000 886029383 886029383 -13.00000000
8.14984131 0.28459871 0.42737541 15 3 8800 8.16600000 886029386 886029386 3.00000000
3.15304708 0.10955585 -0.61326009 5 4 8801 3.21400000 886029388 886029388 -11.00000000
8.14998055 0.28175530 0.71345693 83 5 8802 8.18600000 886029390 886029390 5.00000000
3.98395419 0.13703424 -0.63136947 4 6 8803 4.03600000 886029393 886029393 -9.00000000
8.15594006 0.27911097 1.00200975 92 7 8804 8.22200000 886029395 886029395 7.00000000
5.34870958 0.18210788 -0.65711951 6 8 8805 5.39200000 886029397 886029397 -7.00000000
6.62886286 0.22453505 -0.58028293 16 10 8806 6.65800000 886029402 886029402 -5.00000000
8.12827301 0.27248305 -0.42622402 17 12 8808 8.14400000 886029406 886029406 -3.00000000
8.11429977 0.26917905 -0.14171354 16 14 8810 8.12000000 886029411 886029411 -1.00000000
8.20783424 0.27084780 2.20047951 47 15 8811 8.50200000 886029413 886029413 15.00000000
2.23595572 0.07104901 -0.59942490 4 0 8818 2.31600000 886029434 886029434 -15.00000000
8.13869667 0.25719073 0.14213240 15 1 8819 8.14400000 886029436 886029436 1.00000000
2.63924003 0.08294146 -0.60961735 5 2 8820 2.71000000 886029439 886029439 -13.00000000
8.15078449 0.25614873 0.42737541 18 3 8820 8.16600000 886029441 886029441 3.00000000
3.16910863 0.09903959 -0.61631304 5 4 8821 3.23000000 886029443 886029443 -11.00000000
8.13697433 0.25287163 0.71223670 76 5 8822 8.17200000 886029446 886029446 5.00000000
3.96861267 0.12263870 -0.62886655 6 6 8823 4.02000000 886029448 886029448 -9.00000000
8.16876984 0.25100553 1.00347221 95 7 8824 8.23400000 886029450 886029450 7.00000000
5.33740759 0.16307256 -0.65565705 6 8 8825 5.38000000 886029453 886029453 -7.00000000
6.61765718 0.20103164 -0.57923704 16 10 8826 6.64600000 886029457 886029457 -5.00000000
8.14115238 0.24446811 -0.42685205 17 12 8828 8.15600000 886029462 886029462 -3.00000000
8.13317966 0.24138713 -0.14202769 16 14 8830 8.13800000 886029466 886029466 -1.00000000
8.20679855 0.24213848 2.19996190 47 15 8831 8.50000000 886029469 886029469 15.00000000
2.24776530 0.06396364 -0.60253072 4 0 8837 2.32800000 886029489 886029489 -15.00000000
8.12751198 0.22986123 0.14192297 15 1 8838 8.13200000 886029492 886029492 1.00000000
2.62781262 0.07386045 -0.60691792 4 2 8839 2.69800000 886029494 886029494 -13.00000000
8.15957546 0.22934280 0.42779410 18 3 8839 8.17400000 886029496 886029496 3.00000000
3.16941953 0.08852991 -0.61631304 5 4 8840 3.23000000 886029499 886029499 -11.00000000
8.14374352 0.22605290 0.71275967 83 5 8841 8.17800000 886029501 886029501 5.00000000
3.96899748 0.10947763 -0.62886655 6 6 8842 4.02000000 886029503 886029503 -9.00000000
8.16161919 0.22369799 1.00249720 97 7 8843 8.22600000 886029505 886029505 7.00000000
5.34387207 0.14553431 -0.65638828 4 8 8844 5.38600000 886029508 886029508 -7.00000000
6.62027931 0.17913949 -0.57941139 16 10 8845 6.64800000 886029512 886029512 -5.00000000
8.14391518 0.21752305 -0.42695674 17 12 8847 8.15800000 886029517 886029517 -3.00000000
8.12993717 0.21430981 -0.14195788 16 14 8849 8.13400000 886029522 886029522 -1.00000000
8.21331215 0.21650763 2.20151472 47 15 8849 8.50600000 886029524 886029524 15.00000000
2.25570011 0.05630992 -0.60460126 4 0 8857 2.33600000 886029545 886029545 -15.00000000
8.13426208 0.20163819 0.14202769 15 1 8858 8.13800000 886029547 886029547 1.00000000
2.62026191 0.06449541 -0.60511833 5 2 8859 2.69000000 886029549 886029549 -13.00000000
8.15233994 0.20066260 0.42737541 15 3 8859 8.16600000 886029552 886029552 3.00000000
3.17559743 0.07760993 -0.61745793 5 4 8860 3.23600000 886029554 886029554 -11.00000000
8.15444183 0.19786620 0.71363121 76 5 8861 8.18800000 886029556 886029556 5.00000000
3.96540594 0.09552743 -0.62824082 6 6 8862 4.01600000 886029558 886029558 -9.00000000
8.15044403 0.19492249 1.00103474 95 7 8863 8.21400000 886029561 886029561 7.00000000
5.33839417 0.12673847 -0.65565705 4 8 8864 5.38000000 886029563 886029563 -7.00000000
6.62484789 0.15612319 -0.57976002 16 10 8865 6.65200000 886029568 886029568 -5.00000000
8.13264465 0.18881601 -0.42632869 17 12 8867 8.14600000 886029572 886029572 -3.00000000
8.13863182 0.18611260 -0.14209749 16 14 8869 8.14200000 886029577 886029577 -1.00000000
8.21791267 0.18649054 2.20255017 47 15 8870 8.51000000 886029579 886029579 15.00000000
2.25008011 0.04870402 -0.60304838 4 0 8876 2.33000000 886029600 886029600 -15.00000000
8.14688110 0.17492045 0.14223711 15 1 8877 8.15000000 886029602 886029602 1.00000000
2.62435794 0.05588894 -0.60601813 5 2 8878 2.69400000 886029605 886029605 -13.00000000
8.15299034 0.17220439 0.42737541 13 3 8879 8.16600000 886029607 886029607 3.00000000
3.16602325 0.06687155 -0.61554980 5 4 8879 3.22600000 886029609 886029609 -11.00000000
8.16700459 0.17107436 0.71467710 94 5 8880 8.20000000 886029611 886029611 5.00000000
3.96965075 0.08245920 -0.62886655 4 6 8881 4.02000000 886029614 886029614 -9.00000000
8.16096878 0.16809797 1.00225353 99 7 8882 8.22400000 886029616 886029616 7.00000000
5.33878517 0.10903502 -0.65565705 4 8 8883 5.38000000 886029618 886029618 -7.00000000
6.64923286 0.13463756 -0.58185172 16 10 8884 6.67600000 886029623 886029623 -5.00000000
8.13522243 0.16188589 -0.42643338 17 12 8886 8.14800000 886029628 886029628 -3.00000000
8.13920498 0.15912290 -0.14209749 16 14 8888 8.14200000 886029632 886029632 -1.00000000
8.23004723 0.16089889 2.20565581 47 15 8888 8.52200000 886029635 886029635 15.00000000
2.23864722 0.04063910 -0.59994256 4 0 8896 2.31800000 886029655 886029655 -15.00000000
8.14944172 0.14651741 0.14227201 15 1 8897 8.15200000 886029658 886029658 1.00000000
2.62064004 0.04665850 -0.60511833 5 2 8898 2.69000000 886029660 886029660 -13.00000000
8.16552353 0.14395534 0.42800346 13 3 8899 8.17800000 886029662 886029662 3.00000000
3.15642262 0.05564663 -0.61364174 4 4 8899 3.21600000 886029664 886029664 -11.00000000
8.15958405 0.14242607 0.71397984 79 5 8900 8.19200000 886029667 886029667 5.00000000
3.98571515 0.06887507 -0.63136947 4 6 8901 4.03600000 886029669 886029669 -9.00000000
8.17142963 0.13977961 1.00347221 97 7 8902 8.23400000 886029671 886029671 7.00000000
5.33714819 0.09036492 -0.65541333 4 8 8903 5.37800000 886029674 886029674 -7.00000000
6.62575722 0.11102601 -0.57976002 16 10 8904 6.65200000 886029678 886029678 -5.00000000
8.14772034 0.13368426 -0.42706141 17 12 8906 8.16000000 886029683 886029683 -3.00000000
8.13571167 0.13064659 -0.14202769 16 14 8908 8.13800000 886029688 886029688 -1.00000000
8.22671890 0.13067181 2.20462060 47 15 8909 8.51800000 886029690 886029690 15.00000000
2.23298621 0.03234982 -0.59838963 4 0 8917 2.31200000 886029711 886029711 -15.00000000
8.14792442 0.11661861 0.14223711 15 1 8918 8.15000000 886029713 886029713 1.00000000
2.63248491 0.03721836 -0.60781777 5 2 8919 2.70200000 886029715 886029715 -13.00000000
8.17198753 0.11410989 0.42831746 15 3 8920 8.18400000 886029717 886029717 3.00000000
3.15464234 0.04404998 -0.61326009 5 4 8920 3.21400000 886029720 886029720 -11.00000000
8.15208244 0.11240886 0.71328259 76 5 8921 8.18400000 886029722 886029722 5.00000000
3.95433760 0.05383597 -0.62636358 4 6 8922 4.00400000 886029724 886029724 -9.00000000
8.17982674 0.10993560 1.00444710 95 7 8923 8.24200000 886029727 886029727 7.00000000
5.34339857 0.07088168 -0.65614456 4 8 8924 5.38400000 886029729 886029729 -7.00000000
6.62213516 0.08668850 -0.57941139 16 10 8925 6.64800000 886029734 886029734 -5.00000000
8.16413212 0.10402405 -0.42789876 17 12 8927 8.17600000 886029738 886029738 -3.00000000
8.14013481 0.10087639 -0.14209749 16 14 8929 8.14200000 886029743 886029743 -1.00000000
8.22326088 0.10190653 2.20358539 47 15 8929 8.51400000 886029745 886029745 15.00000000
2.23501730 0.02457629 -0.59890729 4 0 8937 2.31400000 886029766 886029766 -15.00000000
8.14828205 0.08817633 0.14223711 18 1 8938 8.15000000 886029768 886029768 1.00000000
2.62480426 0.02794605 -0.60601813 5 2 8939 2.69400000 886029770 886029770 -13.00000000
8.17832756 0.08564638 0.42863148 13 3 8940 8.19000000 886029773 886029773 3.00000000
3.16262937 0.03312019 -0.61478657 5 4 8940 3.22200000 886029775 886029775 -11.00000000
8.16039467 0.08403416 0.71397984 79 5 8941 8.19200000 886029777 886029777 5.00000000
3.95055103 0.03999244 -0.62573785 6 6 8942 4.00000000 886029780 886029780 -9.00000000
8.17817593 0.08136225 1.00420344 99 7 8943 8.24000000 886029782 886029782 7.00000000
5.33765841 0.05217110 -0.65541333 4 8 8944 5.37800000 886029784 886029784 -7.00000000
6.63235855 0.06366803 -0.58028293 12 10 8945 6.65800000 886029789 886029789 -5.00000000
8.14447403 0.07534053 -0.42685205 17 12 8947 8.15600000 886029793 886029793 -3.00000000
8.14843559 0.07253260 -0.14223711 16 14 8949 8.15000000 886029798 886029798 -1.00000000
8.22744274 0.07179981 2.20462060 47 15 8950 8.51800000 886029800 886029800 15.00000000
2.23894691 0.01758501 -0.59994256 4 0 8955 2.31800000 886029821 886029821 -15.00000000
8.15051842 0.06259272 0.14227201 15 1 8956 8.15200000 886029823 886029823 1.00000000
2.62098169 0.01967062 -0.60511833 5 2 8957 2.69000000 886029826 886029826 -13.00000000
8.17456150 0.05992374 0.42842212 13 3 8958 8.18600000 886029828 886029828 3.00000000
3.18234992 0.02332826 -0.61860275 5 4 8958 3.24200000 886029830 886029830 -11.00000000
8.17655659 0.05851121 0.71537435 90 5 8959 8.20800000 886029833 886029833 5.00000000
3.95065713 0.02758124 -0.62573785 6 6 8960 4.00000000 886029835 886029835 -9.00000000
8.16846561 0.05560184 1.00298464 95 7 8961 8.23000000 886029837 886029837 7.00000000
5.32390070 0.03530996 -0.65370715 6 8 8962 5.36400000 886029840 886029840 -7.00000000
6.63850307 0.04287018 -0.58080590 16 10 8963 6.66400000 886029844 886029844 -5.00000000
8.14067650 0.04972918 -0.42664272 17 12 8965 8.15200000 886029849 886029849 -3.00000000
8.16062164 0.04700233 -0.14244655 16 14 8967 8.16200000 886029853 886029853 -1.00000000
8.23921108 0.04745497 2.20772648 47 15 8967 8.53000000 886029856 886029856 15.00000000
2.25058579 0.00982010 -0.60304838 4 0 8975 2.33000000 886029876 886029876 -15.00000000
8.17068386 0.03422548 0.14262107 15 1 8976 8.17200000 886029879 886029879 1.00000000
2.61713696 0.01050592 -0.60421854 4 2 8977 2.68600000 886029881 886029881 -13.00000000
8.16673183 0.03135815 0.42800346 15 3 8978 8.17800000 886029883 886029883 3.00000000
3.16474271 0.01215180 -0.61516821 5 4 8978 3.22400000 886029886 886029886 -11.00000000
8.17471886 0.02996204 0.71520001 83 5 8979 8.20600000 886029888 886029888 5.00000000
3.95072937 0.01379070 -0.62573785 6 6 8980 4.00000000 886029890 886029890 -9.00000000
8.18052006 0.02712773 1.00444710 92 7 8981 8.24200000 886029893 886029893 7.00000000
5.32796144 0.01673834 -0.65419465 6 8 8982 5.36800000 886029895 886029895 -7.00000000
6.63462734 0.01968539 -0.58045727 16 10 8983 6.66000000 886029899 886029899 -5.00000000
8.15078640 0.02133876 -0.42716607 17 12 8985 8.16200000 886029904 886029904 -3.00000000
8.15673637 0.01850708 -0.14237674 16 14 8987 8.15800000 886029909 886029909 -1.00000000
8.24898815 0.01727667 2.21031475 51 15 8988 8.54000000 886029911 886029911 15.00000000
2.24287939 0.00117437 -0.60097784 4 0 8997 2.32200000 886029932 886029932 -15.00000000
8.16875553 0.00285143 0.14258616 15 1 8998 8.17000000 886029934 886029934 1.00000000
2.62495303 0.00045814 -0.60601813 6 2 8999 2.69400000 886029936 886029936 -13.00000000
8.18277073 0.00000000 0.42884082 13 3 9000 8.19400000 886029939 886029939 3.00000000
3.15494967 0.00000000 -0.61326009 5 4 9000 3.21400000 886029941 886029941 -11.00000000
8.17676640 -0.00142711 0.71537435 90 5 9001 8.20800000 886029943 886029943 5.00000000
3.96853161 -0.00138528 -0.62855369 6 6 9002 4.01800000 886029946 886029946 -9.00000000
8.19445992 -0.00429061 1.00615335 99 7 9003 8.25600000 886029948 886029948 7.00000000
5.31012058 -0.00370716 -0.65200096 9 8 9004 5.35000000 886029950 886029950 -7.00000000
6.64660835 -0.00580026 -0.58150309 4 10 9005 6.67200000 886029955 886029955 -5.00000000
8.16678619 -0.00997762 -0.42800346 17 12 9007 8.17800000 886029959 886029959 -3.00000000
8.14674854 -0.01279689 -0.14220221 18 14 9009 8.14800000 886029964 886029964 -1.00000000
8.24706459 -0.01295447 2.20979691 47 15 9009 8.53800000 886029966 886029966 15.00000000
2.23707438 -0.00663755 -0.59942490 4 0 9017 2.31600000 886029987 886029987 -15.00000000
8.16671562 -0.02565658 0.14255126 15 1 9018 8.16800000 886029989 886029989 1.00000000
2.63857961 -0.00874989 -0.60916746 6 2 9019 2.70800000 886029992 886029992 -13.00000000
8.18272018 -0.02856320 0.42884082 15 3 9020 8.19400000 886029994 886029994 3.00000000
3.14315104 -0.01097171 -0.61097038 5 4 9020 3.20200000 886029996 886029996 -11.00000000
8.17272663 -0.02995474 0.71502572 76 5 9021 8.20400000 886029999 886029999 5.00000000
3.96257639 -0.01521528 -0.62761509 6 6 9022 4.01200000 886030001 886030001 -9.00000000
8.19439507 -0.03289459 1.00615335 99 7 9023 8.25600000 886030003 886030003 7.00000000
5.32198572 -0.02229281 -0.65346342 9 8 9024 5.36200000 886030005 886030005 -7.00000000
8.15477180 -0.03558213 -0.71345693 17 10 9025 8.18600000 886030010 886030010 -5.00000000
8.17269325 -0.03851319 -0.42831746 25 12 9027 8.18400000 886030015 886030015 -3.00000000
8.15865231 -0.04129500 -0.14241163 18 14 9029 8.16000000 886030019 886030019 -1.00000000
8.24309826 -0.04316115 2.20876169 47 15 9030 8.53400000 886030022 886030022 15.00000000
2.23124695 -0.01363008 -0.59787202 4 0 9035 2.31000000 886030042 886030042 -15.00000000
