# .PCD v0.7 - Point Cloud Data file format
VERSION 0.7
FIELDS x y z intensity laser_id azimuth distance_m adjustedtime timestamp vertical_angle
SIZE 4 4 4 1 1 2 8 8 4 8
TYPE F F F U U U F U U F
COUNT 1 1 1 1 1 1 1 1 1 1
WIDTH 537
HEIGHT 1
VIEWPOINT 0 0 0 1 0 0 0
POINTS 537
DATA ascii
1.46248949 -1.93095422 -0.55922830 3 2 14286 2.48600000 886144675 886144675 -13.00000000
3.46809483 -4.57899523 0.30103642 7 3 14286 5.75200000 886144678 886144678 3.00000000
1.71953726 -2.27116299 -0.55372769 2 4 14287 2.90200000 886144680 886144680 -11.00000000
3.48329425 -4.60240078 0.50498039 9 5 14288 5.79400000 886144682 886144682 5.00000000
2.12027979 -2.80249548 -0.55659384 1 6 14289 3.55800000 886144685 886144685 -9.00000000
3.50126648 -4.62950420 0.71269190 7 7 14290 5.84800000 886144687 886144687 7.00000000
2.77139568 -3.66577172 -0.56425506 2 8 14291 4.63000000 886144689 886144689 -7.00000000
3.48371291 -4.60963774 0.91514164 40 9 14292 5.85000000 886144692 886144692 9.00000000
3.45124984 -4.56668282 -0.50079691 10 10 14292 5.74600000 886144694 886144694 -5.00000000
3.50768852 -4.64304686 1.13111567 42 11 14293 5.92800000 886144696 886144696 11.00000000
3.43521762 -4.54876900 -0.29873365 15 12 14294 5.70800000 886144699 886144699 -3.00000000
3.50245595 -4.63948679 1.34205794 33 13 14295 5.96600000 886144701 886144701 13.00000000
3.44143176 -4.56030703 -0.09972305 9 14 14296 5.71400000 886144703 886144703 -1.00000000
3.52482963 -4.67081881 1.56792581 42 15 14296 6.05800000 886144705 886144705 15.00000000
1.24865544 -1.65943086 -0.55646098 4 0 14304 2.15000000 886144726 886144726 -15.00000000
3.47032595 -4.61364937 0.10077020 7 1 14305 5.77400000 886144728 886144728 1.00000000
1.45339799 -1.93293238 -0.55832851 3 2 14306 2.48200000 886144731 886144731 -13.00000000
3.48128963 -4.63158941 0.30365321 7 3 14307 5.80200000 886144733 886144733 3.00000000
1.70923972 -2.27401280 -0.55296445 3 4 14307 2.89800000 886144735 886144735 -11.00000000
3.48396325 -4.63683176 0.50742072 9 5 14308 5.82200000 886144738 886144738 5.00000000
2.11760235 -2.81935644 -0.55847102 1 6 14309 3.57000000 886144740 886144740 -9.00000000
3.50177145 -4.66392183 0.71610427 7 7 14310 5.87600000 886144742 886144742 7.00000000
2.74666667 -3.65954685 -0.56181765 2 8 14311 4.61000000 886144745 886144745 -7.00000000
3.49330902 -4.65434265 0.92171186 38 9 14311 5.89200000 886144747 886144747 9.00000000
3.44963670 -4.59782648 -0.50288862 10 10 14312 5.77000000 886144749 886144749 -5.00000000
3.50795126 -4.67725086 1.13645840 45 11 14313 5.95600000 886144752 886144752 11.00000000
3.46364760 -4.61985922 -0.30260649 9 12 14314 5.78200000 886144754 886144754 -3.00000000
3.51078272 -4.68443155 1.35150588 10 13 14315 6.00800000 886144756 886144756 13.00000000
3.46505880 -4.62510443 -0.10087491 6 14 14316 5.78000000 886144758 886144758 -1.00000000
3.52274108 -4.70380831 1.57465506 38 15 14317 6.08400000 886144761 886144761 15.00000000
1.24054301 -1.66068399 -0.55542564 4 0 14324 2.14600000 886144781 886144781 -15.00000000
3.47334361 -4.65137100 0.10132867 11 1 14325 5.80600000 886144784 886144784 1.00000000
1.44664192 -1.93799388 -0.55832851 3 2 14326 2.48200000 886144786 886144786 -13.00000000
3.48861122 -4.67351818 0.30564198 7 3 14326 5.84000000 886144788 886144788 3.00000000
1.71303260 -2.29570007 -0.55678064 2 4 14327 2.91800000 886144791 886144791 -11.00000000
3.48681664 -4.67451715 0.51020974 9 5 14328 5.85400000 886144793 886144793 5.00000000
2.09948230 -2.81564593 -0.55628097 1 6 14329 3.55600000 886144795 886144795 -9.00000000
3.49733353 -4.69203281 0.71854162 7 7 14330 5.89600000 886144798 886144798 7.00000000
2.71845698 -3.64841866 -0.55864906 4 8 14331 4.58400000 886144800 886144800 -7.00000000
3.51044607 -4.71305704 0.93078506 16 9 14332 5.95000000 886144802 886144802 9.00000000
3.45736933 -4.64179754 -0.50637484 10 10 14332 5.81000000 886144805 886144805 -5.00000000
3.50567293 -4.70836401 1.14103782 45 11 14333 5.98000000 886144807 886144807 11.00000000
3.46658015 -4.65755653 -0.30428123 9 12 14334 5.81400000 886144809 886144809 -3.00000000
3.52232766 -4.73418140 1.36230361 32 13 14335 6.05600000 886144811 886144811 13.00000000
3.47514772 -4.67247200 -0.10164282 6 14 14336 5.82400000 886144814 886144814 -1.00000000
3.52820015 -4.74553251 1.58449018 38 15 14337 6.12200000 886144816 886144816 15.00000000
1.23934162 -1.67121112 -0.55749625 4 0 14344 2.15400000 886144837 886144837 -15.00000000
3.47375822 -4.68595695 0.10181734 8 1 14345 5.83400000 886144839 886144839 1.00000000
1.43058622 -1.93050623 -0.55472928 3 2 14346 2.46600000 886144841 886144841 -13.00000000
3.48892426 -4.70813274 0.30710739 7 3 14346 5.86800000 886144844 886144844 3.00000000
1.69565976 -2.28904510 -0.55372769 3 4 14347 2.90200000 886144846 886144846 -11.00000000
3.49656320 -4.72188616 0.51404458 9 5 14348 5.89800000 886144848 886144848 5.00000000
2.08846569 -2.82136965 -0.55596811 1 6 14349 3.55400000 886144851 886144851 -9.00000000
3.49274182 -4.72016954 0.72097903 7 7 14350 5.91600000 886144853 886144853 7.00000000
2.67973423 -3.62277508 -0.55328679 6 8 14351 4.54000000 886144855 886144855 -7.00000000
3.51124382 -4.74690628 0.93516523 28 9 14351 5.97800000 886144858 886144858 9.00000000
3.45654464 -4.67466354 -0.50864089 10 10 14352 5.83600000 886144860 886144860 -5.00000000
3.51488948 -4.75530577 1.14943337 31 11 14353 6.02400000 886144862 886144862 11.00000000
3.47997332 -4.70978737 -0.30689806 12 12 14354 5.86400000 886144864 886144864 -3.00000000
3.53240991 -4.78250074 1.37265134 14 13 14355 6.10200000 886144867 886144867 13.00000000
3.48494768 -4.71996546 -0.10241072 15 14 14356 5.86800000 886144869 886144869 -1.00000000
3.53455782 -4.78890610 1.59484291 38 15 14357 6.16200000 886144871 886144871 15.00000000
1.23350036 -1.67552698 -0.55749625 4 0 14364 2.15400000 886144892 886144892 -15.00000000
3.48108506 -4.73026562 0.10251544 8 1 14365 5.87400000 886144894 886144894 1.00000000
1.43307698 -1.94804609 -0.55832851 3 2 14366 2.48200000 886144897 886144897 -13.00000000
3.48193693 -4.73315334 0.30794477 7 3 14366 5.88400000 886144899 886144899 3.00000000
1.68533301 -2.29178691 -0.55296445 2 4 14367 2.89800000 886144901 886144901 -11.00000000
3.50838137 -4.77259016 0.51822805 9 5 14368 5.94600000 886144904 886144904 5.00000000
2.07977438 -2.83023429 -0.55628097 5 6 14369 3.55600000 886144906 886144906 -9.00000000
3.51150012 -4.78032780 0.72829121 7 7 14370 5.97600000 886144908 886144908 7.00000000
2.71641874 -3.69930887 -0.56352383 2 8 14371 4.62400000 886144911 886144911 -7.00000000
3.52271271 -4.79734707 0.94267410 17 9 14371 6.02600000 886144913 886144913 9.00000000
3.47321677 -4.73167229 -0.51352161 11 10 14372 5.89200000 886144915 886144915 -5.00000000
3.52846646 -4.80870008 1.15935540 21 11 14373 6.07600000 886144917 886144917 11.00000000
3.47178102 -4.73317909 -0.30763075 12 12 14374 5.87800000 886144920 886144920 -3.00000000
3.52952194 -4.81366062 1.37805021 27 13 14375 6.12600000 886144922 886144922 13.00000000
3.46726847 -4.73048878 -0.10237581 22 14 14376 5.86600000 886144924 886144924 -1.00000000
3.54179740 -4.83393955 1.60571337 38 15 14377 6.20400000 886144927 886144927 15.00000000
1.22650433 -1.67826283 -0.55697858 4 0 14384 2.15200000 886144947 886144947 -15.00000000
3.48578525 -4.77145290 0.10314372 11 1 14385 5.91000000 886144950 886144950 1.00000000
1.42167115 -1.94674158 -0.55652893 3 2 14386 2.47400000 886144952 886144952 -13.00000000
3.50073099 -4.79366732 0.31108493 7 3 14386 5.94400000 886144954 886144954 3.00000000
1.67963803 -2.30082726 -0.55372769 3 4 14387 2.90200000 886144957 886144957 -11.00000000
3.50814319 -4.80733919 0.52066839 9 5 14388 5.97400000 886144959 886144959 5.00000000
2.06988239 -2.83747673 -0.55628097 1 6 14389 3.55600000 886144961 886144961 -9.00000000
3.52286267 -4.83105087 0.73414093 7 7 14390 6.02400000 886144963 886144963 7.00000000
2.72453713 -3.73764300 -0.56791115 6 8 14391 4.66000000 886144966 886144966 -7.00000000
3.51874495 -4.82717323 0.94611567 10 9 14391 6.04800000 886144968 886144968 9.00000000
3.46606565 -4.75664949 -0.51491612 11 10 14392 5.90800000 886144970 886144970 -5.00000000
3.53593349 -4.85431194 1.16736948 25 11 14393 6.11800000 886144973 886144973 11.00000000
3.46229172 -4.75495672 -0.30825877 34 12 14394 5.89000000 886144975 886144975 -3.00000000
3.52760625 -4.84643412 1.38389885 15 13 14395 6.15200000 886144977 886144977 13.00000000
3.43191051 -4.71669149 -0.10181734 24 14 14396 5.83400000 886144980 886144980 -1.00000000
3.54848003 -4.87690020 1.61606610 40 15 14396 6.24400000 886144982 886144982 15.00000000
1.21950424 -1.68097019 -0.55646098 7 0 14404 2.15000000 886145003 886145003 -15.00000000
3.49024034 -4.81272984 0.10377201 8 1 14405 5.94600000 886145005 886145005 1.00000000
1.42172980 -1.96115887 -0.55922830 3 2 14406 2.48600000 886145007 886145007 -13.00000000
3.51211095 -4.84466696 0.31359705 7 3 14406 5.99200000 886145010 886145010 3.00000000
1.67159641 -2.30667615 -0.55372769 2 4 14407 2.90200000 886145012 886145012 -11.00000000
3.50770497 -4.84214497 0.52310878 9 5 14408 6.00200000 886145014 886145014 5.00000000
2.06228232 -2.84788465 -0.55690670 1 6 14409 3.56000000 886145016 886145016 -9.00000000
3.52925777 -4.87547874 0.73901570 7 7 14410 6.06400000 886145019 886145019 7.00000000
2.70216393 -3.73426485 -0.56596124 2 8 14411 4.64400000 886145021 886145021 -7.00000000
3.52966619 -4.87783480 0.95362449 30 9 14411 6.09600000 886145023 886145023 9.00000000
3.47162747 -4.79939127 -0.51822805 11 10 14412 5.94600000 886145026 886145026 -5.00000000
3.53507233 -4.88889837 1.17271209 43 11 14413 6.14600000 886145028 886145028 11.00000000
3.43046260 -4.74597025 -0.30689806 31 12 14414 5.86400000 886145030 886145030 -3.00000000
3.54034162 -4.89978647 1.39559639 15 13 14415 6.20400000 886145033 886145033 13.00000000
3.42127967 -4.73674774 -0.10199186 24 14 14416 5.84400000 886145035 886145035 -1.00000000
3.54641366 -4.91180086 1.62331307 40 15 14417 6.27200000 886145037 886145037 15.00000000
1.21701598 -1.68991971 -0.55801386 4 0 14424 2.15600000 886145058 886145058 -15.00000000
3.49444914 -4.85409594 0.10440029 8 1 14425 5.98200000 886145060 886145060 1.00000000
1.41259897 -1.96294618 -0.55832851 3 2 14426 2.48200000 886145063 886145063 -13.00000000
3.50832677 -4.87696266 0.31485310 7 3 14427 6.01600000 886145065 886145065 3.00000000
1.66353440 -2.31249714 -0.55372769 3 4 14427 2.90200000 886145067 886145067 -11.00000000
3.51171899 -4.88347626 0.52624637 9 5 14428 6.03800000 886145069 886145069 5.00000000
2.05002284 -2.85185814 -0.55628097 1 6 14429 3.55600000 886145072 886145072 -9.00000000
3.52496004 -4.90550089 0.74169683 10 7 14430 6.08600000 886145074 886145074 7.00000000
2.68216372 -3.73400092 -0.56449878 2 8 14431 4.63200000 886145076 886145076 -7.00000000
3.53220940 -4.91740036 0.95894325 25 9 14431 6.13000000 886145079 886145079 9.00000000
3.49203968 -4.86326885 -0.52380604 11 10 14432 6.01000000 886145081 886145081 -5.00000000
3.53286791 -4.92194223 1.17767310 43 11 14433 6.17200000 886145083 886145083 11.00000000
3.40456057 -4.74493408 -0.30606067 31 12 14434 5.84800000 886145086 886145086 -3.00000000
3.54138923 -4.93745136 1.40279472 32 13 14435 6.23600000 886145088 886145088 13.00000000
3.39773321 -4.73891068 -0.10178243 24 14 14436 5.83200000 886145090 886145090 -1.00000000
3.55599642 -4.95964432 1.63521874 36 15 14436 6.31800000 886145093 886145093 15.00000000
1.20436871 -1.68472815 -0.55490804 4 0 14444 2.14400000 886145113 886145113 -15.00000000
3.49608636 -4.89229584 0.10495877 8 1 14445 6.01400000 886145116 886145116 1.00000000
1.39894187 -1.95835078 -0.55562907 3 2 14446 2.47000000 886145118 886145118 -13.00000000
3.51217365 -4.91843653 0.31673720 7 3 14447 6.05200000 886145120 886145120 3.00000000
1.65773404 -2.32148528 -0.55449092 3 4 14447 2.90600000 886145122 886145122 -11.00000000
3.51780224 -4.92813730 0.52973258 9 5 14448 6.07800000 886145125 886145125 5.00000000
3.39397287 -4.75641823 -0.92546630 2 6 14449 5.91600000 886145127 886145127 -9.00000000
3.53202295 -4.95171356 0.74681532 26 7 14450 6.12800000 886145129 886145129 7.00000000
2.65989351 -3.73041034 -0.56254888 2 8 14451 4.61600000 886145132 886145132 -7.00000000
3.53594685 -4.96087646 0.96488780 40 9 14452 6.16800000 886145134 886145134 9.00000000
3.49123240 -4.89814281 -0.52624637 11 10 14452 6.03800000 886145136 886145136 -5.00000000
3.54300714 -4.97261810 1.18683195 46 11 14453 6.22000000 886145139 886145139 11.00000000
3.37407255 -4.73726749 -0.30480462 31 12 14454 5.82400000 886145141 886145141 -3.00000000
3.54673791 -4.98153257 1.41179287 41 13 14455 6.27600000 886145143 886145143 13.00000000
3.37653255 -4.74422503 -0.10164282 24 14 14456 5.82400000 886145146 886145146 -1.00000000
3.55795288 -5.00097847 1.64453626 38 15 14457 6.35400000 886145148 886145148 15.00000000
1.20630658 -1.69995034 -0.55853152 4 0 14464 2.15800000 886145169 886145169 -15.00000000
3.50212693 -4.93708992 0.10565687 8 1 14465 6.05400000 886145171 886145171 1.00000000
1.39209747 -1.96322215 -0.55562907 3 2 14466 2.47000000 886145173 886145173 -13.00000000
3.51692843 -4.96162558 0.31872597 7 3 14467 6.09000000 886145175 886145175 3.00000000
1.64962041 -2.32725763 -0.55449092 3 4 14467 2.90600000 886145178 886145178 -11.00000000
3.52707171 -4.97777653 0.53374177 9 5 14468 6.12400000 886145180 886145180 5.00000000
3.37278223 -4.76178885 -0.92421484 2 6 14469 5.90800000 886145182 886145182 -9.00000000
3.53536439 -4.99317408 0.75120264 36 7 14470 6.16400000 886145185 886145185 7.00000000
2.65373683 -3.74939418 -0.56401134 4 8 14471 4.62800000 886145187 886145187 -7.00000000
3.53887701 -4.99998522 0.97020656 42 9 14471 6.20200000 886145189 886145189 9.00000000
3.49252534 -4.93632317 -0.52903533 11 10 14472 6.07000000 886145192 886145192 -5.00000000
3.55283523 -5.02342415 1.19599080 43 11 14473 6.26800000 886145194 886145194 11.00000000
3.35751605 -4.74901628 -0.30480462 31 12 14474 5.82400000 886145196 886145196 -3.00000000
3.55294633 -5.02730274 1.42124081 44 13 14475 6.31800000 886145199 886145199 13.00000000
3.35302854 -4.74618292 -0.10143339 24 14 14476 5.81200000 886145201 886145201 -1.00000000
3.56029916 -5.03957272 1.65333605 38 15 14476 6.38800000 886145203 886145203 15.00000000
1.19480288 -1.69625390 -0.55594331 4 0 14484 2.14800000 886145224 886145224 -15.00000000
3.51250219 -4.98852587 0.10649458 8 1 14485 6.10200000 886145226 886145226 1.00000000
1.38972259 -1.97444379 -0.55742872 3 2 14486 2.47800000 886145228 886145228 -13.00000000
3.52946925 -5.01634169 0.32144743 7 3 14487 6.14200000 886145231 886145231 3.00000000
1.63244891 -2.32015657 -0.55143797 3 4 14487 2.89000000 886145233 886145233 -11.00000000
3.53718328 -5.02917051 0.53792524 9 5 14488 6.17200000 886145235 886145235 5.00000000
3.35500383 -4.77191687 -0.92390198 2 6 14489 5.90600000 886145238 886145238 -9.00000000
3.53845930 -5.03471851 0.75558990 36 7 14490 6.20000000 886145240 886145240 7.00000000
2.63150358 -3.74564028 -0.56206143 4 8 14491 4.61200000 886145242 886145242 -7.00000000
3.53982711 -5.04040384 0.97552532 37 9 14492 6.23600000 886145245 886145245 9.00000000
3.40427923 -4.84739494 -0.51822805 7 10 14492 5.94600000 886145247 886145247 -5.00000000
3.56235147 -5.07435942 1.20514965 40 11 14493 6.31600000 886145249 886145249 11.00000000
3.32944536 -4.74435902 -0.30375788 30 12 14494 5.80400000 886145251 886145251 -3.00000000
3.55104399 -5.06200886 1.42753935 44 13 14495 6.34600000 886145254 886145254 13.00000000
3.32266355 -4.73821163 -0.10101453 24 14 14496 5.78800000 886145256 886145256 -1.00000000
3.56176448 -5.08106232 1.66265357 33 15 14497 6.42400000 886145258 886145258 15.00000000
1.18666065 -1.69724762 -0.55490804 4 0 14504 2.14400000 886145279 886145279 -15.00000000
3.51110530 -5.02370310 0.10698325 8 1 14505 6.13000000 886145281 886145281 1.00000000
1.38282204 -1.97928274 -0.55742872 3 2 14506 2.47800000 886145284 886145284 -13.00000000
3.53709626 -5.06465530 0.32375023 7 3 14507 6.18600000 886145286 886145286 3.00000000
1.62658834 -2.32905984 -0.55220121 3 4 14507 2.89400000 886145288 886145288 -11.00000000
3.53443336 -5.06272459 0.54019129 3 5 14508 6.19800000 886145291 886145291 5.00000000
2.01678777 -2.88992238 -0.55815816 1 6 14509 3.56800000 886145293 886145293 -9.00000000
3.55152893 -5.09099722 0.76217085 39 7 14510 6.25400000 886145295 886145295 7.00000000
2.61841273 -3.75480294 -0.56206143 4 8 14511 4.61200000 886145298 886145298 -7.00000000
3.54569149 -5.08452082 0.98178267 37 9 14511 6.27600000 886145300 886145300 9.00000000
3.11616850 -4.47024727 -0.47674191 10 10 14512 5.47000000 886145302 886145302 -5.00000000
6.54934788 -9.39875317 2.22674108 28 11 14513 11.67000000 886145304 886145304 11.00000000
3.36309361 -4.82806158 -0.30836347 25 12 14514 5.89200000 886145307 886145307 -3.00000000
5.83175802 -8.37519455 2.35613728 46 13 14515 10.47400000 886145309 886145309 13.00000000
3.47746372 -4.99596834 -0.10625025 24 14 14516 6.08800000 886145311 886145311 -1.00000000
4.54700136 -6.53254175 2.13266897 18 15 14516 8.24000000 886145314 886145314 15.00000000
1.18513465 -1.70772803 -0.55697858 4 0 14524 2.15200000 886145334 886145334 -15.00000000
3.51976395 -5.07371855 0.10778606 2 1 14525 6.17600000 886145337 886145337 1.00000000
1.36924171 -1.97448945 -0.55472928 3 2 14526 2.46600000 886145339 886145339 -13.00000000
3.52849865 -5.09010267 0.32458761 7 3 14527 6.20200000 886145341 886145341 3.00000000
1.62292242 -2.34117746 -0.55372769 3 4 14527 2.90200000 886145344 886145344 -11.00000000
3.52127886 -5.08158159 0.54088855 13 5 14528 6.20600000 886145346 886145346 5.00000000
1.99543941 -2.88070607 -0.55502951 1 6 14529 3.54800000 886145348 886145348 -9.00000000
2.61206889 -3.77371359 -0.56352383 4 8 14531 4.62400000 886145353 886145353 -7.00000000
3.50866103 -5.07093143 -0.53949404 11 10 14532 6.19000000 886145357 886145357 -5.00000000
6.50868273 -9.41025543 2.22406960 34 11 14533 11.65600000 886145360 886145360 11.00000000
3.48025060 -5.03362513 -0.32071474 32 12 14534 6.12800000 886145362 886145362 -3.00000000
5.81356716 -8.41153145 2.36063647 46 13 14535 10.49400000 886145364 886145364 13.00000000
3.47364330 -5.02781963 -0.10666911 24 14 14536 6.11200000 886145367 886145367 -1.00000000
4.51863670 -6.54280472 2.13059831 20 15 14537 8.23200000 886145369 886145369 15.00000000
1.17916632 -1.71185446 -0.55697858 4 0 14544 2.15200000 886145390 886145390 -15.00000000
3.50883627 -5.09585619 0.10799549 11 1 14545 6.18800000 886145392 886145392 1.00000000
1.36455083 -1.98246741 -0.55562907 3 2 14546 2.47000000 886145394 886145394 -13.00000000
3.51636982 -5.11061525 0.32511097 7 3 14547 6.21200000 886145397 886145397 3.00000000
1.61474037 -2.34682846 -0.55372769 3 4 14547 2.90200000 886145399 886145399 -11.00000000
1.98089516 -2.88114285 -0.55377799 1 6 14549 3.54000000 886145404 886145404 -9.00000000
2.58763933 -3.76644659 -0.56108648 4 8 14551 4.60400000 886145408 886145408 -7.00000000
3.37363434 -4.91234112 -0.52136564 11 10 14552 5.98200000 886145413 886145413 -5.00000000
6.49690676 -9.46366978 2.23132038 37 11 14553 11.69400000 886145415 886145415 11.00000000
3.45587826 -5.03586197 -0.32008672 32 12 14554 6.11600000 886145417 886145417 -3.00000000
5.79519415 -8.44784355 2.36513543 47 13 14555 10.51400000 886145420 886145420 13.00000000
3.45380998 -5.03661585 -0.10659930 27 14 14556 6.10800000 886145422 886145422 -1.00000000
4.49473000 -6.55456686 2.12956309 22 15 14556 8.22800000 886145424 886145424 15.00000000
1.17318368 -1.71596014 -0.55697858 4 0 14564 2.15200000 886145445 886145445 -15.00000000
1.35542393 -1.98400033 -0.55472928 3 2 14566 2.46600000 886145450 886145450 -13.00000000
1.60210979 -2.34596562 -0.55220121 3 4 14567 2.89400000 886145454 886145454 -11.00000000
1.98084712 -2.90272498 -0.55659384 1 6 14569 3.55800000 886145459 886145459 -9.00000000
2.57112122 -3.77053595 -0.56035525 4 8 14571 4.59800000 886145463 886145463 -7.00000000
3.53152800 -5.18091011 -0.54855824 11 10 14572 6.29400000 886145468 886145468 -5.00000000
6.48152065 -9.51224899 2.23742628 40 11 14573 11.72600000 886145470 886145470 11.00000000
3.43153262 -5.03799009 -0.31945866 32 12 14574 6.10400000 886145473 886145473 -3.00000000
5.77225065 -8.47768593 2.36783481 48 13 14575 10.52600000 886145475 886145475 13.00000000
3.42720652 -5.03541613 -0.10632006 24 14 14576 6.09200000 886145477 886145477 -1.00000000
4.46089602 -6.55662155 2.12490439 20 15 14577 8.21000000 886145480 886145480 15.00000000
1.16284764 -1.71365058 -0.55490804 4 0 14584 2.14400000 886145500 886145500 -15.00000000
1.34849012 -1.98871958 -0.55472928 3 2 14586 2.46600000 886145505 886145505 -13.00000000
1.59170794 -2.34829330 -0.55143797 3 4 14587 2.89000000 886145510 886145510 -11.00000000
3.42629766 -5.05871820 -0.96770358 4 6 14589 6.18600000 886145514 886145514 -9.00000000
2.56239438 -3.78606391 -0.56133020 4 8 14591 4.60600000 886145519 886145519 -7.00000000
3.60496926 -5.32852316 -0.56285179 11 10 14592 6.45800000 886145523 886145523 -5.00000000
3.41392589 -5.04993773 -0.31945866 32 12 14594 6.10400000 886145528 886145528 -3.00000000
5.75680780 -8.51877308 2.37368345 51 13 14595 10.55200000 886145530 886145530 13.00000000
3.39617634 -5.02746391 -0.10590120 24 14 14596 6.06800000 886145533 886145533 -1.00000000
4.42723370 -6.55376959 2.11921024 18 15 14596 8.18800000 886145535 886145535 15.00000000
1.15470052 -1.71449459 -0.55387276 4 0 14604 2.14000000 886145556 886145556 -15.00000000
1.34589219 -1.99988151 -0.55652893 3 2 14606 2.47400000 886145560 886145560 -13.00000000
1.58569288 -2.35709310 -0.55220121 3 4 14607 2.89400000 886145565 886145565 -11.00000000
3.39649606 -5.05261421 -0.96426207 4 6 14609 6.16400000 886145569 886145569 -9.00000000
2.54916286 -3.79498529 -0.56133020 4 8 14611 4.60600000 886145574 886145574 -7.00000000
3.57857275 -5.32949543 -0.56163162 11 10 14612 6.44400000 886145579 886145579 -5.00000000
5.76065826 -8.58246803 2.00921869 9 11 14613 10.53000000 886145581 886145581 11.00000000
3.37958527 -5.03694582 -0.31788859 39 12 14614 6.07400000 886145583 886145583 -3.00000000
5.74331903 -8.56309223 2.38043213 51 13 14615 10.58200000 886145586 886145586 13.00000000
3.35744858 -5.00773048 -0.10523801 40 14 14616 6.03000000 886145588 886145588 -1.00000000
4.39464760 -6.55474234 2.11455154 11 15 14616 8.17000000 886145590 886145590 15.00000000
1.14900875 -1.71831429 -0.55387276 4 0 14623 2.14000000 886145611 886145611 -15.00000000
1.33492231 -1.99785233 -0.55472928 3 2 14625 2.46600000 886145616 886145616 -13.00000000
1.58004868 -2.36560369 -0.55296445 3 4 14626 2.89800000 886145620 886145620 -11.00000000
3.35450053 -5.02605963 -0.95706606 4 6 14628 6.11800000 886145625 886145625 -9.00000000
2.55088282 -3.82488728 -0.56449878 4 8 14630 4.63200000 886145629 886145629 -7.00000000
3.55535388 -5.33304453 -0.56076002 11 10 14631 6.43400000 886145634 886145634 -5.00000000
6.41480017 -9.62586498 2.24849319 25 11 14632 11.78400000 886145636 886145636 11.00000000
3.35400534 -5.03482771 -0.31705123 35 12 14633 6.05800000 886145639 886145639 -3.00000000
5.73217297 -8.60804367 2.38763046 48 13 14634 10.61400000 886145641 886145641 13.00000000
3.34968829 -5.03215361 -0.10551725 29 14 14635 6.04600000 886145643 886145643 -1.00000000
4.37181664 -6.56767130 2.11403394 18 15 14635 8.16800000 886145645 886145645 15.00000000
1.14941299 -1.73197246 -0.55697858 4 0 14643 2.15200000 886145666 886145666 -15.00000000
1.32363236 -1.99600351 -0.55292970 3 2 14645 2.45800000 886145671 886145671 -13.00000000
1.57612050 -2.37765002 -0.55449092 3 4 14646 2.90600000 886145675 886145675 -11.00000000
3.34457183 -5.04926634 -0.95925611 4 6 14648 6.13200000 886145680 886145680 -9.00000000
2.51888990 -3.80562735 -0.56035525 2 8 14650 4.59800000 886145685 886145685 -7.00000000
3.54661083 -5.36037683 -0.56232888 15 10 14651 6.45200000 886145689 886145689 -5.00000000
6.40173817 -9.67931080 2.25574398 34 11 14652 11.82200000 886145692 886145692 11.00000000
3.33200407 -5.03984070 -0.31663254 35 12 14653 6.05000000 886145694 886145694 -3.00000000
5.71068573 -8.64100647 2.39122963 50 13 14654 10.63000000 886145696 886145696 13.00000000
3.33320475 -5.04548407 -0.10555215 29 14 14655 6.04800000 886145698 886145698 -1.00000000
4.34665060 -6.58203840 2.11351633 15 15 14656 8.16600000 886145701 886145701 15.00000000
1.13910985 -1.72952068 -0.55490804 4 0 14663 2.14400000 886145722 886145722 -15.00000000
1.32094216 -2.00712299 -0.55472928 3 2 14665 2.46600000 886145726 886145726 -13.00000000
1.56133723 -2.37329650 -0.55220121 3 4 14666 2.89400000 886145731 886145731 -11.00000000
3.32258582 -5.05430794 -0.95800465 4 6 14668 6.12400000 886145735 886145735 -9.00000000
2.50994992 -3.82103348 -0.56133020 2 8 14670 4.60600000 886145740 886145740 -7.00000000
3.54100108 -5.39270973 -0.56442058 15 10 14671 6.47600000 886145745 886145745 -5.00000000
6.38730335 -9.73114109 2.26261306 34 11 14672 11.85800000 886145747 886145747 11.00000000
3.31439137 -5.05144072 -0.31663254 35 12 14673 6.05000000 886145749 886145749 -3.00000000
5.69117594 -8.67718315 2.39572883 48 13 14674 10.65000000 886145751 886145751 13.00000000
3.31009030 -5.04872656 -0.10537763 31 14 14675 6.03800000 886145754 886145754 -1.00000000
4.31738567 -6.58510733 2.10989285 13 15 14675 8.15200000 886145756 886145756 15.00000000
1.13517976 -1.73672044 -0.55594331 4 0 14683 2.14800000 886145777 886145777 -15.00000000
1.31605923 -2.01498485 -0.55562907 3 2 14685 2.47000000 886145781 886145781 -13.00000000
1.54660368 -2.36886859 -0.54991150 3 4 14686 2.88200000 886145786 886145786 -11.00000000
3.30708146 -5.06918383 -0.95863038 4 6 14688 6.12800000 886145791 886145791 -9.00000000
2.48900819 -3.81813073 -0.55962402 2 8 14690 4.59200000 886145795 886145795 -7.00000000
3.53303289 -5.42172956 -0.56616372 19 10 14691 6.49600000 886145800 886145800 -5.00000000
6.37472773 -9.78627777 2.27024531 37 11 14692 11.89800000 886145802 886145802 11.00000000
3.29128933 -5.05461073 -0.31610918 35 12 14693 6.04000000 886145804 886145804 -3.00000000
5.67360926 -8.71659470 2.40112758 46 13 14694 10.67400000 886145807 886145807 13.00000000
3.29026556 -5.05689812 -0.10530782 31 14 14695 6.03400000 886145809 886145809 -1.00000000
4.29015875 -6.59366083 2.10782242 9 15 14695 8.14400000 886145811 886145811 15.00000000
1.12070000 -1.72770655 -0.55180222 4 0 14703 2.13200000 886145832 886145832 -15.00000000
1.30901766 -2.01956654 -0.55562907 3 2 14705 2.47000000 886145837 886145837 -13.00000000
1.54046047 -2.37754822 -0.55067474 3 4 14706 2.88600000 886145841 886145841 -11.00000000
3.28507233 -5.07406425 -0.95737892 4 6 14708 6.12000000 886145846 886145846 -9.00000000
2.47135234 -3.82012892 -0.55864906 2 8 14710 4.58400000 886145850 886145850 -7.00000000
3.53031492 -5.45912504 -0.56877840 24 10 14711 6.52600000 886145855 886145855 -5.00000000
6.35118675 -9.82495785 2.27406168 34 11 14712 11.91800000 886145857 886145857 11.00000000
3.27579331 -5.06942368 -0.31631851 39 12 14713 6.04400000 886145860 886145860 -3.00000000
5.65795088 -8.75926304 2.40742612 47 13 14714 10.70200000 886145862 886145862 13.00000000
3.27259374 -5.06835222 -0.10530782 31 14 14715 6.03400000 886145864 886145864 -1.00000000
4.25663710 -6.59236670 2.10264587 9 15 14715 8.12400000 886145867 886145867 15.00000000
1.12511885 -1.74785197 -0.55697858 4 0 14723 2.15200000 886145887 886145887 -15.00000000
1.29774320 -2.01756763 -0.55382949 3 2 14725 2.46200000 886145892 886145892 -13.00000000
1.53639901 -2.38951635 -0.55220121 3 4 14726 2.89400000 886145897 886145897 -11.00000000
3.25879836 -5.07220459 -0.95487595 4 6 14728 6.10400000 886145901 886145901 -9.00000000
2.45692992 -3.82706189 -0.55840534 2 8 14730 4.58200000 886145906 886145906 -7.00000000
3.52737856 -5.49656677 -0.57139307 24 10 14731 6.55600000 886145910 886145910 -5.00000000
6.33063316 -9.86855030 2.27902269 40 11 14732 11.94400000 886145913 886145913 11.00000000
3.25484347 -5.07578373 -0.31600451 35 12 14733 6.03800000 886145915 886145915 -3.00000000
5.63365078 -8.78880310 2.41012549 47 13 14734 10.71400000 886145917 886145917 13.00000000
3.25488186 -5.07974529 -0.10530782 31 14 14735 6.03400000 886145920 886145920 -1.00000000
4.23557234 -6.61280394 2.10419893 9 15 14736 8.13000000 886145922 886145922 15.00000000
1.11485100 -1.74525654 -0.55490804 4 0 14743 2.14400000 886145943 886145943 -15.00000000
1.29069269 -2.02208543 -0.55382949 3 2 14745 2.46200000 886145947 886145947 -13.00000000
1.53016067 -2.39817476 -0.55296445 3 4 14746 2.89800000 886145952 886145952 -11.00000000
3.24956894 -5.09687424 -0.95737892 4 6 14748 6.12000000 886145956 886145956 -9.00000000
2.43395686 -3.82054687 -0.55621171 2 8 14750 4.56400000 886145961 886145961 -7.00000000
3.52743435 -5.53909588 -0.57453066 16 10 14751 6.59200000 886145966 886145966 -5.00000000
6.31196117 -9.91543007 2.28474689 37 11 14752 11.97400000 886145968 886145968 11.00000000
3.23281670 -5.08037424 -0.31558582 35 12 14753 6.03000000 886145970 886145970 -3.00000000
5.61130524 -8.82156944 2.41372490 48 13 14754 10.73000000 886145973 886145973 13.00000000
3.23713040 -5.09107590 -0.10530782 33 14 14755 6.03400000 886145975 886145975 -1.00000000
4.21258354 -6.62518311 2.10368109 6 15 14755 8.12800000 886145977 886145977 15.00000000
1.11082065 -1.75240076 -0.55594331 4 0 14763 2.14800000 886145998 886145998 -15.00000000
1.28258359 -2.02493215 -0.55337960 3 2 14765 2.46000000 886146002 886146002 -13.00000000
1.51337838 -2.39023161 -0.54991150 3 4 14766 2.88200000 886146007 886146007 -11.00000000
3.22542095 -5.09817028 -0.95550174 4 6 14768 6.10800000 886146012 886146012 -9.00000000
2.42803097 -3.84076524 -0.55791783 2 8 14770 4.57800000 886146016 886146016 -7.00000000
3.53042912 -5.58674526 -0.57819122 16 10 14771 6.63400000 886146021 886146021 -5.00000000
3.21506333 -5.09162760 -0.31558582 35 12 14773 6.03000000 886146026 886146026 -3.00000000
5.58671904 -8.85099030 2.41642427 50 13 14774 10.74200000 886146028 886146028 13.00000000
3.21400428 -5.09388828 -0.10513330 36 14 14775 6.02400000 886146030 886146030 -1.00000000
4.18427753 -6.63167810 2.10109305 6 15 14775 8.11800000 886146032 886146032 15.00000000
1.10675406 -1.75953805 -0.55697858 4 0 14783 2.15200000 886146053 886146053 -15.00000000
1.27965546 -2.03599644 -0.55517918 3 2 14785 2.46800000 886146058 886146058 -13.00000000
1.50293684 -2.39217496 -0.54914826 3 4 14786 2.87800000 886146062 886146062 -11.00000000
3.19920301 -5.09601402 -0.95299876 6 6 14788 6.09200000 886146067 886146067 -9.00000000
2.42621303 -3.86771488 -0.56059897 2 8 14790 4.60000000 886146072 886146072 -7.00000000
3.50773072 -5.59397078 -0.57766825 16 10 14791 6.62800000 886146076 886146076 -5.00000000
3.20151234 -5.10958958 -0.31600451 35 12 14793 6.03800000 886146081 886146081 -3.00000000
5.57544279 -8.90181732 2.42497230 53 13 14794 10.78000000 886146083 886146083 13.00000000
3.19195914 -5.09829664 -0.10499368 36 14 14795 6.01600000 886146085 886146085 -1.00000000
4.35876751 -6.96466208 2.20151472 9 15 14796 8.50600000 886146088 886146088 15.00000000
1.09651387 -1.75683534 -0.55490804 4 0 14803 2.14400000 886146108 886146108 -15.00000000
1.27254069 -2.04045105 -0.55517918 3 2 14805 2.46800000 886146113 886146113 -13.00000000
3.18766165 -5.11721039 -0.95487595 4 6 14808 6.10400000 886146122 886146122 -9.00000000
2.40850139 -3.86941934 -0.55962402 2 8 14810 4.59200000 886146127 886146127 -7.00000000
3.46818423 -5.57403898 -0.57435632 12 10 14811 6.59000000 886146132 886146132 -5.00000000
3.18576622 -5.12412596 -0.31621385 35 12 14813 6.04200000 886146136 886146136 -3.00000000
5.46821690 -8.79874420 2.39167953 38 13 14814 10.63200000 886146138 886146138 13.00000000
3.17203283 -5.10601044 -0.10492387 36 14 14815 6.01200000 886146141 886146141 -1.00000000
4.45570803 -7.17513180 2.26311374 24 15 14816 8.74400000 886146143 886146143 15.00000000
1.08427191 -1.75079775 -0.55180222 4 0 14823 2.13200000 886146164 886146164 -15.00000000
1.26335955 -2.04156637 -0.55427939 3 2 14825 2.46400000 886146168 886146168 -13.00000000
3.15523958 -5.10478163 -0.95049584 6 6 14828 6.07600000 886146178 886146178 -9.00000000
2.39289379 -3.87442517 -0.55913657 2 8 14830 4.58800000 886146182 886146182 -7.00000000
3.44661283 -5.58272076 -0.57400775 12 10 14831 6.58600000 886146187 886146187 -5.00000000
3.15737414 -5.11821651 -0.31516713 35 12 14833 6.02200000 886146191 886146191 -3.00000000
5.53259516 -8.97203922 2.43352056 45 13 14834 10.81800000 886146194 886146194 13.00000000
3.15628862 -5.12045622 -0.10499368 36 14 14835 6.01600000 886146196 886146196 -1.00000000
4.43367529 -7.19557571 2.26466656 31 15 14836 8.75000000 886146198 886146198 15.00000000
1.08422232 -1.76444757 -0.55490804 4 0 14843 2.14400000 886146219 886146219 -15.00000000
1.25010753 -2.03599977 -0.55158001 3 2 14845 2.45200000 886146224 886146224 -13.00000000
3.13533592 -5.11239672 -0.94987005 4 6 14848 6.07200000 886146233 886146233 -9.00000000
2.36898279 -3.86582851 -0.55669916 2 8 14850 4.56800000 886146238 886146238 -7.00000000
3.42086005 -5.58452368 -0.57296187 8 10 14851 6.57400000 886146242 886146242 -5.00000000
3.13219023 -5.11728239 -0.31443444 35 12 14853 6.00800000 886146247 886146247 -3.00000000
5.51548195 -9.01456928 2.43981910 48 13 14854 10.84600000 886146249 886146249 13.00000000
3.13004899 -5.11779547 -0.10471444 9 14 14855 6.00000000 886146251 886146251 -1.00000000
4.41256189 -7.21760130 2.26673722 38 15 14856 8.75800000 886146254 886146254 15.00000000
1.08107352 -1.77316988 -0.55646098 4 0 14863 2.15000000 886146274 886146274 -15.00000000
1.24907613 -2.05033636 -0.55427939 3 2 14865 2.46400000 886146279 886146279 -13.00000000
1.81441760 -2.98184729 -0.55283940 1 6 14868 3.53400000 886146288 886146288 -9.00000000
2.35959935 -3.88085914 -0.55767411 2 8 14870 4.57600000 886146293 886146293 -7.00000000
3.38892817 -5.57599974 -0.57087010 8 10 14871 6.55000000 886146297 886146297 -5.00000000
5.49004936 -9.04376221 2.44251847 48 13 14874 10.85800000 886146304 886146304 13.00000000
4.39160967 -7.23714876 2.26829004 33 15 14875 8.76400000 886146309 886146309 15.00000000
1.07187772 -1.77197385 -0.55490804 4 0 14883 2.14400000 886146330 886146330 -15.00000000
1.23989534 -2.05134845 -0.55337960 3 2 14885 2.46000000 886146334 886146334 -13.00000000
1.79480946 -2.97294283 -0.55002356 1 6 14888 3.51600000 886146343 886146343 -9.00000000
2.33988595 -3.87887335 -0.55621171 2 8 14890 4.56400000 886146348 886146348 -7.00000000
3.36532831 -5.58097076 -0.57017285 8 10 14891 6.54200000 886146353 886146353 -5.00000000
5.45578766 -9.05487919 -0.55402845 8 12 14893 10.58600000 886146357 886146357 -3.00000000
5.47453403 -9.08957958 2.44971704 47 13 14894 10.89000000 886146360 886146360 13.00000000
4.36306238 -7.24988556 2.26725483 33 15 14896 8.76000000 886146364 886146364 15.00000000
1.06568587 -1.77570450 -0.55490804 4 0 14903 2.14400000 886146385 886146385 -15.00000000
1.23272729 -2.05566406 -0.55337960 4 2 14905 2.46000000 886146390 886146390 -13.00000000
1.78848112 -2.98596835 -0.55127507 1 6 14908 3.52400000 886146399 886146399 -9.00000000
2.33448744 -3.90064406 -0.55816162 2 8 14910 4.58000000 886146403 886146403 -7.00000000
3.34173512 -5.58584452 -0.56947565 8 10 14911 6.53400000 886146408 886146408 -5.00000000
5.41902304 -9.06529617 -0.55350506 8 12 14913 10.57600000 886146413 886146413 -3.00000000
5.45776606 -9.13372707 2.45646548 51 13 14914 10.92000000 886146415 886146415 13.00000000
4.33800650 -7.26265574 2.26673722 36 15 14915 8.75800000 886146420 886146420 15.00000000
1.05552781 -1.77277410 -0.55283749 4 0 14923 2.13600000 886146440 886146440 -15.00000000
1.22155869 -2.05325556 -0.55158001 3 2 14925 2.45200000 886146445 886146445 -13.00000000
2.31477642 -3.89852786 -0.55669916 2 8 14930 4.56800000 886146459 886146459 -7.00000000
3.32221651 -5.59747553 -0.56947565 12 10 14931 6.53400000 886146463 886146463 -5.00000000
5.37104559 -9.05667114 -0.55183035 8 12 14933 10.54400000 886146468 886146468 -3.00000000
5.43876886 -9.17451477 2.46231413 53 13 14934 10.94600000 886146470 886146470 13.00000000
4.31234264 -7.28016853 2.26725483 33 15 14936 8.76000000 886146475 886146475 15.00000000
1.05522835 -1.78642774 -0.55594331 4 0 14943 2.14800000 886146496 886146496 -15.00000000
1.21240294 -2.05415058 -0.55068016 3 2 14945 2.44800000 886146500 886146500 -13.00000000
2.30115390 -3.90658426 -0.55669916 2 8 14950 4.56800000 886146514 886146514 -7.00000000
3.29659200 -5.59873676 -0.56842977 12 10 14951 6.52200000 886146519 886146519 -5.00000000
5.31104136 -9.02716446 -0.54889953 4 12 14953 10.48800000 886146523 886146523 -3.00000000
5.42054081 -9.21696091 2.46861291 52 13 14954 10.97400000 886146526 886146526 13.00000000
4.29503012 -7.30608654 2.27087831 36 15 14955 8.77400000 886146530 886146530 15.00000000
1.05093956 -1.79343390 -0.55697858 4 0 14963 2.15200000 886146551 886146551 -15.00000000
1.20719457 -2.06173348 -0.55158001 3 2 14965 2.45200000 886146555 886146555 -13.00000000
1.75113130 -2.99430203 -0.54939783 1 6 14968 3.51200000 886146565 886146565 -9.00000000
2.28349733 -3.90773726 -0.55572420 2 8 14970 4.56000000 886146569 886146569 -7.00000000
3.27903843 -5.61365080 -0.56877840 12 10 14971 6.52600000 886146574 886146574 -5.00000000
5.27949858 -9.04564857 -0.54889953 4 12 14973 10.48800000 886146578 886146578 -3.00000000
5.39422703 -9.24592495 2.47131228 54 13 14974 10.98600000 886146581 886146581 13.00000000
4.27406073 -7.33179331 2.27398419 36 15 14976 8.78600000 886146585 886146585 15.00000000
1.04078937 -1.79041076 -0.55490804 4 0 14983 2.14400000 886146606 886146606 -15.00000000
1.20194793 -2.06930494 -0.55247980 3 2 14985 2.45600000 886146611 886146611 -13.00000000
2.27183390 -3.91911912 -0.55621171 2 8 14990 4.56400000 886146625 886146625 -7.00000000
3.24943399 -5.60782337 -0.56703526 12 10 14991 6.50600000 886146629 886146629 -5.00000000
5.24488878 -9.05883694 -0.54858547 4 12 14993 10.48200000 886146634 886146634 -3.00000000
5.38534689 -9.30517769 2.48211002 52 13 14994 11.03400000 886146636 886146636 13.00000000
4.24682236 -7.34090996 2.27243114 33 15 14995 8.78000000 886146641 886146641 15.00000000
1.02970803 -1.78566515 -0.55231982 4 0 15003 2.13400000 886146661 886146661 -15.00000000
1.19471741 -2.07348800 -0.55247980 3 2 15005 2.45600000 886146666 886146666 -13.00000000
2.25022340 -3.91325855 -0.55426174 2 8 15010 4.54800000 886146680 886146680 -7.00000000
3.23182511 -5.62258673 -0.56738389 12 10 15011 6.51000000 886146684 886146684 -5.00000000
5.20328856 -9.05976963 -0.54753876 4 12 15013 10.46200000 886146689 886146689 -3.00000000
5.36835670 -9.35095978 2.48930836 53 13 15014 11.06600000 886146691 886146691 13.00000000
4.22084904 -7.35810184 2.27294874 36 15 15016 8.78200000 886146696 886146696 15.00000000
1.02219737 -1.78775024 -0.55180222 4 0 15024 2.13200000 886146717 886146717 -15.00000000
1.18710971 -2.07785296 -0.55247980 3 2 15026 2.45600000 886146721 886146721 -13.00000000
1.71621668 -3.00762844 -0.54845923 1 6 15029 3.50600000 886146731 886146731 -9.00000000
3.20724940 -5.62747002 -0.56668663 12 10 15032 6.50200000 886146740 886146740 -5.00000000
5.16214132 -9.06489563 -0.54670137 8 12 15034 10.44600000 886146744 886146744 -3.00000000
5.34754467 -9.39428329 2.49560690 51 13 15035 11.09400000 886146747 886146747 13.00000000
4.19896030 -7.37950659 2.27501941 36 15 15036 8.79000000 886146751 886146751 15.00000000
1.02166903 -1.80138981 -0.55490804 4 0 15044 2.14400000 886146772 886146772 -15.00000000
1.17600620 -2.07520223 -0.55068016 3 2 15046 2.44800000 886146777 886146777 -13.00000000
1.39631498 -2.46496606 -0.55067474 3 4 15047 2.88600000 886146781 886146781 -11.00000000
1.70570767 -3.01360083 -0.54845923 1 6 15049 3.50600000 886146786 886146786 -9.00000000
3.18170333 -5.62822485 -0.56564075 11 10 15052 6.49000000 886146795 886146795 -5.00000000
5.10591030 -9.03938389 -0.54408461 4 12 15054 10.39600000 886146800 886146800 -3.00000000
4.83757353 -8.56781864 2.27155566 13 13 15055 10.09800000 886146802 886146802 13.00000000
4.17663097 -7.40325975 2.27760768 33 15 15057 8.80000000 886146807 886146807 15.00000000
1.01537478 -1.80494511 -0.55490804 4 0 15064 2.14400000 886146827 886146827 -15.00000000
1.17257476 -2.08608985 -0.55247980 3 2 15066 2.45600000 886146832 886146832 -13.00000000
1.38385546 -2.46297884 -0.54914826 3 4 15067 2.87800000 886146837 886146837 -11.00000000
1.69421089 -3.01781392 -0.54814637 1 6 15069 3.50400000 886146841 886146841 -9.00000000
2.20066476 -3.92314291 -0.55231184 2 8 15071 4.53200000 886146846 886146846 -7.00000000
3.16885877 -5.65146160 -0.56686097 12 10 15072 6.50400000 886146850 886146850 -5.00000000
5.07725430 -9.06237984 -0.54439861 8 12 15074 10.40200000 886146855 886146855 -3.00000000
4.80954123 -8.58805370 2.27245545 52 13 15075 10.10200000 886146857 886146857 13.00000000
4.15677643 -7.42549801 2.28019571 36 15 15076 8.81000000 886146862 886146862 15.00000000
1.00718558 -1.80510449 -0.55387276 4 0 15084 2.14000000 886146883 886146883 -15.00000000
1.16718364 -2.09357429 -0.55337960 3 2 15086 2.46000000 886146887 886146887 -13.00000000
1.37716103 -2.47122407 -0.54991150 2 4 15087 2.88200000 886146892 886146892 -11.00000000
1.68558836 -3.02716112 -0.54877210 1 6 15089 3.50800000 886146896 886146896 -9.00000000
2.19081759 -3.93773937 -0.55328679 2 8 15091 4.54000000 886146901 886146901 -7.00000000
3.13846040 -5.64333487 -0.56494355 11 10 15092 6.48200000 886146906 886146906 -5.00000000
5.03879881 -9.06782627 -0.54366589 4 12 15094 10.38800000 886146910 886146910 -3.00000000
4.78237247 -8.60990047 2.27380514 48 13 15095 10.10800000 886146913 886146913 13.00000000
4.12895584 -7.43658447 2.27916050 36 15 15096 8.80600000 886146917 886146917 15.00000000
0.99370855 -1.79491353 -0.54973167 4 0 15103 2.12400000 886146938 886146938 -15.00000000
1.16023469 -2.09743333 -0.55337960 3 2 15105 2.46000000 886146943 886146943 -13.00000000
1.35945845 -2.45859647 -0.54609537 2 4 15106 2.86200000 886146947 886146947 -11.00000000
1.67554069 -3.03273416 -0.54877210 1 6 15108 3.50800000 886146952 886146952 -9.00000000
3.11587882 -5.64673376 -0.56424630 11 10 15111 6.47400000 886146961 886146961 -5.00000000
5.00677252 -9.08098793 -0.54345655 4 12 15113 10.38400000 886146966 886146966 -3.00000000
4.75849771 -8.63424587 2.27605486 48 13 15114 10.11800000 886146968 886146968 13.00000000
4.10054350 -7.44346714 2.27709007 36 15 15115 8.79800000 886146972 886146972 15.00000000
0.99673498 -1.81530499 -0.55490804 4 0 15123 2.14400000 886146993 886146993 -15.00000000
1.15290618 -2.10147047 -0.55337960 3 2 15125 2.46000000 886146998 886146998 -13.00000000
1.35842013 -2.47709799 -0.54914826 3 4 15126 2.87800000 886147002 886147002 -11.00000000
1.64690900 -3.00564957 -0.54282761 1 6 15128 3.47000000 886147007 886147007 -9.00000000
2.16396379 -3.95256042 -0.55328679 2 8 15130 4.54000000 886147012 886147012 -7.00000000
3.09423590 -5.65408039 -0.56389767 11 10 15131 6.47000000 886147016 886147016 -5.00000000
4.97408533 -9.09665680 -0.54335189 8 12 15133 10.38200000 886147021 886147021 -3.00000000
4.73019886 -8.65422344 2.27695465 50 13 15134 10.12200000 886147023 886147023 13.00000000
4.07879019 -7.46861935 2.28019571 36 15 15136 8.81000000 886147028 886147028 15.00000000
0.99039233 -1.81877327 -0.55490804 4 0 15143 2.14400000 886147049 886147049 -15.00000000
1.13904417 -2.09349966 -0.55023026 4 2 15145 2.44600000 886147053 886147053 -13.00000000
1.34976518 -2.48182487 -0.54914826 3 4 15146 2.87800000 886147058 886147058 -11.00000000
1.64772534 -3.03220797 -0.54658204 1 6 15148 3.49400000 886147062 886147062 -9.00000000
3.06687760 -5.65083790 -0.56250316 7 10 15151 6.45400000 886147072 886147072 -5.00000000
4.90993071 -9.05426979 -0.53979307 4 12 15153 10.31400000 886147076 886147076 -3.00000000
4.69810390 -8.66725540 2.27605486 50 13 15154 10.11800000 886147078 886147078 13.00000000
4.05676174 -7.48719978 2.28174877 38 15 15155 8.81600000 886147083 886147083 15.00000000
0.98220170 -1.81881964 -0.55387276 4 0 15163 2.14000000 886147104 886147104 -15.00000000
1.13450575 -2.10260797 -0.55158001 3 2 15165 2.45200000 886147108 886147108 -13.00000000
1.33550203 -2.47615361 -0.54685861 3 4 15166 2.86600000 886147113 886147113 -11.00000000
1.64181650 -3.04663587 -0.54814637 1 6 15168 3.50400000 886147118 886147118 -9.00000000
3.05657649 -5.67905283 -0.56424630 7 10 15171 6.47400000 886147127 886147127 -5.00000000
4.88207912 -9.07838917 -0.54021174 4 12 15173 10.32200000 886147131 886147131 -3.00000000
4.66874361 -8.68531895 2.27650476 51 13 15174 10.12000000 886147134 886147134 13.00000000
4.03334522 -7.50642014 2.28330159 36 15 15175 8.82200000 886147138 886147138 15.00000000
0.97648287 -1.82189631 -0.55387276 4 0 15181 2.14000000 886147159 886147159 -15.00000000
1.12973452 -2.10959768 -0.55247980 3 2 15183 2.45600000 886147164 886147164 -13.00000000
1.32771635 -2.48033690 -0.54685861 3 4 15184 2.86600000 886147168 886147168 -11.00000000
1.62478399 -3.03784370 -0.54564339 1 6 15186 3.48800000 886147173 886147173 -9.00000000
3.03684258 -5.68511248 -0.56389767 7 10 15189 6.47000000 886147182 886147182 -5.00000000
4.84224939 -9.07253838 -0.53895569 4 12 15191 10.29800000 886147187 886147187 -3.00000000
4.64510393 -8.70682049 2.27830434 51 13 15192 10.12800000 886147189 886147189 13.00000000
4.01065207 -7.52075911 2.28381920 33 15 15193 8.82400000 886147194 886147194 15.00000000
0.96377075 -1.81335258 -0.55024928 4 0 15201 2.12600000 886147214 886147214 -15.00000000
1.12601972 -2.12041259 -0.55427939 3 2 15203 2.46400000 886147219 886147219 -13.00000000
1.32273221 -2.49189281 -0.54838502 3 4 15204 2.87400000 886147224 886147224 -11.00000000
1.61694670 -3.04873204 -0.54658204 1 6 15206 3.49400000 886147228 886147228 -9.00000000
2.99179912 -5.64814138 -0.55919123 3 10 15209 6.41600000 886147237 886147237 -5.00000000
4.81522226 -9.09821224 -0.53947902 8 12 15211 10.30800000 886147242 886147242 -3.00000000
4.62288475 -8.73848438 2.28235340 51 13 15212 10.14600000 886147244 886147244 13.00000000
3.97854638 -7.52686834 2.28123116 38 15 15214 8.81400000 886147249 886147249 15.00000000
0.95500070 -1.81362116 -0.54921401 3 0 15223 2.12200000 886147270 886147270 -15.00000000
1.11605489 -2.12127137 -0.55337960 3 2 15225 2.46000000 886147274 886147274 -13.00000000
1.30401611 -2.47957706 -0.54456890 3 4 15226 2.85400000 886147279 886147279 -11.00000000
1.60247195 -3.04967237 -0.54564339 1 6 15228 3.48800000 886147283 886147283 -9.00000000
2.97286725 -5.66487980 -0.55971420 3 10 15231 6.42200000 886147293 886147293 -5.00000000
4.76448488 -9.08656311 -0.53769964 4 12 15233 10.27400000 886147297 886147297 -3.00000000
4.59382057 -8.76480103 2.28460288 53 13 15234 10.15600000 886147300 886147300 13.00000000
3.95451832 -7.54824495 2.28330159 36 15 15235 8.82200000 886147304 886147304 15.00000000
1.09963012 -2.10787654 -0.54888058 3 2 15245 2.44000000 886147329 886147329 -13.00000000
1.30443025 -2.50152183 -0.54838502 3 4 15246 2.87400000 886147334 886147334 -11.00000000
1.58999133 -3.05174375 -0.54501766 1 6 15248 3.48400000 886147339 886147339 -9.00000000
2.95123577 -5.67168760 -0.55936557 3 10 15251 6.41800000 886147348 886147348 -5.00000000
4.71983957 -9.07833004 -0.53623420 4 12 15253 10.24600000 886147353 886147353 -3.00000000
4.56409645 -8.78251266 2.28505278 53 13 15254 10.15800000 886147355 886147355 13.00000000
3.93170810 -7.56886005 2.28537226 38 15 15255 8.83000000 886147359 886147359 15.00000000
0.56415874 -1.08930302 -0.32870018 2 0 15262 1.27000000 886147380 886147380 -15.00000000
1.09442532 -2.11497307 -0.54978037 3 2 15264 2.44400000 886147385 886147385 -13.00000000
1.29432380 -2.50234604 -0.54762185 3 4 15265 2.87000000 886147389 886147389 -11.00000000
1.58258343 -3.06226420 -0.54595625 1 6 15267 3.49000000 886147394 886147394 -9.00000000
2.93149781 -5.67967272 -0.55919123 3 10 15270 6.41600000 886147403 886147403 -5.00000000
4.68421650 -9.08328152 -0.53560621 8 12 15272 10.23400000 886147408 886147408 -3.00000000
4.53494740 -8.79759884 2.28505278 51 13 15273 10.15800000 886147410 886147410 13.00000000
3.90880203 -7.58940840 2.28744268 36 15 15275 8.83800000 886147415 886147415 15.00000000
