# .PCD v0.7 - Point Cloud Data file format
VERSION 0.7
FIELDS x y z intensity laser_id azimuth distance_m adjustedtime timestamp vertical_angle
SIZE 4 4 4 1 1 2 8 8 4 8
TYPE F F F U U U F U U F
COUNT 1 1 1 1 1 1 1 1 1 1
WIDTH 554
HEIGHT 1
VIEWPOINT 0 0 0 1 0 0 0
POINTS 554
DATA ascii
0.26471746 5.31743240 -0.65370715 2 8 285 5.36400000 887505802 887505802 -7.00000000
0.23630148 4.73001051 -0.41433841 13 10 286 4.75400000 887505806 887505806 -5.00000000
0.53799677 10.73141384 2.08859515 59 11 287 10.94600000 887505809 887505809 11.00000000
0.19357693 3.84784651 -0.20191212 1 12 288 3.85800000 887505811 887505811 -3.00000000
0.52329445 10.36578941 2.39617872 59 13 289 10.65200000 887505813 887505813 13.00000000
0.19404496 3.83050394 -0.06694743 4 14 290 3.83600000 887505816 887505816 -1.00000000
0.45291814 8.94073582 2.39873481 42 15 290 9.26800000 887505818 887505818 15.00000000
0.11670184 2.24177599 -0.60149544 3 0 298 2.32400000 887505839 887505839 -15.00000000
0.19912289 3.81222177 0.06663328 4 1 299 3.81800000 887505841 887505841 1.00000000
0.13941921 2.66027689 -0.61501616 3 2 300 2.73400000 887505843 887505843 -13.00000000
0.20587271 3.91521072 0.20547096 6 3 301 3.92600000 887505846 887505846 3.00000000
0.16793519 3.19372916 -0.62165570 2 4 301 3.25800000 887505848 887505848 -11.00000000
0.20636733 3.91159749 0.34269637 4 5 302 3.93200000 887505850 887505850 5.00000000
0.21196468 4.00440884 -0.63512391 2 6 303 4.06000000 887505852 887505852 -9.00000000
0.24539751 4.62073851 0.56815487 2 7 304 4.66200000 887505855 887505855 7.00000000
0.28369963 5.32440519 -0.65468210 2 8 305 5.37200000 887505857 887505857 -7.00000000
0.25238544 4.72119904 -0.41364115 11 10 306 4.74600000 887505862 887505862 -5.00000000
0.57545310 10.72947025 2.08859515 56 11 307 10.94600000 887505864 887505864 11.00000000
0.20679261 3.84315872 -0.20170277 1 12 308 3.85400000 887505866 887505866 -3.00000000
0.53174251 9.85018063 2.27740455 43 13 309 10.12400000 887505869 887505869 13.00000000
0.20795543 3.83978724 -0.06712195 4 14 310 3.84600000 887505871 887505871 -1.00000000
0.48328862 8.92366791 2.39459372 42 15 310 9.25200000 887505873 887505873 15.00000000
0.12484789 2.24714160 -0.60304838 4 0 318 2.33000000 887505894 887505894 -15.00000000
0.21242882 3.81150341 0.06663328 4 1 319 3.81800000 887505896 887505896 1.00000000
0.14761664 2.64031696 -0.61051714 3 2 320 2.71400000 887505899 887505899 -13.00000000
0.21987361 3.92045045 0.20578498 6 3 321 3.93200000 887505901 887505901 3.00000000
0.17776316 3.16960144 -0.61707628 2 4 321 3.23400000 887505903 887505903 -11.00000000
0.21979627 3.90687490 0.34234777 4 5 322 3.92800000 887505905 887505905 5.00000000
0.22349276 3.96025515 -0.62824082 2 6 323 4.01600000 887505908 887505908 -9.00000000
0.30183339 5.31545496 -0.65370715 2 8 325 5.36400000 887505912 887505912 -7.00000000
0.27101669 4.75808334 -0.41695309 11 10 326 4.78400000 887505917 887505917 -5.00000000
0.61245447 10.71955585 2.08706880 56 11 327 10.93800000 887505919 887505919 11.00000000
0.22180632 3.87032938 -0.20316818 1 12 328 3.88200000 887505922 887505922 -3.00000000
0.59542429 10.35799313 2.39527893 53 13 329 10.64800000 887505924 887505924 13.00000000
0.22135752 3.83903790 -0.06712195 4 14 330 3.84600000 887505926 887505926 -1.00000000
0.51465750 8.92578411 2.39562917 45 15 330 9.25600000 887505928 887505928 15.00000000
0.13314670 2.25440621 -0.60511893 4 0 338 2.33800000 887505949 887505949 -15.00000000
0.22667812 3.82670832 0.06691252 4 1 339 3.83400000 887505952 887505952 1.00000000
0.15590759 2.62422323 -0.60691792 3 2 340 2.69800000 887505954 887505954 -13.00000000
0.23379479 3.92364645 0.20599432 6 3 341 3.93600000 887505956 887505956 3.00000000
0.19022736 3.19247890 -0.62165570 2 4 341 3.25800000 887505958 887505958 -11.00000000
0.23497759 3.93193889 0.34461382 4 5 342 3.95400000 887505961 887505961 5.00000000
0.24062444 4.01466227 -0.63700116 2 6 343 4.07200000 887505963 887505963 -9.00000000
0.31990811 5.30644274 -0.65273219 2 8 345 5.35600000 887505968 887505968 -7.00000000
0.30145189 4.98581553 -0.43699890 9 10 346 5.01400000 887505972 887505972 -5.00000000
0.65034431 10.72519207 2.08859515 59 11 347 10.94600000 887505975 887505975 11.00000000
0.23386014 3.84560847 -0.20191212 1 12 348 3.85800000 887505977 887505977 -3.00000000
0.63157684 10.35585117 2.39527893 59 13 349 10.64800000 887505979 887505979 13.00000000
0.23439069 3.83225393 -0.06701724 4 14 350 3.84000000 887505981 887505981 -1.00000000
0.54784173 8.93155098 2.39769959 40 15 351 9.26400000 887505984 887505984 15.00000000
0.14038128 2.25009608 -0.60408366 4 0 357 2.33400000 887506005 887506005 -15.00000000
0.23961642 3.82992697 0.06698234 4 1 358 3.83800000 887506007 887506007 1.00000000
0.16436492 2.61980200 -0.60601813 3 2 359 2.69400000 887506009 887506009 -13.00000000
0.24705561 3.92683625 0.20620367 4 3 360 3.94000000 887506011 887506011 3.00000000
0.20007332 3.18007421 -0.61936599 2 4 360 3.24600000 887506014 887506014 -11.00000000
0.24763872 3.92517257 0.34409088 4 5 361 3.94800000 887506016 887506016 5.00000000
0.25518346 4.03355646 -0.64012980 2 6 362 4.09200000 887506018 887506018 -9.00000000
0.30763450 4.83583498 -0.59496611 4 8 364 4.88200000 887506023 887506023 -7.00000000
0.31798381 4.98478842 -0.43699890 15 10 365 5.01400000 887506028 887506028 -5.00000000
0.68690938 10.73865032 2.09164810 59 11 366 10.96200000 887506030 887506030 11.00000000
0.24622782 3.83883238 -0.20159811 1 12 367 3.85200000 887506032 887506032 -3.00000000
0.66491395 10.33814240 2.39167953 62 13 368 10.63200000 887506034 887506034 13.00000000
0.24696891 3.82945991 -0.06698234 6 14 369 3.83800000 887506037 887506037 -1.00000000
0.57564962 8.92593002 2.39666438 42 15 369 9.26000000 887506039 887506039 15.00000000
0.14810769 2.24766469 -0.60356599 3 0 377 2.33200000 887506060 887506060 -15.00000000
0.25324756 3.83305812 0.06705215 4 1 378 3.84200000 887506062 887506062 1.00000000
0.17505448 2.64254594 -0.61141694 3 2 379 2.71800000 887506064 887506064 -13.00000000
0.26155552 3.93790722 0.20683169 4 3 380 3.95200000 887506067 887506067 3.00000000
0.21221353 3.19502807 -0.62241894 2 4 380 3.26200000 887506069 887506069 -11.00000000
0.26133862 3.92428446 0.34409088 4 5 381 3.94800000 887506071 887506071 5.00000000
0.26715598 4.00110531 -0.63512391 2 6 382 4.06000000 887506074 887506074 -9.00000000
0.32039163 4.77333212 -0.58741021 6 8 384 4.82000000 887506078 887506078 -7.00000000
0.30274013 4.49860191 -0.39446688 7 10 385 4.52600000 887506083 887506083 -5.00000000
0.72491872 10.74402237 2.09317470 59 11 386 10.97000000 887506085 887506085 11.00000000
0.26124394 3.86186194 -0.20285417 1 12 387 3.87600000 887506087 887506087 -3.00000000
0.70126051 10.33964634 2.39257932 56 13 388 10.63600000 887506090 887506090 13.00000000
0.26047039 3.83056974 -0.06701724 4 14 389 3.84000000 887506092 887506092 -1.00000000
0.60627919 8.91615677 2.39459372 42 15 389 9.25200000 887506094 887506094 15.00000000
0.15622011 2.25098825 -0.60460126 4 0 397 2.33600000 887506115 887506115 -15.00000000
0.26634830 3.82816100 0.06698234 4 1 398 3.83800000 887506117 887506117 1.00000000
0.18427761 2.64191890 -0.61141694 3 2 399 2.71800000 887506120 887506120 -13.00000000
0.27530751 3.94698024 0.20735505 1 3 399 3.96200000 887506122 887506122 3.00000000
0.22309107 3.19035077 -0.62165570 2 4 400 3.25800000 887506124 887506124 -11.00000000
0.27489603 3.92136073 0.34391657 3 5 401 3.94600000 887506127 887506127 5.00000000
0.28250566 4.01985359 -0.63825262 2 6 402 4.08000000 887506129 887506129 -9.00000000
0.33173722 4.69693851 -0.57814819 6 8 404 4.74400000 887506133 887506133 -7.00000000
0.31661204 4.47168159 -0.39220083 2 10 405 4.50000000 887506138 887506138 -5.00000000
0.76255691 10.74338436 2.09355640 59 11 406 10.97200000 887506140 887506140 11.00000000
0.27614033 3.88084865 -0.20390089 1 12 407 3.89600000 887506143 887506143 -3.00000000
0.73762560 10.34102345 2.39347911 56 13 408 10.64000000 887506145 887506145 13.00000000
0.27469572 3.84160471 -0.06722667 4 14 409 3.85200000 887506147 887506147 -1.00000000
0.63712311 8.91013241 2.39355850 45 15 409 9.24800000 887506150 887506150 15.00000000
0.16407657 2.25042939 -0.60460126 4 0 417 2.33600000 887506170 887506170 -15.00000000
0.27970946 3.82720780 0.06698234 4 1 418 3.83800000 887506173 887506173 1.00000000
0.19264421 2.62959838 -0.60871756 3 2 419 2.70600000 887506175 887506175 -13.00000000
0.29152739 3.96984744 0.20861112 4 3 420 3.98600000 887506177 887506177 3.00000000
0.23307583 3.17388892 -0.61860275 2 4 420 3.24200000 887506180 887506180 -11.00000000
0.28916749 3.92832518 0.34461382 3 5 421 3.95400000 887506182 887506182 5.00000000
0.29624510 4.01490307 -0.63762689 2 6 422 4.07600000 887506184 887506184 -9.00000000
0.34519523 4.65615892 -0.57327342 6 8 424 4.70400000 887506189 887506189 -7.00000000
0.33118561 4.45664072 -0.39098066 7 10 425 4.48600000 887506193 887506193 -5.00000000
0.79961616 10.73478413 2.09241152 59 11 426 10.96600000 887506196 887506196 11.00000000
0.28804952 3.85795236 -0.20274949 3 12 427 3.87400000 887506198 887506198 -3.00000000
0.77371806 10.33838558 2.39347911 57 13 428 10.64000000 887506200 887506200 13.00000000
0.28825334 3.84261656 -0.06726158 4 14 429 3.85400000 887506203 887506203 -1.00000000
0.66977614 8.90773678 2.39355850 42 15 430 9.24800000 887506205 887506205 15.00000000
0.17158526 2.25568151 -0.60615420 4 0 435 2.34200000 887506226 887506226 -15.00000000
0.29309979 3.84425545 0.06729648 4 1 436 3.85600000 887506228 887506228 1.00000000
0.20090437 2.62898016 -0.60871756 3 2 437 2.70600000 887506230 887506230 -13.00000000
0.30847913 4.03667450 0.21216996 7 3 437 4.05400000 887506233 887506233 3.00000000
0.24454509 3.19271612 -0.62241894 2 4 438 3.26200000 887506235 887506235 -11.00000000
0.30181226 3.93137050 0.34496242 3 5 439 3.95800000 887506237 887506237 5.00000000
0.30870527 4.01198292 -0.63731402 2 6 440 4.07400000 887506239 887506239 -9.00000000
0.35676154 4.61546755 -0.56839859 6 8 442 4.66400000 887506244 887506244 -7.00000000
0.34426153 4.44365978 -0.38993478 7 10 443 4.47400000 887506249 887506249 -5.00000000
0.83394444 10.74004841 2.09393787 59 11 444 10.97400000 887506251 887506251 11.00000000
0.30016822 3.85702825 -0.20274949 3 12 445 3.87400000 887506253 887506253 -3.00000000
0.80558699 10.32813263 2.39167953 57 13 446 10.63200000 887506256 887506256 13.00000000
0.30234990 3.86760902 -0.06771534 4 14 447 3.88000000 887506258 887506258 -1.00000000
0.69635350 8.90763664 2.39407611 45 15 447 9.25000000 887506260 887506260 15.00000000
0.17945802 2.25506902 -0.60615420 4 0 455 2.34200000 887506281 887506281 -15.00000000
0.30747086 3.85516906 0.06750591 4 1 456 3.86800000 887506283 887506283 1.00000000
0.21101162 2.63991809 -0.61141694 3 2 457 2.71800000 887506285 887506285 -13.00000000
0.32925159 4.11919117 0.21656619 22 3 457 4.13800000 887506288 887506288 3.00000000
0.25443411 3.17618728 -0.61936599 2 4 458 3.24600000 887506290 887506290 -11.00000000
0.31649011 3.94220901 0.34600830 3 5 459 3.97000000 887506292 887506292 5.00000000
0.32397521 4.02663326 -0.63981694 2 6 460 4.09000000 887506295 887506295 -9.00000000
0.37223080 4.60627937 -0.56742364 4 8 462 4.65600000 887506299 887506299 -7.00000000
0.35977072 4.44243097 -0.38993478 5 10 463 4.47400000 887506304 887506304 -5.00000000
0.87269968 10.75272655 2.09699082 56 11 464 10.99000000 887506306 887506306 11.00000000
0.31314418 3.84998512 -0.20243548 3 12 465 3.86800000 887506309 887506309 -3.00000000
0.84036744 10.30971909 2.38808036 56 13 466 10.61600000 887506311 887506311 13.00000000
0.31503448 3.85656476 -0.06754081 4 14 467 3.87000000 887506313 887506313 -1.00000000
0.72759998 8.90707684 2.39459372 42 15 467 9.25200000 887506315 887506315 15.00000000
0.18636875 2.24287748 -0.60304838 4 0 475 2.33000000 887506336 887506336 -15.00000000
0.32092604 3.85407233 0.06750591 4 1 476 3.86800000 887506338 887506338 1.00000000
0.22022536 2.63916540 -0.61141694 3 2 477 2.71800000 887506341 887506341 -13.00000000
0.34451339 4.11994696 0.21667086 19 3 478 4.14000000 887506343 887506343 3.00000000
0.26453793 3.16354108 -0.61707628 2 4 478 3.23400000 887506345 887506345 -11.00000000
0.33158004 3.95696378 0.34740278 3 5 479 3.98600000 887506348 887506348 5.00000000
0.33670646 4.00973034 -0.63731402 2 6 480 4.07400000 887506350 887506350 -9.00000000
0.38797385 4.60099602 -0.56693619 6 8 482 4.65200000 887506355 887506355 -7.00000000
0.37057826 4.38555908 -0.38505408 2 10 483 4.41800000 887506359 887506359 -5.00000000
0.91105658 10.75939560 2.09889889 59 11 484 11.00000000 887506362 887506362 11.00000000
0.32759440 3.86080909 -0.20306350 3 12 485 3.88000000 887506364 887506364 -3.00000000
0.87734056 10.31837368 2.39077973 62 13 486 10.62800000 887506366 887506366 13.00000000
0.32815495 3.85145664 -0.06747101 4 14 487 3.86600000 887506368 887506368 -1.00000000
0.75925511 8.89280128 2.39148808 42 15 488 9.24000000 887506371 887506371 15.00000000
0.19453010 2.24606252 -0.60408366 4 0 495 2.33400000 887506391 887506391 -15.00000000
0.33472309 3.85691309 0.06757572 4 1 496 3.87200000 887506394 887506394 1.00000000
0.23011173 2.64614630 -0.61321658 3 2 497 2.72600000 887506396 887506396 -13.00000000
0.35903889 4.12873077 0.21719421 12 3 497 4.15000000 887506398 887506398 3.00000000
0.27660170 3.17433357 -0.61936599 2 4 498 3.24600000 887506401 887506401 -11.00000000
0.34504381 3.95181251 0.34705415 1 5 499 3.98200000 887506403 887506403 5.00000000
0.34984013 3.99869108 -0.63574964 2 6 500 4.06400000 887506405 887506405 -9.00000000
0.40403196 4.59961367 -0.56693619 6 8 502 4.65200000 887506410 887506410 -7.00000000
0.38378820 4.36042213 -0.38296235 2 10 503 4.39400000 887506415 887506415 -5.00000000
0.94912577 10.76201725 2.10004377 62 11 504 11.00600000 887506417 887506417 11.00000000
0.34229979 3.87356853 -0.20379621 5 12 505 3.89400000 887506419 887506419 -3.00000000
0.91335303 10.31524849 2.39077973 56 13 506 10.62800000 887506421 887506421 13.00000000
0.34248063 3.86024714 -0.06764553 4 14 507 3.87600000 887506424 887506424 -1.00000000
0.78926581 8.87855148 2.38838220 45 15 508 9.22800000 887506426 887506426 15.00000000
0.20350106 2.24914694 -0.60511893 4 0 517 2.33800000 887506447 887506447 -15.00000000
0.34953007 3.85559940 0.06757572 4 1 518 3.87200000 887506449 887506449 1.00000000
0.23886025 2.62971711 -0.60961735 3 2 519 2.71000000 887506451 887506451 -13.00000000
0.37452805 4.12334347 0.21698487 8 3 519 4.14600000 887506454 887506454 3.00000000
0.28843233 3.16933775 -0.61860275 2 4 520 3.24200000 887506456 887506456 -11.00000000
0.36148155 3.96434760 0.34827435 1 5 521 3.99600000 887506458 887506458 5.00000000
0.37309909 4.08387423 -0.64951593 2 6 522 4.15200000 887506461 887506461 -9.00000000
0.42314053 4.61384249 -0.56888610 6 8 524 4.66800000 887506465 887506465 -7.00000000
0.39979893 4.35098028 -0.38226509 7 10 525 4.38600000 887506470 887506470 -5.00000000
0.98972189 10.75047302 2.09851742 59 11 526 10.99800000 887506472 887506472 11.00000000
0.35772103 3.87819219 -0.20411023 5 12 527 3.90000000 887506474 887506474 -3.00000000
0.95295393 10.31166458 2.39077973 62 13 528 10.62800000 887506477 887506477 13.00000000
0.35711601 3.85691237 -0.06761062 4 14 529 3.87400000 887506479 887506479 -1.00000000
0.82335109 8.87545490 2.38838220 42 15 530 9.22800000 887506481 887506481 15.00000000
0.21117002 2.24649954 -0.60460126 3 0 537 2.33600000 887506502 887506502 -15.00000000
0.36373645 3.86231923 0.06771534 4 1 538 3.88000000 887506504 887506504 1.00000000
0.24803822 2.62886739 -0.60961735 3 2 539 2.71000000 887506507 887506507 -13.00000000
0.38816848 4.11405754 0.21656619 15 3 539 4.13800000 887506509 887506509 3.00000000
0.30097169 3.18394780 -0.62165570 2 4 540 3.25800000 887506511 887506511 -11.00000000
0.37813520 3.99281430 0.35088903 1 5 541 4.02600000 887506514 887506514 5.00000000
0.38362047 4.04321623 -0.64325851 2 6 542 4.11200000 887506516 887506516 -9.00000000
0.43886688 4.60838509 -0.56839859 6 8 544 4.66400000 887506521 887506521 -7.00000000
0.41725501 4.37335873 -0.38435683 7 10 545 4.41000000 887506525 887506525 -5.00000000
1.02911007 10.76649666 2.10233355 62 11 546 11.01800000 887506527 887506527 11.00000000
0.37106586 3.87493181 -0.20400555 7 12 547 3.89800000 887506530 887506530 -3.00000000
0.98819816 10.30051613 2.38898015 60 13 548 10.62000000 887506532 887506532 13.00000000
0.37287274 3.87952852 -0.06802948 4 14 549 3.89800000 887506534 887506534 -1.00000000
0.85525298 8.88214207 2.39097023 45 15 550 9.23800000 887506537 887506537 15.00000000
0.21953441 2.25928473 -0.60822475 4 0 555 2.35000000 887506557 887506557 -15.00000000
0.37703097 3.87309933 0.06792477 4 1 556 3.89200000 887506560 887506560 1.00000000
0.25629580 2.62807512 -0.60961735 3 2 557 2.71000000 887506562 887506562 -13.00000000
0.40147895 4.11679316 0.21677554 61 3 557 4.14200000 887506564 887506564 3.00000000
0.30868208 3.15953922 -0.61707628 2 4 558 3.23400000 887506567 887506567 -11.00000000
0.39300603 4.01540184 0.35298076 1 5 559 4.05000000 887506569 887506569 5.00000000
0.39400753 4.01839972 -0.63950408 2 6 560 4.08800000 887506571 887506571 -9.00000000
0.45450878 4.61883688 -0.56986105 6 8 562 4.67600000 887506576 887506576 -7.00000000
0.43177411 4.37995768 -0.38505408 7 10 563 4.41800000 887506580 887506580 -5.00000000
1.06485832 10.78274822 2.10614967 59 11 564 11.03800000 887506583 887506583 11.00000000
0.38363075 3.87772202 -0.20421490 7 12 565 3.90200000 887506585 887506585 -3.00000000
1.01863134 10.27796841 2.38448119 55 13 566 10.60000000 887506587 887506587 13.00000000
0.38644174 3.89226747 -0.06827381 4 14 567 3.91200000 887506590 887506590 -1.00000000
0.88217562 8.88533211 2.39252329 45 15 567 9.24400000 887506592 887506592 15.00000000
0.22587107 2.24312758 -0.60408366 4 0 575 2.33400000 887506613 887506613 -15.00000000
0.39295661 3.89563465 0.06834362 4 1 576 3.91600000 887506615 887506615 1.00000000
0.26664343 2.63879776 -0.61231679 3 2 577 2.72200000 887506617 887506617 -13.00000000
0.41644919 4.12132835 0.21708955 10 3 577 4.14800000 887506620 887506620 3.00000000
0.32129079 3.17406869 -0.62012923 2 4 578 3.25000000 887506622 887506622 -11.00000000
0.40621603 4.00607634 0.35228351 3 5 579 4.04200000 887506624 887506624 5.00000000
0.40763274 4.01306963 -0.63887835 2 6 580 4.08400000 887506626 887506626 -9.00000000
0.46942097 4.60537338 -0.56839859 6 8 582 4.66400000 887506631 887506631 -7.00000000
0.44989371 4.40617275 -0.38749444 7 10 583 4.44600000 887506636 887506636 -5.00000000
1.10408878 10.79459000 2.10920262 62 11 584 11.05400000 887506638 887506638 11.00000000
0.39858916 3.89026713 -0.20494761 10 12 585 3.91600000 887506640 887506640 -3.00000000
1.05529773 10.28210449 2.38628078 59 13 586 10.60800000 887506643 887506643 13.00000000
0.39798081 3.87100267 -0.06792477 4 14 587 3.89200000 887506645 887506645 -1.00000000
0.91315281 8.86666584 2.38838220 42 15 588 9.22800000 887506647 887506647 15.00000000
0.23368984 2.23844171 -0.60304838 4 0 596 2.33000000 887506668 887506668 -15.00000000
0.40681621 3.89019060 0.06827381 4 1 597 3.91200000 887506670 887506670 1.00000000
0.27671936 2.64167905 -0.61321658 3 2 598 2.72600000 887506673 887506673 -13.00000000
0.43372980 4.13360310 0.21782225 8 3 599 4.16200000 887506675 887506675 3.00000000
0.33415142 3.18458509 -0.62241894 2 4 599 3.26200000 887506677 887506677 -11.00000000
0.42089629 4.00456095 0.35228351 3 5 600 4.04200000 887506679 887506679 5.00000000
0.42254543 4.01351309 -0.63919121 2 6 601 4.08600000 887506682 887506682 -9.00000000
0.48734003 4.61349249 -0.56961733 6 8 603 4.67400000 887506686 887506686 -7.00000000
0.46666905 4.41043854 -0.38801736 10 10 604 4.45200000 887506691 887506691 -5.00000000
1.14364552 10.79047012 2.10920262 59 11 605 11.05400000 887506693 887506693 11.00000000
0.41368842 3.89672470 -0.20536630 10 12 606 3.92400000 887506696 887506696 -3.00000000
1.09215224 10.27041626 2.38448119 59 13 607 10.60000000 887506698 887506698 13.00000000
0.41237789 3.87150645 -0.06795967 4 14 608 3.89400000 887506700 887506700 -1.00000000
0.94287002 8.85189819 2.38527632 40 15 608 9.21600000 887506703 887506703 15.00000000
0.24316041 2.25297809 -0.60718948 4 0 616 2.34600000 887506723 887506723 -15.00000000
0.42039305 3.88874698 0.06827381 3 1 617 3.91200000 887506726 887506726 1.00000000
0.28509971 2.63294721 -0.61141694 3 2 618 2.71800000 887506728 887506728 -13.00000000
0.44621792 4.11419344 0.21688020 7 3 619 4.14400000 887506730 887506730 3.00000000
0.34484228 3.17949557 -0.62165570 2 4 619 3.25800000 887506732 887506732 -11.00000000
0.43292004 3.97862911 -0.63387245 2 6 621 4.05200000 887506737 887506737 -9.00000000
0.50408739 4.61768341 -0.57034850 4 8 623 4.68000000 887506742 887506742 -7.00000000
0.48660928 4.45037460 -0.39167792 7 10 624 4.49400000 887506746 887506746 -5.00000000
1.18173182 10.79031563 2.10996580 62 11 625 11.05800000 887506749 887506749 11.00000000
0.42815915 3.90319824 -0.20578498 12 12 626 3.93200000 887506751 887506751 -3.00000000
1.12884724 10.27429008 2.38628078 62 13 627 10.60800000 887506753 887506753 13.00000000
0.43004555 3.90780950 -0.06862286 4 14 628 3.93200000 887506756 887506756 -1.00000000
0.97615409 8.85606384 2.38734698 40 15 629 9.22400000 887506758 887506758 15.00000000
0.24895716 2.24068284 -0.60408366 4 0 634 2.33400000 887506779 887506779 -15.00000000
0.43437716 3.90330648 0.06855305 3 1 635 3.92800000 887506781 887506781 1.00000000
0.29121125 2.61267114 -0.60691792 3 2 636 2.69800000 887506783 887506783 -13.00000000
0.45736808 4.09689188 0.21604283 5 3 637 4.12800000 887506785 887506785 3.00000000
0.35395795 3.17059207 -0.62012923 2 4 637 3.25000000 887506788 887506788 -11.00000000
0.44761562 3.99688053 -0.63700116 2 6 639 4.07200000 887506792 887506792 -9.00000000
0.51992148 4.62791300 -0.57181096 2 8 641 4.69200000 887506797 887506797 -7.00000000
0.50326151 4.47258282 -0.39376965 7 10 642 4.51800000 887506802 887506802 -5.00000000
1.21606445 10.79045200 2.11072922 62 11 643 11.06200000 887506804 887506804 11.00000000
0.44109133 3.90778780 -0.20609899 12 12 644 3.93800000 887506806 887506806 -3.00000000
1.15936804 10.25520134 2.38268161 57 13 645 10.59200000 887506809 887506809 13.00000000
0.44344506 3.91637421 -0.06879739 4 14 646 3.94200000 887506811 887506811 -1.00000000
1.00242627 8.85312939 2.38734698 40 15 646 9.22400000 887506813 887506813 15.00000000
0.25853735 2.25515437 -0.60822475 4 0 654 2.35000000 887506834 887506834 -15.00000000
0.45119309 3.92957926 0.06904172 3 1 655 3.95600000 887506836 887506836 1.00000000
0.30255568 2.63099861 -0.61141694 3 2 656 2.71800000 887506838 887506838 -13.00000000
0.36412472 3.16153574 -0.61860275 2 4 657 3.24200000 887506843 887506843 -11.00000000
0.45929760 3.97567034 -0.63387245 2 6 659 4.05200000 887506848 887506848 -9.00000000
0.61467850 5.30440235 -0.65565705 2 8 661 5.38000000 887506852 887506852 -7.00000000
0.52645040 4.53610945 -0.39952192 5 10 662 4.58400000 887506857 887506857 -5.00000000
1.25530946 10.79979229 2.11340046 50 11 663 11.07600000 887506859 887506859 11.00000000
0.45588410 3.91614366 -0.20662236 10 12 664 3.94800000 887506861 887506861 -3.00000000
1.19335294 10.23560715 2.37908244 59 13 665 10.57600000 887506864 887506864 13.00000000
0.45641729 3.90884399 -0.06869267 3 14 666 3.93600000 887506866 887506866 -1.00000000
1.03531659 8.85323334 2.38838220 42 15 667 9.22800000 887506868 887506868 15.00000000
0.26572752 2.24848270 -0.60667187 4 0 674 2.34400000 887506889 887506889 -15.00000000
0.46725753 3.94783878 0.06939077 3 1 675 3.97600000 887506891 887506891 1.00000000
0.31265530 2.63766718 -0.61321658 3 2 676 2.72600000 887506894 887506894 -13.00000000
0.37515831 3.16024542 -0.61860275 2 4 677 3.24200000 887506898 887506898 -11.00000000
0.47504088 3.98973513 -0.63637543 2 6 679 4.06800000 887506903 887506903 -9.00000000
0.63460290 5.31405115 -0.65711951 2 8 681 5.39200000 887506908 887506908 -7.00000000
0.54488379 4.55600548 -0.40143934 2 10 682 4.60600000 887506912 887506912 -5.00000000
1.29276657 10.79339504 2.11301875 56 11 683 11.07400000 887506914 887506914 11.00000000
0.47026479 3.92047763 -0.20693637 7 12 684 3.95400000 887506917 887506917 -3.00000000
1.22953939 10.23524857 2.37998223 57 13 685 10.58000000 887506919 887506919 13.00000000
0.47173089 3.92112446 -0.06893700 1 14 686 3.95000000 887506921 887506921 -1.00000000
1.06397712 8.84399700 2.38682914 45 15 686 9.22200000 887506924 887506924 15.00000000
0.27240744 2.23795295 -0.60408366 4 0 694 2.33400000 887506944 887506944 -15.00000000
0.48224506 3.95610881 0.06956529 3 1 695 3.98600000 887506947 887506947 1.00000000
0.32186058 2.63655972 -0.61321658 3 2 696 2.72600000 887506949 887506949 -13.00000000
0.38761678 3.17060900 -0.62089247 2 4 697 3.25400000 887506954 887506954 -11.00000000
0.48944557 3.99197412 -0.63700116 2 6 699 4.07200000 887506958 887506958 -9.00000000
0.65411758 5.31968451 -0.65809447 2 8 701 5.40000000 887506963 887506963 -7.00000000
0.97181433 7.89201689 -0.69567716 4 10 702 7.98200000 887506967 887506967 -5.00000000
1.33139586 10.79661083 2.11454535 53 11 703 11.08200000 887506970 887506970 11.00000000
0.48884273 3.95845628 -0.20902981 1 12 704 3.99400000 887506972 887506972 -3.00000000
1.26621628 10.23863029 2.38178182 57 13 705 10.58800000 887506974 887506974 13.00000000
0.49770430 4.01868057 -0.07068224 1 14 706 4.05000000 887506977 887506977 -1.00000000
1.09614706 8.83812046 2.38631153 45 15 707 9.22000000 887506979 887506979 15.00000000
0.28156996 2.24460673 -0.60615420 4 0 715 2.34200000 887507000 887507000 -15.00000000
0.32957605 2.61989427 -0.60961735 3 2 717 2.71000000 887507004 887507004 -13.00000000
0.40021658 3.17695856 -0.62241894 2 4 718 3.26200000 887507009 887507009 -11.00000000
0.50060749 3.96271610 -0.63262099 2 6 720 4.04400000 887507014 887507014 -9.00000000
0.67336130 5.31528187 -0.65785074 2 8 722 5.39800000 887507018 887507018 -7.00000000
1.00173652 7.89630842 -0.69637436 4 10 723 7.99000000 887507023 887507023 -5.00000000
1.37046361 10.78776360 2.11378217 53 11 724 11.07800000 887507025 887507025 11.00000000
1.30274916 10.22618866 2.37998223 59 13 726 10.58000000 887507030 887507030 13.00000000
1.12576878 8.82465935 2.38372350 45 15 727 9.21000000 887507034 887507034 15.00000000
0.29039195 2.25127411 -0.60822475 4 0 735 2.35000000 887507055 887507055 -15.00000000
0.33771926 2.61099744 -0.60781777 3 2 737 2.70200000 887507060 887507060 -13.00000000
0.41079944 3.17164826 -0.62165570 2 4 738 3.25800000 887507064 887507064 -11.00000000
0.51392806 3.95702672 -0.63199526 2 6 740 4.04000000 887507069 887507069 -9.00000000
0.69473094 5.33455229 -0.66053182 2 8 742 5.42000000 887507073 887507073 -7.00000000
1.02929366 7.89276361 -0.69637436 4 10 743 7.99000000 887507078 887507078 -5.00000000
1.41039956 10.80043411 2.11721659 46 11 744 11.09600000 887507080 887507080 11.00000000
1.33843732 10.22157860 2.37998223 59 13 746 10.58000000 887507085 887507085 13.00000000
1.15936267 8.83005047 2.38631153 40 15 748 9.22000000 887507090 887507090 15.00000000
0.29785582 2.25029874 -0.60822475 4 0 754 2.35000000 887507110 887507110 -15.00000000
0.34688857 2.61372662 -0.60871756 3 2 756 2.70600000 887507115 887507115 -13.00000000
0.41924566 3.15469933 -0.61860275 2 4 757 3.24200000 887507120 887507120 -11.00000000
0.52991724 3.97683930 -0.63543677 2 6 759 4.06200000 887507124 887507124 -9.00000000
0.70821100 5.30073738 -0.65663201 2 8 761 5.38800000 887507129 887507129 -7.00000000
1.05651808 7.89720631 -0.69707161 4 10 762 7.99800000 887507133 887507133 -5.00000000
1.37076938 10.20549583 2.37728286 57 13 765 10.56800000 887507140 887507140 13.00000000
1.18709731 8.82636452 2.38631153 42 15 766 9.22000000 887507145 887507145 15.00000000
0.30466831 2.24158835 -0.60615420 4 0 774 2.34200000 887507166 887507166 -15.00000000
0.35653630 2.61636162 -0.60961735 3 2 776 2.71000000 887507170 887507170 -13.00000000
0.43131676 3.16099763 -0.62012923 2 4 777 3.25000000 887507175 887507175 -11.00000000
0.54674101 3.99649405 -0.63887835 2 6 779 4.08400000 887507179 887507179 -9.00000000
0.72940725 5.31789970 -0.65906942 2 8 781 5.40800000 887507184 887507184 -7.00000000
1.08245158 7.88162708 -0.69602579 4 10 782 7.98600000 887507189 887507189 -5.00000000
1.36486161 9.92508125 1.94739664 9 11 783 10.20600000 887507191 887507191 11.00000000
1.40691721 10.20450974 2.37818265 59 13 785 10.57200000 887507196 887507196 13.00000000
1.21684313 8.81451225 2.38424110 40 15 786 9.21200000 887507200 887507200 15.00000000
0.31234771 2.23662996 -0.60511893 4 0 795 2.33800000 887507221 887507221 -15.00000000
0.37044659 2.64591599 -0.61681581 3 2 797 2.74200000 887507226 887507226 -13.00000000
0.44126418 3.14773011 -0.61783952 2 4 798 3.23800000 887507230 887507230 -11.00000000
0.56083536 3.99055099 -0.63825262 2 6 800 4.08000000 887507235 887507235 -9.00000000
0.74806255 5.30929327 -0.65833819 2 8 802 5.40200000 887507239 887507239 -7.00000000
1.11077523 7.87366104 -0.69567716 4 10 803 7.98200000 887507244 887507244 -5.00000000
1.40150428 9.92195606 1.94777822 12 11 804 10.20800000 887507246 887507246 11.00000000
1.63423216 11.55499172 -0.61159796 4 12 805 11.68600000 887507249 887507249 -3.00000000
1.44430923 10.19928455 2.37818265 62 13 806 10.57200000 887507251 887507251 13.00000000
1.63380730 11.52297688 -0.20314601 2 14 807 11.64000000 887507253 887507253 -1.00000000
1.24859941 8.80616760 2.38320565 40 15 807 9.20800000 887507255 887507255 15.00000000
0.32070085 2.23935080 -0.60615420 4 0 815 2.34200000 887507276 887507276 -15.00000000
1.65020263 11.50852013 0.20293657 3 1 816 11.62800000 887507279 887507279 1.00000000
0.37801868 2.63303304 -0.61411637 3 2 817 2.73000000 887507281 887507281 -13.00000000
1.66129792 11.55718422 0.61191201 7 3 818 11.69200000 887507283 887507283 3.00000000
0.45504251 3.16560340 -0.62165570 2 4 818 3.25800000 887507285 887507285 -11.00000000
0.57138062 3.96510673 -0.63449818 2 6 820 4.05600000 887507290 887507290 -9.00000000
0.76573944 5.30075598 -0.65760696 2 8 822 5.39600000 887507295 887507295 -7.00000000
1.14110470 7.88945436 -0.69742024 4 10 823 8.00200000 887507299 887507299 -5.00000000
1.43669260 9.92088890 1.94854140 12 11 824 10.21200000 887507302 887507302 11.00000000
1.65277576 11.39899540 -0.60364294 4 12 825 11.53400000 887507304 887507304 -3.00000000
1.47934258 10.19032383 2.37728286 59 13 826 10.56800000 887507306 887507306 13.00000000
1.65704978 11.40044880 -0.20108663 6 14 827 11.52200000 887507308 887507308 -1.00000000
1.28058898 8.79962063 2.38268805 40 15 828 9.20600000 887507311 887507311 15.00000000
0.32829413 2.24215508 -0.60718948 4 0 833 2.34600000 887507332 887507332 -15.00000000
1.67126691 11.40039444 0.20112154 6 1 834 11.52400000 887507334 887507334 1.00000000
0.38402477 2.61640787 -0.61051714 3 2 835 2.71400000 887507336 887507336 -13.00000000
1.68249762 11.44915485 0.60646904 34 3 836 11.58800000 887507338 887507338 3.00000000
0.46498528 3.16415811 -0.62165570 2 4 836 3.25800000 887507341 887507341 -11.00000000
1.68995941 11.48599529 1.01571298 25 5 837 11.65400000 887507343 887507343 5.00000000
0.58556187 3.97501802 -0.63637543 4 6 838 4.06800000 887507345 887507345 -9.00000000
1.69268858 11.47672462 1.42440891 29 7 839 11.68800000 887507348 887507348 7.00000000
0.78267843 5.30028772 -0.65785074 2 8 840 5.39800000 887507350 887507350 -7.00000000
1.70659184 11.54307652 1.84811676 21 9 841 11.81400000 887507352 887507352 9.00000000
1.16763294 7.89765644 -0.69846612 4 10 841 8.01400000 887507355 887507355 -5.00000000
1.46929026 9.92603779 1.95044959 15 11 842 10.22200000 887507357 887507357 11.00000000
1.66486168 11.23371696 -0.59516448 4 12 843 11.37200000 887507359 887507359 -3.00000000
1.51077700 10.18177032 2.37638283 66 13 844 10.56400000 887507361 887507361 13.00000000
1.67581391 11.28046322 -0.19906215 6 14 845 11.40600000 887507364 887507364 -1.00000000
1.30754399 8.80151463 2.38424110 40 15 845 9.21200000 887507366 887507366 15.00000000
0.33611873 2.24099565 -0.60718948 4 0 853 2.34600000 887507387 887507387 -15.00000000
1.69264030 11.27188492 0.19895743 6 1 854 11.40000000 887507389 887507389 1.00000000
0.39373484 2.61890554 -0.61141694 3 2 855 2.71800000 887507391 887507391 -13.00000000
1.70075071 11.29903603 0.59882802 34 3 856 11.44200000 887507394 887507394 3.00000000
0.47485855 3.15475035 -0.62012923 2 4 856 3.25000000 887507396 887507396 -11.00000000
1.70450926 11.31059361 1.00072229 8 5 857 11.48200000 887507398 887507398 5.00000000
0.59854954 3.96708989 -0.63543677 2 6 858 4.06200000 887507401 887507401 -9.00000000
1.71257758 11.33727455 1.40783465 31 7 859 11.55200000 887507403 887507403 7.00000000
0.80265933 5.30733728 -0.65906942 2 8 860 5.40800000 887507405 887507405 -7.00000000
1.71996284 11.35931492 1.81964564 25 9 861 11.63200000 887507408 887507408 9.00000000
1.19459724 7.88959265 -0.69811749 4 10 861 8.01000000 887507410 887507410 -5.00000000
1.50510669 9.92861271 1.95197606 21 11 862 10.23000000 887507412 887507412 11.00000000
1.67829084 11.05801773 -0.58616269 4 12 863 11.20000000 887507414 887507414 -3.00000000
1.54572332 10.17258167 2.37548304 62 13 864 10.56000000 887507417 887507417 13.00000000
1.69232285 11.12429714 -0.19640939 6 14 865 11.25400000 887507419 887507419 -1.00000000
1.33796847 8.79498768 2.38372350 40 15 865 9.21000000 887507421 887507421 15.00000000
0.34335276 2.23598981 -0.60615420 4 0 873 2.34200000 887507443 887507443 -15.00000000
1.70949090 11.11964893 0.19637448 6 1 874 11.25200000 887507445 887507445 1.00000000
0.40405992 2.62521935 -0.61321658 3 2 875 2.72600000 887507448 887507448 -13.00000000
1.71633458 11.15120506 0.59129161 31 3 875 11.29800000 887507450 887507450 3.00000000
0.48766175 3.16471553 -0.62241894 2 4 876 3.26200000 887507452 887507452 -11.00000000
1.72210836 11.16279984 0.98817182 21 5 877 11.33800000 887507455 887507455 5.00000000
0.61691648 3.99425983 -0.64012980 2 6 878 4.09200000 887507457 887507457 -9.00000000
1.73181725 11.19978809 1.39150417 29 7 879 11.41800000 887507459 887507459 7.00000000
0.81996572 5.29665613 -0.65809447 2 8 880 5.40000000 887507461 887507461 -7.00000000
1.73435247 11.20323563 1.79555476 31 9 880 11.47800000 887507464 887507464 9.00000000
1.22518122 7.90506315 -0.69986063 4 10 881 8.03000000 887507466 887507466 -5.00000000
1.54276502 9.94269848 1.95579219 25 11 882 10.25000000 887507468 887507468 11.00000000
1.70216417 10.95735931 -0.58113843 12 12 883 11.10400000 887507471 887507471 -3.00000000
1.58182180 10.17097569 2.37638283 62 13 884 10.56400000 887507473 887507473 13.00000000
1.70622396 10.95827484 -0.19358209 6 14 885 11.09200000 887507475 887507475 -1.00000000
1.36895776 8.79217243 2.38424110 40 15 885 9.21200000 887507478 887507478 15.00000000
0.34935647 2.22332692 -0.60304838 4 0 893 2.33000000 887507498 887507498 -15.00000000
1.72405660 10.95953178 0.19365190 10 1 894 11.09600000 887507501 887507501 1.00000000
0.41261485 2.61994290 -0.61231679 3 2 895 2.72200000 887507503 887507503 -13.00000000
1.74008584 11.03633022 0.58553469 21 3 896 11.18800000 887507505 887507505 3.00000000
0.49442497 3.13584375 -0.61707628 4 4 896 3.23400000 887507508 887507508 -11.00000000
1.74522018 11.05635166 0.97928190 24 5 897 11.23600000 887507510 887507510 5.00000000
0.62653863 3.96476579 -0.63574964 2 6 898 4.06400000 887507512 887507512 -9.00000000
1.75104880 11.06818962 1.37590492 25 7 899 11.29000000 887507514 887507514 7.00000000
1.73559046 10.95808697 -1.36225557 2 8 900 11.17800000 887507517 887507517 -7.00000000
1.75776935 11.08559608 1.77772129 31 9 901 11.36400000 887507519 887507519 9.00000000
1.74108171 10.98035431 -0.97265810 4 10 901 11.16000000 887507521 887507521 -5.00000000
1.57900119 9.94694710 1.95770025 25 11 902 10.26000000 887507524 887507524 11.00000000
1.74353683 10.97107601 -0.58218515 25 12 903 11.12400000 887507526 887507526 -3.00000000
1.61731553 10.16539192 2.37638283 62 13 904 10.56400000 887507528 887507528 13.00000000
1.74792516 10.97397518 -0.19396605 23 14 905 11.11400000 887507531 887507531 -1.00000000
1.39813137 8.76801777 2.37906456 38 15 906 9.19200000 887507533 887507533 15.00000000
0.35956752 2.23735285 -0.60718948 4 0 913 2.34600000 887507554 887507554 -15.00000000
1.76547849 10.97319031 0.19400094 33 1 914 11.11600000 887507556 887507556 1.00000000
0.42330706 2.62810636 -0.61456627 3 2 915 2.73200000 887507558 887507558 -13.00000000
1.77413321 11.01472473 0.58469731 10 3 915 11.17200000 887507561 887507561 3.00000000
0.50911850 3.15735745 -0.62165570 2 4 916 3.25800000 887507563 887507563 -11.00000000
1.77745318 11.01085377 0.97579569 12 5 917 11.19600000 887507565 887507565 5.00000000
0.64163500 3.97035480 -0.63700116 2 6 918 4.07200000 887507567 887507567 -9.00000000
1.78238142 11.01693821 1.37029886 12 7 919 11.24400000 887507570 887507570 7.00000000
0.85628831 5.28688383 -0.65760696 2 8 920 5.39600000 887507572 887507572 -7.00000000
1.78570497 11.01309586 1.76708376 12 9 921 11.29600000 887507574 887507574 9.00000000
1.27714980 7.87665033 -0.69811749 4 10 921 8.01000000 887507577 887507577 -5.00000000
1.61088181 9.92393398 1.95426571 21 11 922 10.24200000 887507579 887507579 11.00000000
1.78150201 10.96295166 -0.58208048 12 12 923 11.12200000 887507581 887507581 -3.00000000
1.65341532 10.16353130 2.37728286 59 13 924 10.56800000 887507584 887507584 13.00000000
1.78879225 10.98359680 -0.19424528 6 14 925 11.13000000 887507586 887507586 -1.00000000
1.42937326 8.77668095 2.38268805 42 15 925 9.20600000 887507588 887507588 15.00000000
0.36674875 2.23227167 -0.60615420 4 0 933 2.34200000 887507609 887507609 -15.00000000
1.80571854 10.97879982 0.19421038 10 1 934 11.12800000 887507611 887507611 1.00000000
0.42899567 2.60546136 -0.60961735 3 2 935 2.71000000 887507613 887507613 -13.00000000
1.81289542 11.01043606 0.58480197 10 3 935 11.17400000 887507616 887507616 3.00000000
0.52013665 3.15556121 -0.62165570 2 4 936 3.25800000 887507618 887507618 -11.00000000
1.81717491 11.01244545 0.97649294 12 5 937 11.20400000 887507620 887507620 5.00000000
0.65677798 3.97588682 -0.63825262 2 6 938 4.08000000 887507623 887507623 -9.00000000
1.82017910 11.00673294 1.36981142 12 7 939 11.24000000 887507625 887507625 7.00000000
0.87700731 5.29757166 -0.65931314 2 8 940 5.41000000 887507627 887507627 -7.00000000
1.82639778 11.02043724 1.76927376 12 9 941 11.31000000 887507630 887507630 9.00000000
1.82649136 11.02100182 -0.97736448 4 10 941 11.21400000 887507632 887507632 -5.00000000
1.64872622 9.93761826 1.95808196 21 11 942 10.26200000 887507634 887507634 11.00000000
1.82335865 10.97833920 -0.58323193 12 12 943 11.14400000 887507637 887507637 -3.00000000
1.68760407 10.15000820 2.37548304 57 13 944 10.56000000 887507639 887507639 13.00000000
1.83138955 11.00292873 -0.19469905 10 14 945 11.15600000 887507641 887507641 -1.00000000
1.46095240 8.77735519 2.38424110 42 15 945 9.21200000 887507643 887507643 15.00000000
0.37421876 2.22907257 -0.60563654 3 0 953 2.34000000 887507664 887507664 -15.00000000
1.84833920 10.99806595 0.19466414 13 1 954 11.15400000 887507666 887507666 1.00000000
0.43873444 2.60779166 -0.61051714 3 2 955 2.71400000 887507669 887507669 -13.00000000
1.85323858 11.00371742 0.58480197 10 3 956 11.17400000 887507671 887507671 3.00000000
0.53180057 3.15759826 -0.62241894 2 4 956 3.26200000 887507673 887507673 -11.00000000
1.85825431 11.02175236 0.97788745 12 5 957 11.22000000 887507676 887507676 5.00000000
0.67196745 3.98136139 -0.63950408 2 6 958 4.08800000 887507678 887507678 -9.00000000
1.86189580 11.01988506 1.37224877 10 7 959 11.26000000 887507680 887507680 7.00000000
0.89681810 5.30230713 -0.66028810 2 8 960 5.41800000 887507683 887507683 -7.00000000
1.86326230 11.01626778 1.76958668 12 9 960 11.31200000 887507685 887507685 9.00000000
1.86628115 11.02241707 -0.97806174 4 10 961 11.22200000 887507687 887507687 -5.00000000
1.68602967 9.94728756 1.96113491 21 11 962 10.27800000 887507690 887507690 11.00000000
1.86333966 10.98175335 -0.58375525 12 12 963 11.15400000 887507692 887507692 -3.00000000
1.72041333 10.12868595 2.37188387 59 13 964 10.54400000 887507694 887507694 13.00000000
1.86978567 10.99646854 -0.19469905 10 14 965 11.15600000 887507696 887507696 -1.00000000
1.49246490 8.76813221 2.38320565 40 15 966 9.20800000 887507699 887507699 15.00000000
0.38232389 2.22965693 -0.60615420 4 0 973 2.34200000 887507719 887507719 -15.00000000
1.88840985 11.00140190 0.19483867 13 1 974 11.16400000 887507722 887507722 1.00000000
0.44981477 2.61776781 -0.61321658 3 2 975 2.72600000 887507724 887507724 -13.00000000
1.89242387 11.01325798 0.58563936 13 3 975 11.19000000 887507726 887507726 3.00000000
0.54015690 3.14024401 -0.61936599 2 4 976 3.24600000 887507729 887507729 -11.00000000
1.89536369 11.00734520 0.97719020 12 5 977 11.21200000 887507731 887507731 5.00000000
0.68418312 3.96925807 -0.63793975 2 6 978 4.07800000 887507733 887507733 -9.00000000
1.90237629 11.02505589 1.37371123 12 7 979 11.27200000 887507736 887507736 7.00000000
0.91430753 5.29327583 -0.65955687 2 8 980 5.41200000 887507738 887507738 -7.00000000
1.90665555 11.02688313 1.77240252 12 9 981 11.33000000 887507740 887507740 9.00000000
1.36703062 7.90603590 -0.70195234 4 10 981 8.05400000 887507743 887507743 -5.00000000
1.72643411 9.97422791 1.96762240 18 11 982 10.31200000 887507745 887507745 11.00000000
1.90541255 10.99682999 -0.58490664 12 12 983 11.17600000 887507747 887507747 -3.00000000
1.75376034 10.11109829 2.36918449 64 13 984 10.53200000 887507749 887507749 13.00000000
1.90815914 10.98987484 -0.19469905 12 14 985 11.15600000 887507752 887507752 -1.00000000
1.52008498 8.74573898 2.37854695 40 15 986 9.19000000 887507754 887507754 15.00000000
0.39010450 2.22830868 -0.60615420 4 0 993 2.34200000 887507775 887507775 -15.00000000
1.92887151 11.00656128 0.19504809 13 1 994 11.17600000 887507777 887507777 1.00000000
0.45827630 2.61234283 -0.61231679 3 2 995 2.72200000 887507779 887507779 -13.00000000
1.93430686 11.02625751 0.58668607 13 3 995 11.21000000 887507782 887507782 3.00000000
0.55451077 3.15767598 -0.62318218 2 4 996 3.26600000 887507784 887507784 -11.00000000
1.93618965 11.01439762 0.97841036 12 5 997 11.22600000 887507786 887507786 5.00000000
0.69632256 3.95711827 -0.63637543 2 6 998 4.06800000 887507789 887507789 -9.00000000
1.94429302 11.03789806 1.37614858 14 7 999 11.29200000 887507791 887507791 7.00000000
0.93381304 5.29591703 -0.66028810 2 8 1000 5.41800000 887507793 887507793 -7.00000000
1.94389749 11.02439022 1.77302825 12 9 1000 11.33400000 887507796 887507796 9.00000000
1.38700056 7.85805082 -0.69811749 4 10 1001 8.01000000 887507798 887507798 -5.00000000
1.75919068 9.95654106 1.96533263 18 11 1002 10.30000000 887507800 887507800 11.00000000
1.94378710 10.99011135 -0.58490664 12 12 1003 11.17600000 887507802 887507802 -3.00000000
1.77545452 10.02815914 2.35118842 64 13 1004 10.45200000 887507805 887507805 13.00000000
1.94999897 11.00283718 -0.19504809 10 14 1005 11.17600000 887507807 887507807 -1.00000000
1.54959166 8.73467350 2.37699413 40 15 1006 9.18400000 887507809 887507809 15.00000000
0.39822015 2.22883511 -0.60667187 4 0 1013 2.34400000 887507830 887507830 -15.00000000
1.96833599 11.00566673 0.19515280 13 1 1014 11.18200000 887507832 887507832 1.00000000
0.47013962 2.62607312 -0.61591601 3 2 1015 2.73800000 887507835 887507835 -13.00000000
1.97489572 11.03123474 0.58731413 13 3 1015 11.22200000 887507837 887507837 3.00000000
0.56345183 3.14412642 -0.62089247 2 4 1016 3.25400000 887507839 887507839 -11.00000000
1.97603238 11.01541615 0.97910762 12 5 1017 11.23400000 887507842 887507842 5.00000000
0.71152776 3.96244073 -0.63762689 2 6 1018 4.07600000 887507844 887507844 -9.00000000
1.98351300 11.03495216 1.37663615 14 7 1019 11.29600000 887507846 887507846 7.00000000
0.94702065 5.26331949 -0.65663201 2 8 1020 5.38800000 887507849 887507849 -7.00000000
1.98481667 11.03114700 1.77521837 12 9 1020 11.34800000 887507851 887507851 9.00000000
1.41654074 7.86492634 -0.69916338 4 10 1021 8.02200000 887507853 887507853 -5.00000000
1.79915977 9.97932148 1.97105694 18 11 1022 10.33000000 887507855 887507855 11.00000000
1.98533022 11.00094891 -0.58584869 12 12 1023 11.19400000 887507858 887507858 -3.00000000
1.78619838 9.88766193 2.31969523 57 13 1024 10.31200000 887507860 887507860 13.00000000
1.99052918 11.00777054 -0.19525753 10 14 1025 11.18800000 887507862 887507862 -1.00000000
1.58041596 8.73111248 2.37751174 40 15 1026 9.18600000 887507865 887507865 15.00000000
0.40634423 2.22933197 -0.60718948 4 0 1033 2.34600000 887507885 887507885 -15.00000000
2.00925326 11.01249886 0.19539714 13 1 1034 11.19600000 887507888 887507888 1.00000000
0.47720280 2.61291385 -0.61321658 3 2 1035 2.72600000 887507890 887507890 -13.00000000
2.01410747 11.02820301 0.58752346 13 3 1035 11.22600000 887507892 887507892 3.00000000
0.57512957 3.14600277 -0.62165570 2 4 1036 3.25800000 887507895 887507895 -11.00000000
2.01734042 11.02413082 0.98050213 12 5 1037 11.25000000 887507897 887507897 5.00000000
0.72642267 3.96576190 -0.63856548 2 6 1038 4.08200000 887507899 887507899 -9.00000000
2.02273607 11.03186607 1.37712359 12 7 1039 11.30000000 887507901 887507901 7.00000000
0.96897072 5.27950621 -0.65906942 2 8 1040 5.40800000 887507904 887507904 -7.00000000
2.02830267 11.05135250 1.77959847 12 9 1040 11.37600000 887507906 887507906 9.00000000
1.44686592 7.87561035 -0.70055789 4 10 1041 8.03800000 887507908 887507908 -5.00000000
1.84712112 10.04442310 1.98517680 28 11 1042 10.40400000 887507911 887507911 11.00000000
2.02444172 10.99788094 -0.58605802 12 12 1043 11.19800000 887507913 887507913 -3.00000000
1.79951453 9.76637745 2.29270124 66 13 1044 10.19200000 887507915 887507915 13.00000000
2.03256822 11.02042007 -0.19560657 10 14 1045 11.20800000 887507918 887507918 -1.00000000
1.61111271 8.73532200 2.38010001 42 15 1045 9.19600000 887507920 887507920 15.00000000
0.41553578 2.23549724 -0.60926002 4 0 1053 2.35400000 887507941 887507941 -15.00000000
2.05060816 11.02114582 0.19567639 13 1 1054 11.21200000 887507943 887507943 1.00000000
0.48703426 2.61506391 -0.61411637 3 2 1055 2.73000000 887507945 887507945 -13.00000000
2.05405354 11.02895927 0.58794212 13 3 1055 11.23400000 887507948 887507948 3.00000000
0.58754683 3.15169621 -0.62318218 2 4 1056 3.26600000 887507950 887507950 -11.00000000
2.06019521 11.04052448 0.98259383 12 5 1057 11.27400000 887507952 887507952 5.00000000
0.73844784 3.95349312 -0.63700116 2 6 1058 4.07200000 887507954 887507954 -9.00000000
2.06415081 11.04034805 1.37907350 14 7 1059 11.31600000 887507957 887507957 7.00000000
2.05804396 10.99706078 -1.37371123 2 8 1060 11.27200000 887507959 887507959 -7.00000000
2.06686687 11.04420471 1.77959847 12 9 1060 11.37600000 887507961 887507961 9.00000000
1.47581553 7.87834549 -0.70125508 4 10 1061 8.04600000 887507964 887507964 -5.00000000
1.91473496 10.21158028 2.01952243 31 11 1062 10.58400000 887507966 887507966 11.00000000
2.07018781 11.03000641 -0.58815145 12 12 1063 11.23800000 887507968 887507968 -3.00000000
1.81272554 9.64895344 2.26660681 60 13 1064 10.07600000 887507971 887507971 13.00000000
2.07287216 11.02308464 -0.19578110 12 14 1065 11.21800000 887507973 887507973 -1.00000000
1.64454782 8.73695278 2.38217044 42 15 1066 9.20400000 887507975 887507975 15.00000000
0.42079061 2.22271824 -0.60615420 4 0 1072 2.34200000 887507996 887507996 -15.00000000
2.08900595 11.02410889 0.19585091 13 1 1073 11.22200000 887507998 887507998 1.00000000
0.49570346 2.61343431 -0.61411637 3 2 1074 2.73000000 887508001 887508001 -13.00000000
2.09700966 11.04526901 0.58919817 13 3 1075 11.25800000 887508003 887508003 3.00000000
0.59286827 3.12272716 -0.61783952 2 4 1075 3.23800000 887508005 887508005 -11.00000000
2.09530783 11.02580261 0.98189658 12 5 1076 11.26600000 887508007 887508007 5.00000000
0.75450712 3.96654725 -0.63950408 2 6 1077 4.08800000 887508010 887508010 -9.00000000
2.10297823 11.04514313 1.38053596 12 7 1078 11.32800000 887508012 887508012 7.00000000
2.10044646 11.02137566 -1.37761104 2 8 1079 11.30400000 887508014 887508014 -7.00000000
