# .PCD v0.7 - Point Cloud Data file format
VERSION 0.7
FIELDS x y z intensity laser_id azimuth distance_m adjustedtime timestamp vertical_angle
SIZE 4 4 4 1 1 2 8 8 4 8
TYPE F F F U U U F U U F
COUNT 1 1 1 1 1 1 1 1 1 1
WIDTH 553
HEIGHT 1
VIEWPOINT 0 0 0 1 0 0 0
POINTS 553
DATA ascii
5.72800827 8.41586399 2.35028863 60 13 3424 10.44800000 881714489 881714489 13.00000000
2.80909419 4.12570763 -0.08712241 14 14 3425 4.99200000 881714491 881714491 -1.00000000
4.97764444 7.30790806 2.36922956 45 15 3426 9.15400000 881714494 881714494 15.00000000
1.29572773 1.89662015 -0.61547166 4 0 3434 2.37800000 881714515 881714515 -15.00000000
2.78262305 4.07001114 -1.13825238 155 2 3436 5.06000000 881714519 881714519 -13.00000000
1.84979546 2.70459485 -0.63692045 2 4 3437 3.33800000 881714524 881714524 -11.00000000
2.34305024 3.42321992 -0.65702474 6 6 3439 4.20000000 881714528 881714528 -9.00000000
2.76747441 4.04028177 -0.60130334 48 8 3441 4.93400000 881714533 881714533 -7.00000000
2.79750085 4.08258915 -0.43298972 66 10 3442 4.96800000 881714538 881714538 -5.00000000
4.75422430 6.93557644 1.63446987 12 11 3443 8.56600000 881714540 881714540 11.00000000
2.79221225 4.07182217 -0.25874898 235 12 3444 4.94400000 881714542 881714542 -3.00000000
5.75220108 8.38517189 2.34758925 60 13 3445 10.43600000 881714544 881714544 13.00000000
2.82193398 4.11208630 -0.08705261 8 14 3446 4.98800000 881714547 881714547 -1.00000000
5.00749588 7.29685974 2.37129998 45 15 3446 9.16200000 881714549 881714549 15.00000000
1.30234027 1.89208567 -0.61547166 4 0 3454 2.37800000 881714570 881714570 -15.00000000
2.79902411 4.06348276 -1.13915217 165 2 3456 5.06400000 881714574 881714574 -13.00000000
1.84585726 2.67872214 -0.63234103 2 4 3457 3.31400000 881714579 881714579 -11.00000000
2.35386372 3.41339397 -0.65671188 6 6 3459 4.19800000 881714584 881714584 -9.00000000
2.78945327 4.04203320 -0.60300952 27 8 3461 4.94800000 881714588 881714588 -7.00000000
2.81852627 4.08263683 -0.43403560 36 10 3462 4.98000000 881714593 881714593 -5.00000000
2.80640864 4.06205082 -0.25874898 235 12 3464 4.94400000 881714597 881714597 -3.00000000
5.78143597 8.36504173 2.34758925 64 13 3465 10.43600000 881714600 881714600 13.00000000
2.82603550 4.08740759 -0.08673846 8 14 3466 4.97000000 881714602 881714602 -1.00000000
5.03513336 7.28251410 2.37233543 45 15 3466 9.16600000 881714604 881714604 15.00000000
1.30310452 1.87981820 -0.61288351 4 0 3473 2.36800000 881714625 881714625 -15.00000000
2.81581616 4.05898190 -1.14050186 168 2 3475 5.07000000 881714630 881714630 -13.00000000
1.85249138 2.66936040 -0.63157779 2 4 3476 3.31000000 881714634 881714634 -11.00000000
2.37869167 3.42503929 -0.66046631 6 6 3478 4.22200000 881714639 881714639 -9.00000000
2.81303811 4.04743147 -0.60520315 23 8 3480 4.96600000 881714643 881714643 -7.00000000
2.83546138 4.07817507 -0.43455854 27 10 3481 4.98600000 881714648 881714648 -5.00000000
2.82214475 4.05600071 -0.25895831 235 12 3483 4.94800000 881714653 881714653 -3.00000000
5.80914354 8.34582329 2.34758925 64 13 3484 10.43600000 881714655 881714655 13.00000000
2.83728886 4.07473135 -0.08666865 12 14 3485 4.96600000 881714657 881714657 -1.00000000
5.05042410 7.25309372 2.36819434 45 15 3485 9.15000000 881714660 881714660 15.00000000
1.30633998 1.87050653 -0.61133057 4 0 3493 2.36200000 881714680 881714680 -15.00000000
2.82438564 4.04114199 -1.13825238 144 2 3495 5.06000000 881714685 881714685 -13.00000000
1.86629772 2.66931367 -0.63310426 4 4 3496 3.31800000 881714690 881714690 -11.00000000
2.37704325 3.39729285 -0.65671188 6 6 3498 4.19800000 881714694 881714694 -9.00000000
2.83625793 4.05059624 -0.60715306 23 8 3500 4.98200000 881714699 881714699 -7.00000000
2.84053493 4.05519772 -0.43316403 27 10 3501 4.97000000 881714703 881714703 -5.00000000
2.84774995 4.06247950 -0.26000503 205 12 3503 4.96800000 881714708 881714708 -3.00000000
5.84047842 8.32868576 2.34848905 62 13 3504 10.44000000 881714710 881714710 13.00000000
5.07586432 7.23295307 2.36767673 45 15 3506 9.14800000 881714715 881714715 15.00000000
1.31841958 1.87383497 -0.61391878 3 0 3513 2.37200000 881714736 881714736 -15.00000000
1.87786520 2.66599298 -0.63386750 4 4 3516 3.32200000 881714745 881714745 -11.00000000
2.38661122 3.38574553 -0.65608615 6 6 3518 4.19400000 881714749 881714749 -9.00000000
2.84809136 4.03742695 -0.60666561 21 8 3520 4.97800000 881714754 881714754 -7.00000000
2.86616063 4.06153631 -0.43490717 24 10 3521 4.99000000 881714759 881714759 -5.00000000
2.87458682 4.07046032 -0.26115641 192 12 3523 4.99000000 881714763 881714763 -3.00000000
5.87176418 8.31143188 2.34938884 62 13 3524 10.44400000 881714766 881714766 13.00000000
2.88874888 4.08748484 -0.08736674 32 14 3525 5.00600000 881714768 881714768 -1.00000000
5.10316706 7.22081423 2.36922956 45 15 3525 9.15400000 881714770 881714770 15.00000000
1.32606959 1.87079751 -0.61443639 4 0 3533 2.37400000 881714791 881714791 -15.00000000
1.89170444 2.66582608 -0.63539398 4 4 3536 3.33000000 881714800 881714800 -11.00000000
2.39612770 3.37417293 -0.65546042 6 6 3538 4.19000000 881714805 881714805 -9.00000000
2.86561704 4.03231478 -0.60739678 17 8 3540 4.98400000 881714809 881714809 -7.00000000
2.89648271 4.07424116 -0.43734753 15 10 3541 5.01800000 881714814 881714814 -5.00000000
5.90074062 8.29088497 2.34938884 62 13 3544 10.44400000 881714821 881714821 13.00000000
5.12834120 7.20295668 2.36922956 47 15 3545 9.15400000 881714825 881714825 15.00000000
1.33483720 1.86930156 -0.61547166 4 0 3553 2.37800000 881714846 881714846 -15.00000000
1.57830131 2.20861745 -0.62671363 2 2 3555 2.78600000 881714851 881714851 -13.00000000
1.89414787 2.64962387 -0.63310426 2 4 3556 3.31800000 881714855 881714855 -11.00000000
2.42283273 3.38667393 -0.65952772 6 6 3558 4.21600000 881714860 881714860 -9.00000000
2.91764736 4.07382441 -0.43839338 3 10 3561 5.03000000 881714869 881714869 -5.00000000
5.92056131 8.25756645 2.34578967 64 13 3564 10.42800000 881714876 881714876 13.00000000
5.15695906 7.18725109 2.37026477 45 15 3566 9.15800000 881714881 881714881 15.00000000
1.33909786 1.86149430 -0.61443639 4 0 3573 2.37400000 881714901 881714901 -15.00000000
1.58486271 2.20151305 -0.62626374 3 2 3575 2.78400000 881714906 881714906 -13.00000000
1.90797448 2.64936852 -0.63463074 4 4 3576 3.32600000 881714911 881714911 -11.00000000
2.44272447 3.38941407 -0.66171777 9 6 3578 4.23000000 881714915 881714915 -9.00000000
2.52327681 3.49860930 -0.52964419 8 8 3580 4.34600000 881714920 881714920 -7.00000000
2.52617049 3.50133348 -0.37773299 2 10 3581 4.33400000 881714925 881714925 -5.00000000
5.95619583 8.24632835 2.34848905 62 13 3584 10.44000000 881714931 881714931 13.00000000
2.51212120 3.47674298 -0.07487082 1 14 3585 4.29000000 881714934 881714934 -1.00000000
5.17975283 7.16607475 2.36922956 45 15 3586 9.15400000 881714936 881714936 15.00000000
1.34267318 1.85414886 -0.61340111 4 0 3591 2.37000000 881714957 881714957 -15.00000000
2.52809834 3.48986554 0.07521987 7 1 3592 4.31000000 881714959 881714959 1.00000000
1.59863222 2.20599103 -0.62896317 3 2 3593 2.79600000 881714961 881714961 -13.00000000
2.53734636 3.50134540 0.22661468 1 3 3593 4.33000000 881714964 881714964 3.00000000
1.91167903 2.63700318 -0.63310426 4 4 3594 3.31800000 881714966 881714966 -11.00000000
2.54056668 3.50321507 0.37860456 1 5 3595 4.34400000 881714968 881714968 5.00000000
2.45336056 3.38172317 -0.66171777 9 6 3596 4.23000000 881714971 881714971 -9.00000000
2.52959037 3.48423958 -0.52866924 20 8 3598 4.33800000 881714975 881714975 -7.00000000
2.53013277 3.48370767 -0.37668711 30 10 3599 4.32200000 881714980 881714980 -5.00000000
2.53636146 3.48972106 -0.22609133 22 12 3601 4.32000000 881714984 881714984 -3.00000000
5.97519684 8.21811867 2.34578967 13 13 3602 10.42800000 881714987 881714987 13.00000000
2.53832245 3.48985696 -0.07532459 22 14 3603 4.31600000 881714989 881714989 -1.00000000
1.34913719 1.84945071 -0.61340111 4 0 3611 2.37000000 881715012 881715012 -15.00000000
2.54262233 3.48425007 0.07528968 18 1 3612 4.31400000 881715014 881715014 1.00000000
1.60402477 2.19724941 -0.62806332 3 2 3613 2.79200000 881715017 881715017 -13.00000000
2.55779624 3.50375915 0.22734739 22 3 3613 4.34400000 881715019 881715019 3.00000000
1.92087233 2.63031411 -0.63310426 4 4 3614 3.31800000 881715021 881715021 -11.00000000
2.55395508 3.49593425 0.37877885 24 5 3615 4.34600000 881715024 881715024 5.00000000
2.45582557 3.36037993 -0.65921485 9 6 3616 4.21400000 881715026 881715026 -9.00000000
2.56573367 3.50948453 0.53378773 20 7 3617 4.38000000 881715028 881715028 7.00000000
2.54173732 3.47538829 -0.52866924 6 8 3618 4.33800000 881715031 881715031 -7.00000000
2.56777906 3.51099586 0.68893737 20 9 3618 4.40400000 881715033 881715033 9.00000000
2.52933717 3.45716667 -0.37476969 7 10 3619 4.30000000 881715035 881715035 -5.00000000
2.55787730 3.49489594 0.84184927 17 11 3620 4.41200000 881715037 881715037 11.00000000
2.53672862 3.46473122 -0.22504461 6 12 3621 4.30000000 881715040 881715040 -3.00000000
2.56781340 3.50590372 1.00328171 32 13 3622 4.46000000 881715042 881715042 13.00000000
2.56961393 3.50579405 1.16468573 26 15 3624 4.50000000 881715047 881715047 15.00000000
1.35787261 1.84784353 -0.61443639 4 0 3631 2.37400000 881715067 881715067 -15.00000000
2.54410958 3.46085262 0.07497554 3 1 3632 4.29600000 881715070 881715070 1.00000000
1.60475779 2.18221736 -0.62536395 3 2 3633 2.78000000 881715072 881715072 -13.00000000
2.55462885 3.47389197 0.22598666 5 3 3633 4.31800000 881715074 881715074 3.00000000
1.93702233 2.63308167 -0.63539398 4 4 3634 3.33000000 881715077 881715077 -11.00000000
2.55551434 3.47255564 0.37721005 3 5 3635 4.32800000 881715079 881715079 5.00000000
2.47456717 3.36133170 -0.66109204 9 6 3636 4.22600000 881715081 881715081 -9.00000000
2.56737399 3.48612142 0.53159410 45 7 3637 4.36200000 881715083 881715083 7.00000000
2.54207873 3.45051289 -0.52623183 8 8 3638 4.31800000 881715086 881715086 -7.00000000
2.57650399 3.49724007 0.68799877 60 9 3638 4.39800000 881715088 881715088 9.00000000
2.54729962 3.45633602 -0.37564126 10 10 3639 4.31000000 881715090 881715090 -5.00000000
2.56656599 3.48120546 0.84070444 42 11 3640 4.40600000 881715093 881715093 11.00000000
2.54169440 3.44621110 -0.22441658 8 12 3641 4.28800000 881715095 881715095 -3.00000000
2.56962299 3.48280573 0.99923259 45 13 3642 4.44200000 881715097 881715097 13.00000000
2.54718661 3.45113516 -0.07487082 5 14 3643 4.29000000 881715100 881715100 -1.00000000
2.58237267 3.49880791 1.16520333 46 15 3643 4.50200000 881715102 881715102 15.00000000
1.36661327 1.84619784 -0.61547166 4 0 3651 2.37800000 881715123 881715123 -15.00000000
2.55141449 3.44552279 0.07483592 7 1 3652 4.28800000 881715125 881715125 1.00000000
1.61236537 2.17660236 -0.62536395 3 2 3653 2.78000000 881715127 881715127 -13.00000000
2.55960631 3.45532417 0.22535862 7 3 3653 4.30600000 881715130 881715130 3.00000000
1.94152617 2.61999464 -0.63386750 4 4 3654 3.32200000 881715132 881715132 -11.00000000
2.56999326 3.46681523 0.37755868 7 5 3655 4.33200000 881715134 881715134 5.00000000
2.48628521 3.35267329 -0.66109204 9 6 3656 4.22600000 881715136 881715136 -9.00000000
2.57479620 3.47076130 0.53061914 60 7 3657 4.35400000 881715139 881715139 7.00000000
2.54109478 3.42408347 -0.52355069 8 8 3658 4.29600000 881715141 881715141 -7.00000000
2.56986046 3.46284485 0.68299288 48 9 3658 4.36600000 881715143 881715143 9.00000000
2.54866028 3.43302560 -0.37407246 9 10 3659 4.29200000 881715146 881715146 -5.00000000
2.57519031 3.46749687 0.83955956 46 11 3660 4.40000000 881715148 881715148 11.00000000
2.55013514 3.43250823 -0.22410257 8 12 3661 4.28200000 881715150 881715150 -3.00000000
2.57362747 3.46286631 0.99608326 55 13 3662 4.42800000 881715153 881715153 13.00000000
2.55563855 3.43740869 -0.07476611 7 14 3663 4.28400000 881715155 881715155 -1.00000000
2.58710861 3.47846866 1.16157985 46 15 3664 4.48800000 881715157 881715157 15.00000000
1.37041891 1.83855808 -0.61443639 4 0 3670 2.37400000 881715178 881715178 -15.00000000
2.56163096 3.43544006 0.07480101 7 1 3671 4.28600000 881715180 881715180 1.00000000
1.62423503 2.17749166 -0.62716353 3 2 3672 2.78800000 881715183 881715183 -13.00000000
2.56567979 3.43836474 0.22483526 7 3 3673 4.29600000 881715185 881715185 3.00000000
1.94550729 2.60724807 -0.63234103 4 4 3673 3.31400000 881715187 881715187 -11.00000000
2.57194090 3.44550085 0.37616420 7 5 3674 4.31600000 881715189 881715189 5.00000000
2.50211716 3.35074115 -0.66234350 11 6 3675 4.23400000 881715192 881715192 -9.00000000
2.57203555 3.44311953 0.52769428 63 7 3676 4.33000000 881715194 881715194 7.00000000
2.54292917 3.40291691 -0.52160078 8 8 3677 4.28000000 881715196 881715196 -7.00000000
2.57541728 3.44639182 0.68142855 68 9 3677 4.35600000 881715199 881715199 9.00000000
2.54571533 3.40540552 -0.37198070 9 10 3678 4.26800000 881715201 881715201 -5.00000000
2.57844448 3.44793248 0.83688825 61 11 3679 4.38600000 881715203 881715203 11.00000000
2.55312896 3.41283798 -0.22336987 8 12 3680 4.26800000 881715206 881715206 -3.00000000
2.58042622 3.44807196 0.99428368 61 13 3681 4.42000000 881715208 881715208 13.00000000
2.55743599 3.41610837 -0.07448687 7 14 3682 4.26800000 881715210 881715210 -1.00000000
2.59107733 3.46104503 1.15847409 58 15 3682 4.47600000 881715213 881715213 15.00000000
1.37218869 1.82758367 -0.61236584 4 0 3690 2.36600000 881715233 881715233 -15.00000000
2.55679417 3.40409255 0.07431234 7 1 3691 4.25800000 881715236 881715236 1.00000000
1.63416719 2.17492485 -0.62806332 3 2 3692 2.79200000 881715238 881715238 -13.00000000
2.57286620 3.42300177 0.22441658 7 3 3693 4.28800000 881715240 881715240 3.00000000
1.95695555 2.60357976 -0.63310426 4 4 3693 3.31800000 881715242 881715242 -11.00000000
2.57437325 3.42376256 0.37476969 7 5 3694 4.30000000 881715245 881715245 5.00000000
2.50667357 3.33251500 -0.66046631 11 6 3695 4.22200000 881715247 881715247 -9.00000000
2.57687712 3.42460322 0.52623183 63 7 3696 4.31800000 881715249 881715249 7.00000000
2.54643536 3.38291764 -0.51989460 8 8 3697 4.26600000 881715252 881715252 -7.00000000
2.57971382 3.42588329 0.67923844 72 9 3698 4.34200000 881715254 881715254 9.00000000
2.55279303 3.39013219 -0.37128347 9 10 3698 4.26000000 881715256 881715256 -5.00000000
2.58455825 3.43107033 0.83498019 59 11 3699 4.37600000 881715259 881715259 11.00000000
2.56262255 3.40071487 -0.22316052 8 12 3700 4.26400000 881715261 881715261 -3.00000000
2.58423519 3.42815065 0.99113435 58 13 3701 4.40600000 881715263 881715263 13.00000000
2.55850887 3.39279103 -0.07417273 7 14 3702 4.25000000 881715266 881715266 -1.00000000
2.58862066 3.43147588 1.15174472 60 15 3703 4.45000000 881715268 881715268 15.00000000
1.38322103 1.82894599 -0.61443639 4 0 3710 2.37400000 881715289 881715289 -15.00000000
2.55780244 3.38079453 0.07399821 7 1 3711 4.24000000 881715291 881715291 1.00000000
1.64410126 2.17231488 -0.62896317 3 2 3712 2.79600000 881715293 881715293 -13.00000000
2.57756543 3.40444589 0.22378854 7 3 3713 4.27600000 881715295 881715295 3.00000000
1.98025274 2.61551571 -0.63768369 4 4 3713 3.34200000 881715298 881715298 -11.00000000
2.58149695 3.40840244 0.37407246 7 5 3714 4.29200000 881715300 881715300 5.00000000
2.50874734 3.31114888 -0.65796334 11 6 3715 4.20600000 881715302 881715302 -9.00000000
2.57682490 3.39976716 0.52379441 63 7 3716 4.29800000 881715305 881715305 7.00000000
2.55343103 3.36768126 -0.51891965 8 8 3717 4.25800000 881715307 881715307 -7.00000000
2.58270574 3.40629125 0.67704839 70 9 3717 4.32800000 881715309 881715309 9.00000000
2.55979514 3.37485099 -0.37058622 9 10 3718 4.25200000 881715312 881715312 -5.00000000
2.57871842 3.39856768 0.82925588 65 11 3719 4.34600000 881715314 881715314 11.00000000
2.55998707 3.37265849 -0.22190446 8 12 3720 4.24000000 881715316 881715316 -3.00000000
2.59029341 3.41134906 0.98888481 60 13 3721 4.39600000 881715319 881715319 13.00000000
2.56549788 3.37747002 -0.07403311 7 14 3722 4.24200000 881715321 881715321 -1.00000000
2.59063745 3.41056585 1.14760363 60 15 3722 4.43400000 881715323 881715323 15.00000000
1.39427948 1.83025348 -0.61650699 4 0 3730 2.38200000 881715344 881715344 -15.00000000
2.56231570 3.36230254 0.07378878 7 1 3731 4.22800000 881715346 881715346 1.00000000
1.63277078 2.14176655 -0.62176472 3 2 3732 2.76400000 881715348 881715348 -13.00000000
2.57247734 3.37319374 0.22232315 7 3 3733 4.24800000 881715351 881715351 3.00000000
1.98937047 2.60858750 -0.63768369 2 4 3733 3.34200000 881715353 881715353 -11.00000000
2.57887721 3.38036203 0.37198070 7 5 3734 4.26800000 881715355 881715355 5.00000000
2.52029014 3.30237150 -0.65796334 11 6 3735 4.20600000 881715358 881715358 -9.00000000
2.57422137 3.37181783 0.52086955 61 7 3736 4.27400000 881715360 881715360 7.00000000
2.55191731 3.34139371 -0.51623851 8 8 3737 4.23600000 881715362 881715362 -7.00000000
2.58677840 3.38581443 0.67485827 72 9 3738 4.31400000 881715365 881715365 9.00000000
2.56188321 3.35322952 -0.36919174 9 10 3738 4.23600000 881715367 881715367 -5.00000000
2.57864428 3.37394714 0.82543969 57 11 3739 4.32600000 881715369 881715369 11.00000000
2.55961347 3.34783530 -0.22085774 8 12 3740 4.22000000 881715371 881715371 -3.00000000
2.58205938 3.37597227 0.98123652 57 13 3741 4.36200000 881715374 881715374 13.00000000
2.57362652 3.36372972 -0.07392839 8 14 3742 4.23600000 881715376 881715376 -1.00000000
2.60546875 3.40411592 1.14863896 60 15 3743 4.43800000 881715378 881715378 15.00000000
1.39830768 1.82231009 -0.61547166 4 0 3750 2.37800000 881715399 881715399 -15.00000000
2.56307817 3.33906150 0.07347463 7 1 3751 4.21000000 881715401 881715401 1.00000000
1.64498436 2.14223671 -0.62356430 3 2 3752 2.77200000 881715404 881715404 -13.00000000
2.57206941 3.34835482 0.22127642 7 3 3753 4.22800000 881715406 881715406 3.00000000
1.98650432 2.58605814 -0.63386750 4 4 3753 3.32200000 881715408 881715408 -11.00000000
2.59066105 3.37133932 0.37198070 7 5 3754 4.26800000 881715411 881715411 5.00000000
2.53180242 3.29355383 -0.65796334 11 6 3755 4.20600000 881715413 881715413 -9.00000000
2.57629466 3.35022259 0.51891965 63 7 3756 4.25800000 881715415 881715415 7.00000000
2.55025125 3.31515813 -0.51355743 8 8 3757 4.21400000 881715418 881715418 -7.00000000
2.58594751 3.36156082 0.67172956 72 9 3757 4.29400000 881715420 881715420 9.00000000
2.56871223 3.33795047 -0.36849448 9 10 3758 4.22800000 881715422 881715422 -5.00000000
2.59519625 3.37114811 0.82696617 19 11 3759 4.33400000 881715424 881715424 11.00000000
2.56031632 3.32463861 -0.21991569 8 12 3760 4.20200000 881715427 881715427 -3.00000000
2.58074594 3.34995723 0.97628760 54 13 3761 4.34000000 881715429 881715429 13.00000000
2.56460118 3.32779908 -0.07333501 10 14 3762 4.20200000 881715431 881715431 -1.00000000
2.59905410 3.37250471 1.14087439 54 15 3762 4.40800000 881715434 881715434 15.00000000
1.40466022 1.81741798 -0.61547166 4 0 3770 2.37800000 881715454 881715454 -15.00000000
2.57471800 3.33009434 0.07347463 7 1 3771 4.21000000 881715457 881715457 1.00000000
1.66437459 2.15189624 -0.62806332 3 2 3772 2.79200000 881715459 881715459 -13.00000000
2.58007526 3.33461714 0.22096241 7 3 3773 4.22200000 881715461 881715461 3.00000000
1.99311650 2.57600260 -0.63310426 2 4 3773 3.31800000 881715464 881715464 -11.00000000
2.58899903 3.34494448 0.37006328 7 5 3774 4.24600000 881715466 881715466 5.00000000
2.54570222 3.28782010 -0.65858912 11 6 3775 4.21000000 881715468 881715468 -9.00000000
2.58675790 3.33963990 0.51867592 48 7 3776 4.25600000 881715471 881715471 7.00000000
2.55208087 3.29368258 -0.51160753 8 8 3777 4.19800000 881715473 881715473 -7.00000000
2.58251858 3.33176374 0.66766232 66 9 3778 4.26800000 881715475 881715475 9.00000000
2.56325984 3.30691743 -0.36605412 9 10 3778 4.20000000 881715477 881715477 -5.00000000
2.59371471 3.34500217 0.82276839 8 11 3779 4.31200000 881715480 881715480 11.00000000
2.56945753 3.31252480 -0.21970634 8 12 3780 4.19800000 881715482 881715482 -3.00000000
2.58883977 3.33630943 0.97493786 32 13 3781 4.33400000 881715484 881715484 13.00000000
2.56026149 3.29829121 -0.07288125 8 14 3782 4.17600000 881715487 881715487 -1.00000000
2.59599447 3.34312010 1.13414502 20 15 3783 4.38200000 881715489 881715489 15.00000000
1.40656412 1.80616069 -0.61340111 4 0 3791 2.37000000 881715510 881715510 -15.00000000
2.57338786 3.30328274 0.07309068 8 1 3792 4.18800000 881715512 881715512 1.00000000
1.67225051 2.14578152 -0.62806332 3 2 3793 2.79200000 881715514 881715514 -13.00000000
2.58859587 3.32041287 0.22064839 7 3 3794 4.21600000 881715517 881715517 3.00000000
2.00737286 2.57487345 -0.63463074 4 4 3794 3.32600000 881715519 881715519 -11.00000000
2.58653831 3.31657958 0.36797154 7 5 3795 4.22200000 881715521 881715521 5.00000000
2.55044508 3.26912260 -0.65671188 11 6 3796 4.19800000 881715524 881715524 -9.00000000
2.59531689 3.32544184 0.51794469 35 7 3797 4.25000000 881715526 881715526 7.00000000
2.56047106 3.27961254 -0.51087630 8 8 3798 4.19200000 881715528 881715528 -7.00000000
2.58927035 3.31650043 0.66641080 66 9 3798 4.26000000 881715530 881715530 9.00000000
2.56800485 3.28807902 -0.36500826 9 10 3799 4.18800000 881715533 881715533 -5.00000000
2.59628773 3.32309675 0.81971544 36 11 3800 4.29600000 881715535 881715535 11.00000000
2.57543182 3.29521680 -0.21918298 8 12 3801 4.18800000 881715537 881715537 -3.00000000
2.59864998 3.32372808 0.97403806 12 13 3802 4.33000000 881715540 881715540 13.00000000
2.56370950 3.27785945 -0.07263692 7 14 3803 4.16200000 881715542 881715542 -1.00000000
2.59931731 3.32338595 1.13052154 12 15 3803 4.36800000 881715544 881715544 15.00000000
1.41524482 1.80427992 -0.61443639 4 0 3811 2.37400000 881715565 881715565 -15.00000000
2.56638622 3.27068186 0.07256711 8 1 3812 4.15800000 881715567 881715567 1.00000000
1.67973053 2.13993120 -0.62806332 3 2 3813 2.79200000 881715570 881715570 -13.00000000
2.59276962 3.30193162 0.22002035 7 3 3814 4.20400000 881715572 881715572 3.00000000
2.02119851 2.57402730 -0.63615721 2 4 3814 3.33400000 881715574 881715574 -11.00000000
2.58825350 3.29499626 0.36657706 7 5 3815 4.20600000 881715577 881715577 5.00000000
2.55085635 3.24622107 -0.65389609 9 6 3816 4.18000000 881715579 881715579 -9.00000000
2.59832168 3.30543780 0.51623851 28 7 3817 4.23600000 881715581 881715581 7.00000000
2.56576800 3.26285267 -0.50965762 10 8 3818 4.18200000 881715583 881715583 -7.00000000
2.59774470 3.30233026 0.66547221 58 9 3819 4.25400000 881715586 881715586 9.00000000
2.57330751 3.27126527 -0.36413670 9 10 3819 4.17800000 881715588 881715588 -5.00000000
2.59330273 3.29549980 0.81513602 27 11 3820 4.27200000 881715590 881715590 11.00000000
2.57209373 3.26737475 -0.21792692 7 12 3821 4.16400000 881715593 881715593 -3.00000000
2.60903049 3.31310582 0.97358817 12 13 3822 4.32800000 881715595 881715595 13.00000000
2.57761049 3.27203202 -0.07270672 8 14 3823 4.16600000 881715597 881715597 -1.00000000
2.60071898 3.30018091 1.12586284 10 15 3824 4.35000000 881715600 881715600 15.00000000
1.42330027 1.80285752 -0.61547166 4 0 3829 2.37800000 881715620 881715620 -15.00000000
2.57788801 3.26417255 0.07260201 8 1 3830 4.16000000 881715623 881715623 1.00000000
1.66953230 2.11323619 -0.62176472 3 2 3831 2.76400000 881715625 881715625 -13.00000000
2.58826923 3.27496624 0.21876429 7 3 3832 4.18000000 881715627 881715627 3.00000000
2.03901362 2.57998705 -0.63921010 2 4 3832 3.35000000 881715630 881715630 -11.00000000
2.59488535 3.28216004 0.36605412 7 5 3833 4.20000000 881715632 881715632 5.00000000
2.55491519 3.23044443 -0.65233171 9 6 3834 4.17000000 881715634 881715634 -9.00000000
2.60007143 3.28636098 0.51453239 17 7 3835 4.22200000 881715636 881715636 7.00000000
2.56245446 3.23765373 -0.50697649 10 8 3836 4.16000000 881715639 881715639 -7.00000000
2.60017586 3.28531456 0.66359502 62 9 3836 4.24200000 881715641 881715641 9.00000000
2.57615137 3.25379252 -0.36309081 9 10 3837 4.16600000 881715643 881715643 -5.00000000
2.59267259 3.27348518 0.81170148 10 11 3838 4.25400000 881715646 881715646 11.00000000
2.56498146 3.23736167 -0.21646151 7 12 3839 4.13600000 881715648 881715648 -3.00000000
2.59642720 3.27587605 0.96504003 11 13 3840 4.29000000 881715650 881715650 13.00000000
2.57918048 3.25294948 -0.07246239 8 14 3841 4.15200000 881715653 881715653 -1.00000000
2.61049938 3.29244995 1.12586284 14 15 3841 4.35000000 881715655 881715655 15.00000000
1.42958474 1.79787827 -0.61547166 4 0 3849 2.37800000 881715676 881715676 -15.00000000
2.58055258 3.24419928 0.07235768 8 1 3850 4.14600000 881715678 881715678 1.00000000
1.68903255 2.12264442 -0.62626374 3 2 3851 2.78400000 881715680 881715680 -13.00000000
2.58475876 3.24715996 0.21750824 7 3 3852 4.15600000 881715683 881715683 3.00000000
2.03088951 2.55134940 -0.63386750 4 4 3852 3.32200000 881715685 881715685 -11.00000000
2.60260320 3.26840639 0.36553118 7 5 3853 4.19400000 881715687 881715687 5.00000000
2.55879140 3.21223593 -0.65045452 9 6 3854 4.15800000 881715689 881715689 -9.00000000
2.60163021 3.26484537 0.51258248 12 7 3855 4.20600000 881715692 881715692 7.00000000
2.56631613 3.21937585 -0.50551403 10 8 3856 4.14800000 881715694 881715694 -7.00000000
2.60300875 3.26540565 0.66140491 66 9 3856 4.22800000 881715696 881715696 9.00000000
2.58625126 3.24322248 -0.36291650 9 10 3857 4.16400000 881715699 881715699 -5.00000000
2.59306455 3.25060248 0.80826688 25 11 3858 4.23600000 881715701 881715701 11.00000000
2.57377481 3.22526622 -0.21625218 7 12 3859 4.13200000 881715703 881715703 -3.00000000
2.57804132 3.22830081 -0.07211334 8 14 3861 4.13200000 881715708 881715708 -1.00000000
2.61835980 3.27878881 1.12430990 10 15 3861 4.34400000 881715710 881715710 15.00000000
1.43343651 1.78986132 -0.61443639 4 0 3869 2.37400000 881715731 881715731 -15.00000000
2.58435941 3.22580791 0.07214825 8 1 3870 4.13400000 881715733 881715733 1.00000000
1.69643164 2.11673546 -0.62626374 3 2 3871 2.78400000 881715736 881715736 -13.00000000
2.58983111 3.23032618 0.21698487 7 3 3872 4.14600000 881715738 881715738 3.00000000
2.04223895 2.54730821 -0.63463074 4 4 3872 3.32600000 881715740 881715740 -11.00000000
2.59779096 3.23909616 0.36326513 7 5 3873 4.16800000 881715742 881715742 5.00000000
2.56504393 3.19712138 -0.64920300 9 6 3874 4.15000000 881715745 881715745 -9.00000000
2.60431337 3.24490714 0.51087630 7 7 3875 4.19200000 881715747 881715747 7.00000000
2.57008147 3.20111060 -0.50405163 10 8 3876 4.13600000 881715749 881715749 -7.00000000
2.60011578 3.23736143 0.65765047 70 9 3877 4.20400000 881715752 881715752 9.00000000
2.57260394 3.20310712 -0.35943028 9 10 3877 4.12400000 881715754 881715754 -5.00000000
2.60316586 3.24000072 0.80788529 48 11 3878 4.23400000 881715756 881715756 11.00000000
2.58001256 3.21003556 -0.21583349 7 12 3879 4.12400000 881715759 881715759 -3.00000000
2.60213852 3.23640752 0.95874137 54 13 3880 4.26200000 881715761 881715761 13.00000000
2.57550836 3.20214176 -0.07172939 8 14 3881 4.11000000 881715763 881715763 -1.00000000
2.61525965 3.25156474 1.11809826 10 15 3881 4.32000000 881715765 881715765 15.00000000
1.43603694 1.78033578 -0.61288351 4 0 3889 2.36800000 881715786 881715786 -15.00000000
2.58430219 3.20276093 0.07183410 8 1 3890 4.11600000 881715789 881715789 1.00000000
1.71115410 2.11989927 -0.62896317 3 2 3891 2.79600000 881715791 881715791 -13.00000000
2.59858179 3.21815848 0.21677554 7 3 3892 4.14200000 881715793 881715793 3.00000000
2.05111837 2.54016399 -0.63463074 4 4 3892 3.32600000 881715795 881715795 -11.00000000
2.60157013 3.22070909 0.36221927 7 5 3893 4.15600000 881715798 881715798 5.00000000
2.56377292 3.17278361 -0.64607435 9 6 3894 4.13000000 881715800 881715800 -9.00000000
2.60564089 3.22344613 0.50892639 7 7 3895 4.17600000 881715802 881715802 7.00000000
2.57874346 3.18903255 -0.50356412 10 8 3896 4.13200000 881715805 881715805 -7.00000000
2.60518885 3.22058678 0.65608615 72 9 3897 4.19400000 881715807 881715807 9.00000000
2.57249188 3.18016624 -0.35786149 9 10 3897 4.10600000 881715809 881715809 -5.00000000
2.61198974 3.22784185 0.80712205 42 11 3898 4.23000000 881715812 881715812 11.00000000
2.59120178 3.20100999 -0.21583349 7 12 3899 4.12400000 881715814 881715814 -3.00000000
2.60728788 3.21973252 0.95649189 17 13 3900 4.25200000 881715816 881715816 13.00000000
2.58289409 3.18847060 -0.07162467 7 14 3901 4.10400000 881715818 881715818 -1.00000000
2.61013174 3.22094488 1.11085129 12 15 3902 4.29200000 881715821 881715821 15.00000000
1.44346082 1.77681172 -0.61340111 4 0 3909 2.37000000 881715842 881715842 -15.00000000
2.58285475 3.17820191 0.07148506 10 1 3910 4.09600000 881715844 881715844 1.00000000
1.71362638 2.10786486 -0.62716353 3 2 3911 2.78800000 881715846 881715846 -13.00000000
2.60853934 3.20751858 0.21667086 8 3 3912 4.14000000 881715848 881715848 3.00000000
2.06492758 2.53908134 -0.63615721 4 4 3912 3.33400000 881715851 881715851 -11.00000000
2.59645081 3.19151640 0.35995322 6 5 3913 4.13000000 881715853 881715853 5.00000000
2.56485724 3.15155816 -0.64357138 9 6 3914 4.11400000 881715855 881715855 -9.00000000
2.61186385 3.20817351 0.50795144 7 7 3915 4.16800000 881715858 881715858 7.00000000
2.58484530 3.17385483 -0.50258917 10 8 3916 4.12400000 881715860 881715860 -7.00000000
2.61267185 3.20687890 0.65514755 70 9 3917 4.18800000 881715862 881715862 9.00000000
2.57854342 3.16498852 -0.35716423 9 10 3917 4.09800000 881715865 881715865 -5.00000000
2.60711718 3.19892073 0.80216104 10 11 3918 4.20400000 881715867 881715867 11.00000000
2.58216667 3.16717768 -0.21415873 7 12 3919 4.09200000 881715869 881715869 -3.00000000
2.61358428 3.20457101 0.95469230 13 13 3920 4.24400000 881715871 881715871 13.00000000
2.58895159 3.17323732 -0.07148506 7 14 3921 4.09600000 881715874 881715874 -1.00000000
2.61591339 3.20628405 1.10878074 10 15 3921 4.28400000 881715876 881715876 15.00000000
1.45454764 1.77774286 -0.61547166 4 0 3929 2.37800000 881715897 881715897 -15.00000000
2.58759999 3.16142941 0.07131054 8 1 3930 4.08600000 881715899 881715899 1.00000000
1.71603549 2.09583926 -0.62536395 3 2 3931 2.78000000 881715901 881715901 -13.00000000
2.60832977 3.18448758 0.21572880 8 3 3932 4.12200000 881715904 881715904 3.00000000
2.07129002 2.52882028 -0.63539398 4 4 3932 3.33000000 881715906 881715906 -11.00000000
2.60378718 3.17781019 0.35943028 6 5 3933 4.12400000 881715908 881715908 5.00000000
2.57083368 3.13647509 -0.64231992 9 6 3934 4.10600000 881715911 881715911 -9.00000000
2.60668397 3.17908120 0.50478280 8 7 3935 4.14200000 881715913 881715913 7.00000000
2.58206010 3.14792967 -0.49990806 12 8 3936 4.10200000 881715915 881715915 -7.00000000
2.60881352 3.17941427 0.65139312 70 9 3937 4.16400000 881715918 881715918 9.00000000
2.58704782 3.15288782 -0.35681561 9 10 3937 4.09400000 881715920 881715920 -5.00000000
2.61203957 3.18221307 0.80025291 16 11 3938 4.19400000 881715922 881715922 11.00000000
2.58306694 3.14579654 -0.21332136 7 12 3939 4.07600000 881715924 881715924 -3.00000000
2.60001588 3.16531134 0.94569421 35 13 3940 4.20400000 881715927 881715927 13.00000000
2.59239531 3.15491080 -0.07127563 7 14 3941 4.08400000 881715929 881715929 -1.00000000
2.61482501 3.18220735 1.10360444 16 15 3941 4.26400000 881715931 881715931 15.00000000
1.46351123 1.77538109 -0.61650699 4 0 3950 2.38200000 881715952 881715952 -15.00000000
2.59153652 3.14266753 0.07110111 8 1 3951 4.07400000 881715954 881715954 1.00000000
1.72122550 2.08652902 -0.62446415 3 2 3952 2.77600000 881715957 881715957 -13.00000000
2.59909463 3.15071225 0.21405406 8 3 3952 4.09000000 881715959 881715959 3.00000000
2.08054471 2.52121162 -0.63539398 4 4 3953 3.33000000 881715961 881715961 -11.00000000
2.61668539 3.16978192 0.35960460 6 5 3954 4.12600000 881715964 881715964 5.00000000
2.57224965 3.11484599 -0.63981694 9 6 3955 4.09000000 881715966 881715966 -9.00000000
2.61326122 3.16338420 0.50380784 7 7 3956 4.13400000 881715968 881715968 7.00000000
2.58093524 3.12314272 -0.49747065 12 8 3957 4.08200000 881715970 881715970 -7.00000000
2.61108732 3.15962934 0.64920300 52 9 3957 4.15000000 881715973 881715973 9.00000000
2.59350848 3.13724232 -0.35611835 9 10 3958 4.08600000 881715975 881715975 -5.00000000
2.61617851 3.16354060 0.79796320 16 11 3959 4.18200000 881715977 881715977 11.00000000
2.58948708 3.13015223 -0.21290267 7 12 3960 4.06800000 881715980 881715980 -3.00000000
2.60787272 3.15125656 0.94434452 55 13 3961 4.19800000 881715982 881715982 13.00000000
2.59246445 3.13152504 -0.07096148 7 14 3962 4.06600000 881715984 881715984 -1.00000000
2.62770271 3.17409039 1.10412204 20 15 3962 4.26600000 881715987 881715987 15.00000000
1.46723151 1.76728892 -0.61547166 4 0 3970 2.37800000 881716007 881716007 -15.00000000
2.59738016 3.12744880 0.07096148 8 1 3971 4.06600000 881716010 881716010 1.00000000
1.72849834 2.08050823 -0.62446415 3 2 3972 2.77600000 881716012 881716012 -13.00000000
2.60807180 3.13809299 0.21384472 8 3 3973 4.08600000 881716014 881716014 3.00000000
2.09058762 2.51544380 -0.63577557 4 4 3973 3.33200000 881716017 881716017 -11.00000000
2.61881781 3.14990425 0.35838440 6 5 3974 4.11200000 881716019 881716019 5.00000000
2.58310676 3.10584831 -0.63981694 9 6 3975 4.09000000 881716021 881716021 -9.00000000
2.61920905 3.14813900 0.50283289 7 7 3976 4.12600000 881716023 881716023 7.00000000
2.58420205 3.10495996 -0.49600822 10 8 3977 4.07000000 881716026 881716026 -7.00000000
2.61127520 3.13637519 0.64638722 40 9 3978 4.13200000 881716028 881716028 9.00000000
2.59042072 3.11132741 -0.35420093 11 10 3978 4.06400000 881716030 881716030 -5.00000000
2.61841035 3.14382935 0.79529190 20 11 3979 4.16800000 881716033 881716033 11.00000000
2.59272671 3.11188745 -0.21227464 7 12 3980 4.05600000 881716035 881716035 -3.00000000
2.60887527 3.13015842 0.94074529 14 13 3981 4.18200000 881716037 881716037 13.00000000
2.59313536 3.11016941 -0.07068224 7 14 3982 4.05000000 881716040 881716040 -1.00000000
2.61580849 3.13625026 1.09428692 44 15 3983 4.22800000 881716042 881716042 15.00000000
1.46812832 1.75648463 -0.61340111 4 0 3989 2.37000000 881716063 881716063 -15.00000000
2.59875798 3.10807967 0.07071715 7 1 3990 4.05200000 881716065 881716065 1.00000000
1.74539030 2.08672309 -0.62806332 3 2 3991 2.79200000 881716067 881716067 -13.00000000
2.61407328 3.12528801 0.21353070 10 3 3991 4.08000000 881716070 881716070 3.00000000
2.09891748 2.50849724 -0.63577557 4 4 3992 3.33200000 881716072 881716072 -11.00000000
2.61518192 3.12439656 0.35646698 6 5 3993 4.09000000 881716074 881716074 5.00000000
2.57817388 3.07909060 -0.63606256 9 6 3994 4.06600000 881716076 881716076 -9.00000000
2.62453580 3.13334894 0.50185794 8 7 3995 4.11800000 881716079 881716079 7.00000000
2.58428478 3.08420086 -0.49405831 10 8 3996 4.05400000 881716081 881716081 -7.00000000
2.61150980 3.11558771 0.64388424 24 9 3997 4.11600000 881716083 881716083 9.00000000
2.58280563 3.08134317 -0.35176057 11 10 3997 4.03600000 881716086 881716086 -5.00000000
2.62125254 3.12610269 0.79300219 50 11 3998 4.15600000 881716088 881716088 11.00000000
2.60174847 3.10174227 -0.21216996 7 12 3999 4.05400000 881716090 881716090 -3.00000000
2.61172533 3.11253285 0.93804592 15 13 4000 4.17000000 881716093 881716093 13.00000000
2.59957767 3.09695816 -0.07057753 7 14 4001 4.04400000 881716095 881716095 -1.00000000
2.61819625 3.11913896 1.09118104 62 15 4001 4.21600000 881716097 881716097 15.00000000
1.47922707 1.75726092 -0.61547166 4 0 4009 2.37800000 881716118 881716118 -15.00000000
2.59284687 3.07910442 0.07026339 7 1 4010 4.02600000 881716120 881716120 1.00000000
1.75266361 2.08061790 -0.62806332 3 2 4011 2.79200000 881716122 881716122 -13.00000000
2.61981964 3.11003399 0.21311201 8 3 4011 4.07200000 881716125 881716125 3.00000000
2.10260057 2.49515033 -0.63424909 4 4 4012 3.32400000 881716127 881716127 -11.00000000
2.61836743 3.10610890 0.35542113 8 5 4013 4.07800000 881716129 881716129 5.00000000
2.57362509 3.05195093 -0.63230813 9 6 4014 4.04200000 881716132 881716132 -9.00000000
2.62137747 3.10747790 0.49917683 8 7 4015 4.09600000 881716134 881716134 7.00000000
2.59503484 3.07516122 -0.49405831 10 8 4016 4.05400000 881716136 881716136 -7.00000000
2.61854649 3.10192442 0.64294565 16 9 4017 4.11000000 881716139 881716139 9.00000000
2.59097552 3.06926370 -0.35141197 11 10 4017 4.03200000 881716141 881716141 -5.00000000
2.61694860 3.09893417 0.78842276 68 11 4018 4.13200000 881716143 881716143 11.00000000
2.59580421 3.07280707 -0.21080923 9 12 4019 4.02800000 881716146 881716146 -3.00000000
2.62508965 3.10637426 0.93894571 45 13 4020 4.17400000 881716148 881716148 13.00000000
2.60391736 3.08022952 -0.07040301 8 14 4021 4.03400000 881716150 881716150 -1.00000000
2.62407947 3.10407948 1.08911049 68 15 4021 4.20800000 881716152 881716152 15.00000000
1.48129916 1.74792457 -0.61391878 3 0 4028 2.37200000 881716173 881716173 -15.00000000
2.59787083 3.06438804 0.07012377 7 1 4029 4.01800000 881716175 881716175 1.00000000
1.74694932 2.05993199 -0.62356430 3 2 4030 2.77200000 881716178 881716178 -13.00000000
2.61515498 3.08259392 0.21185595 8 3 4031 4.04800000 881716180 881716180 3.00000000
2.11848378 2.49714661 -0.63653880 4 4 4031 3.33600000 881716182 881716182 -11.00000000
2.62478566 3.09285164 0.35489818 6 5 4032 4.07200000 881716185 881716185 5.00000000
2.57861781 3.03737617 -0.63105661 9 6 4033 4.03400000 881716187 881716187 -9.00000000
2.61624789 3.08061123 0.49625197 7 7 4034 4.07200000 881716189 881716189 7.00000000
2.58979511 3.04838467 -0.49113345 10 8 4035 4.03000000 881716192 881716192 -7.00000000
2.62699962 3.09217715 0.64263278 8 9 4035 4.10800000 881716194 881716194 9.00000000
2.59597826 3.05458212 -0.35071471 11 10 4036 4.02400000 881716196 881716196 -5.00000000
2.61958098 3.08126450 0.78613305 66 11 4037 4.12000000 881716199 881716199 11.00000000
2.59304047 3.04896784 -0.20976251 11 12 4038 4.00800000 881716201 881716201 -3.00000000
2.62022328 3.07984090 0.93354690 59 13 4039 4.15000000 881716203 881716203 13.00000000
2.60634112 3.06244063 -0.07019358 8 14 4040 4.02200000 881716205 881716205 -1.00000000
2.63114166 3.09048796 1.08755767 66 15 4041 4.20200000 881716208 881716208 15.00000000
1.48989987 1.74568212 -0.61495405 3 0 4048 2.37600000 881716228 881716228 -15.00000000
2.60465622 3.05073881 0.07001905 7 1 4049 4.01200000 881716231 881716231 1.00000000
1.76678526 2.06863976 -0.62806332 3 2 4050 2.79200000 881716233 881716233 -13.00000000
2.61368871 3.06023645 0.21091390 7 3 4050 4.03000000 881716235 881716235 3.00000000
2.12973809 2.49272180 -0.63730204 4 4 4051 3.34000000 881716238 881716238 -11.00000000
2.63168216 3.07912683 0.35437524 8 5 4052 4.06600000 881716240 881716240 5.00000000
2.58920455 3.02835655 -0.63105661 9 6 4053 4.03400000 881716242 881716242 -9.00000000
2.61924362 3.06240845 0.49478954 7 7 4054 4.06000000 881716245 881716245 7.00000000
2.58880544 3.02575088 -0.48893979 10 8 4055 4.01200000 881716247 881716247 -7.00000000
2.62675500 3.06902146 0.63981694 8 9 4056 4.09000000 881716249 881716249 9.00000000
2.60144281 3.03944731 -0.35001746 11 10 4056 4.01600000 881716252 881716252 -5.00000000
2.62776685 3.06911898 0.78536981 66 11 4057 4.11600000 881716254 881716254 11.00000000
2.60106897 3.03686404 -0.20955317 9 12 4058 4.00400000 881716256 881716256 -3.00000000
2.61574292 3.05291772 0.92814803 57 13 4059 4.12600000 881716258 881716258 13.00000000
2.60270047 3.03662276 -0.06980962 8 14 4060 4.00000000 881716261 881716261 -1.00000000
2.64065599 3.07981825 1.08703995 72 15 4061 4.20000000 881716263 881716263 15.00000000
1.49598432 1.74047077 -0.61495405 3 0 4068 2.37600000 881716284 881716284 -15.00000000
2.60746717 3.03253055 0.06980962 7 1 4069 4.00000000 881716286 881716286 1.00000000
1.76637077 2.05359554 -0.62536395 3 2 4070 2.78000000 881716288 881716288 -13.00000000
2.61784291 3.04352331 0.21039054 8 3 4070 4.02000000 881716291 881716291 3.00000000
2.12818241 2.47336698 -0.63424909 4 4 4071 3.32400000 881716293 881716293 -11.00000000
2.61901879 3.04274106 0.35123765 6 5 4072 4.03000000 881716295 881716295 5.00000000
2.59718180 3.01630640 -0.63043088 9 6 4073 4.03000000 881716298 881716298 -9.00000000
2.62343979 3.04572678 0.49357083 7 7 4074 4.05000000 881716300 881716300 7.00000000
2.59805560 3.01519203 -0.48869607 8 8 4075 4.01000000 881716302 881716302 -7.00000000
2.62402344 3.04532909 0.63668829 8 9 4075 4.07000000 881716305 881716305 9.00000000
2.59772754 3.01374745 -0.34810004 10 10 4076 3.99400000 881716307 881716307 -5.00000000
2.63590002 3.05695391 0.78460658 66 11 4077 4.11200000 881716309 881716309 11.00000000
2.60774016 3.02322912 -0.20923916 7 12 4078 3.99800000 881716311 881716311 -3.00000000
2.62256432 3.03934216 0.92679834 53 13 4079 4.12000000 881716314 881716314 13.00000000
2.59891129 3.01086760 -0.06942567 11 14 4080 3.97800000 881716316 881716316 -1.00000000
2.62992692 3.04572463 1.07824016 66 15 4081 4.16600000 881716318 881716318 15.00000000
1.49699318 1.72939563 -0.61288351 3 0 4088 2.36800000 881716339 881716339 -15.00000000
2.60494661 3.00829339 0.06946058 8 1 4089 3.98000000 881716341 881716341 1.00000000
1.77097654 2.04447126 -0.62446415 3 2 4090 2.77600000 881716344 881716344 -13.00000000
2.62845087 3.03436685 0.21039054 8 3 4090 4.02000000 881716346 881716346 3.00000000
2.13937449 2.46889043 -0.63501233 4 4 4091 3.32800000 881716348 881716348 -11.00000000
2.61135364 3.01250339 0.34879729 6 5 4092 4.00200000 881716351 881716351 5.00000000
2.59475350 2.99229789 -0.62730223 9 6 4093 4.01000000 881716353 881716353 -9.00000000
2.63405538 3.03655052 0.49357083 7 7 4094 4.05000000 881716355 881716355 7.00000000
2.59685564 2.99261093 -0.48650241 7 8 4095 3.99200000 881716358 881716358 -7.00000000
2.63075352 3.03167510 0.63574964 8 9 4095 4.06400000 881716360 881716360 9.00000000
2.60692573 3.00315666 -0.34792572 8 10 4096 3.99200000 881716362 881716362 -5.00000000
2.63368225 3.03291082 0.78079039 60 11 4097 4.09200000 881716364 881716364 11.00000000
2.61827731 3.01410794 -0.20923916 7 12 4098 3.99800000 881716367 881716367 -3.00000000
2.62804461 3.02428555 0.92499876 55 13 4099 4.11200000 881716369 881716369 13.00000000
2.59891009 2.98970389 -0.06914643 6 14 4100 3.96200000 881716371 881716371 -1.00000000
2.62786579 3.02194834 1.07306373 64 15 4101 4.14600000 881716374 881716374 15.00000000
1.50809848 1.72998452 -0.61495405 4 0 4108 2.37600000 881716394 881716394 -15.00000000
2.60228872 2.98411083 0.06911153 4 1 4109 3.96000000 881716397 881716397 1.00000000
1.78066444 2.04121399 -0.62536395 3 2 4110 2.78000000 881716399 881716399 -13.00000000
2.63114905 3.01614285 0.20976251 5 3 4110 4.00800000 881716401 881716401 3.00000000
2.15572453 2.47028303 -0.63730204 4 4 4111 3.34000000 881716404 881716404 -11.00000000
2.61923265 3.00036788 0.34844866 4 5 4112 3.99800000 881716406 881716406 5.00000000
2.59478784 2.97131920 -0.62479925 8 6 4113 3.99400000 881716408 881716408 -9.00000000
2.62896705 3.00939775 0.49064597 7 7 4114 4.02600000 881716410 881716410 7.00000000
2.59944844 2.97455955 -0.48503998 37 8 4115 3.98000000 881716413 881716413 -7.00000000
2.63352084 3.01354885 0.63387245 8 9 4115 4.05200000 881716415 881716415 9.00000000
2.58985496 2.96253824 -0.34426519 25 10 4116 3.95000000 881716417 881716417 -5.00000000
2.63391399 3.01187611 0.77773744 68 11 4117 4.07600000 881716420 881716420 11.00000000
2.59590650 2.96736932 -0.20662236 17 12 4118 3.94800000 881716422 881716422 -3.00000000
2.63345194 3.00922751 0.92319912 55 13 4119 4.10400000 881716424 881716424 13.00000000
2.59879279 2.96857715 -0.06886720 17 14 4120 3.94600000 881716427 881716427 -1.00000000
2.63278246 3.00740314 1.07099319 66 15 4120 4.13800000 881716429 881716429 15.00000000
1.51285362 1.72325790 -0.61443639 4 0 4128 2.37400000 881716450 881716450 -15.00000000
2.59949398 2.95998359 0.06876248 21 1 4129 3.94000000 881716452 881716452 1.00000000
1.78777874 2.03498578 -0.62536395 3 2 4130 2.78000000 881716454 881716454 -13.00000000
2.61002469 2.97092891 0.20725039 21 3 4130 3.96000000 881716457 881716457 3.00000000
2.16433430 2.46274304 -0.63730204 4 4 4131 3.34000000 881716459 881716459 -11.00000000
2.62048149 2.98073244 0.34722847 19 5 4132 3.98400000 881716461 881716461 5.00000000
2.59470773 2.95037675 -0.62229627 8 6 4133 3.97800000 881716463 881716463 -9.00000000
2.61585402 2.97337508 0.48625869 11 7 4134 3.99000000 881716466 881716466 7.00000000
2.64010906 2.99988914 0.63293386 8 9 4135 4.04600000 881716470 881716470 9.00000000
2.59623075 2.94899344 -0.34374225 12 10 4136 3.94400000 881716473 881716473 -5.00000000
2.64181614 2.99971700 0.77697420 66 11 4137 4.07200000 881716475 881716475 11.00000000
2.59436607 2.94480228 -0.20568031 17 12 4138 3.93000000 881716477 881716477 -3.00000000
2.63878632 2.99416876 0.92139953 59 13 4139 4.09600000 881716480 881716480 13.00000000
2.60384941 2.95348740 -0.06872758 16 14 4140 3.93800000 881716482 881716482 -1.00000000
2.64123178 2.99483562 1.06995797 64 15 4141 4.13400000 881716484 881716484 15.00000000
1.52781677 1.72809780 -0.61805987 4 0 4148 2.38800000 881716505 881716505 -15.00000000
2.60716081 2.94789577 0.06869267 4 1 4149 3.93600000 881716507 881716507 1.00000000
1.78712356 2.01997566 -0.62266451 3 2 4150 2.76800000 881716510 881716510 -13.00000000
2.61427784 2.95386457 0.20672703 9 3 4151 3.95000000 881716512 881716512 3.00000000
2.17421889 2.45664334 -0.63768369 5 4 4151 3.34200000 881716514 881716514 -11.00000000
2.62162519 2.96112466 0.34600830 6 5 4152 3.97000000 881716516 881716516 5.00000000
2.60237122 2.93834400 -0.62167054 8 6 4153 3.97400000 881716519 881716519 -9.00000000
2.63148284 2.97016931 0.48723364 6 7 4154 3.99800000 881716521 881716521 7.00000000
2.59908462 2.93256998 -0.48114017 3 8 4155 3.94800000 881716523 881716523 -7.00000000
2.63484192 2.97291541 0.62917942 8 9 4155 4.02200000 881716526 881716526 9.00000000
2.64445496 2.98166442 0.77468455 70 11 4157 4.06000000 881716530 881716530 11.00000000
2.63499260 2.96890712 0.91645062 57 13 4159 4.07400000 881716535 881716535 13.00000000
2.64858341 2.98317122 1.06892264 66 15 4160 4.13000000 881716540 881716540 15.00000000
1.52998579 1.71842563 -0.61650699 4 0 4168 2.38200000 881716560 881716560 -15.00000000
2.62408495 2.94624352 0.06886720 1 1 4169 3.94600000 881716563 881716563 1.00000000
1.80453467 2.02536535 -0.62626374 3 2 4170 2.78400000 881716565 881716565 -13.00000000
2.17494321 2.44024515 -0.63539398 5 4 4171 3.33000000 881716569 881716569 -11.00000000
2.61603451 2.93410993 0.34391657 1 5 4172 3.94600000 881716572 881716572 5.00000000
2.60472298 2.92039704 -0.61979336 10 6 4173 3.96200000 881716574 881716574 -9.00000000
2.63919139 2.95800328 0.48674616 6 7 4174 3.99400000 881716576 881716576 7.00000000
2.59476519 2.90718889 -0.47845903 7 8 4175 3.92600000 881716579 881716579 -7.00000000
2.63519549 2.95145011 0.62667644 12 9 4176 4.00600000 881716581 881716581 9.00000000
2.60083175 2.91296220 -0.34165052 10 10 4176 3.92000000 881716583 881716583 -5.00000000
2.64699984 2.96362972 0.77239484 18 11 4177 4.04800000 881716586 881716586 11.00000000
2.60022330 2.91023540 -0.20452891 10 12 4178 3.90800000 881716588 881716588 -3.00000000
2.60307932 2.91138577 -0.06816910 8 14 4180 3.90600000 881716593 881716593 -1.00000000
2.64919639 2.96192431 1.06478155 20 15 4181 4.11400000 881716595 881716595 15.00000000
1.52506363 1.70210016 -0.61236584 4 0 4186 2.36600000 881716616 881716616 -15.00000000
2.61197305 2.91415977 0.06830872 11 1 4187 3.91400000 881716618 881716618 1.00000000
1.81609225 2.02548981 -0.62806332 3 2 4188 2.79200000 881716620 881716620 -13.00000000
2.62447596 2.92605352 0.20599432 8 3 4189 3.93600000 881716622 881716622 3.00000000
2.18784213 2.43924642 -0.63692045 5 4 4189 3.33800000 881716625 881716625 -11.00000000
2.62523937 2.92587709 0.34391657 6 5 4190 3.94600000 881716627 881716627 5.00000000
2.61652374 2.91513968 -0.62041909 8 6 4191 3.96600000 881716629 881716629 -9.00000000
2.64581871 2.94674325 0.48625869 8 7 4192 3.99000000 881716632 881716632 7.00000000
2.61184454 2.90788364 -0.47992146 1 8 4193 3.93800000 881716634 881716634 -7.00000000
2.64790106 2.94802713 0.62761509 14 9 4193 4.01200000 881716636 881716636 9.00000000
