# .PCD v0.7 - Point Cloud Data file format
VERSION 0.7
FIELDS x y z intensity laser_id azimuth distance_m adjustedtime timestamp vertical_angle
SIZE 4 4 4 1 1 2 8 8 4 8
TYPE F F F U U U F U U F
COUNT 1 1 1 1 1 1 1 1 1 1
WIDTH 551
HEIGHT 1
VIEWPOINT 0 0 0 1 0 0 0
POINTS 551
DATA ascii
7.79703808 3.19620872 0.14708889 12 1 6771 8.42800000 884023848 884023848 1.00000000
2.48307705 1.01737177 -0.61951518 9 2 6772 2.75400000 884023850 884023850 -13.00000000
7.82007313 3.20246339 0.44286686 15 3 6773 8.46200000 884023852 884023852 3.00000000
2.98683858 1.22316527 -0.62737995 5 4 6773 3.28800000 884023855 884023855 -11.00000000
7.80709553 3.19555783 0.73803484 100 5 6774 8.46800000 884023857 884023857 5.00000000
3.76079488 1.53858185 -0.64357138 6 6 6775 4.11400000 884023859 884023859 -9.00000000
7.82003593 3.19766808 1.03735185 100 7 6776 8.51200000 884023861 884023861 7.00000000
5.10470152 2.08630872 -0.67710608 6 8 6777 5.55600000 884023864 884023864 -7.00000000
6.34115648 2.59036064 -0.59928286 40 10 6778 6.87600000 884023868 884023868 -5.00000000
7.81288433 3.18837905 -0.44223884 17 12 6780 8.45000000 884023873 884023873 -3.00000000
8.23713017 3.35983348 2.05380321 46 13 6781 9.13000000 884023875 884023875 13.00000000
7.78834581 3.17519426 -0.14680964 14 14 6782 8.41200000 884023878 884023878 -1.00000000
7.86456060 3.20466518 2.27553701 51 15 6783 8.79200000 884023880 884023880 15.00000000
2.10300207 0.85436815 -0.60822475 4 0 6789 2.35000000 884023901 884023901 -15.00000000
7.79647732 3.16582108 0.14687945 12 1 6790 8.41600000 884023903 884023903 1.00000000
2.48282576 1.00766623 -0.61861539 9 2 6791 2.75000000 884023905 884023905 -13.00000000
7.82084179 3.17412472 0.44234350 13 3 6791 8.45200000 884023908 884023908 3.00000000
2.99633622 1.21546781 -0.62852484 8 4 6792 3.29400000 884023910 884023910 -11.00000000
7.80287838 3.16366196 0.73664033 90 5 6793 8.45200000 884023912 884023912 5.00000000
3.76221466 1.52461827 -0.64294565 6 6 6794 4.11000000 884023914 884023914 -9.00000000
7.81587791 3.16575646 1.03540194 100 7 6795 8.49600000 884023917 884023917 7.00000000
5.11527205 2.07085943 -0.67759353 9 8 6796 5.56000000 884023919 884023919 -7.00000000
6.35340548 2.57081294 -0.59963149 16 10 6797 6.88000000 884023924 884023924 -5.00000000
7.80119419 3.15347099 -0.44098276 17 12 6799 8.42600000 884023928 884023928 -3.00000000
8.25545406 3.33541989 2.05560279 40 13 6800 9.13800000 884023931 884023931 13.00000000
7.80254078 3.15084720 -0.14687945 14 14 6801 8.41600000 884023933 884023933 -1.00000000
7.87100697 3.17849541 2.27450180 56 15 6801 8.78800000 884023935 884023935 15.00000000
2.11493301 0.85062647 -0.61081296 4 0 6809 2.36000000 884023956 884023956 -15.00000000
7.80005884 3.13560367 0.14673984 12 1 6810 8.40800000 884023958 884023958 1.00000000
2.47909498 0.99608725 -0.61681581 9 2 6811 2.74200000 884023960 884023960 -13.00000000
7.81890106 3.14159298 0.44161081 10 3 6811 8.43800000 884023963 884023963 3.00000000
2.99691701 1.20353794 -0.62776160 6 4 6812 3.29000000 884023965 884023965 -11.00000000
7.80832672 3.13417912 0.73611742 83 5 6813 8.44600000 884023967 884023967 5.00000000
3.77118039 1.51294744 -0.64357138 6 6 6814 4.11400000 884023970 884023970 -9.00000000
7.81214094 3.13254428 1.03345203 100 7 6815 8.48000000 884023972 884023972 7.00000000
5.10772848 2.04708314 -0.67564362 9 8 6816 5.54400000 884023974 884023974 -7.00000000
6.35679197 2.54639721 -0.59910858 8 10 6817 6.87400000 884023979 884023979 -5.00000000
7.80288267 3.12251043 -0.44045940 12 12 6819 8.41600000 884023984 884023984 -3.00000000
8.26161766 3.30441141 2.05425310 24 13 6820 9.13200000 884023986 884023986 13.00000000
7.80235100 3.11913824 -0.14667003 14 14 6821 8.40400000 884023988 884023988 -1.00000000
7.87129116 3.14669847 2.27139592 49 15 6821 8.77600000 884023990 884023990 15.00000000
2.12492108 0.84646809 -0.61288351 4 0 6828 2.36800000 884024011 884024011 -15.00000000
7.80669832 3.10824108 0.14667003 12 1 6829 8.40400000 884024013 884024013 1.00000000
2.48419523 0.98858136 -0.61726570 7 2 6830 2.74400000 884024016 884024016 -13.00000000
7.81497288 3.10837555 0.44077343 13 3 6831 8.42200000 884024018 884024018 3.00000000
3.00089169 1.19359314 -0.62776160 8 4 6831 3.29000000 884024020 884024020 -11.00000000
7.81867743 3.10826850 0.73611742 83 5 6832 8.44600000 884024023 884024023 5.00000000
3.76883364 1.49751568 -0.64231992 6 6 6833 4.10600000 884024025 884024025 -9.00000000
7.81879568 3.10515547 1.03296459 100 7 6834 8.47600000 884024027 884024027 7.00000000
5.11633396 2.03086638 -0.67588741 9 8 6835 5.54600000 884024030 884024030 -7.00000000
6.36890507 2.52677274 -0.59945720 16 10 6836 6.87800000 884024034 884024034 -5.00000000
7.79462719 3.08925891 -0.43941268 17 12 6838 8.39600000 884024039 884024039 -3.00000000
7.79034042 3.08441401 -0.14625117 16 14 6840 8.38000000 884024043 884024043 -1.00000000
7.87863445 3.11778164 2.27036071 51 15 6841 8.77200000 884024046 884024046 15.00000000
2.11348534 0.83337635 -0.60874242 4 0 6848 2.35200000 884024066 884024066 -15.00000000
7.80819845 3.07730556 0.14649551 12 1 6849 8.39400000 884024069 884024069 1.00000000
2.49125719 0.98133230 -0.61816549 7 2 6850 2.74800000 884024071 884024071 -13.00000000
7.82895422 3.08390713 0.44098276 13 3 6850 8.42600000 884024073 884024073 3.00000000
2.99407911 1.17879558 -0.62547189 9 4 6851 3.27800000 884024076 884024076 -11.00000000
7.81464720 3.07512093 0.73472291 83 5 6852 8.43000000 884024078 884024078 5.00000000
3.78874445 1.49013507 -0.64482284 6 6 6853 4.12200000 884024080 884024080 -9.00000000
7.82589245 3.07639146 1.03247702 100 7 6854 8.47200000 884024083 884024083 7.00000000
5.12339211 2.01299477 -0.67588741 9 8 6855 5.54600000 884024085 884024085 -7.00000000
6.36099577 2.49797130 -0.59788841 20 10 6856 6.86000000 884024090 884024090 -5.00000000
7.80908155 3.06349063 -0.43962204 17 12 6858 8.40000000 884024094 884024094 -3.00000000
7.79733562 3.05574250 -0.14618136 20 14 6860 8.37600000 884024099 884024099 -1.00000000
7.88407326 3.08814740 2.26880765 58 15 6861 8.76600000 884024101 884024101 15.00000000
2.11652565 0.82562447 -0.60874242 4 0 6869 2.35200000 884024122 884024122 -15.00000000
7.80638313 3.04358172 0.14625117 18 1 6870 8.38000000 884024124 884024124 1.00000000
2.50210023 0.97502506 -0.61996508 7 2 6871 2.75600000 884024126 884024126 -13.00000000
7.83648300 3.05374146 0.44077343 13 3 6871 8.42200000 884024129 884024129 3.00000000
3.00569725 1.17066383 -0.62699836 15 4 6872 3.28600000 884024131 884024131 -11.00000000
7.81472588 3.04212141 0.73367703 83 5 6873 8.41800000 884024133 884024133 5.00000000
3.77577138 1.46907580 -0.64169419 6 6 6874 4.10200000 884024136 884024136 -9.00000000
7.83711529 3.04768753 1.03247702 100 7 6875 8.47200000 884024138 884024138 7.00000000
5.12703514 1.99276471 -0.67539990 9 8 6876 5.54200000 884024140 884024140 -7.00000000
6.37196589 2.47536182 -0.59806269 40 10 6877 6.86200000 884024145 884024145 -5.00000000
7.81839561 3.03412580 -0.43951735 21 12 6879 8.39800000 884024149 884024149 -3.00000000
7.80475426 3.02569771 -0.14611155 18 14 6881 8.37200000 884024154 884024154 -1.00000000
7.88272953 3.05434418 2.26518416 49 15 6882 8.75200000 884024156 884024156 15.00000000
2.12660360 0.82101446 -0.61081296 4 0 6889 2.36000000 884024177 884024177 -15.00000000
7.80949736 3.01343417 0.14611155 21 1 6890 8.37200000 884024179 884024179 1.00000000
2.49457908 0.96207780 -0.61726570 7 2 6891 2.74400000 884024182 884024182 -13.00000000
7.84523153 3.02564979 0.44066876 13 3 6891 8.42000000 884024184 884024184 3.00000000
3.01709270 1.16298938 -0.62852484 19 4 6892 3.29400000 884024186 884024186 -11.00000000
7.82343817 3.01410818 0.73350275 79 5 6893 8.41600000 884024189 884024189 5.00000000
3.78271985 1.45659685 -0.64200705 6 6 6894 4.10400000 884024191 884024191 -9.00000000
7.82917976 3.01318216 1.03003967 100 7 6895 8.45200000 884024193 884024193 7.00000000
5.14878178 1.98055744 -0.67734981 9 8 6896 5.55800000 884024196 884024196 -7.00000000
6.38056755 2.45310426 -0.59806269 20 10 6897 6.86200000 884024200 884024200 -5.00000000
7.82148123 3.00395155 -0.43909869 17 12 6899 8.39000000 884024205 884024205 -3.00000000
7.81713533 2.99915195 -0.14614645 20 14 6901 8.37400000 884024209 884024209 -1.00000000
7.88252068 3.02265954 2.26207852 51 15 6902 8.74000000 884024212 884024212 15.00000000
2.12931442 0.81395787 -0.61081296 4 0 6908 2.36000000 884024232 884024232 -15.00000000
7.81384325 2.98537946 0.14600684 25 1 6909 8.36600000 884024235 884024235 1.00000000
2.48683262 0.94962907 -0.61456627 7 2 6910 2.73200000 884024237 884024237 -13.00000000
7.83842897 2.99320507 0.43972671 13 3 6910 8.40200000 884024239 884024239 3.00000000
3.03010368 1.15647817 -0.63043290 13 4 6911 3.30400000 884024242 884024242 -11.00000000
7.82780552 2.98601770 0.73297977 83 5 6912 8.41000000 884024244 884024244 5.00000000
3.78199196 1.44193375 -0.64106846 6 6 6913 4.09800000 884024246 884024246 -9.00000000
7.83170891 2.98437572 1.02906477 99 7 6914 8.44400000 884024248 884024248 7.00000000
5.13305998 1.95499408 -0.67442495 9 8 6915 5.53400000 884024251 884024251 -7.00000000
6.38680553 2.43122339 -0.59788841 16 10 6916 6.86000000 884024255 884024255 -5.00000000
7.82393217 2.97515869 -0.43867999 17 12 6918 8.38200000 884024260 884024260 -3.00000000
7.81395245 2.96824217 -0.14590211 18 14 6920 8.36000000 884024265 884024265 -1.00000000
7.89017153 2.99719501 2.26156092 49 15 6920 8.73800000 884024267 884024267 15.00000000
2.13756347 0.80857074 -0.61236584 4 0 6928 2.36600000 884024288 884024288 -15.00000000
7.82795763 2.95950007 0.14607663 18 1 6929 8.37000000 884024290 884024290 1.00000000
2.49377823 0.94232029 -0.61546606 7 2 6930 2.73600000 884024292 884024292 -13.00000000
7.83014631 2.95876575 0.43867999 13 3 6930 8.38200000 884024295 884024295 3.00000000
3.03595877 1.14658773 -0.63081455 8 4 6931 3.30600000 884024297 884024297 -11.00000000
7.83631706 2.95797181 0.73280549 94 5 6932 8.40800000 884024299 884024299 5.00000000
3.79439497 1.43151248 -0.64231992 6 6 6933 4.10600000 884024301 884024301 -9.00000000
7.84207869 2.95701981 1.02906477 99 7 6934 8.44400000 884024304 884024304 7.00000000
5.13056517 1.93356419 -0.67320627 9 8 6935 5.52400000 884024306 884024306 -7.00000000
6.39152384 2.40750980 -0.59753978 16 10 6936 6.85600000 884024311 884024311 -5.00000000
7.82679272 2.94501638 -0.43826130 17 12 6938 8.37400000 884024315 884024315 -3.00000000
7.82426596 2.94094825 -0.14590211 18 14 6940 8.36000000 884024320 884024320 -1.00000000
7.90652943 2.97029424 2.26311374 56 15 6941 8.74400000 884024322 884024322 15.00000000
2.13675427 0.79974997 -0.61133057 4 0 6948 2.36200000 884024343 884024343 -15.00000000
7.83449459 2.93075609 0.14600684 18 1 6949 8.36600000 884024345 884024345 1.00000000
2.50070310 0.93497455 -0.61636591 7 2 6950 2.74000000 884024348 884024348 -13.00000000
7.84280872 2.93074608 0.43878466 13 3 6951 8.38400000 884024350 884024350 3.00000000
3.03442550 1.13392162 -0.62966967 5 4 6951 3.30000000 884024352 884024352 -11.00000000
7.83352900 2.92572021 0.73158532 76 5 6952 8.39400000 884024354 884024354 5.00000000
3.81417394 1.42378533 -0.64482284 6 6 6953 4.12200000 884024357 884024357 -9.00000000
7.85235262 2.92962766 1.02906477 100 7 6954 8.44400000 884024359 884024359 7.00000000
5.15030336 1.92049837 -0.67491245 9 8 6955 5.53800000 884024361 884024361 -7.00000000
6.38308620 2.37892246 -0.59597099 16 10 6956 6.83800000 884024366 884024366 -5.00000000
7.82205105 2.91210318 -0.43742391 17 12 6958 8.35800000 884024371 884024371 -3.00000000
7.80449533 2.90246582 -0.14534365 20 14 6960 8.32800000 884024375 884024375 -1.00000000
7.90185022 2.93867183 2.25897264 51 15 6960 8.72800000 884024378 884024378 15.00000000
2.13047481 0.78893209 -0.60874242 4 0 6968 2.35200000 884024398 884024398 -15.00000000
7.82592344 2.89644980 0.14565778 18 1 6969 8.34600000 884024401 884024401 1.00000000
2.50577927 0.92691588 -0.61681581 7 2 6970 2.74200000 884024403 884024403 -13.00000000
7.85299158 2.90335155 0.43878466 15 3 6971 8.38400000 884024405 884024405 3.00000000
3.03652358 1.12264180 -0.62928808 5 4 6971 3.29800000 884024407 884024407 -11.00000000
7.83434963 2.89490557 0.73071373 76 5 6972 8.38400000 884024410 884024410 5.00000000
3.79317808 1.40088177 -0.64044273 6 6 6973 4.09400000 884024412 884024412 -9.00000000
7.85508204 2.89945054 1.02808976 99 7 6974 8.43600000 884024414 884024414 7.00000000
5.15325069 1.90113461 -0.67442495 9 8 6975 5.53400000 884024417 884024417 -7.00000000
6.38013506 2.35249114 -0.59492511 16 10 6976 6.82600000 884024421 884024421 -5.00000000
7.83404255 2.88547158 -0.43752858 17 12 6978 8.36000000 884024426 884024426 -3.00000000
7.81833315 2.87658644 -0.14541344 18 14 6980 8.33200000 884024431 884024431 -1.00000000
7.89443636 2.90302277 2.25379634 47 15 6981 8.70800000 884024433 884024433 15.00000000
2.13684368 0.78281963 -0.60977769 4 0 6988 2.35600000 884024454 884024454 -15.00000000
7.83035278 2.86705208 0.14555307 15 1 6989 8.34000000 884024456 884024456 1.00000000
2.51265955 0.91950279 -0.61771560 7 2 6990 2.74600000 884024458 884024458 -13.00000000
7.85557508 2.87317777 0.43836597 15 3 6991 8.37600000 884024460 884024460 3.00000000
3.04042387 1.11203551 -0.62928808 5 4 6991 3.29800000 884024463 884024463 -11.00000000
7.84066439 2.86617279 0.73036510 76 5 6992 8.38000000 884024465 884024465 5.00000000
3.80546665 1.39034402 -0.64169419 6 6 6993 4.10200000 884024467 884024467 -9.00000000
7.85210276 2.86724710 1.02638364 92 7 6994 8.42200000 884024470 884024470 7.00000000
5.16917944 1.88653767 -0.67564362 9 8 6995 5.54400000 884024472 884024472 -7.00000000
6.39766693 2.33361959 -0.59579664 16 10 6996 6.83600000 884024477 884024477 -5.00000000
7.83280754 2.85400558 -0.43690056 17 12 6998 8.34800000 884024481 884024481 -3.00000000
7.83020544 2.84996176 -0.14544836 16 14 7000 8.33400000 884024486 884024486 -1.00000000
7.89857388 2.87484574 2.25224328 47 15 7000 8.70200000 884024488 884024488 15.00000000
2.14319563 0.77667224 -0.61081296 4 0 7008 2.36000000 884024509 884024509 -15.00000000
7.83091211 2.83629656 0.14537854 15 1 7009 8.33000000 884024511 884024511 1.00000000
2.50485969 0.90674651 -0.61501616 7 2 7010 2.73400000 884024513 884024513 -13.00000000
7.85616589 2.84234166 0.43784261 15 3 7011 8.36600000 884024516 884024516 3.00000000
3.05536389 1.10542321 -0.63157779 5 4 7011 3.31000000 884024518 884024518 -11.00000000
7.84687424 2.83743119 0.73001653 79 5 7012 8.37600000 884024520 884024520 5.00000000
3.80843878 1.37638068 -0.64138132 6 6 7013 4.10000000 884024523 884024523 -9.00000000
7.84339285 2.83307695 1.02394617 95 7 7014 8.40200000 884024525 884024525 7.00000000
5.16079617 1.86308992 -0.67369372 9 8 7015 5.52800000 884024527 884024527 -7.00000000
6.43388557 2.32141662 -0.59841132 12 10 7016 6.86600000 884024532 884024532 -5.00000000
7.82393265 2.81987453 -0.43585384 17 12 7018 8.32800000 884024536 884024536 -3.00000000
7.84198761 2.82328916 -0.14548326 18 14 7020 8.33600000 884024541 884024541 -1.00000000
7.90905762 2.84587669 2.25224328 47 15 7021 8.70200000 884024543 884024543 15.00000000
2.14562511 0.76993537 -0.61081296 4 0 7026 2.36000000 884024564 884024564 -15.00000000
7.84731340 2.81438136 0.14551817 18 1 7027 8.33800000 884024566 884024566 1.00000000
2.50769591 0.89887279 -0.61501616 7 2 7028 2.73400000 884024569 884024569 -13.00000000
7.84437418 2.81023717 0.43669122 18 3 7029 8.34400000 884024571 884024571 3.00000000
3.05697346 1.09515691 -0.63119614 5 4 7029 3.30800000 884024573 884024573 -11.00000000
7.85387373 2.81209397 0.72984219 76 5 7030 8.37400000 884024576 884024576 5.00000000
3.81460404 1.36507487 -0.64169419 6 6 7031 4.10200000 884024578 884024578 -9.00000000
7.85599279 2.80975938 1.02443373 95 7 7032 8.40600000 884024580 884024580 7.00000000
5.16849279 1.84753585 -0.67393744 9 8 7033 5.53000000 884024583 884024583 -7.00000000
7.84082508 2.80124760 -0.72844768 17 10 7034 8.35800000 884024587 884024587 -5.00000000
7.83651495 2.79662371 -0.43606320 17 12 7036 8.33200000 884024592 884024592 -3.00000000
7.83009911 2.79125309 -0.14509931 18 14 7038 8.31400000 884024596 884024596 -1.00000000
7.91746664 2.82239747 2.25224328 47 15 7038 8.70200000 884024599 884024599 15.00000000
2.14101720 0.75985652 -0.60874242 4 0 7046 2.35200000 884024619 884024619 -15.00000000
7.85332012 2.78563499 0.14544836 21 1 7047 8.33400000 884024622 884024622 1.00000000
2.51816511 0.89271843 -0.61681581 7 2 7048 2.74200000 884024624 884024624 -13.00000000
7.85978365 2.78483915 0.43700522 23 3 7049 8.35000000 884024626 884024626 3.00000000
3.05152488 1.08120108 -0.62928808 6 4 7049 3.29800000 884024629 884024629 -11.00000000
7.84861708 2.77934098 0.72844768 76 5 7050 8.35800000 884024631 884024631 5.00000000
3.82679439 1.35438740 -0.64294565 6 6 7051 4.11000000 884024633 884024633 -9.00000000
7.86575270 2.78231955 1.02443373 92 7 7052 8.40600000 884024636 884024636 7.00000000
5.16929579 1.82749820 -0.67320627 9 8 7053 5.52400000 884024638 884024638 -7.00000000
7.82237720 2.76390457 -0.72583300 17 10 7054 8.32800000 884024642 884024642 -5.00000000
7.83304548 2.76459908 -0.43533048 17 12 7056 8.31800000 884024647 884024647 -3.00000000
7.83225060 2.76124430 -0.14495969 16 14 7058 8.30600000 884024652 884024652 -1.00000000
7.91682577 2.78950763 2.24913740 47 15 7059 8.69000000 884024654 884024654 15.00000000
2.13636518 0.74981922 -0.60667187 4 0 7066 2.34400000 884024675 884024675 -15.00000000
7.84601355 2.75224757 0.14513421 15 1 7067 8.31600000 884024677 884024677 1.00000000
2.52126598 0.88392293 -0.61681581 7 2 7068 2.74200000 884024679 884024679 -13.00000000
7.86568689 2.75606561 0.43679589 26 3 7069 8.34600000 884024682 884024682 3.00000000
3.04786921 1.06794584 -0.62776160 5 4 7069 3.29000000 884024684 884024684 -11.00000000
7.84698868 2.74797630 0.72740185 76 5 7070 8.34600000 884024686 884024686 5.00000000
3.81844759 1.33645320 -0.64075559 6 6 7071 4.09600000 884024689 884024689 -9.00000000
7.87541723 2.75484610 1.02443373 95 7 7072 8.40600000 884024691 884024691 7.00000000
5.17564344 1.80944288 -0.67320627 9 8 7073 5.52400000 884024693 884024693 -7.00000000
7.82069206 2.73263931 -0.72478718 17 10 7074 8.31600000 884024698 884024698 -5.00000000
7.84641933 2.73855591 -0.43553984 17 12 7076 8.32200000 884024702 884024702 -3.00000000
7.83617687 2.73191285 -0.14485498 18 14 7078 8.30000000 884024707 884024707 -1.00000000
7.91143894 2.75815153 2.24499631 47 15 7078 8.67400000 884024709 884024709 15.00000000
2.14626980 0.74489099 -0.60874242 4 0 7086 2.35200000 884024730 884024730 -15.00000000
7.84423685 2.72091126 0.14492479 15 1 7087 8.30400000 884024732 884024732 1.00000000
2.51697111 0.87256348 -0.61501616 7 2 7088 2.73400000 884024735 884024735 -13.00000000
7.87525940 2.72859240 0.43679589 49 3 7089 8.34600000 884024737 884024737 3.00000000
3.05899882 1.05987120 -0.62928808 5 4 7089 3.29800000 884024739 884024739 -11.00000000
7.85653305 2.72056842 0.72740185 76 5 7090 8.34600000 884024742 884024742 5.00000000
3.83242297 1.32634640 -0.64231992 6 6 7091 4.10600000 884024744 884024744 -9.00000000
7.86997700 2.72214770 1.02248383 97 7 7092 8.39000000 884024746 884024746 7.00000000
5.18943262 1.79395974 -0.67418122 9 8 7093 5.53200000 884024748 884024748 -7.00000000
7.76803875 2.68385267 -0.71903485 17 10 7094 8.25000000 884024753 884024753 -5.00000000
7.84649134 2.70789242 -0.43501648 17 12 7096 8.31200000 884024758 884024758 -3.00000000
7.84944630 2.70584631 -0.14492479 20 14 7098 8.30400000 884024762 884024762 -1.00000000
7.92149496 2.72913599 2.24499631 47 15 7099 8.67400000 884024765 884024765 15.00000000
2.14885688 0.73739457 -0.60874242 4 0 7106 2.35200000 884024785 884024785 -15.00000000
7.85179567 2.69286442 0.14488988 15 1 7107 8.30200000 884024788 884024788 1.00000000
2.51815820 0.86314040 -0.61456627 9 2 7108 2.73200000 884024790 884024790 -13.00000000
7.86773062 2.69526052 0.43585384 34 3 7109 8.32800000 884024792 884024792 3.00000000
3.06267977 1.04918694 -0.62928808 5 4 7109 3.29800000 884024795 884024795 -11.00000000
7.85844183 2.69054604 0.72670460 76 5 7110 8.33800000 884024797 884024797 5.00000000
3.84076738 1.31423974 -0.64294565 6 6 7111 4.11000000 884024799 884024799 -9.00000000
7.86628294 2.69016337 1.02077758 99 7 7112 8.37600000 884024801 884024801 7.00000000
5.18439293 1.77198219 -0.67271876 9 8 7113 5.52000000 884024804 884024804 -7.00000000
7.63029671 2.60648465 -0.70543855 26 10 7114 8.09400000 884024808 884024808 -5.00000000
7.85211515 2.67919660 -0.43480712 21 12 7116 8.30800000 884024813 884024813 -3.00000000
7.85316515 2.67649484 -0.14482006 16 14 7118 8.29800000 884024818 884024818 -1.00000000
7.92318726 2.70035958 2.24292588 47 15 7118 8.66600000 884024820 884024820 15.00000000
2.15873551 0.73237181 -0.61081296 4 0 7126 2.36000000 884024841 884024841 -15.00000000
7.86304140 2.66608214 0.14492479 18 1 7127 8.30400000 884024843 884024843 1.00000000
2.51561880 0.85246885 -0.61321658 7 2 7128 2.72600000 884024845 884024845 -13.00000000
7.86763239 2.66457725 0.43533048 42 3 7129 8.31800000 884024848 884024848 3.00000000
3.06446385 1.03786004 -0.62890643 5 4 7129 3.29600000 884024850 884024850 -11.00000000
7.86967278 2.66373730 0.72687888 76 5 7130 8.34000000 884024852 884024852 5.00000000
3.83784676 1.29829299 -0.64169419 6 6 7131 4.10200000 884024854 884024854 -9.00000000
7.87750626 2.66332436 1.02102137 97 7 7132 8.37800000 884024857 884024857 7.00000000
5.19242716 1.75450993 -0.67296249 9 8 7133 5.52200000 884024859 884024859 -7.00000000
7.64123631 2.58047152 -0.70561290 39 10 7134 8.09600000 884024864 884024864 -5.00000000
7.85384941 2.64921784 -0.43438843 21 12 7136 8.30000000 884024868 884024868 -3.00000000
7.94788980 2.67939401 1.93637872 4 13 7137 8.60800000 884024871 884024871 13.00000000
7.85108995 2.64523506 -0.14461064 16 14 7138 8.28600000 884024873 884024873 -1.00000000
7.93988800 2.67515326 2.24499631 47 15 7138 8.67400000 884024875 884024875 15.00000000
2.15395236 0.72237492 -0.60874242 4 0 7146 2.35200000 884024896 884024896 -15.00000000
7.86661148 2.63671231 0.14482006 21 1 7147 8.29800000 884024898 884024898 1.00000000
2.52781820 0.84677744 -0.61546606 10 2 7148 2.73600000 884024901 884024901 -13.00000000
7.87120390 2.63519573 0.43501648 47 3 7149 8.31200000 884024903 884024903 3.00000000
3.06248307 1.02528691 -0.62776160 5 4 7149 3.29000000 884024905 884024905 -11.00000000
7.86947584 2.63308978 0.72600734 76 5 7150 8.33000000 884024907 884024907 5.00000000
3.85172224 1.28802085 -0.64325851 6 6 7151 4.11200000 884024910 884024910 -9.00000000
7.88110685 2.63392282 1.02029014 100 7 7152 8.37200000 884024912 884024912 7.00000000
5.19852018 1.73637426 -0.67296249 9 8 7153 5.52200000 884024914 884024914 -7.00000000
7.70689344 2.57270908 -0.71084225 17 10 7154 8.15600000 884024919 884024919 -5.00000000
7.85736513 2.61989141 -0.43407443 17 12 7156 8.29400000 884024924 884024924 -3.00000000
7.96458912 2.65409875 1.93817830 5 13 7157 8.61600000 884024926 884024926 13.00000000
7.85078955 2.61465406 -0.14443612 14 14 7158 8.27600000 884024928 884024928 -1.00000000
7.93451452 2.64253831 2.24085522 47 15 7158 8.65800000 884024930 884024930 15.00000000
2.14545846 0.71120459 -0.60563654 4 0 7166 2.34000000 884024951 884024951 -15.00000000
7.86437798 2.60546327 0.14461064 15 1 7167 8.28600000 884024954 884024954 1.00000000
2.53815866 0.84039873 -0.61726570 11 2 7168 2.74400000 884024956 884024956 -13.00000000
7.88035440 2.60770392 0.43501648 55 3 7169 8.31200000 884024958 884024958 3.00000000
3.07163477 1.01644087 -0.62890643 5 4 7169 3.29600000 884024960 884024960 -11.00000000
7.86537790 2.60122490 0.72478718 79 5 7170 8.31600000 884024963 884024963 5.00000000
3.84681702 1.27146828 -0.64169419 6 6 7171 4.10200000 884024965 884024965 -9.00000000
7.89025259 2.60639644 1.02029014 99 7 7172 8.37200000 884024967 884024967 7.00000000
5.19512415 1.71510589 -0.67174381 9 8 7173 5.51200000 884024970 884024970 -7.00000000
7.83313465 2.58449626 -0.72164953 17 10 7174 8.28000000 884024974 884024974 -5.00000000
7.86835909 2.59307313 -0.43417910 17 12 7176 8.29600000 884024979 884024979 -3.00000000
7.97565603 2.62689066 1.93862820 4 13 7177 8.61800000 884024981 884024981 13.00000000
7.86176825 2.58785915 -0.14447102 18 14 7178 8.27800000 884024983 884024983 -1.00000000
7.92946577 2.60860944 2.23671412 49 15 7179 8.64200000 884024986 884024986 15.00000000
2.15527129 0.70611709 -0.60770714 4 0 7186 2.34800000 884025007 884025007 -15.00000000
7.86012220 2.57363987 0.14436631 18 1 7187 8.27200000 884025009 884025009 1.00000000
2.53366828 0.82910943 -0.61546606 9 2 7188 2.73600000 884025011 884025011 -13.00000000
7.89510393 2.58204293 0.43533048 57 3 7189 8.31800000 884025013 884025013 3.00000000
3.07329822 1.00510240 -0.62852484 5 4 7189 3.29400000 884025016 884025016 -11.00000000
7.87440968 2.57375383 0.72478718 79 5 7190 8.31600000 884025018 884025018 5.00000000
3.85686493 1.25987279 -0.64263278 6 6 7191 4.10800000 884025020 884025020 -9.00000000
7.88798046 2.57514215 1.01882768 100 7 7192 8.36000000 884025023 884025023 7.00000000
5.20107937 1.69696105 -0.67174381 9 8 7193 5.51200000 884025025 884025025 -7.00000000
7.83642578 2.55528498 -0.72112662 17 10 7194 8.27400000 884025030 884025030 -5.00000000
7.86596823 2.56188059 -0.43355107 17 12 7196 8.28400000 884025034 884025034 -3.00000000
7.97736502 2.59662175 1.93682861 4 13 7197 8.61000000 884025036 884025036 13.00000000
7.86695051 2.55916333 -0.14440121 16 14 7198 8.27400000 884025039 884025039 -1.00000000
7.92888737 2.57931185 2.23412609 51 15 7198 8.63200000 884025041 884025041 15.00000000
2.16507483 0.70096964 -0.60977769 4 0 7206 2.35600000 884025062 884025062 -15.00000000
7.87286329 2.54741859 0.14443612 18 1 7207 8.27600000 884025064 884025064 1.00000000
2.51985908 0.81486380 -0.61141694 6 2 7208 2.71800000 884025066 884025066 -13.00000000
7.89076567 2.55016875 0.43459779 70 3 7209 8.30400000 884025069 884025069 3.00000000
3.08052421 0.99557596 -0.62928808 5 4 7209 3.29800000 884025071 884025071 -11.00000000
7.88334608 2.54625130 0.72478718 76 5 7210 8.31600000 884025073 884025073 5.00000000
3.86311913 1.24700892 -0.64294565 6 6 7211 4.11000000 884025076 884025076 -9.00000000
7.88180733 2.54271650 1.01687777 100 7 7212 8.34400000 884025078 884025078 7.00000000
5.20508194 1.67818642 -0.67150009 9 8 7213 5.51000000 884025080 884025080 -7.00000000
7.85288334 2.53035927 -0.72182387 17 10 7214 8.28200000 884025085 884025085 -5.00000000
7.86535692 2.53134823 -0.43302771 17 12 7216 8.27400000 884025089 884025089 -3.00000000
7.96968412 2.56338954 1.93277943 5 13 7217 8.59200000 884025092 884025092 13.00000000
7.88345051 2.53413486 -0.14454083 16 14 7218 8.28200000 884025094 884025094 -1.00000000
7.94887733 2.55516648 2.23723173 58 15 7218 8.64400000 884025096 884025096 15.00000000
2.16738725 0.69378614 -0.60977769 4 0 7225 2.35600000 884025117 884025117 -15.00000000
7.87174416 2.51825070 0.14426160 12 1 7226 8.26600000 884025119 884025119 1.00000000
2.53739691 0.81125081 -0.61501616 7 2 7227 2.73400000 884025122 884025122 -13.00000000
7.88542128 2.52110910 0.43386507 76 3 7227 8.29000000 884025124 884025124 3.00000000
3.07632828 0.98296493 -0.62776160 5 4 7228 3.29000000 884025126 884025126 -11.00000000
7.88984823 2.51948905 0.72461283 83 5 7229 8.31400000 884025129 884025129 5.00000000
3.85594201 1.23058808 -0.64106846 6 6 7230 4.09800000 884025131 884025131 -9.00000000
7.89019585 2.51656556 1.01687777 99 7 7231 8.34400000 884025133 884025133 7.00000000
5.18792248 1.65368211 -0.66857523 9 8 7232 5.48600000 884025135 884025135 -7.00000000
7.99505377 2.54847240 1.32906723 2 9 7232 8.49600000 884025138 884025138 9.00000000
7.86123133 2.50430417 -0.72182387 17 10 7233 8.28200000 884025140 884025140 -5.00000000
7.86990118 2.50404072 -0.43281835 17 12 7235 8.27000000 884025145 884025145 -3.00000000
7.96885490 2.53399420 1.93052995 5 13 7236 8.58200000 884025147 884025147 13.00000000
7.87656450 2.50313330 -0.14426160 14 14 7237 8.26600000 884025149 884025149 -1.00000000
7.95730686 2.52879286 2.23723173 60 15 7237 8.64400000 884025152 884025152 15.00000000
2.16979599 0.68621635 -0.60977769 4 0 7245 2.35600000 884025172 884025172 -15.00000000
7.88048649 2.49075770 0.14426160 18 1 7246 8.26600000 884025175 884025175 1.00000000
2.54392982 0.80356264 -0.61591601 7 2 7247 2.73800000 884025177 884025177 -13.00000000
7.90032244 2.49399447 0.43417910 89 3 7248 8.29600000 884025179 884025179 3.00000000
3.08161283 0.97281158 -0.62814319 5 4 7248 3.29200000 884025182 884025182 -11.00000000
7.89099455 2.48953533 0.72391558 83 5 7249 8.30600000 884025184 884025184 5.00000000
3.86209798 1.21771479 -0.64138132 6 6 7250 4.10000000 884025186 884025186 -9.00000000
7.90271902 2.49020147 1.01736534 100 7 7251 8.34800000 884025188 884025188 7.00000000
5.20502377 1.63914037 -0.67003763 9 8 7252 5.49800000 884025191 884025191 -7.00000000
7.86042261 2.47385764 -0.72095233 17 10 7253 8.27200000 884025195 884025195 -5.00000000
7.87859440 2.47655439 -0.43281835 21 12 7255 8.27000000 884025200 884025200 -3.00000000
7.98880672 2.50966668 1.93322933 7 13 7256 8.59400000 884025202 884025202 13.00000000
7.87380695 2.47202992 -0.14405216 16 14 7257 8.25400000 884025205 884025205 -1.00000000
7.94808960 2.49382758 2.23205543 58 15 7258 8.62400000 884025207 884025207 15.00000000
2.16480231 0.67633379 -0.60770714 4 0 7265 2.34800000 884025228 884025228 -15.00000000
7.87386274 2.45846653 0.14398235 21 1 7266 8.25000000 884025230 884025230 1.00000000
2.54857945 0.79525822 -0.61636591 6 2 7267 2.74000000 884025232 884025232 -13.00000000
7.90854931 2.46778226 0.43417910 81 3 7267 8.29600000 884025235 884025235 3.00000000
3.07936716 0.96029538 -0.62699836 5 4 7268 3.28600000 884025237 884025237 -11.00000000
7.88251734 2.45664001 0.72234678 94 5 7269 8.28800000 884025239 884025239 5.00000000
3.87009716 1.20540106 -0.64200705 6 6 7270 4.10400000 884025241 884025241 -9.00000000
7.90378189 2.46024060 1.01639032 100 7 7271 8.34000000 884025244 884025244 7.00000000
5.20692253 1.61978221 -0.66955018 9 8 7272 5.49400000 884025246 884025246 -7.00000000
7.85949707 2.44344711 -0.72008073 17 10 7273 8.26200000 884025251 884025251 -5.00000000
7.88528347 2.44844556 -0.43271369 17 12 7275 8.26800000 884025255 884025255 -3.00000000
7.98635149 2.47829986 1.93052995 5 13 7276 8.58200000 884025258 884025258 13.00000000
7.87283802 2.44156837 -0.14387764 16 14 7277 8.24400000 884025260 884025260 -1.00000000
7.94155455 2.46287918 2.22791433 58 15 7277 8.60800000 884025262 884025262 15.00000000
2.17453361 0.67105168 -0.60977769 4 0 7285 2.35600000 884025283 884025283 -15.00000000
7.87666368 2.42919874 0.14387764 15 1 7286 8.24400000 884025285 884025285 1.00000000
2.54761529 0.78520924 -0.61546606 6 2 7287 2.73600000 884025287 884025287 -13.00000000
7.91138935 2.43839645 0.43386507 94 3 7287 8.29000000 884025290 884025290 3.00000000
3.08645296 0.95069635 -0.62776160 5 4 7288 3.29000000 884025292 884025292 -11.00000000
7.89104462 2.42911005 0.72234678 79 5 7289 8.28800000 884025294 884025294 5.00000000
3.86861706 1.19014204 -0.64106846 6 6 7290 4.09800000 884025297 884025297 -9.00000000
7.90093660 2.42913604 1.01492786 99 7 7291 8.32800000 884025299 884025299 7.00000000
5.21634007 1.60276282 -0.67003763 9 8 7292 5.49800000 884025301 884025301 -7.00000000
7.86416912 2.41482759 -0.71973211 17 10 7293 8.25800000 884025306 884025306 -5.00000000
7.88423491 2.41797781 -0.43219033 17 12 7295 8.25800000 884025311 884025311 -3.00000000
7.98936415 2.44869399 1.92918026 4 13 7296 8.57600000 884025313 884025313 13.00000000
7.87748861 2.41290092 -0.14380783 18 14 7297 8.24000000 884025315 884025315 -1.00000000
7.94640875 2.43401146 2.22687912 60 15 7297 8.60400000 884025317 884025317 15.00000000
2.18044281 0.66496408 -0.61081296 4 0 7304 2.36000000 884025338 884025338 -15.00000000
7.89232683 2.40539742 0.14401726 15 1 7305 8.25200000 884025340 884025340 1.00000000
2.54274845 0.77448547 -0.61366647 9 2 7306 2.72800000 884025343 884025343 -13.00000000
7.91220999 2.40843916 0.43344638 94 3 7307 8.28200000 884025345 884025345 3.00000000
3.08958864 0.94045609 -0.62776160 5 4 7307 3.29000000 884025347 884025347 -11.00000000
7.89905643 2.40292907 0.72234678 90 5 7308 8.28800000 884025350 884025350 5.00000000
3.87065244 1.17673206 -0.64075559 6 6 7309 4.09600000 884025352 884025352 -9.00000000
7.89755249 2.39945984 1.01346540 100 7 7310 8.31600000 884025354 884025354 7.00000000
5.21402884 1.58314908 -0.66906267 9 8 7311 5.49000000 884025357 884025357 -7.00000000
7.86641407 2.38700032 -0.71920919 17 10 7312 8.25200000 884025361 884025361 -5.00000000
7.88838673 2.39066100 -0.43198100 17 12 7314 8.25400000 884025366 884025366 -3.00000000
7.99557495 2.42162204 1.92873037 3 13 7315 8.57400000 884025368 884025368 13.00000000
7.89501667 2.38966155 -0.14398235 16 14 7316 8.25000000 884025370 884025370 -1.00000000
7.95115852 2.40513968 2.22584391 54 15 7317 8.60000000 884025373 884025373 15.00000000
2.18460035 0.65790594 -0.61133057 4 0 7324 2.36200000 884025393 884025393 -15.00000000
7.88727140 2.37379932 0.14377293 15 1 7325 8.23800000 884025396 884025396 1.00000000
2.54357028 0.76504362 -0.61321658 7 2 7326 2.72600000 884025398 884025398 -13.00000000
7.90485239 2.37758589 0.43260902 94 3 7326 8.26600000 884025400 884025400 3.00000000
3.09097242 0.92910057 -0.62737995 5 4 7327 3.28800000 884025403 884025403 -11.00000000
7.90930414 2.37591457 0.72252113 83 5 7328 8.29000000 884025405 884025405 5.00000000
3.88230419 1.16548574 -0.64200705 4 6 7329 4.10400000 884025407 884025407 -9.00000000
7.90207720 2.37073684 1.01297796 99 7 7330 8.31200000 884025410 884025410 7.00000000
5.21381855 1.56322873 -0.66833150 6 8 7331 5.48400000 884025412 884025412 -7.00000000
7.88042402 2.36124253 -0.71973211 17 10 7332 8.25800000 884025417 884025417 -5.00000000
7.89094353 2.36139297 -0.43166697 17 12 7334 8.24800000 884025421 884025421 -3.00000000
7.98904324 2.38923049 1.92513108 2 13 7335 8.55800000 884025423 884025423 13.00000000
7.89947796 2.36094284 -0.14391254 14 14 7336 8.24600000 884025426 884025426 -1.00000000
7.95950556 2.37737036 2.22584391 54 15 7337 8.60000000 884025428 884025428 15.00000000
2.17392159 0.64642191 -0.60770714 4 0 7344 2.34800000 884025449 884025449 -15.00000000
7.89359283 2.34568357 0.14373802 15 1 7345 8.23600000 884025451 884025451 1.00000000
2.54996157 0.75726980 -0.61411637 7 2 7346 2.73000000 884025453 884025453 -13.00000000
7.91501808 2.35054708 0.43271369 100 3 7346 8.26800000 884025456 884025456 3.00000000
3.08855033 0.91662961 -0.62623513 5 4 7347 3.28200000 884025458 884025458 -11.00000000
7.90417862 2.34432578 0.72130090 79 5 7348 8.27600000 884025460 884025460 5.00000000
3.87498522 1.14855862 -0.64012980 6 6 7349 4.09200000 884025463 884025463 -9.00000000
7.91030455 2.34313893 1.01297796 100 7 7350 8.31200000 884025465 884025465 7.00000000
5.21924353 1.54501963 -0.66833150 6 8 7351 5.48400000 884025467 884025467 -7.00000000
7.88288689 2.33202457 -0.71920919 17 10 7352 8.25200000 884025472 884025472 -5.00000000
7.90105391 2.33439994 -0.43177164 17 12 7354 8.25000000 884025476 884025476 -3.00000000
8.00294113 2.36298466 1.92648077 1 13 7355 8.56400000 884025479 884025479 13.00000000
7.88465595 2.32656288 -0.14349368 14 14 7356 8.22200000 884025481 884025481 -1.00000000
7.95663786 2.34629345 2.22273803 56 15 7357 8.58800000 884025483 884025483 15.00000000
2.18357921 0.64100617 -0.60977769 4 0 7364 2.35600000 884025504 884025504 -15.00000000
7.89213848 2.31530070 0.14356349 18 1 7365 8.22600000 884025506 884025506 1.00000000
2.56380939 0.75165367 -0.61681581 7 2 7366 2.74200000 884025509 884025509 -13.00000000
7.91167545 2.31953263 0.43208566 100 3 7366 8.25600000 884025511 884025511 3.00000000
3.09549928 0.90694702 -0.62699836 5 4 7367 3.28600000 884025513 884025513 -11.00000000
7.89319229 2.31112218 0.71955782 79 5 7368 8.25600000 884025516 884025516 5.00000000
3.86759567 1.13169694 -0.63825262 6 6 7369 4.08000000 884025518 884025518 -9.00000000
7.91843557 2.31551266 1.01297796 100 7 7370 8.31200000 884025520 884025520 7.00000000
5.23222637 1.52901888 -0.66930646 9 8 7371 5.49200000 884025523 884025523 -7.00000000
7.87950420 2.30114293 -0.71816331 17 10 7372 8.24000000 884025527 884025527 -5.00000000
7.90915394 2.30680585 -0.43177164 17 12 7374 8.25000000 884025532 884025532 -3.00000000
8.01301193 2.33557987 1.92693079 1 13 7375 8.56600000 884025534 884025534 13.00000000
7.90616846 2.30294085 -0.14373802 16 14 7376 8.23600000 884025536 884025536 -1.00000000
7.95736027 2.31634569 2.22066736 65 15 7377 8.58000000 884025539 884025539 15.00000000
2.18394804 0.63284248 -0.60926002 4 0 7384 2.35400000 884025559 884025559 -15.00000000
7.89056826 2.28495693 0.14338897 18 1 7385 8.21600000 884025562 884025562 1.00000000
2.54957032 0.73782426 -0.61276668 6 2 7386 2.72400000 884025564 884025564 -13.00000000
7.91780519 2.29134655 0.43198100 100 3 7386 8.25400000 884025566 884025566 3.00000000
3.09487438 0.89504534 -0.62623513 5 4 7387 3.28200000 884025569 884025569 -11.00000000
7.90121174 2.28355575 0.71955782 94 5 7388 8.25600000 884025571 884025571 5.00000000
3.87911367 1.12038207 -0.63950408 6 6 7389 4.08800000 884025573 884025573 -9.00000000
7.91884089 2.28565598 1.01200306 100 7 7390 8.30400000 884025575 884025575 7.00000000
5.22608805 1.50744474 -0.66784400 9 8 7391 5.48000000 884025578 884025578 -7.00000000
8.00385094 2.30867958 1.31936824 7 9 7391 8.43400000 884025580 884025580 9.00000000
7.88940287 2.27417612 -0.71833766 17 10 7392 8.24200000 884025582 884025582 -5.00000000
8.01778984 2.30966878 1.62187648 3 11 7393 8.50000000 884025585 884025585 11.00000000
7.90756178 2.27642107 -0.43124828 17 12 7394 8.24000000 884025587 884025587 -3.00000000
7.90070629 2.27146149 -0.14349368 18 14 7396 8.22200000 884025592 884025592 -1.00000000
7.96128416 2.28887773 2.21963215 58 15 7396 8.57600000 884025594 884025594 15.00000000
2.18614364 0.62521523 -0.60926002 4 0 7404 2.35400000 884025615 884025615 -15.00000000
7.89849615 2.25739980 0.14338897 12 1 7405 8.21600000 884025617 884025617 1.00000000
2.55587792 0.72999048 -0.61366647 9 2 7406 2.72800000 884025619 884025619 -13.00000000
7.91423273 2.26040316 0.43135294 100 3 7406 8.24200000 884025622 884025622 3.00000000
3.10930705 0.88746977 -0.62852484 5 4 7407 3.29400000 884025624 884025624 -11.00000000
7.91296673 2.25705433 0.71990645 90 5 7408 8.26000000 884025626 884025626 5.00000000
3.88870001 1.10845912 -0.64044273 9 6 7409 4.09400000 884025628 884025628 -9.00000000
7.91531610 2.25473714 1.01054060 100 7 7410 8.29200000 884025631 884025631 7.00000000
5.23322725 1.48973656 -0.66808772 9 8 7411 5.48200000 884025633 884025633 -7.00000000
7.89729309 2.24662304 -0.71833766 17 10 7412 8.24200000 884025638 884025638 -5.00000000
7.90393209 2.24552989 -0.43062025 17 12 7414 8.22800000 884025642 884025642 -3.00000000
8.04599380 2.28437233 1.93097985 0 13 7415 8.58400000 884025645 884025645 13.00000000
7.90473938 2.24277735 -0.14342387 18 14 7416 8.21800000 884025647 884025647 -1.00000000
7.97333717 2.26073670 2.22066736 56 15 7417 8.58000000 884025649 884025649 15.00000000
2.20318651 0.62177801 -0.61340111 4 0 7424 2.37000000 884025670 884025670 -15.00000000
7.89862919 2.22764397 0.14324935 15 1 7425 8.20800000 884025672 884025672 1.00000000
2.55653477 0.72053570 -0.61321658 7 2 7426 2.72600000 884025675 884025675 -13.00000000
7.92054176 2.23083949 0.43124828 100 3 7427 8.24000000 884025677 884025677 3.00000000
3.10860634 0.87554640 -0.62776160 5 4 7427 3.29000000 884025679 884025679 -11.00000000
7.92079687 2.22941923 0.71990645 79 5 7428 8.26000000 884025681 884025681 5.00000000
3.91536450 1.10129678 -0.64419711 15 6 7429 4.11800000 884025684 884025684 -9.00000000
7.92313862 2.22709370 1.01054060 100 7 7430 8.29200000 884025686 884025686 7.00000000
5.23457336 1.47038651 -0.66760027 9 8 7431 5.47800000 884025688 884025688 -7.00000000
7.90892363 2.22011971 -0.71868628 17 10 7432 8.24600000 884025693 884025693 -5.00000000
7.91172266 2.21792626 -0.43062025 17 12 7434 8.22800000 884025698 884025698 -3.00000000
7.90481710 2.21301460 -0.14328426 18 14 7436 8.21000000 884025702 884025702 -1.00000000
7.98079014 2.23428392 2.22066736 54 15 7436 8.58000000 884025705 884025705 15.00000000
2.18673301 0.60890156 -0.60822475 4 0 7444 2.35000000 884025725 884025725 -15.00000000
7.90635729 2.20005894 0.14324935 18 1 7445 8.20800000 884025728 884025728 1.00000000
2.56654429 0.71369570 -0.61501616 7 2 7446 2.73400000 884025730 884025730 -13.00000000
7.92250729 2.20157361 0.43093425 100 3 7447 8.23400000 884025732 884025732 3.00000000
3.09651113 0.86048478 -0.62470865 5 4 7447 3.27400000 884025734 884025734 -11.00000000
7.92661095 2.20122385 0.71973211 100 5 7448 8.25800000 884025737 884025737 5.00000000
3.91347456 1.08603811 -0.64325851 9 6 7449 4.11200000 884025739 884025739 -9.00000000
7.93086433 2.19942331 1.01054060 99 7 7450 8.29200000 884025741 884025741 7.00000000
5.23967409 1.45210540 -0.66760027 9 8 7451 5.47800000 884025744 884025744 -7.00000000
7.89934444 2.18771291 -0.71711743 17 10 7452 8.22800000 884025748 884025748 -5.00000000
7.91556644 2.18923092 -0.43041089 17 12 7454 8.22400000 884025753 884025753 -3.00000000
7.90092897 2.18221378 -0.14307483 18 14 7456 8.19800000 884025758 884025758 -1.00000000
7.98520136 2.20398974 2.21963215 60 15 7457 8.57600000 884025760 884025760 15.00000000
2.18522429 0.59985989 -0.60718948 4 0 7465 2.34600000 884025781 884025781 -15.00000000
7.90665388 2.16894984 0.14310974 15 1 7466 8.20000000 884025783 884025783 1.00000000
2.57666039 0.70634484 -0.61681581 7 2 7467 2.74200000 884025785 884025785 -13.00000000
7.93244982 2.17304921 0.43103895 100 3 7468 8.23600000 884025787 884025787 3.00000000
3.09585714 0.84809232 -0.62394542 5 4 7468 3.27000000 884025790 884025790 -11.00000000
7.91733074 2.16742182 0.71816331 90 5 7469 8.24000000 884025792 884025792 5.00000000
3.90790200 1.06908107 -0.64169419 11 6 7470 4.10200000 884025794 884025794 -9.00000000
7.93121290 2.16824651 1.00956559 99 7 7471 8.28400000 884025797 884025797 7.00000000
5.25070572 1.43446076 -0.66833150 9 8 7472 5.48400000 884025799 884025799 -7.00000000
7.89577723 2.15559721 -0.71607161 17 10 7473 8.21600000 884025804 884025804 -5.00000000
7.92546415 2.16072941 -0.43051559 17 12 7475 8.22600000 884025808 884025808 -3.00000000
7.91080332 2.15376616 -0.14310974 16 14 7477 8.20000000 884025813 884025813 -1.00000000
7.97234201 2.17052054 2.21393800 49 15 7477 8.55400000 884025815 884025815 15.00000000
2.19103432 0.59323812 -0.60822475 4 0 7485 2.35000000 884025836 884025836 -15.00000000
7.90259504 2.13820362 0.14290030 12 1 7486 8.18800000 884025838 884025838 1.00000000
2.57346678 0.69582039 -0.61546606 10 2 7487 2.73600000 884025840 884025840 -13.00000000
7.93998671 2.14534640 0.43103895 100 3 7488 8.23600000 884025843 884025843 3.00000000
3.09121752 0.83523220 -0.62241894 6 4 7488 3.26200000 884025845 884025845 -11.00000000
7.92484808 2.13977194 0.71816331 90 5 7489 8.24000000 884025847 884025847 5.00000000
3.89825988 1.05183125 -0.63950408 9 6 7490 4.08800000 884025850 884025850 -9.00000000
7.93489981 2.13951468 1.00907815 100 7 7491 8.28000000 884025852 884025852 7.00000000
5.25568104 1.41612363 -0.66833150 9 8 7492 5.48400000 884025854 884025854 -7.00000000
7.90517759 2.12854075 -0.71624589 17 10 7493 8.21800000 884025859 884025859 -5.00000000
7.91559935 2.12838387 -0.42957354 25 12 7495 8.20800000 884025863 884025863 -3.00000000
7.91634178 2.12562060 -0.14307483 18 14 7497 8.19800000 884025868 884025868 -1.00000000
7.98770714 2.14328837 2.21600866 49 15 7498 8.56200000 884025870 884025870 15.00000000
2.19298935 0.58596915 -0.60822475 4 0 7504 2.35000000 884025891 884025891 -15.00000000
7.90771008 2.11146998 0.14286540 15 1 7505 8.18600000 884025893 884025893 1.00000000
2.56446290 0.68426824 -0.61276668 10 2 7506 2.72400000 884025896 884025896 -13.00000000
7.93740797 2.11643195 0.43051559 100 3 7507 8.22600000 884025898 884025898 3.00000000
3.09017634 0.82396513 -0.62165570 6 4 7507 3.25800000 884025900 884025900 -11.00000000
7.93190002 2.11348057 0.71816331 90 5 7508 8.24000000 884025903 884025903 5.00000000
3.90172648 1.03889835 -0.63950408 9 6 7509 4.08800000 884025905 884025905 -9.00000000
7.93044138 2.11012721 1.00761569 100 7 7510 8.26800000 884025907 884025907 7.00000000
5.25459290 1.39715707 -0.66760027 9 8 7511 5.47800000 884025910 884025910 -7.00000000
7.91026688 2.10180283 -0.71607161 17 10 7512 8.21600000 884025914 884025914 -5.00000000
7.91875267 2.10109854 -0.42936417 25 12 7514 8.20400000 884025919 884025919 -3.00000000
7.92721319 2.10038185 -0.14314464 18 14 7516 8.20200000 884025923 884025923 -1.00000000
7.98693132 2.11620450 2.21393800 47 15 7516 8.55400000 884025926 884025926 15.00000000
2.19502163 0.57831061 -0.60822475 4 0 7524 2.35000000 884025946 884025946 -15.00000000
7.91503239 2.08385420 0.14286540 12 1 7525 8.18600000 884025949 884025949 1.00000000
2.56683588 0.67531246 -0.61276668 9 2 7526 2.72400000 884025951 884025951 -13.00000000
7.92543125 2.08363390 0.42946887 100 3 7527 8.20600000 884025953 884025953 3.00000000
3.09872985 0.81467098 -0.62280059 5 4 7527 3.26400000 884025956 884025956 -11.00000000
7.93922949 2.08578014 0.71816331 94 5 7528 8.24000000 884025958 884025958 5.00000000
3.91106105 1.02677727 -0.64044273 11 6 7529 4.09400000 884025960 884025960 -9.00000000
7.93775845 2.08243203 1.00761569 100 7 7530 8.26800000 884025963 884025963 7.00000000
5.26135826 1.37931001 -0.66784400 9 8 7531 5.48000000 884025965 884025965 -7.00000000
7.92719221 2.07670259 -0.71694314 17 10 7532 8.22600000 884025969 884025969 -5.00000000
7.93183565 2.07496071 -0.42967820 17 12 7534 8.21000000 884025974 884025974 -3.00000000
7.91514874 2.06764364 -0.14279559 20 14 7536 8.18200000 884025979 884025979 -1.00000000
7.99463415 2.08691669 2.21393800 49 15 7537 8.55400000 884025981 884025981 15.00000000
2.19702673 0.57064503 -0.60822475 4 0 7544 2.35000000 884026002 884026002 -15.00000000
7.92806482 2.05771995 0.14297011 12 1 7545 8.19200000 884026004 884026004 1.00000000
2.57860899 0.66879463 -0.61501616 7 2 7546 2.73400000 884026006 884026006 -13.00000000
7.94038963 2.05796075 0.42988753 100 3 7547 8.21400000 884026009 884026009 3.00000000
3.09585333 0.80237174 -0.62165570 5 4 7547 3.25800000 884026011 884026011 -11.00000000
7.94067526 2.05655575 0.71764040 83 5 7548 8.23400000 884026013 884026013 5.00000000
3.92227077 1.01509857 -0.64169419 11 6 7549 4.10200000 884026016 884026016 -9.00000000
7.94690132 2.05520844 1.00785947 97 7 7550 8.27000000 884026018 884026018 7.00000000
5.26037502 1.35944593 -0.66711277 9 8 7551 5.47400000 884026020 884026020 -7.00000000
7.91703081 2.04453540 -0.71537435 17 10 7552 8.20800000 884026025 884026025 -5.00000000
7.94096422 2.04775929 -0.42978287 17 12 7554 8.21200000 884026029 884026029 -3.00000000
7.91844511 2.03900480 -0.14272578 22 14 7556 8.17800000 884026034 884026034 -1.00000000
7.99402714 2.05846715 2.21186757 47 15 7556 8.54600000 884026036 884026036 15.00000000
2.19526243 0.56201428 -0.60718948 4 0 7564 2.34600000 884026057 884026057 -15.00000000
7.92357540 2.02705956 0.14276068 18 1 7565 8.18000000 884026059 884026059 1.00000000
2.58281589 0.66027218 -0.61546606 6 2 7566 2.73600000 884026062 884026062 -13.00000000
7.94559002 2.02973676 0.42978287 100 3 7567 8.21200000 884026064 884026064 3.00000000
3.10624385 0.79350400 -0.62318218 5 4 7567 3.26600000 884026066 884026066 -11.00000000
7.92657042 2.02340436 0.71572298 76 5 7568 8.21200000 884026069 884026069 5.00000000
3.92770433 1.00188935 -0.64200705 13 6 7569 4.10400000 884026071 884026071 -9.00000000
7.95595026 2.02794623 1.00810325 100 7 7570 8.27200000 884026073 884026073 7.00000000
5.27085924 1.34254551 -0.66784400 6 8 7571 5.48000000 884026075 884026075 -7.00000000
7.91253471 2.01393867 -0.71432847 17 10 7572 8.19600000 884026080 884026080 -5.00000000
7.94419241 2.01904392 -0.42957354 17 12 7574 8.20800000 884026085 884026085 -3.00000000
7.92745256 2.01184368 -0.14276068 16 14 7576 8.18000000 884026089 884026089 -1.00000000
