# .PCD v0.7 - Point Cloud Data file format
VERSION 0.7
FIELDS x y z intensity laser_id azimuth distance_m adjustedtime timestamp vertical_angle
SIZE 4 4 4 1 1 2 8 8 4 8
TYPE F F F U U U F U U F
COUNT 1 1 1 1 1 1 1 1 1 1
WIDTH 539
HEIGHT 1
VIEWPOINT 0 0 0 1 0 0 0
POINTS 539
DATA ascii
-2.21958327 0.49532220 -0.52503574 4 2 28258 2.33400000 884983568 884983568 -13.00000000
-4.28068590 0.95527792 0.22985952 7 3 28258 4.39200000 884983570 884983570 3.00000000
-2.60199261 0.58113742 -0.51823723 3 4 28259 2.71600000 884983573 884983573 -11.00000000
-5.13323259 1.14741337 0.46018231 7 5 28260 5.28000000 884983575 884983575 5.00000000
-3.14026880 0.70250875 -0.50966346 3 6 28261 3.25800000 884983577 884983577 -9.00000000
-5.76684666 1.29115665 0.72561008 2 7 28262 5.95400000 884983580 884983580 7.00000000
-3.92835331 0.88025093 -0.49430206 8 8 28263 4.05600000 884983582 884983582 -7.00000000
-5.17325640 1.16015244 -0.46384287 9 10 28264 5.32200000 884983587 884983587 -5.00000000
-4.20334864 0.94418252 -0.22577731 18 12 28266 4.31400000 884983591 884983591 -3.00000000
-4.12230492 0.92748964 -0.07375387 54 14 28268 4.22600000 884983596 884983596 -1.00000000
-8.76179409 1.97294879 2.40649939 40 15 28269 9.29800000 884983598 884983598 15.00000000
-1.92943788 0.43658721 -0.53006142 4 0 28275 2.04800000 884983619 884983619 -15.00000000
-4.17951536 0.94649464 0.07480101 15 1 28276 4.28600000 884983621 884983621 1.00000000
-2.21412730 0.50181836 -0.52413595 4 2 28277 2.33000000 884983623 884983623 -13.00000000
-4.27554703 0.96902645 0.22975485 7 3 28277 4.39000000 884983626 884983626 3.00000000
-2.60388041 0.59063137 -0.51900047 3 4 28278 2.72000000 884983628 884983628 -11.00000000
-5.15077162 1.16928124 0.46209976 7 5 28279 5.30200000 884983630 884983630 5.00000000
-3.13792205 0.71291840 -0.50966346 3 6 28280 3.25800000 884983633 884983633 -9.00000000
-5.79156876 1.31687510 0.72926617 2 7 28281 5.98400000 884983635 884983635 7.00000000
-3.92154145 0.89239204 -0.49381459 6 8 28282 4.05200000 884983637 884983637 -7.00000000
-5.18492174 1.18084061 -0.46523735 6 10 28283 5.33800000 884983642 884983642 -5.00000000
-4.21187782 0.96078122 -0.22640535 16 12 28285 4.32600000 884983646 884983646 -3.00000000
-4.12700462 0.94293624 -0.07389349 57 14 28287 4.23400000 884983651 884983651 -1.00000000
-8.76085281 2.00328493 2.40805244 40 15 28288 9.30400000 884983653 884983653 15.00000000
-1.93731570 0.44548419 -0.53264958 4 0 28295 2.05800000 884983674 884983674 -15.00000000
-4.19567347 0.96556282 0.07515007 15 1 28296 4.30600000 884983676 884983676 1.00000000
-2.21995831 0.51129359 -0.52593559 4 2 28297 2.33800000 884983679 884983679 -13.00000000
-4.26824570 0.98304844 0.22954550 7 3 28297 4.38600000 884983681 884983681 3.00000000
-2.59797668 0.59883505 -0.51823723 3 4 28298 2.71600000 884983683 884983683 -11.00000000
-5.17383862 1.19352365 0.46454009 7 5 28299 5.33000000 884983686 884983686 5.00000000
-3.12964010 0.72253436 -0.50872487 3 6 28300 3.25200000 884983688 884983688 -9.00000000
-3.91840267 0.90607530 -0.49381459 8 8 28302 4.05200000 884983693 884983693 -7.00000000
-5.20600224 1.20477188 -0.46750340 6 10 28303 5.36400000 884983697 884983697 -5.00000000
-4.20849848 0.97547758 -0.22640535 14 12 28305 4.32600000 884983702 884983702 -3.00000000
-4.12368822 0.95733643 -0.07389349 57 14 28307 4.23400000 884983706 884983706 -1.00000000
-8.75568867 2.03429103 2.40857005 40 15 28308 9.30600000 884983709 884983709 15.00000000
-1.92626441 0.45038268 -0.53006142 4 0 28316 2.04800000 884983729 884983729 -15.00000000
-4.19794798 0.98230106 0.07525478 13 1 28317 4.31200000 884983732 884983732 1.00000000
-2.22945380 0.52209270 -0.52863497 4 2 28318 2.35000000 884983734 884983734 -13.00000000
-4.27433729 1.00096273 0.23006886 7 3 28318 4.39600000 884983736 884983736 3.00000000
-2.58620715 0.60611320 -0.51632917 3 4 28319 2.70600000 884983739 884983739 -11.00000000
-5.19270611 1.21793818 0.46663186 2 5 28320 5.35400000 884983741 884983741 5.00000000
-3.13274026 0.73535442 -0.50966346 3 6 28321 3.25800000 884983743 884983743 -9.00000000
-3.91505527 0.92043090 -0.49381459 6 8 28323 4.05200000 884983748 884983748 -7.00000000
-5.18797588 1.22065043 -0.46628323 6 10 28324 5.35000000 884983752 884983752 -5.00000000
-4.20878315 0.99181217 -0.22661468 14 12 28326 4.33000000 884983757 884983757 -3.00000000
-4.11625910 0.97152537 -0.07382368 59 14 28328 4.23000000 884983762 884983762 -1.00000000
-8.74665451 2.06439805 2.40805244 40 15 28328 9.30400000 884983764 884983764 15.00000000
-1.91904175 0.45576468 -0.52850848 4 0 28336 2.04200000 884983785 884983785 -15.00000000
-4.19254780 0.99648625 0.07521987 15 1 28337 4.31000000 884983787 884983787 1.00000000
-2.23520112 0.53167558 -0.53043461 4 2 28338 2.35800000 884983789 884983789 -13.00000000
-4.28247547 1.01864994 0.23069690 7 3 28338 4.40800000 884983792 884983792 3.00000000
-2.60508442 0.62013817 -0.52052695 3 4 28339 2.72800000 884983794 884983794 -11.00000000
-5.25819635 1.25267911 0.47290707 2 5 28340 5.42600000 884983796 884983796 5.00000000
-3.12823272 0.74582714 -0.50935060 3 6 28341 3.25600000 884983798 884983798 -9.00000000
-3.91568017 0.93501347 -0.49430206 6 8 28343 4.05600000 884983803 884983803 -7.00000000
-5.20306158 1.24338329 -0.46802634 6 10 28344 5.37000000 884983808 884983808 -5.00000000
-4.22471952 1.01114643 -0.22766142 14 12 28346 4.35000000 884983812 884983812 -3.00000000
-4.14201164 0.99287999 -0.07434725 26 14 28348 4.26000000 884983817 884983817 -1.00000000
-8.73151493 2.09463954 2.40598178 42 15 28349 9.29600000 884983819 884983819 15.00000000
-1.92495120 0.46427241 -0.53057903 4 0 28356 2.05000000 884983840 884983840 -15.00000000
-4.19681931 1.01299167 0.07535949 16 1 28357 4.31800000 884983842 884983842 1.00000000
-2.22196603 0.53672922 -0.52773517 4 2 28358 2.34600000 884983845 884983845 -13.00000000
-4.28647852 1.03621638 0.23111558 7 3 28359 4.41600000 884983847 884983847 3.00000000
-2.59527063 0.62738258 -0.51900047 3 4 28359 2.72000000 884983849 884983849 -11.00000000
-5.39322138 1.30475760 0.48545748 2 5 28360 5.57000000 884983851 884983851 5.00000000
-3.12177038 0.75581253 -0.50872487 3 6 28361 3.25200000 884983854 884983854 -9.00000000
-3.91625094 0.94961166 -0.49478954 6 8 28363 4.06000000 884983858 884983858 -7.00000000
-5.18513632 1.25824893 -0.46680614 6 10 28364 5.35600000 884983863 884983863 -5.00000000
-4.22504568 1.02683067 -0.22787075 16 12 28366 4.35400000 884983868 884983868 -3.00000000
-4.15212154 1.01064277 -0.07459158 22 14 28368 4.27400000 884983872 884983872 -1.00000000
-8.72076702 2.12266898 2.40494657 45 15 28368 9.29200000 884983875 884983875 15.00000000
-1.92894804 0.47236744 -0.53213197 4 0 28376 2.05600000 884983895 884983895 -15.00000000
-4.19908428 1.02906311 0.07546420 13 1 28377 4.32400000 884983898 884983898 1.00000000
-2.21250844 0.54262537 -0.52593559 4 2 28378 2.33800000 884983900 884983900 -13.00000000
-4.27895594 1.05022049 0.23090623 7 3 28379 4.41200000 884983902 884983902 3.00000000
-2.60069156 0.63830984 -0.52052695 3 4 28379 2.72800000 884983904 884983904 -11.00000000
-5.49698734 1.35018957 0.49521893 2 5 28380 5.68200000 884983907 884983907 5.00000000
-3.13445926 0.77047712 -0.51122785 3 6 28381 3.26800000 884983909 884983909 -9.00000000
-3.90134692 0.96042901 -0.49332711 6 8 28383 4.04800000 884983914 884983914 -7.00000000
-5.19425440 1.27967691 -0.46802634 6 10 28384 5.37000000 884983918 884983918 -5.00000000
-4.21367884 1.03965878 -0.22745207 16 12 28386 4.34600000 884983923 884983923 -3.00000000
-4.15245104 1.02608967 -0.07466140 21 14 28388 4.27800000 884983928 884983928 -1.00000000
-8.71480370 2.15508175 2.40546417 45 15 28389 9.29400000 884983930 884983930 15.00000000
-1.93682933 0.48075202 -0.53472012 4 0 28394 2.06600000 884983951 884983951 -15.00000000
-4.20941591 1.04562438 0.07570854 15 1 28395 4.33800000 884983953 884983953 1.00000000
-2.21835756 0.55145395 -0.52773517 4 2 28396 2.34600000 884983955 884983955 -13.00000000
-4.27951193 1.06462240 0.23111558 7 3 28397 4.41600000 884983957 884983957 3.00000000
-2.60248375 0.64742488 -0.52129018 3 4 28397 2.73200000 884983960 884983960 -11.00000000
-5.49271870 1.36745226 0.49521893 2 5 28398 5.68200000 884983962 884983962 5.00000000
-3.12052250 0.77745521 -0.50935060 3 6 28399 3.25600000 884983964 884983964 -9.00000000
-3.89445829 0.97171950 -0.49283963 6 8 28401 4.04400000 884983969 884983969 -7.00000000
-5.18440962 1.29454076 -0.46750340 6 10 28402 5.36400000 884983974 884983974 -5.00000000
-10.35579109 2.58774877 2.07485700 3 11 28403 10.87400000 884983976 884983976 11.00000000
-4.22589302 1.05676758 -0.22828944 16 12 28404 4.36200000 884983978 884983978 -3.00000000
-4.14726734 1.03864408 -0.07462649 19 14 28406 4.27600000 884983983 884983983 -1.00000000
-8.71399307 2.18233752 2.40701723 42 15 28406 9.30000000 884983985 884983985 15.00000000
-1.92764616 0.48562214 -0.53264958 4 0 28414 2.05800000 884984006 884984006 -15.00000000
-4.21349621 1.06226695 0.07584815 15 1 28415 4.34600000 884984008 884984008 1.00000000
-2.22964573 0.56253117 -0.53088450 3 2 28416 2.36000000 884984010 884984010 -13.00000000
-4.29319763 1.08395457 0.23205763 7 3 28417 4.43400000 884984013 884984013 3.00000000
-2.58497977 0.65266049 -0.51823723 3 4 28417 2.71600000 884984015 884984015 -11.00000000
-5.49950171 1.38954544 0.49626479 3 5 28418 5.69400000 884984017 884984017 5.00000000
-3.14460135 0.79512250 -0.51373076 3 6 28419 3.28400000 884984020 884984020 -9.00000000
-3.91028619 0.99018073 -0.49527702 6 8 28421 4.06400000 884984024 884984024 -7.00000000
-5.18758440 1.31458759 -0.46820065 6 10 28422 5.37200000 884984029 884984029 -5.00000000
-10.37333679 2.63063788 2.08019972 9 11 28423 10.90200000 884984031 884984031 11.00000000
-4.23379374 1.07446003 -0.22891748 14 12 28424 4.37400000 884984033 884984033 -3.00000000
-4.15524483 1.05606985 -0.07483592 19 14 28426 4.28800000 884984038 884984038 -1.00000000
-8.69470215 2.21140409 2.40391135 45 15 28427 9.28800000 884984040 884984040 15.00000000
-1.92032421 0.49091250 -0.53109670 4 0 28434 2.05200000 884984061 884984061 -15.00000000
-4.21557474 1.07845521 0.07595287 13 1 28435 4.35200000 884984063 884984063 1.00000000
-2.22389293 0.56934404 -0.52998471 3 2 28436 2.35600000 884984066 884984066 -13.00000000
-4.29325771 1.09992540 0.23226698 7 3 28437 4.43800000 884984068 884984068 3.00000000
-2.60170412 0.66655225 -0.52205342 3 4 28437 2.73600000 884984070 884984070 -11.00000000
-5.50426769 1.41120791 0.49713635 3 5 28438 5.70400000 884984073 884984073 5.00000000
-3.12649941 0.80216700 -0.51122785 3 6 28439 3.26800000 884984075 884984075 -9.00000000
-3.91449666 1.00580025 -0.49625197 6 8 28441 4.07200000 884984080 884984080 -7.00000000
-5.16366768 1.32772601 -0.46645755 6 10 28442 5.35200000 884984084 884984084 -5.00000000
-10.36789322 2.66780996 2.08096290 12 11 28443 10.90600000 884984086 884984086 11.00000000
-4.24549055 1.09321654 -0.22975485 14 12 28444 4.39000000 884984089 884984089 -3.00000000
-4.15734243 1.07206583 -0.07494064 19 14 28446 4.29400000 884984093 884984093 -1.00000000
-8.68170929 2.23877740 2.40235829 45 15 28446 9.28200000 884984096 884984096 15.00000000
-1.92233896 0.49858272 -0.53213197 4 0 28454 2.05600000 884984116 884984116 -15.00000000
-4.21371984 1.09366608 0.07598778 11 1 28455 4.35400000 884984119 884984119 1.00000000
-2.21057510 0.57416397 -0.52728528 3 2 28456 2.34400000 884984121 884984121 -13.00000000
-4.31065512 1.12043166 0.23341836 7 3 28457 4.46000000 884984123 884984123 3.00000000
-2.59556127 0.67464203 -0.52129018 3 4 28457 2.73200000 884984126 884984126 -11.00000000
-5.48195410 1.42589891 0.49556756 2 5 28458 5.68600000 884984128 884984128 5.00000000
-3.11603355 0.81108522 -0.50997633 3 6 28459 3.26000000 884984130 884984130 -9.00000000
-3.91096187 1.01945817 -0.49625197 6 8 28461 4.07200000 884984135 884984135 -7.00000000
-5.16864109 1.34825695 -0.46732908 6 10 28462 5.36200000 884984139 884984139 -5.00000000
-10.35281944 2.70249677 2.07981801 12 11 28463 10.90000000 884984142 884984142 11.00000000
-4.23005438 1.10500062 -0.22912681 19 12 28464 4.37800000 884984144 884984144 -3.00000000
-4.16711712 1.09011376 -0.07518496 19 14 28466 4.30800000 884984149 884984149 -1.00000000
-8.67531395 2.27107167 2.40287590 45 15 28467 9.28400000 884984151 884984151 15.00000000
-1.92983949 0.50808436 -0.53472012 4 0 28475 2.06600000 884984172 884984172 -15.00000000
-4.22128534 1.11215961 0.07619721 11 1 28476 4.36600000 884984174 884984174 1.00000000
-2.19526529 0.57878458 -0.52413595 4 2 28477 2.33000000 884984176 884984176 -13.00000000
-4.30845070 1.13673306 0.23352304 7 3 28478 4.46200000 884984179 884984179 3.00000000
-2.60825753 0.68815744 -0.52434313 3 4 28478 2.74800000 884984181 884984181 -11.00000000
-5.65777063 1.49379110 0.51195282 6 5 28479 5.87400000 884984183 884984183 5.00000000
-3.12449884 0.82552820 -0.51185358 3 6 28480 3.27200000 884984186 884984186 -9.00000000
-3.90719914 1.03378570 -0.49625197 6 8 28482 4.07200000 884984190 884984190 -7.00000000
-5.18292475 1.37229145 -0.46907219 6 10 28483 5.38200000 884984195 884984195 -5.00000000
-10.35043526 2.74243498 2.08134460 15 11 28484 10.90800000 884984197 884984197 11.00000000
-4.23369789 1.12254465 -0.22954550 14 12 28485 4.38600000 884984199 884984199 -3.00000000
-4.17082453 1.10743237 -0.07532459 19 14 28487 4.31600000 884984204 884984204 -1.00000000
-8.66733360 2.30134034 2.40287590 42 15 28487 9.28400000 884984206 884984206 15.00000000
-1.92245483 0.51332253 -0.53316724 4 0 28495 2.06000000 884984227 884984227 -15.00000000
-4.23090124 1.13050127 0.07644154 13 1 28496 4.38000000 884984229 884984229 1.00000000
-2.21770549 0.59298801 -0.52998471 3 2 28497 2.35600000 884984232 884984232 -13.00000000
-4.29673910 1.14970040 0.23310435 7 3 28498 4.45400000 884984234 884984234 3.00000000
-2.58687425 0.69218314 -0.52052695 3 4 28498 2.72800000 884984236 884984236 -11.00000000
-5.68331528 1.52177668 0.51474184 18 5 28499 5.90600000 884984239 884984239 5.00000000
-3.11014986 0.83336210 -0.50997633 3 6 28500 3.26000000 884984241 884984241 -9.00000000
-3.89973211 1.04638922 -0.49576449 6 8 28502 4.06800000 884984245 884984245 -7.00000000
-5.14539146 1.38159144 -0.46610892 6 10 28503 5.34800000 884984250 884984250 -5.00000000
-10.35596752 2.78262353 2.08439755 21 11 28504 10.92400000 884984252 884984252 11.00000000
-4.23939753 1.13990927 -0.23006886 8 12 28505 4.39600000 884984255 884984255 -3.00000000
-4.16693306 1.12198460 -0.07532459 19 14 28507 4.31600000 884984259 884984259 -1.00000000
-8.66630173 2.33510280 2.40494657 42 15 28508 9.29200000 884984262 884984262 15.00000000
-1.91878664 0.51952517 -0.53264958 4 0 28515 2.05800000 884984282 884984282 -15.00000000
-4.23464966 1.14735484 0.07658116 13 1 28516 4.38800000 884984285 884984285 1.00000000
-2.21750283 0.60123557 -0.53043461 4 2 28517 2.35800000 884984287 884984287 -13.00000000
-4.31004810 1.16939867 0.23404640 7 3 28518 4.47200000 884984289 884984289 3.00000000
-2.57307386 0.69812429 -0.51823723 3 4 28518 2.71600000 884984292 884984292 -11.00000000
-5.66450930 1.53795147 0.51352161 12 5 28519 5.89200000 884984294 884984294 5.00000000
-3.12056565 0.84783894 -0.51216644 3 6 28520 3.27400000 884984296 884984296 -9.00000000
-3.89988685 1.06103778 -0.49625197 6 8 28522 4.07200000 884984301 884984301 -7.00000000
-5.05402851 1.37599123 -0.45826489 9 10 28523 5.25800000 884984305 884984305 -5.00000000
-10.36513329 2.82391644 2.08821368 25 11 28524 10.94400000 884984308 884984308 11.00000000
-4.25658894 1.16047931 -0.23122026 8 12 28525 4.41800000 884984310 884984310 -3.00000000
-4.16492033 1.13704967 -0.07535949 17 14 28527 4.31800000 884984315 884984315 -1.00000000
-8.65105629 2.36179328 2.40287590 42 15 28527 9.28400000 884984317 884984317 15.00000000
-1.91696143 0.52621979 -0.53264958 4 0 28535 2.05800000 884984338 884984338 -15.00000000
-4.22869062 1.16159987 0.07654625 16 1 28536 4.38600000 884984340 884984340 1.00000000
-2.22666478 0.61207151 -0.53313398 4 2 28537 2.37000000 884984342 884984342 -13.00000000
-4.31941986 1.18814445 0.23477910 7 3 28538 4.48600000 884984345 884984345 3.00000000
-2.57630014 0.70866382 -0.51938206 3 4 28538 2.72200000 884984347 884984347 -11.00000000
-5.65910625 1.55771494 0.51352161 9 5 28539 5.89200000 884984349 884984349 5.00000000
-3.11568284 0.85820204 -0.51185358 3 6 28540 3.27200000 884984351 884984351 -9.00000000
-3.90764117 1.07781136 -0.49771440 6 8 28542 4.08400000 884984356 884984356 -7.00000000
-4.98773623 1.37666154 -0.45268694 9 10 28543 5.19400000 884984361 884984361 -5.00000000
-10.36278248 2.86217093 2.08974004 25 11 28544 10.95200000 884984363 884984363 11.00000000
-4.26791286 1.17958701 -0.23205763 8 12 28545 4.43400000 884984365 884984365 -3.00000000
-4.16863489 1.15371466 -0.07549911 17 14 28547 4.32600000 884984370 884984370 -1.00000000
-8.62786484 2.38785434 2.39873481 45 15 28547 9.26800000 884984372 884984372 15.00000000
-1.91892838 0.53360891 -0.53368485 4 0 28554 2.06200000 884984393 884984393 -15.00000000
-4.23059464 1.17722452 0.07665097 13 1 28555 4.39200000 884984395 884984395 1.00000000
-2.20960450 0.61527014 -0.52953476 4 2 28556 2.35400000 884984398 884984398 -13.00000000
-4.33854342 1.20889473 0.23603517 7 3 28557 4.51000000 884984400 884984400 3.00000000
-2.58717442 0.72089201 -0.52205342 3 4 28557 2.73600000 884984402 884984402 -11.00000000
-5.67693996 1.58289421 0.51561338 9 5 28558 5.91600000 884984404 884984404 5.00000000
-3.11281967 0.86852926 -0.51185358 3 6 28559 3.27200000 884984407 884984407 -9.00000000
-3.91169286 1.09290028 -0.49868935 6 8 28561 4.09200000 884984411 884984411 -7.00000000
-4.94860506 1.38353765 -0.44954932 9 10 28562 5.15800000 884984416 884984416 -5.00000000
-10.35512543 2.89704847 2.09012175 28 11 28563 10.95400000 884984418 884984418 11.00000000
-4.25820780 1.19211817 -0.23174362 10 12 28564 4.42800000 884984421 884984421 -3.00000000
-4.18211555 1.17238986 -0.07581326 15 14 28566 4.34400000 884984425 884984425 -1.00000000
-8.63291931 2.42010236 2.40235829 40 15 28566 9.28200000 884984427 884984427 15.00000000
-1.92263222 0.54187614 -0.53523779 4 0 28574 2.06800000 884984448 884984448 -15.00000000
-4.26687670 1.20338368 0.07738397 7 1 28575 4.43400000 884984451 884984451 1.00000000
-2.20744324 0.62297934 -0.52953476 4 2 28576 2.35400000 884984453 884984453 -13.00000000
-4.33621931 1.22457457 0.23613983 7 3 28577 4.51200000 884984455 884984455 3.00000000
-2.59219956 0.73205280 -0.52357990 3 4 28577 2.74400000 884984457 884984457 -11.00000000
-5.70013952 1.61082804 0.51822805 9 5 28578 5.94600000 884984460 884984460 5.00000000
-3.12877750 0.88476497 -0.51498228 3 6 28579 3.29200000 884984462 884984462 -9.00000000
-3.89639425 1.10330296 -0.49722692 6 8 28581 4.08000000 884984467 884984467 -7.00000000
-4.90924072 1.39102626 -0.44641173 6 10 28582 5.12200000 884984471 884984471 -5.00000000
-10.35628223 2.93639016 2.09241152 28 11 28583 10.96600000 884984474 884984474 11.00000000
-4.25594187 1.20751989 -0.23184828 10 12 28584 4.43000000 884984476 884984476 -3.00000000
-4.19338608 1.19135308 -0.07609249 15 14 28586 4.36000000 884984480 884984480 -1.00000000
-9.76122093 2.77503204 2.71915293 42 15 28587 10.50600000 884984483 884984483 15.00000000
-1.92815936 0.55070627 -0.53730834 4 0 28594 2.07600000 884984504 884984504 -15.00000000
-4.29341316 1.22706270 0.07794245 8 1 28595 4.46600000 884984506 884984506 1.00000000
-2.21274972 0.63282430 -0.53133440 4 2 28596 2.36200000 884984508 884984508 -13.00000000
-4.32807827 1.23860431 0.23593049 7 3 28597 4.50800000 884984510 884984510 3.00000000
-2.57641602 0.73731571 -0.52090853 3 4 28597 2.73000000 884984513 884984513 -11.00000000
-5.72321272 1.63894308 0.52084273 9 5 28598 5.97600000 884984515 884984515 5.00000000
-3.12946796 0.89676940 -0.51560801 3 6 28599 3.29600000 884984517 884984517 -9.00000000
-3.89251924 1.11689723 -0.49722692 6 8 28601 4.08000000 884984522 884984522 -7.00000000
-4.91776037 1.41200316 -0.44763190 6 10 28602 5.13600000 884984527 884984527 -5.00000000
-10.37427330 2.98065448 2.09813571 31 11 28603 10.99600000 884984529 884984529 11.00000000
-4.26705694 1.22678351 -0.23268566 10 12 28604 4.44600000 884984531 884984531 -3.00000000
-4.18728018 1.20543027 -0.07605759 14 14 28606 4.35800000 884984536 884984536 -1.00000000
-9.75567818 2.80845523 2.72018814 42 15 28606 10.51000000 884984538 884984538 15.00000000
-1.91509104 0.55421126 -0.53420252 4 0 28614 2.06400000 884984559 884984559 -15.00000000
-4.33328199 1.25483513 0.07874526 8 1 28615 4.51200000 884984561 884984561 1.00000000
-2.22175765 0.64379859 -0.53403378 4 2 28616 2.37400000 884984563 884984563 -13.00000000
-4.34866524 1.26093531 0.23729123 7 3 28617 4.53400000 884984566 884984566 3.00000000
-2.57194114 0.74575788 -0.52052695 3 4 28617 2.72800000 884984568 884984568 -11.00000000
-5.72893763 1.66224194 0.52188861 3 5 28618 5.98800000 884984570 884984570 5.00000000
-3.11114216 0.90328157 -0.51310503 3 6 28619 3.28000000 884984573 884984573 -9.00000000
-3.90765858 1.13601935 -0.49966431 6 8 28621 4.10000000 884984577 884984577 -7.00000000
-4.88984489 1.42248237 -0.44554016 9 10 28622 5.11200000 884984582 884984582 -5.00000000
-10.37511539 3.02014160 2.10042548 28 11 28623 11.00800000 884984584 884984584 11.00000000
-4.27041912 1.24390507 -0.23310435 8 12 28624 4.45400000 884984586 884984586 -3.00000000
-4.19264555 1.22283876 -0.07623211 14 14 28626 4.36800000 884984591 884984591 -1.00000000
-9.73654270 2.83978724 2.71759987 45 15 28626 10.50000000 884984593 884984593 15.00000000
-1.90758336 0.55926234 -0.53264958 4 0 28634 2.05800000 884984614 884984614 -15.00000000
-4.36917067 1.28177488 0.07947826 12 1 28635 4.55400000 884984616 884984616 1.00000000
-2.21949697 0.65155005 -0.53403378 4 2 28636 2.37400000 884984619 884984619 -13.00000000
-4.35787487 1.27928710 0.23802392 7 3 28636 4.54800000 884984621 884984621 3.00000000
-2.57497334 0.75639105 -0.52167177 3 4 28637 2.73400000 884984623 884984623 -11.00000000
-3.10038972 0.91190636 -0.51185358 3 6 28639 3.27200000 884984628 884984628 -9.00000000
-3.89986086 1.14853108 -0.49917683 6 8 28641 4.09600000 884984632 884984632 -7.00000000
-4.87147188 1.43560004 -0.44431996 9 10 28642 5.09800000 884984637 884984637 -5.00000000
-10.37769127 3.06022620 2.10309672 31 11 28643 11.02200000 884984639 884984639 11.00000000
-4.29095364 1.26615214 -0.23446508 8 12 28644 4.48000000 884984642 884984642 -3.00000000
-4.19602251 1.23973274 -0.07637173 12 14 28646 4.37600000 884984646 884984646 -1.00000000
-9.72286510 2.87266207 2.71656466 45 15 28646 10.49600000 884984649 884984649 15.00000000
-1.91117525 0.56756753 -0.53420252 4 0 28654 2.06400000 884984669 884984669 -15.00000000
-4.37617111 1.30043602 0.07968768 16 1 28655 4.56600000 884984672 884984672 1.00000000
-2.20226574 0.65485018 -0.53043461 4 2 28656 2.35800000 884984674 884984674 -13.00000000
-4.37230015 1.30094683 0.23907065 7 3 28657 4.56800000 884984676 884984676 3.00000000
-2.57796240 0.76705444 -0.52281666 3 4 28657 2.74000000 884984679 884984679 -11.00000000
-3.10097408 0.92385119 -0.51247931 3 6 28659 3.27600000 884984683 884984683 -9.00000000
-3.90724158 1.16554189 -0.50063926 6 8 28661 4.10800000 884984688 884984688 -7.00000000
-4.86643076 1.45259595 -0.44431996 9 10 28662 5.09800000 884984692 884984692 -5.00000000
-10.36694622 3.09643245 2.10309672 34 11 28663 11.02200000 884984695 884984695 11.00000000
-4.28459454 1.28055084 -0.23436041 8 12 28664 4.47800000 884984697 884984697 -3.00000000
-4.20699549 1.25895846 -0.07665097 12 14 28666 4.39200000 884984702 884984702 -1.00000000
-9.70856953 2.90717030 2.71552944 45 15 28667 10.49200000 884984704 884984704 15.00000000
-1.90548241 0.57312244 -0.53316724 4 0 28674 2.06000000 884984725 884984725 -15.00000000
-4.36394548 1.31339848 0.07954807 8 1 28675 4.55800000 884984727 884984727 1.00000000
-2.20369840 0.66365743 -0.53133440 4 2 28676 2.36200000 884984729 884984729 -13.00000000
-4.37178659 1.31659067 0.23927999 7 3 28676 4.57200000 884984732 884984732 3.00000000
-2.57150960 0.77491558 -0.52205342 3 4 28677 2.73600000 884984734 884984734 -11.00000000
-3.10151267 0.93581122 -0.51310503 3 6 28679 3.28000000 884984738 884984738 -9.00000000
-3.88794708 1.17458093 -0.49868935 8 8 28681 4.09200000 884984743 884984743 -7.00000000
-4.88040209 1.47533941 -0.44606310 9 10 28682 5.11800000 884984748 884984748 -5.00000000
-10.38050365 3.13999033 2.10805774 31 11 28683 11.04800000 884984750 884984750 11.00000000
-4.28392172 1.29665625 -0.23456976 8 12 28684 4.48200000 884984752 884984752 -3.00000000
-4.22554016 1.28059566 -0.07706983 13 14 28686 4.41600000 884984757 884984757 -1.00000000
-9.70442200 2.94103003 2.71708226 42 15 28686 10.49800000 884984759 884984759 15.00000000
-1.91455841 0.58314764 -0.53627306 4 0 28694 2.07200000 884984780 884984780 -15.00000000
-4.37081146 1.33212149 0.07975750 8 1 28695 4.57000000 884984782 884984782 1.00000000
-2.19018435 0.66793495 -0.52863497 4 2 28696 2.35000000 884984784 884984784 -13.00000000
-4.36334324 1.33067775 0.23907065 7 3 28696 4.56800000 884984787 884984787 3.00000000
-2.57066679 0.78446013 -0.52243501 3 4 28697 2.73800000 884984789 884984789 -11.00000000
-3.11334038 0.95124954 -0.51560801 3 6 28699 3.29600000 884984794 884984794 -9.00000000
-3.88002682 1.18698382 -0.49820188 6 8 28701 4.08800000 884984798 884984798 -7.00000000
-4.89808416 1.49936438 -0.44815484 9 10 28702 5.14200000 884984803 884984803 -5.00000000
-10.39388275 3.18368077 2.11301875 31 11 28703 11.07400000 884984805 884984805 11.00000000
-4.29464579 1.31628418 -0.23540713 8 12 28704 4.49800000 884984808 884984808 -3.00000000
-4.22295618 1.29592443 -0.07710473 11 14 28706 4.41800000 884984812 884984812 -1.00000000
-9.70517826 2.97828746 2.72018814 21 15 28706 10.51000000 884984814 884984814 15.00000000
-1.91620338 0.59096581 -0.53730834 4 0 28714 2.07600000 884984835 884984835 -15.00000000
-4.39670706 1.35680485 0.08031598 8 1 28715 4.60200000 884984837 884984837 1.00000000
-2.21018338 0.68247557 -0.53403378 4 2 28716 2.37400000 884984840 884984840 -13.00000000
-4.38324404 1.35432613 0.24043138 7 3 28717 4.59400000 884984842 884984842 3.00000000
-2.57729173 0.79632652 -0.52434313 3 4 28717 2.74800000 884984844 884984844 -11.00000000
-3.10622668 0.96094376 -0.51498228 3 6 28719 3.29200000 884984849 884984849 -9.00000000
-3.88723707 1.20404446 -0.49966431 6 8 28721 4.10000000 884984854 884984854 -7.00000000
-4.87759590 1.51173413 -0.44676033 9 10 28722 5.12600000 884984858 884984858 -5.00000000
-10.40333366 3.22633958 2.11721659 28 11 28723 11.09600000 884984861 884984861 11.00000000
-4.30147028 1.33481896 -0.23603517 8 12 28724 4.51000000 884984863 884984863 -3.00000000
-4.22222614 1.31184411 -0.07717454 11 14 28726 4.42200000 884984867 884984867 -1.00000000
-1.89937639 0.59304482 -0.53316724 4 0 28734 2.06000000 884984890 884984890 -15.00000000
-4.42057514 1.38108885 0.08083954 8 1 28735 4.63200000 884984893 884984893 1.00000000
-2.21150756 0.69134933 -0.53493363 4 2 28736 2.37800000 884984895 884984895 -13.00000000
-4.38444757 1.37064183 0.24074540 5 3 28736 4.60000000 884984897 884984897 3.00000000
-2.56512761 0.80238754 -0.52243501 3 4 28737 2.73800000 884984900 884984900 -11.00000000
-3.10285354 0.97178066 -0.51498228 3 6 28739 3.29200000 884984904 884984904 -9.00000000
-3.89058709 1.21998191 -0.50063926 6 8 28741 4.10800000 884984909 884984909 -7.00000000
-4.88369513 1.53232968 -0.44780621 9 10 28742 5.13800000 884984914 884984914 -5.00000000
-10.40324688 3.26616287 2.11950636 25 11 28743 11.10800000 884984916 884984916 11.00000000
-4.31583929 1.35581160 -0.23708189 8 12 28744 4.53000000 884984918 884984918 -3.00000000
-4.23097420 1.33077431 -0.07741888 9 14 28746 4.43600000 884984923 884984923 -1.00000000
-8.52084637 2.68170834 2.39355850 2 15 28747 9.24800000 884984925 884984925 15.00000000
-1.90087390 0.60116744 -0.53420252 4 0 28755 2.06400000 884984946 884984946 -15.00000000
-4.40976381 1.39547181 0.08073483 6 1 28756 4.62600000 884984948 884984948 1.00000000
-2.20152760 0.69709718 -0.53313398 4 2 28757 2.37000000 884984950 884984950 -13.00000000
-4.39843559 1.39273155 0.24179211 5 3 28757 4.62000000 884984953 884984953 3.00000000
-2.56965590 0.81415570 -0.52396148 3 4 28758 2.74600000 884984955 884984955 -11.00000000
-3.09927082 0.98314661 -0.51498228 3 6 28760 3.29200000 884984960 884984960 -9.00000000
-3.89365745 1.23663700 -0.50161421 8 8 28762 4.11600000 884984964 884984964 -7.00000000
-4.91981983 1.56349456 -0.45164105 9 10 28763 5.18200000 884984969 884984969 -5.00000000
-10.39120579 3.30427074 2.11950636 25 11 28764 11.10800000 884984971 884984971 11.00000000
-4.32035685 1.37464869 -0.23760524 8 12 28765 4.54000000 884984973 884984973 -3.00000000
-4.24893236 1.35355639 -0.07783774 9 14 28767 4.46000000 884984978 884984978 -1.00000000
-8.41893005 2.68358564 2.36767673 2 15 28768 9.14800000 884984980 884984980 15.00000000
-1.90428340 0.60956591 -0.53575540 4 0 28775 2.07000000 884985001 884985001 -15.00000000
-4.46771097 1.43098521 0.08188669 12 1 28776 4.69200000 884985003 884985003 1.00000000
-2.19165778 0.70239872 -0.53133440 4 2 28777 2.36200000 884985006 884985006 -13.00000000
-4.40495920 1.41173387 0.24242015 5 3 28777 4.63200000 884985008 884985008 3.00000000
-2.56118965 0.82132202 -0.52281666 3 4 28778 2.74000000 884985010 884985010 -11.00000000
-3.10710502 0.99758232 -0.51685947 3 6 28780 3.30400000 884985015 884985015 -9.00000000
-3.87797785 1.24657583 -0.50015181 6 8 28782 4.10400000 884985020 884985020 -7.00000000
-5.12107182 1.64715469 -0.47064102 6 10 28783 5.40000000 884985024 884985024 -5.00000000
-10.39829636 3.34653735 2.12332249 25 11 28784 11.12800000 884985026 884985026 11.00000000
-4.31743336 1.39033341 -0.23770991 6 12 28785 4.54200000 884985029 884985029 -3.00000000
-4.26321411 1.37451589 -0.07818678 7 14 28787 4.48000000 884985033 884985033 -1.00000000
-8.43157387 2.72007418 2.37388825 2 15 28788 9.17200000 884985036 884985036 15.00000000
-1.90960324 0.61825764 -0.53782600 4 0 28794 2.07800000 884985056 884985056 -15.00000000
-4.43821001 1.43778121 0.08143293 8 1 28795 4.66600000 884985059 884985059 1.00000000
-2.19673157 0.71206623 -0.53313398 4 2 28796 2.37000000 884985061 884985061 -13.00000000
-4.41165304 1.43002868 0.24304818 5 3 28796 4.64400000 884985063 884985063 3.00000000
-2.56592202 0.83223349 -0.52434313 3 4 28797 2.74800000 884985066 884985066 -11.00000000
-3.10002232 1.00666010 -0.51623374 3 6 28799 3.30000000 884985070 884985070 -9.00000000
-3.87759852 1.26065636 -0.50063926 6 8 28801 4.10800000 884985075 884985075 -7.00000000
-5.14779091 1.67460549 -0.47360429 6 10 28802 5.43400000 884985079 884985079 -5.00000000
-10.40954399 3.38829279 2.12790203 25 11 28803 11.15200000 884985082 884985082 11.00000000
-4.34508324 1.41515768 -0.23948933 4 12 28804 4.57600000 884985084 884985084 -3.00000000
-4.26243496 1.38988554 -0.07825659 7 14 28806 4.48400000 884985089 884985089 -1.00000000
-8.42665958 2.74774718 2.37492347 2 15 28806 9.17600000 884985091 884985091 15.00000000
-1.90926933 0.62552106 -0.53834361 4 0 28814 2.08000000 884985112 884985112 -15.00000000
-4.41036177 1.44578969 0.08101407 6 1 28815 4.64200000 884985114 884985114 1.00000000
-2.19793606 0.72094464 -0.53403378 4 2 28816 2.37400000 884985116 884985116 -13.00000000
-4.43699884 1.45537925 0.24472293 6 3 28816 4.67600000 884985119 884985119 3.00000000
-2.55367446 0.83812410 -0.52243501 3 4 28817 2.73800000 884985121 884985121 -11.00000000
-3.10024285 1.01870847 -0.51685947 3 6 28819 3.30400000 884985125 884985125 -9.00000000
-3.87317443 1.27418399 -0.50063926 6 8 28821 4.10800000 884985130 884985130 -7.00000000
-5.13812923 1.69131851 -0.47325569 6 10 28822 5.43000000 884985135 884985135 -5.00000000
-10.42375946 3.43320656 2.13324451 25 11 28823 11.18000000 884985137 884985137 11.00000000
-4.38184881 1.44406927 -0.24179211 4 12 28824 4.62000000 884985139 884985139 -3.00000000
-4.26515341 1.40726197 -0.07839621 7 14 28826 4.49200000 884985144 884985144 -1.00000000
-8.40002251 2.77316332 2.37026477 2 15 28827 9.15800000 884985146 884985146 15.00000000
-1.89251387 0.62698865 -0.53420252 4 0 28833 2.06400000 884985167 884985167 -15.00000000
-4.39605284 1.45726097 0.08083954 4 1 28834 4.63200000 884985169 884985169 1.00000000
-2.20293188 0.73068333 -0.53583342 4 2 28835 2.38200000 884985172 884985172 -13.00000000
-2.56019783 0.84967977 -0.52434313 3 4 28836 2.74800000 884985176 884985176 -11.00000000
-3.08559990 1.02524638 -0.51498228 3 6 28838 3.29200000 884985181 884985181 -9.00000000
-3.85950971 1.28388798 -0.49942058 6 8 28840 4.09800000 884985185 884985185 -7.00000000
-5.14005375 1.71086478 -0.47395292 6 10 28841 5.43800000 884985190 884985190 -5.00000000
-10.42535591 3.47209668 2.13591599 21 11 28842 11.19400000 884985192 884985192 11.00000000
-4.42440653 1.47437763 -0.24440892 2 12 28843 4.67000000 884985195 884985195 -3.00000000
-4.27563858 1.42646086 -0.07867545 5 14 28845 4.50800000 884985199 884985199 -1.00000000
-8.38393879 2.79709339 2.36819434 2 15 28845 9.15000000 884985202 884985202 15.00000000
-1.89580894 0.63543272 -0.53575540 4 0 28853 2.07000000 884985222 884985222 -15.00000000
-4.41179419 1.47959137 0.08122350 6 1 28854 4.65400000 884985225 884985225 1.00000000
-2.19852018 0.73774856 -0.53538352 4 2 28855 2.38000000 884985227 884985227 -13.00000000
-2.56093860 0.85986114 -0.52510637 3 4 28856 2.75200000 884985231 884985231 -11.00000000
-3.07825756 1.03475201 -0.51435649 3 6 28858 3.28800000 884985236 884985236 -9.00000000
-3.88322568 1.30684984 -0.50307667 6 8 28860 4.12800000 884985241 884985241 -7.00000000
-5.14160347 1.73133981 -0.47465017 10 10 28861 5.44600000 884985245 884985245 -5.00000000
-10.42061424 3.51097417 2.13744235 21 11 28862 11.20200000 884985248 884985248 11.00000000
-7.83917093 2.64274263 -0.43355107 12 12 28863 8.28400000 884985250 884985250 -3.00000000
-9.54281521 3.21893048 2.32509398 15 13 28864 10.33600000 884985252 884985252 13.00000000
-4.30094814 1.45160854 -0.07923392 5 14 28865 4.54000000 884985255 884985255 -1.00000000
-8.46331501 2.85809016 2.39355850 2 15 28866 9.24800000 884985257 884985257 15.00000000
-1.89712608 0.64361829 -0.53679073 4 0 28874 2.07400000 884985278 884985278 -15.00000000
-4.38740587 1.48932362 0.08087445 6 1 28875 4.63400000 884985280 884985280 1.00000000
-2.19026589 0.74392146 -0.53403378 4 2 28876 2.37400000 884985282 884985282 -13.00000000
-2.55962873 0.86987340 -0.52548796 3 4 28877 2.75400000 884985287 884985287 -11.00000000
-3.07818460 1.04729998 -0.51498228 3 6 28879 3.29200000 884985291 884985291 -9.00000000
-3.85586071 1.31339312 -0.50015181 6 8 28881 4.10400000 884985296 884985296 -7.00000000
-5.14276648 1.75274408 -0.47534743 10 10 28882 5.45400000 884985301 884985301 -5.00000000
-10.45598888 3.56561923 2.14736438 15 11 28883 11.25400000 884985303 884985303 11.00000000
-7.82565165 2.67016697 -0.43334171 12 12 28884 8.28000000 884985305 884985305 -3.00000000
-9.43505287 3.22114468 2.30169916 16 13 28885 10.23200000 884985308 884985308 13.00000000
-4.31830692 1.47511959 -0.07965279 5 14 28886 4.56400000 884985310 884985310 -1.00000000
-9.57210445 3.26979971 2.71035314 40 15 28886 10.47200000 884985312 884985312 15.00000000
-1.90034962 0.65211767 -0.53834361 4 0 28894 2.08000000 884985333 884985333 -15.00000000
-4.44270277 1.52540982 0.08199140 2 1 28895 4.69800000 884985335 884985335 1.00000000
-2.18396974 0.75029606 -0.53313398 4 2 28896 2.37000000 884985337 884985337 -13.00000000
-2.54543686 0.87497365 -0.52319825 3 4 28897 2.74200000 884985342 884985342 -11.00000000
-3.09692430 1.06575203 -0.51873666 3 6 28899 3.31600000 884985347 884985347 -9.00000000
-3.86626744 1.33201742 -0.50210172 6 8 28901 4.12000000 884985351 884985351 -7.00000000
-5.12908268 1.76808774 -0.47465017 10 10 28902 5.44600000 884985356 884985356 -5.00000000
-10.62907505 3.66611028 2.18552613 28 11 28903 11.45400000 884985358 884985358 11.00000000
-7.82383537 2.70007372 -0.43376040 12 12 28904 8.28800000 884985360 884985360 -3.00000000
-9.36112309 3.23243380 2.28640246 15 13 28905 10.16400000 884985363 884985363 13.00000000
-4.35660267 1.50520360 -0.08045559 1 14 28906 4.61000000 884985365 884985365 -1.00000000
-9.55275249 3.30233645 2.70828247 42 15 28907 10.46400000 884985367 884985367 15.00000000
-1.89441156 0.65748036 -0.53730834 4 0 28914 2.07600000 884985388 884985388 -15.00000000
-2.19054151 0.76111293 -0.53538352 4 2 28916 2.38000000 884985393 884985393 -13.00000000
-2.54236698 0.88385355 -0.52319825 3 4 28917 2.74200000 884985397 884985397 -11.00000000
-3.09878230 1.07850373 -0.51967531 1 6 28919 3.32200000 884985402 884985402 -9.00000000
-3.85784507 1.34419882 -0.50161421 6 8 28921 4.11600000 884985407 884985407 -7.00000000
-5.13040495 1.78860426 -0.47534743 10 10 28922 5.45400000 884985411 884985411 -5.00000000
-10.76451015 3.75491977 2.21605563 31 11 28923 11.61400000 884985413 884985413 11.00000000
-7.83321953 2.73394895 -0.43480712 12 12 28924 8.30800000 884985416 884985416 -3.00000000
-9.31850719 3.25416827 2.27875423 14 13 28925 10.13000000 884985418 884985418 13.00000000
-9.55451488 3.33845711 2.71190596 47 15 28926 10.47800000 884985423 884985423 15.00000000
-1.88481367 0.66152996 -0.53523779 4 0 28934 2.06800000 884985443 884985443 -15.00000000
-2.19706392 0.77198476 -0.53763300 4 2 28936 2.39000000 884985448 884985448 -13.00000000
-2.55037904 0.89662957 -0.52548796 3 4 28937 2.75400000 884985453 884985453 -11.00000000
-3.07636523 1.08275580 -0.51654661 1 6 28939 3.30200000 884985457 884985457 -9.00000000
-3.87559676 1.36557341 -0.50453907 6 8 28941 4.14000000 884985462 884985462 -7.00000000
-5.11285591 1.80252719 -0.47430155 10 10 28942 5.44200000 884985466 884985466 -5.00000000
-7.85941315 2.77390528 -0.43679589 12 12 28944 8.34600000 884985471 884985471 -3.00000000
-9.52400112 3.36701465 2.70672965 47 15 28947 10.45800000 884985478 884985478 15.00000000
-1.88625097 0.66906822 -0.53627306 4 0 28953 2.07200000 884985499 884985499 -15.00000000
-2.18347359 0.77535361 -0.53493363 4 2 28955 2.37800000 884985503 884985503 -13.00000000
-2.54924178 0.90573931 -0.52586961 3 4 28956 2.75600000 884985508 884985508 -11.00000000
-3.05414629 1.08633149 -0.51341790 1 6 28958 3.28200000 884985513 884985513 -9.00000000
-3.86356664 1.37575424 -0.50356412 6 8 28960 4.13200000 884985517 884985517 -7.00000000
-5.12374210 1.82549024 -0.47587034 10 10 28961 5.46000000 884985522 884985522 -5.00000000
-7.85581493 2.80196548 -0.43710992 8 12 28963 8.35200000 884985526 884985526 -3.00000000
-9.50973701 3.39561915 2.70569420 47 15 28965 10.45400000 884985533 884985533 15.00000000
-1.89117777 0.67825705 -0.53834361 4 0 28973 2.08000000 884985554 884985554 -15.00000000
-2.18442202 0.78428763 -0.53583342 4 2 28975 2.38200000 884985559 884985559 -13.00000000
-2.55715060 0.91861475 -0.52815932 3 4 28976 2.76800000 884985563 884985563 -11.00000000
-3.08379459 1.10901856 -0.51904953 1 6 28978 3.31800000 884985568 884985568 -9.00000000
-3.86994720 1.39326680 -0.50502658 6 8 28980 4.14400000 884985572 884985572 -7.00000000
-5.12296200 1.84538996 -0.47639328 10 10 28981 5.46600000 884985577 884985577 -5.00000000
-5.41290379 1.95196748 -0.30155978 3 12 28983 5.76200000 884985582 884985582 -3.00000000
-5.38684940 1.94469690 -0.09996738 2 14 28985 5.72800000 884985586 884985586 -1.00000000
-9.50086212 3.43176389 2.70672965 47 15 28986 10.45800000 884985589 884985589 15.00000000
-1.89606333 0.68748844 -0.54041415 4 0 28993 2.08800000 884985609 884985609 -15.00000000
-5.34995127 1.94088078 0.09933910 7 1 28994 5.69200000 884985612 884985612 1.00000000
-2.18167090 0.79190791 -0.53583342 4 2 28995 2.38200000 884985614 884985614 -13.00000000
-5.34275627 1.94038117 0.29789627 2 3 28996 5.69200000 884985616 884985616 3.00000000
-2.56315494 0.93088615 -0.53006738 3 4 28996 2.77800000 884985619 884985619 -11.00000000
-3.09104347 1.12382603 -0.52092677 1 6 28998 3.33000000 884985623 884985623 -9.00000000
-3.86506033 1.40676689 -0.50502658 6 8 29000 4.14400000 884985628 884985628 -7.00000000
-5.13146639 1.86871529 -0.47778779 13 10 29001 5.48200000 884985632 884985632 -5.00000000
-5.34038162 1.94690716 -0.29789627 9 12 29003 5.69200000 884985637 884985637 -3.00000000
-5.32555151 1.94360697 -0.09895515 6 14 29005 5.67000000 884985642 884985642 -1.00000000
-9.48761463 3.46258855 2.70621204 47 15 29005 10.45600000 884985644 884985644 15.00000000
-1.88639665 0.69144332 -0.53834361 4 0 29013 2.08000000 884985665 884985665 -15.00000000
-5.31498241 1.94921589 0.09881552 7 1 29014 5.66200000 884985667 884985667 1.00000000
-2.18255234 0.80086112 -0.53673321 4 2 29015 2.38600000 884985669 884985669 -13.00000000
-5.30970192 1.94938231 0.29643086 6 3 29016 5.66400000 884985672 884985672 3.00000000
-2.53040242 0.92900163 -0.52396148 3 4 29016 2.74600000 884985674 884985674 -11.00000000
-5.32633972 1.95654559 0.49643910 9 5 29017 5.69600000 884985676 884985676 5.00000000
-3.09637237 1.13801622 -0.52249110 3 6 29018 3.34000000 884985678 884985678 -9.00000000
-5.31919289 1.95602798 0.69587398 7 7 29019 5.71000000 884985681 884985681 7.00000000
-3.84522223 1.41476631 -0.50307667 6 8 29020 4.12800000 884985683 884985683 -7.00000000
-5.30765057 1.95283520 0.89574373 7 9 29020 5.72600000 884985685 884985685 9.00000000
-5.12304211 1.88592780 -0.47761348 13 10 29021 5.48000000 884985688 884985688 -5.00000000
-5.29419804 1.95103347 -0.29569817 9 12 29023 5.65000000 884985692 884985692 -3.00000000
-5.27746058 1.94695795 -0.09818724 6 14 29025 5.62600000 884985697 884985697 -1.00000000
-1.87491405 0.69466799 -0.53575540 4 0 29033 2.07000000 884985720 884985720 -15.00000000
-5.27064562 1.95385528 0.09811743 7 1 29034 5.62200000 884985722 884985722 1.00000000
-2.19070625 0.81254089 -0.53943264 4 2 29035 2.39800000 884985725 884985725 -13.00000000
-5.26541519 1.95400715 0.29433742 6 3 29036 5.62400000 884985727 884985727 3.00000000
-2.54555011 0.94465923 -0.52777767 3 4 29036 2.76600000 884985729 884985729 -11.00000000
-5.25223684 1.95015955 0.49016389 8 5 29037 5.62400000 884985731 884985731 5.00000000
-3.07941914 1.14400220 -0.52030104 3 6 29038 3.32600000 884985734 884985734 -9.00000000
-5.27511835 1.96075106 0.69099915 7 7 29039 5.67000000 884985736 884985736 7.00000000
-3.87002993 1.43925118 -0.50697649 6 8 29040 4.16000000 884985738 884985738 -7.00000000
-5.26343012 1.95849788 0.88948637 9 9 29041 5.68600000 884985741 884985741 9.00000000
-5.10895872 1.90101981 -0.47691622 13 10 29041 5.47200000 884985743 884985743 -5.00000000
-5.27494717 1.96383154 1.09409881 8 11 29042 5.73400000 884985745 884985745 11.00000000
-5.26863909 1.96253002 -0.29465142 8 12 29043 5.63000000 884985748 884985748 -3.00000000
-5.25535583 1.95862675 1.29481828 7 13 29044 5.75600000 884985750 884985750 13.00000000
-5.23690605 1.95279181 -0.09755895 6 14 29045 5.59000000 884985752 884985752 -1.00000000
-5.25291443 1.95876110 1.50218570 6 15 29045 5.80400000 884985754 884985754 15.00000000
-1.88333273 0.70527339 -0.53886127 4 0 29053 2.08200000 884985775 884985775 -15.00000000
-5.22634220 1.95820904 0.09741934 7 1 29054 5.58200000 884985778 884985778 1.00000000
-2.18420720 0.81881481 -0.53853285 4 2 29055 2.39400000 884985780 884985780 -13.00000000
-5.23238182 1.96255517 0.29287201 6 3 29056 5.59600000 884985782 884985782 3.00000000
-2.54223728 0.95353907 -0.52777767 3 4 29056 2.76600000 884985784 884985784 -11.00000000
-5.22487879 1.96078110 0.48824647 8 5 29057 5.60200000 884985787 884985787 5.00000000
-3.06246185 1.14988387 -0.51811093 3 6 29058 3.31200000 884985789 884985789 -9.00000000
-5.23479271 1.96658671 0.68661189 7 7 29059 5.63400000 884985791 884985791 7.00000000
-3.85383344 1.44856071 -0.50551403 6 8 29060 4.14800000 884985794 884985794 -7.00000000
-5.22697830 1.96573329 0.88448048 9 9 29061 5.65400000 884985796 884985796 9.00000000
-5.11348104 1.92304981 -0.47796211 13 10 29061 5.48400000 884985798 884985798 -5.00000000
-5.22396040 1.96563911 1.08493996 8 11 29062 5.68600000 884985801 884985801 11.00000000
-5.20568085 1.95979822 -0.29151127 11 12 29063 5.57000000 884985803 884985803 -3.00000000
-5.21930838 1.96596861 1.28761983 7 13 29064 5.72400000 884985805 884985805 13.00000000
-5.18140602 1.95272470 -0.09665143 6 14 29065 5.53800000 884985807 884985807 -1.00000000
-5.20773983 1.96368718 1.49131536 6 15 29066 5.76200000 884985810 884985810 15.00000000
-1.88266611 0.71252698 -0.53937888 4 0 29073 2.08400000 884985831 884985831 -15.00000000
-5.16337156 1.95519602 0.09637219 7 1 29074 5.52200000 884985833 884985833 1.00000000
-2.17404628 0.82367247 -0.53673321 4 2 29075 2.38600000 884985835 884985835 -13.00000000
-5.18814754 1.96664882 0.29077858 6 3 29076 5.55600000 884985837 884985837 3.00000000
-2.54256487 0.96379912 -0.52854091 3 4 29076 2.77000000 884985840 884985840 -11.00000000
-5.19192171 1.96911585 0.48580611 11 5 29077 5.57400000 884985842 884985842 5.00000000
-3.06212306 1.16196847 -0.51873666 1 6 29078 3.31600000 884985844 884985844 -9.00000000
-5.18150043 1.96723258 0.68051839 10 7 29079 5.58400000 884985847 884985847 7.00000000
-3.85246491 1.46341407 -0.50600153 6 8 29080 4.15200000 884985849 884985849 -7.00000000
-5.19423389 1.97414172 0.88010031 9 9 29081 5.62600000 884985851 884985851 9.00000000
-5.11232424 1.94301093 -0.47848502 16 10 29081 5.49000000 884985854 884985854 -5.00000000
-5.17302608 1.96711481 1.07578111 8 11 29082 5.63800000 884985856 884985856 11.00000000
-5.15027332 1.95949173 -0.28878981 11 12 29083 5.51800000 884985858 884985858 -3.00000000
-5.17781019 1.97100306 1.27907169 8 13 29084 5.68600000 884985860 884985860 13.00000000
-5.15400219 1.96297014 -0.09626748 10 14 29085 5.51600000 884985863 884985863 -1.00000000
-5.18134069 1.97338247 1.48562133 6 15 29085 5.74000000 884985865 884985865 15.00000000
-1.89279819 0.72392511 -0.54300237 4 0 29093 2.09800000 884985886 884985886 -15.00000000
-5.13783884 1.96606088 0.09602314 7 1 29094 5.50200000 884985888 884985888 1.00000000
-2.16023827 0.82707560 -0.53403378 4 2 29095 2.37400000 884985890 884985890 -13.00000000
-5.12902832 1.96474230 0.28784776 6 3 29096 5.50000000 884985893 884985893 3.00000000
-2.54468513 0.97477531 -0.52968580 3 4 29096 2.77600000 884985895 884985895 -11.00000000
-5.16455173 1.97938371 0.48388869 11 5 29097 5.55200000 884985897 884985897 5.00000000
-3.06911492 1.17689383 -0.52061391 3 6 29098 3.32800000 884985900 884985900 -9.00000000
-5.13382769 1.96966386 0.67515618 10 7 29099 5.54000000 884985902 884985902 7.00000000
-3.86215901 1.48254395 -0.50795144 6 8 29100 4.16800000 884985904 884985904 -7.00000000
-5.14120960 1.97455513 0.87227857 9 9 29101 5.57600000 884985907 884985907 9.00000000
-5.09807110 1.95798707 -0.47778779 13 10 29101 5.48200000 884985909 884985909 -5.00000000
-5.12947559 1.97107589 1.06814873 8 11 29102 5.59800000 884985911 884985911 11.00000000
-5.12289572 1.96957362 -0.28763843 11 12 29103 5.49600000 884985913 884985913 -3.00000000
-5.11633396 1.96807587 1.26557457 9 13 29104 5.62600000 884985916 884985916 13.00000000
-5.10979366 1.96658385 -0.09556938 10 14 29105 5.47600000 884985918 884985918 -1.00000000
-5.14377069 1.97966051 1.47682142 8 15 29105 5.70600000 884985920 884985920 15.00000000
-1.87764585 0.72565299 -0.53937888 4 0 29113 2.08400000 884985941 884985941 -15.00000000
-5.09364223 1.96955955 0.09532505 7 1 29114 5.46200000 884985943 884985943 1.00000000
-2.17006040 0.83953309 -0.53718311 4 2 29115 2.38800000 884985946 884985946 -13.00000000
-5.07591677 1.96372414 0.28523096 6 3 29115 5.45000000 884985948 884985948 3.00000000
-2.52112722 0.97585648 -0.52548796 3 4 29116 2.75400000 884985950 884985950 -11.00000000
-5.09629917 1.97365499 0.47813639 11 5 29117 5.48600000 884985953 884985953 5.00000000
-3.07419777 1.19116831 -0.52217823 1 6 29118 3.33800000 884985955 884985955 -9.00000000
-5.09730721 1.97609174 0.67125636 10 7 29119 5.50800000 884985957 884985957 7.00000000
-3.85696054 1.49601638 -0.50795144 6 8 29120 4.16800000 884985959 884985959 -7.00000000
-5.08859158 1.97373450 0.86445683 9 9 29120 5.52600000 884985962 884985962 9.00000000
