# .PCD v0.7 - Point Cloud Data file format
VERSION 0.7
FIELDS x y z intensity laser_id azimuth distance_m adjustedtime timestamp vertical_angle
SIZE 4 4 4 1 1 2 8 8 4 8
TYPE F F F U U U F U U F
COUNT 1 1 1 1 1 1 1 1 1 1
WIDTH 551
HEIGHT 1
VIEWPOINT 0 0 0 1 0 0 0
POINTS 551
DATA ascii
7.57930756 5.03377342 0.15881690 21 1 5641 9.10000000 887420741 887420741 1.00000000
7.56074858 5.01954603 -2.09519410 8 2 5642 9.31400000 887420743 887420743 -13.00000000
7.60011816 5.04377222 0.47803661 13 3 5643 9.13400000 887420746 887420746 3.00000000
2.70071387 1.79231238 -0.63005131 5 4 5643 3.30200000 887420748 887420748 -11.00000000
7.59242725 5.03675985 0.79712641 75 5 5644 9.14600000 887420750 887420750 5.00000000
3.41439819 2.26422834 -0.64889014 4 6 5645 4.14800000 887420753 887420753 -9.00000000
7.60608149 5.04199553 1.12046671 92 7 5646 9.19400000 887420755 887420755 7.00000000
4.63996506 3.07462096 -0.68344325 6 8 5647 5.60800000 887420757 887420757 -7.00000000
7.13749456 4.72778845 -0.74901646 13 10 5648 8.59400000 887420762 887420762 -5.00000000
7.57463026 5.01353836 -0.47604784 17 12 5650 9.09600000 887420766 887420766 -3.00000000
7.65963554 5.06788015 2.12038875 74 13 5651 9.42600000 887420769 887420769 13.00000000
7.58228636 5.01480055 -0.15867728 16 14 5652 9.09200000 887420771 887420771 -1.00000000
7.33793211 4.85318851 2.35732388 42 15 5652 9.10800000 887420773 887420773 15.00000000
1.91439629 1.26231170 -0.61443639 4 0 5660 2.37400000 887420794 887420794 -15.00000000
7.58681488 5.00068283 0.15860747 21 1 5661 9.08800000 887420796 887420796 1.00000000
7.55706930 4.97918510 -2.08934546 8 2 5662 9.28800000 887420799 887420799 -13.00000000
7.60433388 5.00842381 0.47719926 13 3 5663 9.11800000 887420801 887420801 3.00000000
2.70695376 1.78287423 -0.63005131 5 4 5663 3.30200000 887420803 887420803 -11.00000000
7.60996294 5.01022673 0.79712641 82 5 5664 9.14600000 887420806 887420806 5.00000000
3.41238046 2.24578023 -0.64701295 6 6 5665 4.13600000 887420808 887420808 -9.00000000
7.60870934 5.00559521 1.11827314 99 7 5666 9.17600000 887420810 887420810 7.00000000
4.63740063 3.04967976 -0.68149334 9 8 5667 5.59200000 887420812 887420812 -7.00000000
7.14729452 4.69846725 -0.74831921 13 10 5668 8.58600000 887420817 887420817 -5.00000000
7.57706070 4.97719860 -0.47510582 17 12 5670 9.07800000 887420822 887420822 -3.00000000
7.64958715 5.02292871 2.11274028 75 13 5671 9.39200000 887420824 887420824 13.00000000
7.59472942 4.98501062 -0.15857257 16 14 5672 9.08600000 887420826 887420826 -1.00000000
7.35890102 4.82838058 2.35835910 42 15 5673 9.11200000 887420829 887420829 15.00000000
1.92040741 1.25667942 -0.61495405 4 0 5680 2.37600000 887420849 887420849 -15.00000000
7.58414268 4.96103334 0.15818861 21 1 5681 9.06400000 887420852 887420852 1.00000000
7.56135559 4.94424391 -2.08574629 10 2 5682 9.27200000 887420854 887420854 -13.00000000
7.60839605 4.97310734 0.47636187 13 3 5683 9.10200000 887420856 887420856 3.00000000
2.70987391 1.77126610 -0.62928808 5 4 5683 3.29800000 887420859 887420859 -11.00000000
7.61739779 4.97709370 0.79608053 82 5 5684 9.13400000 887420861 887420861 5.00000000
3.42681456 2.23817587 -0.64826441 6 6 5685 4.14400000 887420863 887420863 -9.00000000
7.61616278 4.97249413 1.11681068 99 7 5686 9.16400000 887420865 887420865 7.00000000
4.63970566 3.02804899 -0.68027467 9 8 5687 5.58200000 887420868 887420868 -7.00000000
7.68396759 5.01485062 1.45327616 2 9 5687 9.29000000 887420870 887420870 9.00000000
7.18200731 4.68546486 -0.75023663 13 10 5688 8.60800000 887420872 887420872 -5.00000000
7.58602285 4.94526577 -0.47458246 17 12 5690 9.06800000 887420877 887420877 -3.00000000
7.64584875 4.98236465 2.10689163 75 13 5691 9.36600000 887420879 887420879 13.00000000
7.59197760 4.94537258 -0.15815371 16 14 5692 9.06200000 887420882 887420882 -1.00000000
7.37810946 4.80605984 2.35939431 42 15 5692 9.11600000 887420884 887420884 15.00000000
1.92316210 1.24891603 -0.61443639 4 0 5700 2.37400000 887420905 887420905 -15.00000000
7.60141373 4.93452978 0.15818861 15 1 5701 9.06400000 887420907 887420907 1.00000000
7.57693338 4.91675901 -2.08529639 8 2 5702 9.27000000 887420909 887420909 -13.00000000
7.60727739 4.93456268 0.47521049 13 3 5703 9.08000000 887420912 887420912 3.00000000
2.71933460 1.76393282 -0.63005131 5 4 5703 3.30200000 887420914 887420914 -11.00000000
7.61466408 4.93746614 0.79398882 78 5 5704 9.11000000 887420916 887420916 5.00000000
3.44123673 2.23049831 -0.64951593 6 6 5705 4.15200000 887420918 887420918 -9.00000000
7.62014580 4.93724298 1.11486077 100 7 5706 9.14800000 887420921 887420921 7.00000000
4.64524889 3.00859761 -0.67954344 9 8 5707 5.57600000 887420923 887420923 -7.00000000
7.68650389 4.97833347 1.45046031 2 9 5707 9.27200000 887420925 887420925 9.00000000
7.19162893 4.65603542 -0.74953938 13 10 5708 8.60000000 887420928 887420928 -5.00000000
7.60156155 4.91767073 -0.47447777 17 12 5710 9.06600000 887420932 887420932 -3.00000000
7.65010309 4.94717979 2.10329247 74 13 5711 9.35000000 887420935 887420935 13.00000000
7.58904171 4.90581417 -0.15773486 16 14 5712 9.03800000 887420937 887420937 -1.00000000
7.39159632 4.77817869 2.35835910 40 15 5712 9.11200000 887420939 887420939 15.00000000
1.92404580 1.24043822 -0.61340111 4 0 5719 2.37000000 887420960 887420960 -15.00000000
7.60260725 4.89954615 0.15787446 12 1 5720 9.04600000 887420962 887420962 1.00000000
7.58336687 4.88527346 -2.08259678 8 2 5721 9.25800000 887420965 887420965 -13.00000000
7.62191963 4.90822744 0.47510582 13 3 5722 9.07800000 887420967 887420967 3.00000000
2.72186780 1.75277960 -0.62928808 5 4 5722 3.29800000 887420969 887420969 -11.00000000
7.61424255 4.90140390 0.79224569 93 5 5723 9.09000000 887420971 887420971 5.00000000
3.44695330 2.21800542 -0.64920300 6 6 5724 4.15000000 887420974 887420974 -9.00000000
7.62645912 4.90550327 1.11339831 99 7 5725 9.13600000 887420976 887420976 7.00000000
4.66855812 3.00176573 -0.68149334 9 8 5726 5.59200000 887420978 887420978 -7.00000000
7.70051146 4.94933605 1.44983459 2 9 5727 9.26800000 887420981 887420981 9.00000000
7.20032501 4.62785244 -0.74884212 13 10 5727 8.59200000 887420983 887420983 -5.00000000
7.60774422 4.88596010 -0.47384974 17 12 5729 9.05400000 887420988 887420988 -3.00000000
7.65990686 4.91757250 2.10149264 74 13 5730 9.34200000 887420990 887420990 13.00000000
7.59853601 4.87630081 -0.15759523 16 14 5731 9.03000000 887420992 887420992 -1.00000000
7.40740061 4.75364113 2.35835910 42 15 5731 9.11200000 887420994 887420994 15.00000000
1.92836392 1.23371446 -0.61340111 4 0 5739 2.37000000 887421015 887421015 -15.00000000
7.59439421 4.85681772 0.15735090 12 1 5740 9.01600000 887421018 887421018 1.00000000
7.58559656 4.84932613 -2.07854772 8 2 5741 9.24000000 887421020 887421020 -13.00000000
7.62722540 4.87406397 0.47437310 13 3 5742 9.06400000 887421022 887421022 3.00000000
2.73458672 1.74749660 -0.63081455 5 4 5742 3.30600000 887421024 887421024 -11.00000000
7.61451483 4.86406946 0.79050261 86 5 5743 9.07000000 887421027 887421027 5.00000000
3.43636060 2.19426560 -0.64576149 6 6 5744 4.12800000 887421029 887421029 -9.00000000
7.62680340 4.86817169 1.11096096 100 7 5745 9.11600000 887421031 887421031 7.00000000
4.67900753 2.98545098 -0.68149334 9 8 5746 5.59200000 887421034 887421034 -7.00000000
7.70441723 4.91392803 1.44733167 2 9 5747 9.25200000 887421036 887421036 9.00000000
7.22651434 4.60911846 -0.74988800 13 10 5747 8.60400000 887421038 887421038 -5.00000000
7.60622597 4.84756708 -0.47269836 17 12 5749 9.03200000 887421043 887421043 -3.00000000
7.66880798 4.88556957 2.09924316 72 13 5750 9.33200000 887421045 887421045 13.00000000
7.59864426 4.83900595 -0.15724619 18 14 5751 9.01000000 887421047 887421047 -1.00000000
7.41825485 4.72231007 2.35628867 42 15 5752 9.10400000 887421050 887421050 15.00000000
1.94081342 1.23215282 -0.61598933 4 0 5759 2.38000000 887421071 887421071 -15.00000000
7.60454750 4.82599258 0.15721127 12 1 5760 9.00800000 887421073 887421073 1.00000000
7.58273077 4.81029129 -2.07314897 8 2 5761 9.21600000 887421075 887421075 -13.00000000
7.62395191 4.83457470 0.47311705 15 3 5762 9.04000000 887421077 887421077 3.00000000
2.74564409 1.74109459 -0.63195938 5 4 5762 3.31200000 887421080 887421080 -11.00000000
7.61798477 4.82892656 0.78910810 78 5 5763 9.05400000 887421082 887421082 5.00000000
3.45401073 2.18860078 -0.64763868 6 6 5764 4.14000000 887421084 887421084 -9.00000000
7.62027168 4.82664871 1.10754859 99 7 5765 9.08800000 887421087 887421087 7.00000000
4.67933750 2.96272850 -0.68003094 9 8 5766 5.58000000 887421089 887421089 -7.00000000
7.76492119 4.91447163 1.45546627 2 9 5767 9.30400000 887421091 887421091 9.00000000
7.24424267 4.58493090 -0.75006235 13 10 5767 8.60600000 887421094 887421094 -5.00000000
7.60959673 4.81244659 -0.47186098 17 12 5769 9.01600000 887421098 887421098 -3.00000000
7.66934299 4.84835720 2.09474421 72 13 5770 9.31200000 887421100 887421100 13.00000000
7.61548901 4.81245232 -0.15724619 16 14 5771 9.01000000 887421103 887421103 -1.00000000
6.57322979 4.15381813 2.08349323 22 15 5771 8.05000000 887421105 887421105 15.00000000
1.94346797 1.22434092 -0.61547166 4 0 5779 2.37800000 887421126 887421126 -15.00000000
7.61119413 4.79302502 0.15700185 12 1 5780 8.99600000 887421128 887421128 1.00000000
7.58958054 4.77756405 -2.07044959 8 2 5781 9.20400000 887421130 887421130 -13.00000000
7.61880589 4.79410458 0.47175631 13 3 5782 9.01400000 887421133 887421133 3.00000000
2.74007320 1.72418070 -0.62928808 5 4 5782 3.29800000 887421135 887421135 -11.00000000
7.62467527 4.79594088 0.78806221 78 5 5783 9.04200000 887421137 887421137 5.00000000
3.45828485 2.17442775 -0.64701295 6 6 5784 4.13600000 887421140 887421140 -9.00000000
7.62698936 4.79368162 1.10608613 99 7 5785 9.07600000 887421142 887421142 7.00000000
4.69637394 2.95060086 -0.68100590 9 8 5786 5.58800000 887421144 887421144 -7.00000000
7.79875708 4.89784336 1.45859492 2 9 5787 9.32400000 887421147 887421147 9.00000000
7.27370071 4.56809282 -0.75145680 13 10 5787 8.62200000 887421149 887421149 -5.00000000
7.61450672 4.77842331 -0.47112828 17 12 5789 9.00200000 887421153 887421153 -3.00000000
7.66971207 4.81120110 2.09024525 68 13 5790 9.29200000 887421156 887421156 13.00000000
7.60682869 4.76990509 -0.15672261 14 14 5791 8.98000000 887421158 887421158 -1.00000000
6.57786942 4.12469006 2.08038759 40 15 5791 8.03800000 887421160 887421160 15.00000000
1.94138920 1.21311462 -0.61340111 4 0 5800 2.37000000 887421181 887421181 -15.00000000
7.61344624 4.75556183 0.15668771 12 1 5801 8.97800000 887421183 887421183 1.00000000
7.60704041 4.74971485 -2.07044959 8 2 5802 9.20400000 887421186 887421186 -13.00000000
7.62871742 4.76324987 0.47133762 13 3 5802 9.00600000 887421188 887421188 3.00000000
2.74304342 1.71204734 -0.62852484 5 4 5803 3.29400000 887421190 887421190 -11.00000000
7.62360811 4.75636196 0.78614479 78 5 5804 9.02000000 887421193 887421193 5.00000000
3.48131633 2.17114592 -0.64982879 6 6 5805 4.15400000 887421195 887421195 -9.00000000
7.63440037 4.75939369 1.10462368 100 7 5806 9.06400000 887421197 887421197 7.00000000
4.71221113 2.93651748 -0.68173712 9 8 5807 5.59400000 887421199 887421199 -7.00000000
7.27348375 4.53086805 -0.74971372 13 10 5808 8.60200000 887421204 887421204 -5.00000000
7.61670876 4.74098396 -0.47018623 17 12 5810 8.98400000 887421209 887421209 -3.00000000
7.68067598 4.77894020 2.08844566 64 13 5811 9.28400000 887421211 887421211 13.00000000
7.61067581 4.73354340 -0.15644337 18 14 5812 8.96400000 887421213 887421213 -1.00000000
6.59950447 4.10463428 2.08245802 45 15 5812 8.04600000 887421216 887421216 15.00000000
1.94725382 1.20734847 -0.61391878 4 0 5820 2.37200000 887421236 887421236 -15.00000000
7.61810207 4.72158289 0.15644337 12 1 5821 8.96400000 887421239 887421239 1.00000000
7.61363411 4.71697474 -2.06774998 8 2 5822 9.19200000 887421241 887421241 -13.00000000
7.63933229 4.73105097 0.47091892 15 3 5823 8.99800000 887421243 887421243 3.00000000
2.75067186 1.70349550 -0.62890643 6 4 5823 3.29600000 887421246 887421246 -11.00000000
7.62152958 4.71818542 0.78422737 78 5 5824 8.99800000 887421248 887421248 5.00000000
3.48047495 2.15378332 -0.64826441 6 6 5825 4.14400000 887421250 887421250 -9.00000000
7.64759111 4.73062706 1.10413623 100 7 5826 9.06000000 887421252 887421252 7.00000000
4.71061420 2.91274309 -0.68003094 9 8 5827 5.58000000 887421255 887421255 -7.00000000
7.28586578 4.50335646 -0.74936509 13 10 5828 8.59800000 887421259 887421259 -5.00000000
7.62301588 4.70807076 -0.46955821 17 12 5830 8.97200000 887421264 887421264 -3.00000000
7.69067812 4.74800539 2.08664608 62 13 5831 9.27600000 887421266 887421266 13.00000000
7.62374926 4.70484781 -0.15637356 20 14 5832 8.96000000 887421269 887421269 -1.00000000
6.60135126 4.07230425 2.07831693 45 15 5833 8.03000000 887421271 887421271 15.00000000
1.95103717 1.20122504 -0.61391878 4 0 5838 2.37200000 887421292 887421292 -15.00000000
7.61416435 4.68609715 0.15605941 21 1 5839 8.94200000 887421294 887421294 1.00000000
7.59687901 4.67363119 -2.05920196 8 2 5840 9.15400000 887421296 887421296 -13.00000000
7.64823246 4.70522404 0.47060493 13 3 5840 8.99200000 887421299 887421299 3.00000000
2.76604390 1.70101619 -0.63119614 6 4 5841 3.30800000 887421301 887421301 -11.00000000
7.62613058 4.68795824 0.78318149 78 5 5842 8.98600000 887421303 887421303 5.00000000
3.47712612 2.13663340 -0.64638722 6 6 5843 4.13200000 887421305 887421305 -9.00000000
7.64042568 4.69307137 1.10096765 97 7 5844 9.03400000 887421308 887421308 7.00000000
4.72819996 2.90312338 -0.68124962 9 8 5845 5.59000000 887421310 887421310 -7.00000000
7.31016588 4.48669815 -0.75041097 13 10 5846 8.61000000 887421315 887421315 -5.00000000
7.62244606 4.67470169 -0.46861616 17 12 5848 8.95400000 887421319 887421319 -3.00000000
7.69558811 4.71771002 2.08394647 66 13 5849 9.26400000 887421322 887421322 13.00000000
7.61973715 4.66938066 -0.15598960 20 14 5850 8.93800000 887421324 887421324 -1.00000000
6.61669922 4.05471849 2.07935214 45 15 5850 8.03400000 887421326 887421326 15.00000000
1.95356977 1.19340026 -0.61340111 4 0 5858 2.37000000 887421347 887421347 -15.00000000
7.62535572 4.65636396 0.15595470 21 1 5859 8.93600000 887421349 887421349 1.00000000
7.58985996 4.63287020 -2.05290341 8 2 5860 9.12600000 887421351 887421351 -13.00000000
7.64415312 4.66601086 0.46934885 13 3 5860 8.96800000 887421354 887421354 3.00000000
2.77196479 1.69135058 -0.63119614 6 4 5861 3.30800000 887421356 887421356 -11.00000000
7.63904619 4.65923452 0.78283286 78 5 5862 8.98200000 887421358 887421358 5.00000000
3.48118997 2.12242627 -0.64576149 6 6 5863 4.12800000 887421361 887421361 -9.00000000
7.63981009 4.65604210 1.09853029 95 7 5864 9.01400000 887421363 887421363 7.00000000
4.73321915 2.88350272 -0.68051839 9 8 5865 5.58400000 887421365 887421365 -7.00000000
7.33088779 4.46426249 -0.75093389 13 10 5866 8.61600000 887421370 887421370 -5.00000000
7.61824274 4.63560724 -0.46736008 21 12 5868 8.93000000 887421375 887421375 -3.00000000
7.69535971 4.68069172 2.07944751 68 13 5869 9.24400000 887421377 887421377 13.00000000
7.62573767 4.63652134 -0.15578018 22 14 5870 8.92600000 887421379 887421379 -1.00000000
6.62751102 4.02959013 2.07831693 45 15 5870 8.03000000 887421381 887421381 15.00000000
1.96433198 1.19057906 -0.61547166 4 0 5878 2.37800000 887421402 887421402 -15.00000000
7.62959099 4.62246466 0.15571037 28 1 5879 8.92200000 887421404 887421404 1.00000000
2.30196500 1.39411950 -0.62131482 4 2 5880 2.76200000 887421407 887421407 -13.00000000
7.63728380 4.62348175 0.46788344 13 3 5881 8.94000000 887421409 887421409 3.00000000
2.77785182 1.68166423 -0.63119614 5 4 5881 3.30800000 887421411 887421411 -11.00000000
7.64503622 4.62635183 0.78178704 78 5 5882 8.97000000 887421414 887421414 5.00000000
3.49871850 2.11639619 -0.64763868 6 6 5883 4.14000000 887421416 887421416 -9.00000000
7.64922142 4.62523746 1.09755528 97 7 5884 9.00600000 887421418 887421418 7.00000000
4.75684643 2.87517786 -0.68246830 9 8 5885 5.60000000 887421421 887421421 -7.00000000
7.34983683 4.44070625 -0.75128251 13 10 5886 8.62000000 887421425 887421425 -5.00000000
7.62924814 4.60588980 -0.46704608 17 12 5888 8.92400000 887421430 887421430 -3.00000000
7.68829298 4.63970518 2.07314897 70 13 5889 9.21600000 887421432 887421432 13.00000000
7.62817764 4.60161114 -0.15550095 20 14 5890 8.91000000 887421434 887421434 -1.00000000
6.65216208 4.01125717 2.08142281 45 15 5891 8.04200000 887421437 887421437 15.00000000
1.96516478 1.18172395 -0.61443639 4 0 5898 2.37400000 887421457 887421457 -15.00000000
7.63711023 4.59065342 0.15553585 15 1 5899 8.91200000 887421460 887421460 1.00000000
2.31683969 1.39209771 -0.62401420 4 2 5900 2.77400000 887421462 887421462 -13.00000000
7.64401388 4.59298706 0.46736008 13 3 5900 8.93000000 887421464 887421464 3.00000000
2.77024078 1.66387069 -0.62814319 5 4 5901 3.29200000 887421467 887421467 -11.00000000
7.64234877 4.58835649 0.77986956 75 5 5902 8.94800000 887421469 887421469 5.00000000
3.51285982 2.10823655 -0.64889014 6 6 5903 4.14800000 887421471 887421471 -9.00000000
7.65851068 4.59442377 1.09658039 95 7 5904 8.99800000 887421474 887421474 7.00000000
4.76515150 2.85753512 -0.68222457 9 8 5905 5.59800000 887421476 887421476 -7.00000000
7.36700201 4.41604805 -0.75145680 13 10 5906 8.62200000 887421481 887421481 -5.00000000
7.62643147 4.56794167 -0.46589467 17 12 5908 8.90200000 887421485 887421485 -3.00000000
7.69775391 4.60883570 2.07134938 72 13 5909 9.20800000 887421487 887421487 13.00000000
7.62875128 4.56571341 -0.15518680 18 14 5910 8.89200000 887421490 887421490 -1.00000000
6.65949202 3.98404527 2.07935214 45 15 5911 8.03400000 887421492 887421492 15.00000000
1.95600545 1.16693890 -0.61029530 4 0 5918 2.35800000 887421513 887421513 -15.00000000
7.63934851 4.55577278 0.15525661 15 1 5919 8.89600000 887421515 887421515 1.00000000
2.32168484 1.38400197 -0.62401420 4 2 5920 2.77400000 887421517 887421517 -13.00000000
7.65485287 4.56320810 0.46704608 13 3 5920 8.92400000 887421520 887421520 3.00000000
2.78783774 1.66122544 -0.63081455 5 4 5921 3.30600000 887421522 887421522 -11.00000000
7.64633656 4.55451441 0.77864939 78 5 5922 8.93400000 887421524 887421524 5.00000000
3.51850033 2.09495091 -0.64857727 6 6 5923 4.14600000 887421527 887421527 -9.00000000
7.66767836 4.56360149 1.09560537 95 7 5924 8.99000000 887421529 887421529 7.00000000
4.78021479 2.84392905 -0.68295580 9 8 5925 5.60400000 887421531 887421531 -7.00000000
7.38579702 4.39234209 -0.75180542 13 10 5926 8.62600000 887421536 887421536 -5.00000000
7.64233017 4.54129267 -0.46589467 17 12 5928 8.90200000 887421540 887421540 -3.00000000
7.70374203 4.57596588 2.06865001 70 13 5929 9.19600000 887421543 887421543 13.00000000
7.63432503 4.53293085 -0.15497737 18 14 5930 8.88000000 887421545 887421545 -1.00000000
6.67003584 3.95880294 2.07831693 47 15 5931 8.03000000 887421547 887421547 15.00000000
1.97004175 1.16600788 -0.61340111 4 0 5938 2.37000000 887421568 887421568 -15.00000000
7.63110971 4.51482391 0.15476795 15 1 5939 8.86800000 887421570 887421570 1.00000000
2.32146978 1.37291336 -0.62266451 4 2 5940 2.76800000 887421573 887421573 -13.00000000
7.66385841 4.53239346 0.46662739 13 3 5940 8.91600000 887421575 887421575 3.00000000
2.79361939 1.65148389 -0.63081455 6 4 5941 3.30600000 887421577 887421577 -11.00000000
7.65361166 4.52272797 0.77777785 78 5 5942 8.92400000 887421580 887421580 5.00000000
3.51558661 2.07662845 -0.64670008 6 6 5943 4.13400000 887421582 887421582 -9.00000000
7.67159605 4.52974319 1.09389925 99 7 5944 8.97600000 887421584 887421584 7.00000000
4.78669405 2.82520771 -0.68246830 6 8 5945 5.60000000 887421587 887421587 -7.00000000
7.40794802 4.37058401 -0.75250268 13 10 5946 8.63400000 887421591 887421591 -5.00000000
7.63920975 4.50343084 -0.46474329 17 12 5948 8.88000000 887421596 887421596 -3.00000000
7.70959473 4.54311085 2.06595039 72 13 5949 9.18400000 887421598 887421598 13.00000000
7.64665556 4.50422430 -0.15490755 18 14 5950 8.87600000 887421600 887421600 -1.00000000
6.67881966 3.93255544 2.07676411 42 15 5951 8.02400000 887421603 887421603 15.00000000
1.98076355 1.16303670 -0.61547166 4 0 5958 2.37800000 887421623 887421623 -15.00000000
7.64509869 4.48714638 0.15473303 12 1 5959 8.86600000 887421626 887421626 1.00000000
2.31784391 1.35987091 -0.62041503 4 2 5960 2.75800000 887421628 887421628 -13.00000000
7.66412878 4.49651766 0.46568534 13 3 5960 8.89800000 887421630 887421630 3.00000000
2.80106068 1.64271545 -0.63119614 6 4 5961 3.30800000 887421633 887421633 -11.00000000
7.66247702 4.49195385 0.77708060 78 5 5962 8.91600000 887421635 887421635 5.00000000
3.52281404 2.06434393 -0.64670008 6 6 5963 4.13400000 887421637 887421637 -9.00000000
7.66338110 4.48889017 1.09048688 99 7 5964 8.94800000 887421639 887421639 7.00000000
4.79310036 2.80647564 -0.68198085 9 8 5965 5.59600000 887421642 887421642 -7.00000000
7.46098852 4.36683989 -0.75633752 13 10 5966 8.67800000 887421646 887421646 -5.00000000
7.64798689 4.47270441 -0.46432459 17 12 5968 8.87200000 887421651 887421651 -3.00000000
7.70858240 4.50633669 2.06145144 72 13 5969 9.16400000 887421653 887421653 13.00000000
7.64679289 4.46842480 -0.15459342 16 14 5970 8.85800000 887421656 887421656 -1.00000000
6.70349979 3.91720891 2.08038759 45 15 5970 8.03800000 887421658 887421658 15.00000000
1.98981917 1.15903246 -0.61702460 4 0 5978 2.38400000 887421679 887421679 -15.00000000
7.64170551 4.44936466 0.15434909 12 1 5979 8.84400000 887421681 887421681 1.00000000
2.32931352 1.35569286 -0.62221462 4 2 5980 2.76600000 887421683 887421683 -13.00000000
7.66596842 4.46169996 0.46484795 15 3 5980 8.88200000 887421686 887421686 3.00000000
2.79659605 1.62700438 -0.62890643 5 4 5981 3.29600000 887421688 887421688 -11.00000000
7.67122078 4.46117306 0.77638334 78 5 5982 8.90800000 887421690 887421690 5.00000000
3.53341413 2.05402017 -0.64732581 6 6 5983 4.13800000 887421692 887421692 -9.00000000
7.66527271 4.45413399 1.08853698 100 7 5984 8.93200000 887421695 887421695 7.00000000
4.79256868 2.78374529 -0.68051839 6 8 5985 5.58400000 887421697 887421697 -7.00000000
7.50375414 4.35677624 -0.75912654 13 10 5986 8.71000000 887421702 887421702 -5.00000000
7.64800453 4.43696070 -0.46338254 17 12 5988 8.85400000 887421706 887421706 -3.00000000
7.71077919 4.47158051 2.05785227 72 13 5989 9.14800000 887421709 887421709 13.00000000
7.64850378 4.43368244 -0.15431418 18 14 5990 8.84200000 887421711 887421711 -1.00000000
6.71781206 3.89261293 2.08038759 45 15 5991 8.03800000 887421713 887421713 15.00000000
1.98174405 1.14600587 -0.61340111 4 0 5996 2.37000000 887421734 887421734 -15.00000000
7.65218353 4.42333412 0.15427928 12 1 5997 8.84000000 887421736 887421736 1.00000000
2.33693576 1.35031831 -0.62311441 4 2 5998 2.77000000 887421739 887421739 -13.00000000
7.66342688 4.42626524 0.46380123 13 3 5999 8.86200000 887421741 887421741 3.00000000
2.80169368 1.61821055 -0.62890643 6 4 5999 3.29600000 887421743 887421743 -11.00000000
7.66794348 4.42708921 0.77464026 82 5 6000 8.88800000 887421745 887421745 5.00000000
3.55011487 2.04883361 -0.64920300 6 6 6001 4.15000000 887421748 887421748 -9.00000000
7.67234993 4.42606306 1.08756196 100 7 6002 8.92400000 887421750 887421750 7.00000000
4.81160831 2.77462506 -0.68198085 6 8 6003 5.59600000 887421752 887421752 -7.00000000
7.54847527 4.35109043 -0.76226413 13 10 6004 8.74600000 887421757 887421757 -5.00000000
7.66190577 4.41291189 -0.46338254 17 12 6006 8.85400000 887421762 887421762 -3.00000000
7.71465588 4.44150066 2.05515289 68 13 6007 9.13600000 887421764 887421764 13.00000000
7.63986349 4.39666557 -0.15386042 18 14 6008 8.81600000 887421766 887421766 -1.00000000
6.70421600 3.85820985 2.07262301 45 15 6008 8.00800000 887421769 887421769 15.00000000
1.98238087 1.13715887 -0.61236584 4 0 6016 2.36600000 887421789 887421789 -15.00000000
7.65022993 4.38664913 0.15393023 12 1 6017 8.82000000 887421792 887421792 1.00000000
2.34501648 1.34409082 -0.62401420 4 2 6018 2.77400000 887421794 887421794 -13.00000000
7.67016554 4.39452314 0.46327788 10 3 6019 8.85200000 887421796 887421796 3.00000000
2.81073213 1.61037302 -0.62966967 6 4 6019 3.30000000 887421798 887421798 -11.00000000
7.66606092 4.39039469 0.77289712 93 5 6020 8.86800000 887421801 887421801 5.00000000
3.54353046 2.02857780 -0.64670008 6 6 6021 4.13400000 887421803 887421803 -9.00000000
7.68086100 4.39531088 1.08658707 100 7 6022 8.91600000 887421805 887421805 7.00000000
4.82126427 2.75781250 -0.68198085 6 8 6023 5.59600000 887421808 887421808 -7.00000000
7.57053614 4.32867098 -0.76296139 13 10 6024 8.75400000 887421812 887421812 -5.00000000
7.67032623 4.38217688 -0.46296388 17 12 6026 8.84600000 887421817 887421817 -3.00000000
7.72672796 4.41261148 2.05425310 68 13 6027 9.13200000 887421819 887421819 13.00000000
7.65169096 4.36798811 -0.15379061 18 14 6028 8.81200000 887421822 887421822 -1.00000000
6.72166777 3.83552670 2.07365823 45 15 6029 8.01200000 887421824 887421824 15.00000000
1.98485625 1.12893033 -0.61184824 4 0 6037 2.36400000 887421845 887421845 -15.00000000
7.64365721 4.34573174 0.15347646 18 1 6038 8.79400000 887421847 887421847 1.00000000
2.35162139 1.33644974 -0.62446415 4 2 6039 2.77600000 887421849 887421849 -13.00000000
7.68969440 4.36835432 0.46348724 13 3 6040 8.85600000 887421851 887421851 3.00000000
2.82344365 1.60393929 -0.63119614 5 4 6040 3.30800000 887421854 887421854 -11.00000000
7.66650820 4.35341311 0.77132833 86 5 6041 8.85000000 887421856 887421856 5.00000000
3.55265951 2.01655149 -0.64701295 6 6 6042 4.13600000 887421858 887421858 -9.00000000
7.67965364 4.35733318 1.08414972 100 7 6043 8.89600000 887421861 887421861 7.00000000
4.82788610 2.73816466 -0.68149334 6 8 6044 5.59200000 887421863 887421863 -7.00000000
7.57941771 4.29696417 -0.76226413 17 10 6045 8.74600000 887421868 887421868 -5.00000000
7.65853119 4.33828354 -0.46128911 17 12 6047 8.81400000 887421872 887421872 -3.00000000
7.73606634 4.38042116 2.05245352 62 13 6048 9.12400000 887421875 887421875 13.00000000
7.65372658 4.33203363 -0.15351136 18 14 6049 8.79600000 887421877 887421877 -1.00000000
6.73501539 3.81204033 2.07365823 45 15 6049 8.01200000 887421879 887421879 15.00000000
1.99719763 1.12674117 -0.61443639 4 0 6057 2.37400000 887421900 887421900 -15.00000000
7.65181303 4.31509495 0.15333684 21 1 6058 8.78600000 887421902 887421902 1.00000000
2.35287690 1.32631910 -0.62356430 4 2 6059 2.77200000 887421904 887421904 -13.00000000
7.68401527 4.32972002 0.46223116 13 3 6060 8.83200000 887421907 887421907 3.00000000
2.83244610 1.59600139 -0.63195938 5 4 6060 3.31200000 887421909 887421909 -11.00000000
7.67297792 4.32173681 0.77045679 78 5 6061 8.84000000 887421911 887421911 5.00000000
3.57000494 2.00995278 -0.64889014 6 6 6062 4.14800000 887421914 887421914 -9.00000000
7.67405748 4.31881666 1.08122480 100 7 6063 8.87200000 887421916 887421916 7.00000000
4.82703400 2.71545577 -0.68003094 9 8 6064 5.58000000 887421918 887421918 -7.00000000
7.61521053 4.28219938 -0.76435584 17 10 6065 8.77000000 887421923 887421923 -5.00000000
7.65447474 4.30076218 -0.46013772 17 12 6067 8.79200000 887421927 887421927 -3.00000000
7.74451303 4.34957361 2.05065370 60 13 6068 9.11600000 887421930 887421930 13.00000000
7.67054558 4.30626965 -0.15354627 16 14 6069 8.79800000 887421932 887421932 -1.00000000
6.75905037 3.79300213 2.07676411 45 15 6070 8.02400000 887421934 887421934 15.00000000
2.00072742 1.12046123 -0.61443639 4 0 6075 2.37400000 887421955 887421955 -15.00000000
7.66358662 4.29005766 0.15330194 21 1 6076 8.78400000 887421957 887421957 1.00000000
2.35022950 1.31511438 -0.62176472 4 2 6077 2.76400000 887421960 887421960 -13.00000000
7.67666197 4.29385900 0.46097511 13 3 6078 8.80800000 887421962 887421962 3.00000000
2.82716560 1.58134472 -0.62966967 5 4 6078 3.30000000 887421964 887421964 -11.00000000
7.68303919 4.29566526 0.77010816 82 5 6079 8.83600000 887421967 887421967 5.00000000
3.56940436 1.99487269 -0.64763868 4 6 6080 4.14000000 887421969 887421969 -9.00000000
7.67718935 4.28887796 1.07976234 99 7 6081 8.86000000 887421971 887421971 7.00000000
4.83900738 2.70221353 -0.68051839 9 8 6082 5.58400000 887421974 887421974 -7.00000000
7.63210487 4.26019669 -0.76470447 17 10 6083 8.77400000 887421978 887421978 -5.00000000
7.66794777 4.27669382 -0.46013772 17 12 6085 8.79200000 887421983 887421983 -3.00000000
7.74792719 4.31952858 2.04795432 60 13 6086 9.10400000 887421985 887421985 13.00000000
7.66132832 4.26949644 -0.15309250 18 14 6087 8.77200000 887421987 887421987 -1.00000000
6.76858711 3.77199054 2.07624626 45 15 6087 8.02200000 887421990 887421990 15.00000000
1.99449348 1.10784221 -0.61133057 4 0 6095 2.36200000 887422010 887422010 -15.00000000
7.66977358 4.25842714 0.15312742 25 1 6096 8.77400000 887422013 887422013 1.00000000
2.36162138 1.31068516 -0.62356430 4 2 6097 2.77200000 887422015 887422015 -13.00000000
7.68985748 4.26606703 0.46087044 15 3 6098 8.80600000 887422017 887422017 3.00000000
2.82751799 1.56860924 -0.62852484 5 4 6098 3.29400000 887422020 887422020 -11.00000000
7.68230534 4.26012421 0.76853937 86 5 6099 8.81800000 887422022 887422022 5.00000000
3.59016752 1.99006236 -0.65014166 4 6 6100 4.15600000 887422024 887422024 -9.00000000
7.68864107 4.26012945 1.07927489 99 7 6101 8.85600000 887422027 887422027 7.00000000
4.85362005 2.68819118 -0.68124962 9 8 6102 5.59000000 887422029 887422029 -7.00000000
7.77346420 4.30358219 1.40728450 2 9 6103 8.99600000 887422031 887422031 9.00000000
7.62775564 4.22291422 -0.76278704 17 10 6103 8.75200000 887422033 887422033 -5.00000000
7.66360521 4.23926735 -0.45898634 17 12 6105 8.77000000 887422038 887422038 -3.00000000
7.75443077 4.28774166 2.04570484 54 13 6106 9.09400000 887422040 887422040 13.00000000
7.65868330 4.23305368 -0.15274346 18 14 6107 8.75200000 887422043 887422043 -1.00000000
6.76883936 3.73968339 2.07210517 45 15 6108 8.00600000 887422045 887422045 15.00000000
1.99496436 1.09900916 -0.61029530 4 0 6115 2.35800000 887422066 887422066 -15.00000000
7.67408133 4.22584152 0.15291798 28 1 6116 8.76200000 887422068 887422068 1.00000000
2.37130380 1.30525267 -0.62491405 11 2 6117 2.77800000 887422070 887422070 -13.00000000
7.69245243 4.23245907 0.46013772 10 3 6118 8.79200000 887422073 887422073 3.00000000
2.83297610 1.55872989 -0.62852484 5 4 6118 3.29400000 887422075 887422075 -11.00000000
7.67268801 4.21984005 0.76609898 78 5 6119 8.79000000 887422077 887422077 5.00000000
3.57631993 1.96609855 -0.64638722 4 6 6120 4.13200000 887422080 887422080 -9.00000000
7.70694399 4.23517704 1.07976234 99 7 6121 8.86000000 887422082 887422082 7.00000000
4.86993361 2.67505527 -0.68222457 9 8 6122 5.59800000 887422084 887422084 -7.00000000
7.64244986 4.19626284 -0.76278704 17 10 6123 8.75200000 887422089 887422089 -5.00000000
7.67835617 4.21249056 -0.45898634 17 12 6125 8.77000000 887422093 887422093 -3.00000000
7.77105904 4.26158476 2.04615474 55 13 6126 9.09600000 887422096 887422096 13.00000000
7.66639853 4.20244932 -0.15260383 14 14 6127 8.74400000 887422098 887422098 -1.00000000
6.77103901 3.71164489 2.06899953 45 15 6127 7.99400000 887422100 887422100 15.00000000
2.00556970 1.09574366 -0.61236584 4 0 6135 2.36600000 887422121 887422121 -15.00000000
7.67123508 4.18944359 0.15256894 25 1 6136 8.74200000 887422123 887422123 1.00000000
2.35874081 1.28762984 -0.62041503 12 2 6137 2.75800000 887422126 887422126 -13.00000000
7.70542669 4.20462465 0.46003306 13 3 6138 8.79000000 887422128 887422128 3.00000000
2.84012318 1.54977179 -0.62890643 5 4 6138 3.29600000 887422130 887422130 -11.00000000
7.68737125 4.19303179 0.76609898 78 5 6139 8.79000000 887422133 887422133 5.00000000
3.57622361 1.94982052 -0.64513576 6 6 6140 4.12400000 887422135 887422135 -9.00000000
7.69727802 4.19494963 1.07635009 100 7 6141 8.83200000 887422137 887422137 7.00000000
4.88447094 2.66088867 -0.68295580 6 8 6142 5.60400000 887422139 887422139 -7.00000000
7.64305258 4.16193771 -0.76139259 17 10 6143 8.73600000 887422144 887422144 -5.00000000
7.67546988 4.17611694 -0.45793962 17 12 6145 8.75000000 887422149 887422149 -3.00000000
7.79444742 4.23908806 2.04840422 53 13 6146 9.10600000 887422151 887422151 13.00000000
7.67750740 4.17375278 -0.15253404 14 14 6147 8.74000000 887422153 887422153 -1.00000000
6.78799248 3.68864775 2.07003474 47 15 6148 7.99800000 887422156 887422156 15.00000000
2.00957227 1.08838546 -0.61236584 4 0 6156 2.36600000 887422176 887422176 -15.00000000
7.67247057 4.15368271 0.15228970 12 1 6157 8.72600000 887422179 887422179 1.00000000
2.35830283 1.27619362 -0.61906528 10 2 6158 2.75200000 887422181 887422181 -13.00000000
7.69619131 4.16305113 0.45856765 13 3 6159 8.76200000 887422183 887422183 3.00000000
2.85614514 1.54495621 -0.63119614 5 4 6159 3.30800000 887422186 887422186 -11.00000000
7.68866730 4.15724659 0.76470447 78 5 6160 8.77400000 887422188 887422188 5.00000000
3.58682179 1.93857837 -0.64576149 4 6 6161 4.12800000 887422190 887422190 -9.00000000
7.70037603 4.16010475 1.07464385 92 7 6162 8.81800000 887422192 887422192 7.00000000
4.88021755 2.63542247 -0.68100590 9 8 6163 5.58800000 887422195 887422195 -7.00000000
7.73293591 4.17595148 1.39195383 7 9 6163 8.89800000 887422197 887422197 9.00000000
7.66526842 4.13768196 -0.76208979 17 10 6164 8.74400000 887422199 887422199 -5.00000000
7.71802950 4.16442299 1.70468760 21 11 6165 8.93400000 887422202 887422202 11.00000000
7.67666149 4.14037228 -0.45710224 17 12 6166 8.73400000 887422204 887422204 -3.00000000
7.74303389 4.17442513 2.03085804 43 13 6167 9.02800000 887422206 887422206 13.00000000
7.69275331 4.14558554 -0.15253404 14 14 6168 8.74000000 887422209 887422209 -1.00000000
6.81103039 3.67042947 2.07314062 45 15 6168 8.01000000 887422211 887422211 15.00000000
2.02527261 1.08776271 -0.61598933 4 0 6176 2.38000000 887422232 887422232 -15.00000000
7.68163729 4.12403774 0.15218498 12 1 6177 8.72000000 887422234 887422234 1.00000000
2.37132859 1.27256119 -0.62131482 5 2 6178 2.76200000 887422236 887422236 -13.00000000
7.69835615 4.12955236 0.45783496 13 3 6179 8.74800000 887422239 887422239 3.00000000
2.84941030 1.52848077 -0.62852484 5 4 6179 3.29400000 887422241 887422241 -11.00000000
7.70664358 4.13226604 0.76505309 78 5 6180 8.77800000 887422243 887422243 5.00000000
3.60053110 1.92977881 -0.64701295 4 6 6181 4.13600000 887422245 887422245 -9.00000000
7.70785141 4.12945032 1.07366896 97 7 6182 8.81000000 887422248 887422248 7.00000000
4.88238716 2.61462259 -0.68003094 6 8 6183 5.58000000 887422250 887422250 -7.00000000
7.67263889 4.10713911 -0.76139259 17 10 6184 8.73600000 887422255 887422255 -5.00000000
7.73425007 4.13838243 1.70506918 100 11 6185 8.93600000 887422257 887422257 11.00000000
7.68578386 4.11072445 -0.45678821 12 12 6186 8.72800000 887422259 887422259 -3.00000000
7.71115732 4.12256479 2.01871085 83 13 6187 8.97400000 887422262 887422262 13.00000000
7.68072271 4.10456991 -0.15201046 12 14 6188 8.71000000 887422264 887422264 -1.00000000
6.82039356 3.64481115 2.07210517 45 15 6188 8.00600000 887422266 887422266 15.00000000
2.01882672 1.07523775 -0.61288351 4 0 6196 2.36800000 887422287 887422287 -15.00000000
7.68539524 4.09156036 0.15197556 12 1 6197 8.70800000 887422289 887422289 1.00000000
2.37231565 1.26244509 -0.62041503 4 2 6198 2.75800000 887422292 887422292 -13.00000000
7.69861746 4.09515142 0.45699757 13 3 6199 8.73200000 887422294 887422294 3.00000000
2.85819483 1.52036917 -0.62928808 5 4 6199 3.29800000 887422296 887422296 -11.00000000
7.70167017 4.09505081 0.76313567 78 5 6200 8.75600000 887422298 887422298 5.00000000
3.62119985 1.92461550 -0.64951593 4 6 6201 4.15200000 887422301 887422301 -9.00000000
7.71520662 4.09879446 1.07269394 92 7 6202 8.80200000 887422303 887422303 7.00000000
4.89148426 2.59756398 -0.68003094 9 8 6203 5.58000000 887422305 887422305 -7.00000000
7.71899986 4.09735537 1.38413215 100 9 6204 8.84800000 887422308 887422308 9.00000000
7.66933060 4.07099009 -0.75964946 17 10 6204 8.71600000 887422310 887422310 -5.00000000
7.73997736 4.10675907 1.70316112 90 11 6205 8.92600000 887422312 887422312 11.00000000
7.67185497 4.06889820 -0.45511347 12 12 6206 8.69600000 887422315 887422315 -3.00000000
7.72377872 4.09470987 2.01826096 106 13 6207 8.97200000 887422317 887422317 13.00000000
7.67910099 4.06930733 -0.15169631 14 14 6208 8.69200000 887422319 887422319 -1.00000000
6.83307457 3.62098122 2.07210517 45 15 6208 8.00600000 887422321 887422321 15.00000000
2.01915121 1.06637979 -0.61184824 4 0 6216 2.36400000 887422342 887422342 -15.00000000
7.69432545 4.06190777 0.15187085 15 1 6217 8.70200000 887422345 887422345 1.00000000
2.38877249 1.26052272 -0.62356430 4 2 6218 2.77200000 887422347 887422347 -13.00000000
7.70049953 4.06173038 0.45626485 13 3 6219 8.71800000 887422349 887422349 3.00000000
2.86001158 1.50855100 -0.62852484 5 4 6219 3.29400000 887422351 887422351 -11.00000000
7.70005560 4.05977869 0.76156688 78 5 6220 8.73800000 887422354 887422354 5.00000000
3.60692549 1.90091157 -0.64576149 4 6 6221 4.12800000 887422356 887422356 -9.00000000
7.71892929 4.06628704 1.07123148 92 7 6222 8.79000000 887422358 887422358 7.00000000
4.91808653 2.58972263 -0.68246830 6 8 6223 5.60000000 887422361 887422361 -7.00000000
7.71927118 4.06302547 1.38162923 89 9 6224 8.83200000 887422363 887422363 9.00000000
7.66586351 4.03491449 -0.75790632 17 10 6224 8.69600000 887422365 887422365 -5.00000000
7.73341608 4.06874704 1.69858170 78 11 6225 8.90200000 887422368 887422368 11.00000000
7.68954659 4.04395294 -0.45532283 12 12 6226 8.70000000 887422370 887422370 -3.00000000
7.72422552 4.06046963 2.01466155 104 13 6227 8.95600000 887422372 887422372 13.00000000
7.68263769 4.03689623 -0.15148689 14 14 6228 8.68000000 887422374 887422374 -1.00000000
6.82919741 3.58692932 2.06692886 45 15 6229 7.98600000 887422377 887422377 15.00000000
2.02762461 1.06272173 -0.61340111 4 0 6234 2.37000000 887422398 887422398 -15.00000000
7.67693567 4.02193928 0.15127745 12 1 6235 8.66800000 887422400 887422400 1.00000000
2.38408899 1.24849164 -0.62131482 3 2 6236 2.76200000 887422402 887422402 -13.00000000
7.71322155 4.03751850 0.45626485 15 3 6237 8.71800000 887422404 887422404 3.00000000
2.86821556 1.50137961 -0.62928808 5 4 6237 3.29800000 887422407 887422407 -11.00000000
7.70571041 4.03187370 0.76086962 78 5 6238 8.73000000 887422409 887422409 5.00000000
3.59887624 1.88224685 -0.64325851 4 6 6239 4.11200000 887422411 887422411 -9.00000000
7.71935177 4.03557968 1.06952536 99 7 6240 8.77600000 887422414 887422414 7.00000000
4.92267942 2.57242060 -0.68198085 6 8 6241 5.59600000 887422416 887422416 -7.00000000
7.72499371 4.03509617 1.38037777 86 9 6242 8.82400000 887422418 887422418 9.00000000
7.68026733 4.01173401 -0.75808066 17 10 6242 8.69800000 887422421 887422421 -5.00000000
7.72353601 4.03261900 1.69362068 84 11 6243 8.87600000 887422423 887422423 11.00000000
7.68804789 4.01238251 -0.45448545 12 12 6244 8.68400000 887422425 887422425 -3.00000000
7.73003292 4.03257799 2.01286197 106 13 6245 8.94800000 887422427 887422427 13.00000000
7.69173574 4.01089144 -0.15141708 14 14 6246 8.67600000 887422430 887422430 -1.00000000
6.83980989 3.56665111 2.06692886 47 15 6246 7.98600000 887422432 887422432 15.00000000
2.03132176 1.05563748 -0.61340111 4 0 6254 2.37000000 887422453 887422453 -15.00000000
7.69092798 3.99511743 0.15127745 12 1 6255 8.66800000 887422455 887422455 1.00000000
2.37805557 1.23477399 -0.61861539 3 2 6256 2.75000000 887422457 887422457 -13.00000000
7.72017765 4.00688982 0.45584619 18 3 6257 8.71000000 887422460 887422460 3.00000000
2.88215137 1.49588048 -0.63119614 4 4 6257 3.30800000 887422462 887422462 -11.00000000
7.71089458 4.00036335 0.75999808 82 5 6258 8.72000000 887422464 887422464 5.00000000
3.61945343 1.87694788 -0.64576149 6 6 6259 4.12800000 887422467 887422467 -9.00000000
7.71400499 3.99856043 1.06684422 97 7 6260 8.75400000 887422469 887422469 7.00000000
4.93867874 2.55887461 -0.68295580 6 8 6261 5.60400000 887422471 887422471 -7.00000000
7.73552370 4.00628948 1.37975204 91 9 6262 8.82000000 887422474 887422474 9.00000000
7.68183994 3.97848630 -0.75686049 17 10 6262 8.68400000 887422476 887422476 -5.00000000
7.73407841 4.00382948 1.69285738 81 11 6263 8.87200000 887422478 887422478 11.00000000
7.69313812 3.98093247 -0.45396209 17 12 6264 8.67400000 887422480 887422480 -3.00000000
7.73367643 4.00019884 2.01016259 104 13 6265 8.93600000 887422483 887422483 13.00000000
7.70213699 3.98218131 -0.15134726 14 14 6266 8.67200000 887422485 887422485 -1.00000000
6.85050201 3.54186678 2.06641126 47 15 6266 7.98400000 887422487 887422487 15.00000000
2.03517723 1.04818523 -0.61340111 4 0 6275 2.37000000 887422508 887422508 -15.00000000
7.70196342 3.96507120 0.15120766 12 1 6276 8.66400000 887422510 887422510 1.00000000
2.38603091 1.22783303 -0.61951518 3 2 6277 2.75400000 887422513 887422513 -13.00000000
7.70925426 3.96712255 0.45438078 13 3 6277 8.68200000 887422515 887422515 3.00000000
2.88063145 1.48171484 -0.62966967 5 4 6278 3.30000000 887422517 887422517 -11.00000000
7.72904873 3.97389698 0.76034671 78 5 6279 8.72400000 887422520 887422520 5.00000000
3.63509297 1.86818409 -0.64732581 6 6 6280 4.13800000 887422522 887422522 -9.00000000
7.72331142 3.96753907 1.06611300 100 7 6281 8.74800000 887422524 887422524 7.00000000
4.91977024 2.52624798 -0.67905599 6 8 6282 5.57200000 887422526 887422526 -7.00000000
7.73364592 3.97114229 1.37693620 94 9 6282 8.80200000 887422529 887422529 9.00000000
7.69459772 3.94939446 -0.75668615 17 10 6283 8.68200000 887422531 887422531 -5.00000000
7.74171400 3.97187090 1.69133091 81 11 6284 8.86400000 887422533 887422533 11.00000000
7.69701385 3.94724059 -0.45333406 17 12 6285 8.66200000 887422536 887422536 -3.00000000
7.73094416 3.96293712 2.00566363 104 13 6286 8.91600000 887422538 887422538 13.00000000
7.70066357 3.94571781 -0.15103312 12 14 6287 8.65400000 887422540 887422540 -1.00000000
6.87375355 3.52202010 2.06951714 45 15 6287 7.99600000 887422543 887422543 15.00000000
2.03882384 1.04107475 -0.61340111 4 0 6295 2.37000000 887422563 887422563 -15.00000000
7.71219492 3.93634391 0.15113784 12 1 6296 8.66000000 887422566 887422566 1.00000000
2.39377403 1.22126794 -0.62041503 4 2 6297 2.75800000 887422568 887422568 -13.00000000
7.71662569 3.93521070 0.45396209 15 3 6298 8.67400000 887422570 887422570 3.00000000
2.88228798 1.46986663 -0.62890643 5 4 6298 3.29600000 887422573 887422573 -11.00000000
7.72157192 3.93603516 0.75825495 82 5 6299 8.70000000 887422575 887422575 5.00000000
3.63279176 1.85099983 -0.64576149 4 6 6300 4.12800000 887422577 887422577 -9.00000000
7.72650051 3.93515015 1.06465054 100 7 6301 8.73600000 887422579 887422579 7.00000000
4.93917274 2.51446295 -0.68051839 6 8 6302 5.58400000 887422582 887422582 -7.00000000
7.73054361 3.93381143 1.37380743 94 9 6303 8.78200000 887422584 887422584 9.00000000
7.69235563 3.91437888 -0.75511736 17 10 6303 8.66400000 887422586 887422586 -5.00000000
7.74853182 3.94126272 1.68980443 78 11 6304 8.85600000 887422589 887422589 11.00000000
7.70718479 3.91853857 -0.45312470 17 12 6305 8.65800000 887422591 887422591 -3.00000000
7.73778152 3.93239522 2.00386405 92 13 6306 8.90800000 887422593 887422593 13.00000000
7.69656086 3.90975666 -0.15068407 14 14 6307 8.63400000 887422596 887422596 -1.00000000
6.87283611 3.48980594 2.06537604 45 15 6308 7.98000000 887422598 887422598 15.00000000
2.03881812 1.03256238 -0.61236584 4 0 6314 2.36600000 887422619 887422619 -15.00000000
7.70736504 3.90171599 0.15078880 12 1 6315 8.64000000 887422621 887422621 1.00000000
2.40998220 1.21948218 -0.62356430 4 2 6316 2.77200000 887422623 887422623 -13.00000000
7.72895050 3.91094875 0.45396209 15 3 6316 8.67400000 887422626 887422626 3.00000000
2.89240217 1.46295893 -0.63005131 5 4 6317 3.30200000 887422628 887422628 -11.00000000
7.71502352 3.90051961 0.75633752 78 5 6318 8.67800000 887422630 887422630 5.00000000
3.63538384 1.83716094 -0.64513576 4 6 6319 4.12400000 887422632 887422632 -9.00000000
7.73596382 3.90771651 1.06416309 99 7 6320 8.73200000 887422635 887422635 7.00000000
4.95457172 2.50164914 -0.68149334 6 8 6321 5.59200000 887422637 887422637 -7.00000000
7.73649216 3.90459442 1.37255597 94 9 6322 8.77400000 887422639 887422639 9.00000000
7.68750668 3.87987161 -0.75337422 17 10 6322 8.64400000 887422642 887422642 -5.00000000
7.74753618 3.90847182 1.68675148 87 11 6323 8.84000000 887422644 887422644 11.00000000
7.72013664 3.89295912 -0.45312470 17 12 6324 8.65800000 887422646 887422646 -3.00000000
7.74729872 3.90495992 2.00296426 103 13 6325 8.90400000 887422649 887422649 13.00000000
7.69876909 3.87881398 -0.15047465 12 14 6326 8.62200000 887422651 887422651 -1.00000000
6.87686491 3.46472025 2.06330538 47 15 6326 7.97200000 887422653 887422653 15.00000000
2.04413652 1.02630603 -0.61288351 4 0 6334 2.36800000 887422674 887422674 -15.00000000
7.70127773 3.86492229 0.15040484 12 1 6335 8.61800000 887422676 887422676 1.00000000
2.40377331 1.20581961 -0.62086493 4 2 6336 2.76000000 887422678 887422678 -13.00000000
7.73184347 3.87857270 0.45333406 13 3 6336 8.66200000 887422681 887422681 3.00000000
2.89047122 1.44933367 -0.62852484 5 4 6337 3.29400000 887422683 887422683 -11.00000000
7.72502947 3.87177992 0.75598890 86 5 6338 8.67400000 887422685 887422685 5.00000000
3.64177465 1.82445991 -0.64513576 4 6 6339 4.12400000 887422688 887422688 -9.00000000
7.73535728 3.87357831 1.06221318 100 7 6340 8.71600000 887422690 887422690 7.00000000
4.97925043 2.49233603 -0.68368703 6 8 6341 5.61000000 887422692 887422692 -7.00000000
7.74830770 3.87668133 1.37224317 91 9 6342 8.77200000 887422695 887422695 9.00000000
7.70278502 3.85390496 -0.75354856 17 10 6342 8.64600000 887422697 887422697 -5.00000000
7.74532890 3.87350082 1.68331695 90 11 6343 8.82200000 887422699 887422699 11.00000000
7.71224070 3.85527062 -0.45186865 17 12 6344 8.63400000 887422702 887422702 -3.00000000
7.75739574 3.87615108 2.00206447 92 13 6345 8.90000000 887422704 887422704 13.00000000
7.70689487 3.84923625 -0.15036993 14 14 6346 8.61600000 887422706 887422706 -1.00000000
6.88891697 3.44069433 2.06330538 45 15 6346 7.97200000 887422708 887422708 15.00000000
2.04943585 1.02002525 -0.61340111 4 0 6354 2.37000000 887422729 887422729 -15.00000000
7.71293163 3.83712554 0.15036993 12 1 6355 8.61600000 887422731 887422731 1.00000000
2.40098810 1.19395077 -0.61906528 4 2 6356 2.75200000 887422734 887422734 -13.00000000
7.73527622 3.84487414 0.45270601 13 3 6357 8.65000000 887422736 887422736 3.00000000
2.90606117 1.44447839 -0.63081455 5 4 6357 3.30600000 887422738 887422738 -11.00000000
7.73671293 3.84390426 0.75581461 93 5 6358 8.67200000 887422741 887422741 5.00000000
3.64458251 1.80997932 -0.64450997 6 6 6359 4.12000000 887422743 887422743 -9.00000000
7.73105049 3.83772683 1.05977583 100 7 6360 8.69600000 887422745 887422745 7.00000000
4.96124649 2.46170497 -0.68003094 6 8 6361 5.58000000 887422748 887422748 -7.00000000
7.74519491 3.84306359 1.36942732 97 9 6361 8.75400000 887422750 887422750 9.00000000
7.70369625 3.82079697 -0.75232840 17 10 6362 8.63200000 887422752 887422752 -5.00000000
7.74824905 3.84120893 1.68102729 90 11 6363 8.81000000 887422755 887422755 11.00000000
7.70775557 3.81945825 -0.45082194 17 12 6364 8.61400000 887422757 887422757 -3.00000000
7.75690889 3.84212947 1.99846518 90 13 6365 8.88400000 887422759 887422759 13.00000000
7.71670008 3.82053614 -0.15030013 14 14 6366 8.61200000 887422761 887422761 -1.00000000
6.90148163 3.41542196 2.06330538 45 15 6367 7.97200000 887422764 887422764 15.00000000
2.05471635 1.01371992 -0.61391878 4 0 6374 2.37200000 887422784 887422784 -15.00000000
7.71910477 3.80664110 0.15023032 12 1 6375 8.60800000 887422787 887422787 1.00000000
2.40514112 1.18556249 -0.61906528 4 2 6376 2.75200000 887422789 887422789 -13.00000000
7.73186111 3.81125426 0.45176399 15 3 6376 8.63200000 887422791 887422791 3.00000000
2.89875793 1.42825150 -0.62814319 5 4 6377 3.29200000 887422794 887422794 -11.00000000
7.74650860 3.81511426 0.75546598 97 5 6378 8.66800000 887422796 887422796 5.00000000
