# .PCD v0.7 - Point Cloud Data file format
VERSION 0.7
FIELDS x y z intensity laser_id azimuth distance_m adjustedtime timestamp vertical_angle
SIZE 4 4 4 1 1 2 8 8 4 8
TYPE F F F U U U F U U F
COUNT 1 1 1 1 1 1 1 1 1 1
WIDTH 540
HEIGHT 1
VIEWPOINT 0 0 0 1 0 0 0
POINTS 540
DATA ascii
8.62755489 -2.70205808 1.75735080 3 11 10739 9.21000000 887634926 887634926 11.00000000
6.22264957 -1.95006025 -0.34175378 24 12 10740 6.53000000 887634928 887634928 -3.00000000
8.78039265 -2.75329113 2.12443781 56 13 10741 9.44400000 887634930 887634930 13.00000000
6.19521475 -1.94383776 -0.11333593 76 14 10742 6.49400000 887634933 887634933 -1.00000000
8.56879520 -2.69022560 2.40649939 47 15 10743 9.29800000 887634935 887634935 15.00000000
2.07804298 -0.65600204 -0.58389574 4 0 10752 2.25600000 887634956 887634956 -15.00000000
6.34211063 -2.00331140 0.11609340 40 1 10753 6.65200000 887634958 887634958 1.00000000
2.46017337 -0.77757835 -0.59567040 4 2 10754 2.64800000 887634960 887634960 -13.00000000
8.50885963 -2.68936539 0.46767411 7 3 10754 8.93600000 887634963 887634963 3.00000000
2.91825008 -0.92292130 -0.59494245 5 4 10755 3.11800000 887634965 887634965 -11.00000000
6.32169294 -2.00050259 0.58010864 84 5 10756 6.65600000 887634967 887634967 5.00000000
3.62708759 -1.14849007 -0.60258555 6 6 10757 3.85200000 887634969 887634969 -9.00000000
6.29405880 -1.99417520 0.81067485 10 7 10758 6.65200000 887634972 887634972 7.00000000
4.80827379 -1.52435064 -0.61934000 4 8 10759 5.08200000 887634974 887634974 -7.00000000
6.38676405 -2.02600098 -0.58620954 4 10 10760 6.72600000 887634979 887634979 -5.00000000
8.61337376 -2.73397779 1.75658762 3 11 10761 9.20600000 887634981 887634981 11.00000000
6.17514133 -1.96124291 -0.33955568 33 12 10762 6.48800000 887634983 887634983 -3.00000000
8.77718449 -2.78934598 2.12623739 57 13 10763 9.45200000 887634986 887634986 13.00000000
8.56255913 -2.72278452 2.40753484 47 15 10764 9.30200000 887634990 887634990 15.00000000
2.08678174 -0.66677970 -0.58700162 4 0 10772 2.26800000 887635011 887635011 -15.00000000
6.28174734 -2.00838614 0.11511607 43 1 10773 6.59600000 887635013 887635013 1.00000000
2.45187593 -0.78437990 -0.59432071 3 2 10774 2.64200000 887635015 887635015 -13.00000000
8.52224731 -2.72635317 0.46893016 7 3 10774 8.96000000 887635018 887635018 3.00000000
2.91688061 -0.93370080 -0.59532404 5 4 10775 3.12000000 887635020 887635020 -11.00000000
8.51190376 -2.72631979 0.78196132 33 5 10776 8.97200000 887635022 887635022 5.00000000
3.62117553 -1.16054106 -0.60227269 8 6 10777 3.85000000 887635025 887635025 -9.00000000
6.21711922 -1.99370503 0.80165654 31 7 10778 6.57800000 887635027 887635027 7.00000000
4.81804466 -1.54597747 -0.62128991 4 8 10779 5.09800000 887635029 887635029 -7.00000000
6.40241718 -2.05559134 -0.58830124 4 10 10780 6.75000000 887635034 887635034 -5.00000000
8.60564709 -2.76462770 1.75696921 3 11 10781 9.20800000 887635036 887635036 11.00000000
6.13403177 -1.97178435 -0.33767158 67 12 10782 6.45200000 887635039 887635039 -3.00000000
8.77852535 -2.82354712 2.12893677 56 13 10783 9.46400000 887635041 887635041 13.00000000
8.57507038 -2.75975895 2.41374636 49 15 10784 9.32600000 887635045 887635045 15.00000000
2.08100009 -0.67214471 -0.58596629 4 0 10790 2.26400000 887635066 887635066 -15.00000000
6.25828171 -2.02257609 0.11480193 57 1 10791 6.57800000 887635068 887635068 1.00000000
2.43456602 -0.78728193 -0.59072149 3 2 10792 2.62600000 887635071 887635071 -13.00000000
8.52836227 -2.75951791 0.46976754 7 3 10793 8.97600000 887635073 887635073 3.00000000
2.91953659 -0.94467306 -0.59646893 5 4 10793 3.12600000 887635075 887635075 -11.00000000
8.51656532 -2.75734305 0.78318149 37 5 10794 8.98600000 887635078 887635078 5.00000000
3.61751175 -1.17191160 -0.60227269 6 6 10795 3.85000000 887635080 887635080 -9.00000000
6.17872286 -2.00282097 0.79751301 57 7 10796 6.54400000 887635082 887635082 7.00000000
4.79616976 -1.55559421 -0.61909628 6 8 10797 5.08000000 887635085 887635085 -7.00000000
6.14437628 -1.99287271 1.02308142 10 9 10797 6.54000000 887635087 887635087 9.00000000
6.43382978 -2.08799529 -0.59178752 4 10 10798 6.79000000 887635089 887635089 -5.00000000
8.60999012 -2.79589391 1.75964057 3 11 10799 9.22200000 887635092 887635092 11.00000000
6.13350582 -1.99289680 -0.33798561 40 12 10800 6.45800000 887635094 887635094 -3.00000000
8.75849152 -2.84749675 2.12623739 57 13 10801 9.45200000 887635096 887635096 13.00000000
6.30953360 -2.05252695 -0.11581417 4 14 10802 6.63600000 887635098 887635098 -1.00000000
8.58056736 -2.79296327 2.41788745 49 15 10803 9.34200000 887635101 887635101 15.00000000
2.08965874 -0.68300575 -0.58907217 4 0 10810 2.27600000 887635121 887635121 -15.00000000
6.24168015 -2.04130149 0.11462741 69 1 10811 6.56800000 887635124 887635124 1.00000000
2.44106340 -0.79880577 -0.59297097 4 2 10812 2.63600000 887635126 887635126 -13.00000000
8.51157093 -2.78529906 0.46934885 10 3 10812 8.96800000 887635128 887635128 3.00000000
2.91062379 -0.95302564 -0.59532404 5 4 10813 3.12000000 887635131 887635131 -11.00000000
8.52392864 -2.79263735 0.78475028 37 5 10814 9.00400000 887635133 887635133 5.00000000
3.61339879 -1.18453193 -0.60227269 6 6 10815 3.85000000 887635135 887635135 -9.00000000
6.18489790 -2.02870727 0.79921913 52 7 10816 6.55800000 887635138 887635138 7.00000000
4.79259682 -1.57294548 -0.61934000 4 8 10817 5.08200000 887635140 887635140 -7.00000000
6.13515425 -2.01476336 1.02276850 22 9 10818 6.53800000 887635142 887635142 9.00000000
6.88837719 -2.26211905 -0.63431948 12 10 10818 7.27800000 887635145 887635145 -5.00000000
8.63002014 -2.83573723 1.76574647 3 11 10819 9.25400000 887635147 887635147 11.00000000
8.74109459 -2.87561631 2.12443781 57 13 10821 9.44400000 887635151 887635151 13.00000000
6.32132483 -2.08079123 -0.11616322 4 14 10822 6.65600000 887635154 887635154 -1.00000000
8.59095001 -2.82954597 2.42358160 51 15 10823 9.36400000 887635156 887635156 15.00000000
2.07051516 -0.68555933 -0.58441341 4 0 10832 2.25800000 887635177 887635177 -15.00000000
6.25467682 -2.07217026 0.11501136 63 1 10833 6.59000000 887635179 887635179 1.00000000
2.44352746 -0.81001240 -0.59432071 3 2 10834 2.64200000 887635181 887635181 -13.00000000
8.51597977 -2.82298827 0.47018623 10 3 10834 8.98400000 887635184 887635184 3.00000000
2.90507960 -0.96357650 -0.59494245 5 4 10835 3.11800000 887635186 887635186 -11.00000000
8.52827072 -2.83036685 0.78614479 41 5 10836 9.02000000 887635188 887635188 5.00000000
3.61632276 -1.20088780 -0.60352415 6 6 10837 3.85800000 887635191 887635191 -9.00000000
8.53372765 -2.83548522 1.10413623 42 7 10838 9.06000000 887635193 887635193 7.00000000
4.78463793 -1.59070981 -0.61909628 6 8 10839 5.08000000 887635195 887635195 -7.00000000
6.09961128 -2.02788830 1.01807547 20 9 10839 6.50800000 887635198 887635198 9.00000000
6.88909292 -2.29169631 -0.63519102 12 10 10840 7.28800000 887635200 887635200 -5.00000000
8.63397026 -2.87381339 1.76879942 3 11 10841 9.27000000 887635202 887635202 11.00000000
6.18126488 -2.05862999 -0.34143978 3 12 10842 6.52400000 887635204 887635204 -3.00000000
8.74108124 -2.91285491 2.12713718 59 13 10843 9.45600000 887635207 887635207 13.00000000
6.32467079 -2.10884309 -0.11637264 4 14 10844 6.66800000 887635209 887635209 -1.00000000
8.58368683 -2.86373472 2.42461681 58 15 10845 9.36800000 887635211 887635211 15.00000000
2.06627774 -0.69216901 -0.58389574 4 0 10852 2.25600000 887635232 887635232 -15.00000000
6.23792553 -2.09081316 0.11483683 60 1 10853 6.58000000 887635234 887635234 1.00000000
2.43329477 -0.81605840 -0.59252107 3 2 10854 2.63400000 887635237 887635237 -13.00000000
8.53069115 -2.86095309 0.47154698 18 3 10854 9.01000000 887635239 887635239 3.00000000
2.89239216 -0.97058839 -0.59303439 5 4 10855 3.10800000 887635241 887635241 -11.00000000
8.52022743 -2.86075306 0.78631914 37 5 10856 9.02200000 887635244 887635244 5.00000000
3.59525609 -1.20784211 -0.60070837 6 6 10857 3.84000000 887635246 887635246 -9.00000000
8.54071236 -2.87094879 1.10632992 40 7 10858 9.07800000 887635248 887635248 7.00000000
4.78281927 -1.60866725 -0.61958373 6 8 10859 5.08400000 887635251 887635251 -7.00000000
6.04943228 -2.03468347 1.01087952 75 9 10859 6.46200000 887635253 887635253 9.00000000
6.92070627 -2.32907510 -0.63885158 8 10 10860 7.33000000 887635255 887635255 -5.00000000
6.17214870 -2.07955623 -0.34133512 3 12 10862 6.52200000 887635260 887635260 -3.00000000
8.74193954 -2.94708443 2.12983656 59 13 10863 9.46800000 887635262 887635262 13.00000000
6.33242941 -2.13602066 -0.11665189 2 14 10864 6.68400000 887635264 887635264 -1.00000000
8.58096027 -2.89615083 2.42668748 60 15 10865 9.37600000 887635267 887635267 15.00000000
2.07507229 -0.70237321 -0.58700162 4 0 10870 2.26800000 887635287 887635287 -15.00000000
6.23890209 -2.11296558 0.11497645 60 1 10871 6.58800000 887635290 887635290 1.00000000
2.42702770 -0.82244796 -0.59162128 3 2 10872 2.63000000 887635292 887635292 -13.00000000
8.53679371 -2.89286709 0.47238433 15 3 10872 9.02600000 887635294 887635294 3.00000000
2.89862514 -0.98282236 -0.59494245 5 4 10873 3.11800000 887635297 887635297 -11.00000000
8.52629280 -2.89262676 0.78771359 37 5 10874 9.03800000 887635299 887635299 5.00000000
3.58770275 -1.21786106 -0.60008264 4 6 10875 3.83600000 887635301 887635301 -9.00000000
8.53728962 -2.89968133 1.10706115 40 7 10876 9.08400000 887635303 887635303 7.00000000
4.77774191 -1.62368500 -0.61958373 6 8 10877 5.08400000 887635306 887635306 -7.00000000
6.11408234 -2.07783175 1.02276850 27 9 10877 6.53800000 887635308 887635308 9.00000000
7.36607170 -2.50474644 -0.68068635 17 10 10878 7.81000000 887635310 887635310 -5.00000000
10.89153481 -3.70565987 2.23628139 6 11 10879 11.72000000 887635313 887635313 11.00000000
6.17692947 -2.10279822 -0.34196314 3 12 10880 6.53400000 887635315 887635315 -3.00000000
8.74370670 -2.97830343 2.13253593 59 13 10881 9.48000000 887635317 887635317 13.00000000
6.38436413 -2.17590189 -0.11773393 2 14 10882 6.74600000 887635320 887635320 -1.00000000
8.57964325 -2.92409110 2.42875791 51 15 10882 9.38400000 887635322 887635322 15.00000000
2.07443571 -0.71023804 -0.58751923 4 0 10890 2.27000000 887635343 887635343 -15.00000000
6.24851465 -2.14056325 0.11529060 63 1 10891 6.60600000 887635345 887635345 1.00000000
2.42045522 -0.82965106 -0.59072149 3 2 10892 2.62600000 887635347 887635347 -13.00000000
8.54175854 -2.92782927 0.47322172 23 3 10892 9.04200000 887635350 887635350 3.00000000
2.89517689 -0.99293447 -0.59494245 5 4 10893 3.11800000 887635352 887635352 -11.00000000
8.53687286 -2.92948508 0.78963101 41 5 10894 9.06000000 887635354 887635354 5.00000000
3.58716655 -1.23166001 -0.60070837 4 6 10895 3.84000000 887635356 887635356 -9.00000000
8.53838062 -2.93333411 1.10852349 42 7 10896 9.09600000 887635359 887635359 7.00000000
4.76078176 -1.63648081 -0.61812133 6 8 10897 5.07200000 887635361 887635361 -7.00000000
6.35524845 -2.18456602 1.06438005 25 9 10897 6.80400000 887635363 887635363 9.00000000
7.34032679 -2.52461147 -0.67911756 17 10 10898 7.79200000 887635366 887635366 -5.00000000
10.83212280 -3.72768450 2.22674108 9 11 10899 11.67000000 887635368 887635368 11.00000000
6.17710543 -2.12694788 -0.34238183 3 12 10900 6.54200000 887635370 887635370 -3.00000000
8.72957230 -3.00753689 2.13163614 57 13 10901 9.47600000 887635373 887635373 13.00000000
6.44856977 -2.22293878 -0.11906032 2 14 10902 6.82200000 887635375 887635375 -1.00000000
8.59078407 -2.96307635 2.43496966 45 15 10903 9.40800000 887635377 887635377 15.00000000
2.06829286 -0.71621060 -0.58648396 4 0 10910 2.26600000 887635398 887635398 -15.00000000
6.25989962 -2.16890812 0.11563964 63 1 10911 6.62600000 887635400 887635400 1.00000000
2.41754436 -0.83809501 -0.59072149 3 2 10912 2.62600000 887635403 887635403 -13.00000000
8.52908325 -2.95846224 0.47311705 23 3 10913 9.04000000 887635405 887635405 3.00000000
2.87870932 -0.99853081 -0.59227115 5 4 10913 3.10400000 887635407 887635407 -11.00000000
8.54353523 -2.96514583 0.79119980 37 5 10914 9.07800000 887635409 887635409 5.00000000
3.58284521 -1.24417400 -0.60070837 6 6 10915 3.84000000 887635412 887635412 -9.00000000
8.54308987 -2.96833301 1.11047351 45 7 10916 9.11200000 887635414 887635414 7.00000000
4.74754000 -1.65048158 -0.61714637 6 8 10917 5.06400000 887635416 887635416 -7.00000000
6.36997414 -2.21452069 1.06813455 25 9 10917 6.82800000 887635419 887635419 9.00000000
7.31641531 -2.54498219 -0.67772305 17 10 10918 7.77600000 887635421 887635421 -5.00000000
10.73746204 -3.73707867 2.20994973 12 11 10919 11.58200000 887635423 887635423 11.00000000
6.17341566 -2.14981079 -0.34259117 3 12 10920 6.54600000 887635426 887635426 -3.00000000
8.71533966 -3.03670812 2.13073635 57 13 10921 9.47200000 887635428 887635428 13.00000000
6.50874758 -2.26913357 -0.12031689 2 14 10922 6.89400000 887635430 887635430 -1.00000000
8.59185600 -2.99536395 2.43807530 45 15 10922 9.42000000 887635433 887635433 15.00000000
2.06578016 -0.72342592 -0.58648396 4 0 10930 2.26600000 887635453 887635453 -15.00000000
6.25040340 -2.19008493 0.11560474 8 1 10931 6.62400000 887635456 887635456 1.00000000
2.41828227 -0.84781814 -0.59162128 3 2 10932 2.63000000 887635458 887635458 -13.00000000
8.55074406 -2.99945498 0.47489646 23 3 10933 9.07400000 887635460 887635460 3.00000000
2.86964846 -1.00662374 -0.59112626 5 4 10933 3.09800000 887635462 887635462 -11.00000000
8.54817295 -3.00022888 0.79259431 41 5 10934 9.09400000 887635465 887635465 5.00000000
3.57848048 -1.25667286 -0.60070837 4 6 10935 3.84000000 887635467 887635467 -9.00000000
8.55140495 -3.00471640 1.11291087 42 7 10936 9.13200000 887635469 887635469 7.00000000
4.74924088 -1.66967714 -0.61812133 6 8 10937 5.07200000 887635472 887635472 -7.00000000
6.37672234 -2.24309683 1.07063746 25 9 10938 6.84400000 887635474 887635474 9.00000000
7.28681278 -2.56323314 -0.67580563 17 10 10938 7.75400000 887635476 887635476 -5.00000000
10.65953541 -3.75172377 2.19659305 12 11 10939 11.51200000 887635479 887635479 11.00000000
6.15645456 -2.16802979 -0.34206781 3 12 10940 6.53600000 887635481 887635481 -3.00000000
8.71571445 -3.07099748 2.13343573 59 13 10941 9.48400000 887635483 887635483 13.00000000
6.53096199 -2.30247760 -0.12087537 2 14 10942 6.92600000 887635486 887635486 -1.00000000
8.58628464 -3.02876234 2.43962836 42 15 10943 9.42600000 887635488 887635488 15.00000000
2.05972743 -0.72898322 -0.58544868 4 0 10949 2.26200000 887635509 887635509 -15.00000000
6.22237110 -2.20345736 0.11522079 17 1 10950 6.60200000 887635511 887635511 1.00000000
2.42647862 -0.85973775 -0.59432071 3 2 10951 2.64200000 887635513 887635513 -13.00000000
8.54451466 -3.02912855 0.47510582 21 3 10952 9.07800000 887635515 887635515 3.00000000
2.87369633 -1.01875830 -0.59265274 5 4 10952 3.10600000 887635518 887635518 -11.00000000
8.54944324 -3.03255534 0.79364020 41 5 10953 9.10600000 887635520 887635520 5.00000000
3.57801676 -1.26985407 -0.60133410 6 6 10954 3.84400000 887635522 887635522 -9.00000000
8.57132435 -3.04368567 1.11681068 42 7 10955 9.16400000 887635525 887635525 7.00000000
4.73619556 -1.68275857 -0.61714637 6 8 10956 5.06400000 887635527 887635527 -7.00000000
6.38453484 -2.26840949 1.07314038 25 9 10956 6.86000000 887635529 887635529 9.00000000
7.25199032 -2.57803988 -0.67336529 17 10 10957 7.72600000 887635532 887635532 -5.00000000
10.64703560 -3.78705144 2.19659305 12 11 10958 11.51200000 887635534 887635534 11.00000000
6.17745590 -2.19847822 -0.34363788 7 12 10959 6.56600000 887635536 887635536 -3.00000000
8.71282578 -3.10249782 2.13523531 57 13 10960 9.49200000 887635539 887635539 13.00000000
6.58922052 -2.34761190 -0.12209704 6 14 10961 6.99600000 887635541 887635541 -1.00000000
8.56580830 -3.05183196 2.43652248 45 15 10961 9.41400000 887635543 887635543 15.00000000
2.04807591 -0.73291403 -0.58286047 4 0 10969 2.25200000 887635564 887635564 -15.00000000
6.25417757 -2.23931980 0.11595379 71 1 10970 6.64400000 887635566 887635566 1.00000000
2.40878606 -0.86294466 -0.59072149 3 2 10971 2.62600000 887635568 887635568 -13.00000000
8.55833149 -3.06769705 0.47646654 23 3 10972 9.10400000 887635571 887635571 3.00000000
2.86457825 -1.02679574 -0.59150791 5 4 10972 3.10000000 887635573 887635573 -11.00000000
8.55005836 -3.06641579 0.79468608 41 5 10973 9.11800000 887635575 887635575 5.00000000
3.55868793 -1.27699840 -0.59883112 4 6 10974 3.82800000 887635578 887635578 -9.00000000
8.56812096 -3.07626987 1.11778557 42 7 10975 9.17200000 887635580 887635580 7.00000000
4.74523878 -1.70464981 -0.61909628 6 8 10976 5.08000000 887635582 887635582 -7.00000000
6.40220308 -2.30114913 1.07752061 22 9 10977 6.88800000 887635585 887635585 9.00000000
7.25044727 -2.60603404 -0.67406249 17 10 10977 7.73400000 887635587 887635587 -5.00000000
10.00747585 -3.59896731 2.06722474 12 11 10978 10.83400000 887635589 887635589 11.00000000
5.97617626 -2.15037775 -0.33285668 6 12 10979 6.36000000 887635591 887635591 -3.00000000
8.70927715 -3.13553286 2.13703513 56 13 10980 9.50000000 887635594 887635594 13.00000000
6.54523993 -2.35772181 -0.12143385 2 14 10981 6.95800000 887635596 887635596 -1.00000000
8.56183529 -3.08582687 2.43859315 45 15 10982 9.42200000 887635598 887635598 15.00000000
2.05640459 -0.74400216 -0.58596629 4 0 10989 2.26400000 887635619 887635619 -15.00000000
6.26324558 -2.26726317 0.11626793 57 1 10990 6.66200000 887635621 887635621 1.00000000
2.39843011 -0.86869311 -0.58892184 3 2 10991 2.61800000 887635624 887635624 -13.00000000
8.55508137 -3.10027432 0.47688523 26 3 10992 9.11200000 887635626 887635626 3.00000000
2.87389731 -1.04147100 -0.59417921 5 4 10992 3.11400000 887635628 887635628 -11.00000000
8.56739807 -3.10642958 0.79730076 37 5 10993 9.14800000 887635631 887635631 5.00000000
3.57649231 -1.29749691 -0.60258555 4 6 10994 3.85200000 887635633 887635633 -9.00000000
8.56852627 -3.11022329 1.11924803 40 7 10995 9.18400000 887635635 887635635 7.00000000
4.71686935 -1.71307170 -0.61617142 6 8 10996 5.05600000 887635638 887635638 -7.00000000
6.39082384 -2.32101822 1.07689488 20 9 10996 6.88400000 887635640 887635640 9.00000000
7.18138313 -2.60955238 -0.66848457 17 10 10997 7.67000000 887635642 887635642 -5.00000000
9.96902084 -3.62448645 2.06188202 15 11 10998 10.80600000 887635644 887635644 11.00000000
5.77531004 -2.10089946 -0.32207549 29 12 10999 6.15400000 887635647 887635647 -3.00000000
8.69827938 -3.16591477 2.13703513 57 13 11000 9.50000000 887635649 887635649 13.00000000
5.79665232 -2.11095452 -0.10768135 9 14 11001 6.17000000 887635651 887635651 -1.00000000
8.56426144 -3.11882925 2.44221640 45 15 11001 9.43600000 887635654 887635654 15.00000000
2.06105232 -0.75383019 -0.58803689 4 0 11009 2.27200000 887635674 887635674 -15.00000000
6.25529289 -2.28911209 0.11626793 25 1 11010 6.66200000 887635677 887635677 1.00000000
2.40270305 -0.87974000 -0.59072149 3 2 11011 2.62600000 887635679 887635679 -13.00000000
8.55358410 -3.13355350 0.47740859 26 3 11012 9.12200000 887635681 887635681 3.00000000
2.85549664 -1.04609382 -0.59112626 5 4 11012 3.09800000 887635684 887635684 -11.00000000
8.56772614 -3.14043045 0.79834658 37 5 11013 9.16000000 887635686 887635686 5.00000000
3.56823206 -1.30861294 -0.60195982 6 6 11014 3.84800000 887635688 887635688 -9.00000000
8.56879902 -3.14421701 1.12071049 42 7 11015 9.19600000 887635691 887635691 7.00000000
4.70340681 -1.72678959 -0.61519647 6 8 11016 5.04800000 887635693 887635693 -7.00000000
6.40637875 -2.35328078 1.08096218 15 9 11017 6.91000000 887635695 887635695 9.00000000
7.14604759 -2.62498617 -0.66604418 17 10 11017 7.64200000 887635697 887635697 -5.00000000
9.92866707 -3.64910388 2.05615783 18 11 11018 10.77600000 887635700 887635700 11.00000000
5.73982334 -2.11070633 -0.32050541 35 12 11019 6.12400000 887635702 887635702 -3.00000000
8.68351746 -3.19491243 2.13613510 56 13 11020 9.49600000 887635704 887635704 13.00000000
5.75546980 -2.11874104 -0.10705306 24 14 11021 6.13400000 887635707 887635707 -1.00000000
8.56002426 -3.15286875 2.44428706 45 15 11022 9.44400000 887635709 887635709 15.00000000
2.04753661 -0.75700051 -0.58493102 4 0 11029 2.26000000 887635730 887635730 -15.00000000
6.27727222 -2.32203364 0.11682641 63 1 11030 6.69400000 887635732 887635732 1.00000000
2.40327263 -0.88947445 -0.59162128 3 2 11031 2.63000000 887635734 887635734 -13.00000000
8.56132412 -3.17032766 0.47845531 21 3 11032 9.14200000 887635737 887635737 3.00000000
2.84814572 -1.05469143 -0.59036303 5 4 11032 3.09400000 887635739 887635739 -11.00000000
8.56605339 -3.17377925 0.79921818 37 5 11033 9.17000000 887635741 887635741 5.00000000
3.55993795 -1.31968725 -0.60133410 6 6 11034 3.84400000 887635744 887635744 -9.00000000
8.58196735 -3.18308282 1.12387908 38 7 11035 9.22200000 887635746 887635746 7.00000000
4.69735050 -1.74319696 -0.61519647 6 8 11036 5.04800000 887635748 887635748 -7.00000000
6.37631655 -2.36626482 1.07720768 7 9 11036 6.88600000 887635750 887635750 9.00000000
7.14804792 -2.65407562 -0.66709006 17 10 11037 7.65400000 887635753 887635753 -5.00000000
9.70606804 -3.60579801 2.01265335 9 11 11038 10.54800000 887635755 887635755 11.00000000
5.69123411 -2.11542034 -0.31820261 35 12 11039 6.08000000 887635757 887635757 -3.00000000
8.68144512 -3.22860050 2.13838482 54 13 11040 9.50600000 887635760 887635760 13.00000000
5.69556236 -2.11929226 -0.10607573 29 14 11041 6.07800000 887635762 887635762 -1.00000000
8.53684807 -3.17652154 2.44066358 42 15 11041 9.43000000 887635764 887635764 15.00000000
2.02497578 -0.75670457 -0.57923704 4 0 11049 2.23800000 887635785 887635785 -15.00000000
6.26163626 -2.34113002 0.11668679 57 1 11050 6.68600000 887635787 887635787 1.00000000
2.40380359 -0.89922357 -0.59252107 3 2 11051 2.63400000 887635790 887635790 -13.00000000
2.84628534 -1.06531513 -0.59074467 5 4 11052 3.09600000 887635794 887635794 -11.00000000
8.57544708 -3.21134710 0.80113560 45 5 11053 9.19200000 887635797 887635797 5.00000000
3.53681183 -1.32517481 -0.59820539 4 6 11054 3.82400000 887635799 887635799 -9.00000000
8.58381557 -3.21789789 1.12558520 40 7 11055 9.23600000 887635801 887635801 7.00000000
4.69123697 -1.75958323 -0.61519647 6 8 11056 5.04800000 887635803 887635803 -7.00000000
6.28067732 -2.35699892 1.06250286 5 9 11057 6.79200000 887635806 887635806 9.00000000
7.14993191 -2.68321109 -0.66813594 17 10 11057 7.66600000 887635808 887635808 -5.00000000
9.66769028 -3.62999511 2.00731063 12 11 11058 10.52000000 887635810 887635810 11.00000000
5.64642143 -2.12122560 -0.31610918 35 12 11059 6.04000000 887635813 887635813 -3.00000000
8.67376995 -3.26025605 2.13928461 52 13 11060 9.51000000 887635815 887635815 13.00000000
5.65631104 -2.12719440 -0.10548235 29 14 11061 6.04400000 887635817 887635817 -1.00000000
8.52876472 -3.20914984 2.44169879 45 15 11062 9.43400000 887635820 887635820 15.00000000
2.03858733 -0.76991135 -0.58389574 4 0 11069 2.25600000 887635840 887635840 -15.00000000
6.25529671 -2.36367965 0.11672170 57 1 11070 6.68800000 887635843 887635843 1.00000000
2.38606763 -0.90209574 -0.58892184 3 2 11071 2.61800000 887635845 887635845 -13.00000000
5.99839687 -2.26899838 0.33610150 2 3 11072 6.42200000 887635847 887635847 3.00000000
2.85540342 -1.08010614 -0.59341598 5 4 11072 3.11000000 887635850 887635850 -11.00000000
8.57350254 -3.24478769 0.80200714 37 5 11073 9.20200000 887635852 887635852 5.00000000
3.53585935 -1.33891165 -0.59883112 4 6 11074 3.82800000 887635854 887635854 -9.00000000
8.58552456 -3.25276446 1.12729144 38 7 11075 9.25000000 887635856 887635856 7.00000000
4.69620371 -1.78016973 -0.61665887 6 8 11076 5.06000000 887635859 887635859 -7.00000000
6.24327278 -2.36661053 1.05749702 5 9 11076 6.76000000 887635861 887635861 9.00000000
7.13679647 -2.70673943 -0.66778731 12 10 11077 7.66200000 887635863 887635863 -5.00000000
5.30105066 -2.01156306 1.10211277 11 11 11078 5.77600000 887635866 887635866 11.00000000
5.59416962 -2.12390852 -0.31359705 34 12 11079 5.99200000 887635868 887635868 -3.00000000
8.68237591 -3.29812527 2.14423347 62 13 11080 9.53200000 887635870 887635870 13.00000000
5.62081242 -2.13626909 -0.10495877 33 14 11081 6.01400000 887635873 887635873 -1.00000000
8.51085186 -3.23466921 2.43962836 42 15 11081 9.42600000 887635875 887635875 15.00000000
2.04671669 -0.78115577 -0.58700162 4 0 11089 2.26800000 887635896 887635896 -15.00000000
6.26755714 -2.39334750 0.11710565 57 1 11090 6.71000000 887635898 887635898 1.00000000
2.39018559 -0.91320121 -0.59072149 3 2 11091 2.62600000 887635900 887635900 -13.00000000
5.96991873 -2.28207827 0.33495012 2 3 11092 6.40000000 887635903 887635903 3.00000000
2.85161567 -1.09006679 -0.59341598 5 4 11092 3.11000000 887635905 887635905 -11.00000000
8.57515049 -3.27967715 0.80322731 37 5 11093 9.21600000 887635907 887635907 5.00000000
3.53116417 -1.35124588 -0.59883112 4 6 11094 3.82800000 887635909 887635909 -9.00000000
8.59080315 -3.28910160 1.12948513 40 7 11095 9.26800000 887635912 887635912 7.00000000
4.66771603 -1.78803051 -0.61373401 6 8 11096 5.03600000 887635914 887635914 -7.00000000
6.21283770 -2.37990975 1.05374253 2 9 11096 6.73600000 887635916 887635916 9.00000000
7.13102579 -2.73306108 -0.66813594 12 10 11097 7.66600000 887635919 887635919 -5.00000000
5.27933168 -2.02443147 1.09905982 25 11 11098 5.76000000 887635921 887635921 11.00000000
5.55688620 -2.13197613 -0.31192231 40 12 11099 5.96000000 887635923 887635923 -3.00000000
8.67081070 -3.32841229 2.14423347 60 13 11100 9.53200000 887635926 887635926 13.00000000
5.57411957 -2.14082026 -0.10422577 38 14 11101 5.97200000 887635928 887635928 -1.00000000
8.51754379 -3.27128434 2.44480467 42 15 11101 9.44600000 887635930 887635930 15.00000000
2.04037237 -0.78690511 -0.58596629 4 0 11109 2.26400000 887635951 887635951 -15.00000000
6.26662731 -2.41809011 0.11724526 57 1 11110 6.71800000 887635953 887635953 1.00000000
2.38334751 -0.92013520 -0.58982164 3 2 11111 2.62200000 887635956 887635956 -13.00000000
5.39926052 -2.08556676 0.30333921 7 3 11112 5.79600000 887635958 887635958 3.00000000
2.83680487 -1.09576976 -0.59112626 5 4 11112 3.09800000 887635960 887635960 -11.00000000
8.58595085 -3.31820869 0.80531907 37 5 11113 9.24000000 887635962 887635962 5.00000000
3.51905608 -1.36071408 -0.59757966 4 6 11114 3.82000000 887635965 887635965 -9.00000000
8.59037781 -3.32336664 1.13094747 40 7 11115 9.28000000 887635967 887635967 7.00000000
4.65774393 -1.80287981 -0.61324656 6 8 11116 5.03200000 887635969 887635969 -7.00000000
6.20407295 -2.40266490 1.05374253 2 9 11117 6.73600000 887635972 887635972 9.00000000
7.12144184 -2.75793648 -0.66813594 12 10 11117 7.66600000 887635974 887635974 -5.00000000
5.25575733 -2.03646350 1.09562528 37 11 11118 5.74200000 887635976 887635976 11.00000000
5.52706385 -2.14269710 -0.31066623 43 12 11119 5.93600000 887635979 887635979 -3.00000000
8.65913963 -3.35865879 2.14423347 57 13 11120 9.53200000 887635981 887635981 13.00000000
5.53305674 -2.14724231 -0.10359748 38 14 11121 5.93600000 887635983 887635983 -1.00000000
8.52048016 -3.30658746 2.44894576 40 15 11121 9.46200000 887635985 887635985 15.00000000
2.03941321 -0.79472399 -0.58648396 4 0 11129 2.26600000 887636006 887636006 -15.00000000
6.27677917 -2.44721413 0.11759432 54 1 11130 6.73800000 887636009 887636009 1.00000000
2.38012123 -0.92844903 -0.58982164 3 2 11131 2.62200000 887636011 887636011 -13.00000000
5.33613014 -2.08261633 0.30019903 28 3 11132 5.73600000 887636013 887636013 3.00000000
2.82930493 -1.10423779 -0.59036303 5 4 11132 3.09400000 887636015 887636015 -11.00000000
8.58730698 -3.35323191 0.80653924 41 5 11133 9.25400000 887636018 887636018 5.00000000
3.54004407 -1.38305342 -0.60195982 4 6 11134 3.84800000 887636020 887636020 -9.00000000
8.59721375 -3.36055923 1.13338494 42 7 11135 9.30000000 887636022 887636022 7.00000000
4.65142202 -1.81912744 -0.61324656 6 8 11136 5.03200000 887636025 887636025 -7.00000000
6.20300674 -2.42718577 1.05499399 2 9 11137 6.74400000 887636027 887636027 9.00000000
7.09692860 -2.77697015 -0.66674143 12 10 11137 7.65000000 887636029 887636029 -5.00000000
5.22850704 -2.04692435 1.09142745 25 11 11138 5.72000000 887636032 887636032 11.00000000
5.48979568 -2.15032220 -0.30899149 56 12 11139 5.90400000 887636034 887636034 -3.00000000
8.66550636 -3.39597487 2.14873242 60 13 11140 9.55200000 887636036 887636036 13.00000000
5.49574041 -2.15486360 -0.10303900 45 14 11141 5.90400000 887636038 887636038 -1.00000000
8.48132801 -3.32721162 2.44118118 22 15 11142 9.43200000 887636041 887636041 15.00000000
2.02030993 -0.79582125 -0.58182520 4 0 11150 2.24800000 887636062 887636062 -15.00000000
6.27148867 -2.47166944 0.11766412 20 1 11151 6.74200000 887636064 887636064 1.00000000
2.38395381 -0.94002581 -0.59162128 3 2 11152 2.63000000 887636066 887636066 -13.00000000
5.33775091 -2.10582519 0.30072239 33 3 11153 5.74600000 887636068 887636068 3.00000000
2.82158613 -1.11315930 -0.58959979 5 4 11153 3.09000000 887636071 887636071 -11.00000000
8.58237267 -3.38760948 0.80723649 41 5 11154 9.26200000 887636073 887636073 5.00000000
3.52760196 -1.39311671 -0.60070837 4 6 11155 3.84000000 887636075 887636075 -9.00000000
8.61068535 -3.40225983 1.13679719 40 7 11156 9.32800000 887636078 887636078 7.00000000
4.64472342 -1.83616352 -0.61324656 6 8 11157 5.03200000 887636080 887636080 -7.00000000
7.75544453 -3.06746674 1.32093263 5 9 11158 8.44400000 887636082 887636082 9.00000000
7.06076431 -2.79270387 -0.66430110 12 10 11158 7.62200000 887636085 887636085 -5.00000000
5.19723797 -2.05668283 1.08646643 5 11 11159 5.69400000 887636087 887636087 11.00000000
5.47073555 -2.16601729 -0.30836347 62 12 11160 5.89200000 887636089 887636089 -3.00000000
8.67474270 -3.43632507 2.15413141 62 13 11161 9.57600000 887636091 887636091 13.00000000
5.47479248 -2.16983461 -0.10279468 63 14 11162 5.89000000 887636094 887636094 -1.00000000
7.44417906 -2.95036530 2.14560986 6 15 11162 8.29000000 887636096 887636096 15.00000000
2.02469945 -0.80572575 -0.58389574 4 0 11170 2.25600000 887636117 887636117 -15.00000000
6.27582741 -2.49872398 0.11790846 40 1 11171 6.75600000 887636119 887636119 1.00000000
2.36617494 -0.94257224 -0.58802205 3 2 11172 2.61400000 887636121 887636121 -13.00000000
5.33778906 -2.12740231 0.30114108 38 3 11173 5.75400000 887636124 887636124 3.00000000
2.81768322 -1.12300169 -0.58959979 5 4 11173 3.09000000 887636126 887636126 -11.00000000
8.60010624 -3.42935467 0.81002545 37 5 11174 9.29400000 887636128 887636128 5.00000000
3.50070047 -1.39663792 -0.59695393 4 6 11175 3.81600000 887636131 887636131 -9.00000000
8.60244465 -3.43376780 1.13728476 38 7 11176 9.33200000 887636133 887636133 7.00000000
4.64197302 -1.85383785 -0.61373401 6 8 11177 5.03600000 887636135 887636135 -7.00000000
7.74102116 -3.09305358 1.32030690 10 9 11178 8.44000000 887636138 887636138 9.00000000
7.04727268 -2.81585479 -0.66395247 12 10 11178 7.61800000 887636140 887636140 -5.00000000
5.52363253 -2.20817733 1.15630257 3 11 11179 6.06000000 887636142 887636142 11.00000000
5.45201445 -2.18065023 -0.30773541 68 12 11180 5.88000000 887636144 887636144 -3.00000000
8.68078709 -3.47382498 2.15863037 66 13 11181 9.59600000 887636147 887636147 13.00000000
5.45790291 -2.18521571 -0.10262015 69 14 11182 5.88000000 887636149 887636149 -1.00000000
8.46148014 -3.38777709 2.44221640 33 15 11182 9.43600000 887636151 887636151 15.00000000
2.02545953 -0.81422949 -0.58493102 4 0 11190 2.26000000 887636172 887636172 -15.00000000
6.28005409 -2.52583885 0.11815279 43 1 11191 6.77000000 887636174 887636174 1.00000000
2.36287022 -0.95082599 -0.58802205 3 2 11192 2.61400000 887636177 887636177 -13.00000000
5.32514620 -2.14285445 0.30082709 9 3 11192 5.74800000 887636179 887636179 3.00000000
2.82285213 -1.13649654 -0.59150791 5 4 11193 3.10000000 887636181 887636181 -11.00000000
8.60656357 -3.46679783 0.81176859 37 5 11194 9.31400000 887636184 887636184 5.00000000
3.50679708 -1.41327953 -0.59883112 4 6 11195 3.82800000 887636186 887636186 -9.00000000
8.60145187 -3.46822906 1.13874710 42 7 11196 9.34400000 887636188 887636188 7.00000000
4.63547325 -1.87003016 -0.61373401 6 8 11197 5.03600000 887636190 887636190 -7.00000000
7.74354506 -3.12387991 1.32249701 10 9 11197 8.45400000 887636193 887636193 9.00000000
7.03740072 -2.84043741 -0.66395247 12 10 11198 7.61800000 887636195 887636195 -5.00000000
5.37389803 -2.17010474 1.12653625 3 11 11199 5.90400000 887636197 887636197 11.00000000
5.44436932 -2.19966817 -0.30773541 100 12 11200 5.88000000 887636200 887636200 -3.00000000
8.67944908 -3.50848722 2.16132975 66 13 11201 9.60800000 887636202 887636202 13.00000000
5.45394945 -2.20575333 -0.10268996 78 14 11202 5.88400000 887636204 887636204 -1.00000000
8.44781208 -3.41656828 2.44169879 36 15 11202 9.43400000 887636207 887636207 15.00000000
2.02618480 -0.82274830 -0.58596629 4 0 11210 2.26400000 887636227 887636227 -15.00000000
5.15220213 -2.09313989 0.09707028 18 1 11211 5.56200000 887636230 887636230 1.00000000
2.36314750 -0.96053576 -0.58892184 3 2 11212 2.61800000 887636232 887636232 -13.00000000
5.18219757 -2.10743356 0.29318604 27 3 11213 5.60200000 887636234 887636234 3.00000000
2.80795598 -1.14190578 -0.58921820 5 4 11213 3.08800000 887636237 887636237 -11.00000000
3.49086499 -1.42104316 -0.59695393 4 6 11215 3.81600000 887636241 887636241 -9.00000000
8.61870861 -3.51021290 1.14264691 38 7 11216 9.37600000 887636243 887636243 7.00000000
4.60318089 -1.87571228 -0.61032170 8 8 11217 5.00800000 887636246 887636246 -7.00000000
7.74484777 -3.15746069 1.32468700 10 9 11218 8.46800000 887636248 887636248 9.00000000
7.01637316 -2.86047220 -0.66290659 17 10 11218 7.60600000 887636250 887636250 -5.00000000
5.31175470 -2.16660547 1.11508775 3 11 11219 5.84400000 887636253 887636253 11.00000000
5.43111038 -2.21639514 -0.30742142 81 12 11220 5.87400000 887636255 887636255 -3.00000000
8.67436600 -3.54170942 2.16312933 64 13 11221 9.61600000 887636257 887636257 13.00000000
5.44066286 -2.22250915 -0.10258525 69 14 11222 5.87800000 887636260 887636260 -1.00000000
8.45311546 -3.45481682 2.44687533 33 15 11223 9.45400000 887636262 887636262 15.00000000
2.00557041 -0.82213545 -0.58078992 4 0 11229 2.24400000 887636283 887636283 -15.00000000
5.11933088 -2.09959054 0.09658162 40 1 11230 5.53400000 887636285 887636285 1.00000000
2.35994935 -0.96836692 -0.58892184 3 2 11231 2.61800000 887636287 887636287 -13.00000000
5.16261673 -2.11839604 0.29245332 18 3 11231 5.58800000 887636290 887636290 3.00000000
2.80415392 -1.15121102 -0.58921820 5 4 11232 3.08800000 887636292 887636292 -11.00000000
5.29673004 -2.17558789 0.50097120 36 5 11233 5.74800000 887636294 887636294 5.00000000
3.49709606 -1.43711650 -0.59883112 4 6 11234 3.82800000 887636296 887636296 -9.00000000
8.62905312 -3.54783249 1.14557183 40 7 11235 9.40000000 887636299 887636299 7.00000000
4.60427904 -1.89398742 -0.61129665 8 8 11236 5.01600000 887636301 887636301 -7.00000000
7.72702789 -3.18011904 1.32343554 10 9 11237 8.46000000 887636303 887636303 9.00000000
6.98842430 -2.87614083 -0.66116345 17 10 11237 7.58600000 887636306 887636306 -5.00000000
5.32269430 -2.19168305 1.11890399 3 11 11238 5.86400000 887636308 887636308 11.00000000
5.43481112 -2.23895788 -0.30804944 78 12 11239 5.88600000 887636310 887636310 -3.00000000
8.68419361 -3.57936645 2.16852808 66 13 11240 9.64000000 887636313 887636313 13.00000000
5.44435501 -2.24511290 -0.10279468 67 14 11241 5.89000000 887636315 887636315 -1.00000000
7.24384260 -2.98717570 2.09954000 9 15 11241 8.11200000 887636317 887636317 15.00000000
2.00625825 -0.83060914 -0.58182520 4 0 11249 2.24800000 887636338 887636338 -15.00000000
5.06763124 -2.09908152 0.09574390 32 1 11250 5.48600000 887636340 887636340 1.00000000
2.35295415 -0.97510666 -0.58802205 3 2 11251 2.61400000 887636342 887636342 -13.00000000
2.80193186 -1.16174424 -0.58959979 5 4 11252 3.09000000 887636347 887636347 -11.00000000
5.25781822 -2.18108559 0.49800792 36 5 11253 5.71400000 887636349 887636349 5.00000000
3.48111153 -1.44477165 -0.59695393 4 6 11254 3.81600000 887636352 887636352 -9.00000000
8.63311577 -3.58478332 1.14776552 36 7 11255 9.41800000 887636354 887636354 7.00000000
4.60497236 -1.91309416 -0.61227161 6 8 11256 5.02400000 887636356 887636356 -7.00000000
7.74141741 -3.21768641 1.32781577 5 9 11257 8.48800000 887636359 887636359 9.00000000
6.97098303 -2.89745855 -0.66046619 17 10 11257 7.57800000 887636361 887636361 -5.00000000
5.36214352 -2.22984910 1.12882602 3 11 11258 5.91600000 887636363 887636363 11.00000000
5.44355869 -2.26482010 -0.30899149 68 12 11259 5.90400000 887636366 887636366 -3.00000000
8.68963718 -3.61714697 2.17302728 57 13 11260 9.66000000 887636368 887636368 13.00000000
5.44386911 -2.26717877 -0.10293429 65 14 11261 5.89800000 887636370 887636370 -1.00000000
7.10496855 -2.95896792 2.06227016 6 15 11261 7.96800000 887636372 887636372 15.00000000
2.00156426 -0.83686203 -0.58130759 4 0 11269 2.24600000 887636393 887636393 -15.00000000
4.91084480 -2.05425096 0.09291662 7 1 11270 5.32400000 887636395 887636395 1.00000000
2.36032200 -0.98782814 -0.59072149 3 2 11271 2.62600000 887636398 887636398 -13.00000000
4.91151428 -2.05654573 0.27905533 2 3 11272 5.33200000 887636400 887636400 3.00000000
2.79785967 -1.17151773 -0.58959979 5 4 11272 3.09000000 887636402 887636402 -11.00000000
5.25752306 -2.20250487 0.49870515 33 5 11273 5.72200000 887636405 887636405 5.00000000
3.47969079 -1.45844138 -0.59757966 6 6 11274 3.82000000 887636407 887636407 -9.00000000
8.63153362 -3.61950254 1.14922786 36 7 11275 9.43000000 887636409 887636409 7.00000000
4.59460545 -1.92762089 -0.61178410 8 8 11276 5.02000000 887636412 887636412 -7.00000000
6.09858608 -2.55860114 1.04748523 5 9 11276 6.69600000 887636414 887636414 9.00000000
6.94980383 -2.91714740 -0.65942037 17 10 11277 7.56600000 887636416 887636416 -5.00000000
5.54981947 -2.33065009 1.17004073 3 11 11278 6.13200000 887636419 887636419 11.00000000
5.43930244 -2.28535509 -0.30920082 68 12 11279 5.90800000 887636421 887636421 -3.00000000
8.69851589 -3.65651941 2.17842603 56 13 11280 9.68400000 887636423 887636423 13.00000000
5.44698191 -2.29081893 -0.10314372 60 14 11281 5.91000000 887636425 887636425 -1.00000000
7.08339167 -2.98049355 2.05916429 9 15 11282 7.95600000 887636428 887636428 15.00000000
2.01108885 -0.84910363 -0.58493102 4 0 11289 2.26000000 887636448 887636448 -15.00000000
5.06943226 -2.14141202 0.09605805 27 1 11290 5.50400000 887636451 887636451 1.00000000
2.34967923 -0.99302673 -0.58892184 3 2 11291 2.61800000 887636453 887636453 -13.00000000
4.87339258 -2.05960393 0.27727589 2 3 11291 5.29800000 887636455 887636455 3.00000000
2.79917789 -1.18357062 -0.59074467 5 4 11292 3.09600000 887636458 887636458 -11.00000000
5.26448250 -2.22705364 0.50009966 33 5 11293 5.73800000 887636460 887636460 5.00000000
3.46730208 -1.46749914 -0.59632820 6 6 11294 3.81200000 887636462 887636462 -9.00000000
8.63164234 -3.65502834 1.15093410 40 7 11295 9.44400000 887636465 887636465 7.00000000
4.57688189 -1.93900120 -0.61032170 8 8 11296 5.00800000 887636467 887636467 -7.00000000
6.08734846 -2.58016539 1.04717231 10 9 11297 6.69400000 887636469 887636469 9.00000000
6.93224096 -2.93827891 -0.65872312 17 10 11297 7.55800000 887636472 887636472 -5.00000000
5.83265018 -2.47341061 1.23148131 3 11 11298 6.45400000 887636474 887636474 11.00000000
5.43496895 -2.30588818 -0.30941018 68 12 11299 5.91200000 887636476 887636476 -3.00000000
8.69646263 -3.69142938 2.18112540 56 13 11300 9.69600000 887636478 887636478 13.00000000
5.46287966 -2.31998014 -0.10359748 65 14 11301 5.93600000 887636481 887636481 -1.00000000
7.05516434 -2.99764657 2.05398798 9 15 11302 7.93600000 887636483 887636483 15.00000000
2.00115323 -0.85273868 -0.58286047 4 0 11308 2.25200000 887636504 887636504 -15.00000000
5.06966114 -2.16134810 0.09619766 27 1 11309 5.51200000 887636506 887636506 1.00000000
2.33920336 -0.99775481 -0.58712226 3 2 11310 2.61000000 887636508 887636508 -13.00000000
5.15496397 -2.19877839 0.29370940 11 3 11310 5.61200000 887636511 887636511 3.00000000
2.78259778 -1.18745255 -0.58807331 5 4 11311 3.08200000 887636513 887636513 -11.00000000
5.27172756 -2.25075769 0.50149417 30 5 11312 5.75400000 887636515 887636515 5.00000000
3.46241641 -1.47898901 -0.59632820 6 6 11313 3.81200000 887636518 887636518 -9.00000000
8.62495041 -3.68597221 1.15166533 18 7 11314 9.45000000 887636520 887636520 7.00000000
4.57772779 -1.95728970 -0.61129665 8 8 11315 5.01600000 887636522 887636522 -7.00000000
6.06831503 -2.59461689 1.04529512 10 9 11315 6.68200000 887636525 887636525 9.00000000
6.92429113 -2.96203446 -0.65889740 17 10 11316 7.56000000 887636527 887636527 -5.00000000
5.85870934 -2.50741577 1.23873198 6 11 11317 6.49200000 887636529 887636529 11.00000000
5.44198084 -2.33018780 -0.31024754 68 12 11318 5.92800000 887636531 887636531 -3.00000000
8.69133854 -3.72331691 2.18292499 57 13 11319 9.70400000 887636534 887636534 13.00000000
5.45515633 -2.33808303 -0.10359748 65 14 11320 5.93600000 887636536 887636536 -1.00000000
7.02387905 -3.01188970 2.04777622 2 15 11321 7.91200000 887636538 887636538 15.00000000
1.99816442 -0.85971886 -0.58286047 4 0 11328 2.25200000 887636559 887636559 -15.00000000
5.07494307 -2.18456578 0.09644200 25 1 11329 5.52600000 887636561 887636561 1.00000000
2.35360456 -1.01362228 -0.59162128 3 2 11330 2.63000000 887636564 887636564 -13.00000000
5.19495106 -2.23729944 0.29643086 22 3 11330 5.66400000 887636566 887636566 3.00000000
2.77843571 -1.19715846 -0.58807331 5 4 11331 3.08200000 887636568 887636568 -11.00000000
5.26749802 -2.27072310 0.50184274 30 5 11332 5.75800000 887636571 887636571 5.00000000
3.46992993 -1.49654222 -0.59851825 6 6 11333 3.82600000 887636573 887636573 -9.00000000
8.50267220 -3.66886854 1.13704097 6 7 11334 9.33000000 887636575 887636575 7.00000000
4.57086754 -1.97325695 -0.61129665 8 8 11335 5.01600000 887636578 887636578 -7.00000000
6.05196667 -2.61265182 1.04404366 20 9 11335 6.67400000 887636580 887636580 9.00000000
6.87001133 -2.96722674 -0.65471393 17 10 11336 7.51200000 887636582 887636582 -5.00000000
5.88596487 -2.54342628 1.24636436 9 11 11337 6.53200000 887636584 887636584 11.00000000
5.44848013 -2.35551023 -0.31108493 65 12 11338 5.94400000 887636587 887636587 -3.00000000
8.70154095 -3.76368999 2.18877387 51 13 11339 9.73000000 887636589 887636589 13.00000000
5.45613766 -2.36108160 -0.10377201 60 14 11340 5.94600000 887636591 887636591 -1.00000000
8.36599350 -3.62202239 2.44273424 29 15 11341 9.43800000 887636594 887636594 15.00000000
1.99160755 -0.86514908 -0.58182520 4 0 11348 2.24800000 887636614 887636614 -15.00000000
5.07095432 -2.20386147 0.09651181 27 1 11349 5.53000000 887636617 887636617 1.00000000
2.34290361 -1.01872349 -0.58982164 3 2 11350 2.62200000 887636619 887636619 -13.00000000
5.18894148 -2.25621581 0.29653552 24 3 11350 5.66600000 887636621 887636621 3.00000000
2.77063942 -1.20528340 -0.58731008 5 4 11351 3.07800000 887636624 887636624 -11.00000000
5.26867390 -2.29307175 0.50271434 30 5 11352 5.76800000 887636626 887636626 5.00000000
3.46106267 -1.50706816 -0.59789252 6 6 11353 3.82200000 887636628 887636628 -9.00000000
8.64996529 -3.76829457 1.15848994 27 7 11354 9.50600000 887636630 887636630 7.00000000
4.55121326 -1.98364830 -0.60959047 8 8 11355 5.00200000 887636633 887636633 -7.00000000
6.05186415 -2.63770747 1.04560792 20 9 11355 6.68400000 887636635 887636635 9.00000000
6.73359680 -2.93623972 -0.64268643 8 10 11356 7.37400000 887636637 887636637 -5.00000000
5.90764189 -2.57730246 1.25285184 12 11 11357 6.56600000 887636640 887636640 11.00000000
5.29195452 -2.30979872 -0.30260649 33 12 11358 5.78200000 887636642 887636642 -3.00000000
8.68834972 -3.79404092 2.18877387 37 13 11359 9.73000000 887636644 887636644 13.00000000
4.87797213 -2.13113356 -0.09291662 31 14 11360 5.32400000 887636647 887636647 -1.00000000
8.34685516 -3.64665151 2.44066358 33 15 11360 9.43000000 887636649 887636649 15.00000000
1.98857546 -0.87209582 -0.58182520 4 0 11368 2.24800000 887636670 887636670 -15.00000000
5.06872416 -2.22395945 0.09661652 52 1 11369 5.53600000 887636672 887636672 1.00000000
2.32862687 -1.02219570 -0.58712226 3 2 11370 2.61000000 887636674 887636674 -13.00000000
5.20115089 -2.28314567 0.29768690 26 3 11370 5.68800000 887636677 887636677 3.00000000
2.77180791 -1.21731567 -0.58845496 5 4 11371 3.08400000 887636679 887636679 -11.00000000
5.27340603 -2.31705928 0.50393450 30 5 11372 5.78200000 887636681 887636681 5.00000000
3.42503858 -1.50562632 -0.59257376 6 6 11373 3.78800000 887636683 887636683 -9.00000000
8.62040424 -3.79127312 1.15629637 6 7 11374 9.48800000 887636686 887636686 7.00000000
4.55152941 -2.00272083 -0.61056542 8 8 11375 5.01000000 887636688 887636688 -7.00000000
6.04623604 -2.66040754 1.04623365 22 9 11375 6.68800000 887636690 887636690 9.00000000
6.68318892 -2.94206595 -0.63885158 8 10 11376 7.33000000 887636693 887636693 -5.00000000
5.86626863 -2.58366442 1.24598277 12 11 11377 6.53000000 887636695 887636695 11.00000000
4.85800743 -2.14061117 -0.27821794 44 12 11378 5.31600000 887636697 887636697 -3.00000000
8.55201530 -3.77010536 2.15773058 15 13 11379 9.59200000 887636700 887636700 13.00000000
4.80463648 -2.11909699 -0.09166004 40 14 11380 5.25200000 887636702 887636702 -1.00000000
8.34580612 -3.68267894 2.44428706 38 15 11381 9.44400000 887636704 887636704 15.00000000
1.99611795 -0.88372427 -0.58493102 4 0 11388 2.26000000 887636725 887636725 -15.00000000
5.08469915 -2.25216699 0.09707028 26 1 11389 5.56200000 887636727 887636727 1.00000000
2.31791806 -1.02715993 -0.58532262 3 2 11390 2.60200000 887636730 887636730 -13.00000000
5.19274807 -2.30219364 0.29768690 21 3 11391 5.68800000 887636732 887636732 3.00000000
2.76754189 -1.22698367 -0.58845496 5 4 11391 3.08400000 887636734 887636734 -11.00000000
5.28167725 -2.34272313 0.50550330 30 5 11392 5.80000000 887636736 887636736 5.00000000
3.44142914 -1.52718771 -0.59632820 6 6 11393 3.81200000 887636739 887636739 -9.00000000
8.54724503 -3.79475880 1.14825296 6 7 11394 9.42200000 887636741 887636741 7.00000000
4.52274084 -2.00892639 -0.60764056 8 8 11395 4.98600000 887636743 887636743 -7.00000000
6.03330231 -2.67989278 1.04560792 22 9 11395 6.68400000 887636746 887636746 9.00000000
6.65467167 -2.95728564 -0.63710850 8 10 11396 7.31000000 887636748 887636748 -5.00000000
5.85900784 -2.60492349 1.24636436 12 11 11397 6.53200000 887636750 887636750 11.00000000
4.80305910 -2.13645101 -0.27549648 44 12 11398 5.26400000 887636753 887636753 -3.00000000
8.68835735 -3.86648893 2.19552231 46 13 11399 9.76000000 887636755 887636755 13.00000000
4.76980782 -2.12365532 -0.09113646 40 14 11400 5.22200000 887636757 887636757 -1.00000000
8.33354759 -3.71033454 2.44428706 38 15 11400 9.44400000 887636760 887636760 15.00000000
1.99302113 -0.89068663 -0.58493102 4 0 11408 2.26000000 887636780 887636780 -15.00000000
5.08045769 -2.27153444 0.09714010 28 1 11409 5.56600000 887636783 887636783 1.00000000
2.32143402 -1.03842759 -0.58712226 3 2 11410 2.61000000 887636785 887636785 -13.00000000
5.18650341 -2.32112145 0.29779160 19 3 11411 5.69000000 887636787 887636787 3.00000000
2.75786614 -1.23423076 -0.58731008 5 4 11411 3.07800000 887636789 887636789 -11.00000000
5.28801489 -2.36765885 0.50689781 30 5 11412 5.81600000 887636792 887636792 5.00000000
3.44689393 -1.54403663 -0.59820539 4 6 11413 3.82400000 887636794 887636794 -9.00000000
8.47416782 -3.79778051 1.14020956 6 7 11414 9.35600000 887636796 887636796 7.00000000
4.51207781 -2.02307725 -0.60715306 8 8 11415 4.98200000 887636799 887636799 -7.00000000
6.03064871 -2.70522189 1.04685938 25 9 11416 6.69200000 887636801 887636801 9.00000000
6.62612963 -2.97234225 -0.63536537 4 10 11416 7.29000000 887636803 887636803 -5.00000000
5.87495518 -2.63661313 1.25170696 12 11 11417 6.56000000 887636806 887636806 11.00000000
4.77735186 -2.14502287 -0.27444977 47 12 11418 5.24400000 887636808 887636808 -3.00000000
8.70324898 -3.90956974 2.20272064 64 13 11419 9.79200000 887636810 887636810 13.00000000
4.72406244 -2.12307787 -0.09040347 40 14 11420 5.18000000 887636813 887636813 -1.00000000
8.33046436 -3.74560690 2.44739294 38 15 11421 9.45600000 887636815 887636815 15.00000000
