# .PCD v0.7 - Point Cloud Data file format
VERSION 0.7
FIELDS x y z intensity laser_id azimuth distance_m adjustedtime timestamp vertical_angle
SIZE 4 4 4 1 1 2 8 8 4 8
TYPE F F F U U U F U U F
COUNT 1 1 1 1 1 1 1 1 1 1
WIDTH 534
HEIGHT 1
VIEWPOINT 0 0 0 1 0 0 0
POINTS 534
DATA ascii
-4.18826342 -7.58702660 2.32212448 11 15 20890 8.97200000 887363099 887363099 15.00000000
-0.93756682 -1.69350588 -0.51867336 5 0 20897 2.00400000 887363120 887363120 -15.00000000
-1.07764077 -1.94491601 -0.51333833 4 2 20899 2.28200000 887363124 887363124 -13.00000000
-1.25067127 -2.25627065 -0.50144607 3 4 20900 2.62800000 887363129 887363129 -11.00000000
-1.50834000 -2.71887875 -0.49245569 3 6 20902 3.14800000 887363134 887363134 -9.00000000
-1.87902725 -3.38428068 -0.47529045 1 8 20904 3.90000000 887363138 887363138 -7.00000000
-2.50859761 -4.51633024 -0.45198968 3 10 20905 5.18600000 887363143 887363143 -5.00000000
-3.69246268 -6.64222813 -0.39827663 4 12 20907 7.61000000 887363147 887363147 -3.00000000
-4.22035885 -7.58248854 2.32523036 9 15 20910 8.98400000 887363154 887363154 15.00000000
-0.93593985 -1.67672813 -0.51453227 5 0 20917 1.98800000 887363175 887363175 -15.00000000
-1.08252239 -1.93773985 -0.51243848 4 2 20919 2.27800000 887363180 887363180 -13.00000000
-1.26428628 -2.26217389 -0.50373572 3 4 20920 2.64000000 887363184 887363184 -11.00000000
-1.51589286 -2.71014905 -0.49182996 3 6 20922 3.14400000 887363189 887363189 -9.00000000
-1.88888979 -3.37423682 -0.47480297 1 8 20924 3.89600000 887363194 887363194 -7.00000000
-2.52240014 -4.50406933 -0.45164105 3 10 20925 5.18200000 887363198 887363198 -5.00000000
-3.71171999 -6.62232971 -0.39785793 4 12 20927 7.60200000 887363203 887363203 -3.00000000
-4.25909138 -7.58961153 2.33195949 18 15 20930 9.01000000 887363210 887363210 15.00000000
-0.94747186 -1.68355215 -0.51763809 5 0 20937 2.00000000 887363230 887363230 -15.00000000
-1.08927977 -1.93394935 -0.51243848 4 2 20939 2.27800000 887363235 887363235 -13.00000000
-1.26639235 -2.24748445 -0.50144607 3 4 20940 2.62800000 887363240 887363240 -11.00000000
-1.50787807 -2.67386961 -0.48619831 2 6 20942 3.10800000 887363244 887363244 -9.00000000
-1.91236496 -3.38836789 -0.47772783 1 8 20944 3.92000000 887363249 887363249 -7.00000000
-2.52831101 -4.47788763 -0.44989794 3 10 20945 5.16200000 887363253 887363253 -5.00000000
-3.72695279 -6.59542227 -0.39702058 4 12 20947 7.58600000 887363258 887363258 -3.00000000
-4.28804016 -7.58217239 2.33403015 20 15 20949 9.01800000 887363265 887363265 15.00000000
-0.95524949 -1.68359506 -0.51867336 5 0 20957 2.00400000 887363286 887363286 -15.00000000
-1.09025025 -1.91996777 -0.50973910 4 2 20959 2.26600000 887363290 887363290 -13.00000000
-1.27810884 -2.24987841 -0.50297248 3 4 20960 2.63600000 887363295 887363295 -11.00000000
-1.53672886 -2.70293474 -0.49245569 3 6 20962 3.14800000 887363299 887363299 -9.00000000
-1.90454638 -3.34716487 -0.47285306 1 8 20964 3.88000000 887363304 887363304 -7.00000000
-2.54984021 -4.47942400 -0.45094383 3 10 20965 5.17400000 887363309 887363309 -5.00000000
-3.74006605 -6.56501865 -0.39597383 4 12 20967 7.56600000 887363313 887363313 -3.00000000
-4.32920122 -7.58989811 2.34127712 22 15 20970 9.04600000 887363320 887363320 15.00000000
-0.96016127 -1.67857349 -0.51815575 4 0 20977 2.00200000 887363341 887363341 -15.00000000
-1.09888196 -1.91953290 -0.51063889 4 2 20979 2.27000000 887363346 887363346 -13.00000000
-1.28790593 -2.24881053 -0.50373572 3 4 20980 2.64000000 887363350 887363350 -11.00000000
-1.54418981 -2.69412637 -0.49182996 3 6 20982 3.14400000 887363355 887363355 -9.00000000
-1.92214501 -3.35082793 -0.47431549 1 8 20984 3.89200000 887363359 887363359 -7.00000000
-2.56942749 -4.47740841 -0.45164105 3 10 20985 5.18200000 887363364 887363364 -5.00000000
-3.75699115 -6.54153156 -0.39534581 4 12 20987 7.55400000 887363369 887363369 -3.00000000
-4.36878729 -7.60062361 2.34904170 22 15 20989 9.07600000 887363376 887363376 15.00000000
-0.96601474 -1.67521167 -0.51815575 4 0 20997 2.00200000 887363396 887363396 -15.00000000
-1.10557568 -1.91568530 -0.51063889 4 2 20999 2.27000000 887363401 887363401 -13.00000000
-1.29182136 -2.23750019 -0.50220925 3 4 21000 2.63200000 887363405 887363405 -11.00000000
-1.55358469 -2.68871975 -0.49182996 3 6 21002 3.14400000 887363410 887363410 -9.00000000
-1.93184245 -3.34066105 -0.47382802 1 8 21004 3.88800000 887363415 887363415 -7.00000000
-2.57705927 -4.45461559 -0.45024657 3 10 21005 5.16600000 887363419 887363419 -5.00000000
-3.77780104 -6.52492046 -0.39513648 4 12 21007 7.55000000 887363424 887363424 -3.00000000
-4.40436649 -7.59793091 2.35318279 22 15 21010 9.09200000 887363431 887363431 15.00000000
-0.96603113 -1.66180849 -0.51504987 4 0 21017 1.99000000 887363452 887363452 -15.00000000
-1.11813569 -1.92192101 -0.51333833 4 2 21019 2.28200000 887363456 887363456 -13.00000000
-1.29764867 -2.22958374 -0.50144607 3 4 21020 2.62800000 887363461 887363461 -11.00000000
-1.55898368 -2.67645264 -0.49057847 2 6 21022 3.13600000 887363465 887363465 -9.00000000
-1.92949533 -3.30988765 -0.47041565 1 8 21024 3.86000000 887363470 887363470 -7.00000000
-2.59259319 -4.44559288 -0.45024657 3 10 21025 5.16600000 887363475 887363475 -5.00000000
-3.80659485 -6.52204323 -0.39576450 4 12 21027 7.56200000 887363479 887363479 -3.00000000
-4.43148661 -7.58661985 2.35421801 9 15 21029 9.09600000 887363486 887363486 15.00000000
-0.97573286 -1.66509330 -0.51712048 5 0 21037 1.99800000 887363507 887363507 -15.00000000
-3.52644229 -6.01548529 0.12171308 2 1 21038 6.97400000 887363509 887363509 1.00000000
-1.11892259 -1.90792036 -0.51063889 4 2 21039 2.27000000 887363511 887363511 -13.00000000
-3.52626443 -6.01037216 0.36520031 7 3 21040 6.97800000 887363514 887363514 3.00000000
-1.30542350 -2.22504044 -0.50144607 3 4 21040 2.62800000 887363516 887363516 -11.00000000
-3.51770449 -5.99338531 0.60799849 13 5 21041 6.97600000 887363518 887363518 5.00000000
-1.56631625 -2.66758752 -0.48995274 2 6 21042 3.13200000 887363521 887363521 -9.00000000
-1.95914018 -3.33393884 -0.47480297 1 8 21044 3.89600000 887363525 887363525 -7.00000000
-3.53085756 -6.00618601 1.10348868 30 9 21045 7.05400000 887363528 887363528 9.00000000
-2.60809541 -4.43651581 -0.45024657 3 10 21045 5.16600000 887363530 887363530 -5.00000000
-3.51023149 -5.96871519 1.34596670 53 11 21046 7.05400000 887363532 887363532 11.00000000
-3.54980922 -6.03360224 -0.36687505 3 12 21047 7.01000000 887363534 887363534 -3.00000000
-3.51501417 -5.97207594 1.59985185 80 13 21048 7.11200000 887363537 887363537 13.00000000
-3.53291178 -6.00008821 -0.12153856 21 14 21049 6.96400000 887363539 887363539 -1.00000000
-3.50720859 -5.95405865 1.85159147 49 15 21050 7.15400000 887363541 887363541 15.00000000
-0.98939937 -1.67498398 -0.52126157 5 0 21057 2.01400000 887363562 887363562 -15.00000000
-3.53724551 -5.98592329 0.12136403 11 1 21058 6.95400000 887363564 887363564 1.00000000
-1.12855077 -1.90903556 -0.51198858 4 2 21059 2.27600000 887363567 887363567 -13.00000000
-3.54620624 -5.99630737 0.36509565 10 3 21060 6.97600000 887363569 887363569 3.00000000
-1.32117748 -2.23398900 -0.50449896 3 4 21060 2.64400000 887363571 887363571 -11.00000000
-3.53353143 -5.97249603 0.60712689 10 5 21061 6.96600000 887363574 887363574 5.00000000
-1.57360613 -2.65870404 -0.48932701 2 6 21062 3.12800000 887363576 887363576 -9.00000000
-3.52772379 -5.95793295 0.85016054 10 7 21063 6.97600000 887363578 887363578 7.00000000
-3.56720781 -6.02221918 -0.85942262 2 8 21064 7.05200000 887363581 887363581 -7.00000000
-3.52961397 -5.95875311 1.09691846 62 9 21064 7.01200000 887363583 887363583 9.00000000
-3.56817126 -6.02144909 -0.61235625 4 10 21065 7.02600000 887363585 887363585 -5.00000000
-3.51502657 -5.92940521 1.33986080 62 11 21066 7.02200000 887363587 887363587 11.00000000
-3.54741669 -5.98166323 -0.36446759 10 12 21067 6.96400000 887363590 887363590 -3.00000000
-3.51694703 -5.92792654 1.59130371 81 13 21068 7.07400000 887363592 887363592 13.00000000
-3.53342175 -5.95332718 -0.12084046 6 14 21069 6.92400000 887363594 887363594 -1.00000000
-3.51115751 -5.91581488 1.84330928 67 15 21069 7.12200000 887363597 887363597 15.00000000
-0.98832184 -1.65990078 -0.51763809 4 0 21077 2.00000000 887363617 887363617 -15.00000000
-3.54379225 -5.94948769 0.12087537 8 1 21078 6.92600000 887363620 887363620 1.00000000
-1.13221502 -1.90006232 -0.51063889 4 2 21079 2.27000000 887363622 887363622 -13.00000000
-3.54666209 -5.94958115 0.36300218 7 3 21080 6.93600000 887363624 887363624 3.00000000
-1.32092524 -2.21587276 -0.50144607 3 4 21080 2.62800000 887363627 887363627 -11.00000000
-3.54823494 -5.94985819 0.60608101 13 5 21081 6.95400000 887363629 887363629 5.00000000
-1.58894956 -2.66337347 -0.49120423 2 6 21082 3.14000000 887363631 887363631 -9.00000000
-3.53934336 -5.93024158 0.84796691 10 7 21083 6.95800000 887363634 887363634 7.00000000
-1.98440289 -3.32358909 -0.47529045 1 8 21084 3.90000000 887363636 887363636 -7.00000000
-3.53319693 -5.91525030 1.09128678 65 9 21085 6.97600000 887363638 887363638 9.00000000
-2.63900423 -4.41820002 -0.45024657 3 10 21085 5.16600000 887363640 887363640 -5.00000000
-3.52865338 -5.90530205 1.33718944 78 11 21086 7.00800000 887363643 887363643 11.00000000
-3.56110168 -5.95724344 -0.36373490 10 12 21087 6.95000000 887363645 887363645 -3.00000000
-3.52261519 -5.89052629 1.58455527 92 13 21088 7.04400000 887363647 887363647 13.00000000
-3.55315471 -5.93924093 -0.12080555 14 14 21089 6.92200000 887363650 887363650 -1.00000000
-3.51991940 -5.88135672 1.83657992 58 15 21090 7.09600000 887363652 887363652 15.00000000
-0.99551880 -1.66010129 -0.51867336 5 0 21095 2.00400000 887363673 887363673 -15.00000000
-3.55320716 -5.92289209 0.12056123 11 1 21096 6.90800000 887363675 887363675 1.00000000
-1.13817871 -1.89649606 -0.51063889 4 2 21097 2.27000000 887363677 887363677 -13.00000000
-3.55197072 -5.91614914 0.36164147 10 3 21098 6.91000000 887363680 887363680 3.00000000
-1.32788014 -2.21171212 -0.50144607 3 4 21098 2.62800000 887363682 887363682 -11.00000000
-3.55049562 -5.91135359 0.60329205 13 5 21099 6.92200000 887363684 887363684 5.00000000
-1.59222198 -2.64990234 -0.48963988 2 6 21100 3.13000000 887363687 887363687 -9.00000000
-3.54159307 -5.89187098 0.84406710 10 7 21101 6.92600000 887363689 887363689 7.00000000
-1.97642052 -3.28671694 -0.47090313 1 8 21102 3.86400000 887363691 887363691 -7.00000000
-3.53037262 -5.87088394 1.08502948 82 9 21102 6.93600000 887363693 887363693 9.00000000
-2.64876318 -4.40305853 -0.44954932 3 10 21103 5.15800000 887363696 887363696 -5.00000000
-3.53099084 -5.86727333 1.33108354 78 11 21104 6.97600000 887363698 887363698 11.00000000
-3.55713582 -5.90838289 -0.36143211 10 12 21105 6.90600000 887363700 887363700 -3.00000000
-3.52300596 -5.84938240 1.57645702 101 13 21106 7.00800000 887363703 887363703 13.00000000
-3.55321956 -5.89721823 -0.12017727 17 14 21107 6.88600000 887363705 887363705 -1.00000000
-3.52140212 -5.84441185 1.82829773 72 15 21107 7.06400000 887363707 887363707 15.00000000
-0.99631101 -1.64834964 -0.51608515 4 0 21115 1.99400000 887363728 887363728 -15.00000000
-3.55420089 -5.87794018 0.11989803 14 1 21116 6.87000000 887363730 887363730 1.00000000
-1.14580035 -1.89417887 -0.51108879 4 2 21117 2.27200000 887363733 887363733 -13.00000000
-3.56019187 -5.88320923 0.36038539 10 3 21118 6.88600000 887363735 887363735 3.00000000
-1.33152664 -2.20034480 -0.49991956 3 4 21118 2.62000000 887363737 887363737 -11.00000000
-3.55356765 -5.86994934 0.60032874 13 5 21119 6.88800000 887363740 887363740 5.00000000
-1.60760188 -2.65446615 -0.49151710 1 6 21120 3.14200000 887363742 887363742 -9.00000000
-3.54567981 -5.85230780 0.84016722 10 7 21121 6.89400000 887363744 887363744 7.00000000
-3.59197402 -5.92638445 -0.85089177 2 8 21122 6.98200000 887363746 887363746 -7.00000000
-3.53752828 -5.83425713 1.08064926 80 9 21123 6.90800000 887363749 887363749 9.00000000
-2.65378642 -4.37674904 -0.44780621 3 10 21123 5.13800000 887363751 887363751 -5.00000000
-3.53515887 -5.82805490 1.32497764 75 11 21124 6.94400000 887363753 887363753 11.00000000
-3.56426859 -5.87373304 -0.36007139 7 12 21125 6.88000000 887363756 887363756 -3.00000000
-3.52722263 -5.81039619 1.56925857 101 13 21126 6.97600000 887363758 887363758 13.00000000
-3.56236506 -5.86597824 -0.11979332 10 14 21127 6.86400000 887363760 887363760 -1.00000000
-3.51671982 -5.78853893 1.81483912 74 15 21128 7.01200000 887363763 887363763 15.00000000
-1.00363851 -1.64616144 -0.51660281 4 0 21137 1.99600000 887363783 887363783 -15.00000000
-3.55696011 -5.83181286 0.11923484 17 1 21138 6.83200000 887363786 887363786 1.00000000
-1.15306509 -1.88976538 -0.51108879 4 2 21139 2.27200000 887363788 887363788 -13.00000000
-3.56818724 -5.84562922 0.35891998 10 3 21140 6.85800000 887363790 887363790 3.00000000
-1.34405696 -2.20191884 -0.50144607 3 4 21140 2.62800000 887363793 887363793 -11.00000000
-3.55323672 -5.81885195 0.59649390 10 5 21141 6.84400000 887363795 887363795 5.00000000
-1.60954416 -2.63478804 -0.48901415 1 6 21142 3.12600000 887363797 887363797 -9.00000000
-3.55570340 -5.81832457 0.83724236 10 7 21143 6.87000000 887363799 887363799 7.00000000
-3.60227776 -5.89222479 -0.84796691 2 8 21144 6.95800000 887363802 887363802 -7.00000000
-3.54343247 -5.79597187 1.07595623 72 9 21144 6.87800000 887363804 887363804 9.00000000
-2.66225624 -4.35292912 -0.44641173 3 10 21145 5.12200000 887363806 887363806 -5.00000000
-3.53906751 -5.78429365 1.31810856 75 11 21146 6.90800000 887363809 887363809 11.00000000
-3.57219839 -5.83615494 -0.35860598 7 12 21147 6.85200000 887363811 887363811 -3.00000000
-3.53322482 -5.77021885 1.56206012 101 13 21148 6.94400000 887363813 887363813 13.00000000
-3.56710529 -5.82326794 -0.11919994 8 14 21149 6.83000000 887363816 887363816 -1.00000000
-3.52378488 -5.75254774 1.80759215 74 15 21149 6.98400000 887363818 887363818 15.00000000
-1.01038992 -1.64429390 -0.51712048 4 0 21157 1.99800000 887363839 887363839 -15.00000000
-3.57101202 -5.80913973 0.11902541 14 1 21158 6.82000000 887363841 887363841 1.00000000
-1.15557122 -1.87908900 -0.50928921 4 2 21159 2.26400000 887363843 887363843 -13.00000000
-3.56763983 -5.79911566 0.35682654 10 3 21160 6.81800000 887363846 887363846 3.00000000
-1.35584986 -2.20390248 -0.50297248 3 4 21160 2.63600000 887363848 887363848 -11.00000000
-3.55995083 -5.78435516 0.59422785 10 5 21161 6.81800000 887363850 887363850 5.00000000
-1.62080288 -2.63251805 -0.48963988 2 6 21162 3.13000000 887363852 887363852 -9.00000000
-3.55308843 -5.76869249 0.83188015 10 7 21163 6.82600000 887363855 887363855 7.00000000
-3.59887290 -5.84074354 -0.84236091 2 8 21164 6.91200000 887363857 887363857 -7.00000000
-3.55120778 -5.76338625 1.07220185 67 9 21164 6.85400000 887363859 887363859 9.00000000
-2.67743444 -4.34360981 -0.44641173 3 10 21165 5.12200000 887363862 887363862 -5.00000000
-3.54481030 -5.74850988 1.31276584 68 11 21166 6.88000000 887363864 887363864 11.00000000
-3.57786798 -5.79985237 -0.35714057 10 12 21167 6.82400000 887363866 887363866 -3.00000000
-3.53697014 -5.73131657 1.55486166 47 13 21168 6.91200000 887363869 887363869 13.00000000
-3.58110762 -5.80057192 -0.11899051 8 14 21169 6.81800000 887363871 887363871 -1.00000000
-3.53369522 -5.72377443 1.80241585 69 15 21169 6.96400000 887363873 887363873 15.00000000
-1.02324343 -1.65225375 -0.52074391 4 0 21177 2.01200000 887363894 887363894 -15.00000000
-3.57231116 -5.76604128 0.11839712 14 1 21178 6.78400000 887363896 887363896 1.00000000
-1.16828310 -1.88498235 -0.51198858 4 2 21179 2.27600000 887363899 887363899 -13.00000000
-3.55102444 -5.72721624 0.35316303 50 3 21180 6.74800000 887363901 887363901 3.00000000
-1.35732734 -2.18914485 -0.50068283 3 4 21180 2.62400000 887363903 887363903 -11.00000000
-3.56646776 -5.74988270 0.59196180 10 5 21181 6.79200000 887363905 887363905 5.00000000
-1.62789917 -2.62348723 -0.48901415 1 6 21182 3.12600000 887363908 887363908 -9.00000000
-3.56168699 -5.73770285 0.82919902 10 7 21183 6.80400000 887363910 887363910 7.00000000
-2.03058577 -3.26990008 -0.47260931 1 8 21184 3.87800000 887363912 887363912 -7.00000000
-3.55979896 -5.73019648 1.06844735 77 9 21185 6.83000000 887363915 887363915 9.00000000
-2.70624804 -4.35623837 -0.44867778 3 10 21185 5.14800000 887363917 887363917 -5.00000000
-3.55449176 -5.71942616 1.30894971 71 11 21186 6.86000000 887363919 887363919 11.00000000
-3.58332801 -5.76358175 -0.35567516 7 12 21187 6.79600000 887363922 887363922 -3.00000000
-3.54254580 -5.69576836 1.54856300 20 13 21188 6.88400000 887363924 887363924 13.00000000
-3.57069755 -5.73879766 -0.11797827 8 14 21189 6.76000000 887363926 887363926 -1.00000000
-3.53936529 -5.68844080 1.79516888 72 15 21189 6.93600000 887363928 887363928 15.00000000
-1.02184463 -1.63720012 -0.51712048 4 0 21197 1.99800000 887363949 887363949 -15.00000000
-3.57864857 -5.73148584 0.11794336 11 1 21198 6.75800000 887363952 887363952 1.00000000
-1.17072630 -1.87428153 -0.51018900 4 2 21199 2.26800000 887363954 887363954 -13.00000000
-3.54771018 -5.67752314 0.35086024 32 3 21200 6.70400000 887363956 887363956 3.00000000
-1.36496055 -2.18439364 -0.50068283 3 4 21200 2.62400000 887363958 887363958 -11.00000000
-3.57701206 -5.72219324 0.59039301 10 5 21201 6.77400000 887363961 887363961 5.00000000
-1.64123642 -2.62448835 -0.49026561 1 6 21202 3.13400000 887363963 887363963 -9.00000000
-3.57221818 -5.71008873 0.82700539 10 7 21203 6.78600000 887363965 887363965 7.00000000
-2.03250933 -3.24764752 -0.47041565 1 8 21204 3.86000000 887363968 887363968 -7.00000000
-3.55986261 -5.68592405 1.06250286 15 9 21205 6.79200000 887363970 887363970 9.00000000
-2.71932316 -4.34338808 -0.44832915 3 10 21205 5.14400000 887363972 887363972 -5.00000000
-3.55984521 -5.68369007 1.30360711 75 11 21206 6.83200000 887363975 887363975 11.00000000
-3.58433652 -5.72057390 -0.35379106 10 12 21207 6.76000000 887363977 887363977 -3.00000000
-3.54067135 -5.64869308 1.53911507 83 13 21208 6.84200000 887363979 887363979 13.00000000
-3.57477283 -5.70088625 -0.11745469 8 14 21209 6.73000000 887363981 887363981 -1.00000000
-3.54273868 -5.64760923 1.78636909 63 15 21210 6.90200000 887363984 887363984 15.00000000
-1.02138174 -1.62381160 -0.51401460 4 0 21217 1.98600000 887364005 887364005 -15.00000000
-3.57733345 -5.68510914 0.11724526 8 1 21218 6.71800000 887364007 887364007 1.00000000
-1.18245232 -1.87842941 -0.51243848 4 2 21219 2.27800000 887364009 887364009 -13.00000000
-3.55686378 -5.64820385 0.34981352 37 3 21220 6.68400000 887364011 887364011 3.00000000
-1.37676191 -2.18626094 -0.50220925 3 4 21220 2.63200000 887364014 887364014 -11.00000000
-3.57360077 -5.67258549 0.58655816 10 5 21221 6.73000000 887364016 887364016 5.00000000
-1.64828110 -2.61540103 -0.48963988 2 6 21222 3.13000000 887364018 887364018 -9.00000000
-3.57518935 -5.67071724 0.82310557 10 7 21223 6.75400000 887364021 887364021 7.00000000
-2.05865908 -3.26403952 -0.47382802 1 8 21224 3.88800000 887364023 887364023 -7.00000000
-3.56493115 -5.65007401 1.05812275 57 9 21225 6.76400000 887364025 887364025 9.00000000
-3.59882331 -5.70378971 -0.59004438 4 10 21225 6.77000000 887364028 887364028 -5.00000000
-3.55870509 -5.63802528 1.29597473 78 11 21226 6.79200000 887364030 887364030 11.00000000
-3.59681869 -5.69620562 -0.35305837 10 12 21227 6.74600000 887364032 887364032 -3.00000000
-3.55100083 -5.62147141 1.53506601 29 13 21228 6.82400000 887364034 887364034 13.00000000
-3.58396840 -5.67146873 -0.11710565 8 14 21229 6.71000000 887364037 887364037 -1.00000000
-3.54596734 -5.61133385 1.77860451 72 15 21229 6.87200000 887364039 887364039 15.00000000
-1.03221512 -1.62839472 -0.51660281 4 0 21237 1.99600000 887364060 887364060 -15.00000000
-3.57788014 -5.64218903 0.11661698 8 1 21238 6.68200000 887364062 887364062 1.00000000
-1.18378258 -1.86606264 -0.51018900 4 2 21239 2.26800000 887364064 887364064 -13.00000000
-3.56371570 -5.61551762 0.34855747 45 3 21240 6.66000000 887364067 887364067 3.00000000
-1.38859284 -2.18807220 -0.50373572 3 4 21240 2.64000000 887364069 887364069 -11.00000000
-3.57629395 -5.63316441 0.58376914 13 5 21241 6.69800000 887364071 887364071 5.00000000
-1.64786923 -2.59462404 -0.48682407 2 6 21242 3.11200000 887364074 887364074 -9.00000000
-3.57367110 -5.62469292 0.81823075 10 7 21243 6.71400000 887364076 887364076 7.00000000
-2.06365132 -3.24678159 -0.47236559 1 8 21244 3.87600000 887364078 887364078 -7.00000000
-3.57085299 -5.61592531 1.05405545 32 9 21245 6.73800000 887364081 887364081 9.00000000
-3.59839964 -5.65924835 -0.58673245 8 10 21245 6.73200000 887364083 887364083 -5.00000000
-3.55412865 -5.58746862 1.28719747 65 11 21246 6.74600000 887364085 887364085 11.00000000
-3.59201860 -5.64486027 -0.35065091 10 12 21247 6.70000000 887364087 887364087 -3.00000000
-3.55490446 -5.58438301 1.52831745 60 13 21248 6.79400000 887364090 887364090 13.00000000
-3.59515047 -5.64543009 -0.11682641 17 14 21249 6.69400000 887364092 887364092 -1.00000000
-3.55308056 -5.57936811 1.77239287 67 15 21249 6.84800000 887364094 887364094 15.00000000
-1.03893292 -1.62640977 -0.51712048 4 0 21257 1.99800000 887364115 887364115 -15.00000000
-3.58678532 -5.61281538 0.11626793 8 1 21258 6.66200000 887364117 887364117 1.00000000
-1.18818986 -1.85863531 -0.50928921 4 2 21259 2.26400000 887364120 887364120 -13.00000000
-3.55865097 -5.56664753 0.34625468 52 3 21259 6.61600000 887364122 887364122 3.00000000
-1.39622223 -2.18321180 -0.50373572 3 4 21260 2.64000000 887364124 887364124 -11.00000000
-3.58949327 -5.61057663 0.58272332 13 5 21261 6.68600000 887364127 887364127 5.00000000
-1.65372145 -2.58386469 -0.48588544 2 6 21262 3.10600000 887364129 887364129 -9.00000000
-3.57187557 -5.57874823 0.81335598 10 7 21263 6.67400000 887364131 887364131 7.00000000
-2.07497191 -3.23955822 -0.47236559 1 8 21264 3.87600000 887364133 887364133 -7.00000000
-3.58093309 -5.59074593 1.05155241 52 9 21264 6.72200000 887364136 887364136 9.00000000
-3.61168265 -5.63658762 -0.58568656 8 10 21265 6.72000000 887364138 887364138 -5.00000000
-3.56407571 -5.56015301 1.28376293 81 11 21266 6.72800000 887364140 887364140 11.00000000
-3.59984183 -5.61379337 -0.34949952 10 12 21267 6.67800000 887364143 887364143 -3.00000000
-3.56069732 -5.55061674 1.52246869 42 13 21268 6.76800000 887364145 887364145 13.00000000
-3.59647441 -5.60423613 -0.11623303 15 14 21269 6.66000000 887364147 887364147 -1.00000000
-3.55479693 -5.53929186 1.76359296 76 15 21269 6.81400000 887364150 887364150 15.00000000
-1.04774082 -1.62764645 -0.51867336 5 0 21277 2.00400000 887364170 887364170 -15.00000000
-3.59985971 -5.59017372 0.11605851 8 1 21278 6.65000000 887364173 887364173 1.00000000
-1.19678116 -1.85775292 -0.51018900 4 2 21279 2.26800000 887364175 887364175 -13.00000000
-3.56280088 -5.52838469 0.34468460 72 3 21280 6.58600000 887364177 887364177 3.00000000
-3.59466720 -5.57783175 -1.28986883 3 4 21280 6.76000000 887364180 887364180 -11.00000000
-3.59826016 -5.58126688 0.58098018 13 5 21281 6.66600000 887364182 887364182 5.00000000
-1.67343736 -2.59467697 -0.48901415 1 6 21282 3.12600000 887364184 887364184 -9.00000000
-3.58486986 -5.55623817 0.81189358 10 7 21283 6.66200000 887364186 887364186 7.00000000
-3.62459373 -5.61565495 -0.82066816 2 8 21284 6.73400000 887364189 887364189 -7.00000000
-3.58104110 -5.54605293 1.04560792 75 9 21285 6.68400000 887364191 887364191 9.00000000
-3.62485147 -5.61390352 -0.58464074 4 10 21285 6.70800000 887364193 887364193 -5.00000000
-3.57281017 -5.53118706 1.27994668 75 11 21286 6.70800000 887364196 887364196 11.00000000
-3.60640788 -5.58106327 -0.34824345 10 12 21287 6.65400000 887364198 887364198 -3.00000000
-3.55995011 -5.50705910 1.51392055 18 13 21288 6.73000000 887364200 887364200 13.00000000
-3.60081244 -5.56813955 -0.11574436 18 14 21289 6.63200000 887364203 887364203 -1.00000000
-3.56143427 -5.50513935 1.75686371 72 15 21290 6.78800000 887364205 887364205 15.00000000
-1.04787731 -1.61605847 -0.51608515 4 0 21296 1.99400000 887364226 887364226 -15.00000000
-3.60531902 -5.55807352 0.11563964 8 1 21297 6.62600000 887364228 887364228 1.00000000
-1.20187438 -1.85213935 -0.50973910 4 2 21298 2.26600000 887364230 887364230 -13.00000000
-3.58015108 -5.51716471 0.34468460 95 3 21298 6.58600000 887364233 887364233 3.00000000
-3.59497166 -5.53788662 -1.28338134 5 4 21299 6.72600000 887364235 887364235 -11.00000000
-3.59938622 -5.54256868 0.57819122 13 5 21300 6.63400000 887364237 887364237 5.00000000
-1.68741322 -2.59739590 -0.49057847 2 6 21301 3.13600000 887364239 887364239 -9.00000000
-3.59245801 -5.52767515 0.80945617 10 7 21302 6.64200000 887364242 887364242 7.00000000
-3.62912965 -5.58196878 -0.81749958 2 8 21303 6.70800000 887364244 887364244 -7.00000000
-3.57894945 -5.50268459 1.03966343 70 9 21304 6.64600000 887364246 887364246 9.00000000
-3.62280822 -5.57011843 -0.58132881 4 10 21304 6.67000000 887364249 887364249 -5.00000000
-3.58042550 -5.50285292 1.27613056 65 11 21305 6.68800000 887364251 887364251 11.00000000
-3.61182094 -5.54898643 -0.34698740 10 12 21306 6.63000000 887364253 887364253 -3.00000000
-3.56224227 -5.47072792 1.50717211 51 13 21307 6.70000000 887364256 887364256 13.00000000
-3.59742832 -5.52265692 -0.11504626 22 14 21308 6.59200000 887364258 887364258 -1.00000000
-3.56184101 -5.46802425 1.74858141 74 15 21308 6.75600000 887364260 887364260 15.00000000
-1.05351210 -1.61239088 -0.51608515 4 0 21316 1.99400000 887364281 887364281 -15.00000000
-3.60172248 -5.51030397 0.11490665 14 1 21317 6.58400000 887364283 887364283 1.00000000
-1.21473110 -1.85771871 -0.51243848 4 2 21318 2.27800000 887364285 887364285 -13.00000000
-3.59720182 -5.50129080 0.34447527 22 3 21318 6.58200000 887364288 887364288 3.00000000
-1.40788209 -2.15228915 -0.49991956 3 4 21319 2.62000000 887364290 887364290 -11.00000000
-3.59798336 -5.49829483 0.57487929 13 5 21320 6.59600000 887364292 887364292 5.00000000
-1.68456829 -2.57330990 -0.48713693 1 6 21321 3.11400000 887364295 887364295 -9.00000000
-3.59759331 -5.49351263 0.80628759 10 7 21322 6.61600000 887364297 887364297 7.00000000
-3.62683558 -5.53605700 -0.81262475 2 8 21323 6.66800000 887364299 887364299 -7.00000000
-3.58514190 -5.47033215 1.03590906 77 9 21324 6.62200000 887364302 887364302 9.00000000
-2.79911065 -4.27097893 -0.44676033 3 10 21324 5.12600000 887364304 887364304 -5.00000000
-3.58454204 -5.46733522 1.27078795 71 11 21325 6.66000000 887364306 887364306 11.00000000
-3.61692858 -5.51463366 -0.34562665 10 12 21326 6.60400000 887364309 887364309 -3.00000000
-3.57169557 -5.44359589 1.50312293 87 13 21327 6.68200000 887364311 887364311 13.00000000
-3.60571098 -5.49334812 -0.11469722 22 14 21328 6.57200000 887364313 887364313 -1.00000000
-3.56288505 -5.42810249 1.73978162 63 15 21328 6.72200000 887364315 887364315 15.00000000
-1.05672908 -1.60566103 -0.51504987 4 0 21335 1.99000000 887364336 887364336 -15.00000000
-3.60348105 -5.47327662 0.11438307 14 1 21336 6.55400000 887364338 887364338 1.00000000
-1.21338165 -1.84228814 -0.50928921 4 2 21337 2.26400000 887364341 887364341 -13.00000000
-3.61528420 -5.48703289 0.34437060 10 3 21338 6.58000000 887364343 887364343 3.00000000
-1.41501164 -2.14760852 -0.49991956 3 4 21338 2.62000000 887364345 887364345 -11.00000000
-3.60413527 -5.46803427 0.57296187 9 5 21339 6.57400000 887364348 887364348 5.00000000
-1.68874276 -2.56111288 -0.48588544 2 6 21340 3.10600000 887364350 887364350 -9.00000000
-3.59720874 -5.45338202 0.80214399 26 7 21341 6.58200000 887364352 887364352 7.00000000
-3.63752055 -5.51240158 -0.81091863 2 8 21342 6.65400000 887364355 887364355 -7.00000000
-3.59360600 -5.44585228 1.03340602 77 9 21342 6.60600000 887364357 887364357 9.00000000
-2.79789138 -4.23839426 -0.44431996 3 10 21343 5.09800000 887364359 887364359 -5.00000000
-3.58101511 -5.42265320 1.26315558 81 11 21344 6.62000000 887364362 887364362 11.00000000
-3.61648059 -5.47427940 -0.34384724 10 12 21345 6.57000000 887364364 887364364 -3.00000000
-3.58220625 -5.42034149 1.49997365 90 13 21346 6.66800000 887364366 887364366 13.00000000
-3.61067390 -5.46134424 -0.11427835 11 14 21347 6.54800000 887364368 887364368 -1.00000000
-3.57115388 -5.39951944 1.73460519 65 15 21348 6.70200000 887364371 887364371 15.00000000
-1.06553042 -1.60679257 -0.51660281 4 0 21355 1.99600000 887364391 887364391 -15.00000000
-3.60708809 -5.43733549 0.11389440 14 1 21356 6.52600000 887364394 887364394 1.00000000
-1.21333969 -1.82829916 -0.50658977 4 2 21357 2.25200000 887364396 887364396 -13.00000000
-3.61358070 -5.44505930 0.34248650 10 3 21357 6.54400000 887364398 887364398 3.00000000
-1.42684305 -2.14919853 -0.50144607 3 4 21358 2.62800000 887364401 887364401 -11.00000000
-3.60446143 -5.42720556 0.56999856 9 5 21359 6.54000000 887364403 887364403 5.00000000
-1.70969713 -2.57330108 -0.48932701 2 6 21360 3.12800000 887364405 887364405 -9.00000000
-3.59974051 -5.41599369 0.79848796 44 7 21361 6.55200000 887364408 887364408 7.00000000
-3.64464998 -5.48148727 -0.80823749 2 8 21362 6.63200000 887364410 887364410 -7.00000000
-3.59713149 -5.40797281 1.02871299 85 9 21363 6.57600000 887364412 887364412 9.00000000
-2.79611754 -4.20371819 -0.44170532 3 10 21363 5.06800000 887364415 887364415 -5.00000000
-3.58252048 -5.38396835 1.25704968 81 11 21364 6.58800000 887364417 887364417 11.00000000
-3.62228680 -5.44167137 -0.34259117 10 12 21365 6.54600000 887364419 887364419 -3.00000000
-3.58166289 -5.37860775 1.49187541 103 13 21366 6.63200000 887364421 887364421 13.00000000
-3.61752033 -5.43040037 -0.11389440 9 14 21367 6.52600000 887364424 887364424 -1.00000000
-3.58248091 -5.37576771 1.73098183 69 15 21368 6.68800000 887364426 887364426 15.00000000
-1.07383990 -1.60590124 -0.51763809 5 0 21377 2.00000000 887364447 887364447 -15.00000000
-3.62238002 -5.41513491 0.11371988 17 1 21378 6.51600000 887364449 887364449 1.00000000
-1.22360218 -1.82848549 -0.50793946 3 2 21379 2.25800000 887364451 887364451 -13.00000000
-3.61557841 -5.40292597 0.34070706 12 3 21379 6.51000000 887364454 887364454 3.00000000
-1.43508482 -2.14370418 -0.50144607 3 4 21380 2.62800000 887364456 887364456 -11.00000000
-3.62083936 -5.40670347 0.56930131 9 5 21381 6.53200000 887364458 887364458 5.00000000
-1.70857060 -2.55030608 -0.48619831 2 6 21382 3.10800000 887364461 887364461 -9.00000000
-3.61056328 -5.38729095 0.79629427 84 7 21383 6.53400000 887364463 887364463 7.00000000
-3.65461612 -5.45096445 -0.80580008 2 8 21384 6.61200000 887364465 887364465 -7.00000000
-3.59712791 -5.36521912 1.02308142 85 9 21384 6.54000000 887364468 887364468 9.00000000
-2.83665371 -4.22935390 -0.44554016 3 10 21385 5.11200000 887364470 887364470 -5.00000000
-3.59004068 -5.35060930 1.25247025 81 11 21386 6.56400000 887364472 887364472 11.00000000
-3.62979746 -5.40782261 -0.34133512 10 12 21387 6.52200000 887364474 887364474 -3.00000000
-3.58273482 -5.33569431 1.48377717 103 13 21388 6.59600000 887364477 887364477 13.00000000
-3.62384963 -5.39489079 -0.11344064 9 14 21389 6.50000000 887364479 887364479 -1.00000000
-3.58801103 -5.33952379 1.72373486 72 15 21390 6.66000000 887364481 887364481 15.00000000
-1.07620072 -1.59733653 -0.51608515 4 0 21397 1.99400000 887364502 887364502 -15.00000000
-3.62784886 -5.38255882 0.11330102 17 1 21398 6.49200000 887364504 887364504 1.00000000
-1.23433518 -1.83066618 -0.50973910 3 2 21399 2.26600000 887364507 887364507 -13.00000000
-3.62436700 -5.37536860 0.33976504 20 3 21399 6.49200000 887364509 887364509 3.00000000
-1.43597198 -2.12891603 -0.49915633 3 4 21400 2.61600000 887364511 887364511 -11.00000000
-3.61182976 -5.35274220 0.56494355 9 5 21401 6.48200000 887364514 887364514 5.00000000
-1.72630394 -2.55742478 -0.48870125 2 6 21402 3.12400000 887364516 887364516 -9.00000000
-3.60823917 -5.34339714 0.79166323 86 7 21403 6.49600000 887364518 887364518 7.00000000
-2.13794541 -3.16486597 -0.46895322 1 8 21404 3.84800000 887364521 887364521 -7.00000000
-3.59593034 -5.32316589 1.01744974 85 9 21404 6.50400000 887364523 887364523 9.00000000
-2.84135938 -4.20456934 -0.44397137 3 10 21405 5.09400000 887364525 887364525 -5.00000000
-3.60209870 -5.32828665 1.25018048 78 11 21406 6.55200000 887364527 887364527 11.00000000
-3.63298774 -5.37195730 -0.33986971 10 12 21407 6.49400000 887364530 887364530 -3.00000000
-3.58605027 -5.30055904 1.47747850 103 13 21408 6.56800000 887364532 887364532 13.00000000
-3.62808847 -5.36067963 -0.11298688 9 14 21409 6.47400000 887364534 887364534 -1.00000000
-3.58496618 -5.29497290 1.71338212 74 15 21410 6.62000000 887364537 887364537 15.00000000
-1.08012903 -1.59234893 -0.51556754 5 0 21415 1.99200000 887364557 887364557 -15.00000000
-3.62340665 -5.33969593 0.11263783 17 1 21416 6.45400000 887364560 887364560 1.00000000
-1.24008024 -1.82677937 -0.50973910 3 2 21417 2.26600000 887364562 887364562 -13.00000000
-3.63338399 -5.35238838 0.33903232 20 3 21417 6.47800000 887364564 887364564 3.00000000
-1.44485891 -2.12764263 -0.49991956 3 4 21418 2.62000000 887364567 887364567 -11.00000000
-3.61071420 -5.31500006 0.56215453 9 5 21419 6.45000000 887364569 887364569 5.00000000
-1.72766793 -2.54218602 -0.48682407 2 6 21420 3.11200000 887364571 887364571 -9.00000000
-3.61831164 -5.32218552 0.79020083 86 7 21421 6.48400000 887364573 887364573 7.00000000
-2.14787745 -3.15813375 -0.46895322 1 8 21422 3.84800000 887364576 887364576 -7.00000000
-3.60152698 -5.29550886 1.01432109 82 9 21422 6.48400000 887364578 887364578 9.00000000
-2.85455441 -4.19562197 -0.44397137 3 10 21423 5.09400000 887364580 887364580 -5.00000000
-3.59893656 -5.28772974 1.24331141 78 11 21424 6.51600000 887364583 887364583 11.00000000
-3.64647412 -5.35556459 -0.33955568 10 12 21425 6.48800000 887364585 887364585 -3.00000000
-3.58732629 -5.26671791 1.47117984 92 13 21426 6.54000000 887364587 887364587 13.00000000
-3.63702941 -5.33768749 -0.11274254 9 14 21427 6.46000000 887364590 887364590 -1.00000000
-3.58434367 -5.26036596 1.70561755 78 15 21427 6.59000000 887364592 887364592 15.00000000
-1.08568084 -1.58856893 -0.51556754 4 0 21435 1.99200000 887364613 887364613 -15.00000000
-3.60929394 -5.27914333 0.11162559 14 1 21436 6.39600000 887364615 887364615 1.00000000
-1.24534917 -1.82083106 -0.50928921 4 2 21437 2.26400000 887364617 887364617 -13.00000000
-3.61370945 -5.28362179 0.33547348 12 3 21437 6.41000000 887364620 887364620 3.00000000
-1.44784260 -2.11610484 -0.49839309 3 4 21438 2.61200000 887364622 887364622 -11.00000000
-3.61236501 -5.27770185 0.55953985 9 5 21439 6.42000000 887364624 887364624 5.00000000
-1.73206711 -2.52962017 -0.48557258 2 6 21440 3.10400000 887364626 887364626 -9.00000000
-3.61667514 -5.28004360 0.78581351 81 7 21441 6.44800000 887364629 887364629 7.00000000
-2.16562080 -3.16044235 -0.47041565 1 8 21442 3.86000000 887364631 887364631 -7.00000000
-3.60994029 -5.26823902 1.01150525 72 9 21442 6.46600000 887364633 887364633 9.00000000
-2.88044739 -4.20206594 -0.44571447 3 10 21443 5.11400000 887364636 887364636 -5.00000000
-3.60182810 -5.25246716 1.23796880 68 11 21444 6.48800000 887364638 887364638 11.00000000
-3.64593935 -5.31480455 -0.33777627 10 12 21445 6.45400000 887364640 887364640 -3.00000000
-3.59686732 -5.24130964 1.46758068 90 13 21446 6.52400000 887364643 887364643 13.00000000
-3.61829066 -5.27055550 -0.11159068 18 14 21447 6.39400000 887364645 887364645 -1.00000000
-3.59047604 -5.22808361 1.69940591 54 15 21448 6.56600000 887364647 887364647 15.00000000
-1.09121931 -1.58476949 -0.51556754 4 0 21455 1.99200000 887364668 887364668 -15.00000000
-3.62543082 -5.26321840 0.11155578 5 1 21456 6.39200000 887364670 887364670 1.00000000
-1.24727452 -1.81005430 -0.50748956 4 2 21457 2.25600000 887364673 887364673 -13.00000000
-1.46413445 -2.12396955 -0.50144607 3 4 21458 2.62800000 887364677 887364677 -11.00000000
-3.60248852 -5.22405481 0.55518210 3 5 21459 6.37000000 887364679 887364679 5.00000000
-1.74312997 -2.52681088 -0.48619831 2 6 21460 3.10800000 887364682 887364682 -9.00000000
-3.61929870 -5.24451399 0.78240120 49 7 21461 6.42000000 887364684 887364684 7.00000000
-2.16085052 -3.12999320 -0.46700332 1 8 21462 3.83200000 887364686 887364686 -7.00000000
-3.62606335 -5.25235462 1.01087952 37 9 21462 6.46200000 887364689 887364689 9.00000000
-2.89283347 -4.18870687 -0.44536585 3 10 21463 5.11000000 887364691 887364691 -5.00000000
-3.61679268 -5.23501682 1.23682392 31 11 21464 6.48200000 887364693 887364693 11.00000000
-3.64630032 -5.27575731 -0.33610150 10 12 21465 6.42200000 887364696 887364696 -3.00000000
-3.59962559 -5.20628166 1.46128201 25 13 21466 6.49600000 887364698 887364698 13.00000000
-3.60559535 -5.21297073 1.69837058 13 15 21467 6.56200000 887364703 887364703 15.00000000
-1.10555375 -1.59364915 -0.51970863 4 0 21475 2.00800000 887364723 887364723 -15.00000000
-3.62439895 -5.22260332 0.11096240 11 1 21476 6.35800000 887364726 887364726 1.00000000
-1.25580788 -1.80889106 -0.50838935 4 2 21477 2.26000000 887364728 887364728 -13.00000000
-3.62294316 -5.21661663 0.33285668 7 3 21478 6.36000000 887364730 887364730 3.00000000
-1.46482015 -2.10917068 -0.49915633 3 4 21478 2.61600000 887364732 887364732 -11.00000000
-3.62979627 -5.22453785 0.55657655 3 5 21479 6.38600000 887364735 887364735 5.00000000
-1.75532174 -2.52557707 -0.48713693 1 6 21480 3.11400000 887364737 887364737 -9.00000000
-3.64211631 -5.23836756 0.78337616 13 7 21481 6.42800000 887364739 887364739 7.00000000
-2.16949606 -3.11917186 -0.46651584 1 8 21482 3.82800000 887364742 887364742 -7.00000000
-3.63626409 -5.22605753 1.00837660 17 9 21483 6.44600000 887364744 887364744 9.00000000
-2.90060949 -4.16877079 -0.44431996 3 10 21483 5.09800000 887364746 887364746 -5.00000000
-3.64626026 -5.23847342 1.24064004 15 11 21484 6.50200000 887364749 887364749 11.00000000
-3.66126990 -5.25808001 -0.33578750 10 12 21485 6.41600000 887364751 887364751 -3.00000000
-3.63337064 -5.21607113 1.46758068 15 13 21486 6.52400000 887364753 887364753 13.00000000
-3.62527299 -5.20250988 -0.11068316 6 14 21487 6.34200000 887364756 887364756 -1.00000000
-3.63351560 -5.21239901 1.70251167 9 15 21488 6.57800000 887364758 887364758 15.00000000
-1.10806644 -1.58483672 -0.51815575 4 0 21496 2.00200000 887364779 887364779 -15.00000000
-3.65726995 -5.22894764 0.11138126 5 1 21497 6.38200000 887364781 887364781 1.00000000
-1.26689816 -1.81066298 -0.51018900 4 2 21498 2.26800000 887364783 887364783 -13.00000000
-3.65807271 -5.22621059 0.33432209 25 3 21499 6.38800000 887364785 887364785 3.00000000
-1.47254086 -2.10378766 -0.49915633 3 4 21499 2.61600000 887364788 887364788 -11.00000000
-3.66606259 -5.23568010 0.55919123 32 5 21500 6.41600000 887364790 887364790 5.00000000
-1.76230001 -2.51589060 -0.48651120 2 6 21501 3.11000000 887364792 887364792 -9.00000000
-3.67154408 -5.23961449 0.78556979 10 7 21502 6.44600000 887364795 887364795 7.00000000
-2.18775058 -3.12095237 -0.46797827 1 8 21503 3.84000000 887364797 887364797 -7.00000000
-3.65788603 -5.21818542 1.00931513 10 9 21503 6.45200000 887364799 887364799 9.00000000
-2.91586924 -4.15811157 -0.44431996 3 10 21504 5.09800000 887364802 887364802 -5.00000000
-3.67107296 -5.23310995 1.24254823 12 11 21505 6.51200000 887364804 887364804 11.00000000
-3.67822266 -5.24135590 -0.33557814 10 12 21506 6.41200000 887364806 887364806 -3.00000000
-3.66030216 -5.21388388 1.47072995 15 13 21507 6.53800000 887364809 887364809 13.00000000
-3.66155577 -5.21373463 -0.11120673 20 14 21508 6.37200000 887364811 887364811 -1.00000000
-3.66612172 -5.22023582 1.70924103 11 15 21508 6.60400000 887364813 887364813 15.00000000
-1.10802948 -1.57306230 -0.51556754 5 0 21516 1.99200000 887364834 887364834 -15.00000000
-3.67434835 -5.21451521 0.11134636 31 1 21517 6.38000000 887364836 887364836 1.00000000
-1.27321076 -1.80622959 -0.51018900 4 2 21518 2.26800000 887364838 887364838 -13.00000000
-3.67514229 -5.21177721 0.33421743 15 3 21519 6.38600000 887364841 887364841 3.00000000
-1.47987545 -2.09863472 -0.49915633 3 4 21519 2.61600000 887364843 887364843 -11.00000000
-3.67972231 -5.21633911 0.55849397 9 5 21520 6.40800000 887364845 887364845 5.00000000
-1.77676618 -2.51779366 -0.48807552 2 6 21521 3.12000000 887364848 887364848 -9.00000000
-3.69668031 -5.23649693 0.78703225 10 7 21522 6.45800000 887364850 887364850 7.00000000
-3.69988441 -5.23909473 -0.78751969 4 8 21523 6.46200000 887364852 887364852 -7.00000000
-3.69408393 -5.22894382 1.01400816 10 9 21524 6.48200000 887364855 887364855 9.00000000
-2.92576742 -4.14139891 -0.44362274 3 10 21524 5.09000000 887364857 887364857 -5.00000000
-3.69611621 -5.22988319 1.24483788 12 11 21525 6.52400000 887364859 887364859 11.00000000
-3.71724987 -5.25783968 -0.33746225 10 12 21526 6.44800000 887364861 887364861 -3.00000000
-3.69535851 -5.22494078 1.47747850 16 13 21527 6.56800000 887364864 887364864 13.00000000
-3.69128251 -5.21724558 -0.11155578 13 14 21528 6.39200000 887364866 887364866 -1.00000000
-3.68969440 -5.21307135 1.71131158 11 15 21529 6.61200000 887364868 887364868 15.00000000
-1.11547530 -1.57253063 -0.51660281 4 0 21535 1.99600000 887364889 887364889 -15.00000000
-3.71823668 -5.23981047 0.11214916 8 1 21536 6.42600000 887364891 887364891 1.00000000
-1.28144956 -1.80517566 -0.51108879 4 2 21537 2.27200000 887364894 887364894 -13.00000000
-3.72247171 -5.24190044 0.33693889 7 3 21538 6.43800000 887364896 887364896 3.00000000
-1.48910010 -2.09691715 -0.49991956 3 4 21538 2.62000000 887364898 887364898 -11.00000000
-3.72584677 -5.24471426 0.56285179 13 5 21539 6.45800000 887364901 887364901 5.00000000
-1.77595127 -2.49900627 -0.48557258 2 6 21540 3.10400000 887364903 887364903 -9.00000000
-3.72552681 -5.24038839 0.78946960 10 7 21541 6.47800000 887364905 887364905 7.00000000
-3.75865531 -5.28503370 -0.79629427 4 8 21542 6.53400000 887364908 887364908 -7.00000000
-3.72194147 -5.23341084 1.01713693 10 9 21542 6.50200000 887364910 887364910 9.00000000
-2.94179487 -4.13492060 -0.44397137 3 10 21543 5.09400000 887364912 887364912 -5.00000000
-3.71685386 -5.22239637 1.24598277 12 11 21544 6.53000000 887364914 887364914 11.00000000
-3.74393225 -5.25850010 -0.33829963 10 12 21545 6.46400000 887364917 887364917 -3.00000000
-3.72510052 -5.23011780 1.48242748 16 13 21546 6.59000000 887364919 887364919 13.00000000
-3.73409152 -5.24080515 -0.11232369 18 14 21547 6.43600000 887364921 887364921 -1.00000000
-3.72398973 -5.22662735 1.71959376 11 15 21547 6.64400000 887364924 887364924 15.00000000
-1.12657368 -1.57648611 -0.51919103 4 0 21555 2.00600000 887364944 887364944 -15.00000000
-3.73883033 -5.23005295 0.11221898 14 1 21556 6.43000000 887364947 887364947 1.00000000
-1.28434229 -1.79593623 -0.50973910 3 2 21557 2.26600000 887364949 887364949 -13.00000000
-3.75469160 -5.24836731 0.33819494 10 3 21558 6.46200000 887364951 887364951 3.00000000
-1.50097978 -2.09809327 -0.50144607 3 4 21558 2.62800000 887364954 887364954 -11.00000000
-3.75920558 -5.25273943 0.56511784 13 5 21559 6.48400000 887364956 887364956 5.00000000
-1.79616272 -2.50885367 -0.48870125 2 6 21560 3.12400000 887364958 887364958 -9.00000000
-3.75188756 -5.23864937 0.79117578 10 7 21561 6.49200000 887364961 887364961 7.00000000
-2.21052289 -3.08534956 -0.46602836 1 8 21562 3.82400000 887364963 887364963 -7.00000000
-3.75605774 -5.24060631 1.02120423 10 9 21563 6.52800000 887364965 887364965 9.00000000
-2.96317434 -4.13434315 -0.44501722 3 10 21563 5.10600000 887364967 887364967 -5.00000000
-3.74993253 -5.23013210 1.25094378 12 11 21564 6.55600000 887364970 887364970 11.00000000
-3.76226497 -5.24539900 -0.33829963 10 12 21565 6.46400000 887364972 887364972 -3.00000000
-3.75015092 -5.22658300 1.48512685 16 13 21566 6.60200000 887364974 887364974 13.00000000
-3.76985335 -5.25210714 -0.11284726 18 14 21567 6.46600000 887364977 887364977 -1.00000000
-3.75889587 -5.23491240 1.72684062 11 15 21568 6.67200000 887364979 887364979 15.00000000
-1.13036013 -1.56901395 -0.51815575 4 0 21577 2.00200000 887365000 887365000 -15.00000000
-3.77525306 -5.23837042 0.11270764 20 1 21578 6.45800000 887365002 887365002 1.00000000
-1.29008901 -1.78941071 -0.50928921 4 2 21579 2.26400000 887365004 887365004 -13.00000000
-3.77832103 -5.23877144 0.33850896 10 3 21580 6.46800000 887365007 887365007 3.00000000
-1.50443113 -2.08594513 -0.49991956 3 4 21580 2.62000000 887365009 887365009 -11.00000000
-3.78983855 -5.25280809 0.56668663 13 5 21581 6.50200000 887365011 887365011 5.00000000
-1.80115855 -2.49553132 -0.48744980 2 6 21582 3.11600000 887365014 887365014 -9.00000000
-3.78010917 -5.23547029 0.79288197 10 7 21583 6.50600000 887365016 887365016 7.00000000
-3.81356764 -5.27986860 -0.79970664 4 8 21584 6.56200000 887365018 887365018 -7.00000000
-3.78565001 -5.24121666 1.02401996 10 9 21584 6.54600000 887365020 887365020 9.00000000
-2.97669363 -4.11970520 -0.44466859 3 10 21585 5.10200000 887365023 887365023 -5.00000000
-3.77918768 -5.22842407 1.25399673 12 11 21586 6.57200000 887365025 887365025 11.00000000
-3.79408097 -5.24709940 -0.33934635 10 12 21587 6.48400000 887365027 887365027 -3.00000000
-3.78389740 -5.23109245 1.49052572 15 13 21588 6.62600000 887365030 887365030 13.00000000
-3.80640411 -5.26027346 -0.11333593 9 14 21589 6.49400000 887365032 887365032 -1.00000000
-3.79504514 -5.24457645 1.73460519 9 15 21589 6.70200000 887365034 887365034 15.00000000
-1.12902200 -1.55567765 -0.51504987 4 0 21597 1.99000000 887365055 887365055 -15.00000000
-3.80878806 -5.24619722 0.11316140 20 1 21598 6.48400000 887365057 887365057 1.00000000
-1.30090809 -1.79120362 -0.51108879 4 2 21599 2.27200000 887365060 887365060 -13.00000000
-3.81419420 -5.24978781 0.34007904 10 3 21600 6.49800000 887365062 887365062 3.00000000
-1.50247145 -2.06797457 -0.49686661 3 4 21600 2.60400000 887365064 887365064 -11.00000000
-3.81166530 -5.24438238 0.56720960 9 5 21601 6.50800000 887365067 887365067 5.00000000
-1.80985856 -2.48922896 -0.48744980 2 6 21602 3.11600000 887365069 887365069 -9.00000000
-3.81354070 -5.24311304 0.79605055 10 7 21603 6.53200000 887365071 887365071 7.00000000
-2.25643849 -3.10116601 -0.47090313 1 8 21604 3.86400000 887365073 887365073 -7.00000000
-3.81064701 -5.23529196 1.02558434 10 9 21605 6.55600000 887365076 887365076 9.00000000
-2.98871088 -4.10606766 -0.44431996 3 10 21605 5.09800000 887365078 887365078 -5.00000000
-3.81706119 -5.24218082 1.26048422 12 11 21606 6.60600000 887365080 887365080 11.00000000
-3.82883668 -5.25642490 -0.34081176 10 12 21607 6.51200000 887365083 887365083 -3.00000000
-3.81590605 -5.23675203 1.49592447 15 13 21608 6.65000000 887365085 887365085 13.00000000
-3.82592058 -5.24857092 -0.11337084 9 14 21609 6.49600000 887365087 887365087 -1.00000000
-3.82220984 -5.24155807 1.73822868 9 15 21610 6.71600000 887365090 887365090 15.00000000
-1.13303471 -1.55036545 -0.51453227 4 0 21616 1.98800000 887365110 887365110 -15.00000000
-3.83560562 -5.24645233 0.11344064 20 1 21617 6.50000000 887365113 887365113 1.00000000
-1.30684078 -1.78687978 -0.51108879 4 2 21618 2.27200000 887365115 887365115 -13.00000000
-3.84691310 -5.25806570 0.34143978 12 3 21619 6.52400000 887365117 887365117 3.00000000
-1.51859474 -2.07565665 -0.49991956 3 4 21619 2.62000000 887365120 887365120 -11.00000000
-3.84433270 -5.25261450 0.56947565 9 5 21620 6.53400000 887365122 887365122 5.00000000
-1.81810319 -2.48321342 -0.48744980 2 6 21621 3.11600000 887365124 887365124 -9.00000000
-3.84967399 -5.25606203 0.79995036 10 7 21622 6.56400000 887365126 887365126 7.00000000
-2.25263119 -3.07445121 -0.46797827 1 8 21623 3.84000000 887365129 887365129 -7.00000000
-3.84108543 -5.24241590 1.02933884 10 9 21623 6.58000000 887365131 887365131 9.00000000
-2.98817658 -4.07685041 -0.44222823 3 10 21624 5.07400000 887365133 887365133 -5.00000000
-3.84603262 -5.24532700 1.26430035 12 11 21625 6.62600000 887365136 887365136 11.00000000
-3.85215306 -5.25175142 -0.34133512 10 12 21626 6.52200000 887365138 887365138 -3.00000000
-3.84477925 -5.23978090 1.50042355 16 13 21627 6.67000000 887365140 887365140 13.00000000
-3.85513735 -5.25197506 -0.11371988 9 14 21628 6.51600000 887365143 887365143 -1.00000000
-3.84437346 -5.23731089 1.74081695 9 15 21628 6.72600000 887365145 887365145 15.00000000
