# .PCD v0.7 - Point Cloud Data file format
VERSION 0.7
FIELDS x y z intensity laser_id azimuth distance_m adjustedtime timestamp vertical_angle
SIZE 4 4 4 1 1 2 8 8 4 8
TYPE F F F U U U F U U F
COUNT 1 1 1 1 1 1 1 1 1 1
WIDTH 552
HEIGHT 1
VIEWPOINT 0 0 0 1 0 0 0
POINTS 552
DATA ascii
2.28704715 3.47508383 -0.65890199 4 6 3335 4.21200000 881514191 881514191 -9.00000000
2.73408556 4.15118647 -0.61032170 17 8 3337 5.00800000 881514195 881514195 -7.00000000
2.76569057 4.19757748 -0.43978786 12 10 3338 5.04600000 881514200 881514200 -5.00000000
5.60335159 8.49470234 2.34938884 60 13 3341 10.44400000 881514207 881514207 13.00000000
4.87316608 7.38493347 2.37078238 45 15 3342 9.16000000 881514211 881514211 15.00000000
1.25958550 1.90230465 -0.61133057 4 0 3351 2.36200000 881514232 881514232 -15.00000000
1.50700545 2.27424860 -0.62986296 3 2 3353 2.80000000 881514237 881514237 -13.00000000
1.79740655 2.71147013 -0.63234103 2 4 3354 3.31400000 881514241 881514241 -11.00000000
2.29103255 3.45350933 -0.65639901 4 6 3356 4.19600000 881514246 881514246 -9.00000000
2.74269438 4.13121462 -0.60885924 19 8 3358 4.99600000 881514250 881514250 -7.00000000
2.76011372 4.15587854 -0.43647596 15 10 3359 5.00800000 881514255 881514255 -5.00000000
2.75283599 4.14178276 -0.26063305 17 12 3361 4.98000000 881514260 881514260 -3.00000000
5.63444853 8.47410774 2.34938884 64 13 3362 10.44400000 881514262 881514262 13.00000000
4.89378071 7.35737181 2.36767673 45 15 3363 9.14800000 881514267 881514267 15.00000000
1.26836252 1.90111041 -0.61236584 4 0 3371 2.36600000 881514287 881514287 -15.00000000
2.76583815 4.14249897 -1.14994979 17 2 3373 5.11200000 881514292 881514292 -13.00000000
1.80904126 2.70844483 -0.63310426 2 4 3374 3.31800000 881514297 881514297 -11.00000000
2.30746436 3.45206022 -0.65765047 6 6 3376 4.20400000 881514301 881514301 -9.00000000
2.75268340 4.11501598 -0.60788429 17 8 3378 4.98800000 881514306 881514306 -7.00000000
2.76795506 4.13628340 -0.43543008 18 10 3379 4.99600000 881514310 881514310 -5.00000000
4.70388937 7.02658558 1.64362872 12 11 3380 8.61400000 881514313 881514313 11.00000000
5.66833258 8.46086407 2.35118842 62 13 3382 10.45200000 881514317 881514317 13.00000000
4.92179012 7.34099054 2.36819434 45 15 3384 9.15000000 881514322 881514322 15.00000000
1.27896976 1.90330780 -0.61443639 4 0 3390 2.37400000 881514343 881514343 -15.00000000
1.82458794 2.71220446 -0.63539398 2 4 3393 3.33000000 881514352 881514352 -11.00000000
2.31889915 3.44438934 -0.65765047 6 6 3395 4.20400000 881514356 881514356 -9.00000000
2.75744057 4.09269476 -0.60593438 21 8 3397 4.97200000 881514361 881514361 -7.00000000
2.77942920 4.12377739 -0.43508148 21 10 3398 4.99200000 881514366 881514366 -5.00000000
4.71618891 6.99467039 1.63981247 21 11 3399 8.59400000 881514368 881514368 11.00000000
5.69199896 8.43555927 2.34938884 60 13 3401 10.44400000 881514373 881514373 13.00000000
4.94807053 7.33029556 2.36974716 45 15 3402 9.15600000 881514377 881514377 15.00000000
1.28993797 1.90523052 -0.61650699 4 0 3410 2.38200000 881514398 881514398 -15.00000000
2.76227117 4.07679129 -1.13690257 118 2 3412 5.05400000 881514402 881514402 -13.00000000
1.83184111 2.70256877 -0.63463074 2 4 3413 3.32600000 881514407 881514407 -11.00000000
2.33201718 3.43790865 -0.65796334 9 6 3415 4.20600000 881514412 881514412 -9.00000000
2.76502037 4.07318974 -0.60447192 40 8 3417 4.96000000 881514416 881514416 -7.00000000
2.78597164 4.10251284 -0.43386129 36 10 3418 4.97800000 881514421 881514421 -5.00000000
4.73395681 6.96842146 1.63752282 31 11 3419 8.58200000 881514423 881514423 11.00000000
5.71702719 8.40919304 2.34758925 62 13 3421 10.43600000 881514428 881514428 13.00000000
2.81705475 4.14205933 -0.08743656 6 14 3422 5.01000000 881514430 881514430 -1.00000000
4.97362804 7.31297874 2.36974716 45 15 3422 9.15600000 881514432 881514432 15.00000000
1.28971863 1.89136589 -0.61340111 4 0 3429 2.37000000 881514453 881514453 -15.00000000
2.78456259 4.08048630 -1.14050186 153 2 3431 5.07000000 881514458 881514458 -13.00000000
1.84079301 2.69647932 -0.63463074 2 4 3432 3.32600000 881514462 881514462 -11.00000000
2.34117627 3.42689443 -0.65733761 6 6 3434 4.20200000 881514467 881514467 -9.00000000
2.76506805 4.04433393 -0.60154706 61 8 3436 4.93600000 881514472 881514472 -7.00000000
2.78606367 4.07351685 -0.43176955 54 10 3437 4.95400000 881514476 881514476 -5.00000000
4.76369047 6.96240664 1.63981247 18 11 3438 8.59400000 881514479 881514479 11.00000000
2.79317021 4.08085012 -0.25916764 235 12 3439 4.95200000 881514481 881514481 -3.00000000
5.74488163 8.39018822 2.34758925 64 13 3440 10.43600000 881514483 881514483 13.00000000
2.81382418 4.10794830 -0.08691298 8 14 3441 4.98000000 881514485 881514485 -1.00000000
4.99803257 7.29397964 2.36922956 45 15 3442 9.15400000 881514488 881514488 15.00000000
1.29631293 1.88685238 -0.61340111 4 0 3449 2.37000000 881514508 881514508 -15.00000000
2.79989314 4.07234716 -1.14095175 167 2 3451 5.07200000 881514513 881514513 -13.00000000
1.85464454 2.69650769 -0.63615721 4 4 3452 3.33400000 881514518 881514518 -11.00000000
2.34864402 3.41219258 -0.65608615 6 6 3454 4.19400000 881514522 881514522 -9.00000000
2.79380751 4.05590963 -0.60471570 29 8 3456 4.96200000 881514527 881514527 -7.00000000
2.79800487 4.06048584 -0.43142092 39 10 3457 4.95000000 881514532 881514532 -5.00000000
2.80966568 4.07436371 -0.25937700 235 12 3459 4.95600000 881514536 881514536 -3.00000000
5.77856016 8.37650013 2.34938884 62 13 3460 10.44400000 881514538 881514538 13.00000000
2.81678843 4.08164310 -0.08656394 8 14 3461 4.96000000 881514541 881514541 -1.00000000
5.02126789 7.27330923 2.36819434 45 15 3462 9.15000000 881514543 881514543 15.00000000
1.30212009 1.88050020 -0.61288351 3 0 3470 2.36800000 881514564 881514564 -15.00000000
2.81369042 4.06045580 -1.14050186 168 2 3472 5.07000000 881514568 881514568 -13.00000000
1.86004138 2.68323803 -0.63463074 4 4 3473 3.32600000 881514573 881514573 -11.00000000
2.36338639 3.40680766 -0.65671188 6 6 3475 4.19800000 881514578 881514578 -9.00000000
2.81771088 4.05868769 -0.60666561 23 8 3477 4.97800000 881514582 881514582 -7.00000000
2.82877970 4.07311344 -0.43386129 27 10 3478 4.97800000 881514587 881514587 -5.00000000
2.82002068 4.05747795 -0.25895831 235 12 3480 4.94800000 881514591 881514591 -3.00000000
5.80922270 8.35526371 2.34938884 62 13 3481 10.44400000 881514594 881514594 13.00000000
2.84200597 4.08606625 -0.08687808 10 14 3482 4.97800000 881514596 881514596 -1.00000000
5.05340910 7.26278496 2.37078238 45 15 3483 9.16000000 881514598 881514598 15.00000000
1.31420279 1.88386559 -0.61547166 4 0 3490 2.37800000 881514619 881514619 -15.00000000
2.82561588 4.04741383 -1.13960207 153 2 3492 5.06600000 881514624 881514624 -13.00000000
1.88288558 2.69604373 -0.63921010 4 4 3493 3.35000000 881514628 881514628 -11.00000000
2.37526417 3.39853716 -0.65671188 6 6 3495 4.19800000 881514633 881514633 -9.00000000
2.82617259 4.04069376 -0.60544688 23 8 3497 4.96800000 881514638 881514638 -7.00000000
2.84183788 4.06158209 -0.43368697 30 10 3498 4.97600000 881514642 881514642 -5.00000000
2.83874917 4.05415392 -0.25937700 221 12 3500 4.95600000 881514647 881514647 -3.00000000
5.83388042 8.32855034 2.34758925 62 13 3501 10.43600000 881514649 881514649 13.00000000
2.87805510 4.10723639 -0.08754127 68 14 3502 5.01600000 881514651 881514651 -1.00000000
5.07873011 7.24510145 2.37078238 45 15 3503 9.16000000 881514654 881514654 15.00000000
1.32266378 1.88265860 -0.61650699 4 0 3509 2.38200000 881514674 881514674 -15.00000000
2.84462619 4.04599237 -1.14185154 98 2 3511 5.07600000 881514679 881514679 -13.00000000
1.88052130 2.67372680 -0.63539398 4 4 3512 3.33000000 881514684 881514684 -11.00000000
2.38424706 3.38741088 -0.65608615 6 6 3514 4.19400000 881514688 881514688 -9.00000000
2.83498383 4.02480793 -0.60447192 21 8 3516 4.96000000 881514693 881514693 -7.00000000
2.86791492 4.07005119 -0.43560439 24 10 3517 4.99800000 881514697 881514697 -5.00000000
2.86483860 4.06267262 -0.26052839 192 12 3519 4.97800000 881514702 881514702 -3.00000000
5.86146688 8.30915928 2.34758925 62 13 3520 10.43600000 881514704 881514704 13.00000000
2.86744690 4.06335926 -0.08680827 36 14 3521 4.97400000 881514707 881514707 -1.00000000
5.10369396 7.23226690 2.37181783 47 15 3521 9.16400000 881514709 881514709 15.00000000
1.32476318 1.87172282 -0.61443639 4 0 3529 2.37400000 881514730 881514730 -15.00000000
1.88303256 2.65753484 -0.63310426 4 4 3532 3.31800000 881514739 881514739 -11.00000000
2.39948463 3.38390183 -0.65702474 6 6 3534 4.20000000 881514743 881514743 -9.00000000
2.86050367 4.03107691 -0.60690933 17 8 3536 4.98000000 881514748 881514748 -7.00000000
2.88325787 4.06164026 -0.43577871 18 10 3537 5.00000000 881514753 881514753 -5.00000000
2.88825607 4.06567335 -0.26136577 100 12 3539 4.99400000 881514757 881514757 -3.00000000
5.89043570 8.28864861 2.34758925 64 13 3540 10.43600000 881514760 881514760 13.00000000
5.12344933 7.20406675 2.36871195 45 15 3542 9.15200000 881514764 881514764 15.00000000
1.32792401 1.86236823 -0.61288351 3 0 3549 2.36800000 881514785 881514785 -15.00000000
1.89686012 2.65733719 -0.63463074 4 4 3552 3.32600000 881514794 881514794 -11.00000000
2.41357851 3.37872028 -0.65765047 6 6 3554 4.20400000 881514799 881514799 -9.00000000
2.87686634 4.02429676 -0.60739678 6 8 3556 4.98400000 881514803 881514803 -7.00000000
2.91364360 4.07423973 -0.43821907 6 10 3557 5.02800000 881514808 881514808 -5.00000000
5.92613888 8.27754307 2.35028863 62 13 3560 10.44800000 881514815 881514815 13.00000000
5.14506102 7.18389559 2.36767673 45 15 3561 9.14800000 881514820 881514820 15.00000000
1.33554387 1.85929060 -0.61340111 4 0 3569 2.37000000 881514840 881514840 -15.00000000
1.58332539 2.20261908 -0.62626374 3 2 3571 2.78400000 881514845 881514845 -13.00000000
1.91300166 2.66026330 -0.63692045 4 4 3572 3.33800000 881514849 881514849 -11.00000000
2.42997313 3.37668824 -0.65890199 9 6 3574 4.21200000 881514854 881514854 -9.00000000
2.52663398 3.50842428 -0.53086287 6 8 3576 4.35600000 881514859 881514859 -7.00000000
2.53304243 3.51602888 -0.37912747 2 10 3577 4.35000000 881514863 881514863 -5.00000000
5.95499706 8.25680637 2.35028863 62 13 3580 10.44800000 881514870 881514870 13.00000000
2.54362392 3.52552438 -0.07588306 1 14 3581 4.34800000 881514873 881514873 -1.00000000
5.17474842 7.16968918 2.36922956 45 15 3582 9.15400000 881514875 881514875 15.00000000
1.34849560 1.86424327 -0.61650699 4 0 3588 2.38200000 881514896 881514896 -15.00000000
2.53564882 3.50414896 0.07549911 1 1 3589 4.32600000 881514898 881514898 1.00000000
1.58376467 2.18788505 -0.62356430 3 2 3590 2.77200000 881514900 881514900 -13.00000000
2.54080963 3.50870156 0.22703338 1 3 3591 4.33800000 881514902 881514902 3.00000000
1.92181289 2.65390491 -0.63692045 4 4 3591 3.33800000 881514905 881514905 -11.00000000
2.53756332 3.50293112 0.37843025 1 5 3592 4.34200000 881514907 881514907 5.00000000
2.44695282 3.37660933 -0.66046631 9 6 3593 4.22200000 881514909 881514909 -9.00000000
2.52543497 3.48234963 -0.52818173 22 8 3595 4.33400000 881514914 881514914 -7.00000000
2.53181839 3.48987007 -0.37721005 27 10 3596 4.32800000 881514919 881514919 -5.00000000
2.53218722 3.48781610 -0.22588199 20 12 3598 4.31600000 881514923 881514923 -3.00000000
5.97776413 8.23070717 2.34848905 32 13 3599 10.44000000 881514926 881514926 13.00000000
2.54354715 3.50089216 -0.07553402 21 14 3600 4.32800000 881514928 881514928 -1.00000000
5.19951820 7.15652275 2.37026477 18 15 3600 9.15800000 881514930 881514930 15.00000000
1.35271943 1.85640216 -0.61547166 4 0 3608 2.37800000 881514951 881514951 -15.00000000
2.54197550 3.48719692 0.07532459 20 1 3609 4.31600000 881514953 881514953 1.00000000
1.59598494 2.18864155 -0.62536395 3 2 3610 2.78000000 881514955 881514955 -13.00000000
2.54833364 3.49335670 0.22661468 28 3 3611 4.33000000 881514958 881514958 3.00000000
1.92875099 2.64400840 -0.63615721 4 4 3611 3.33400000 881514960 881514960 -11.00000000
2.55682206 3.50370860 0.37947610 24 5 3612 4.35400000 881514962 881514962 5.00000000
2.46105409 3.37123823 -0.66109204 9 6 3613 4.22600000 881514965 881514965 -9.00000000
2.56155419 3.50762129 0.53330022 11 7 3614 4.37600000 881514967 881514967 7.00000000
2.52703619 3.45908666 -0.52598810 6 8 3615 4.31600000 881514969 881514969 -7.00000000
2.56305671 3.50710750 0.68799877 8 9 3616 4.39800000 881514972 881514972 9.00000000
2.53457999 3.46814227 -0.37581557 7 10 3616 4.31200000 881514974 881514974 -5.00000000
2.57110977 3.51683831 0.84681034 14 11 3617 4.43800000 881514976 881514976 11.00000000
2.52901912 3.45799828 -0.22452125 8 12 3618 4.29000000 881514978 881514978 -3.00000000
2.57058001 3.51353860 1.00508130 28 13 3619 4.46800000 881514981 881514981 13.00000000
2.55102777 3.48553753 -0.07539440 5 14 3620 4.32000000 881514983 881514983 -1.00000000
2.58033133 3.52428508 1.17037976 14 15 3621 4.52200000 881514985 881514985 15.00000000
1.35233235 1.84232497 -0.61236584 4 0 3628 2.36600000 881515006 881515006 -15.00000000
2.55531621 3.47991443 0.07535949 5 1 3629 4.31800000 881515008 881515008 1.00000000
1.60822964 2.18933940 -0.62716353 3 2 3630 2.78800000 881515011 881515011 -13.00000000
2.54868531 3.46834564 0.22556797 5 3 3631 4.31000000 881515013 881515013 3.00000000
1.93564343 2.63409543 -0.63539398 4 4 3631 3.33000000 881515015 881515015 -11.00000000
2.56195641 3.48513055 0.37843025 5 5 3632 4.34200000 881515018 881515018 5.00000000
2.47514749 3.36580968 -0.66171777 9 6 3633 4.23000000 881515020 881515020 -9.00000000
2.53438878 3.44384933 -0.52501315 8 8 3635 4.30800000 881515025 881515025 -7.00000000
2.54076481 3.45125127 -0.37494400 9 10 3636 4.30200000 881515029 881515029 -5.00000000
2.54225898 3.45075750 -0.22462593 6 12 3638 4.29200000 881515034 881515034 -3.00000000
2.56779909 3.48415089 0.99923259 46 13 3639 4.44200000 881515036 881515036 13.00000000
2.54656601 3.45407796 -0.07490573 5 14 3640 4.29200000 881515038 881515038 -1.00000000
2.58856511 3.51104426 1.16882682 62 15 3640 4.51600000 881515041 881515041 15.00000000
1.36794353 1.85001981 -0.61650699 4 0 3648 2.38200000 881515061 881515061 -15.00000000
2.54961014 3.44685817 0.07483592 7 1 3649 4.28800000 881515064 881515064 1.00000000
1.61818039 2.18684530 -0.62806332 3 2 3650 2.79200000 881515066 881515066 -13.00000000
2.56196499 3.46103334 0.22567265 5 3 3651 4.31200000 881515068 881515068 3.00000000
1.94249022 2.62416697 -0.63463074 4 4 3651 3.32600000 881515071 881515071 -11.00000000
2.56462073 3.46335697 0.37703574 5 5 3652 4.32600000 881515073 881515073 5.00000000
2.48923278 3.36032391 -0.66234350 9 6 3653 4.23400000 881515075 881515075 -9.00000000
2.57888818 3.48008347 0.53183782 63 7 3654 4.36400000 881515078 881515078 7.00000000
2.53693724 3.42222404 -0.52306324 8 8 3655 4.29200000 881515080 881515080 -7.00000000
2.57218146 3.46850157 0.68393147 60 9 3656 4.37200000 881515082 881515082 9.00000000
2.54567552 3.43275928 -0.37389815 11 10 3656 4.29000000 881515084 881515084 -5.00000000
2.57805324 3.47515178 0.84108603 57 11 3657 4.40800000 881515087 881515087 11.00000000
2.55309868 3.44025826 -0.22452125 8 12 3658 4.29000000 881515089 881515089 -3.00000000
2.57646036 3.47047210 0.99788290 57 13 3659 4.43600000 881515091 881515091 13.00000000
2.55383825 3.43874621 -0.07476611 7 14 3660 4.28400000 881515094 881515094 -1.00000000
2.57376599 3.46431565 1.15640354 48 15 3661 4.46800000 881515096 881515096 15.00000000
1.36913502 1.83951437 -0.61443639 4 0 3666 2.37400000 881515117 881515117 -15.00000000
2.54848385 3.42279220 0.07448687 7 1 3667 4.26800000 881515119 881515119 1.00000000
1.62038636 2.17549944 -0.62626374 3 2 3668 2.78400000 881515121 881515121 -13.00000000
2.57521200 3.45617080 0.22588199 7 3 3669 4.31600000 881515124 881515124 3.00000000
1.94603264 2.61175418 -0.63310426 4 4 3669 3.31800000 881515126 881515126 -11.00000000
2.57310700 3.45208788 0.37668711 7 5 3670 4.32200000 881515128 881515128 5.00000000
2.49151158 3.34140205 -0.66015345 9 6 3671 4.22000000 881515131 881515131 -9.00000000
2.57200480 3.44809675 0.52818173 67 7 3672 4.33400000 881515133 881515133 7.00000000
2.55005026 3.41741920 -0.52355069 8 8 3673 4.29600000 881515135 881515135 -7.00000000
2.58009887 3.45768809 0.68330574 70 9 3673 4.36800000 881515137 881515137 9.00000000
2.55406380 3.42155170 -0.37354952 9 10 3674 4.28600000 881515140 881515140 -5.00000000
2.57368755 3.44658542 0.83612502 65 11 3675 4.38200000 881515142 881515142 11.00000000
2.55194092 3.41621947 -0.22347453 8 12 3676 4.27000000 881515144 881515144 -3.00000000
2.58385086 3.45767784 0.99653316 58 13 3677 4.43000000 881515147 881515147 13.00000000
2.55505037 3.41789317 -0.07448687 7 14 3678 4.26800000 881515149 881515149 -1.00000000
2.58750367 3.46130586 1.15795636 60 15 3678 4.47400000 881515151 881515151 15.00000000
1.37554777 1.83472395 -0.61443639 4 0 3686 2.37400000 881515172 881515172 -15.00000000
2.55321717 3.40427685 0.07427744 7 1 3687 4.25600000 881515174 881515174 1.00000000
1.62095320 2.16047740 -0.62356430 3 2 3688 2.77200000 881515177 881515177 -13.00000000
2.56807804 3.42160225 0.22420724 7 3 3689 4.28400000 881515179 881515179 3.00000000
1.96220851 2.61436653 -0.63539398 4 4 3689 3.33000000 881515181 881515181 -11.00000000
2.57437491 3.42874551 0.37511832 7 5 3690 4.30400000 881515184 881515184 5.00000000
2.49960113 3.32794619 -0.65921485 11 6 3691 4.21400000 881515186 881515186 -9.00000000
2.57210088 3.42322731 0.52574432 67 7 3692 4.31400000 881515188 881515188 7.00000000
2.54884386 3.39104199 -0.52086955 8 8 3693 4.27400000 881515190 881515190 -7.00000000
2.57969570 3.43084121 0.67986417 72 9 3694 4.34600000 881515193 881515193 9.00000000
2.55761003 3.40146828 -0.37232932 9 10 3694 4.27200000 881515195 881515195 -5.00000000
2.57508135 3.42346001 0.83269048 68 11 3695 4.36400000 881515197 881515197 11.00000000
2.55064082 3.38973570 -0.22232315 8 12 3696 4.24800000 881515200 881515200 -3.00000000
2.58184123 3.42995405 0.99113435 58 13 3697 4.40600000 881515202 881515202 13.00000000
2.56095099 3.40096617 -0.07431234 7 14 3698 4.25800000 881515204 881515204 -1.00000000
2.59436083 3.44408369 1.15536821 56 15 3699 4.46400000 881515207 881515207 15.00000000
1.38427234 1.83299446 -0.61547166 4 0 3706 2.37800000 881515227 881515227 -15.00000000
2.56267405 3.39215255 0.07420763 7 1 3707 4.25200000 881515230 881515230 1.00000000
1.62848485 2.15480590 -0.62356430 3 2 3708 2.77200000 881515232 881515232 -13.00000000
2.56555223 3.39349890 0.22295117 7 3 3709 4.26000000 881515234 881515234 3.00000000
1.96421850 2.59810472 -0.63310426 2 4 3709 3.31800000 881515237 881515237 -11.00000000
2.58031869 3.41179299 0.37424675 7 5 3710 4.29400000 881515239 881515239 5.00000000
2.51358628 3.32235146 -0.65984058 11 6 3711 4.21800000 881515241 881515241 -9.00000000
2.57684660 3.40473104 0.52428192 65 7 3712 4.30200000 881515243 881515243 7.00000000
2.54868269 3.36629772 -0.51843220 8 8 3713 4.25400000 881515246 881515246 -7.00000000
2.57913470 3.40651870 0.67673552 72 9 3713 4.32600000 881515248 881515248 9.00000000
2.55743837 3.37663722 -0.37058622 9 10 3714 4.25200000 881515250 881515250 -5.00000000
2.58345890 3.40975595 0.83154559 57 11 3715 4.35800000 881515253 881515253 11.00000000
2.55521894 3.37126136 -0.22169511 8 12 3716 4.23600000 881515255 881515255 -3.00000000
2.57495999 3.39607525 0.98393589 58 13 3717 4.37400000 881515257 881515257 13.00000000
2.56072259 3.37607384 -0.07396330 8 14 3718 4.23800000 881515260 881515260 -1.00000000
2.59759545 3.42468715 1.15174472 64 15 3718 4.45000000 881515262 881515262 15.00000000
1.39066219 1.82815135 -0.61547166 4 0 3726 2.37800000 881515283 881515283 -15.00000000
2.56481147 3.37045574 0.07392839 7 1 3727 4.23600000 881515285 881515285 1.00000000
1.64780033 2.16461420 -0.62806332 3 2 3728 2.79200000 881515287 881515287 -13.00000000
2.57496190 3.38134480 0.22274183 7 3 3729 4.25600000 881515290 881515290 3.00000000
1.96851790 2.58498478 -0.63157779 2 4 3729 3.31000000 881515292 881515292 -11.00000000
2.58134604 3.38850117 0.37267795 7 5 3730 4.27600000 881515294 881515294 5.00000000
2.52277350 3.31041479 -0.65921485 11 6 3731 4.21400000 881515296 881515296 -9.00000000
2.57547736 3.37835002 0.52160078 61 7 3732 4.28000000 881515299 881515299 7.00000000
2.55078769 3.34475303 -0.51648229 8 8 3733 4.23800000 881515301 881515301 -7.00000000
2.57783341 3.38021684 0.67329395 68 9 3733 4.30400000 881515303 881515303 9.00000000
2.55954170 3.35501719 -0.36919174 9 10 3734 4.23600000 881515306 881515306 -5.00000000
2.58581686 3.38823199 0.82849264 61 11 3735 4.34200000 881515308 881515308 11.00000000
2.56091142 3.35438395 -0.22117175 8 12 3736 4.22600000 881515310 881515310 -3.00000000
2.57970190 3.37777400 0.98123652 56 13 3737 4.36200000 881515313 881515313 13.00000000
2.56156540 3.35281348 -0.07364915 8 14 3738 4.22000000 881515315 881515315 -1.00000000
2.58842301 3.38796711 1.14242721 60 15 3738 4.41400000 881515317 881515317 15.00000000
1.39233530 1.81715202 -0.61340111 4 0 3746 2.37000000 881515338 881515338 -15.00000000
2.56561232 3.34719849 0.07361425 7 1 3747 4.21800000 881515340 881515340 1.00000000
1.66008937 2.16503501 -0.62986296 3 2 3748 2.80000000 881515343 881515343 -13.00000000
2.57945585 3.36282754 0.22211380 7 3 3749 4.24400000 881515345 881515345 3.00000000
1.99186778 2.59679079 -0.63615721 2 4 3749 3.33400000 881515347 881515347 -11.00000000
2.57860374 3.36050177 0.37058622 7 5 3750 4.25200000 881515349 881515349 5.00000000
2.52469110 3.28905272 -0.65671188 11 6 3751 4.19800000 881515352 881515352 -9.00000000
2.58725429 3.36933947 0.52160078 63 7 3752 4.28000000 881515354 881515354 7.00000000
2.55398250 3.32480884 -0.51477611 8 8 3753 4.22400000 881515356 881515356 -7.00000000
2.58057618 3.35821533 0.67079097 70 9 3754 4.28800000 881515359 881515359 9.00000000
2.56152534 3.33342361 -0.36779723 9 10 3754 4.22000000 881515361 881515361 -5.00000000
2.58805609 3.36673307 0.82543969 31 11 3755 4.32600000 881515363 881515363 11.00000000
2.57260489 3.34542418 -0.22117175 8 12 3756 4.22600000 881515366 881515366 -3.00000000
2.58672404 3.36257029 0.97943687 57 13 3757 4.35400000 881515368 881515368 13.00000000
2.56593609 3.33434296 -0.07343972 8 14 3758 4.20800000 881515370 881515370 -1.00000000
2.59080815 3.36666322 1.13828611 62 15 3758 4.39800000 881515372 881515372 15.00000000
1.39630926 1.80922210 -0.61236584 4 0 3766 2.36600000 881515393 881515393 -15.00000000
2.56017208 3.31606269 0.07312559 7 1 3767 4.19000000 881515396 881515396 1.00000000
1.66048956 2.14997315 -0.62716353 3 2 3768 2.78800000 881515398 881515398 -13.00000000
2.58751535 3.34906149 0.22179978 7 3 3769 4.23800000 881515400 881515400 3.00000000
2.00092006 2.58982205 -0.63615721 2 4 3769 3.33400000 881515402 881515402 -11.00000000
2.58057117 3.33886886 0.36919174 7 5 3770 4.23600000 881515405 881515405 5.00000000
2.53374004 3.27709436 -0.65608615 11 6 3771 4.19400000 881515407 881515407 -9.00000000
2.59049821 3.34929609 0.51989460 56 7 3772 4.26600000 881515409 881515409 7.00000000
2.56071377 3.30959344 -0.51380116 8 8 3773 4.21600000 881515412 881515412 -7.00000000
2.58502817 3.33981419 0.66891378 70 9 3774 4.27600000 881515414 881515414 9.00000000
2.57070661 3.32131076 -0.36744860 9 10 3774 4.21600000 881515416 881515416 -5.00000000
2.58657122 3.34060287 0.82124192 10 11 3775 4.30400000 881515419 881515419 11.00000000
2.56469846 3.31115985 -0.21949700 8 12 3776 4.19400000 881515421 881515421 -3.00000000
2.59247780 3.34581828 0.97718740 41 13 3777 4.34400000 881515423 881515423 13.00000000
2.57388425 3.32062435 -0.07333501 8 14 3778 4.20200000 881515425 881515425 -1.00000000
2.59129238 3.34187818 1.13310981 18 15 3779 4.37800000 881515428 881515428 15.00000000
1.41210127 1.81653881 -0.61650699 4 0 3786 2.38200000 881515449 881515449 -15.00000000
2.56927657 3.30394864 0.07305577 7 1 3787 4.18600000 881515451 881515451 1.00000000
1.65362573 2.12570620 -0.62176472 3 2 3788 2.76400000 881515453 881515453 -13.00000000
2.58692384 3.32424688 0.22075306 7 3 3789 4.21800000 881515455 881515455 3.00000000
2.01235962 2.58592057 -0.63692045 4 4 3789 3.33800000 881515458 881515458 -11.00000000
2.58976245 3.32669640 0.36884311 7 5 3790 4.23200000 881515460 881515460 5.00000000
2.54759145 3.27134705 -0.65671188 11 6 3791 4.19800000 881515462 881515462 -9.00000000
2.58875418 3.32300735 0.51721346 36 7 3792 4.24400000 881515465 881515465 7.00000000
2.56004858 3.28497720 -0.51136374 8 8 3793 4.19600000 881515467 881515467 -7.00000000
2.59909964 3.33388615 0.66953951 66 9 3794 4.28000000 881515469 881515469 9.00000000
2.57493448 3.30288935 -0.36640275 9 10 3794 4.20400000 881515472 881515472 -5.00000000
2.58614278 3.31607246 0.81742573 23 11 3795 4.28400000 881515474 881515474 11.00000000
2.55904126 3.28014112 -0.21803160 7 12 3796 4.16600000 881515476 881515476 -3.00000000
2.58615685 3.31370449 0.97043884 11 13 3797 4.31400000 881515478 881515478 13.00000000
2.57192326 3.29428124 -0.07295106 8 14 3798 4.18000000 881515481 881515481 -1.00000000
2.60592675 3.33783507 1.13466275 16 15 3798 4.38400000 881515483 881515483 15.00000000
1.41605163 1.80855644 -0.61547166 4 0 3806 2.37800000 881515504 881515504 -15.00000000
2.57832789 3.29181147 0.07298596 8 1 3807 4.18200000 881515506 881515506 1.00000000
1.67305481 2.13526058 -0.62626374 3 2 3808 2.78400000 881515508 881515508 -13.00000000
2.58249450 3.29476142 0.21939233 7 3 3809 4.19200000 881515511 881515511 3.00000000
2.00441813 2.55724812 -0.63157779 4 4 3809 3.31000000 881515513 881515513 -11.00000000
2.59275341 3.30666113 0.36762291 7 5 3810 4.21800000 881515515 881515515 5.00000000
2.55533743 3.25777149 -0.65577328 11 6 3811 4.19200000 881515518 881515518 -9.00000000
2.59421062 3.30614209 0.51599479 29 7 3812 4.23400000 881515520 881515520 7.00000000
2.56046844 3.26196742 -0.50917011 10 8 3813 4.17800000 881515522 881515522 -7.00000000
2.59364176 3.30304241 0.66515934 68 9 3814 4.25200000 881515525 881515525 9.00000000
2.57537365 3.27977777 -0.36483395 9 10 3814 4.18600000 881515527 881515527 -5.00000000
2.59406400 3.30239320 0.81628090 36 11 3815 4.27800000 881515529 881515529 11.00000000
2.56677341 3.26647711 -0.21771757 7 12 3816 4.16000000 881515531 881515531 -3.00000000
2.59409499 3.30006075 0.96908915 13 13 3817 4.30800000 881515534 881515534 13.00000000
2.56733775 3.26484871 -0.07249729 8 14 3818 4.15400000 881515536 881515536 -1.00000000
2.60800886 3.31656981 1.13052154 8 15 3818 4.36800000 881515538 881515538 15.00000000
1.41964924 1.80081642 -0.61443639 4 0 3825 2.37400000 881515559 881515559 -15.00000000
2.57684684 3.26754165 0.07263692 8 1 3826 4.16200000 881515561 881515561 1.00000000
1.68495429 2.13582063 -0.62806332 3 2 3827 2.79200000 881515564 881515564 -13.00000000
2.58046222 3.27095151 0.21834561 7 3 3827 4.17200000 881515566 881515566 3.00000000
2.02261710 2.56291628 -0.63463074 4 4 3828 3.32600000 881515568 881515568 -11.00000000
2.59012413 3.28084326 0.36570549 7 5 3829 4.19600000 881515571 881515571 5.00000000
2.56000519 3.24152875 -0.65420896 9 6 3830 4.18200000 881515573 881515573 -9.00000000
2.60392952 3.29596376 0.51575106 19 7 3831 4.23200000 881515575 881515575 7.00000000
2.56388617 3.24411416 -0.50770766 10 8 3832 4.16600000 881515577 881515577 -7.00000000
2.59543204 3.28402925 0.66296929 62 9 3832 4.23800000 881515580 881515580 9.00000000
2.57017207 3.25090146 -0.36256790 9 10 3833 4.16000000 881515582 881515582 -5.00000000
2.59525800 3.28145409 0.81322795 10 11 3834 4.26200000 881515584 881515584 11.00000000
2.57511306 3.25481486 -0.21750824 7 12 3835 4.15600000 881515587 881515587 -3.00000000
2.59655833 3.28074384 0.96593982 11 13 3836 4.29400000 881515589 881515589 13.00000000
2.56946135 3.24534249 -0.07225296 8 14 3837 4.14000000 881515591 881515591 -1.00000000
2.61059856 3.29730082 1.12689817 16 15 3837 4.35400000 881515594 881515594 15.00000000
1.42352402 1.79282415 -0.61340111 4 0 3845 2.37000000 881515614 881515614 -15.00000000
2.57828712 3.24600005 0.07235768 8 1 3846 4.14600000 881515617 881515617 1.00000000
1.69724882 2.13602877 -0.62986296 3 2 3847 2.80000000 881515619 881515619 -13.00000000
2.58994794 3.25834465 0.21813627 7 3 3848 4.16800000 881515621 881515621 3.00000000
2.03399420 2.55891418 -0.63539398 2 4 3848 3.33000000 881515624 881515624 -11.00000000
2.59288049 3.26086569 0.36448532 7 5 3849 4.18200000 881515626 881515626 5.00000000
2.55900764 3.21711349 -0.65108025 9 6 3850 4.16200000 881515628 881515628 -9.00000000
2.61171055 3.28219414 0.51501983 10 7 3851 4.22600000 881515630 881515630 7.00000000
2.56901312 3.22737908 -0.50648898 10 8 3852 4.15600000 881515633 881515633 -7.00000000
2.59637642 3.26058674 0.66015345 66 9 3853 4.22000000 881515635 881515635 9.00000000
2.56909323 3.22632384 -0.36082476 9 10 3853 4.14000000 881515637 881515637 -5.00000000
2.59691072 3.26009011 0.81017500 17 11 3854 4.24600000 881515640 881515640 11.00000000
2.57650113 3.23331022 -0.21667086 7 12 3855 4.14000000 881515642 881515642 -3.00000000
2.57578707 3.23009992 -0.07211334 10 14 3857 4.13200000 881515647 881515647 -1.00000000
2.60700488 3.26807761 1.12016881 10 15 3858 4.32800000 881515649 881515649 15.00000000
1.43218660 1.79086161 -0.61443639 4 0 3865 2.37400000 881515670 881515670 -15.00000000
2.58210683 3.22761130 0.07214825 8 1 3866 4.13400000 881515672 881515672 1.00000000
1.69495344 2.11791945 -0.62626374 3 2 3867 2.78400000 881515674 881515674 -13.00000000
2.59574699 3.24350071 0.21771757 7 3 3867 4.16000000 881515677 881515677 3.00000000
2.04046011 2.54873347 -0.63463074 4 4 3868 3.32600000 881515679 881515679 -11.00000000
2.59428358 3.23935390 0.36309081 7 5 3869 4.16600000 881515681 881515681 5.00000000
2.56034112 3.19582796 -0.64857727 9 6 3870 4.14600000 881515683 881515683 -9.00000000
2.60453010 3.24982238 0.51136374 7 7 3871 4.19600000 881515686 881515686 7.00000000
2.57529640 3.21219683 -0.50551403 10 8 3872 4.14800000 881515688 881515688 -7.00000000
2.60774231 3.25150394 0.66015345 68 9 3873 4.22000000 881515690 881515690 9.00000000
2.57410669 3.20956516 -0.35995322 9 10 3873 4.13000000 881515693 881515693 -5.00000000
2.60458899 3.24641132 0.80903012 68 11 3874 4.24000000 881515695 881515695 11.00000000
2.57527065 3.20872068 -0.21562414 7 12 3875 4.12000000 881515697 881515697 -3.00000000
2.60719872 3.24734092 0.96144080 52 13 3876 4.27400000 881515700 881515700 13.00000000
2.58078551 3.21329355 -0.07193882 8 14 3877 4.12200000 881515702 881515702 -1.00000000
2.61177921 3.25188351 1.11758065 10 15 3877 4.31800000 881515704 881515704 15.00000000
1.44085276 1.78886044 -0.61547166 4 0 3885 2.37800000 881515725 881515725 -15.00000000
2.58332038 3.20612144 0.07186901 8 1 3886 4.11800000 881515727 881515727 1.00000000
1.70233607 2.11198997 -0.62626374 3 2 3887 2.78400000 881515729 881515729 -13.00000000
2.59075904 3.21420503 0.21635684 7 3 3887 4.13400000 881515732 881515732 3.00000000
2.06166768 2.55687857 -0.63844693 4 4 3888 3.34600000 881515734 881515734 -11.00000000
2.60182261 3.22562599 0.36256790 7 5 3889 4.16000000 881515736 881515736 5.00000000
2.56527877 3.17918468 -0.64701295 9 6 3890 4.13600000 881515739 881515739 -9.00000000
2.60214305 3.22371984 0.50868267 7 7 3891 4.17400000 881515741 881515741 7.00000000
2.57028103 3.18311000 -0.50234544 10 8 3892 4.12200000 881515743 881515743 -7.00000000
2.61162853 3.23316145 0.65827620 68 9 3893 4.20800000 881515746 881515746 9.00000000
2.58028674 3.19436049 -0.35925597 9 10 3893 4.12200000 881515748 881515748 -5.00000000
2.59986424 3.21744847 0.80406910 40 11 3894 4.21400000 881515750 881515750 11.00000000
2.57264423 3.18262577 -0.21447276 7 12 3895 4.09800000 881515753 881515753 -3.00000000
2.60749006 3.22458243 0.95739168 27 13 3896 4.25600000 881515755 881515755 13.00000000
2.58569789 3.19649172 -0.07176430 7 14 3897 4.11200000 881515757 881515757 -1.00000000
2.61460972 3.23223305 1.11395717 10 15 3897 4.30400000 881515759 881515759 15.00000000
1.45682478 1.79582226 -0.61961281 4 0 3905 2.39400000 881515780 881515780 -15.00000000
2.59197593 3.19397902 0.07179920 8 1 3906 4.11400000 881515782 881515782 1.00000000
1.71461082 2.11208677 -0.62806332 3 2 3907 2.79200000 881515785 881515785 -13.00000000
2.59622669 3.19693589 0.21583349 8 3 3908 4.12400000 881515787 881515787 3.00000000
2.06315446 2.54052234 -0.63615721 4 4 3908 3.33400000 881515789 881515789 -11.00000000
2.61055374 3.21343160 0.36221927 7 5 3909 4.15600000 881515792 881515792 5.00000000
2.56763983 3.15947986 -0.64482284 9 6 3910 4.12200000 881515794 881515794 -9.00000000
2.60962343 3.20999599 0.50795144 7 7 3911 4.16800000 881515796 881515796 7.00000000
2.57260895 3.16333795 -0.50063926 12 8 3912 4.10800000 881515799 881515799 -7.00000000
2.60987234 3.20915771 0.65514755 70 9 3912 4.18800000 881515801 881515801 9.00000000
2.58513474 3.17760658 -0.35838440 11 10 3913 4.11200000 881515803 881515803 -5.00000000
2.60736179 3.20378542 0.80292428 10 11 3914 4.20800000 881515806 881515806 11.00000000
2.57995510 3.16897964 -0.21415873 7 12 3915 4.09200000 881515808 881515808 -3.00000000
2.60027099 3.19279575 0.95064318 11 13 3916 4.22600000 881515810 881515810 13.00000000
2.58420944 3.17194343 -0.07141525 7 14 3917 4.09200000 881515812 881515812 -1.00000000
2.62643886 3.22262836 1.11395717 10 15 3918 4.30400000 881515815 881515815 15.00000000
1.45086157 1.77576590 -0.61443639 4 0 3925 2.37400000 881515835 881515835 -15.00000000
2.59298539 3.17252517 0.07151996 8 1 3926 4.09800000 881515838 881515838 1.00000000
1.71703887 2.10005403 -0.62626374 3 2 3927 2.78400000 881515840 881515840 -13.00000000
2.60049295 3.18057775 0.21531013 8 3 3927 4.11400000 881515842 881515842 3.00000000
2.06952405 2.53026581 -0.63539398 4 4 3928 3.33000000 881515845 881515845 -11.00000000
2.60913825 3.18887925 0.36047617 6 5 3929 4.13600000 881515847 881515847 5.00000000
2.57114577 3.14132619 -0.64294565 9 6 3930 4.11000000 881515849 881515849 -9.00000000
2.61326694 3.19165158 0.50648898 8 7 3931 4.15600000 881515852 881515852 7.00000000
2.57357264 3.14205289 -0.49868935 12 8 3932 4.09200000 881515854 881515854 -7.00000000
2.60534120 3.17970681 0.65108025 74 9 3933 4.16200000 881515856 881515856 9.00000000
2.58610892 3.15623426 -0.35698992 11 10 3933 4.09600000 881515859 881515859 -5.00000000
2.61728454 3.19314623 0.80254263 14 11 3934 4.20600000 881515861 881515861 11.00000000
2.58466935 3.15223241 -0.21363537 7 12 3935 4.08200000 881515863 881515863 -3.00000000
2.59656978 3.16561890 0.94524431 31 13 3936 4.20200000 881515865 881515865 13.00000000
2.59272909 3.15981174 -0.07134544 7 14 3937 4.08800000 881515868 881515868 -1.00000000
2.61806107 3.18954897 1.10567498 14 15 3938 4.27200000 881515870 881515870 15.00000000
1.44968629 1.76174021 -0.61133057 4 0 3945 2.36200000 881515891 881515891 -15.00000000
2.59006405 3.14647174 0.07113601 8 1 3946 4.07600000 881515893 881515893 1.00000000
1.72435904 2.09404778 -0.62626374 3 2 3947 2.78400000 881515895 881515895 -13.00000000
2.61030960 3.16993904 0.21520545 8 3 3947 4.11200000 881515898 881515898 3.00000000
2.08458495 2.53060293 -0.63730204 4 4 3948 3.34000000 881515900 881515900 -11.00000000
2.61138415 3.16898918 0.35925597 6 5 3949 4.12200000 881515902 881515902 5.00000000
2.57204342 3.12013817 -0.64044273 9 6 3950 4.09400000 881515905 881515905 -9.00000000
2.61934018 3.17638421 0.50551403 8 7 3951 4.14800000 881515907 881515907 7.00000000
2.58452487 3.13305044 -0.49868935 12 8 3952 4.09200000 881515909 881515909 -7.00000000
2.61084318 3.16495442 0.64982879 54 9 3952 4.15400000 881515912 881515912 9.00000000
2.58189297 3.12874746 -0.35489818 11 10 3953 4.07200000 881515914 881515914 -5.00000000
2.61341667 3.16582251 0.79796320 14 11 3954 4.18200000 881515916 881515916 11.00000000
2.59438515 3.14165092 -0.21353070 7 12 3955 4.08000000 881515918 881515918 -3.00000000
2.60512161 3.15353107 0.94434452 45 13 3956 4.19800000 881515921 881515921 13.00000000
2.58973074 3.13378620 -0.07096148 7 14 3957 4.06600000 881515923 881515923 -1.00000000
2.61440802 3.16252351 1.09946334 22 15 3958 4.24800000 881515925 881515925 15.00000000
1.45952523 1.76113141 -0.61288351 3 0 3965 2.36800000 881515946 881515946 -15.00000000
2.58954501 3.12355638 0.07082187 8 1 3966 4.05800000 881515948 881515948 1.00000000
1.73414612 2.09101582 -0.62716353 3 2 3967 2.78800000 881515951 881515951 -13.00000000
2.61370897 3.15158391 0.21457742 8 3 3967 4.10000000 881515953 881515953 3.00000000
2.08839154 2.51726723 -0.63577557 4 4 3968 3.33200000 881515955 881515955 -11.00000000
2.61352324 3.14912224 0.35803580 6 5 3969 4.10800000 881515958 881515958 5.00000000
2.57030106 3.09594250 -0.63731402 9 6 3970 4.07400000 881515960 881515960 -9.00000000
2.61772919 3.15195060 0.50307667 7 7 3971 4.12800000 881515962 881515962 7.00000000
2.58783412 3.11484838 -0.49722692 10 8 3972 4.08000000 881515965 881515965 -7.00000000
2.61051393 3.14214683 0.64701295 38 9 3972 4.13600000 881515967 881515967 9.00000000
2.58388424 3.10898995 -0.35367802 11 10 3973 4.05800000 881515969 881515969 -5.00000000
2.60562491 3.13403583 0.79223895 20 11 3974 4.15200000 881515971 881515971 11.00000000
2.59001017 3.11414886 -0.21227464 7 12 3975 4.05600000 881515974 881515974 -3.00000000
2.62109923 3.15041065 0.94614416 20 13 3976 4.20600000 881515976 881515976 13.00000000
2.60577083 3.13087511 -0.07110111 7 14 3977 4.07400000 881515978 881515978 -1.00000000
2.61307073 3.13853192 1.09428692 36 15 3978 4.22800000 881515981 881515981 15.00000000
1.47185326 1.76344168 -0.61547166 4 0 3985 2.37800000 881516001 881516001 -15.00000000
2.59017944 3.10221839 0.07054263 7 1 3986 4.04200000 881516004 881516004 1.00000000
1.73893607 2.08195853 -0.62626374 3 2 3987 2.78400000 881516006 881516006 -13.00000000
2.61061049 3.12557936 0.21342602 8 3 3987 4.07800000 881516008 881516008 3.00000000
2.09968328 2.51297522 -0.63653880 4 4 3988 3.33600000 881516011 881516011 -11.00000000
2.62066650 3.13539386 0.35751286 6 5 3989 4.10200000 881516013 881516013 5.00000000
2.57855797 3.08392072 -0.63668829 9 6 3990 4.07000000 881516015 881516015 -9.00000000
2.61852670 3.13061237 0.50112677 7 7 3991 4.11200000 881516017 881516017 7.00000000
2.58340478 3.08752680 -0.49430206 12 8 3992 4.05600000 881516020 881516020 -7.00000000
2.61512804 3.12544036 0.64544863 28 9 3992 4.12600000 881516022 881516022 9.00000000
2.58960557 3.09384012 -0.35298076 11 10 3993 4.05000000 881516024 881516024 -5.00000000
2.61528850 3.12341619 0.79185730 46 11 3994 4.15000000 881516027 881516027 11.00000000
2.59573483 3.09896445 -0.21185595 7 12 3995 4.04800000 881516029 881516029 -3.00000000
2.61205482 3.11734295 0.93894571 11 13 3996 4.17400000 881516031 881516031 13.00000000
2.60126877 3.10336995 -0.07068224 7 14 3997 4.05000000 881516034 881516034 -1.00000000
2.62842798 3.13577151 1.09635746 60 15 3997 4.23600000 881516036 881516036 15.00000000
1.48048604 1.76125085 -0.61650699 4 0 4005 2.38200000 881516057 881516057 -15.00000000
2.59713149 3.08856654 0.07043792 7 1 4006 4.03600000 881516059 881516059 1.00000000
1.74117506 2.06991053 -0.62446415 3 2 4007 2.77600000 881516061 881516061 -13.00000000
2.61121941 3.10422015 0.21258865 8 3 4007 4.06200000 881516064 881516064 3.00000000
2.10844254 2.50563049 -0.63653880 4 4 4008 3.33600000 881516066 881516066 -11.00000000
2.62133050 3.11403298 0.35611835 6 5 4009 4.08600000 881516068 881516068 5.00000000
2.57912803 3.06281304 -0.63418531 9 6 4010 4.05400000 881516070 881516070 -9.00000000
2.61792850 3.10778904 0.49893311 7 7 4011 4.09400000 881516073 881516073 7.00000000
2.58009553 3.06179214 -0.49162093 10 8 4012 4.03400000 881516075 881516075 -7.00000000
2.61583853 3.10420823 0.64294565 18 9 4012 4.11000000 881516077 881516077 9.00000000
2.59910512 3.08325863 -0.35280645 13 10 4013 4.04800000 881516080 881516080 -5.00000000
2.61984706 3.10676384 0.78994924 64 11 4014 4.14000000 881516082 881516082 11.00000000
2.59365845 3.07461858 -0.21080923 9 12 4015 4.02800000 881516084 881516084 -3.00000000
2.60176635 3.08204651 -0.07040301 7 14 4017 4.03400000 881516089 881516089 -1.00000000
2.63491774 3.12021279 1.09428692 70 15 4018 4.22800000 881516091 881516091 15.00000000
1.48257446 1.75190771 -0.61495405 3 0 4024 2.37600000 881516112 881516112 -15.00000000
2.60219097 3.07383227 0.07029829 7 1 4025 4.02800000 881516114 881516114 1.00000000
1.75306714 2.07007384 -0.62626374 3 2 4026 2.78400000 881516117 881516117 -13.00000000
2.61300230 3.08441901 0.21185595 8 3 4027 4.04800000 881516119 881516119 3.00000000
2.10912561 2.48963714 -0.63424909 4 4 4027 3.32400000 881516121 881516121 -11.00000000
2.62004948 3.09164333 0.35454956 6 5 4028 4.06800000 881516123 881516123 5.00000000
2.58416104 3.04821634 -0.63293386 9 6 4029 4.04600000 881516126 881516126 -9.00000000
2.62436819 3.09454870 0.49820188 7 7 4030 4.08800000 881516128 881516128 7.00000000
2.58766627 3.05019188 -0.49113345 10 8 4031 4.03000000 881516130 881516130 -7.00000000
2.61461687 3.08195972 0.64012980 8 9 4031 4.09200000 881516133 881516133 9.00000000
2.59126663 3.05335546 -0.35036609 11 10 4032 4.02000000 881516135 881516135 -5.00000000
2.62759399 3.09506559 0.78918600 66 11 4033 4.13600000 881516137 881516137 11.00000000
2.59608269 3.05686688 -0.21018121 9 12 4034 4.01600000 881516140 881516140 -3.00000000
2.61428738 3.07721400 0.93219715 57 13 4035 4.14400000 881516142 881516142 13.00000000
2.58866286 3.04597449 -0.06977472 8 14 4036 3.99800000 881516144 881516144 -1.00000000
2.62969470 3.09425497 1.08807528 68 15 4036 4.20400000 881516147 881516147 15.00000000
1.48366833 1.74084055 -0.61288351 3 0 4044 2.36800000 881516167 881516167 -15.00000000
2.60252595 3.05255628 0.07001905 7 1 4045 4.01200000 881516170 881516170 1.00000000
1.76534069 2.06987262 -0.62806332 3 2 4046 2.79200000 881516172 881516172 -13.00000000
2.61338234 3.06312394 0.21101858 7 3 4047 4.03200000 881516174 881516174 3.00000000
2.11525488 2.47927260 -0.63348585 4 4 4047 3.32000000 881516176 881516176 -11.00000000
2.62435818 3.07490158 0.35367802 6 5 4048 4.05800000 881516179 881516179 5.00000000
2.58708954 3.03016353 -0.63105661 9 6 4049 4.03400000 881516181 881516181 -9.00000000
2.63128638 3.08084059 0.49747065 7 7 4050 4.08200000 881516183 881516183 7.00000000
2.59185028 3.03359461 -0.48991477 10 8 4051 4.02000000 881516186 881516186 -7.00000000
2.61947823 3.06484795 0.63856548 8 9 4052 4.08200000 881516188 881516188 9.00000000
2.59025884 3.03066063 -0.34879729 11 10 4052 4.00200000 881516190 881516190 -5.00000000
2.62562346 3.07095289 0.78536981 64 11 4053 4.11600000 881516193 881516193 11.00000000
2.60414100 3.04475045 -0.20997186 9 12 4054 4.01200000 881516195 881516195 -3.00000000
2.62121224 3.06362748 0.93084747 56 13 4055 4.13800000 881516197 881516197 13.00000000
2.59797931 3.03540063 -0.06973982 9 14 4056 3.99600000 881516200 881516200 -1.00000000
2.63096666 3.07285619 1.08393419 68 15 4057 4.18800000 881516202 881516202 15.00000000
1.49351060 1.74004877 -0.61443639 4 0 4064 2.37400000 881516223 881516223 -15.00000000
2.60013866 3.02828145 0.06967001 6 1 4065 3.99200000 881516225 881516225 1.00000000
1.76747608 2.05778480 -0.62626374 3 2 4066 2.78400000 881516227 881516227 -13.00000000
2.63056684 3.06155705 0.21154194 8 3 4067 4.04200000 881516229 881516229 3.00000000
2.12133718 2.46889567 -0.63272262 4 4 4067 3.31600000 881516232 881516232 -11.00000000
2.62988091 3.05967832 0.35298076 8 5 4068 4.05000000 881516234 881516234 5.00000000
2.58477235 3.00613618 -0.62792796 9 6 4069 4.01400000 881516236 881516236 -9.00000000
2.62001848 3.04605246 0.49332711 7 7 4070 4.04800000 881516239 881516239 7.00000000
2.59983420 3.02151918 -0.48942727 8 8 4071 4.01600000 881516241 881516241 -7.00000000
2.62833881 3.05464721 0.63825262 8 9 4071 4.08000000 881516243 881516243 9.00000000
2.59562302 3.01556015 -0.34810004 8 10 4072 3.99400000 881516246 881516246 -5.00000000
2.62607908 3.04986691 0.78231686 60 11 4073 4.10000000 881516248 881516248 11.00000000
2.60171866 3.02050900 -0.20892514 8 12 4074 3.99200000 881516250 881516250 -3.00000000
2.62934613 3.05150652 0.92994767 59 13 4075 4.13400000 881516253 881516253 13.00000000
2.60464215 3.02176929 -0.06963510 9 14 4076 3.99000000 881516255 881516255 -1.00000000
2.62474537 3.04509211 1.07720482 66 15 4076 4.16200000 881516257 881516257 15.00000000
1.50336540 1.73920941 -0.61598933 3 0 4084 2.38000000 881516278 881516278 -15.00000000
2.60153770 3.00859857 0.06942567 8 1 4085 3.97800000 881516280 881516280 1.00000000
1.77464831 2.05160260 -0.62626374 3 2 4086 2.78400000 881516282 881516282 -13.00000000
2.62555480 3.03423238 0.21028587 8 3 4087 4.01800000 881516285 881516285 3.00000000
2.15049672 2.48522949 -0.63882852 4 4 4087 3.34800000 881516287 881516287 -11.00000000
2.63272119 3.04144120 0.35193488 6 5 4088 4.03800000 881516289 881516289 5.00000000
2.59266376 2.99410868 -0.62730223 9 6 4089 4.01000000 881516292 881516292 -9.00000000
2.62673593 3.03238702 0.49259588 7 7 4090 4.04200000 881516294 881516294 7.00000000
2.59476566 2.99442315 -0.48650241 5 8 4091 3.99200000 881516296 881516296 -7.00000000
2.63175368 3.03603745 0.63637543 8 9 4092 4.06800000 881516299 881516299 9.00000000
2.61004853 3.01099801 -0.34862298 9 10 4092 4.00000000 881516301 881516301 -5.00000000
2.63156438 3.03474879 0.78079039 62 11 4093 4.09200000 881516303 881516303 11.00000000
2.59785008 2.99481297 -0.20777375 7 12 4094 3.97000000 881516305 881516305 -3.00000000
2.62593269 3.02611947 0.92499876 54 13 4095 4.11200000 881516308 881516308 13.00000000
2.60993075 3.00661874 -0.06949548 6 14 4096 3.98200000 881516310 881516310 -1.00000000
2.63462186 3.03399277 1.07668722 68 15 4097 4.16000000 881516312 881516312 15.00000000
1.51703787 1.74269378 -0.61909515 3 0 4104 2.39200000 881516333 881516333 -15.00000000
2.60939741 2.99648309 0.06935586 6 1 4105 3.97400000 881516335 881516335 1.00000000
1.77667892 2.03951788 -0.62446415 3 2 4106 2.77600000 881516338 881516338 -13.00000000
2.61644793 3.00246263 0.20871580 6 3 4107 3.98800000 881516340 881516340 3.00000000
2.15141988 2.46882701 -0.63653880 4 4 4107 3.33600000 881516342 881516342 -11.00000000
2.62892032 3.01571250 0.35001746 6 5 4108 4.01600000 881516345 881516345 5.00000000
2.59530950 2.97610760 -0.62542498 8 6 4109 3.99800000 881516347 881516347 -9.00000000
2.62686539 3.01123238 0.49064597 7 7 4110 4.02600000 881516349 881516349 7.00000000
2.58823466 2.96590400 -0.48333383 33 8 4111 3.96600000 881516352 881516352 -7.00000000
2.63141656 3.01538682 0.63387245 8 9 4111 4.05200000 881516354 881516354 9.00000000
2.58778620 2.96434546 -0.34426519 17 10 4112 3.95000000 881516356 881516356 -5.00000000
2.63697600 3.01962924 0.77926391 68 11 4113 4.08400000 881516358 881516358 11.00000000
2.58595014 2.96015596 -0.20599432 14 12 4114 3.93600000 881516361 881516361 -3.00000000
2.62622118 3.00519586 0.92139953 57 13 4115 4.09600000 881516363 881516363 13.00000000
2.60066795 2.97490716 -0.06897191 14 14 4116 3.95200000 881516365 881516365 -1.00000000
2.63958263 3.01942158 1.07461667 68 15 4116 4.15200000 881516368 881516368 15.00000000
1.51292372 1.72576630 -0.61495405 3 0 4124 2.37600000 881516388 881516388 -15.00000000
2.60929322 2.97532868 0.06907663 19 1 4125 3.95800000 881516391 881516391 1.00000000
1.78121698 2.03037381 -0.62356430 3 2 4126 2.77200000 881516393 881516393 -13.00000000
2.61242104 2.97679853 0.20756440 17 3 4127 3.96600000 881516395 881516395 3.00000000
2.15225458 2.45244861 -0.63424909 4 4 4127 3.32400000 881516398 881516398 -11.00000000
2.62365770 2.98855019 0.34792572 18 5 4128 3.99200000 881516400 881516400 5.00000000
2.60828924 2.96999860 -0.62605071 9 6 4129 4.00200000 881516402 881516402 -9.00000000
2.62425900 2.98713136 0.48820859 8 7 4130 4.00600000 881516405 881516405 7.00000000
2.59464049 2.95237803 -0.48260260 5 8 4131 3.96000000 881516407 881516407 -7.00000000
2.62810373 2.98940253 0.63043088 10 9 4132 4.03000000 881516409 881516409 9.00000000
2.59811783 2.95529437 -0.34426519 21 10 4132 3.95000000 881516411 881516411 -5.00000000
2.64490747 3.00745773 0.77850068 66 11 4133 4.08000000 881516414 881516414 11.00000000
