# .PCD v0.7 - Point Cloud Data file format
VERSION 0.7
FIELDS x y z intensity laser_id azimuth distance_m adjustedtime timestamp vertical_angle
SIZE 4 4 4 1 1 2 8 8 4 8
TYPE F F F U U U F U U F
COUNT 1 1 1 1 1 1 1 1 1 1
WIDTH 541
HEIGHT 1
VIEWPOINT 0 0 0 1 0 0 0
POINTS 541
DATA ascii
1.91930342 -2.14210534 -0.55907035 2 4 13814 2.93000000 880343513 880343513 -11.00000000
3.97191215 -4.43454742 0.52084273 9 5 13815 5.97600000 880343515 880343515 5.00000000
2.36787176 -2.64460230 -0.56222546 3 6 13816 3.59400000 880343518 880343518 -9.00000000
3.96641374 -4.43152046 0.73024112 10 7 13817 5.99200000 880343520 880343520 7.00000000
3.07879806 -3.44103026 -0.56693619 6 8 13818 4.65200000 880343522 880343522 -7.00000000
3.95072913 -4.41709805 0.93860680 55 9 13819 6.00000000 880343525 880343525 9.00000000
3.98608255 -4.45662498 -0.52310878 15 10 13819 6.00200000 880343527 880343527 -5.00000000
3.94272971 -4.40970325 1.14981496 12 11 13820 6.02600000 880343529 880343529 11.00000000
3.96232200 -4.43317270 -0.31160828 12 12 13821 5.95400000 880343532 880343532 -3.00000000
3.94061780 -4.41043854 1.36545289 9 13 13822 6.07000000 880343534 880343534 13.00000000
3.95628119 -4.42952490 -0.10366730 9 14 13823 5.94000000 880343536 880343536 -1.00000000
3.95203185 -4.42476749 1.58966660 9 15 13823 6.14200000 880343538 880343538 15.00000000
1.39665866 -1.56812632 -0.56267262 4 0 13831 2.17400000 880343559 880343559 -15.00000000
3.94931841 -4.43573427 0.10366730 11 1 13832 5.94000000 880343562 880343562 1.00000000
1.61690760 -1.81669164 -0.56147784 3 2 13833 2.49600000 880343564 880343564 -13.00000000
3.94561529 -4.43469095 0.31108493 9 3 13834 5.94400000 880343566 880343566 3.00000000
1.90920436 -2.14585829 -0.55830711 2 4 13834 2.92600000 880343568 880343568 -11.00000000
3.94316745 -4.43349791 0.51909959 9 5 13835 5.95600000 880343571 880343571 5.00000000
2.36387610 -2.65875673 -0.56347692 3 6 13836 3.60200000 880343573 880343573 -9.00000000
3.93773341 -4.43050146 0.72780371 10 7 13837 5.97200000 880343575 880343575 7.00000000
3.06676793 -3.45175624 -0.56693619 6 8 13838 4.65200000 880343578 880343578 -7.00000000
3.93003941 -4.42495394 0.93735534 52 9 13839 5.99200000 880343580 880343580 9.00000000
3.94933271 -4.44667721 -0.52031976 15 10 13839 5.97000000 880343582 880343582 -5.00000000
3.92991996 -4.42637539 1.15057826 12 11 13840 6.03000000 880343585 880343585 11.00000000
3.93886852 -4.43801403 -0.31098026 12 12 13841 5.94200000 880343587 880343587 -3.00000000
3.91743875 -4.41542101 1.36275351 9 13 13842 6.05800000 880343589 880343589 13.00000000
3.92885327 -4.42984343 -0.10335315 9 14 13843 5.92200000 880343591 880343591 -1.00000000
3.92169023 -4.42332220 1.58397257 9 15 13844 6.12000000 880343594 880343594 15.00000000
1.38605702 -1.56720364 -0.56060207 4 0 13851 2.16600000 880343615 880343615 -15.00000000
3.92056561 -4.43451118 0.10331824 11 1 13852 5.92000000 880343617 880343617 1.00000000
1.62346148 -1.83692658 -0.56597686 4 2 13853 2.51600000 880343619 880343619 -13.00000000
3.92085457 -4.43795919 0.31035221 9 3 13854 5.93000000 880343621 880343621 3.00000000
1.89650285 -2.14662433 -0.55678064 2 4 13854 2.91800000 880343624 880343624 -11.00000000
3.91711664 -4.43528795 0.51770508 9 5 13855 5.94000000 880343626 880343626 5.00000000
2.34150720 -2.65218353 -0.56034827 3 6 13856 3.58200000 880343628 880343628 -9.00000000
3.91698980 -4.43826628 0.72682875 10 7 13857 5.96400000 880343631 880343631 7.00000000
3.05601358 -3.46392894 -0.56717992 4 8 13858 4.65400000 880343633 880343633 -7.00000000
3.89889026 -4.42086744 0.93360090 54 9 13859 5.96800000 880343635 880343635 9.00000000
3.91270137 -4.43652725 -0.51753080 15 10 13859 5.93800000 880343638 880343638 -5.00000000
3.90146184 -4.42533970 1.14676201 12 11 13860 6.01000000 880343640 880343640 11.00000000
3.91807079 -4.44574261 -0.31056157 12 12 13861 5.93400000 880343642 880343642 -3.00000000
3.89684939 -4.42321968 1.36095393 9 13 13862 6.05000000 880343644 880343644 13.00000000
3.90147161 -4.43002462 -0.10303900 9 14 13863 5.90400000 880343647 880343647 -1.00000000
3.89678597 -4.42470407 1.57983148 9 15 13863 6.10400000 880343649 880343649 15.00000000
1.38567710 -1.57783854 -0.56267262 4 0 13871 2.17400000 880343670 880343670 -15.00000000
3.89055037 -4.43163919 0.10293429 11 1 13872 5.89800000 880343672 880343672 1.00000000
1.60547090 -1.82940006 -0.56192774 4 2 13873 2.49800000 880343674 880343674 -13.00000000
3.90665650 -4.45311975 0.31045690 9 3 13874 5.93200000 880343677 880343677 3.00000000
1.89547181 -2.16061044 -0.55868876 3 4 13874 2.92800000 880343679 880343679 -11.00000000
3.88716030 -4.43245649 0.51578766 12 5 13875 5.91800000 880343681 880343681 5.00000000
2.32832837 -2.65588474 -0.55940962 1 6 13876 3.57600000 880343684 880343684 -9.00000000
3.88839030 -4.43698263 0.72439140 10 7 13877 5.94400000 880343686 880343686 7.00000000
3.04390383 -3.47457528 -0.56717992 4 8 13878 4.65400000 880343688 880343688 -7.00000000
3.88473630 -4.43593597 0.93391377 19 9 13879 5.97000000 880343691 880343691 9.00000000
3.88800263 -4.43966579 -0.51631063 15 10 13879 5.92400000 880343693 880343693 -5.00000000
3.87047267 -4.42120552 1.14218259 12 11 13880 5.98600000 880343695 880343695 11.00000000
3.88674450 -4.44135618 -0.30930549 12 12 13881 5.91000000 880343697 880343697 -3.00000000
3.87112069 -4.42506123 1.35735464 9 13 13882 6.03400000 880343700 880343700 13.00000000
3.88335133 -4.44060564 -0.10296920 9 14 13883 5.90000000 880343702 880343702 -1.00000000
3.86605644 -4.42082882 1.57361984 9 15 13883 6.08000000 880343704 880343704 15.00000000
1.38297713 -1.58533645 -0.56370789 4 0 13890 2.17800000 880343725 880343725 -15.00000000
3.86794734 -4.43547392 0.10272487 11 1 13891 5.88600000 880343727 880343727 1.00000000
1.59427333 -1.82883811 -0.56012815 4 2 13892 2.49000000 880343730 880343730 -13.00000000
3.87480974 -4.44647551 0.30909616 9 3 13893 5.90600000 880343732 880343732 3.00000000
1.89216602 -2.17132449 -0.55983359 3 4 13893 2.93400000 880343734 880343734 -11.00000000
3.86851430 -4.44081593 0.51526475 12 5 13894 5.91200000 880343737 880343737 5.00000000
2.32080579 -2.66508079 -0.55972254 1 6 13895 3.57800000 880343739 880343739 -9.00000000
3.85801458 -4.43188572 0.72146654 10 7 13896 5.92000000 880343741 880343741 7.00000000
3.02454615 -3.47566509 -0.56571752 4 8 13897 4.64200000 880343743 880343743 -7.00000000
3.85315061 -4.42941904 0.92984647 9 9 13898 5.94400000 880343746 880343746 9.00000000
3.87248158 -4.45321083 -0.51631063 15 10 13899 5.92400000 880343748 880343748 -5.00000000
3.84934878 -4.42660856 1.14027452 12 11 13899 5.97600000 880343750 880343750 11.00000000
3.86413312 -4.44517660 -0.30867746 12 12 13900 5.89800000 880343753 880343753 -3.00000000
3.84619951 -4.42610645 1.35375547 10 13 13901 6.01800000 880343755 880343755 13.00000000
3.86598158 -4.45043993 -0.10289939 9 14 13902 5.89600000 880343757 880343757 -1.00000000
3.84426808 -4.42700386 1.57103157 9 15 13903 6.07000000 880343760 880343760 15.00000000
1.39106798 -1.60645926 -0.56940192 4 0 13911 2.20000000 880343780 880343780 -15.00000000
3.84720492 -4.44290161 0.10258525 11 1 13911 5.87800000 880343783 880343783 1.00000000
1.59298146 -1.84028566 -0.56192774 4 2 13912 2.49800000 880343785 880343785 -13.00000000
3.84750295 -4.44638109 0.30815411 9 3 13913 5.88800000 880343787 880343787 3.00000000
1.88034177 -2.17379069 -0.55868876 3 4 13914 2.92800000 880343790 880343790 -11.00000000
3.84569597 -4.44742918 0.51439321 12 5 13915 5.90200000 880343792 880343792 5.00000000
2.30973029 -2.67207456 -0.55940962 1 6 13916 3.57600000 880343794 880343794 -9.00000000
3.83732843 -4.43931818 0.72049153 10 7 13916 5.91200000 880343796 880343796 7.00000000
3.02148056 -3.49671578 -0.56742364 4 8 13917 4.65600000 880343799 880343799 -7.00000000
3.82991791 -4.43387270 0.92796922 40 9 13918 5.93200000 880343801 880343801 9.00000000
3.84649634 -4.45463705 -0.51491612 15 10 13919 5.90800000 880343803 880343803 -5.00000000
3.82796717 -4.43474293 1.13874805 12 11 13920 5.96800000 880343806 880343806 11.00000000
3.83998609 -4.45023680 -0.30804944 12 12 13921 5.88600000 880343808 880343808 -3.00000000
3.81213164 -4.41951513 1.34745681 8 13 13922 5.99000000 880343810 880343810 13.00000000
3.83605599 -4.44725084 -0.10251544 9 14 13922 5.87400000 880343813 880343813 -1.00000000
3.83005309 -4.44185877 1.57154930 9 15 13923 6.07200000 880343815 880343815 15.00000000
1.43331301 -1.66696846 -0.58907217 10 0 13931 2.27600000 880343836 880343836 -15.00000000
3.82177091 -4.44635677 0.10234091 11 1 13932 5.86400000 880343838 880343838 1.00000000
1.58749568 -1.84758997 -0.56237763 5 2 13933 2.50000000 880343840 880343840 -13.00000000
3.82597494 -4.45439291 0.30773541 9 3 13934 5.88000000 880343843 880343843 3.00000000
1.84204173 -2.14459777 -0.54952991 5 4 13934 2.88000000 880343845 880343845 -11.00000000
3.81327510 -4.44117498 0.51212716 12 5 13935 5.87600000 880343847 880343847 5.00000000
2.30296206 -2.68311882 -0.56003541 1 6 13936 3.58000000 880343849 880343849 -9.00000000
3.81586123 -4.44732666 0.71951658 10 7 13937 5.90400000 880343852 880343852 7.00000000
3.00476718 -3.50324631 -0.56669247 4 8 13938 4.65000000 880343854 880343854 -7.00000000
3.80978394 -4.44338131 0.92703062 54 9 13939 5.92600000 880343856 880343856 9.00000000
3.82106733 -4.45811558 -0.51369596 15 10 13940 5.89400000 880343859 880343859 -5.00000000
3.80479789 -4.43913412 1.13645840 12 11 13940 5.95600000 880343861 880343861 11.00000000
3.82182956 -4.46058035 -0.30784011 12 12 13941 5.88200000 880343863 880343863 -3.00000000
3.78907537 -4.42391443 1.34475744 8 13 13942 5.97800000 880343866 880343866 13.00000000
3.81062627 -4.45064783 -0.10227110 9 14 13943 5.86000000 880343868 880343868 -1.00000000
3.79616070 -4.43531942 1.56430233 9 15 13944 6.04400000 880343870 880343870 15.00000000
1.36699569 -1.60167801 -0.56422549 4 0 13952 2.18000000 880343891 880343891 -15.00000000
3.79843783 -4.45054436 0.10213149 11 1 13952 5.85200000 880343893 880343893 1.00000000
1.58609605 -1.85905004 -0.56417722 11 2 13953 2.50800000 880343895 880343895 -13.00000000
3.80262661 -4.45860291 0.30710739 9 3 13954 5.86800000 880343898 880343898 3.00000000
1.77048254 -2.07663560 -0.53044903 17 4 13955 2.78000000 880343900 880343900 -11.00000000
3.78534055 -4.44147396 0.51055837 12 5 13956 5.85800000 880343902 880343902 5.00000000
2.29055023 -2.68853426 -0.55940962 1 6 13957 3.57600000 880343905 880343905 -9.00000000
3.78744006 -4.44550896 0.71707922 10 7 13957 5.88400000 880343907 880343907 7.00000000
2.99123311 -3.51220226 -0.56644869 6 8 13958 4.64800000 880343909 880343909 -7.00000000
3.77888370 -4.43860388 0.92327619 66 9 13959 5.90200000 880343912 880343912 9.00000000
3.78998661 -4.45321941 -0.51160419 15 10 13960 5.87000000 880343914 880343914 -5.00000000
3.76941967 -4.43061972 1.13073409 12 11 13961 5.92600000 880343916 880343916 11.00000000
3.80027938 -4.46847248 -0.30742142 12 12 13962 5.87400000 880343919 880343919 -3.00000000
3.77031112 -4.43480301 1.34385765 8 13 13963 5.97400000 880343921 880343921 13.00000000
3.79506731 -4.46392250 -0.10227110 9 14 13963 5.86000000 880343923 880343923 -1.00000000
3.76439166 -4.42940664 1.55757296 9 15 13964 6.01800000 880343925 880343925 15.00000000
1.35265350 -1.59612334 -0.56060207 4 0 13972 2.16600000 880343946 880343946 -15.00000000
3.76400399 -4.44307518 0.10164282 11 1 13973 5.82400000 880343948 880343948 1.00000000
1.53267431 -1.80982745 -0.54753089 13 2 13974 2.43400000 880343951 880343951 -13.00000000
3.77464509 -4.45879078 0.30616534 9 3 13975 5.85000000 880343953 880343953 3.00000000
1.79620409 -2.12176204 -0.54037106 26 4 13975 2.83200000 880343955 880343955 -11.00000000
3.76209140 -4.44553518 0.50951248 12 5 13976 5.84600000 880343958 880343958 5.00000000
2.26456618 -2.67690778 -0.55534238 3 6 13977 3.55000000 880343960 880343960 -9.00000000
3.76599383 -4.45329762 0.71610427 10 7 13978 5.87600000 880343962 880343962 7.00000000
2.98731089 -3.53375387 -0.56815487 4 8 13979 4.66200000 880343965 880343965 -7.00000000
3.75238991 -4.44035387 0.92077327 61 9 13980 5.88600000 880343967 880343967 9.00000000
3.76849651 -4.46099234 -0.51090693 15 10 13981 5.86200000 880343969 880343969 -5.00000000
3.75013018 -4.43925142 1.12958920 12 11 13981 5.92000000 880343972 880343972 11.00000000
3.77177215 -4.46645117 -0.30637470 12 12 13982 5.85400000 880343974 880343974 -3.00000000
3.74852252 -4.44049120 1.34160805 9 13 13983 5.96400000 880343976 880343976 13.00000000
3.76320505 -4.45946312 -0.10185225 9 14 13984 5.83600000 880343978 880343978 -1.00000000
3.73816681 -4.43136120 1.55343187 9 15 13985 6.00200000 880343981 880343981 15.00000000
1.34928143 -1.60402715 -0.56163734 4 0 13993 2.17000000 880344001 880344001 -15.00000000
3.74203563 -4.44853544 0.10146829 11 1 13993 5.81400000 880344004 880344004 1.00000000
1.57526088 -1.87333524 -0.56507707 6 2 13994 2.51200000 880344006 880344006 -13.00000000
3.75134730 -4.46276665 0.30553731 9 3 13995 5.83800000 880344008 880344008 3.00000000
1.83388352 -2.18244123 -0.55410933 17 4 13996 2.90400000 880344011 880344011 -11.00000000
3.73680210 -4.44861460 0.50829232 12 5 13997 5.83200000 880344013 880344013 5.00000000
2.27125311 -2.70485592 -0.55940962 3 6 13998 3.57600000 880344015 880344015 -9.00000000
3.73766065 -4.45121431 0.71366686 10 7 13998 5.85600000 880344018 880344018 7.00000000
2.97368145 -3.54263973 -0.56791115 4 8 13999 4.66000000 880344020 880344020 -7.00000000
3.73051858 -4.44585896 0.91920894 21 9 14000 5.87600000 880344022 880344022 9.00000000
3.75034094 -4.47106695 -0.51055837 15 10 14001 5.85800000 880344025 880344025 -5.00000000
3.73761868 -4.45747948 1.13073409 12 11 14002 5.92600000 880344027 880344027 11.00000000
3.74254632 -4.46493864 -0.30532798 12 12 14003 5.83400000 880344029 880344029 -3.00000000
3.71845460 -4.43776989 1.33665919 8 13 14004 5.94200000 880344031 880344031 13.00000000
3.74504709 -4.46950626 -0.10178243 9 14 14004 5.83200000 880344034 880344034 -1.00000000
3.71895432 -4.43993998 1.55187905 8 15 14005 5.99600000 880344036 880344036 15.00000000
1.34147763 -1.60552776 -0.56060207 4 0 14012 2.16600000 880344057 880344057 -15.00000000
3.72520280 -4.46003580 0.10143339 11 1 14013 5.81200000 880344059 880344059 1.00000000
1.57121003 -1.88181436 -0.56597686 4 2 14014 2.51600000 880344061 880344061 -13.00000000
3.72422814 -4.46203375 0.30459526 9 3 14015 5.82000000 880344064 880344064 3.00000000
1.81405616 -2.17343831 -0.55029315 8 4 14015 2.88400000 880344066 880344066 -11.00000000
3.71820021 -4.45639229 0.50776935 12 5 14016 5.82600000 880344068 880344068 5.00000000
2.25341415 -2.70175409 -0.55721956 1 6 14017 3.56200000 880344071 880344071 -9.00000000
3.72210026 -4.46423388 0.71366686 10 7 14018 5.85600000 880344073 880344073 7.00000000
2.95875525 -3.54994845 -0.56742364 4 8 14019 4.65600000 880344075 880344075 -7.00000000
3.71750593 -4.46188927 0.91983467 9 9 14020 5.88000000 880344078 880344078 9.00000000
3.73088574 -4.47953796 -0.51003540 15 10 14021 5.85200000 880344080 880344080 -5.00000000
3.71025229 -4.45476389 1.12691796 12 11 14021 5.90600000 880344082 880344082 11.00000000
3.72516370 -4.47425508 -0.30511862 12 12 14022 5.83000000 880344084 880344084 -3.00000000
3.69125175 -4.43509769 1.33216012 8 13 14023 5.92200000 880344087 880344087 13.00000000
3.71535420 -4.46564245 -0.10139848 9 14 14024 5.81000000 880344089 880344089 -1.00000000
3.69849205 -4.44695330 1.54980838 8 15 14025 5.98800000 880344091 880344091 15.00000000
1.33558404 -1.61043370 -0.56060207 4 0 14033 2.16600000 880344112 880344112 -15.00000000
3.70450544 -4.46685505 0.10129377 11 1 14033 5.80400000 880344114 880344114 1.00000000
1.54970682 -1.86928463 -0.56057805 3 2 14034 2.49200000 880344117 880344117 -13.00000000
3.69970894 -4.46424198 0.30386257 9 3 14035 5.80600000 880344119 880344119 3.00000000
1.77601838 -2.14378834 -0.54113430 13 4 14036 2.83600000 880344121 880344121 -11.00000000
3.69548774 -4.46231794 0.50689781 12 5 14037 5.81600000 880344124 880344124 5.00000000
2.26113224 -2.73129773 -0.56159973 3 6 14038 3.59000000 880344126 880344126 -9.00000000
3.69889927 -4.46802473 0.71220446 10 7 14038 5.84400000 880344128 880344128 7.00000000
2.94508004 -3.55872536 -0.56717992 4 8 14039 4.65400000 880344131 880344131 -7.00000000
3.68679857 -4.45657396 0.91608024 9 9 14040 5.85600000 880344133 880344133 9.00000000
3.70125961 -4.47564459 -0.50811797 14 10 14041 5.83000000 880344135 880344135 -5.00000000
3.69640160 -4.47135878 1.12768114 12 11 14042 5.91000000 880344137 880344137 11.00000000
3.70110583 -4.47864103 -0.30449060 12 12 14043 5.81800000 880344140 880344140 -3.00000000
3.67373037 -4.44709492 1.33171022 8 13 14044 5.92000000 880344142 880344142 13.00000000
3.68063998 -4.45545912 -0.10087491 9 14 14044 5.78000000 880344144 880344144 -1.00000000
3.67064571 -4.44494057 1.54463208 8 15 14045 5.96800000 880344147 880344147 15.00000000
1.32834232 -1.61140800 -0.55956680 4 0 14050 2.16200000 880344167 880344167 -15.00000000
3.67137861 -4.45532274 0.10077020 10 1 14051 5.77400000 880344170 880344170 1.00000000
1.54630470 -1.87715220 -0.56147784 3 2 14052 2.49600000 880344172 880344172 -13.00000000
3.68566585 -4.47584295 0.30386257 9 3 14053 5.80600000 880344174 880344174 3.00000000
1.86948895 -2.27029228 -0.57166374 5 4 14053 2.99600000 880344177 880344177 -11.00000000
3.66830277 -4.45634222 0.50498039 12 5 14054 5.79400000 880344179 880344179 5.00000000
2.21912909 -2.69681025 -0.55315226 7 6 14055 3.53600000 880344181 880344181 -9.00000000
3.67349482 -4.46582556 0.71001077 10 7 14056 5.82600000 880344183 880344183 7.00000000
2.92632055 -3.55876040 -0.56571752 2 8 14057 4.64200000 880344186 880344186 -7.00000000
3.66399908 -4.45745230 0.91389012 9 9 14058 5.84200000 880344188 880344188 9.00000000
3.67326689 -4.47031736 -0.50620055 14 10 14059 5.80800000 880344190 880344190 -5.00000000
3.66442251 -4.45955372 1.12195694 12 11 14059 5.88000000 880344193 880344193 11.00000000
3.68273020 -4.48342943 -0.30407190 12 12 14060 5.81000000 880344195 880344195 -3.00000000
3.65557289 -4.45195103 1.32991064 8 13 14061 5.91200000 880344197 880344197 13.00000000
3.66408706 -4.46390867 -0.10080510 9 14 14062 5.77600000 880344200 880344200 -1.00000000
3.64808536 -4.44599628 1.54100859 8 15 14063 5.95400000 880344202 880344202 15.00000000
1.32270932 -1.61603498 -0.55956680 4 0 14070 2.16200000 880344223 880344223 -15.00000000
3.64694023 -4.45727730 0.10052586 10 1 14071 5.76000000 880344225 880344225 1.00000000
1.53234017 -1.87348771 -0.55877841 3 2 14072 2.48400000 880344227 880344227 -13.00000000
3.65737772 -4.47321892 0.30281585 9 3 14073 5.78600000 880344230 880344230 3.00000000
1.88227665 -2.30297112 -0.57815129 5 4 14074 3.03000000 880344232 880344232 -11.00000000
3.64690256 -4.46358585 0.50428313 12 5 14075 5.78600000 880344234 880344234 5.00000000
2.15924716 -2.64372826 -0.54063749 7 6 14076 3.45600000 880344236 880344236 -9.00000000
3.64783812 -4.46632147 0.70806086 10 7 14076 5.81000000 880344239 880344239 7.00000000
2.92141318 -3.57817960 -0.56717992 4 8 14077 4.65400000 880344241 880344241 -7.00000000
3.63967419 -4.45950222 0.91170007 9 9 14078 5.82800000 880344243 880344243 9.00000000
3.65638065 -4.48156834 -0.50602627 14 10 14079 5.80600000 880344246 880344246 -5.00000000
3.63688540 -4.45926189 1.11852229 12 11 14080 5.86200000 880344248 880344248 11.00000000
3.65365243 -4.48141718 -0.30302519 12 12 14081 5.79000000 880344250 880344250 -3.00000000
3.63184428 -4.45625591 1.32721126 8 13 14082 5.90000000 880344253 880344253 13.00000000
3.64469290 -4.47202110 -0.10070039 9 14 14082 5.77000000 880344255 880344255 -1.00000000
3.62644267 -4.45121479 1.53842044 8 15 14083 5.94400000 880344257 880344257 15.00000000
1.32043171 -1.62537038 -0.56111968 4 0 14091 2.16800000 880344278 880344278 -15.00000000
3.62049413 -4.45819569 0.10024662 10 1 14092 5.74400000 880344280 880344280 1.00000000
1.53037608 -1.88514328 -0.56057805 3 2 14093 2.49200000 880344283 880344283 -13.00000000
3.63088965 -4.47418690 0.30197847 9 3 14094 5.77000000 880344285 880344285 3.00000000
1.81484485 -2.23635435 -0.55983359 3 4 14094 2.93400000 880344287 880344287 -11.00000000
3.62878895 -4.47319412 0.50393450 12 5 14095 5.78200000 880344289 880344289 5.00000000
2.14502883 -2.64511204 -0.53938603 21 6 14096 3.44800000 880344292 880344292 -9.00000000
3.61894298 -4.46424103 0.70562351 10 7 14097 5.79000000 880344294 880344294 7.00000000
2.89453101 -3.57189798 -0.56449878 4 8 14098 4.63200000 880344296 880344296 -7.00000000
3.61584425 -4.46360254 0.90982282 9 9 14099 5.81600000 880344299 880344299 9.00000000
3.63616872 -4.49029446 -0.50550330 14 10 14100 5.80000000 880344301 880344301 -5.00000000
3.60770679 -4.45514679 1.11432457 12 11 14100 5.84000000 880344303 880344303 11.00000000
3.62039399 -4.47241020 -0.30155978 12 12 14101 5.76200000 880344306 880344306 -3.00000000
3.60523415 -4.45527220 1.32316208 8 13 14102 5.88200000 880344308 880344308 13.00000000
3.61821651 -4.47291183 -0.10042115 9 14 14103 5.75400000 880344310 880344310 -1.00000000
3.60888910 -4.46297407 1.53790271 8 15 14104 5.94200000 880344313 880344313 15.00000000
1.31689072 -1.63320684 -0.56215495 4 0 14112 2.17200000 880344333 880344333 -15.00000000
3.60239959 -4.46769285 0.10017681 10 1 14112 5.74000000 880344336 880344336 1.00000000
1.52378643 -1.89047384 -0.56057805 3 2 14113 2.49200000 880344338 880344338 -13.00000000
3.60647774 -4.47594738 0.30124578 9 3 14114 5.75600000 880344340 880344340 3.00000000
1.79678392 -2.23075938 -0.55678064 2 4 14115 2.91800000 880344342 880344342 -11.00000000
3.60737157 -4.48025656 0.50323725 12 5 14116 5.77400000 880344345 880344345 5.00000000
2.14894414 -2.66988349 -0.54282761 21 6 14117 3.47000000 880344347 880344347 -9.00000000
3.59586978 -4.46756792 0.70416105 10 7 14117 5.77800000 880344349 880344349 7.00000000
2.88951159 -3.59125972 -0.56596124 4 8 14118 4.64400000 880344352 880344352 -7.00000000
3.59033704 -4.46388292 0.90731990 9 9 14119 5.80000000 880344354 880344354 9.00000000
3.60673976 -4.48587942 -0.50358588 14 10 14120 5.77800000 880344356 880344356 -5.00000000
3.58643389 -4.46221876 1.11279809 12 11 14121 5.83200000 880344359 880344359 11.00000000
3.59897375 -4.47942162 -0.30114108 12 12 14122 5.75400000 880344361 880344361 -3.00000000
3.57423711 -4.45022392 1.31776333 9 13 14123 5.85800000 880344363 880344363 13.00000000
3.58755469 -4.46680546 -0.10000229 9 14 14123 5.73000000 880344366 880344366 -1.00000000
3.58845067 -4.46951866 1.53583217 8 15 14124 5.93400000 880344368 880344368 15.00000000
1.30542958 -1.63002539 -0.55956680 4 0 14131 2.16200000 880344389 880344389 -15.00000000
3.58428311 -4.47711849 0.10010701 10 1 14132 5.73600000 880344391 880344391 1.00000000
1.50987232 -1.88665235 -0.55787861 3 2 14133 2.48000000 880344393 880344393 -13.00000000
3.58584118 -4.48227072 0.30082709 9 3 14134 5.74800000 880344395 880344395 3.00000000
1.78447080 -2.23057318 -0.55525416 2 4 14134 2.91000000 880344398 880344398 -11.00000000
3.58253956 -4.47974634 0.50184274 12 5 14135 5.75800000 880344400 880344400 5.00000000
2.17338228 -2.71865416 -0.55127507 8 6 14136 3.52400000 880344402 880344402 -9.00000000
3.58149242 -4.48164320 0.70440483 10 7 14137 5.78000000 880344405 880344405 7.00000000
2.88067508 -3.60597706 -0.56669247 4 8 14138 4.65000000 880344407 880344407 -7.00000000
3.56487179 -4.46403980 0.90481693 9 9 14139 5.78400000 880344409 880344409 9.00000000
3.58235788 -4.48754215 -0.50236571 14 10 14140 5.76400000 880344412 880344412 -5.00000000
3.56916738 -4.47101879 1.11203480 12 11 14140 5.82800000 880344414 880344414 11.00000000
3.57662511 -4.48196507 -0.30051306 12 12 14141 5.74200000 880344416 880344416 -3.00000000
3.55459905 -4.45595837 1.31596363 8 13 14142 5.85000000 880344419 880344419 13.00000000
3.56196666 -4.46679354 -0.09972305 9 14 14143 5.71400000 880344421 880344421 -1.00000000
3.55837703 -4.46389008 1.52962053 8 15 14144 5.91000000 880344423 880344423 15.00000000
1.29463816 -1.62874985 -0.55749625 4 0 14152 2.15400000 880344444 880344444 -15.00000000
3.56365609 -4.48334122 0.09996738 10 1 14152 5.72800000 880344446 880344446 1.00000000
1.51540065 -1.90716863 -0.56237763 3 2 14153 2.50000000 880344448 880344448 -13.00000000
3.56768870 -4.49163246 0.30061772 9 3 14154 5.74400000 880344451 880344451 3.00000000
1.78116655 -2.24324870 -0.55678064 3 4 14155 2.91800000 880344453 880344453 -11.00000000
3.55618715 -4.48036242 0.50044829 12 5 14156 5.74200000 880344455 880344455 5.00000000
2.20392108 -2.77766752 -0.56159973 1 6 14157 3.59000000 880344458 880344458 -9.00000000
3.55965757 -4.48634243 0.70318609 10 7 14157 5.77000000 880344460 880344460 7.00000000
2.86930394 -3.61756587 -0.56693619 4 8 14158 4.65200000 880344462 880344462 -7.00000000
3.54067683 -4.46562099 0.90262687 9 9 14159 5.77000000 880344465 880344465 9.00000000
3.55305839 -4.48284388 -0.50044829 14 10 14160 5.74200000 880344467 880344467 -5.00000000
3.55031776 -4.48099279 1.11127162 12 11 14161 5.82400000 880344469 880344469 11.00000000
3.55893373 -4.49347830 -0.30040839 12 12 14162 5.74000000 880344471 880344471 -3.00000000
3.53340459 -4.46284533 1.31416404 8 13 14163 5.84200000 880344474 880344474 13.00000000
3.54511166 -4.47763205 -0.09968814 9 14 14163 5.71200000 880344476 880344476 -1.00000000
3.53078437 -4.46113586 1.52444422 8 15 14164 5.89000000 880344478 880344478 15.00000000
1.28951490 -1.63280904 -0.55749625 4 0 14170 2.15400000 880344499 880344499 -15.00000000
3.52894354 -4.47002125 0.09940891 10 1 14171 5.69600000 880344501 880344501 1.00000000
1.49699545 -1.89688587 -0.55787861 3 2 14172 2.48000000 880344504 880344504 -13.00000000
3.55401134 -4.50500679 0.30072239 7 3 14173 5.74600000 880344506 880344506 3.00000000
1.77654243 -2.25191593 -0.55754387 3 4 14173 2.92200000 880344508 880344508 -11.00000000
3.51988673 -4.46335268 0.49731067 9 5 14174 5.70600000 880344511 880344511 5.00000000
2.18295455 -2.76906466 -0.55847102 1 6 14175 3.57000000 880344513 880344513 -9.00000000
3.52755904 -4.47629404 0.69977379 10 7 14176 5.74200000 880344515 880344515 7.00000000
2.85729194 -3.62706089 -0.56693619 4 8 14177 4.65200000 880344518 880344518 -7.00000000
3.52096033 -4.47112989 0.90137541 9 9 14178 5.76200000 880344520 880344520 9.00000000
3.52338457 -4.47581577 -0.49835655 14 10 14179 5.71800000 880344522 880344522 -5.00000000
3.50950694 -4.45818663 1.10287595 12 11 14179 5.78000000 880344524 880344524 11.00000000
3.53491855 -4.49208021 -0.29957101 12 12 14180 5.72400000 880344527 880344527 -3.00000000
3.51695704 -4.47086048 1.31326425 9 13 14181 5.83800000 880344529 880344529 13.00000000
3.53271604 -4.49250746 -0.09975795 6 14 14182 5.71600000 880344531 880344531 -1.00000000
3.51358366 -4.46978188 1.52340889 8 15 14183 5.88600000 880344534 880344534 15.00000000
1.28828871 -1.64360619 -0.55956680 4 0 14191 2.16200000 880344554 880344554 -15.00000000
3.50221634 -4.46814775 0.09909476 21 1 14191 5.67800000 880344557 880344557 1.00000000
1.49036491 -1.90209985 -0.55787861 3 2 14192 2.48000000 880344559 880344559 -13.00000000
3.50993848 -4.48122072 0.29831496 23 3 14193 5.70000000 880344561 880344561 3.00000000
1.77069747 -2.26150393 -0.55830711 3 4 14194 2.92600000 880344564 880344564 -11.00000000
3.50595999 -4.47936153 0.49765930 30 5 14195 5.71000000 880344566 880344566 5.00000000
2.18009424 -2.78638172 -0.56034827 1 6 14196 3.58200000 880344568 880344568 -9.00000000
3.49723363 -4.46981907 0.69684893 10 7 14196 5.71800000 880344571 880344571 7.00000000
2.83727598 -3.62763071 -0.56547374 4 8 14197 4.64000000 880344573 880344573 -7.00000000
3.50411510 -4.48183727 0.90106255 9 9 14198 5.76000000 880344575 880344575 9.00000000
3.51510119 -4.49750614 -0.49940240 14 10 14199 5.73000000 880344577 880344577 -5.00000000
3.49193454 -4.46947241 1.10249436 11 11 14200 5.77800000 880344580 880344580 11.00000000
3.49015522 -4.46880245 -0.29716355 12 12 14201 5.67800000 880344582 880344582 -3.00000000
3.47896075 -4.45607185 1.30516601 21 13 14202 5.80200000 880344584 880344584 13.00000000
3.50101519 -4.48432064 -0.09930419 27 14 14202 5.69000000 880344587 880344587 -1.00000000
3.49795961 -4.48201942 1.52340889 38 15 14203 5.88600000 880344589 880344589 15.00000000
1.28254354 -1.64809310 -0.55956680 4 0 14211 2.16200000 880344610 880344610 -15.00000000
3.48336053 -4.47779751 0.09902495 21 1 14212 5.67400000 880344612 880344612 1.00000000
1.48099077 -1.90447283 -0.55697882 3 2 14213 2.47600000 880344614 880344614 -13.00000000
1.74833357 -2.24907088 -0.55372769 2 4 14214 2.90200000 880344619 880344619 -11.00000000
3.49607682 -4.50062370 -0.90262687 2 6 14216 5.77000000 880344624 880344624 -9.00000000
3.47839236 -4.47947121 0.69636142 10 7 14217 5.71400000 880344626 880344626 7.00000000
2.81665754 -3.62859702 -0.56401134 4 8 14218 4.62800000 880344628 880344628 -7.00000000
3.48645377 -4.49308968 0.90074962 23 9 14219 5.75800000 880344630 880344630 9.00000000
3.48882413 -4.49776506 -0.49800792 14 10 14220 5.71400000 880344633 880344633 -5.00000000
3.47751522 -4.48318577 1.10287595 33 11 14220 5.78000000 880344635 880344635 11.00000000
3.47820640 -4.48569298 -0.29747757 27 12 14221 5.68400000 880344637 880344637 -3.00000000
3.47890520 -4.48821163 1.31101477 36 13 14222 5.82800000 880344640 880344640 13.00000000
3.50161934 -4.52077389 1.53220880 36 15 14224 5.92000000 880344644 880344644 15.00000000
1.27649438 -1.65278280 -0.55956680 4 0 14232 2.16200000 880344665 880344665 -15.00000000
1.47671568 -1.91271591 -0.55787861 3 2 14233 2.48000000 880344670 880344670 -13.00000000
3.44483471 -4.46353197 0.29548880 6 3 14234 5.64600000 880344672 880344672 3.00000000
1.73768008 -2.25235486 -0.55296445 2 4 14235 2.89800000 880344674 880344674 -11.00000000
3.46043277 -4.48697996 0.49574187 8 5 14236 5.68800000 880344677 880344677 5.00000000
2.15165710 -2.79095960 -0.55815816 1 6 14237 3.56800000 880344679 880344679 -9.00000000
3.47485495 -4.50730705 0.69879884 7 7 14237 5.73400000 880344681 880344681 7.00000000
2.81972694 -3.65884733 -0.56717992 4 8 14238 4.65400000 880344683 880344683 -7.00000000
3.47557092 -4.51149178 0.90200114 40 9 14239 5.76600000 880344686 880344686 9.00000000
3.46580887 -4.50044441 -0.49696204 14 10 14240 5.70200000 880344688 880344688 -5.00000000
3.48381448 -4.52545881 1.11012673 36 11 14241 5.81800000 880344690 880344690 11.00000000
3.49688959 -4.54572535 1.32406187 40 13 14243 5.88600000 880344695 880344695 13.00000000
3.43835473 -4.46963406 -0.09843157 6 14 14243 5.64000000 880344697 880344697 -1.00000000
3.50465989 -4.55747175 1.54049098 36 15 14244 5.95200000 880344700 880344700 15.00000000
1.26601529 -1.65109634 -0.55749625 4 0 14252 2.15400000 880344720 880344720 -15.00000000
3.43541455 -4.48197651 0.09857119 7 1 14253 5.64800000 880344723 880344723 1.00000000
1.47917724 -1.93049037 -0.56147784 3 2 14254 2.49600000 880344725 880344725 -13.00000000
3.46610045 -4.52528143 0.29873365 2 3 14255 5.70800000 880344727 880344727 3.00000000
1.74174523 -2.27399278 -0.55678064 2 4 14255 2.91800000 880344730 880344730 -11.00000000
3.46897388 -4.53067064 0.49922809 3 5 14256 5.72800000 880344732 880344732 5.00000000
2.14430308 -2.80159044 -0.55878389 1 6 14257 3.57200000 880344734 880344734 -9.00000000
3.48605537 -4.55627394 0.70440483 7 7 14258 5.78000000 880344736 880344736 7.00000000
2.79061985 -3.64865947 -0.56401134 2 8 14259 4.62800000 880344739 880344739 -7.00000000
3.47820878 -4.54930830 0.90700704 42 9 14260 5.79800000 880344741 880344741 9.00000000
3.43719220 -4.49728727 -0.49521893 14 10 14261 5.68200000 880344743 880344743 -5.00000000
3.48707104 -4.56254959 1.11623263 39 11 14261 5.85000000 880344746 880344746 11.00000000
3.43874359 -4.50094509 -0.29684955 9 12 14262 5.67200000 880344748 880344748 -3.00000000
3.49992561 -4.58268356 1.33126032 39 13 14263 5.91800000 880344750 880344750 13.00000000
3.42923045 -4.49174261 -0.09864100 2 14 14264 5.65200000 880344753 880344753 -1.00000000
3.50434065 -4.59178638 1.54773784 38 15 14265 5.98000000 880344755 880344755 15.00000000
1.25995529 -1.65572548 -0.55749625 4 0 14273 2.15400000 880344776 880344776 -15.00000000
3.43791294 -4.51781130 0.09909476 7 1 14273 5.67800000 880344778 880344778 1.00000000
1.46063125 -1.92013204 -0.55697882 3 2 14274 2.47600000 880344780 880344780 -13.00000000
3.45753670 -4.54689169 0.29936168 11 3 14275 5.72000000 880344783 880344783 3.00000000
1.72151816 -2.26473165 -0.55296445 3 4 14276 2.89800000 880344785 880344785 -11.00000000
3.46198821 -4.55604553 0.50062257 12 5 14277 5.74400000 880344787 880344787 5.00000000
2.13163042 -2.80628490 -0.55815816 1 6 14278 3.56800000 880344789 880344789 -9.00000000
3.48333788 -4.58580303 0.70708591 7 7 14278 5.80200000 880344792 880344792 7.00000000
2.78026772 -3.66154027 -0.56449878 2 8 14279 4.63200000 880344794 880344794 -7.00000000
3.48619390 -4.59289074 0.91326439 42 9 14280 5.83800000 880344796 880344796 9.00000000
3.43351603 -4.52512980 -0.49696204 10 10 14281 5.70200000 880344799 880344799 -5.00000000
3.49524021 -4.60814810 1.12424660 42 11 14282 5.89200000 880344801 880344801 11.00000000
3.41981030 -4.51033545 -0.29664019 6 12 14283 5.66800000 880344803 880344803 -3.00000000
3.50193977 -4.62032986 1.33845878 41 13 14284 5.95000000 880344806 880344806 13.00000000
3.44252014 -4.54193354 -0.09947871 13 14 14284 5.70000000 880344808 880344808 -1.00000000
3.50929070 -4.63170719 1.55705535 40 15 14285 6.01600000 880344810 880344810 15.00000000
1.26202893 -1.66870141 -0.56060207 4 0 14290 2.16600000 880344831 880344831 -15.00000000
3.43938041 -4.54932642 0.09954853 10 1 14291 5.70400000 880344833 880344833 1.00000000
1.45459175 -1.92471123 -0.55697882 3 2 14292 2.47600000 880344836 880344836 -13.00000000
3.47574115 -4.60075903 0.30218780 7 3 14293 5.77400000 880344838 880344838 3.00000000
1.72425854 -2.28236127 -0.55601740 2 4 14293 2.91400000 880344840 880344840 -11.00000000
3.48327565 -4.61240530 0.50567764 9 5 14294 5.80200000 880344842 880344842 5.00000000
2.11734390 -2.80471444 -0.55659384 1 6 14295 3.55800000 880344845 880344845 -9.00000000
3.49641657 -4.63316822 0.71269190 7 7 14296 5.84800000 880344847 880344847 7.00000000
2.76636004 -3.66708708 -0.56401134 2 8 14297 4.62800000 880344849 880344849 -7.00000000
3.49791360 -4.63851833 0.92014754 45 9 14298 5.88200000 880344852 880344852 9.00000000
3.45046544 -4.57726002 -0.50149417 10 10 14299 5.75400000 880344854 880344854 -5.00000000
3.49809718 -4.64044666 1.12958920 42 11 14299 5.92000000 880344856 880344856 11.00000000
3.43285632 -4.55555439 -0.29894298 12 12 14300 5.71200000 880344859 880344859 -3.00000000
3.50814819 -4.65716076 1.34610713 22 13 14301 5.98400000 880344861 880344861 13.00000000
3.45830631 -4.59266233 -0.10035133 6 14 14302 5.75000000 880344863 880344863 -1.00000000
3.52609134 -4.68438244 1.57103157 40 15 14303 6.07000000 880344865 880344865 15.00000000
1.25590432 -1.67331576 -0.56060207 4 0 14311 2.16600000 880344886 880344886 -15.00000000
3.46549249 -4.61728096 0.10077020 7 1 14311 5.77400000 880344889 880344889 1.00000000
1.44552541 -1.92665935 -0.55607903 3 2 14312 2.47200000 880344891 880344891 -13.00000000
3.47643733 -4.63523245 0.30365321 7 3 14313 5.80200000 880344893 880344893 3.00000000
1.71588159 -2.28866577 -0.55601740 3 4 14314 2.91400000 880344895 880344895 -11.00000000
3.48546505 -4.65065050 0.50846660 9 5 14315 5.83400000 880344898 880344898 5.00000000
2.11415625 -2.82194138 -0.55847102 1 6 14316 3.57000000 880344900 880344900 -9.00000000
3.49212480 -4.66123152 0.71512932 7 7 14316 5.86800000 880344902 880344902 7.00000000
2.75116277 -3.67354345 -0.56352383 2 8 14317 4.62400000 880344905 880344905 -7.00000000
3.49709082 -4.67125750 0.92421484 23 9 14318 5.90800000 880344907 880344907 9.00000000
3.46072960 -4.62437010 -0.50532901 10 10 14319 5.79800000 880344909 880344909 -5.00000000
3.50693846 -4.68782139 1.13798487 48 11 14320 5.96400000 880344912 880344912 11.00000000
3.45560861 -4.62088823 -0.30239716 9 12 14321 5.77800000 880344914 880344914 -3.00000000
3.51322436 -4.69964314 1.35465527 10 13 14322 6.02200000 880344916 880344916 13.00000000
3.46739745 -4.63834047 -0.10108434 6 14 14322 5.79200000 880344918 880344918 -1.00000000
3.53169036 -4.72606468 1.58086669 40 15 14323 6.10800000 880344921 880344921 15.00000000
1.24543869 -1.67149305 -0.55853152 4 0 14331 2.15800000 880344942 880344942 -15.00000000
3.48199224 -4.67485571 0.10174753 8 1 14332 5.83000000 880344944 880344944 1.00000000
1.45009208 -1.94757521 -0.56057805 3 2 14333 2.49200000 880344946 880344946 -13.00000000
3.48208237 -4.67838478 0.30564198 7 3 14334 5.84000000 880344948 880344948 3.00000000
1.70319343 -2.28834176 -0.55449092 2 4 14334 2.90600000 880344951 880344951 -11.00000000
3.49775338 -4.70115232 0.51265007 9 5 14335 5.88200000 880344953 880344953 5.00000000
2.10547185 -2.83088923 -0.55878389 1 6 14336 3.57200000 880344955 880344955 -9.00000000
3.50581121 -4.71541882 0.72146654 7 7 14337 5.92000000 880344958 880344958 7.00000000
2.67610574 -3.60075307 -0.55084944 6 8 14338 4.52000000 880344960 880344960 -7.00000000
3.50468540 -4.71734238 0.93078506 28 9 14339 5.95000000 880344962 880344962 9.00000000
3.45920014 -4.65781689 -0.50759506 10 10 14340 5.82400000 880344965 880344965 -5.00000000
3.51396441 -4.73155689 1.14561725 43 11 14340 6.00400000 880344967 880344967 11.00000000
3.46564937 -4.66820288 -0.30469993 9 12 14341 5.82200000 880344969 880344969 -3.00000000
3.51886368 -4.74161100 1.36320341 37 13 14342 6.06000000 880344971 880344971 13.00000000
3.47777653 -4.68795633 -0.10188715 9 14 14343 5.83800000 880344974 880344974 -1.00000000
3.52930427 -4.75915003 1.58759606 36 15 14344 6.13400000 880344976 880344976 15.00000000
1.23241270 -1.66672659 -0.55542564 4 0 14352 2.14600000 880344997 880344997 -15.00000000
3.47754192 -4.70306063 0.10209658 8 1 14352 5.85000000 880344999 880344999 1.00000000
1.43401825 -1.94008815 -0.55697882 3 2 14353 2.47600000 880345001 880345001 -13.00000000
3.48234725 -4.71299982 0.30710739 7 3 14354 5.86800000 880345004 880345004 3.00000000
1.69479489 -2.29456878 -0.55449092 3 4 14355 2.90600000 880345006 880345006 -11.00000000
3.49233365 -4.72996902 0.51439321 9 5 14356 5.90200000 880345008 880345008 5.00000000
2.08921671 -2.83064032 -0.55721956 1 6 14357 3.56200000 880345011 880345011 -9.00000000
3.51054883 -4.75637674 0.72585380 7 7 14357 5.95600000 880345013 880345013 7.00000000
2.72009087 -3.68674660 -0.56254888 4 8 14358 4.61600000 880345015 880345015 -7.00000000
3.50578499 -4.75339365 0.93547809 21 9 14359 5.98000000 880345018 880345018 9.00000000
3.45710802 -4.68910742 -0.50968677 11 10 14360 5.84800000 880345020 880345020 -5.00000000
3.51174045 -4.76494980 1.15057826 18 11 14361 6.03000000 880345022 880345022 11.00000000
3.48642492 -4.73232937 -0.30804944 21 12 14362 5.88600000 880345024 880345024 -3.00000000
3.53497362 -4.79998112 1.37625051 10 13 14363 6.11800000 880345027 880345027 13.00000000
3.47799277 -4.72260952 -0.10237581 11 14 14363 5.86600000 880345029 880345029 -1.00000000
3.53099513 -4.79633236 1.59587824 38 15 14364 6.16600000 880345031 880345031 15.00000000
1.22945774 -1.67370391 -0.55646098 4 0 14370 2.15000000 880345052 880345052 -15.00000000
3.47376251 -4.73068476 0.10244562 8 1 14371 5.87000000 880345054 880345054 1.00000000
1.43680191 -1.95740044 -0.56057805 3 2 14372 2.49200000 880345057 880345057 -13.00000000
3.51007009 -4.78187895 0.31087559 7 3 14372 5.94000000 880345059 880345059 3.00000000
1.68990076 -2.30304766 -0.55525416 2 4 14373 2.91000000 880345061 880345061 -11.00000000
3.49866819 -4.76983500 0.51753080 9 5 14374 5.93800000 880345064 880345064 5.00000000
2.06629682 -2.81807327 -0.55346513 5 6 14375 3.53800000 880345066 880345066 -9.00000000
3.50649214 -4.78400278 0.72829121 7 7 14376 5.97600000 880345068 880345068 7.00000000
2.72779536 -3.72296810 -0.56669247 4 8 14377 4.65000000 880345070 880345070 -7.00000000
3.52235699 -4.80740690 0.94392556 20 9 14377 6.03400000 880345073 880345073 9.00000000
3.46355081 -4.72887754 -0.51282442 11 10 14378 5.88400000 880345075 880345075 -5.00000000
3.52226901 -4.81080818 1.15897381 18 11 14379 6.07400000 880345077 880345077 11.00000000
3.46682239 -4.73681211 -0.30763075 21 12 14380 5.87800000 880345080 880345080 -3.00000000
3.54404044 -4.84409094 1.38569844 37 13 14381 6.16000000 880345082 880345082 13.00000000
3.46467376 -4.73734522 -0.10244562 27 14 14382 5.87000000 880345084 880345084 -1.00000000
3.53985834 -4.84014702 1.60674858 38 15 14382 6.20800000 880345087 880345087 15.00000000
1.22702265 -1.68266809 -0.55801386 4 0 14390 2.15600000 880345107 880345107 -15.00000000
3.48549843 -4.78156424 0.10328334 8 1 14391 5.91800000 880345110 880345110 1.00000000
1.41848409 -1.94665432 -0.55607903 3 2 14392 2.47200000 880345112 880345112 -13.00000000
3.50663114 -4.81408453 0.31213164 7 3 14393 5.96400000 880345114 880345114 3.00000000
1.67953956 -2.30575871 -0.55449092 2 4 14393 2.90600000 880345117 880345117 -11.00000000
3.51014376 -4.82067442 0.52171427 9 5 14394 5.98600000 880345119 880345119 5.00000000
2.07620978 -2.85241961 -0.55878389 1 6 14395 3.57200000 880345121 880345121 -9.00000000
3.52247357 -4.84115791 0.73511589 7 7 14396 6.03200000 880345123 880345123 7.00000000
2.71945381 -3.73888874 -0.56766742 4 8 14397 4.65800000 880345126 880345126 -7.00000000
3.52910805 -4.85383654 0.95049584 15 9 14398 6.07600000 880345128 880345128 9.00000000
3.47279930 -4.77639103 -0.51665926 11 10 14398 5.92800000 880345130 880345130 -5.00000000
3.53200245 -4.85960054 1.16775107 31 11 14399 6.12000000 880345133 880345133 11.00000000
3.44204903 -4.73757410 -0.30689806 34 12 14400 5.86400000 880345135 880345135 -3.00000000
3.53169060 -4.86273956 1.38749814 9 13 14401 6.16800000 880345137 880345137 13.00000000
3.44341707 -4.74293756 -0.10230601 24 14 14402 5.86200000 880345140 880345140 -1.00000000
3.54932737 -4.89061308 1.61917198 40 15 14403 6.25600000 880345142 880345142 15.00000000
1.22114158 -1.68694091 -0.55801386 7 0 14410 2.15600000 880345163 880345163 -15.00000000
3.49223208 -4.82610273 0.10398144 8 1 14411 5.95800000 880345165 880345165 1.00000000
1.41396463 -1.95475173 -0.55697882 3 2 14412 2.47600000 880345167 880345167 -13.00000000
3.50469470 -4.84510565 0.31338769 7 3 14412 5.98800000 880345170 880345170 3.00000000
1.66917992 -2.30842543 -0.55372769 3 4 14413 2.90200000 880345172 880345172 -11.00000000
3.50846815 -4.85388899 0.52398032 9 5 14414 6.01200000 880345174 880345174 5.00000000
2.06276965 -2.85484600 -0.55784529 1 6 14415 3.56600000 880345176 880345176 -9.00000000
3.52996182 -4.88721800 0.74023438 7 7 14416 6.07400000 880345179 880345179 7.00000000
2.67501116 -3.70490408 -0.56108648 2 8 14417 4.60400000 880345181 880345181 -7.00000000
3.52486038 -4.88374519 0.95393735 25 9 14418 6.09800000 880345183 880345183 9.00000000
3.48875427 -4.83371973 -0.52153999 11 10 14418 5.98400000 880345186 880345186 -5.00000000
3.53569436 -4.90055799 1.17462015 46 11 14419 6.15600000 880345188 880345188 11.00000000
3.41848087 -4.73984098 -0.30627000 31 12 14420 5.85200000 880345190 880345190 -3.00000000
3.54090691 -4.91139507 1.39784586 17 13 14421 6.21400000 880345193 880345193 13.00000000
3.41514826 -4.73870564 -0.10195696 24 14 14422 5.84200000 880345195 880345195 -1.00000000
3.56019807 -4.93997002 1.63159525 40 15 14422 6.30400000 880345197 880345197 15.00000000
1.21073639 -1.68491793 -0.55594331 4 0 14430 2.14800000 880345218 880345218 -15.00000000
3.50336361 -4.87724257 0.10481916 8 1 14431 6.00600000 880345220 880345220 1.00000000
1.40485942 -1.95650959 -0.55607903 3 2 14432 2.47200000 880345222 880345222 -13.00000000
3.50989413 -4.88813448 0.31537646 7 3 14432 6.02600000 880345225 880345225 3.00000000
1.65882230 -2.31104803 -0.55296445 3 4 14433 2.89800000 880345227 880345227 -11.00000000
3.51357222 -4.89686346 0.52729225 9 5 14434 6.05000000 880345229 880345229 5.00000000
2.05624557 -2.86684465 -0.55878389 1 6 14435 3.57200000 880345232 880345232 -9.00000000
3.53717136 -4.93338871 0.74535292 21 7 14436 6.11600000 880345234 880345234 7.00000000
2.67825198 -3.73680758 -0.56449878 2 8 14437 4.63200000 880345236 880345236 -7.00000000
3.52849984 -4.92492342 0.95956904 32 9 14438 6.13400000 880345239 880345239 9.00000000
3.48810554 -4.86854267 -0.52398032 11 10 14438 6.01200000 880345241 880345241 -5.00000000
3.54600191 -4.95117712 1.18377900 46 11 14439 6.20400000 880345243 880345243 11.00000000
3.39958978 -4.74849653 -0.30606067 31 12 14440 5.84800000 880345246 880345246 -3.00000000
3.53621674 -4.94115734 1.40279472 37 13 14441 6.23600000 880345248 880345248 13.00000000
3.38927841 -4.73758698 -0.10167772 24 14 14442 5.82600000 880345250 880345250 -1.00000000
3.55979300 -4.97593498 1.63935983 38 15 14442 6.33400000 880345252 880345252 15.00000000
1.20148206 -1.68441570 -0.55439037 4 0 14450 2.14200000 880345273 880345273 -15.00000000
3.50721455 -4.91874886 0.10544744 8 1 14451 6.04200000 880345275 880345275 1.00000000
1.40480793 -1.97092295 -0.55877841 3 2 14452 2.48400000 880345278 880345278 -13.00000000
3.51861072 -4.93837786 0.31778392 7 3 14453 6.07200000 880345280 880345280 3.00000000
1.64846671 -2.31362653 -0.55220121 2 4 14453 2.89400000 880345282 880345282 -11.00000000
3.51726294 -4.93830967 0.53042984 9 5 14454 6.08600000 880345285 880345285 5.00000000
3.39586449 -4.76962519 -0.92734349 2 6 14455 5.92800000 880345287 880345287 -9.00000000
3.54064822 -4.97481680 0.74974018 31 7 14456 6.15200000 880345289 880345289 7.00000000
2.66173959 -3.74128127 -0.56376761 2 8 14457 4.62600000 880345292 880345292 -7.00000000
3.53963232 -4.97522736 0.96707785 42 9 14457 6.18200000 880345294 880345294 9.00000000
3.48956537 -4.90666723 -0.52676928 11 10 14458 6.04400000 880345296 880345296 -5.00000000
3.54917336 -4.99232674 1.19064808 46 11 14459 6.24000000 880345299 880345299 11.00000000
3.37836576 -4.75382233 -0.30564198 31 12 14460 5.84000000 880345301 880345301 -3.00000000
3.55844808 -5.00907421 1.41854131 42 13 14461 6.30600000 880345303 880345303 13.00000000
3.36345792 -4.73634577 -0.10139848 24 14 14462 5.81000000 880345305 880345305 -1.00000000
3.55495048 -5.00785255 1.64557147 40 15 14463 6.35800000 880345308 880345308 15.00000000
1.19894397 -1.69332933 -0.55594331 4 0 14470 2.14800000 880345328 880345328 -15.00000000
3.50388646 -4.95054817 0.10586630 8 1 14471 6.06600000 880345331 880345331 1.00000000
1.39791954 -1.97581470 -0.55877841 3 2 14472 2.48400000 880345333 880345333 -13.00000000
3.52759361 -4.98588848 0.32008672 7 3 14472 6.11600000 880345335 880345335 3.00000000
1.65171695 -2.33539534 -0.55601740 3 4 14473 2.91400000 880345338 880345338 -11.00000000
3.53335881 -4.99773598 0.53548491 9 5 14474 6.14400000 880345340 880345340 5.00000000
3.36551356 -4.76209164 -0.92358911 2 6 14475 5.90400000 880345342 880345342 -9.00000000
3.53815150 -5.00822306 0.75290883 39 7 14476 6.17800000 880345345 880345345 7.00000000
2.64751863 -3.74892807 -0.56352383 4 8 14477 4.62400000 880345347 880345347 -7.00000000
3.54187965 -5.01721525 0.97270948 40 9 14478 6.21800000 880345349 880345349 9.00000000
3.49080133 -4.94486094 -0.52955830 11 10 14478 6.07600000 880345352 880345352 -5.00000000
3.55436468 -5.03676653 1.19828045 43 11 14479 6.28000000 880345354 880345354 11.00000000
3.35254097 -4.75252962 -0.30480462 31 12 14480 5.82400000 880345356 880345356 -3.00000000
3.55891013 -5.04694653 1.42573977 46 13 14481 6.33800000 880345358 880345358 13.00000000
3.34690452 -4.74805737 -0.10139848 24 14 14482 5.81000000 880345361 880345361 -1.00000000
3.56192875 -5.05497313 1.65695953 42 15 14483 6.40200000 880345363 880345363 15.00000000
1.19191504 -1.69592357 -0.55542564 4 0 14490 2.14600000 880345384 880345384 -15.00000000
3.50267816 -4.98565626 0.10635497 8 1 14491 6.09400000 880345386 880345386 1.00000000
1.37533450 -1.95835578 -0.55247980 3 2 14492 2.45600000 880345388 880345388 -13.00000000
3.54345608 -5.04557085 0.32312220 7 3 14492 6.17400000 880345391 880345391 3.00000000
1.63678658 -2.33150578 -0.55372769 3 4 14493 2.90200000 880345393 880345393 -11.00000000
3.53878188 -5.04265690 0.53897113 9 5 14494 6.18400000 880345395 880345395 5.00000000
