# .PCD v0.7 - Point Cloud Data file format
VERSION 0.7
FIELDS x y z intensity laser_id azimuth distance_m adjustedtime timestamp vertical_angle
SIZE 4 4 4 1 1 2 8 8 4 8
TYPE F F F U U U F U U F
COUNT 1 1 1 1 1 1 1 1 1 1
WIDTH 554
HEIGHT 1
VIEWPOINT 0 0 0 1 0 0 0
POINTS 554
DATA ascii
2.58210063 3.34567261 0.22148576 7 3 3766 4.23200000 881415369 881415369 3.00000000
1.99956381 2.59086943 -0.63615721 2 4 3766 3.33400000 881415372 881415372 -11.00000000
2.58125782 3.34337378 0.36954036 7 5 3767 4.24000000 881415374 881415374 5.00000000
2.53202391 3.27842069 -0.65608615 11 6 3768 4.19400000 881415376 881415376 -9.00000000
2.57782125 3.33651423 0.51770097 47 7 3769 4.24800000 881415379 881415379 7.00000000
2.55898046 3.31093383 -0.51380116 8 8 3770 4.21600000 881415381 881415381 -7.00000000
2.58752799 3.34787011 0.67016524 70 9 3770 4.28400000 881415383 881415383 9.00000000
2.56652975 3.31950402 -0.36710000 9 10 3771 4.21200000 881415386 881415386 -5.00000000
2.58722377 3.34506273 0.82200515 8 11 3772 4.30800000 881415388 881415388 11.00000000
2.56418657 3.31408191 -0.21960168 8 12 3773 4.19600000 881415390 881415390 -3.00000000
2.58834004 3.34409308 0.97628760 46 13 3774 4.34000000 881415393 881415393 13.00000000
2.57092094 3.32039046 -0.07330011 8 14 3775 4.20000000 881415395 881415395 -1.00000000
2.59132409 3.34674144 1.13414502 22 15 3775 4.38200000 881415397 881415397 15.00000000
1.40641057 1.81117451 -0.61443639 4 0 3783 2.37400000 881415418 881415418 -15.00000000
2.57122660 3.31003118 0.07316048 7 1 3784 4.19200000 881415420 881415420 1.00000000
1.65968692 2.13580418 -0.62446415 3 2 3785 2.77600000 881415422 881415422 -13.00000000
2.57660246 3.31456280 0.22002035 7 3 3786 4.20400000 881415425 881415425 3.00000000
2.00618553 2.58077383 -0.63539398 2 4 3786 3.33000000 881415427 881415427 -11.00000000
2.59535861 3.33748865 0.36988896 7 5 3787 4.24400000 881415429 881415429 5.00000000
2.54345226 3.26956224 -0.65608615 11 6 3788 4.19400000 881415432 881415432 -9.00000000
2.59067130 3.32906222 0.51794469 36 7 3789 4.25000000 881415434 881415434 7.00000000
2.55832815 3.28631711 -0.51136374 8 8 3790 4.19600000 881415436 881415436 -7.00000000
2.59249878 3.32901263 0.66828805 64 9 3791 4.27200000 881415439 881415439 9.00000000
2.57565308 3.30738091 -0.36675137 9 10 3791 4.20800000 881415441 881415441 -5.00000000
2.59043884 3.32516980 0.81933385 21 11 3792 4.29400000 881415443 881415443 11.00000000
2.56837296 3.29565883 -0.21897364 8 12 3793 4.18400000 881415445 881415445 -3.00000000
2.58202505 3.31198454 0.96953905 11 13 3794 4.31000000 881415448 881415448 13.00000000
2.56773853 3.29247379 -0.07288125 8 14 3795 4.17600000 881415450 881415450 -1.00000000
2.60238481 3.33569813 1.13362741 20 15 3796 4.38000000 881415452 881415452 15.00000000
1.41510451 1.80929768 -0.61547166 4 0 3803 2.37800000 881415473 881415473 -15.00000000
2.57290721 3.28843617 0.07288125 8 1 3804 4.17600000 881415475 881415475 1.00000000
1.67674100 2.14227462 -0.62806332 3 2 3805 2.79200000 881415478 881415478 -13.00000000
2.58076906 3.29611325 0.21939233 7 3 3806 4.19200000 881415480 881415480 3.00000000
2.00792003 2.56448054 -0.63310426 4 4 3806 3.31800000 881415482 881415482 -11.00000000
2.58733606 3.30331254 0.36710000 7 5 3807 4.21200000 881415485 881415485 5.00000000
2.55972314 3.26688361 -0.65733761 11 6 3808 4.20200000 881415487 881415487 -9.00000000
2.59615302 3.31218719 0.51672602 31 7 3809 4.24000000 881415489 881415489 7.00000000
2.56733418 3.27424264 -0.51087630 8 8 3810 4.19200000 881415492 881415492 -7.00000000
2.59011626 3.30329776 0.66484648 62 9 3810 4.25000000 881415494 881415494 9.00000000
2.57242656 3.27955818 -0.36465964 9 10 3811 4.18400000 881415496 881415496 -5.00000000
2.59960604 3.31301832 0.81857061 40 11 3812 4.29000000 881415498 881415498 11.00000000
2.56752920 3.27096272 -0.21792692 7 12 3813 4.16400000 881415501 881415501 -3.00000000
2.59958792 3.31061482 0.97178853 12 13 3814 4.32000000 881415503 881415503 13.00000000
2.57180429 3.27405524 -0.07267182 8 14 3815 4.16400000 881415505 881415505 -1.00000000
2.60388541 3.31489635 1.12948632 8 15 3815 4.36400000 881415508 881415508 15.00000000
1.41662955 1.79827690 -0.61340111 4 0 3823 2.37000000 881415528 881415528 -15.00000000
2.57694387 3.27001143 0.07267182 8 1 3824 4.16400000 881415531 881415531 1.00000000
1.68662155 2.13946939 -0.62896317 3 2 3825 2.79600000 881415533 881415533 -13.00000000
2.58978534 3.28394794 0.21918298 7 3 3826 4.18800000 881415535 881415535 3.00000000
2.03144813 2.57595468 -0.63768369 4 4 3826 3.34200000 881415538 881415538 -11.00000000
2.58527684 3.27705455 0.36518255 7 5 3827 4.19000000 881415540 881415540 5.00000000
2.55642605 3.23932076 -0.65358317 9 6 3828 4.17800000 881415542 881415542 -9.00000000
2.60769892 3.30310464 0.51672602 21 7 3829 4.24000000 881415545 881415545 7.00000000
2.56521416 3.24812460 -0.50819516 10 8 3830 4.17000000 881415547 881415547 -7.00000000
2.59485865 3.28448224 0.66296929 62 9 3831 4.23800000 881415549 881415549 9.00000000
2.56533194 3.24710822 -0.36204496 9 10 3831 4.15400000 881415551 881415551 -5.00000000
2.60263371 3.29314184 0.81589925 10 11 3832 4.27600000 881415554 881415554 11.00000000
2.57521534 3.25728035 -0.21761291 7 12 3833 4.15800000 881415556 881415556 -3.00000000
2.60508394 3.29387784 0.96953905 11 13 3834 4.31000000 881415558 881415558 13.00000000
2.57205057 3.25094390 -0.07235768 8 14 3835 4.14600000 881415561 881415561 -1.00000000
2.60163069 3.28715253 1.12327468 14 15 3836 4.34000000 881415563 881415563 15.00000000
1.42770112 1.79937434 -0.61547166 4 0 3843 2.37800000 881415584 881415584 -15.00000000
2.57466745 3.24376726 0.07228786 8 1 3844 4.14200000 881415586 881415586 1.00000000
1.68680871 2.12441182 -0.62626374 3 2 3845 2.78400000 881415588 881415588 -13.00000000
2.59377933 3.26550436 0.21855496 7 3 3846 4.17600000 881415591 881415591 3.00000000
2.03065872 2.55654931 -0.63463074 4 4 3846 3.32600000 881415593 881415593 -11.00000000
2.59298158 3.26333046 0.36465964 7 5 3847 4.18400000 881415595 881415595 5.00000000
2.55296779 3.21182108 -0.64982879 9 6 3848 4.15400000 881415598 881415598 -9.00000000
2.60438728 3.27533674 0.51380116 12 7 3849 4.21600000 881415600 881415600 7.00000000
2.57282948 3.23448992 -0.50746393 10 8 3850 4.16400000 881415602 881415602 -7.00000000
2.60450649 3.27431345 0.66265637 64 9 3850 4.23600000 881415604 881415604 9.00000000
2.57044792 3.23033857 -0.36117339 9 10 3851 4.14400000 881415607 881415607 -5.00000000
2.59454989 3.25946021 0.80979335 14 11 3852 4.24400000 881415609 881415609 11.00000000
2.57288408 3.23108459 -0.21646151 7 12 3853 4.13600000 881415611 881415611 -3.00000000
2.59471059 3.25732780 0.96144080 31 13 3854 4.27400000 881415614 881415614 13.00000000
2.57092071 3.22630715 -0.07200863 8 14 3855 4.12600000 881415616 881415616 -1.00000000
2.61010909 3.27548552 1.12223935 12 15 3855 4.33600000 881415618 881415618 15.00000000
1.42794335 1.78683400 -0.61288351 4 0 3863 2.36800000 881415639 881415639 -15.00000000
2.58098006 3.22851253 0.07214825 8 1 3864 4.13400000 881415641 881415641 1.00000000
1.68691134 2.10937929 -0.62356430 3 2 3865 2.77200000 881415644 881415644 -13.00000000
2.59268546 3.24083447 0.21750824 7 3 3866 4.15600000 881415646 881415646 3.00000000
2.04447627 2.55557775 -0.63615721 4 4 3866 3.33400000 881415648 881415648 -11.00000000
2.60062218 3.24959254 0.36413670 7 5 3867 4.17800000 881415651 881415651 5.00000000
2.55922532 3.19672155 -0.64857727 9 6 3868 4.14600000 881415653 881415653 -9.00000000
2.60339546 3.25073147 0.51136374 8 7 3869 4.19600000 881415655 881415655 7.00000000
2.57417488 3.21309543 -0.50551403 10 8 3870 4.14800000 881415657 881415657 -7.00000000
2.60660720 3.25241399 0.66015345 66 9 3871 4.22000000 881415660 881415660 9.00000000
2.57423234 3.21201801 -0.36012754 9 10 3871 4.13200000 881415662 881415662 -5.00000000
2.60345578 3.24732018 0.80903012 55 11 3872 4.24000000 881415664 881415664 11.00000000
2.57040167 3.20494509 -0.21531013 7 12 3873 4.11400000 881415667 881415667 -3.00000000
2.59143090 3.23001075 0.95604199 48 13 3874 4.25000000 881415669 881415669 13.00000000
2.58467031 3.22043228 -0.07207844 8 14 3875 4.13000000 881415671 881415671 -1.00000000
2.61846852 3.26137781 1.12068641 10 15 3876 4.33000000 881415674 881415674 15.00000000
1.44476008 1.79563522 -0.61754227 4 0 3882 2.38600000 881415694 881415694 -15.00000000
2.58665657 3.21370482 0.07200863 8 1 3883 4.12600000 881415697 881415697 1.00000000
1.69878566 2.10984540 -0.62536395 3 2 3884 2.78000000 881415699 881415699 -13.00000000
2.59339547 3.21977544 0.21667086 8 3 3885 4.14000000 881415701 881415701 3.00000000
2.05047655 2.54572606 -0.63539398 4 4 3885 3.33000000 881415704 881415704 -11.00000000
2.60513377 3.23319364 0.36326513 7 5 3886 4.16800000 881415706 881415706 5.00000000
2.56609297 3.18360353 -0.64763868 9 6 3887 4.14000000 881415708 881415708 -9.00000000
2.60419297 3.22971773 0.50941384 7 7 3888 4.18000000 881415710 881415710 7.00000000
2.56612134 3.18136501 -0.50185794 10 8 3889 4.11800000 881415713 881415713 -7.00000000
2.60440993 3.22883368 0.65702474 70 9 3889 4.20000000 881415715 881415715 9.00000000
2.58862305 3.20811558 -0.36065045 9 10 3890 4.13800000 881415717 881415717 -5.00000000
2.59941244 3.22033691 0.80445075 42 11 3891 4.21600000 881415720 881415720 11.00000000
2.57725120 3.19174194 -0.21499611 7 12 3892 4.10800000 881415722 881415722 -3.00000000
2.60457683 3.22443128 0.95694178 41 13 3893 4.25400000 881415724 881415724 13.00000000
2.58151031 3.19473457 -0.07169449 7 14 3894 4.10800000 881415727 881415727 -1.00000000
2.62263060 3.24562263 1.11809826 12 15 3894 4.32000000 881415729 881415729 15.00000000
1.44372153 1.78157568 -0.61443639 4 0 3902 2.37400000 881415750 881415750 -15.00000000
2.58904386 3.19378233 0.07176430 8 1 3903 4.11200000 881415752 881415752 1.00000000
1.71104980 2.10995698 -0.62716353 3 2 3904 2.78800000 881415754 881415754 -13.00000000
2.60336041 3.20915222 0.21656619 8 3 3905 4.13800000 881415757 881415757 3.00000000
2.05440283 2.53245425 -0.63386750 4 4 3905 3.32200000 881415759 881415759 -11.00000000
2.60510445 3.21015668 0.36169633 6 5 3906 4.15000000 881415761 881415761 5.00000000
2.56847501 3.16389132 -0.64544863 9 6 3907 4.12600000 881415763 881415763 -9.00000000
2.61044526 3.21444392 0.50843889 7 7 3908 4.17200000 881415766 881415766 7.00000000
2.57345581 3.16776609 -0.50112677 10 8 3909 4.11200000 881415768 881415768 -7.00000000
2.60196376 3.20285773 0.65358317 74 9 3909 4.17800000 881415770 881415770 9.00000000
2.57970071 3.17432117 -0.35786149 11 10 3910 4.10600000 881415773 881415773 -5.00000000
2.61806846 3.22038388 0.80674040 12 11 3911 4.22800000 881415775 881415775 11.00000000
2.58081579 3.17342901 -0.21436808 7 12 3912 4.09600000 881415777 881415777 -3.00000000
2.60843754 3.20624995 0.95424235 9 13 3913 4.24200000 881415780 881415780 13.00000000
2.57749939 3.16709208 -0.07127563 7 14 3914 4.08400000 881415782 881415782 -1.00000000
2.62296915 3.22296286 1.11343956 10 15 3914 4.30200000 881415784 881415784 15.00000000
1.44779813 1.77327931 -0.61340111 4 0 3923 2.37000000 881415805 881415805 -15.00000000
2.58934784 3.17033267 0.07145015 8 1 3924 4.09400000 881415807 881415807 1.00000000
1.72123766 2.10668969 -0.62806332 3 2 3925 2.79200000 881415810 881415810 -13.00000000
2.61004925 3.19340301 0.21614750 8 3 3926 4.13000000 881415812 881415812 3.00000000
2.06864071 2.53098798 -0.63539398 4 4 3926 3.33000000 881415814 881415814 -11.00000000
2.60802484 3.18978977 0.36047617 6 5 3927 4.13600000 881415816 881415816 5.00000000
2.57255030 3.14528155 -0.64357138 9 6 3928 4.11400000 881415819 881415819 -9.00000000
2.61466694 3.19563651 0.50697649 7 7 3929 4.16000000 881415821 881415821 7.00000000
2.58001971 3.15216804 -0.50015181 10 8 3930 4.10400000 881415823 881415823 -7.00000000
2.60923696 3.18672967 0.65233171 74 9 3931 4.17000000 881415826 881415826 9.00000000
2.57743359 3.14788747 -0.35594407 11 10 3931 4.08400000 881415828 881415828 -5.00000000
2.61368179 3.19102192 0.80177939 14 11 3932 4.20200000 881415830 881415830 11.00000000
2.58483458 3.15467930 -0.21374005 7 12 3933 4.08400000 881415833 881415833 -3.00000000
2.59917045 3.17104650 0.94659406 22 13 3934 4.20800000 881415835 881415835 13.00000000
2.58655429 3.15453124 -0.07120582 7 14 3935 4.08000000 881415837 881415837 -1.00000000
2.61516571 3.18942547 1.10515738 14 15 3935 4.27000000 881415839 881415839 15.00000000
1.45643318 1.77119911 -0.61443639 4 0 3943 2.37400000 881415860 881415860 -15.00000000
2.58769512 3.14583135 0.07110111 8 1 3944 4.07400000 881415863 881415863 1.00000000
1.72115147 2.09164000 -0.62536395 3 2 3945 2.78000000 881415865 881415865 -13.00000000
2.60975647 3.17039466 0.21520545 10 3 3946 4.11200000 881415867 881415867 3.00000000
2.08619690 2.53436208 -0.63806528 4 4 3946 3.34400000 881415869 881415869 -11.00000000
2.60774493 3.16682434 0.35890734 6 5 3947 4.11800000 881415872 881415872 5.00000000
2.56593037 3.11493707 -0.63919121 9 6 3948 4.08600000 881415874 881415874 -9.00000000
2.61949372 3.17883015 0.50575775 8 7 3949 4.15000000 881415876 881415876 7.00000000
2.58848166 3.14007926 -0.49966431 12 8 3950 4.10000000 881415879 881415879 -7.00000000
2.61783123 3.17455435 0.65170598 58 9 3951 4.16600000 881415881 881415881 9.00000000
2.58333588 3.13272285 -0.35524681 11 10 3951 4.07600000 881415883 881415883 -5.00000000
2.60981297 3.16370559 0.79719996 14 11 3952 4.17800000 881415886 881415886 11.00000000
2.58820343 3.13639450 -0.21311201 7 12 3953 4.07200000 881415888 881415888 -3.00000000
2.60898304 3.16045165 0.94614416 45 13 3954 4.20600000 881415890 881415890 13.00000000
2.58863664 3.13468981 -0.07096148 7 14 3955 4.06600000 881415892 881415892 -1.00000000
2.61207366 3.16194654 1.09894562 24 15 3956 4.24600000 881415895 881415895 15.00000000
1.46938038 1.77554464 -0.61754227 4 0 3961 2.38600000 881415916 881415916 -15.00000000
2.58863878 3.12690401 0.07085677 7 1 3962 4.06000000 881415918 881415918 1.00000000
1.72274220 2.08021903 -0.62356430 3 2 3963 2.77200000 881415920 881415920 -13.00000000
2.61205864 3.15295196 0.21457742 8 3 3964 4.10000000 881415922 881415922 3.00000000
2.09164357 2.52477193 -0.63730204 4 4 3964 3.34000000 881415925 881415925 -11.00000000
2.61386681 3.15401411 0.35838440 6 5 3965 4.11200000 881415927 881415927 5.00000000
2.57318187 3.10381913 -0.63856548 9 6 3966 4.08200000 881415929 881415929 -9.00000000
2.60539031 3.14155340 0.50112677 7 7 3967 4.11200000 881415932 881415932 7.00000000
2.58819389 3.11970973 -0.49771440 12 8 3968 4.08400000 881415934 881415934 -7.00000000
2.60886836 3.14351344 0.64701295 44 9 3969 4.13600000 881415936 881415936 9.00000000
2.58807516 3.11845875 -0.35454956 11 10 3969 4.06800000 881415939 881415939 -5.00000000
2.60970664 3.14340687 0.79414701 18 11 3970 4.16200000 881415941 881415941 11.00000000
2.58528328 3.11288333 -0.21206529 7 12 3971 4.05200000 881415943 881415943 -3.00000000
2.61142731 3.14324617 0.94344473 29 13 3972 4.19400000 881415945 881415945 13.00000000
2.60358429 3.13269353 -0.07110111 7 14 3973 4.07400000 881415948 881415948 -1.00000000
2.61403513 3.14526820 1.09583986 32 15 3973 4.23400000 881415950 881415950 15.00000000
1.47556925 1.77040482 -0.61754227 4 0 3981 2.38600000 881415971 881415971 -15.00000000
2.59697700 3.11477709 0.07078696 7 1 3982 4.05600000 881415973 881415973 1.00000000
1.73248935 2.07718587 -0.62446415 3 2 3983 2.77600000 881415975 881415975 -13.00000000
2.60769415 3.12541223 0.21332136 8 3 3984 4.07600000 881415978 881415978 3.00000000
2.09289742 2.50841045 -0.63501233 4 4 3984 3.32800000 881415980 881415980 -11.00000000
2.62230706 3.14181161 0.35803580 6 5 3985 4.10800000 881415982 881415982 5.00000000
2.57893634 3.08875275 -0.63731402 9 6 3986 4.07400000 881415985 881415985 -9.00000000
2.60870528 3.12329841 0.49966431 7 7 3987 4.10000000 881415987 881415987 7.00000000
2.57870317 3.08628273 -0.49381459 10 8 3988 4.05200000 881415989 881415989 -7.00000000
2.61475801 3.12832499 0.64576149 30 9 3989 4.12800000 881415992 881415992 9.00000000
2.59383392 3.10329103 -0.35385230 11 10 3989 4.06000000 881415994 881415994 -5.00000000
2.61562586 3.12825346 0.79262054 40 11 3990 4.15400000 881415996 881415996 11.00000000
2.58716369 3.09311604 -0.21133259 7 12 3991 4.03800000 881415998 881415998 -3.00000000
2.61112833 3.12066031 0.93939561 11 13 3992 4.17600000 881416001 881416001 13.00000000
2.59653449 3.10211825 -0.07061244 7 14 3993 4.04600000 881416003 881416003 -1.00000000
2.62003827 3.13019872 1.09376931 46 15 3993 4.22600000 881416005 881416005 15.00000000
1.47583675 1.75758743 -0.61495405 4 0 4002 2.37600000 881416026 881416026 -15.00000000
2.60194492 3.09758186 0.07061244 7 1 4003 4.04600000 881416028 881416028 1.00000000
1.74259841 2.07380581 -0.62536395 3 2 4004 2.78000000 881416031 881416031 -13.00000000
2.61087871 3.10711598 0.21269332 10 3 4004 4.06400000 881416033 881416033 3.00000000
2.10713029 2.50673413 -0.63653880 4 4 4005 3.33600000 881416035 881416035 -11.00000000
2.62226415 3.11845493 0.35646698 8 5 4006 4.09000000 881416038 881416038 5.00000000
2.58006716 3.06718636 -0.63481104 9 6 4007 4.05800000 881416040 881416040 -9.00000000
2.61757898 3.11067820 0.49917683 7 7 4008 4.09600000 881416042 881416042 7.00000000
2.58616233 3.07225466 -0.49308336 10 8 4009 4.04600000 881416044 881416044 -7.00000000
2.61166859 3.10255504 0.64231992 18 9 4009 4.10600000 881416047 881416047 9.00000000
2.59235716 3.07852292 -0.35210919 11 10 4010 4.04000000 881416049 881416049 -5.00000000
2.62454438 3.11564279 0.79185730 68 11 4011 4.15000000 881416051 881416051 11.00000000
2.59462214 3.07903075 -0.21101858 9 12 4012 4.03200000 881416054 881416054 -3.00000000
2.62380457 3.11255908 0.93984550 44 13 4013 4.17800000 881416056 881416056 13.00000000
2.59499574 3.07729363 -0.07026339 8 14 4014 4.02600000 881416058 881416058 -1.00000000
2.62900281 3.11762094 1.09273398 66 15 4014 4.22200000 881416061 881416061 15.00000000
1.47572565 1.74504948 -0.61236584 4 0 4022 2.36600000 881416081 881416081 -15.00000000
2.59466028 3.06710696 0.07012377 7 1 4023 4.01800000 881416084 881416084 1.00000000
1.75989759 2.07961106 -0.62896317 3 2 4024 2.79600000 881416086 881416086 -13.00000000
2.61708736 3.09142828 0.21227464 10 3 4025 4.05600000 881416088 881416088 3.00000000
2.11079359 2.49337006 -0.63501233 4 4 4025 3.32800000 881416091 881416091 -11.00000000
2.62283301 3.09711909 0.35507250 6 5 4026 4.07400000 881416093 881416093 5.00000000
2.58565044 3.05213261 -0.63355958 9 6 4027 4.05000000 881416095 881416095 -9.00000000
2.62970471 3.10303664 0.49942058 7 7 4028 4.09800000 881416097 881416097 7.00000000
2.59558702 3.06169438 -0.49283963 10 8 4029 4.04400000 881416100 881416100 -7.00000000
2.61791182 3.08693576 0.64106846 8 9 4030 4.09800000 881416102 881416102 9.00000000
2.59020066 3.05426002 -0.35036609 11 10 4030 4.02000000 881416104 881416104 -5.00000000
2.62143302 3.08999443 0.78765953 62 11 4031 4.12800000 881416107 881416107 11.00000000
2.60018492 3.06386399 -0.21059988 11 12 4032 4.02400000 881416109 881416109 -3.00000000
2.62204146 3.08852553 0.93534648 50 13 4033 4.15800000 881416111 881416111 13.00000000
2.59277725 3.05297470 -0.06991434 7 14 4034 4.00600000 881416114 881416114 -1.00000000
2.62915468 3.09471393 1.08807528 68 15 4035 4.20400000 881416116 881416116 15.00000000
1.48681831 1.74577057 -0.61443639 4 0 4042 2.37400000 881416137 881416137 -15.00000000
2.59756970 3.04889822 0.06991434 7 1 4043 4.00600000 881416139 881416139 1.00000000
1.75956178 2.06455612 -0.62626374 3 2 4044 2.78400000 881416141 881416141 -13.00000000
2.62473345 3.07969260 0.21206529 10 3 4044 4.05200000 881416144 881416144 3.00000000
2.12712646 2.49495077 -0.63730204 4 4 4045 3.34000000 881416146 881416146 -11.00000000
2.62328482 3.07581735 0.35367802 8 5 4046 4.05800000 881416148 881416148 5.00000000
2.58603168 3.03106642 -0.63105661 9 6 4047 4.03400000 881416150 881416150 -9.00000000
2.62119007 3.07118940 0.49576449 7 7 4048 4.06800000 881416153 881416153 7.00000000
2.59723592 3.04204750 -0.49113345 10 8 4049 4.03000000 881416155 881416155 -7.00000000
2.62353969 3.07177043 0.63981694 8 9 4050 4.09000000 881416157 881416157 9.00000000
2.59437656 3.03762460 -0.34949452 9 10 4050 4.01000000 881416160 881416160 -5.00000000
2.61945033 3.06589842 0.78384334 66 11 4051 4.10800000 881416162 881416162 11.00000000
2.59529209 3.03654957 -0.20934382 11 12 4052 4.00000000 881416164 881416164 -3.00000000
2.62520814 3.07046700 0.93264705 57 13 4053 4.14600000 881416167 881416167 13.00000000
2.60471797 3.04542518 -0.06994925 8 14 4054 4.00800000 881416169 881416169 -1.00000000
2.63186860 3.07716966 1.08496940 70 15 4054 4.19200000 881416171 881416171 15.00000000
1.49667633 1.74496913 -0.61598933 3 0 4062 2.38000000 881416192 881416192 -15.00000000
2.59777927 3.02767134 0.06963510 6 1 4063 3.99000000 881416194 881416194 1.00000000
1.76675773 2.05840158 -0.62626374 3 2 4064 2.78400000 881416196 881416196 -13.00000000
2.61985779 3.05232525 0.21080923 7 3 4064 4.02800000 881416199 881416199 3.00000000
2.13326478 2.48453140 -0.63653880 4 4 4065 3.33600000 881416201 881416201 -11.00000000
2.62621641 3.05757332 0.35263214 6 5 4066 4.04600000 881416203 881416203 5.00000000
2.58887219 3.01303124 -0.62917942 9 6 4067 4.02200000 881416206 881416206 -9.00000000
2.62154293 3.04997778 0.49381459 7 7 4068 4.05200000 881416208 881416208 7.00000000
2.59101415 3.01339555 -0.48796484 8 8 4069 4.00400000 881416210 881416210 -7.00000000
2.62909365 3.05660343 0.63856548 8 9 4070 4.08200000 881416213 881416213 9.00000000
2.60236549 3.02552915 -0.34914592 9 10 4070 4.00600000 881416215 881416215 -5.00000000
2.62757540 3.05375981 0.78308010 62 11 4071 4.10400000 881416217 881416217 11.00000000
2.59284639 3.01233459 -0.20829710 8 12 4072 3.98000000 881416220 881416220 -3.00000000
2.62700939 3.05094743 0.92949778 57 13 4073 4.13200000 881416222 881416222 13.00000000
2.60880733 3.02873898 -0.06977472 9 14 4074 3.99800000 881416224 881416224 -1.00000000
2.63250780 3.05625415 1.08082831 68 15 4074 4.17600000 881416226 881416226 15.00000000
1.50341320 1.74172091 -0.61650699 4 0 4080 2.38200000 881416247 881416247 -15.00000000
2.60466433 3.01646829 0.06956529 8 1 4081 3.98600000 881416249 881416249 1.00000000
1.77576339 2.05579042 -0.62716353 3 2 4082 2.78800000 881416252 881416252 -13.00000000
2.61560082 3.02699709 0.20965785 8 3 4083 4.00600000 881416254 881416254 3.00000000
2.13849235 2.47484636 -0.63577557 4 4 4083 3.33200000 881416256 881416256 -11.00000000
2.63320327 3.04629302 0.35228351 6 5 4084 4.04200000 881416259 881416259 5.00000000
2.59057283 2.99591804 -0.62730223 9 6 4085 4.01000000 881416261 881416261 -9.00000000
2.62851453 3.03872418 0.49332711 7 7 4086 4.04800000 881416263 881416263 7.00000000
2.58877778 2.99173069 -0.48577121 3 8 4087 3.98600000 881416266 881416266 -7.00000000
2.62781072 3.03683901 0.63606256 8 9 4087 4.06600000 881416268 881416268 9.00000000
2.60664177 3.01131296 -0.34844866 8 10 4088 3.99800000 881416270 881416270 -5.00000000
2.62944508 3.03658509 0.78079039 62 11 4089 4.09200000 881416273 881416273 11.00000000
2.59837413 2.99964523 -0.20798309 7 12 4090 3.97400000 881416275 881416275 -3.00000000
2.62381935 3.02795196 0.92499876 56 13 4091 4.11200000 881416277 881416277 13.00000000
2.60259199 3.00239587 -0.06935586 9 14 4092 3.97400000 881416279 881416279 -1.00000000
2.63883138 3.04312897 1.07927537 66 15 4093 4.17000000 881416282 881416282 15.00000000
1.50061190 1.72625649 -0.61288351 4 0 4100 2.36800000 881416302 881416302 -15.00000000
2.62042665 3.01339364 0.06970491 6 1 4101 3.99400000 881416305 881416305 1.00000000
1.78292859 2.04957938 -0.62716353 3 2 4102 2.78800000 881416307 881416307 -13.00000000
2.61907005 3.01077247 0.20913447 6 3 4102 3.99600000 881416309 881416309 3.00000000
2.14454055 2.46440434 -0.63501233 4 4 4103 3.32800000 881416312 881416312 -11.00000000
2.63073897 3.02205539 0.35054040 6 5 4104 4.02200000 881416314 881416314 5.00000000
2.59582567 2.98089814 -0.62605071 9 6 4105 4.00200000 881416316 881416316 -9.00000000
2.64040947 3.03102708 0.49357083 7 7 4106 4.05000000 881416319 881416319 7.00000000
2.58877182 2.97070336 -0.48382130 26 8 4107 3.97000000 881416321 881416321 -7.00000000
2.62594318 3.01229715 0.63293386 8 9 4108 4.04600000 881416323 881416323 9.00000000
2.58440685 2.96464944 -0.34409088 8 10 4108 3.94800000 881416326 881416326 -5.00000000
2.64260936 3.03034759 0.78155363 64 11 4109 4.09600000 881416328 881416328 11.00000000
2.58125710 2.95895052 -0.20578498 7 12 4110 3.93200000 881416330 881416330 -3.00000000
2.62924767 3.01290154 0.92319912 57 13 4111 4.10400000 881416332 881416332 13.00000000
2.58675480 2.96316409 -0.06865776 6 14 4112 3.93400000 881416335 881416335 -1.00000000
2.63545990 3.01789308 1.07358146 70 15 4113 4.14800000 881416337 881416337 15.00000000
1.51044607 1.72536862 -0.61443639 4 0 4120 2.37400000 881416358 881416358 -15.00000000
2.59799337 2.96661901 0.06883229 14 1 4121 3.94400000 881416360 881416360 1.00000000
1.79007208 2.04334331 -0.62716353 3 2 4122 2.78800000 881416362 881416362 -13.00000000
2.60587406 2.97457027 0.20725039 9 3 4122 3.96000000 881416365 881416365 3.00000000
2.15571785 2.45985651 -0.63577557 5 4 4123 3.33200000 881416367 881416367 -11.00000000
2.61763048 2.98588657 0.34740278 13 5 4124 3.98600000 881416369 881416369 5.00000000
2.59319067 2.95696712 -0.62292206 8 6 4125 3.98200000 881416372 881416372 -9.00000000
2.63002753 2.99791598 0.48967102 7 7 4126 4.01800000 881416374 881416374 7.00000000
2.59650683 2.95866466 -0.48333383 9 8 4127 3.96600000 881416376 881416376 -7.00000000
2.63070583 2.99763370 0.63168240 8 9 4127 4.03800000 881416379 881416379 9.00000000
2.59342527 2.95411301 -0.34391657 25 10 4128 3.94600000 881416381 881416381 -5.00000000
2.64280725 3.00930333 0.77850068 66 11 4129 4.08000000 881416383 881416383 11.00000000
2.60211563 2.96192598 -0.20662236 17 12 4130 3.94800000 881416385 881416385 -3.00000000
2.63717580 3.00077772 0.92229933 57 13 4131 4.10000000 881416388 881416388 13.00000000
2.59972310 2.95712018 -0.06872758 19 14 4132 3.93800000 881416390 881416390 -1.00000000
2.63194466 2.99271798 1.06788743 66 15 4133 4.12600000 881416392 881416392 15.00000000
1.51773703 1.72153473 -0.61495405 3 0 4140 2.37600000 881416413 881416413 -15.00000000
2.60436487 2.95303297 0.06872758 21 1 4141 3.93800000 881416415 881416415 1.00000000
1.79461527 2.03415966 -0.62626374 3 2 4142 2.78400000 881416418 881416418 -13.00000000
2.62416935 2.97444201 0.20787841 21 3 4142 3.97200000 881416420 881416420 3.00000000
2.15649652 2.44348478 -0.63348585 4 4 4143 3.32000000 881416422 881416422 -11.00000000
2.62276268 2.97075677 0.34670556 19 5 4144 3.97800000 881416425 881416425 5.00000000
2.59042025 2.93309116 -0.61979336 8 6 4145 3.96200000 881416427 881416427 -9.00000000
2.62470436 2.97086525 0.48674616 13 7 4146 3.99400000 881416429 881416429 7.00000000
2.59761667 2.93917108 -0.48162764 1 8 4147 3.95200000 881416432 881416432 -7.00000000
2.63592100 2.98251200 0.63043088 8 9 4147 4.03000000 881416434 881416434 9.00000000
2.63508654 2.97947121 0.77315807 70 11 4149 4.05200000 881416438 881416438 11.00000000
2.64505148 2.98863554 0.92139953 58 13 4151 4.09600000 881416443 881416443 13.00000000
2.63725162 2.97772765 1.06581688 64 15 4153 4.11800000 881416448 881416448 15.00000000
1.52660227 1.71884918 -0.61598933 3 0 4161 2.38000000 881416468 881416468 -15.00000000
1.79429138 2.01882887 -0.62356430 3 2 4163 2.77200000 881416473 881416473 -13.00000000
2.17978716 2.45170379 -0.63768369 5 4 4164 3.34200000 881416478 881416478 -11.00000000
2.59458780 2.91619802 -0.61822903 8 6 4166 3.95200000 881416482 881416482 -9.00000000
2.62897682 2.95381117 0.48552746 4 7 4167 3.98400000 881416484 881416484 7.00000000
2.59649158 2.91628718 -0.47943398 7 8 4168 3.93400000 881416487 881416487 -7.00000000
2.64552116 2.97135544 0.63011801 10 9 4168 4.02800000 881416489 881416489 9.00000000
2.58932018 2.90721059 -0.34060463 6 10 4169 3.90800000 881416491 881416491 -5.00000000
2.63554120 2.95806646 0.77010512 42 11 4170 4.03600000 881416494 881416494 11.00000000
2.57806134 2.89253616 -0.20306350 3 12 4171 3.88000000 881416496 881416496 -3.00000000
2.64690948 2.96873903 0.91825020 25 13 4172 4.08200000 881416498 881416498 13.00000000
2.60351348 2.91904092 -0.06827381 4 14 4173 3.91200000 881416501 881416501 -1.00000000
2.65148759 2.97282887 1.06736970 40 15 4173 4.12400000 881416503 881416503 15.00000000
1.53516865 1.71638978 -0.61702460 3 0 4181 2.38400000 881416524 881416524 -15.00000000
2.60009527 2.90600610 0.06806438 6 1 4182 3.90000000 881416526 881416526 1.00000000
1.80132747 2.01255345 -0.62356430 3 2 4183 2.77200000 881416528 881416528 -13.00000000
2.61075425 2.91689444 0.20515695 4 3 4183 3.92000000 881416531 881416531 3.00000000
2.18047428 2.43530416 -0.63539398 5 4 4184 3.33000000 881416533 881416533 -11.00000000
2.62800217 2.93410325 0.34461382 4 5 4185 3.95400000 881416535 881416535 5.00000000
2.61002421 2.91300821 -0.61948049 8 6 4186 3.96000000 881416537 881416537 -9.00000000
2.63794637 2.94313812 0.48528373 6 7 4187 3.98200000 881416540 881416540 7.00000000
2.61063099 2.91163993 -0.48016521 3 8 4188 3.94000000 881416542 881416542 -7.00000000
2.64005256 2.94445372 0.62636358 14 9 4188 4.00400000 881416544 881416544 9.00000000
2.60743427 2.90705371 -0.34165052 8 10 4189 3.92000000 881416547 881416547 -5.00000000
2.65109515 2.95469379 0.77163160 10 11 4190 4.04400000 881416549 881416549 11.00000000
2.60815382 2.90581465 -0.20463359 8 12 4191 3.91000000 881416551 881416551 -3.00000000
2.63902903 2.93918133 0.91195160 10 13 4192 4.05400000 881416554 881416554 13.00000000
2.60566950 2.90100908 -0.06806438 6 14 4193 3.90000000 881416556 881416556 -1.00000000
2.65849209 2.95877981 1.06581688 12 15 4194 4.11800000 881416558 881416558 15.00000000
1.53597903 1.70527887 -0.61495405 4 0 4201 2.37600000 881416579 881416579 -15.00000000
2.61825466 2.90582609 0.06827381 3 1 4202 3.91200000 881416581 881416581 1.00000000
1.82138884 2.02072835 -0.62806332 3 2 4203 2.79200000 881416584 881416584 -13.00000000
2.63078976 2.91768932 0.20588966 4 3 4204 3.93400000 881416586 881416586 3.00000000
2.18764710 2.42621994 -0.63501233 5 4 4204 3.32800000 881416588 881416588 -11.00000000
2.63155580 2.91751456 0.34374225 3 5 4205 3.94400000 881416590 881416590 5.00000000
2.64267302 2.92881227 -0.62479925 8 6 4206 3.99400000 881416593 881416593 -9.00000000
2.65485430 2.94127989 0.48650241 6 7 4207 3.99200000 881416595 881416595 7.00000000
2.64206409 2.92608309 -0.48406503 3 8 4208 3.97200000 881416597 881416597 -7.00000000
2.65560985 2.94108486 0.62761509 14 9 4208 4.01200000 881416600 881416600 9.00000000
2.64427590 2.92750502 -0.34513673 2 10 4209 3.96000000 881416602 881416602 -5.00000000
2.66534138 2.94979191 0.77277642 10 11 4210 4.05000000 881416604 881416604 11.00000000
2.64506674 2.92632651 -0.20672703 1 12 4211 3.95000000 881416607 881416607 -3.00000000
2.66495657 2.94729686 0.91735041 9 13 4212 4.07800000 881416609 881416609 13.00000000
2.61175585 2.88744664 -0.06795967 1 14 4213 3.89400000 881416611 881416611 -1.00000000
2.66958523 2.95138025 1.06633449 8 15 4213 4.12000000 881416614 881416614 15.00000000
1.53673053 1.69418335 -0.61288351 4 0 4221 2.36800000 881416634 881416634 -15.00000000
2.66197586 2.93369174 0.06914643 1 1 4222 3.96200000 881416637 881416637 1.00000000
1.82319224 2.00858641 -0.62626374 3 2 4223 2.78400000 881416639 881416639 -13.00000000
2.63961577 2.90700960 0.20578498 1 3 4224 3.93200000 881416641 881416641 3.00000000
2.20006227 2.42292929 -0.63615721 5 4 4224 3.33400000 881416643 881416643 -11.00000000
2.66583681 2.93485737 0.34687987 1 5 4225 3.98000000 881416646 881416646 5.00000000
2.65420890 2.92103171 -0.62511212 8 6 4226 3.99600000 881416648 881416648 -9.00000000
2.67044592 2.93787074 0.48747736 7 7 4227 4.00000000 881416650 881416650 7.00000000
2.65092659 2.91537404 -0.48382130 26 8 4228 3.97000000 881416653 881416653 -7.00000000
2.67700529 2.94302201 0.63011801 8 9 4229 4.02800000 881416655 881416655 9.00000000
2.64375353 2.90646601 -0.34374225 19 10 4229 3.94400000 881416657 881416657 -5.00000000
2.67562199 2.94046998 0.77277642 8 11 4230 4.05000000 881416660 881416660 11.00000000
2.65123200 2.91264462 -0.20641302 14 12 4231 3.94400000 881416662 881416662 -3.00000000
2.68703651 2.95094466 0.92139953 9 13 4232 4.09600000 881416664 881416664 13.00000000
2.65279078 2.91231418 -0.06876248 16 14 4233 3.94000000 881416667 881416667 -1.00000000
2.68298697 2.94443202 1.06736970 8 15 4234 4.12400000 881416669 881416669 15.00000000
1.54524076 1.69166148 -0.61391878 3 0 4241 2.37200000 881416690 881416690 -15.00000000
2.66140890 2.91257215 0.06886720 19 1 4242 3.94600000 881416692 881416692 1.00000000
1.83808124 2.01084042 -0.62896317 3 2 4243 2.79600000 881416694 881416694 -13.00000000
2.68074608 2.93167877 0.20819244 17 3 4244 3.97800000 881416696 881416696 3.00000000
2.20453191 2.41088820 -0.63501233 5 4 4244 3.32800000 881416699 881416699 -11.00000000
2.68009949 2.92994452 0.34740278 15 5 4245 3.98600000 881416701 881416701 5.00000000
2.66972327 2.91757822 -0.62636358 9 6 4246 4.00400000 881416703 881416703 -9.00000000
2.68872690 2.93731666 0.48893979 7 7 4247 4.01200000 881416706 881416706 7.00000000
2.69058013 2.93831134 -0.48918355 6 8 4248 4.01400000 881416708 881416708 -7.00000000
2.70009017 2.94869733 0.63324672 8 9 4248 4.04800000 881416710 881416710 9.00000000
2.65926600 2.90309668 -0.34443951 17 10 4249 3.95200000 881416713 881416713 -5.00000000
2.70045972 2.94703460 0.77697420 8 11 4250 4.07200000 881416715 881416715 11.00000000
2.66678119 2.90926147 -0.20683169 17 12 4251 3.95200000 881416717 881416717 -3.00000000
2.70917439 2.95447373 0.92544866 8 13 4252 4.11400000 881416720 881416720 13.00000000
2.67240262 2.91335177 -0.06900682 13 14 4253 3.95400000 881416722 881416722 -1.00000000
2.70840693 2.95260215 1.07358146 8 15 4253 4.14800000 881416724 881416724 15.00000000
1.55767572 1.69336629 -0.61650699 4 0 4261 2.38200000 881416745 881416745 -15.00000000
2.68374586 2.91650772 0.06918134 6 1 4262 3.96400000 881416747 881416747 1.00000000
1.83980989 1.99867690 -0.62716353 3 2 4263 2.78800000 881416749 881416749 -13.00000000
2.69637489 2.92818022 0.20861112 8 3 4264 3.98600000 881416752 881416752 3.00000000
2.21692371 2.40751100 -0.63615721 5 4 4264 3.33400000 881416754 881416754 -11.00000000
2.69705987 2.92789841 0.34827435 6 5 4265 3.99600000 881416756 881416756 5.00000000
2.69595432 2.92567348 -0.63011801 9 6 4266 4.02800000 881416759 881416759 -9.00000000
2.71241808 2.94250917 0.49137720 7 7 4267 4.03200000 881416761 881416761 7.00000000
2.70351171 2.93182039 -0.48967102 8 8 4268 4.01800000 881416763 881416763 -7.00000000
2.72159457 2.95039678 0.63574964 8 9 4269 4.06400000 881416766 881416766 9.00000000
2.70315599 2.93040824 -0.34879729 9 10 4269 4.00200000 881416768 881416768 -5.00000000
2.72404432 2.95201850 0.78079039 8 11 4270 4.09200000 881416770 881416770 11.00000000
2.69724107 2.92194867 -0.20840178 7 12 4271 3.98200000 881416772 881416772 -3.00000000
2.72343707 2.94929409 0.92679834 8 13 4272 4.12000000 881416775 881416775 13.00000000
2.71512103 2.93925905 -0.06984453 7 14 4273 4.00200000 881416777 881416777 -1.00000000
2.72969913 2.95400620 1.07772255 8 15 4274 4.16400000 881416779 881416779 15.00000000
1.56357718 1.68791866 -0.61650699 4 0 4281 2.38200000 881416800 881416800 -15.00000000
2.71157956 2.92618990 0.06963510 8 1 4282 3.99000000 881416802 881416802 1.00000000
1.84677541 1.99224257 -0.62716353 3 2 4283 2.78800000 881416805 881416805 -13.00000000
2.72151828 2.93485975 0.20976251 7 3 4284 4.00800000 881416807 881416807 3.00000000
2.22397923 2.39831829 -0.63577557 5 4 4284 3.33200000 881416809 881416809 -11.00000000
2.73029852 2.94329786 0.35123765 6 5 4285 4.03000000 881416812 881416812 5.00000000
2.71958733 2.93072486 -0.63324672 9 6 4286 4.04800000 881416814 881416814 -9.00000000
2.73617816 2.94757199 0.49381459 7 7 4287 4.05200000 881416816 881416816 7.00000000
2.72453547 2.93400264 -0.49162093 8 8 4288 4.03400000 881416819 881416819 -7.00000000
2.73539591 2.94569802 0.63668829 8 9 4288 4.07000000 881416821 881416821 9.00000000
2.72557259 2.93409228 -0.35036609 9 10 4289 4.02000000 881416823 881416823 -5.00000000
2.74769640 2.95687342 0.78460658 8 11 4290 4.11200000 881416825 881416825 11.00000000
2.72238231 2.92860699 -0.20955317 7 12 4291 4.00400000 881416828 881416828 -3.00000000
2.74565887 2.95261312 0.93084747 7 13 4292 4.13800000 881416830 881416830 13.00000000
2.73081231 2.93562007 -0.06998415 7 14 4293 4.01000000 881416832 881416832 -1.00000000
2.75395370 2.96049714 1.08341658 8 15 4293 4.18600000 881416835 881416835 15.00000000
1.56682408 1.67962527 -0.61547166 4 0 4301 2.37800000 881416855 881416855 -15.00000000
2.74497032 2.94156098 0.07022848 7 1 4302 4.02400000 881416858 881416858 1.00000000
1.86169708 1.99433112 -0.62986296 3 2 4303 2.80000000 881416860 881416860 -13.00000000
2.74810410 2.94285893 0.21101858 7 3 4304 4.03200000 881416862 881416862 3.00000000
2.22965741 2.38767076 -0.63501233 5 4 4304 3.32800000 881416865 881416865 -11.00000000
2.75415659 2.94830894 0.35298076 6 5 4305 4.05000000 881416867 881416867 5.00000000
2.74328804 2.93564677 -0.63637543 11 6 4306 4.06800000 881416869 881416869 -9.00000000
2.76407337 2.95685482 0.49698317 7 7 4307 4.07800000 881416872 881416872 7.00000000
2.74289560 2.93317366 -0.49308336 10 8 4308 4.04600000 881416874 881416874 -7.00000000
2.75562048 2.94575047 0.63887835 8 9 4309 4.08400000 881416876 881416876 9.00000000
2.74668670 2.93620038 -0.35176057 9 10 4309 4.03600000 881416878 881416878 -5.00000000
2.77007413 2.96016574 0.78804117 8 11 4310 4.13000000 881416881 881416881 11.00000000
2.75442719 2.94241548 -0.21122792 7 12 4311 4.03600000 881416883 881416883 -3.00000000
2.76660466 2.95439053 0.93444669 8 13 4312 4.15400000 881416885 881416885 13.00000000
2.75744820 2.94358253 -0.07040301 7 14 4313 4.03400000 881416888 881416888 -1.00000000
2.77535367 2.96166062 1.08755767 8 15 4314 4.20200000 881416890 881416890 15.00000000
1.56974041 1.67160368 -0.61443639 4 0 4320 2.37400000 881416911 881416911 -15.00000000
2.75607896 2.93389964 0.07026339 7 1 4321 4.02600000 881416913 881416913 1.00000000
1.86029327 1.97962594 -0.62716353 3 2 4322 2.78800000 881416915 881416915 -13.00000000
2.77563143 2.95264769 0.21237931 7 3 4323 4.05800000 881416918 881416918 3.00000000
2.24428630 2.38741589 -0.63692045 5 4 4323 3.33800000 881416920 881416920 -11.00000000
2.77347279 2.94931960 0.35420093 6 5 4324 4.06400000 881416922 881416922 5.00000000
2.75300789 2.92653346 -0.63637543 9 6 4325 4.06800000 881416925 881416925 -9.00000000
2.78202581 2.95634651 0.49844560 7 7 4326 4.09000000 881416927 881416927 7.00000000
2.76485324 2.93707061 -0.49527702 10 8 4327 4.06400000 881416929 881416929 -7.00000000
2.77569318 2.94858575 0.64138132 8 9 4327 4.10000000 881416931 881416931 9.00000000
2.76187205 2.93287778 -0.35245782 9 10 4328 4.04400000 881416934 881416934 -5.00000000
2.78391361 2.95525074 0.78918600 8 11 4329 4.13600000 881416936 881416936 11.00000000
2.77923679 2.94925451 -0.21237931 7 12 4330 4.05800000 881416938 881416938 -3.00000000
2.78975391 2.95937991 0.93894571 8 13 4331 4.17400000 881416941 881416941 13.00000000
2.77679801 2.94460630 -0.07064734 7 14 4332 4.04800000 881416943 881416943 -1.00000000
2.78199363 2.95011616 1.08652234 8 15 4332 4.19800000 881416945 881416945 15.00000000
1.58087516 1.67172861 -0.61650699 4 0 4340 2.38200000 881416966 881416966 -15.00000000
2.77180028 2.93007207 0.07040301 7 1 4341 4.03400000 881416968 881416968 1.00000000
1.86987102 1.97595108 -0.62806332 3 2 4342 2.79200000 881416971 881416971 -13.00000000
2.79965186 2.95744538 0.21342602 8 3 4343 4.07800000 881416973 881416973 3.00000000
2.24315858 2.36958718 -0.63424909 5 4 4343 3.32400000 881416975 881416975 -11.00000000
2.79745054 2.95408702 0.35594407 6 5 4344 4.08400000 881416978 881416978 5.00000000
2.77543306 2.92981243 -0.63919121 9 6 4345 4.08600000 881416980 881416980 -9.00000000
2.80325198 2.95814443 0.50039554 7 7 4346 4.10600000 881416982 881416982 7.00000000
2.79693985 2.95045185 -0.49917683 10 8 4347 4.09600000 881416984 881416984 -7.00000000
2.80415201 2.95702624 0.64544863 8 9 4348 4.12600000 881416987 881416987 9.00000000
2.78580260 2.93767643 -0.35420093 9 10 4348 4.06400000 881416989 881416989 -5.00000000
2.79556370 2.94693923 0.78956765 8 11 4349 4.13800000 881416991 881416991 11.00000000
2.78951478 2.93953514 -0.21237931 7 12 4350 4.05800000 881416994 881416994 -3.00000000
2.80811715 2.95810390 0.94164509 8 13 4351 4.18600000 881416996 881416996 13.00000000
2.79807568 2.94649601 -0.07092658 7 14 4352 4.06400000 881416998 881416998 -1.00000000
2.80875397 2.95670724 1.09273398 8 15 4353 4.22200000 881417001 881417001 15.00000000
1.58403647 1.66340220 -0.61547166 4 0 4360 2.37800000 881417021 881417021 -15.00000000
2.79856277 2.93775344 0.07082187 7 1 4361 4.05800000 881417024 881417024 1.00000000
1.87137949 1.96376896 -0.62626374 3 2 4362 2.78400000 881417026 881417026 -13.00000000
2.81547070 2.95343733 0.21384472 7 3 4363 4.08600000 881417028 881417028 3.00000000
2.25954413 2.37026882 -0.63653880 5 4 4363 3.33600000 881417031 881417031 -11.00000000
2.82012010 2.95728111 0.35751286 6 5 4364 4.10200000 881417033 881417033 5.00000000
2.79246068 2.92725325 -0.64075559 9 6 4365 4.09600000 881417035 881417035 -9.00000000
2.81493115 2.94977736 0.50063926 7 7 4366 4.10800000 881417037 881417037 7.00000000
2.81133389 2.94497848 -0.49990806 10 8 4367 4.10200000 881417040 881417040 -7.00000000
2.82894659 2.96342826 0.64889014 8 9 4367 4.14800000 881417042 881417042 9.00000000
2.80979991 2.94234324 -0.35594407 9 10 4368 4.08400000 881417044 881417044 -5.00000000
2.82210684 2.95419836 0.79414701 8 11 4369 4.16200000 881417047 881417047 11.00000000
2.81079745 2.94133162 -0.21321669 7 12 4370 4.07400000 881417049 881417049 -3.00000000
2.83727813 2.96800470 0.94794375 8 13 4371 4.21400000 881417051 881417051 13.00000000
2.82354641 2.95260835 -0.07131054 7 14 4372 4.08600000 881417054 881417054 -1.00000000
2.83323026 2.96273494 1.09842801 8 15 4372 4.24400000 881417056 881417056 15.00000000
1.59919310 1.66762304 -0.61909515 4 0 4380 2.39200000 881417077 881417077 -15.00000000
2.82541227 2.94528341 0.07124072 7 1 4381 4.08200000 881417079 881417079 1.00000000
1.87822294 1.95722473 -0.62626374 3 2 4382 2.78400000 881417081 881417081 -13.00000000
2.82991219 2.94791389 0.21415873 7 3 4383 4.09200000 881417084 881417084 3.00000000
2.25284863 2.34678793 -0.63234103 5 4 4383 3.31400000 881417086 881417086 -11.00000000
2.84836602 2.96610069 0.35977891 6 5 4384 4.12800000 881417088 881417088 5.00000000
2.81360960 2.92888427 -0.64325851 9 6 4385 4.11200000 881417090 881417090 -9.00000000
2.84721828 2.96283460 0.50453907 7 7 4386 4.14000000 881417093 881417093 7.00000000
2.83122659 2.94516468 -0.50161421 12 8 4387 4.11600000 881417095 881417095 -7.00000000
2.83790445 2.95211124 0.64857727 8 9 4387 4.14600000 881417097 881417097 9.00000000
2.84076881 2.95405889 -0.35855871 9 10 4388 4.11400000 881417100 881417100 -5.00000000
2.85690117 2.96979690 0.80101615 8 11 4389 4.19800000 881417102 881417102 11.00000000
2.83074188 2.94157600 -0.21394938 7 12 4390 4.08800000 881417104 881417104 -3.00000000
2.84897256 2.95948648 0.94839364 8 13 4391 4.21600000 881417107 881417107 13.00000000
2.83938408 2.94849610 -0.07145015 7 14 4392 4.09400000 881417109 881417109 -1.00000000
2.87035561 2.98065758 1.10878074 8 15 4392 4.28400000 881417111 881417111 15.00000000
1.59503365 1.65285993 -0.61547166 4 0 4398 2.37800000 881417132 881417132 -15.00000000
2.84853959 2.95077968 0.07158977 7 1 4399 4.10200000 881417134 881417134 1.00000000
1.88706982 1.95411801 -0.62716353 3 2 4400 2.78800000 881417137 881417137 -13.00000000
2.85858679 2.95911956 0.21562414 7 3 4401 4.12000000 881417139 881417139 3.00000000
2.26839447 2.34817100 -0.63463074 5 4 4401 3.32600000 881417141 881417141 -11.00000000
2.86459303 2.96430135 0.36065045 6 5 4402 4.13800000 881417143 881417143 5.00000000
2.83652663 2.93423319 -0.64638722 9 6 4403 4.13200000 881417146 881417146 -9.00000000
2.87169170 2.96957207 0.50722021 7 7 4404 4.16200000 881417148 881417148 7.00000000
2.85012650 2.94624281 -0.50332040 10 8 4405 4.13000000 881417150 881417150 -7.00000000
2.86004186 2.95546007 0.65139312 8 9 4406 4.16400000 881417153 881417153 9.00000000
2.85280633 2.94798326 -0.35890734 9 10 4406 4.11800000 881417155 881417155 -5.00000000
2.87440991 2.96927047 0.80330586 8 11 4407 4.21000000 881417157 881417157 11.00000000
2.85386324 2.94701624 -0.21499611 7 12 4408 4.10800000 881417160 881417160 -3.00000000
2.87723875 2.97011709 0.95469230 9 13 4409 4.24400000 881417162 881417162 13.00000000
2.85559106 2.94674134 -0.07162467 7 14 4410 4.10400000 881417164 881417164 -1.00000000
2.88777184 2.97994924 1.11188662 8 15 4410 4.29600000 881417166 881417166 15.00000000
1.59944725 1.64589679 -0.61495405 4 0 4418 2.37600000 881417187 881417187 -15.00000000
2.86300397 2.94511986 0.07169449 7 1 4419 4.10800000 881417190 881417190 1.00000000
1.89659667 1.95031321 -0.62806332 3 2 4420 2.79200000 881417192 881417192 -13.00000000
2.88421798 2.96487093 0.21677554 7 3 4421 4.14200000 881417194 881417194 3.00000000
2.27657723 2.34023833 -0.63463074 5 4 4421 3.32600000 881417196 881417196 -11.00000000
2.88326001 2.96285129 0.36169633 6 5 4422 4.15000000 881417199 881417199 5.00000000
2.85364127 2.93139124 -0.64795154 9 6 4423 4.14200000 881417201 881417201 -9.00000000
2.89727426 2.97517371 0.50990134 7 7 4424 4.18400000 881417203 881417203 7.00000000
2.87701559 2.95333910 -0.50624526 8 8 4425 4.15400000 881417206 881417206 -7.00000000
2.89102054 2.96667957 0.65608615 8 9 4426 4.19400000 881417208 881417208 9.00000000
2.87003207 2.94514179 -0.35977891 9 10 4426 4.12800000 881417210 881417210 -5.00000000
2.89709115 2.97187090 0.80674040 8 11 4427 4.22800000 881417213 881417213 11.00000000
2.87668276 2.94990563 -0.21593815 7 12 4428 4.12600000 881417215 881417215 -3.00000000
2.90391827 2.97679496 0.96009111 8 13 4429 4.26800000 881417217 881417217 13.00000000
2.87423944 2.94534254 -0.07183410 7 14 4430 4.11600000 881417219 881417219 -1.00000000
2.90947032 2.98040414 1.11602771 8 15 4431 4.31200000 881417222 881417222 15.00000000
1.60682034 1.64140391 -0.61547166 4 0 4439 2.37800000 881417243 881417243 -15.00000000
2.88777041 2.94889402 0.07204353 7 1 4440 4.12800000 881417245 881417245 1.00000000
1.90100479 1.94056451 -0.62716353 3 2 4441 2.78800000 881417247 881417247 -13.00000000
2.91184020 2.97139788 0.21803160 7 3 4442 4.16600000 881417249 881417249 3.00000000
2.28788757 2.33468294 -0.63539398 5 4 4442 3.33000000 881417252 881417252 -11.00000000
2.90944219 2.96791434 0.36361375 7 5 4443 4.17200000 881417254 881417254 5.00000000
2.85606766 2.91245008 -0.64607435 11 6 4444 4.13000000 881417256 881417256 -9.00000000
2.91371965 2.97020316 0.51087630 7 7 4445 4.19200000 881417259 881417259 7.00000000
2.91006708 2.96544409 -0.51014507 8 8 4446 4.18600000 881417261 881417261 -7.00000000
2.91848040 2.97297931 0.65984058 8 9 4447 4.21800000 881417263 881417263 9.00000000
2.90313911 2.95735145 -0.36256790 9 10 4447 4.16000000 881417266 881417266 -5.00000000
2.91759300 2.97103810 0.80941176 8 11 4448 4.24200000 881417268 881417268 11.00000000
2.89867258 2.95074058 -0.21677554 7 12 4449 4.14200000 881417270 881417270 -3.00000000
2.93256593 2.98420072 0.96593982 8 13 4450 4.29400000 881417272 881417272 13.00000000
2.90604329 2.95617890 -0.07235768 7 14 4451 4.14600000 881417275 881417275 -1.00000000
2.92256474 2.97298527 1.11706305 8 15 4451 4.31600000 881417277 881417277 15.00000000
1.61525261 1.63853657 -0.61650699 4 0 4459 2.38200000 881417298 881417298 -15.00000000
2.91489553 2.95588183 0.07246239 7 1 4460 4.15200000 881417300 881417300 1.00000000
1.90776706 1.93391693 -0.62716353 3 2 4461 2.78800000 881417302 881417302 -13.00000000
