# .PCD v0.7 - Point Cloud Data file format
VERSION 0.7
FIELDS x y z intensity laser_id azimuth distance_m adjustedtime timestamp vertical_angle
SIZE 4 4 4 1 1 2 8 8 4 8
TYPE F F F U U U F U U F
COUNT 1 1 1 1 1 1 1 1 1 1
WIDTH 532
HEIGHT 1
VIEWPOINT 0 0 0 1 0 0 0
POINTS 532
DATA ascii
-1.89301884 -4.99917126 -0.46767771 3 10 20074 5.36600000 880560840 880560840 -5.00000000
-2.76449370 -7.29291439 -0.40874383 4 12 20076 7.81000000 880560845 880560845 -3.00000000
-3.65361953 -9.63341331 2.37863255 30 13 20077 10.57400000 880560847 880560847 13.00000000
-3.26790881 -8.61188507 2.46809840 63 15 20078 9.53600000 880560852 880560852 15.00000000
-0.43756911 -1.14708149 -0.28343832 36 2 20088 1.26000000 880560877 880560877 -13.00000000
-1.11744714 -2.92477322 -0.49589726 3 6 20091 3.17000000 880560886 880560886 -9.00000000
-1.40691149 -3.67855644 -0.48357755 1 8 20093 3.96800000 880560891 880560891 -7.00000000
-1.89051998 -4.94043064 -0.46279699 3 10 20094 5.31000000 880560895 880560895 -5.00000000
-2.79136300 -7.28695059 -0.40895316 4 12 20096 7.81400000 880560900 880560900 -3.00000000
-3.69698811 -9.64607620 2.38493109 32 13 20097 10.60200000 880560902 880560902 13.00000000
-3.29737496 -8.59443855 2.46654558 69 15 20099 9.53000000 880560907 880560907 15.00000000
-0.69767302 -1.81182694 -0.52022630 6 0 20106 2.01000000 880560928 880560928 -15.00000000
-0.93815976 -2.43256187 -0.50678867 4 4 20109 2.65600000 880560937 880560937 -11.00000000
-1.12480390 -2.91348338 -0.49464577 3 6 20111 3.16200000 880560942 880560942 -9.00000000
-1.40686274 -3.64029360 -0.47919026 1 8 20113 3.93200000 880560946 880560946 -7.00000000
-1.89194572 -4.89291859 -0.45896214 3 10 20114 5.26600000 880560951 880560951 -5.00000000
-2.81389832 -7.26971197 -0.40853447 4 12 20116 7.80600000 880560955 880560955 -3.00000000
-3.74048924 -9.65855408 2.39122963 34 13 20117 10.63000000 880560958 880560958 13.00000000
-3.32655501 -8.58525848 2.46706319 60 15 20118 9.53200000 880560962 880560962 15.00000000
-0.70889664 -1.82198322 -0.52384973 6 0 20126 2.02400000 880560983 880560983 -15.00000000
-0.80909222 -2.07735658 -0.51468801 4 2 20128 2.28800000 880560988 880560988 -13.00000000
-0.94593245 -2.42744303 -0.50640708 4 4 20129 2.65400000 880560992 880560992 -11.00000000
-1.13209558 -2.90217805 -0.49339432 3 6 20131 3.15400000 880560997 880560997 -9.00000000
-1.42966998 -3.66124821 -0.48260260 1 8 20133 3.96000000 880561001 880561001 -7.00000000
-1.91916406 -4.91226578 -0.46140251 3 10 20134 5.29400000 880561006 880561006 -5.00000000
-2.83343744 -7.24496460 -0.40769711 4 12 20136 7.79000000 880561011 880561011 -3.00000000
-3.78270221 -9.66721535 2.39662862 35 13 20137 10.65400000 880561013 880561013 13.00000000
-3.36081743 -8.58020306 2.46913362 63 15 20139 9.54000000 880561018 880561018 15.00000000
-0.71344852 -1.81397939 -0.52229685 6 0 20147 2.01800000 880561038 880561038 -15.00000000
-0.81527287 -2.07075047 -0.51378822 4 2 20149 2.28400000 880561043 880561043 -13.00000000
-0.95338404 -2.42030644 -0.50564384 4 4 20150 2.65000000 880561048 880561048 -11.00000000
-1.15286958 -2.92373681 -0.49777448 3 6 20152 3.18200000 880561052 880561052 -9.00000000
-1.43579113 -3.63751912 -0.48016521 1 8 20154 3.94000000 880561057 880561057 -7.00000000
-1.96350145 -4.97191048 -0.46767771 3 10 20155 5.36600000 880561061 880561061 -5.00000000
-2.85409856 -7.21967173 -0.40685973 4 12 20157 7.77400000 880561066 880561066 -3.00000000
-3.82240939 -9.66415882 2.39932799 35 13 20158 10.66600000 880561068 880561068 13.00000000
-3.39430165 -8.57740116 2.47172189 72 15 20159 9.55000000 880561073 880561073 15.00000000
-0.72191620 -1.81686389 -0.52384973 6 0 20167 2.02400000 880561094 880561094 -15.00000000
-0.82537705 -2.07513523 -0.51558781 4 2 20169 2.29200000 880561098 880561098 -13.00000000
-0.95892304 -2.40966725 -0.50411737 4 4 20170 2.64200000 880561103 880561103 -11.00000000
-1.15722013 -2.90501356 -0.49527150 3 6 20172 3.16600000 880561107 880561107 -9.00000000
-1.44259763 -3.61773396 -0.47821531 1 8 20174 3.92400000 880561112 880561112 -7.00000000
-1.98084474 -4.96502638 -0.46767771 3 10 20175 5.36600000 880561117 880561117 -5.00000000
-2.87928247 -7.20966530 -0.40685973 4 12 20177 7.77400000 880561121 880561121 -3.00000000
-3.85756660 -9.65437698 2.40022779 34 13 20178 10.67000000 880561124 880561124 13.00000000
-3.42207026 -8.56011868 2.47016907 65 15 20179 9.54400000 880561128 880561128 15.00000000
-0.72505999 -1.80728817 -0.52177918 6 0 20186 2.01600000 880561149 880561149 -15.00000000
-0.83080149 -2.06876993 -0.51468801 4 2 20188 2.28800000 880561154 880561154 -13.00000000
-0.96617657 -2.40465236 -0.50373572 3 4 20189 2.64000000 880561158 880561158 -11.00000000
-1.16684711 -2.90116000 -0.49527150 3 6 20191 3.16600000 880561163 880561163 -9.00000000
-1.45458651 -3.61293006 -0.47821531 1 8 20193 3.92400000 880561167 880561167 -7.00000000
-1.99729848 -4.95843029 -0.46767771 3 10 20194 5.36600000 880561172 880561172 -5.00000000
-2.89495897 -7.17970181 -0.40570834 4 12 20196 7.75200000 880561177 880561177 -3.00000000
-3.89830923 -9.66321754 2.40562654 30 13 20197 10.69400000 880561179 880561179 13.00000000
-3.45043802 -8.54872417 2.47016907 65 15 20198 9.54400000 880561183 880561183 15.00000000
-0.72991306 -1.80116534 -0.52074391 6 0 20206 2.01200000 880561204 880561204 -15.00000000
-0.83948284 -2.06946898 -0.51558781 4 2 20208 2.29200000 880561209 880561209 -13.00000000
-0.97530282 -2.40308428 -0.50411737 4 4 20209 2.64200000 880561213 880561213 -11.00000000
-1.17547989 -2.89340925 -0.49464577 3 6 20211 3.16200000 880561218 880561218 -9.00000000
-1.47317159 -3.62254143 -0.48016521 1 8 20213 3.94000000 880561223 880561223 -7.00000000
-2.01459432 -4.95142841 -0.46767771 3 10 20214 5.36600000 880561227 880561227 -5.00000000
-2.92075634 -7.17140245 -0.40581301 4 12 20216 7.75400000 880561232 880561232 -3.00000000
-3.94010544 -9.66940308 2.41057539 30 13 20217 10.71600000 880561234 880561234 13.00000000
-3.47955847 -8.53065395 2.46861601 69 15 20219 9.53800000 880561239 880561239 15.00000000
-0.73692763 -1.80039442 -0.52126157 6 0 20226 2.01400000 880561260 880561260 -15.00000000
-0.84374619 -2.05931306 -0.51378822 4 2 20228 2.28400000 880561264 880561264 -13.00000000
-0.98294055 -2.39784861 -0.50373572 3 4 20229 2.64000000 880561269 880561269 -11.00000000
-1.18407285 -2.88563323 -0.49402004 3 6 20231 3.15800000 880561273 880561273 -9.00000000
-1.48279071 -3.61003208 -0.47919026 1 8 20233 3.93200000 880561278 880561278 -7.00000000
-2.94349217 -7.15562201 -0.40549898 4 12 20236 7.74800000 880561287 880561287 -3.00000000
-3.98273396 -9.67721558 2.41597438 30 13 20237 10.74000000 880561289 880561289 13.00000000
-3.50856352 -8.52085400 2.46913362 63 15 20238 9.54000000 880561294 880561294 15.00000000
-0.74542183 -1.80316699 -0.52281445 6 0 20246 2.02000000 880561315 880561315 -15.00000000
-0.84794891 -2.04915261 -0.51198858 4 2 20248 2.27600000 880561319 880561319 -13.00000000
-0.99806350 -2.41072845 -0.50717032 4 4 20249 2.65800000 880561324 880561324 -11.00000000
-1.19867599 -2.89243174 -0.49589726 3 6 20251 3.17000000 880561329 880561329 -9.00000000
-1.49842560 -3.61216855 -0.48016521 1 8 20253 3.94000000 880561333 880561333 -7.00000000
-2.04911256 -4.93724346 -0.46767771 3 10 20254 5.36600000 880561338 880561338 -5.00000000
-2.95925689 -7.12317085 -0.40424293 8 12 20256 7.72400000 880561342 880561342 -3.00000000
-4.02247286 -9.67765045 2.41957355 26 13 20257 10.75600000 880561345 880561345 13.00000000
-3.53976917 -8.51212311 2.47016907 60 15 20258 9.54400000 880561349 880561349 15.00000000
-0.75288516 -1.80425096 -0.52384973 7 0 20265 2.02400000 880561370 880561370 -15.00000000
-0.85473949 -2.04632950 -0.51198858 4 2 20267 2.27600000 880561375 880561375 -13.00000000
-1.00302422 -2.40015960 -0.50564384 4 4 20268 2.65000000 880561379 880561379 -11.00000000
-1.20978570 -2.89208579 -0.49652299 3 6 20270 3.17400000 880561384 880561384 -9.00000000
-1.49582839 -3.57238984 -0.47553417 1 8 20272 3.90200000 880561388 880561388 -7.00000000
-2.98286200 -7.11331844 -0.40424293 4 12 20275 7.72400000 880561398 880561398 -3.00000000
-4.06057453 -9.67863369 2.42317271 19 13 20276 10.77200000 880561400 880561400 13.00000000
-3.57321072 -8.51280689 2.47379231 69 15 20277 9.55800000 880561405 880561405 15.00000000
-0.75467753 -1.79093039 -0.52074391 6 0 20285 2.01200000 880561425 880561425 -15.00000000
-0.86642146 -2.05410671 -0.51468801 4 2 20287 2.28800000 880561430 880561430 -13.00000000
-1.00757968 -2.38759995 -0.50373572 3 4 20288 2.64000000 880561435 880561435 -11.00000000
-1.21679890 -2.88056636 -0.49527150 3 6 20290 3.16600000 880561439 880561439 -9.00000000
-1.51602018 -3.58543015 -0.47797155 1 8 20292 3.92200000 880561444 880561444 -7.00000000
-2.05006909 -4.84611320 -0.46035662 3 10 20293 5.28200000 880561448 880561448 -5.00000000
-3.01624060 -7.12309361 -0.40539432 4 12 20295 7.74600000 880561453 880561453 -3.00000000
-4.10269642 -9.68413830 2.42812157 10 13 20296 10.79400000 880561455 880561455 13.00000000
-3.60212517 -8.49431801 2.47223949 58 15 20298 9.55200000 880561460 880561460 15.00000000
-0.75865531 -1.78295231 -0.51919103 6 0 20305 2.00600000 880561481 880561481 -15.00000000
-0.87511361 -2.05465555 -0.51558781 4 2 20307 2.29200000 880561485 880561485 -13.00000000
-1.01436853 -2.38045597 -0.50297248 3 4 20308 2.63600000 880561490 880561490 -11.00000000
-1.22529650 -2.87266731 -0.49464577 3 6 20310 3.16200000 880561494 880561494 -9.00000000
-1.52852643 -3.58011651 -0.47797155 3 8 20312 3.92200000 880561499 880561499 -7.00000000
-2.07166862 -4.84992075 -0.46140251 3 10 20313 5.29400000 880561504 880561504 -5.00000000
-3.02930832 -7.08497524 -0.40382424 4 12 20315 7.71600000 880561508 880561508 -3.00000000
-3.62951326 -8.48054981 2.47172189 67 15 20317 9.55000000 880561515 880561515 15.00000000
-0.76411176 -1.77851820 -0.51867336 5 0 20325 2.00400000 880561536 880561536 -15.00000000
-0.88074058 -2.04800797 -0.51468801 4 2 20327 2.28800000 880561540 880561540 -13.00000000
-1.02732730 -2.38772130 -0.50526220 3 4 20328 2.64800000 880561545 880561545 -11.00000000
-1.23687923 -2.87200141 -0.49527150 3 6 20330 3.16600000 880561550 880561550 -9.00000000
-1.54730070 -3.58934259 -0.47992146 3 8 20332 3.93800000 880561554 880561554 -7.00000000
-3.04927135 -7.06335545 -0.40319622 4 12 20335 7.70400000 880561564 880561564 -3.00000000
-3.66062641 -8.47137547 2.47275710 69 15 20337 9.55400000 880561570 880561570 15.00000000
-0.77677792 -1.78988302 -0.52281445 6 0 20346 2.02000000 880561591 880561591 -15.00000000
-0.88979387 -2.04834080 -0.51558781 4 2 20348 2.29200000 880561596 880561596 -13.00000000
-1.04076707 -2.39474320 -0.50755191 3 4 20349 2.66000000 880561600 880561600 -11.00000000
-1.24424529 -2.86020303 -0.49402004 3 6 20351 3.15800000 880561605 880561605 -9.00000000
-1.55252075 -3.56544709 -0.47748408 3 8 20353 3.91800000 880561610 880561610 -7.00000000
-2.10791206 -4.83862543 -0.46175113 3 10 20354 5.29800000 880561614 880561614 -5.00000000
-3.07354283 -7.04847050 -0.40298685 4 12 20356 7.70000000 880561619 880561619 -3.00000000
-3.69467330 -8.46079826 2.47379231 67 15 20359 9.55800000 880561626 880561626 15.00000000
-0.78302103 -1.78716063 -0.52281445 5 0 20366 2.02000000 880561646 880561646 -15.00000000
-0.89224249 -2.03451443 -0.51288843 4 2 20368 2.28000000 880561651 880561651 -13.00000000
-1.03965414 -2.36952186 -0.50297248 3 4 20369 2.63600000 880561656 880561656 -11.00000000
-1.25501609 -2.85765100 -0.49433291 3 6 20371 3.16000000 880561660 880561660 -9.00000000
-1.56735361 -3.56545782 -0.47821531 3 8 20373 3.92400000 880561665 880561665 -7.00000000
-2.11997652 -4.82029533 -0.46070525 3 10 20374 5.28600000 880561670 880561670 -5.00000000
-3.10054207 -7.04318285 -0.40330088 4 12 20376 7.70600000 880561674 880561674 -3.00000000
-3.72886014 -8.45845604 2.47689819 69 15 20379 9.57000000 880561681 880561681 15.00000000
-0.78347522 -1.77218604 -0.51919103 5 0 20385 2.00600000 880561702 880561702 -15.00000000
-0.89819568 -2.02976227 -0.51243848 4 2 20387 2.27800000 880561706 880561706 -13.00000000
-1.04750609 -2.36606121 -0.50297248 3 4 20388 2.63600000 880561711 880561711 -11.00000000
-1.26848698 -2.86250353 -0.49589726 3 6 20390 3.17000000 880561716 880561716 -9.00000000
-1.58077824 -3.56386971 -0.47870278 3 8 20392 3.92800000 880561720 880561720 -7.00000000
-2.12140274 -4.78045845 -0.45756766 3 10 20393 5.25000000 880561725 880561725 -5.00000000
-3.12469172 -7.03468752 -0.40340555 4 12 20395 7.70800000 880561729 880561729 -3.00000000
-3.75374842 -8.43898392 2.47482777 72 15 20398 9.56200000 880561736 880561736 15.00000000
-0.78729469 -1.76414788 -0.51763809 5 0 20405 2.00000000 880561757 880561757 -15.00000000
-0.90845460 -2.03373194 -0.51423812 4 2 20407 2.28600000 880561762 880561762 -13.00000000
-1.05896294 -2.36956000 -0.50449896 3 4 20408 2.64400000 880561766 880561766 -11.00000000
-1.27282500 -2.84543586 -0.49370718 3 6 20410 3.15600000 880561771 880561771 -9.00000000
-1.59969854 -3.57282424 -0.48065269 3 8 20412 3.94400000 880561776 880561776 -7.00000000
-2.13481879 -4.76575089 -0.45687041 3 10 20413 5.24200000 880561780 880561780 -5.00000000
-3.14922833 -7.02373743 -0.40340555 4 12 20415 7.70800000 880561785 880561785 -3.00000000
-3.78397441 -8.42759132 2.47534537 63 15 20418 9.56400000 880561792 880561792 15.00000000
-0.79979545 -1.77548015 -0.52177918 6 0 20425 2.01600000 880561812 880561812 -15.00000000
-0.91795111 -2.03587794 -0.51558781 4 2 20427 2.29200000 880561817 880561817 -13.00000000
-1.07207143 -2.37658668 -0.50678867 3 4 20428 2.65600000 880561822 880561822 -11.00000000
-1.27787232 -2.83017349 -0.49182996 3 6 20430 3.14400000 880561826 880561826 -9.00000000
-1.61297774 -3.56902742 -0.48089644 1 8 20432 3.94600000 880561831 880561831 -7.00000000
-2.14159107 -4.73648453 -0.45477867 3 10 20433 5.21800000 880561835 880561835 -5.00000000
-3.17207956 -7.00906277 -0.40319622 4 12 20435 7.70400000 880561840 880561840 -3.00000000
-3.81190062 -8.41499710 2.47534537 65 15 20437 9.56400000 880561847 880561847 15.00000000
-0.80278981 -1.76564312 -0.51970863 5 0 20445 2.00800000 880561868 880561868 -15.00000000
-0.92020887 -2.02201915 -0.51288843 4 2 20447 2.28000000 880561872 880561872 -13.00000000
-1.07710671 -2.36568284 -0.50526220 3 4 20448 2.64800000 880561877 880561877 -11.00000000
-1.29020119 -2.83108807 -0.49276856 1 6 20450 3.15000000 880561881 880561881 -9.00000000
-1.61142099 -3.53267217 -0.47675288 1 8 20452 3.91200000 880561886 880561886 -7.00000000
-2.17300081 -4.76160669 -0.45791626 3 10 20453 5.25400000 880561891 880561891 -5.00000000
-3.18407893 -6.97069693 -0.40162614 4 12 20455 7.67400000 880561895 880561895 -3.00000000
-3.84673524 -8.40975285 2.47793365 69 15 20458 9.57400000 880561902 880561902 15.00000000
-0.81136537 -1.76809752 -0.52126157 5 0 20465 2.01400000 880561923 880561923 -15.00000000
-0.92807484 -2.02056551 -0.51333833 4 2 20467 2.28200000 880561928 880561928 -13.00000000
-1.08207881 -2.35477304 -0.50373572 3 4 20468 2.64000000 880561932 880561932 -11.00000000
-1.30172658 -2.83015656 -0.49339432 3 6 20470 3.15400000 880561937 880561937 -9.00000000
-1.61959183 -3.51800990 -0.47553417 3 8 20472 3.90200000 880561941 880561941 -7.00000000
-2.18627453 -4.74675369 -0.45721903 3 10 20473 5.24600000 880561946 880561946 -5.00000000
-3.21173644 -6.96679497 -0.40204480 4 12 20475 7.68200000 880561951 880561951 -3.00000000
-3.87379241 -8.39519691 2.47741580 63 15 20477 9.57200000 880561958 880561958 15.00000000
-0.81428480 -1.75824261 -0.51919103 5 0 20485 2.00600000 880561978 880561978 -15.00000000
-0.93758094 -2.02261758 -0.51468801 4 2 20487 2.28800000 880561983 880561983 -13.00000000
-1.08863997 -2.34741926 -0.50297248 3 4 20488 2.63600000 880561987 880561987 -11.00000000
-1.31741965 -2.83813763 -0.49558440 3 6 20490 3.16800000 880561992 880561992 -9.00000000
-1.64357197 -3.53753877 -0.47894651 1 8 20492 3.93000000 880561997 880561997 -7.00000000
-2.19275284 -4.71741247 -0.45512730 3 10 20493 5.22200000 880562001 880562001 -5.00000000
-3.23940563 -6.96278477 -0.40246350 4 12 20495 7.69000000 880562006 880562006 -3.00000000
-3.90372062 -8.37919140 2.47689819 69 15 20498 9.57000000 880562013 880562013 15.00000000
-0.81775570 -1.74810362 -0.51712048 5 0 20507 1.99800000 880562034 880562034 -15.00000000
-0.94286126 -2.01370811 -0.51333833 4 2 20509 2.28200000 880562038 880562038 -13.00000000
-1.09931099 -2.34677768 -0.50373572 3 4 20510 2.64000000 880562043 880562043 -11.00000000
-1.31489038 -2.80444145 -0.49057847 2 6 20512 3.13600000 880562047 880562047 -9.00000000
-1.64955306 -3.51502848 -0.47675288 3 8 20514 3.91200000 880562052 880562052 -7.00000000
-2.20068932 -4.68731594 -0.45303556 3 10 20515 5.19800000 880562057 880562057 -5.00000000
-3.26951456 -6.95752573 -0.40288219 4 12 20517 7.69800000 880562061 880562061 -3.00000000
-3.93111658 -8.35783386 2.47482777 69 15 20519 9.56200000 880562068 880562068 15.00000000
-0.82797611 -1.75397336 -0.51970863 6 0 20527 2.00800000 880562089 880562089 -15.00000000
-0.94905216 -2.00864267 -0.51288843 4 2 20529 2.28000000 880562093 880562093 -13.00000000
-1.10581803 -2.33937621 -0.50297248 3 4 20530 2.63600000 880562098 880562098 -11.00000000
-1.33649909 -2.82483315 -0.49495864 3 6 20532 3.16400000 880562103 880562103 -9.00000000
-1.66096318 -3.50745487 -0.47650912 1 8 20534 3.91000000 880562107 880562107 -7.00000000
-2.22727394 -4.70121193 -0.45512730 3 10 20535 5.22200000 880562112 880562112 -5.00000000
-3.26810837 -6.89193153 -0.39974204 4 12 20537 7.63800000 880562116 880562116 -3.00000000
-3.96255183 -8.34511471 2.47534537 65 15 20540 9.56400000 880562123 880562123 15.00000000
-0.83348227 -1.75136352 -0.51970863 5 0 20545 2.00800000 880562144 880562144 -15.00000000
-0.95703387 -2.00916982 -0.51378822 4 2 20547 2.28400000 880562149 880562149 -13.00000000
-1.11654031 -2.34297991 -0.50449896 3 4 20548 2.64400000 880562153 880562153 -11.00000000
-1.34196520 -2.81348872 -0.49370718 3 6 20550 3.15600000 880562158 880562158 -9.00000000
-1.66855299 -3.49505401 -0.47553417 3 8 20552 3.90200000 880562163 880562163 -7.00000000
-2.24374962 -4.69778728 -0.45547593 3 10 20553 5.22600000 880562167 880562167 -5.00000000
-3.29232812 -6.88703632 -0.40005606 4 12 20555 7.64400000 880562172 880562172 -3.00000000
-3.99313164 -8.34552002 2.47896886 69 15 20557 9.57800000 880562179 880562179 15.00000000
-0.84293556 -1.75540936 -0.52177918 6 0 20565 2.01600000 880562199 880562199 -15.00000000
-0.96150887 -2.00054789 -0.51243848 4 2 20567 2.27800000 880562204 880562204 -13.00000000
-1.12556279 -2.34083748 -0.50488061 4 4 20568 2.64600000 880562209 880562209 -11.00000000
-1.35006475 -2.80522728 -0.49308142 3 6 20570 3.15200000 880562213 880562213 -9.00000000
-1.67988145 -3.48741984 -0.47529045 1 8 20572 3.90000000 880562218 880562218 -7.00000000
-2.26359415 -4.69710588 -0.45617315 3 10 20573 5.23400000 880562222 880562222 -5.00000000
-3.32676077 -6.89708900 -0.40131211 4 12 20575 7.66800000 880562227 880562227 -3.00000000
-4.02537298 -8.33430672 2.48000407 69 15 20578 9.58200000 880562234 880562234 15.00000000
-0.84568870 -1.74550211 -0.51970863 6 0 20585 2.00800000 880562255 880562255 -15.00000000
-0.97018683 -2.00068617 -0.51333833 4 2 20587 2.28200000 880562259 880562259 -13.00000000
-1.12430072 -2.31746435 -0.50068283 3 4 20588 2.62400000 880562264 880562264 -11.00000000
-1.35984850 -2.80049753 -0.49308142 3 6 20590 3.15200000 880562269 880562269 -9.00000000
-1.69638312 -3.49046183 -0.47650912 1 8 20592 3.91000000 880562273 880562273 -7.00000000
-2.27126408 -4.67125750 -0.45443004 3 10 20593 5.21400000 880562278 880562278 -5.00000000
-4.05129671 -8.31743908 2.47896886 72 15 20597 9.57800000 880562289 880562289 15.00000000
-0.84753454 -1.73386145 -0.51712048 5 0 20605 1.99800000 880562310 880562310 -15.00000000
-0.97545177 -1.99378645 -0.51243848 4 2 20607 2.27800000 880562315 880562315 -13.00000000
-1.13583565 -2.32057905 -0.50220925 3 4 20608 2.63200000 880562319 880562319 -11.00000000
-1.36700869 -2.79041195 -0.49214283 3 6 20610 3.14600000 880562324 880562324 -9.00000000
-1.70943069 -3.48630142 -0.47675288 1 8 20612 3.91200000 880562328 880562328 -7.00000000
-2.27878141 -4.64541340 -0.45268694 3 10 20613 5.19400000 880562333 880562333 -5.00000000
-4.07749271 -8.29386616 2.47638059 60 15 20618 9.56800000 880562345 880562345 15.00000000
-0.85272729 -1.72915983 -0.51660281 4 0 20625 1.99600000 880562365 880562365 -15.00000000
-0.98585552 -1.99735928 -0.51423812 4 2 20627 2.28600000 880562370 880562370 -13.00000000
-1.14566755 -2.32012081 -0.50297248 3 4 20628 2.63600000 880562375 880562375 -11.00000000
-1.37849116 -2.78916502 -0.49276856 1 6 20630 3.15000000 880562379 880562379 -9.00000000
-1.73391199 -3.50522327 -0.48016521 1 8 20632 3.94000000 880562384 880562384 -7.00000000
-2.30028534 -4.64814472 -0.45373279 3 10 20633 5.20600000 880562388 880562388 -5.00000000
-4.99047422 -10.07973576 2.18628955 25 11 20634 11.45800000 880562391 880562391 11.00000000
-4.65241814 -9.38457012 2.80663371 61 15 20637 10.84400000 880562400 880562400 15.00000000
-0.86306036 -1.73482084 -0.51919103 5 0 20645 2.00600000 880562421 880562421 -15.00000000
-0.98239827 -1.97297239 -0.50883931 4 2 20647 2.26200000 880562425 880562425 -13.00000000
-1.15551007 -2.31962204 -0.50373572 3 4 20648 2.64000000 880562430 880562430 -11.00000000
-1.38821876 -2.78433609 -0.49276856 3 6 20650 3.15000000 880562434 880562434 -9.00000000
-1.73904598 -3.48493981 -0.47821531 1 8 20652 3.92400000 880562439 880562439 -7.00000000
-2.32361579 -4.65434790 -0.45512730 3 10 20653 5.22200000 880562444 880562444 -5.00000000
-4.89436960 -9.79089737 2.52710009 8 13 20656 11.23400000 880562451 880562451 13.00000000
-4.68946838 -9.37691212 2.80922198 71 15 20657 10.85400000 880562455 880562455 15.00000000
-0.87344331 -1.74043071 -0.52177918 5 0 20665 2.01600000 880562476 880562476 -15.00000000
-0.99277800 -1.97649682 -0.51063889 4 2 20667 2.27000000 880562481 880562481 -13.00000000
-1.16007400 -2.30855751 -0.50220925 3 4 20668 2.63200000 880562485 880562485 -11.00000000
-1.39881706 -2.78123808 -0.49308142 3 6 20670 3.15200000 880562490 880562490 -9.00000000
-1.73691916 -3.45047832 -0.47431549 1 8 20672 3.89200000 880562494 880562494 -7.00000000
-2.33447146 -4.63553143 -0.45408142 3 10 20673 5.21000000 880562499 880562499 -5.00000000
-4.72304153 -9.36221027 2.80973959 68 15 20677 10.85600000 880562510 880562510 15.00000000
-0.87515056 -1.72875333 -0.51919103 5 0 20685 2.00600000 880562531 880562531 -15.00000000
-1.00671732 -1.98692608 -0.51423812 4 2 20687 2.28600000 880562536 880562536 -13.00000000
-1.16279948 -2.29398727 -0.49991956 3 4 20688 2.62000000 880562540 880562540 -11.00000000
-1.41566670 -2.79043150 -0.49558440 3 6 20690 3.16800000 880562545 880562545 -9.00000000
-1.74805427 -3.44262433 -0.47407174 3 8 20692 3.89000000 880562550 880562550 -7.00000000
-2.34522414 -4.61669636 -0.45303556 3 10 20693 5.19800000 880562554 880562554 -5.00000000
-3.45327449 -6.79207897 -0.39932334 4 12 20695 7.63000000 880562559 880562559 -3.00000000
-4.75469446 -9.33967209 2.80818653 73 15 20698 10.85000000 880562566 880562566 15.00000000
-0.87502992 -1.71364427 -0.51556754 5 0 20705 1.99200000 880562587 880562587 -15.00000000
-1.01187325 -1.97992933 -0.51333833 4 2 20707 2.28200000 880562591 880562591 -13.00000000
-1.17705607 -2.30215049 -0.50259089 3 4 20708 2.63400000 880562596 880562596 -11.00000000
-1.41460001 -2.76437092 -0.49182996 3 6 20710 3.14400000 880562600 880562600 -9.00000000
-1.76187050 -3.44003510 -0.47455922 3 8 20712 3.89400000 880562605 880562605 -7.00000000
-2.35769081 -4.60138941 -0.45233831 3 10 20713 5.19000000 880562610 880562610 -5.00000000
-3.48789883 -6.80130959 -0.40057942 4 12 20715 7.65400000 880562614 880562614 -3.00000000
-4.78122902 -9.31525993 2.80559850 68 15 20717 10.84000000 880562621 880562621 15.00000000
-0.88719809 -1.72260153 -0.51919103 5 0 20725 2.00600000 880562642 880562642 -15.00000000
-1.01520681 -1.96945655 -0.51153868 4 2 20727 2.27400000 880562646 880562646 -13.00000000
-1.18148565 -2.29104829 -0.50106442 3 4 20728 2.62600000 880562651 880562651 -11.00000000
-1.41336882 -2.73835182 -0.48807552 1 6 20730 3.12000000 880562656 880562656 -9.00000000
-1.77022338 -3.42680955 -0.47358426 1 8 20732 3.88600000 880562660 880562660 -7.00000000
-2.37922668 -4.60375118 -0.45338416 3 10 20733 5.20200000 880562665 880562665 -5.00000000
-5.04480696 -9.75741482 2.13515258 56 11 20734 11.19000000 880562667 880562667 11.00000000
-3.50794816 -6.78199720 -0.40016073 4 12 20735 7.64600000 880562669 880562669 -3.00000000
-4.81638098 -9.30366039 2.80715132 71 15 20737 10.84600000 880562676 880562676 15.00000000
-0.89083332 -1.71419573 -0.51763809 5 0 20746 2.00000000 880562697 880562697 -15.00000000
-1.02331758 -1.96745133 -0.51198858 4 2 20748 2.27600000 880562702 880562702 -13.00000000
-1.19621837 -2.29889369 -0.50373572 3 4 20749 2.64000000 880562706 880562706 -11.00000000
-1.43160772 -2.74892139 -0.49089134 1 6 20751 3.13800000 880562711 880562711 -9.00000000
-1.78735900 -3.42909980 -0.47480297 1 8 20753 3.89600000 880562715 880562715 -7.00000000
-2.38871455 -4.58086729 -0.45198968 3 10 20754 5.18600000 880562720 880562720 -5.00000000
-3.51614833 -6.73722315 -0.39827663 4 12 20756 7.61000000 880562725 880562725 -3.00000000
-4.85402584 -9.29279423 2.80922198 73 15 20758 10.85400000 880562732 880562732 15.00000000
-0.90129560 -1.71963108 -0.52022630 4 0 20766 2.01000000 880562752 880562752 -15.00000000
-1.02927387 -1.96214163 -0.51153868 4 2 20768 2.27400000 880562757 880562757 -13.00000000
-1.20058656 -2.28775048 -0.50220925 3 4 20769 2.63200000 880562762 880562762 -11.00000000
-1.44303167 -2.74740505 -0.49151710 1 6 20771 3.14200000 880562766 880562766 -9.00000000
-1.79008126 -3.40526891 -0.47236559 1 8 20773 3.87600000 880562771 880562771 -7.00000000
-2.43065691 -4.62187624 -0.45687041 3 10 20774 5.24200000 880562775 880562775 -5.00000000
-3.54522586 -6.73551273 -0.39890465 4 12 20776 7.62200000 880562780 880562780 -3.00000000
-4.89435768 -9.28690434 2.81284547 59 15 20779 10.86800000 880562787 880562787 15.00000000
-0.90518820 -1.71321654 -0.51919103 4 0 20785 2.00600000 880562808 880562808 -15.00000000
-1.03759682 -1.96216297 -0.51243848 4 2 20787 2.27800000 880562812 880562812 -13.00000000
-1.20633030 -2.28028584 -0.50144607 3 4 20788 2.62800000 880562817 880562817 -11.00000000
-1.45952916 -2.75657082 -0.49402004 3 6 20790 3.15800000 880562821 880562821 -9.00000000
-1.81158805 -3.41860843 -0.47504669 1 8 20792 3.89800000 880562826 880562826 -7.00000000
-2.42917228 -4.58210468 -0.45373279 3 10 20793 5.20600000 880562831 880562831 -5.00000000
-3.56941438 -6.72724819 -0.39911401 4 12 20795 7.62600000 880562835 880562835 -3.00000000
-4.92260313 -9.26977634 2.81232786 26 15 20797 10.86600000 880562842 880562842 15.00000000
-0.90752918 -1.70322669 -0.51712048 4 0 20805 1.99800000 880562863 880562863 -15.00000000
-1.04077172 -1.95165110 -0.51063889 4 2 20807 2.27000000 880562867 880562867 -13.00000000
-1.21613085 -2.27952528 -0.50220925 3 4 20808 2.63200000 880562872 880562872 -11.00000000
-1.46355987 -2.74100423 -0.49214283 3 6 20810 3.14600000 880562877 880562877 -9.00000000
-1.83567321 -3.43502402 -0.47821531 1 8 20812 3.92400000 880562881 880562881 -7.00000000
-2.44327331 -4.57008362 -0.45338416 3 10 20813 5.20200000 880562886 880562886 -5.00000000
-3.58722138 -6.70418119 -0.39848596 4 12 20815 7.61400000 880562891 880562891 -3.00000000
-0.91346902 -1.70004845 -0.51712048 4 0 20825 1.99800000 880562918 880562918 -15.00000000
-1.04942393 -1.95143890 -0.51153868 4 2 20827 2.27400000 880562923 880562923 -13.00000000
-1.22408044 -2.27526641 -0.50220925 3 4 20828 2.63200000 880562927 880562927 -11.00000000
-1.46469033 -2.72022510 -0.48932701 2 6 20830 3.12800000 880562932 880562932 -9.00000000
-1.84011877 -3.41461539 -0.47626540 1 8 20832 3.90800000 880562937 880562937 -7.00000000
-2.44975615 -4.54398918 -0.45164105 3 10 20833 5.18200000 880562941 880562941 -5.00000000
-3.59922051 -6.67052603 -0.39722991 4 12 20835 7.59000000 880562946 880562946 -3.00000000
-4.10362434 -7.59583044 2.31332469 6 15 20838 8.93800000 880562953 880562953 15.00000000
-0.92031801 -1.69854808 -0.51763809 4 0 20845 2.00000000 880562973 880562973 -15.00000000
-1.05251348 -1.94091153 -0.50973910 4 2 20847 2.26600000 880562978 880562978 -13.00000000
-1.23388743 -2.27443099 -0.50297248 3 4 20848 2.63600000 880562983 880562983 -11.00000000
-1.47417676 -2.71509600 -0.48932701 2 6 20850 3.12800000 880562987 880562987 -9.00000000
-1.85202682 -3.40817142 -0.47626540 1 8 20852 3.90800000 880562992 880562992 -7.00000000
-2.47511864 -4.55291510 -0.45338416 3 10 20853 5.20200000 880562997 880562997 -5.00000000
-5.09515238 -9.36850071 2.07294893 12 11 20854 10.86400000 880562999 880562999 11.00000000
-3.62248325 -6.65792179 -0.39722991 4 12 20855 7.59000000 880563001 880563001 -3.00000000
-4.13750696 -7.59503174 2.31746578 9 15 20858 8.95400000 880563008 880563008 15.00000000
-0.93087268 -1.70380187 -0.52022630 4 0 20865 2.01000000 880563029 880563029 -15.00000000
-1.06115198 -1.94064534 -0.51063889 4 2 20867 2.27000000 880563033 880563033 -13.00000000
-1.23993480 -2.26666522 -0.50220925 3 4 20868 2.63200000 880563038 880563038 -11.00000000
-1.49123430 -2.72379518 -0.49182996 3 6 20870 3.14400000 880563043 880563043 -9.00000000
-1.85437322 -3.38427711 -0.47382802 1 8 20872 3.88800000 880563047 880563047 -7.00000000
-2.48525000 -4.53376484 -0.45233831 3 10 20873 5.19000000 880563052 880563052 -5.00000000
-5.14103985 -9.37475777 2.07829165 21 11 20874 10.89200000 880563054 880563054 11.00000000
-3.66107225 -6.67325354 -0.39890465 4 12 20875 7.62200000 880563056 880563056 -3.00000000
-4.17050409 -7.59239531 2.32108927 9 15 20878 8.96800000 880563063 880563063 15.00000000
-0.93215358 -1.69208169 -0.51763809 5 0 20885 2.00000000 880563084 880563084 -15.00000000
-1.07262409 -1.94546211 -0.51288843 4 2 20887 2.28000000 880563089 880563089 -13.00000000
-1.24215019 -2.25200868 -0.49991956 3 4 20888 2.62000000 880563093 880563093 -11.00000000
-1.50550628 -2.72722006 -0.49339432 3 6 20890 3.15400000 880563098 880563098 -9.00000000
-1.87001514 -3.38473368 -0.47480297 1 8 20892 3.89600000 880563103 880563103 -7.00000000
-2.50684333 -4.53552437 -0.45338416 3 10 20893 5.20200000 880563107 880563107 -5.00000000
-3.68047667 -6.65344238 -0.39848596 4 12 20895 7.61400000 880563112 880563112 -3.00000000
-4.20446873 -7.59131098 2.32523036 13 15 20898 8.98400000 880563119 880563119 15.00000000
-0.93400860 -1.68222535 -0.51556754 4 0 20904 1.99200000 880563139 880563139 -15.00000000
-1.07622993 -1.93678427 -0.51153868 4 2 20906 2.27400000 880563144 880563144 -13.00000000
-1.25915027 -2.26503658 -0.50373572 3 4 20907 2.64000000 880563149 880563149 -11.00000000
-1.50205672 -2.69977188 -0.48932701 2 6 20909 3.12800000 880563153 880563153 -9.00000000
-1.88895488 -3.39238858 -0.47675288 1 8 20911 3.91200000 880563158 880563158 -7.00000000
-2.51605248 -4.51674318 -0.45233831 3 10 20912 5.19000000 880563162 880563162 -5.00000000
-3.69862986 -6.63422298 -0.39806730 4 12 20914 7.60600000 880563167 880563167 -3.00000000
-4.22735548 -7.57637787 2.32471275 9 15 20916 8.98200000 880563174 880563174 15.00000000
-0.94553685 -1.68906891 -0.51867336 5 0 20924 2.00400000 880563195 880563195 -15.00000000
-1.08298409 -1.93301570 -0.51153868 4 2 20926 2.27400000 880563199 880563199 -13.00000000
-1.26320946 -2.25377727 -0.50220925 3 4 20927 2.63200000 880563204 880563204 -11.00000000
-1.50953865 -2.69106674 -0.48870125 2 6 20929 3.12400000 880563208 880563208 -9.00000000
-1.92022038 -3.42039371 -0.48162764 1 8 20931 3.95200000 880563213 880563213 -7.00000000
-2.52790093 -4.50098467 -0.45164105 3 10 20932 5.18200000 880563218 880563218 -5.00000000
-3.71002150 -6.60037899 -0.39681122 4 12 20934 7.58200000 880563222 880563222 -3.00000000
-4.27215052 -7.59113693 2.33403015 20 15 20937 9.01800000 880563229 880563229 15.00000000
-0.95332611 -1.68912292 -0.51970863 4 0 20944 2.00800000 880563250 880563250 -15.00000000
-1.08589125 -1.92243659 -0.50973910 4 2 20946 2.26600000 880563255 880563255 -13.00000000
-1.27300072 -2.25277257 -0.50297248 3 4 20947 2.63600000 880563259 880563259 -11.00000000
-1.51892304 -2.68578100 -0.48870125 2 6 20949 3.12400000 880563264 880563264 -9.00000000
-1.91552544 -3.38430142 -0.47748408 1 8 20951 3.91800000 880563268 880563268 -7.00000000
-2.54359698 -4.49213314 -0.45164105 3 10 20952 5.18200000 880563273 880563273 -5.00000000
-3.72713017 -6.57696295 -0.39618319 4 12 20954 7.57000000 880563278 880563278 -3.00000000
-4.30587769 -7.59205151 2.33868885 20 15 20956 9.03600000 880563285 880563285 15.00000000
-0.96112722 -1.68914306 -0.52074391 4 0 20964 2.01200000 880563305 880563305 -15.00000000
-1.09645259 -1.92540801 -0.51153868 4 2 20966 2.27400000 880563310 880563310 -13.00000000
-1.27502573 -2.23808002 -0.50068283 3 4 20967 2.62400000 880563314 880563314 -11.00000000
-1.53709471 -2.69590712 -0.49151710 1 6 20969 3.14200000 880563319 880563319 -9.00000000
-1.91650498 -3.35862875 -0.47480297 1 8 20971 3.89600000 880563324 880563324 -7.00000000
-2.55728650 -4.47976637 -0.45129243 3 10 20972 5.17800000 880563328 880563328 -5.00000000
-3.74610233 -6.55697584 -0.39576450 4 12 20974 7.56200000 880563333 880563333 -3.00000000
-4.34710360 -7.59969521 2.34593582 22 15 20977 9.06400000 880563340 880563340 15.00000000
-0.96413380 -1.68075061 -0.51919103 4 0 20984 2.00600000 880563361 880563361 -15.00000000
-1.10316682 -1.92156899 -0.51153868 4 2 20986 2.27400000 880563365 880563365 -13.00000000
-1.28087473 -2.23021078 -0.49991956 3 4 20987 2.62000000 880563370 880563370 -11.00000000
-1.55240226 -2.70080090 -0.49339432 1 6 20989 3.15400000 880563374 880563374 -9.00000000
-1.91831863 -3.33471131 -0.47236559 1 8 20991 3.87600000 880563379 880563379 -7.00000000
-2.57092047 -4.46735859 -0.45094383 3 10 20992 5.17400000 880563384 880563384 -5.00000000
-3.76099300 -6.53001356 -0.39492711 4 12 20994 7.54600000 880563388 880563388 -3.00000000
-4.37903452 -7.59695387 2.34955931 22 15 20996 9.07800000 880563395 880563395 15.00000000
-0.96515942 -1.66901314 -0.51660281 4 0 21004 1.99600000 880563416 880563416 -15.00000000
-1.11181986 -1.92107975 -0.51243848 4 2 21006 2.27800000 880563420 880563420 -13.00000000
-1.29258657 -2.23252225 -0.50144607 3 4 21007 2.62800000 880563425 880563425 -11.00000000
-1.55884922 -2.69023800 -0.49245569 3 6 21009 3.14800000 880563430 880563430 -9.00000000
-1.94189739 -3.34860182 -0.47529045 1 8 21011 3.90000000 880563434 880563434 -7.00000000
-2.57650089 -4.44112349 -0.44920069 3 10 21012 5.15400000 880563439 880563439 -5.00000000
-3.78576994 -6.52029991 -0.39513648 4 12 21014 7.55000000 880563443 880563443 -3.00000000
-4.41170406 -7.58920383 2.35214758 22 15 21017 9.08800000 880563450 880563450 15.00000000
-0.97545487 -1.67196941 -0.51867336 4 0 21026 2.00400000 880563471 880563471 -15.00000000
-1.11525762 -1.91006505 -0.51063889 4 2 21028 2.27000000 880563476 880563476 -13.00000000
-1.30312979 -2.23093319 -0.50220925 3 4 21029 2.63200000 880563480 880563480 -11.00000000
-1.55620730 -2.66206312 -0.48838839 2 6 21031 3.12200000 880563485 880563485 -9.00000000
-1.95474076 -3.34112072 -0.47529045 1 8 21033 3.90000000 880563490 880563490 -7.00000000
-2.60359859 -4.44839287 -0.45094383 3 10 21034 5.17400000 880563494 880563494 -5.00000000
-3.78453159 -6.46090841 -0.39241499 3 12 21036 7.49800000 880563499 880563499 -3.00000000
-3.51142430 -5.99226427 1.60345113 41 13 21037 7.12800000 880563501 880563501 13.00000000
-3.52947640 -6.02066088 -0.12181780 6 14 21038 6.98000000 880563503 880563503 -1.00000000
-3.50059271 -5.97139072 1.85469723 40 15 21038 7.16600000 880563506 880563506 15.00000000
-0.97834718 -1.66355860 -0.51712048 4 0 21046 1.99800000 880563526 880563526 -15.00000000
-3.52473283 -5.99098015 0.12132913 11 1 21047 6.95200000 880563529 880563529 1.00000000
-1.11994123 -1.90280151 -0.50973910 4 2 21048 2.26600000 880563531 880563531 -13.00000000
-3.53367424 -6.00138330 0.36499095 22 3 21049 6.97400000 880563533 880563533 3.00000000
-1.31688607 -2.23652148 -0.50449896 3 4 21049 2.64400000 880563536 880563536 -11.00000000
-3.52913713 -5.99128580 0.60834706 13 5 21050 6.98000000 880563538 880563538 5.00000000
-1.57752478 -2.67703700 -0.49214283 3 6 21051 3.14600000 880563540 880563540 -9.00000000
-3.53039241 -5.98863602 0.85357291 7 7 21052 7.00400000 880563543 880563543 7.00000000
-3.53748798 -5.99827909 -0.85503531 2 8 21053 7.01600000 880563545 880563545 -7.00000000
-3.54951739 -6.01627636 -0.61113608 4 10 21054 7.01200000 880563549 880563549 -5.00000000
-3.55217409 -6.01597977 -0.36614236 7 12 21056 6.99600000 880563554 880563554 -3.00000000
-3.51447964 -5.94976854 1.59535289 83 13 21057 7.09200000 880563556 880563556 13.00000000
-3.54436684 -5.99797440 -0.12160837 14 14 21058 6.96800000 880563559 880563559 -1.00000000
-3.50869203 -5.93523836 1.84745038 67 15 21059 7.13800000 880563561 880563561 15.00000000
-0.99202919 -1.67342770 -0.52126157 5 0 21066 2.01400000 880563582 880563582 -15.00000000
-3.55174398 -5.98895979 0.12153856 5 1 21067 6.96400000 880563584 880563584 1.00000000
-1.13055384 -1.90558445 -0.51153868 4 2 21068 2.27400000 880563586 880563586 -13.00000000
-3.53931069 -5.96324921 0.36342087 5 3 21069 6.94400000 880563589 880563589 3.00000000
-1.31266057 -2.21165156 -0.49991956 3 4 21069 2.62000000 880563591 880563591 -11.00000000
-3.53883982 -5.96008539 0.60642964 10 5 21070 6.95800000 880563593 880563593 5.00000000
-1.58282447 -2.66472077 -0.49089134 2 6 21071 3.13800000 880563596 880563596 -9.00000000
-3.53302193 -5.94555855 0.84918559 10 7 21072 6.96800000 880563598 880563598 7.00000000
-1.96381724 -3.30350375 -0.47187811 1 8 21073 3.87200000 880563600 880563600 -7.00000000
-3.52988505 -5.93791962 1.09410262 60 9 21073 6.99400000 880563602 880563602 9.00000000
-2.62644339 -4.41640854 -0.44954932 3 10 21074 5.15800000 880563605 880563605 -5.00000000
-3.52232862 -5.92050219 1.33909750 62 11 21075 7.01800000 880563607 880563607 11.00000000
-3.55885124 -5.97951603 -0.36467695 10 12 21076 6.96800000 880563609 880563609 -3.00000000
-3.52027249 -5.91234827 1.58860433 90 13 21077 7.06200000 880563612 880563612 13.00000000
-3.54583883 -5.95292377 -0.12094518 8 14 21078 6.93000000 880563614 880563614 -1.00000000
-3.51747990 -5.90531301 1.84175634 67 15 21078 7.11600000 880563616 880563616 15.00000000
-0.99290985 -1.66166306 -0.51867336 4 0 21086 2.00400000 880563637 880563637 -15.00000000
-3.54902911 -5.93704796 0.12073575 8 1 21087 6.91800000 880563639 880563639 1.00000000
-1.14019918 -1.90664399 -0.51288843 4 2 21088 2.28000000 880563642 880563642 -13.00000000
-3.55292726 -5.93886089 0.36268818 10 3 21089 6.93000000 880563644 880563644 3.00000000
-1.32238853 -2.21042562 -0.50068283 3 4 21089 2.62400000 880563646 880563646 -11.00000000
-3.54734468 -5.92718124 0.60433793 13 5 21090 6.93400000 880563649 880563649 5.00000000
-1.59516060 -2.66426373 -0.49182996 1 6 21091 3.14400000 880563651 880563651 -9.00000000
-3.54151392 -5.91275358 0.84626073 10 7 21092 6.94400000 880563653 880563653 7.00000000
-1.97329605 -3.29322290 -0.47139063 1 8 21093 3.86800000 880563655 880563655 -7.00000000
-3.53334379 -5.89444447 1.08847106 70 9 21094 6.95800000 880563658 880563658 9.00000000
-2.63569736 -4.39696026 -0.44850346 3 10 21094 5.14600000 880563660 880563660 -5.00000000
-3.53186703 -5.88964987 1.33489978 78 11 21095 6.99600000 880563662 880563662 11.00000000
-3.55915260 -5.93280268 -0.36258352 10 12 21096 6.92800000 880563665 880563665 -3.00000000
-3.52283859 -5.86994743 1.58050609 103 13 21097 7.02600000 880563667 880563667 13.00000000
-3.55321574 -5.91822243 -0.12049142 14 14 21098 6.90400000 880563669 880563669 -1.00000000
-3.52119589 -5.86257172 1.83243883 67 15 21099 7.08000000 880563672 880563672 15.00000000
-0.99343258 -1.65008605 -0.51608515 5 0 21105 1.99400000 880563692 880563692 -15.00000000
-3.55322194 -5.89955139 0.12021217 11 1 21106 6.88800000 880563695 880563695 1.00000000
-1.14651549 -1.90285254 -0.51288843 4 2 21107 2.28000000 880563697 880563697 -13.00000000
-3.55816674 -5.90309858 0.36122277 10 3 21108 6.90200000 880563699 880563699 3.00000000
-1.33173823 -2.20939112 -0.50144607 3 4 21108 2.62800000 880563702 880563702 -11.00000000
-3.54846144 -5.88467360 0.60120034 13 5 21109 6.89800000 880563704 880563704 5.00000000
-1.60092580 -2.65388513 -0.49089134 1 6 21110 3.13800000 880563706 880563706 -9.00000000
-3.54879403 -5.88058233 0.84333587 10 7 21111 6.92000000 880563708 880563708 7.00000000
-3.57854700 -5.92754602 -0.85016054 2 8 21112 6.97600000 880563711 880563711 -7.00000000
-3.53448820 -5.85456657 1.08315229 82 9 21112 6.92400000 880563713 880563713 9.00000000
-2.65850401 -4.40183973 -0.44989794 3 10 21113 5.16200000 880563715 880563715 -5.00000000
-3.53310370 -5.84765863 1.32803059 71 11 21114 6.96000000 880563718 880563718 11.00000000
-3.56640935 -5.90045595 -0.36132744 7 12 21115 6.90400000 880563720 880563720 -3.00000000
-3.52816796 -5.83488703 1.57420743 101 13 21116 6.99800000 880563722 880563722 13.00000000
-3.56143665 -5.88758564 -0.12010746 17 14 21117 6.88200000 880563725 880563725 -1.00000000
-3.52159834 -5.82172728 1.82312131 72 15 21117 7.04400000 880563727 880563727 15.00000000
-0.99918640 -1.64660823 -0.51608515 4 0 21125 1.99400000 880563748 880563748 -15.00000000
-3.55719042 -5.85976219 0.11965370 17 1 21126 6.85600000 880563750 880563750 1.00000000
-1.15112770 -1.89550745 -0.51198858 4 2 21127 2.27600000 880563752 880563752 -13.00000000
-3.56630659 -5.87015867 0.35996670 10 3 21128 6.87800000 880563755 880563755 3.00000000
-1.34148109 -2.20808482 -0.50220925 3 4 21128 2.63200000 880563757 880563757 -11.00000000
-3.55759859 -5.85352278 0.59928286 13 5 21129 6.87600000 880563759 880563759 5.00000000
-1.60299611 -2.63646555 -0.48870125 1 6 21130 3.12400000 880563761 880563761 -9.00000000
-3.55073071 -5.83763075 0.83894855 10 7 21131 6.88400000 880563764 880563764 7.00000000
-3.59096122 -5.90145206 -0.84821063 2 8 21132 6.96000000 880563766 880563766 -7.00000000
-3.54052734 -5.81856775 1.07877207 82 9 21132 6.89600000 880563768 880563768 9.00000000
-2.65520549 -4.36189938 -0.44676033 3 10 21133 5.12600000 880563771 880563771 -5.00000000
-3.53102970 -5.79840040 1.31963503 75 11 21134 6.91600000 880563773 880563773 11.00000000
-3.57243657 -5.86409187 -0.35986203 7 12 21135 6.87600000 880563775 880563775 -3.00000000
-3.53025937 -5.79258299 1.56610930 103 13 21136 6.96200000 880563778 880563778 13.00000000
-3.56843400 -5.85292244 -0.11965370 8 14 21137 6.85600000 880563780 880563780 -1.00000000
-3.51977420 -5.77311087 1.81173337 74 15 21137 7.00000000 880563782 880563782 15.00000000
-1.00895989 -1.64970255 -0.51815575 5 0 21145 2.00200000 880563803 880563803 -15.00000000
-3.56301212 -5.82342911 0.11916503 17 1 21146 6.82800000 880563805 880563805 1.00000000
-1.15163314 -1.88150513 -0.50928921 4 2 21147 2.26400000 880563808 880563808 -13.00000000
-3.56904507 -5.82871819 0.35818729 10 3 21148 6.84400000 880563810 880563810 3.00000000
-1.35533190 -2.21343446 -0.50449896 3 4 21148 2.64400000 880563812 880563812 -11.00000000
-3.56135774 -5.81388521 0.59649390 10 5 21149 6.84400000 880563814 880563814 5.00000000
-1.61218941 -2.63085389 -0.48870125 1 6 21150 3.12400000 880563817 880563817 -9.00000000
-3.55448627 -5.79812241 0.83504874 10 7 21151 6.85200000 880563819 880563819 7.00000000
-3.59493446 -5.86180592 -0.84431082 2 8 21152 6.92800000 880563821 880563821 -7.00000000
-3.54736733 -5.78197956 1.07439196 82 9 21153 6.86800000 880563824 880563824 9.00000000
-2.67666674 -4.36279392 -0.44780621 3 10 21153 5.13800000 880563826 880563826 -5.00000000
-3.53892469 -5.76596069 1.31505561 65 11 21154 6.89200000 880563828 880563828 11.00000000
-3.57825351 -5.82775736 -0.35839662 7 12 21155 6.84800000 880563831 880563831 -3.00000000
-3.53209853 -5.75033569 1.55801105 90 13 21156 6.92600000 880563833 880563833 13.00000000
-3.57732654 -5.82168913 -0.11926974 8 14 21157 6.83400000 880563835 880563835 -1.00000000
-3.52574515 -5.73774624 1.80448639 69 15 21157 6.97200000 880563837 880563837 15.00000000
-1.01775336 -1.65110421 -0.51970863 4 0 21165 2.00800000 880563858 880563858 -15.00000000
-3.57072282 -5.79053116 0.11874618 14 1 21166 6.80400000 880563861 880563861 1.00000000
-1.16228640 -1.88410795 -0.51108879 4 2 21167 2.27200000 880563863 880563863 -13.00000000
-3.54111958 -5.73803997 0.35337237 25 3 21168 6.75200000 880563865 880563865 3.00000000
-1.35686362 -2.19866562 -0.50220925 3 4 21168 2.63200000 880563867 880563867 -11.00000000
-3.56069732 -5.76751184 0.59300768 10 5 21169 6.80400000 880563870 880563870 5.00000000
-1.62343895 -2.62857175 -0.48932701 1 6 21170 3.12800000 880563872 880563872 -9.00000000
-3.55800939 -5.75865984 0.83114892 10 7 21171 6.82000000 880563874 880563874 7.00000000
-3.60076237 -5.82558155 -0.84089845 2 8 21172 6.90000000 880563877 880563877 -7.00000000
-3.55402327 -5.74772024 1.07032466 67 9 21173 6.84200000 880563879 880563879 9.00000000
-2.69187927 -4.35342407 -0.44780621 3 10 21173 5.13800000 880563881 880563881 -5.00000000
-3.54870224 -5.73687601 1.31123936 71 11 21174 6.87200000 880563884 880563884 11.00000000
-3.58596253 -5.79485083 -0.35714057 10 12 21175 6.82400000 880563886 880563886 -3.00000000
-3.53471184 -5.70980310 1.55036271 23 13 21176 6.89200000 880563888 880563888 13.00000000
-3.57551622 -5.77346516 -0.11853675 8 14 21177 6.79200000 880563890 880563890 -1.00000000
-3.53657699 -5.70836306 1.79930997 72 15 21178 6.95200000 880563893 880563893 15.00000000
-1.01812732 -1.63951433 -0.51712048 4 0 21184 1.99800000 880563914 880563914 -15.00000000
-3.58146358 -5.76506948 0.11846694 14 1 21185 6.78800000 880563916 880563916 1.00000000
-1.17058516 -1.88355350 -0.51198858 4 2 21186 2.27600000 880563918 880563918 -13.00000000
-3.54114628 -5.69573498 0.35148829 32 3 21187 6.71600000 880563920 880563920 3.00000000
-1.35585451 -2.18081570 -0.49915633 3 4 21187 2.61600000 880563923 880563923 -11.00000000
-3.56401968 -5.73029470 0.59039301 10 5 21188 6.77400000 880563925 880563925 5.00000000
-1.63423383 -2.62652826 -0.48995274 2 6 21189 3.13200000 880563927 880563927 -9.00000000
-3.56659627 -5.72997618 0.82871151 10 7 21190 6.80000000 880563930 880563930 7.00000000
-2.03562832 -3.26910186 -0.47285306 1 8 21191 3.88000000 880563932 880563932 -7.00000000
-3.55635262 -5.70907640 1.06531870 40 9 21192 6.81000000 880563934 880563934 9.00000000
-2.69787335 -4.33094454 -0.44641173 3 10 21192 5.12200000 880563937 880563937 -5.00000000
-3.55109358 -5.69841766 1.30513358 78 11 21193 6.84000000 880563939 880563939 11.00000000
-3.57980061 -5.74225044 -0.35462844 10 12 21194 6.77600000 880563941 880563941 -3.00000000
-3.53712702 -5.67159367 1.54316425 48 13 21195 6.86000000 880563943 880563943 13.00000000
-3.56712127 -5.71746540 -0.11762922 8 14 21196 6.74000000 880563946 880563946 -1.00000000
-3.53608656 -5.66772223 1.78999257 67 15 21196 6.91600000 880563948 880563948 15.00000000
-1.01974452 -1.62940013 -0.51504987 4 0 21204 1.99000000 880563969 880563969 -15.00000000
-3.57822013 -5.71524477 0.11769903 11 1 21205 6.74400000 880563971 880563971 1.00000000
-1.17611849 -1.87780440 -0.51153868 4 2 21206 2.27400000 880563973 880563973 -13.00000000
-3.54934144 -5.66472197 0.35033688 37 3 21207 6.69400000 880563976 880563976 3.00000000
-1.37179792 -2.18937898 -0.50220925 3 4 21207 2.63200000 880563978 880563978 -11.00000000
-3.57447696 -5.70262527 0.58882421 10 5 21208 6.75600000 880563980 880563980 5.00000000
-1.64444160 -2.62248111 -0.49026561 1 6 21209 3.13400000 880563983 880563983 -9.00000000
-3.57180762 -5.69394922 0.82529920 10 7 21210 6.77200000 880563985 880563985 7.00000000
-2.05335832 -3.27206492 -0.47431549 1 8 21211 3.89200000 880563987 880563987 -7.00000000
-3.55735397 -5.66651344 1.05968702 50 9 21212 6.77400000 880563990 880563990 9.00000000
-2.70555949 -4.30968857 -0.44519153 3 10 21212 5.10800000 880563992 880563992 -5.00000000
-3.55634499 -5.66271114 1.29979086 84 11 21213 6.81200000 880563994 880563994 11.00000000
