# .PCD v0.7 - Point Cloud Data file format
VERSION 0.7
FIELDS x y z intensity laser_id azimuth distance_m adjustedtime timestamp vertical_angle
SIZE 4 4 4 1 1 2 8 8 4 8
TYPE F F F U U U F U U F
COUNT 1 1 1 1 1 1 1 1 1 1
WIDTH 534
HEIGHT 1
VIEWPOINT 0 0 0 1 0 0 0
POINTS 534
DATA ascii
-3.80191088 -0.56141734 -0.47187811 5 8 26160 3.87200000 887977644 887977644 -7.00000000
-4.98482704 -0.73520625 -0.44083375 9 10 26161 5.05800000 887977648 887977648 -5.00000000
-7.39216232 -1.08762491 -0.39157763 11 12 26163 7.48200000 887977653 887977653 -3.00000000
-10.22419548 -1.49883938 2.76884604 42 15 26166 10.69800000 887977660 887977660 15.00000000
-1.92323339 -0.27954105 -0.52074391 4 0 26173 2.01200000 887977680 887977680 -15.00000000
-2.19471645 -0.31821874 -0.51198858 4 2 26175 2.27600000 887977685 887977685 -13.00000000
-2.57251430 -0.37253839 -0.50526220 3 4 26176 2.64800000 887977690 887977690 -11.00000000
-3.06947947 -0.44341248 -0.49120423 2 6 26178 3.14000000 887977694 887977694 -9.00000000
-3.81170654 -0.54927528 -0.47285306 5 8 26180 3.88000000 887977699 887977699 -7.00000000
-4.99919558 -0.71950448 -0.44187963 6 10 26181 5.07000000 887977703 887977703 -5.00000000
-7.51651001 -1.07912862 -0.39796260 24 12 26183 7.60400000 887977708 887977708 -3.00000000
-10.22146034 -1.46383095 2.76677561 40 15 26185 10.69000000 887977715 887977715 15.00000000
-1.92419744 -0.27282602 -0.52074391 4 0 26193 2.01200000 887977736 887977736 -15.00000000
-2.20932078 -0.31246608 -0.51513791 4 2 26195 2.29000000 887977740 887977740 -13.00000000
-2.55435944 -0.36081049 -0.50144607 3 4 26196 2.62800000 887977745 887977745 -11.00000000
-3.07883263 -0.43379772 -0.49245569 3 6 26198 3.14800000 887977749 887977749 -9.00000000
-3.80966902 -0.53541410 -0.47236559 5 8 26200 3.87600000 887977754 887977754 -7.00000000
-5.01351500 -0.70371127 -0.44292548 6 10 26201 5.08200000 887977759 887977759 -5.00000000
-7.52418709 -1.05343831 -0.39817196 20 12 26203 7.60800000 887977763 887977763 -3.00000000
-10.21527672 -1.42475641 2.76366973 42 15 26206 10.67800000 887977770 887977770 15.00000000
-1.90982878 -0.26399148 -0.51660281 5 0 26213 1.99600000 887977791 887977791 -15.00000000
-2.20267606 -0.30368757 -0.51333833 4 2 26215 2.28200000 887977796 887977796 -13.00000000
-2.57505226 -0.35456991 -0.50526220 3 4 26216 2.64800000 887977800 887977800 -11.00000000
-3.07250023 -0.42197284 -0.49120423 2 6 26218 3.14000000 887977805 887977805 -9.00000000
-3.82331514 -0.52372903 -0.47382802 5 8 26220 3.88800000 887977809 887977809 -7.00000000
-5.00409651 -0.68458623 -0.44187963 6 10 26221 5.07000000 887977814 887977814 -5.00000000
-7.41501999 -1.01177633 -0.39220566 11 12 26223 7.49400000 887977819 887977819 -3.00000000
-10.21037483 -1.38957095 2.76108146 45 15 26225 10.66800000 887977826 887977826 15.00000000
-1.92031145 -0.25861251 -0.51919103 5 0 26233 2.00600000 887977846 887977846 -15.00000000
-2.19792843 -0.29521871 -0.51198858 4 2 26235 2.27600000 887977851 887977851 -13.00000000
-2.56849098 -0.34453511 -0.50373572 3 4 26236 2.64000000 887977855 887977855 -11.00000000
-3.06612277 -0.41019750 -0.48995274 2 6 26238 3.13200000 887977860 887977860 -9.00000000
-3.82511997 -0.51037997 -0.47382802 5 8 26240 3.88800000 887977865 887977865 -7.00000000
-5.01238060 -0.66790402 -0.44240254 6 10 26241 5.07600000 887977869 887977869 -5.00000000
-7.36703014 -0.97904593 -0.38948420 11 12 26243 7.44200000 887977874 887977874 -3.00000000
-10.20390797 -1.35061777 2.75797582 42 15 26246 10.65600000 887977881 887977881 15.00000000
-1.92886436 -0.25291243 -0.52126157 5 0 26253 2.01400000 887977902 887977902 -15.00000000
-2.18735194 -0.28602865 -0.50928921 4 2 26255 2.26400000 887977906 887977906 -13.00000000
-2.57746482 -0.33658418 -0.50526220 3 4 26256 2.64800000 887977911 887977911 -11.00000000
-3.07537127 -0.40051264 -0.49120423 2 6 26258 3.14000000 887977915 887977915 -9.00000000
-3.80325556 -0.49395666 -0.47090313 5 8 26260 3.86400000 887977920 887977920 -7.00000000
-5.02258492 -0.65142852 -0.44309980 6 10 26261 5.08400000 887977925 887977925 -5.00000000
-7.32880688 -0.94794405 -0.38728607 7 12 26263 7.40000000 887977929 887977929 -3.00000000
-10.21982670 -1.31825578 2.76108146 42 15 26265 10.66800000 887977936 887977936 15.00000000
-1.93356812 -0.24666682 -0.52229685 5 0 26273 2.01800000 887977957 887977957 -15.00000000
-2.19606948 -0.27937534 -0.51108879 4 2 26275 2.27200000 887977961 887977961 -13.00000000
-2.57083368 -0.32659540 -0.50373572 3 4 26276 2.64000000 887977966 887977966 -11.00000000
-3.06891155 -0.38878211 -0.48995274 2 6 26278 3.13200000 887977971 887977971 -9.00000000
-3.81677318 -0.48217058 -0.47236559 5 8 26280 3.87600000 887977975 887977975 -7.00000000
-5.01494455 -0.63264561 -0.44222823 6 10 26281 5.07400000 887977980 887977980 -5.00000000
-7.35585117 -0.92534733 -0.38854215 7 12 26283 7.42400000 887977984 887977984 -3.00000000
-10.21883869 -1.28006911 2.75952864 42 15 26286 10.66200000 887977991 887977991 15.00000000
-1.92866588 -0.23920257 -0.52074391 5 0 26293 2.01200000 887978012 887978012 -15.00000000
-2.20476747 -0.27266464 -0.51288843 4 2 26295 2.28000000 887978017 887978017 -13.00000000
-2.56806111 -0.31713828 -0.50297248 3 4 26296 2.63600000 887978021 887978021 -11.00000000
-3.09377694 -0.38096431 -0.49370718 3 6 26298 3.15600000 887978026 887978026 -9.00000000
-3.81843305 -0.46884462 -0.47236559 7 8 26300 3.87600000 887978031 887978031 -7.00000000
-5.01316738 -0.61465138 -0.44187963 6 10 26301 5.07000000 887978035 887978035 -5.00000000
-7.36300135 -0.90014976 -0.38875148 7 12 26303 7.42800000 887978040 887978040 -3.00000000
-10.20576859 -1.24407136 2.75486994 45 15 26305 10.64400000 887978047 887978047 15.00000000
-1.91414523 -0.23062016 -0.51660281 4 0 26313 1.99600000 887978067 887978067 -15.00000000
-2.21344519 -0.26589662 -0.51468801 4 2 26315 2.28800000 887978072 887978072 -13.00000000
-2.57305098 -0.30863979 -0.50373572 3 4 26316 2.64000000 887978077 887978077 -11.00000000
-3.07939672 -0.36828607 -0.49120423 2 6 26318 3.14000000 887978081 887978081 -9.00000000
-3.83975768 -0.45786339 -0.47480297 7 8 26320 3.89600000 887978086 887978086 -7.00000000
-5.01923895 -0.59761959 -0.44222823 9 10 26321 5.07400000 887978090 887978090 -5.00000000
-7.35023165 -0.87255901 -0.38791412 7 12 26323 7.41200000 887978095 887978095 -3.00000000
-10.19874859 -1.20529652 2.75176406 45 15 26326 10.63200000 887978102 887978102 15.00000000
-1.92069495 -0.22461030 -0.51815575 5 0 26333 2.00200000 887978123 887978123 -15.00000000
-2.20274591 -0.25681460 -0.51198858 4 2 26335 2.27600000 887978127 887978127 -13.00000000
-2.57801294 -0.30011031 -0.50449896 3 4 26336 2.64400000 887978132 887978132 -11.00000000
-3.08458781 -0.35799018 -0.49182996 3 6 26338 3.14400000 887978137 887978137 -9.00000000
-3.84922028 -0.44536999 -0.47577792 7 8 26340 3.90400000 887978141 887978141 -7.00000000
-5.01931524 -0.57986689 -0.44205391 9 10 26341 5.07200000 887978146 887978146 -5.00000000
-7.32942295 -0.84415436 -0.38665804 7 12 26343 7.38800000 887978150 887978150 -3.00000000
-10.19885159 -1.17102897 2.75072885 45 15 26345 10.62800000 887978157 887978157 15.00000000
-1.92722583 -0.21855752 -0.51970863 4 0 26353 2.00800000 887978178 887978178 -15.00000000
-2.19201064 -0.24781053 -0.50928921 4 2 26355 2.26400000 887978183 887978183 -13.00000000
-2.59465170 -0.29287118 -0.50755191 3 4 26356 2.66000000 887978187 887978187 -11.00000000
-3.08974457 -0.34766254 -0.49245569 3 6 26358 3.14800000 887978192 887978192 -9.00000000
-3.84483337 -0.43126714 -0.47504669 7 8 26360 3.89800000 887978196 887978196 -7.00000000
-5.02922916 -0.56322962 -0.44275117 9 10 26361 5.08000000 887978201 887978201 -5.00000000
-7.33629513 -0.81900793 -0.38686737 7 12 26363 7.39200000 887978206 887978206 -3.00000000
-10.21843529 -1.13534701 2.75486994 45 15 26366 10.64400000 887978213 887978213 15.00000000
-1.93565822 -0.21267286 -0.52177918 5 0 26373 2.01600000 887978233 887978233 -15.00000000
-2.20061088 -0.24100609 -0.51108879 4 2 26375 2.27200000 887978238 887978238 -13.00000000
-2.57614207 -0.28167844 -0.50373572 3 4 26376 2.64000000 887978243 887978243 -11.00000000
-3.08308434 -0.33601910 -0.49120423 2 6 26378 3.14000000 887978247 887978247 -9.00000000
-3.83842134 -0.41698599 -0.47407174 7 8 26380 3.89000000 887978252 887978252 -7.00000000
-5.03710651 -0.54631537 -0.44327411 9 10 26381 5.08600000 887978256 887978256 -5.00000000
-7.34308052 -0.79382384 -0.38707674 7 12 26383 7.39600000 887978261 887978261 -3.00000000
-10.22214413 -1.10145521 2.75486994 47 15 26385 10.64400000 887978268 887978268 15.00000000
-1.93446779 -0.20571057 -0.52126157 5 0 26393 2.01400000 887978289 887978289 -15.00000000
-2.21112823 -0.23435001 -0.51333833 4 2 26395 2.28200000 887978293 887978293 -13.00000000
-2.57710958 -0.27268431 -0.50373572 3 4 26396 2.64000000 887978298 887978298 -11.00000000
-3.09995437 -0.32691243 -0.49370718 3 6 26398 3.15600000 887978302 887978302 -9.00000000
-3.83590508 -0.40316987 -0.47358426 7 8 26400 3.88600000 887978307 887978307 -7.00000000
-5.03700161 -0.52852136 -0.44309980 9 10 26401 5.08400000 887978312 887978312 -5.00000000
-7.36964369 -0.77067965 -0.38833278 7 12 26403 7.42000000 887978316 887978316 -3.00000000
-10.22400475 -1.06556630 2.75435233 42 15 26405 10.64200000 887978323 887978323 15.00000000
-1.92556548 -0.19796890 -0.51867336 5 0 26413 2.00400000 887978344 887978344 -15.00000000
-2.20417833 -0.22583580 -0.51153868 4 2 26415 2.27400000 887978349 887978349 -13.00000000
-2.58585787 -0.26448590 -0.50526220 3 4 26416 2.64800000 887978353 887978353 -11.00000000
-3.09321594 -0.31528834 -0.49245569 3 6 26418 3.14800000 887978358 887978358 -9.00000000
-3.84518886 -0.39058003 -0.47455922 7 8 26420 3.89400000 887978362 887978362 -7.00000000
-5.03088665 -0.51013172 -0.44240254 9 10 26421 5.07600000 887978367 887978367 -5.00000000
-7.35639191 -0.74334371 -0.38749543 7 12 26423 7.40400000 887978372 887978372 -3.00000000
-10.21228504 -1.02832305 2.75021124 42 15 26425 10.62600000 887978378 887978378 15.00000000
-1.93201196 -0.19181880 -0.52022630 5 0 26433 2.01000000 887978399 887978399 -15.00000000
-2.21271038 -0.21890783 -0.51333833 4 2 26435 2.28200000 887978404 887978404 -13.00000000
-2.57504296 -0.25430030 -0.50297248 3 4 26436 2.63600000 887978408 887978408 -11.00000000
-3.08643413 -0.30371526 -0.49120423 2 6 26438 3.14000000 887978413 887978413 -9.00000000
-3.85443115 -0.37793028 -0.47553417 7 8 26440 3.90200000 887978418 887978418 -7.00000000
-5.03660250 -0.49295571 -0.44275117 9 10 26441 5.08000000 887978422 887978422 -5.00000000
-7.38677168 -0.72037458 -0.38896084 7 12 26443 7.43200000 887978427 887978427 -3.00000000
-10.21790791 -0.99107271 2.75072885 42 15 26446 10.62800000 887978434 887978434 15.00000000
-1.93074667 -0.18488951 -0.51970863 5 0 26453 2.00800000 887978455 887978455 -15.00000000
-2.20376134 -0.21025728 -0.51108879 4 2 26455 2.27200000 887978459 887978459 -13.00000000
-2.59545898 -0.24717140 -0.50678867 3 4 26456 2.65600000 887978464 887978464 -11.00000000
-3.09534168 -0.29368609 -0.49245569 3 6 26458 3.14800000 887978468 887978468 -9.00000000
-3.85967946 -0.36484712 -0.47602165 7 8 26460 3.90600000 887978473 887978473 -7.00000000
-5.03630924 -0.47518453 -0.44257686 9 10 26461 5.07800000 887978478 887978478 -5.00000000
-7.42105722 -0.69757622 -0.39063558 11 12 26463 7.46400000 887978482 887978482 -3.00000000
-10.23267937 -0.95826423 2.75383472 45 15 26465 10.64000000 887978489 887978489 15.00000000
-1.94099879 -0.17903601 -0.52229685 4 0 26473 2.01800000 887978510 887978510 -15.00000000
-2.21030354 -0.20309837 -0.51243848 4 2 26475 2.27800000 887978514 887978514 -13.00000000
-2.58653069 -0.23721355 -0.50488061 4 4 26476 2.64600000 887978519 887978519 -11.00000000
-3.10421658 -0.28359842 -0.49370718 3 6 26478 3.15600000 887978524 887978524 -9.00000000
-3.84116030 -0.34957299 -0.47358426 7 8 26480 3.88600000 887978528 887978528 -7.00000000
-5.05976343 -0.45958415 -0.44449428 9 10 26481 5.10000000 887978533 887978533 -5.00000000
-7.43935966 -0.67310745 -0.39147297 11 12 26483 7.48000000 887978537 887978537 -3.00000000
-10.23596191 -0.92253965 2.75383472 42 15 26485 10.64000000 887978544 887978544 15.00000000
-1.93776333 -0.17191812 -0.52126157 5 0 26493 2.01400000 887978565 887978565 -15.00000000
-2.21488142 -0.19572480 -0.51333833 4 2 26495 2.28200000 887978570 887978570 -13.00000000
-2.58929873 -0.22835590 -0.50526220 3 4 26496 2.64800000 887978574 887978574 -11.00000000
-3.11699462 -0.27379808 -0.49558440 3 6 26498 3.16800000 887978579 887978579 -9.00000000
-3.85224485 -0.33702776 -0.47480297 7 8 26500 3.89600000 887978583 887978583 -7.00000000
-5.05935192 -0.44174618 -0.44431996 6 10 26501 5.09800000 887978588 887978588 -5.00000000
-7.44962311 -0.64782727 -0.39189163 11 12 26503 7.48800000 887978593 887978593 -3.00000000
-10.23142147 -0.88613713 2.75176406 45 15 26505 10.63200000 887978600 887978600 15.00000000
-1.92487741 -0.16400498 -0.51763809 5 0 26513 2.00000000 887978620 887978620 -15.00000000
-2.21555114 -0.18799223 -0.51333833 4 2 26515 2.28200000 887978625 887978625 -13.00000000
-2.58225489 -0.21865359 -0.50373572 3 4 26516 2.64000000 887978630 887978630 -11.00000000
-3.09824729 -0.26125625 -0.49245569 3 6 26518 3.14800000 887978634 887978634 -9.00000000
-3.85933232 -0.32407719 -0.47553417 7 8 26520 3.90200000 887978639 887978639 -7.00000000
-5.06483412 -0.42441580 -0.44466859 6 10 26521 5.10200000 887978643 887978643 -5.00000000
-7.44188738 -0.62098891 -0.39136827 11 12 26523 7.47800000 887978648 887978648 -3.00000000
-10.22304916 -0.84767330 2.74865818 47 15 26526 10.62000000 887978655 887978655 15.00000000
-1.93888855 -0.15872431 -0.52126157 5 0 26532 2.01400000 887978676 887978676 -15.00000000
-2.21227765 -0.18032752 -0.51243848 4 2 26534 2.27800000 887978680 887978680 -13.00000000
-2.59079313 -0.21072595 -0.50526220 3 4 26535 2.64800000 887978685 887978685 -11.00000000
-3.09909678 -0.25098065 -0.49245569 3 6 26537 3.14800000 887978689 887978689 -9.00000000
-3.87027907 -0.31207514 -0.47675288 5 8 26539 3.91200000 887978694 887978694 -7.00000000
-5.04635382 -0.40602002 -0.44292548 6 10 26540 5.08200000 887978699 887978699 -5.00000000
-7.46779633 -0.59822106 -0.39262435 12 12 26542 7.50200000 887978703 887978703 -3.00000000
-10.21795845 -0.81493819 2.74658775 47 15 26544 10.61200000 887978710 887978710 15.00000000
-1.93557894 -0.15165356 -0.52022630 5 0 26552 2.01000000 887978731 887978731 -15.00000000
-2.20512247 -0.17199798 -0.51063889 4 2 26554 2.27000000 887978735 887978735 -13.00000000
-2.59934211 -0.20229042 -0.50678867 3 4 26555 2.65600000 887978740 887978740 -11.00000000
-3.09207606 -0.23955093 -0.49120423 2 6 26557 3.14000000 887978745 887978745 -9.00000000
-3.85946941 -0.29764760 -0.47529045 5 8 26559 3.90000000 887978749 887978749 -7.00000000
-5.07356548 -0.39038956 -0.44519153 6 10 26560 5.10800000 887978754 887978754 -5.00000000
-7.53356457 -0.57703102 -0.39597383 16 12 26562 7.56600000 887978759 887978759 -3.00000000
-10.23229885 -0.78014708 2.74969363 42 15 26564 10.62400000 887978765 887978765 15.00000000
-1.94768071 -0.14542133 -0.52333212 5 0 26573 2.02200000 887978786 887978786 -15.00000000
-2.20962477 -0.16420348 -0.51153868 4 2 26575 2.27400000 887978791 887978791 -13.00000000
-2.59223461 -0.19218139 -0.50526220 3 4 26576 2.64800000 887978795 887978795 -11.00000000
-3.10081339 -0.22879775 -0.49245569 4 6 26578 3.14800000 887978800 887978800 -9.00000000
-3.84667611 -0.28248224 -0.47358426 5 8 26580 3.88600000 887978805 887978805 -7.00000000
-5.07893610 -0.37208256 -0.44554016 6 10 26581 5.11200000 887978809 887978809 -5.00000000
-7.54558897 -0.55014139 -0.39649719 16 12 26583 7.57600000 887978814 887978814 -3.00000000
-10.24677944 -0.74168903 2.75279927 47 15 26586 10.63600000 887978821 887978821 15.00000000
-1.93854153 -0.13793619 -0.52074391 4 0 26593 2.01200000 887978841 887978841 -15.00000000
-2.21407223 -0.15676472 -0.51243848 4 2 26595 2.27800000 887978846 887978846 -13.00000000
-2.58113933 -0.18230173 -0.50297248 3 4 26596 2.63600000 887978851 887978851 -11.00000000
-3.11341619 -0.21880339 -0.49433291 4 6 26598 3.16000000 887978855 887978855 -9.00000000
-3.87338209 -0.27085325 -0.47675288 5 8 26600 3.91200000 887978860 887978860 -7.00000000
-5.07026625 -0.35365832 -0.44466859 6 10 26601 5.10200000 887978865 887978865 -5.00000000
-7.52156115 -0.52200139 -0.39513648 12 12 26603 7.55000000 887978869 887978869 -3.00000000
-10.23388767 -0.70485461 2.74865818 47 15 26606 10.62000000 887978876 887978876 15.00000000
-1.92937398 -0.13051665 -0.51815575 5 0 26613 2.00200000 887978897 887978897 -15.00000000
-2.21460581 -0.14903522 -0.51243848 4 2 26615 2.27800000 887978901 887978901 -13.00000000
-2.59351325 -0.17407964 -0.50526220 3 4 26616 2.64800000 887978906 887978906 -11.00000000
-3.09839296 -0.20688137 -0.49182996 3 6 26618 3.14400000 887978911 887978911 -9.00000000
-3.88618827 -0.25812036 -0.47821531 5 8 26620 3.92400000 887978915 887978915 -7.00000000
-5.05954170 -0.33516744 -0.44362274 6 10 26621 5.09000000 887978920 887978920 -5.00000000
-7.53130913 -0.49626836 -0.39555517 12 12 26623 7.55800000 887978924 887978924 -3.00000000
-10.23628616 -0.66912740 2.74865818 45 15 26626 10.62000000 887978931 887978931 15.00000000
-1.92788994 -0.12365742 -0.51763809 5 0 26633 2.00000000 887978952 887978952 -15.00000000
-2.21122313 -0.14105576 -0.51153868 4 2 26635 2.27400000 887978957 887978957 -13.00000000
-2.60586071 -0.16577338 -0.50755191 3 4 26636 2.66000000 887978961 887978961 -11.00000000
-3.10303926 -0.19631416 -0.49245569 3 6 26638 3.14800000 887978966 887978966 -9.00000000
-3.89499044 -0.24505202 -0.47919026 5 8 26640 3.93200000 887978971 887978971 -7.00000000
-5.06863451 -0.31800333 -0.44431996 6 10 26641 5.09800000 887978975 887978975 -5.00000000
-7.56090307 -0.47171727 -0.39702058 16 12 26643 7.58600000 887978980 887978980 -3.00000000
-10.24241543 -0.63363057 2.74969363 45 15 26646 10.62400000 887978987 887978987 15.00000000
-1.94180799 -0.11774556 -0.52126157 4 0 26653 2.01400000 887979007 887979007 -15.00000000
-2.20781159 -0.13310176 -0.51063889 4 2 26655 2.27000000 887979012 887979012 -13.00000000
-2.61818194 -0.15738302 -0.50984162 3 4 26656 2.67200000 887979017 887979017 -11.00000000
-3.10764933 -0.18571702 -0.49308142 3 6 26658 3.15200000 887979021 887979021 -9.00000000
-3.87204289 -0.23004173 -0.47626540 5 8 26660 3.90800000 887979026 887979026 -7.00000000
-5.08761406 -0.30136889 -0.44588879 6 10 26661 5.11600000 887979030 887979030 -5.00000000
-7.58842278 -0.44684821 -0.39838129 20 12 26663 7.61200000 887979035 887979035 -3.00000000
-10.25024605 -0.60000068 2.75124645 47 15 26665 10.63000000 887979042 887979042 15.00000000
-1.94413590 -0.11107687 -0.52177918 5 0 26673 2.01600000 887979063 887979063 -15.00000000
-2.21215391 -0.12561521 -0.51153868 4 2 26675 2.27400000 887979067 887979067 -13.00000000
-2.61087489 -0.14779906 -0.50831515 3 4 26676 2.66400000 887979072 887979072 -11.00000000
-3.12011218 -0.17553391 -0.49495864 3 6 26678 3.16400000 887979076 887979076 -9.00000000
-3.86885834 -0.21630275 -0.47577792 5 8 26680 3.90400000 887979081 887979081 -7.00000000
-5.09659195 -0.28405145 -0.44658601 6 10 26681 5.12400000 887979086 887979086 -5.00000000
-7.60589027 -0.42124051 -0.39921868 20 12 26683 7.62800000 887979090 887979090 -3.00000000
-10.26587868 -0.56316835 2.75486994 45 15 26686 10.64400000 887979097 887979097 15.00000000
-1.94256449 -0.10452548 -0.52126157 5 0 26692 2.01400000 887979118 887979118 -15.00000000
-2.21255827 -0.11827875 -0.51153868 4 2 26694 2.27400000 887979123 887979123 -13.00000000
-2.59566665 -0.13830461 -0.50526220 3 4 26695 2.64800000 887979127 887979127 -11.00000000
-3.12067699 -0.16518627 -0.49495864 3 6 26697 3.16400000 887979132 887979132 -9.00000000
-3.87748361 -0.20388892 -0.47675288 5 8 26699 3.91200000 887979136 887979136 -7.00000000
-5.08158875 -0.26631477 -0.44519153 6 10 26700 5.10800000 887979141 887979141 -5.00000000
-7.61322880 -0.39632764 -0.39953268 32 12 26702 7.63400000 887979146 887979146 -3.00000000
-10.26759720 -0.53091443 2.75486994 45 15 26704 10.64400000 887979153 887979153 15.00000000
-1.93327045 -0.09725870 -0.51867336 5 0 26712 2.00400000 887979173 887979173 -15.00000000
-2.22074294 -0.11094369 -0.51333833 4 2 26714 2.28200000 887979178 887979178 -13.00000000
-2.60005546 -0.12943843 -0.50602543 3 4 26715 2.65200000 887979182 887979182 -11.00000000
-3.11334276 -0.15390195 -0.49370718 3 6 26717 3.15600000 887979187 887979187 -9.00000000
-3.89006805 -0.19093664 -0.47821531 5 8 26719 3.92400000 887979192 887979192 -7.00000000
-5.07850742 -0.24838045 -0.44484290 6 10 26720 5.10400000 887979196 887979196 -5.00000000
-7.63451481 -0.37071881 -0.40057942 32 12 26722 7.65400000 887979201 887979201 -3.00000000
-10.25403690 -0.49253672 2.75072885 45 15 26725 10.62800000 887979208 887979208 15.00000000
-1.93744183 -0.09102854 -0.51970863 5 0 26731 2.00800000 887979229 887979229 -15.00000000
-2.21525884 -0.10330649 -0.51198858 4 2 26733 2.27600000 887979233 887979233 -13.00000000
-2.59262586 -0.12045117 -0.50449896 3 4 26734 2.64400000 887979238 887979238 -11.00000000
-5.63044214 -0.26060069 0.49312720 2 5 26735 5.65800000 887979240 887979240 5.00000000
-3.11383605 -0.14357689 -0.49370718 4 6 26736 3.15600000 887979242 887979242 -9.00000000
-3.89067984 -0.17803566 -0.47821531 5 8 26738 3.92400000 887979247 887979247 -7.00000000
-5.08328390 -0.23171960 -0.44519153 6 10 26739 5.10800000 887979252 887979252 -5.00000000
-7.64168787 -0.34567055 -0.40089342 20 12 26741 7.66000000 887979256 887979256 -3.00000000
-7.62915564 -0.34243515 -0.13330148 2 14 26743 7.63800000 887979261 887979261 -1.00000000
-10.27290344 -0.46109995 2.75538754 47 15 26743 10.64600000 887979263 887979263 15.00000000
-1.93967772 -0.08434898 -0.52022630 5 0 26751 2.01000000 887979284 887979284 -15.00000000
-2.21171212 -0.09540520 -0.51108879 4 2 26753 2.27200000 887979288 887979288 -13.00000000
-2.61264491 -0.11224315 -0.50831515 3 4 26754 2.66400000 887979293 887979293 -11.00000000
-5.59150600 -0.23924179 0.48964095 2 5 26755 5.61800000 887979295 887979295 5.00000000
-3.11431813 -0.13270670 -0.49370718 4 6 26756 3.15600000 887979298 887979298 -9.00000000
-3.87937760 -0.16395065 -0.47675288 5 8 26758 3.91200000 887979302 887979302 -7.00000000
-5.10396814 -0.21481203 -0.44693464 6 10 26759 5.12800000 887979307 887979307 -5.00000000
-7.52311659 -0.31399670 -0.39461312 8 12 26761 7.54000000 887979311 887979311 -3.00000000
-7.16876984 -0.29670042 -0.12523846 4 14 26763 7.17600000 887979316 887979316 -1.00000000
-10.28803539 -0.42400163 2.75901103 45 15 26764 10.66000000 887979318 887979318 15.00000000
-1.95154226 -0.07804088 -0.52333212 5 0 26771 2.02200000 887979339 887979339 -15.00000000
-7.03735161 -0.28018880 0.12293475 3 1 26772 7.04400000 887979341 887979341 1.00000000
-2.21982050 -0.08799306 -0.51288843 4 2 26773 2.28000000 887979344 887979344 -13.00000000
-7.33222198 -0.28936550 0.38456461 2 3 26774 7.34800000 887979346 887979346 3.00000000
-2.60517383 -0.10281295 -0.50678867 3 4 26774 2.65600000 887979348 887979348 -11.00000000
-5.62017918 -0.22081743 0.49208131 2 5 26775 5.64600000 887979351 887979351 5.00000000
-3.13844895 -0.12276139 -0.49746159 3 6 26776 3.18000000 887979353 887979353 -9.00000000
-3.87595916 -0.15025431 -0.47626540 5 8 26778 3.90800000 887979358 887979358 -7.00000000
-5.10667753 -0.19707137 -0.44710895 6 10 26779 5.13000000 887979362 887979362 -5.00000000
-7.36849451 -0.28178108 -0.38644871 7 12 26781 7.38400000 887979367 887979367 -3.00000000
-7.03587818 -0.26660183 -0.12289985 2 14 26783 7.04200000 887979371 887979371 -1.00000000
-10.28552437 -0.38973665 2.75797582 45 15 26783 10.65600000 887979374 887979374 15.00000000
-1.94408047 -0.07094643 -0.52126157 5 0 26791 2.01400000 887979394 887979394 -15.00000000
-2.21816659 -0.08017351 -0.51243848 4 2 26793 2.27800000 887979399 887979399 -13.00000000
-6.33520317 -0.22787273 0.33222866 2 3 26794 6.34800000 887979401 887979401 3.00000000
-2.60551691 -0.09371857 -0.50678867 3 4 26794 2.65600000 887979404 887979404 -11.00000000
-5.57711124 -0.19963004 0.48824647 2 5 26795 5.60200000 887979406 887979406 5.00000000
-3.13096189 -0.11152414 -0.49621013 3 6 26796 3.17200000 887979408 887979408 -9.00000000
-3.90026617 -0.13756342 -0.47919026 5 8 26798 3.93200000 887979413 887979413 -7.00000000
-5.10733461 -0.17924453 -0.44710895 6 10 26799 5.13000000 887979417 887979417 -5.00000000
-7.35745716 -0.25564238 -0.38582066 7 12 26801 7.37200000 887979422 887979422 -3.00000000
-6.16341543 -0.21200018 -0.10764644 4 14 26803 6.16800000 887979427 887979427 -1.00000000
-10.10153484 -0.34569272 2.70828247 42 15 26804 10.46400000 887979429 887979429 15.00000000
-1.93081176 -0.06337691 -0.51763809 5 0 26812 2.00000000 887979450 887979450 -15.00000000
-5.64213371 -0.18421143 0.09853629 2 1 26813 5.64600000 887979452 887979452 1.00000000
-2.23013186 -0.07242249 -0.51513791 4 2 26814 2.29000000 887979454 887979454 -13.00000000
-5.88085842 -0.18995064 0.30836347 2 3 26815 5.89200000 887979457 887979457 3.00000000
-2.60191846 -0.08404148 -0.50602543 3 4 26815 2.65200000 887979459 887979459 -11.00000000
-5.56585693 -0.17880373 0.48720059 2 5 26816 5.59000000 887979461 887979461 5.00000000
-3.13134956 -0.10004784 -0.49621013 3 6 26817 3.17200000 887979464 887979464 -9.00000000
-3.92058539 -0.12389430 -0.48162764 5 8 26819 3.95200000 887979468 887979468 -7.00000000
-5.09999132 -0.16027369 -0.44641173 6 10 26820 5.12200000 887979473 887979473 -5.00000000
-5.99825478 -0.18431114 -0.10474934 2 14 26824 6.00200000 887979482 887979482 -1.00000000
-10.26487827 -0.31541365 2.75176406 42 15 26824 10.63200000 887979484 887979484 15.00000000
-1.94067633 -0.05691992 -0.52022630 5 0 26832 2.01000000 887979505 887979505 -15.00000000
-5.24497175 -0.15291850 0.09159023 4 1 26833 5.24800000 887979507 887979507 1.00000000
-2.22063136 -0.06435517 -0.51288843 4 2 26834 2.28000000 887979510 887979510 -13.00000000
-5.56006002 -0.16016252 0.29151127 2 3 26835 5.57000000 887979512 887979512 3.00000000
-2.60612082 -0.07507165 -0.50678867 3 4 26835 2.65600000 887979514 887979514 -11.00000000
-5.54254818 -0.15868992 0.48510885 2 5 26836 5.56600000 887979517 887979517 5.00000000
-3.10403562 -0.08833013 -0.49182996 3 6 26837 3.14400000 887979519 887979519 -9.00000000
-3.91305661 -0.10998506 -0.48065269 5 8 26839 3.94400000 887979523 887979523 -7.00000000
-4.96907330 -0.13879879 -0.43490717 6 10 26840 4.99000000 887979528 887979528 -5.00000000
-5.06112671 -0.13960205 -0.26534331 2 12 26842 5.07000000 887979533 887979533 -3.00000000
-5.09933233 -0.13887453 -0.08904218 2 14 26844 5.10200000 887979537 887979537 -1.00000000
-10.27369022 -0.27799788 2.75383472 45 15 26845 10.64000000 887979540 887979540 15.00000000
-1.94471681 -0.05058455 -0.52126157 5 0 26851 2.01400000 887979560 887979560 -15.00000000
-5.10152006 -0.13180603 0.08907709 6 1 26852 5.10400000 887979563 887979563 1.00000000
-2.21498823 -0.05684097 -0.51153868 4 2 26853 2.27400000 887979565 887979565 -13.00000000
-4.89169598 -0.12467624 0.25644618 4 3 26854 4.90000000 887979567 887979567 3.00000000
-2.61420584 -0.06662911 -0.50831515 3 4 26854 2.66400000 887979570 887979570 -11.00000000
-5.57092857 -0.14101513 0.48754922 2 5 26855 5.59400000 887979572 887979572 5.00000000
-3.13590741 -0.07883055 -0.49683586 3 6 26856 3.17600000 887979574 887979574 -9.00000000
-3.88561702 -0.09631959 -0.47724035 5 8 26858 3.91600000 887979579 887979579 -7.00000000
-4.82808971 -0.11883914 -0.42253104 5 10 26859 4.84800000 887979583 887979583 -5.00000000
-4.80598783 -0.11661652 -0.25194529 2 12 26861 4.81400000 887979588 887979588 -3.00000000
-4.86386824 -0.11632217 -0.08492341 2 14 26863 4.86600000 887979593 887979593 -1.00000000
-10.27451324 -0.24572082 2.75383472 45 15 26863 10.64000000 887979595 887979595 15.00000000
-1.95067561 -0.04392639 -0.52281445 5 0 26871 2.02000000 887979616 887979616 -15.00000000
-4.67212200 -0.10439357 0.08157255 2 1 26872 4.67400000 887979618 887979618 1.00000000
-2.22296619 -0.04928163 -0.51333833 4 2 26873 2.28200000 887979620 887979620 -13.00000000
-4.80624008 -0.10571178 0.25194529 6 3 26874 4.81400000 887979623 887979623 3.00000000
-2.60657144 -0.05733074 -0.50678867 3 4 26874 2.65600000 887979625 887979625 -11.00000000
-3.13221383 -0.06779821 -0.49621013 3 6 26876 3.17200000 887979629 887979629 -9.00000000
-3.89386821 -0.08292473 -0.47821531 5 8 26878 3.92400000 887979634 887979634 -7.00000000
-4.79461193 -0.10126999 -0.41956773 5 10 26879 4.81400000 887979639 887979639 -5.00000000
-4.65460682 -0.09668738 -0.24399023 4 12 26881 4.66200000 887979643 887979643 -3.00000000
-4.65831900 -0.09513774 -0.08132821 1 14 26883 4.66000000 887979648 887979648 -1.00000000
-10.28689671 -0.21009126 2.75694036 45 15 26883 10.65200000 887979650 887979650 15.00000000
-1.94309747 -0.03663087 -0.52074391 4 0 26892 2.01200000 887979671 887979671 -15.00000000
-4.60049677 -0.08592437 0.08031598 8 1 26893 4.60200000 887979673 887979673 1.00000000
-2.21338987 -0.04095347 -0.51108879 4 2 26894 2.27200000 887979676 887979676 -13.00000000
-4.77065086 -0.08743653 0.25006118 4 3 26895 4.77800000 887979678 887979678 3.00000000
-2.59891224 -0.04763289 -0.50526220 3 4 26895 2.64800000 887979680 887979680 -11.00000000
-3.15219188 -0.05667271 -0.49933881 3 6 26897 3.19200000 887979685 887979685 -9.00000000
-3.90803957 -0.06889737 -0.47992146 5 8 26899 3.93800000 887979689 887979689 -7.00000000
-4.76307726 -0.08313983 -0.41677877 5 10 26900 4.78200000 887979694 887979694 -5.00000000
-4.65293312 -0.07959258 -0.24388556 4 12 26902 4.66000000 887979699 887979699 -3.00000000
-4.59265566 -0.07695788 -0.08017635 1 14 26904 4.59400000 887979703 887979703 -1.00000000
-10.26828194 -0.17206281 2.75176406 45 15 26904 10.63200000 887979705 887979705 15.00000000
-1.93741870 -0.02975895 -0.51919103 5 0 26912 2.00600000 887979726 887979726 -15.00000000
-4.57677507 -0.06950076 0.07989711 8 1 26913 4.57800000 887979729 887979729 1.00000000
-2.23495317 -0.03354879 -0.51603770 4 2 26914 2.29400000 887979731 887979731 -13.00000000
-4.74895954 -0.07045740 0.24890980 4 3 26915 4.75600000 887979733 887979733 3.00000000
-2.60298872 -0.03861895 -0.50602543 3 4 26915 2.65200000 887979735 887979735 -11.00000000
-5.34899044 -0.07842591 0.46802634 5 5 26916 5.37000000 887979738 887979738 5.00000000
-3.12471795 -0.04526856 -0.49495864 3 6 26917 3.16400000 887979740 887979740 -9.00000000
-3.91421080 -0.05533954 -0.48065269 5 8 26919 3.94400000 887979745 887979745 -7.00000000
-4.74740124 -0.06629054 -0.41538426 8 10 26920 4.76600000 887979749 887979749 -5.00000000
-4.64519405 -0.06324157 -0.24346687 6 12 26922 4.65200000 887979754 887979754 -3.00000000
-4.52491236 -0.06002424 -0.07898960 5 14 26924 4.52600000 887979758 887979758 -1.00000000
-10.26884365 -0.13442652 2.75176406 47 15 26925 10.63200000 887979761 887979761 15.00000000
-1.93943846 -0.02335734 -0.51970863 4 0 26931 2.00800000 887979782 887979782 -15.00000000
-4.53099060 -0.05377740 0.07909431 6 1 26932 4.53200000 887979784 887979784 1.00000000
-2.22141194 -0.02597772 -0.51288843 4 2 26933 2.28000000 887979786 887979786 -13.00000000
-4.70323324 -0.05417975 0.24650235 4 3 26934 4.71000000 887979788 887979788 3.00000000
-2.61095500 -0.03007737 -0.50755191 3 4 26934 2.66000000 887979791 887979791 -11.00000000
-5.23964691 -0.05944446 0.45843920 7 5 26935 5.26000000 887979793 887979793 5.00000000
-3.14065289 -0.03508289 -0.49746159 3 6 26936 3.18000000 887979795 887979795 -9.00000000
-3.91437292 -0.04235924 -0.48065269 5 8 26938 3.94400000 887979800 887979800 -7.00000000
-4.77947140 -0.05088660 -0.41817325 8 10 26939 4.79800000 887979805 887979805 -5.00000000
-4.64937258 -0.04787834 -0.24367622 4 12 26941 4.65600000 887979809 887979809 -3.00000000
-4.49309301 -0.04470046 -0.07843111 5 14 26943 4.49400000 887979814 887979814 -1.00000000
-10.26535130 -0.10212696 2.75072885 45 15 26943 10.62800000 887979816 887979816 15.00000000
-1.95303059 -0.01670295 -0.52333212 5 0 26951 2.02200000 887979837 887979837 -15.00000000
-4.50515556 -0.03774318 0.07864054 4 1 26952 4.50600000 887979839 887979839 1.00000000
-2.20979691 -0.01812748 -0.51018900 4 2 26953 2.26800000 887979841 887979841 -13.00000000
-4.62150860 -0.03710465 0.24221081 1 3 26954 4.62800000 887979844 887979844 3.00000000
-2.60908103 -0.02094750 -0.50717032 3 4 26954 2.65800000 887979846 887979846 -11.00000000
-5.15415239 -0.04048145 0.45094383 7 5 26955 5.17400000 887979848 887979848 5.00000000
-3.13680577 -0.02408941 -0.49683586 3 6 26956 3.17600000 887979851 887979851 -9.00000000
-6.30050564 -0.04728565 0.77362657 5 7 26957 6.34800000 887979853 887979853 7.00000000
-3.90655661 -0.02863707 -0.47967774 5 8 26958 3.93600000 887979855 887979855 -7.00000000
-4.76766586 -0.03411728 -0.41712737 8 10 26959 4.78600000 887979860 887979860 -5.00000000
-4.48122406 -0.02893888 -0.07822169 1 14 26963 4.48200000 887979869 887979869 -1.00000000
-10.28110027 -0.06639337 2.75486994 45 15 26963 10.64400000 887979871 887979871 15.00000000
-1.95501053 -0.00955406 -0.52384973 5 0 26972 2.02400000 887979892 887979892 -15.00000000
-4.44927263 -0.02096686 0.07766321 4 1 26973 4.45000000 887979894 887979894 1.00000000
-2.22154093 -0.01008110 -0.51288843 4 2 26974 2.28000000 887979897 887979897 -13.00000000
-4.55370378 -0.02066419 0.23865196 1 3 26974 4.56000000 887979899 887979899 3.00000000
-2.62680936 -0.01146169 -0.51060486 3 4 26975 2.67600000 887979901 887979901 -11.00000000
-5.08054829 -0.02128148 0.44449428 7 5 26976 5.10000000 887979904 887979904 5.00000000
-3.12897134 -0.01256056 -0.49558440 3 6 26977 3.16800000 887979906 887979906 -9.00000000
-5.69717312 -0.02187568 0.69953001 2 7 26978 5.74000000 887979908 887979908 7.00000000
-3.90266514 -0.01430408 -0.47919026 5 8 26979 3.93200000 887979910 887979910 -7.00000000
-4.78170538 -0.01669137 -0.41834757 8 10 26980 4.80000000 887979915 887979915 -5.00000000
-4.41930962 -0.01234107 -0.07713964 1 14 26984 4.42000000 887979924 887979924 -1.00000000
-10.28320599 -0.02871620 2.75538754 45 15 26984 10.64600000 887979927 887979927 15.00000000
-1.94537270 -0.00271625 -0.52126157 5 0 26992 2.01400000 887979947 887979947 -15.00000000
-4.41732359 -0.00539678 0.07710473 3 1 26993 4.41800000 887979950 887979950 1.00000000
-2.22156262 -0.00232642 -0.51288843 4 2 26994 2.28000000 887979952 887979952 -13.00000000
-4.50581455 -0.00393207 0.23613983 1 3 26995 4.51200000 887979954 887979954 3.00000000
-2.60916400 -0.00227693 -0.50717032 3 4 26995 2.65800000 887979957 887979957 -11.00000000
-5.00687313 -0.00349546 0.43804476 7 5 26996 5.02600000 887979959 887979959 5.00000000
-3.14479923 -0.00164661 -0.49808735 3 6 26997 3.18400000 887979961 887979961 -9.00000000
-5.60590029 -0.00195683 0.68831807 2 7 26998 5.64800000 887979963 887979963 7.00000000
-3.89872122 -0.00068046 -0.47870278 5 8 26999 3.92800000 887979966 887979966 -7.00000000
-4.77974224 -0.00000000 -0.41817325 8 10 27000 4.79800000 887979970 887979970 -5.00000000
-4.36333418 0.00304618 -0.07616230 1 14 27004 4.36400000 887979980 887979980 -1.00000000
-10.27937889 0.00897045 2.75435233 45 15 27005 10.64200000 887979982 887979982 15.00000000
-1.93957615 0.00338520 -0.51970863 5 0 27010 2.00800000 887980003 887980003 -15.00000000
-4.36732674 0.00838468 0.07623211 3 1 27011 4.36800000 887980005 887980005 1.00000000
-2.22740507 0.00466507 -0.51423812 4 2 27012 2.28600000 887980007 887980007 -13.00000000
-4.45787239 0.00933656 0.23362771 3 3 27012 4.46400000 887980010 887980010 3.00000000
-2.61308479 0.00592891 -0.50793356 3 4 27013 2.66200000 887980012 887980012 -11.00000000
-4.97498131 0.01215620 0.43525577 7 5 27014 4.99400000 887980014 887980014 5.00000000
-3.14478898 0.00823306 -0.49808735 3 6 27015 3.18400000 887980016 887980016 -9.00000000
-5.60389376 0.01564906 0.68807429 2 7 27016 5.64600000 887980019 887980019 7.00000000
-3.91855502 0.01162662 -0.48114017 5 8 27017 3.94800000 887980021 887980021 -7.00000000
-4.77174902 0.01499094 -0.41747600 8 10 27018 4.79000000 887980026 887980026 -5.00000000
-4.29131460 0.01647755 -0.07490573 3 14 27022 4.29200000 887980035 887980035 -1.00000000
-10.27157974 0.03944023 2.75228167 45 15 27022 10.63400000 887980037 887980037 15.00000000
-1.94534791 0.01018591 -0.52126157 5 0 27030 2.01400000 887980058 887980058 -15.00000000
-4.31128025 0.02332650 0.07525478 5 1 27031 4.31200000 887980060 887980060 1.00000000
-2.21763158 0.01238572 -0.51198858 4 2 27032 2.27600000 887980062 887980062 -13.00000000
-4.42985153 0.02474122 0.23216230 5 3 27032 4.43600000 887980065 887980065 3.00000000
-2.61108494 0.01503894 -0.50755191 3 4 27033 2.66000000 887980067 887980067 -11.00000000
-4.96096230 0.02943929 0.43403560 7 5 27034 4.98000000 887980069 887980069 5.00000000
-3.12893820 0.01911383 -0.49558440 3 6 27035 3.16800000 887980072 887980072 -9.00000000
-5.60380507 0.03521021 0.68807429 2 7 27036 5.64600000 887980074 887980074 7.00000000
-3.92246056 0.02533050 -0.48162764 5 8 27037 3.95200000 887980076 887980076 -7.00000000
-4.78362179 0.03172665 -0.41852188 8 10 27038 4.80200000 887980081 887980081 -5.00000000
-4.27323437 0.03132500 -0.07459158 5 14 27042 4.27400000 887980090 887980090 -1.00000000
-10.27137947 0.07529449 2.75228167 45 15 27042 10.63400000 887980092 887980092 15.00000000
-1.94336879 0.01695952 -0.52074391 4 0 27050 2.01200000 887980113 887980113 -15.00000000
-4.28917646 0.03817974 0.07487082 5 1 27051 4.29000000 887980115 887980115 1.00000000
-2.22147226 0.02016200 -0.51288843 4 2 27052 2.28000000 887980118 887980118 -13.00000000
-4.40177059 0.04071862 0.23069690 5 3 27053 4.40800000 887980120 887980120 3.00000000
-2.61886930 0.02422587 -0.50907838 3 4 27053 2.66800000 887980122 887980122 -11.00000000
-4.92895222 0.04645566 0.43124661 7 5 27054 4.94800000 887980125 887980125 5.00000000
-3.14070415 0.03014952 -0.49746159 3 6 27055 3.18000000 887980127 887980127 -9.00000000
-5.57585812 0.05449930 0.68466198 2 7 27056 5.61800000 887980129 887980129 7.00000000
-3.91837835 0.03898279 -0.48114017 5 8 27057 3.94800000 887980132 887980132 -7.00000000
-4.77152824 0.04830340 -0.41747600 8 10 27058 4.79000000 887980136 887980136 -5.00000000
-4.26110125 0.04611135 -0.07438216 5 14 27062 4.26200000 887980145 887980145 -1.00000000
-10.28262424 0.11306792 2.75538754 45 15 27063 10.64600000 887980148 887980148 15.00000000
-1.96647823 0.02402626 -0.52695560 5 0 27070 2.03600000 887980168 887980168 -15.00000000
-4.26102352 0.05280462 0.07438216 5 1 27071 4.26200000 887980171 887980171 1.00000000
-2.21749115 0.02786728 -0.51198858 4 2 27072 2.27600000 887980173 887980173 -13.00000000
-4.36166954 0.05481324 0.22860345 5 3 27072 4.36800000 887980175 887980175 3.00000000
-2.61680555 0.03334227 -0.50869679 3 4 27073 2.66600000 887980178 887980178 -11.00000000
-4.92477560 0.06360917 0.43089798 9 5 27074 4.94400000 887980180 887980180 5.00000000
-3.14848065 0.04121587 -0.49871308 3 6 27075 3.18800000 887980182 887980182 -9.00000000
-5.65900040 0.07506823 0.69489902 2 7 27076 5.70200000 887980185 887980185 7.00000000
-3.89836931 0.05239348 -0.47870278 5 8 27077 3.92800000 887980187 887980187 -7.00000000
-4.79922152 0.06533856 -0.41991636 5 10 27078 4.81800000 887980192 887980192 -5.00000000
-4.24891758 0.06081339 -0.07417273 7 14 27082 4.25000000 887980201 887980201 -1.00000000
-10.29182529 0.14910021 2.75797582 47 15 27083 10.65600000 887980203 887980203 15.00000000
-1.94705546 0.03126661 -0.52177918 5 0 27092 2.01600000 887980224 887980224 -15.00000000
-4.25479126 0.06906798 0.07427744 7 1 27093 4.25600000 887980226 887980226 1.00000000
-2.22905874 0.03657343 -0.51468801 4 2 27094 2.28800000 887980228 887980228 -13.00000000
-4.34545088 0.07129828 0.22776608 7 3 27094 4.35200000 887980231 887980231 3.00000000
-2.60880637 0.04325961 -0.50717032 3 4 27095 2.65800000 887980233 887980233 -11.00000000
-4.89262152 0.08198433 0.42810902 9 5 27096 4.91200000 887980235 887980235 5.00000000
-3.13644862 0.05310419 -0.49683586 3 6 27097 3.17600000 887980238 887980238 -9.00000000
-5.64676142 0.09659291 0.69343656 2 7 27098 5.69000000 887980240 887980240 7.00000000
-3.90607858 0.06749891 -0.47967774 5 8 27099 3.93600000 887980242 887980242 -7.00000000
-5.12165308 0.08939879 -0.44815484 9 10 27100 5.14200000 887980247 887980247 -5.00000000
-4.22865915 0.07676461 -0.07382368 7 14 27104 4.23000000 887980256 887980256 -1.00000000
-10.28151989 0.18843979 2.75538754 45 15 27105 10.64600000 887980258 887980258 15.00000000
-1.94113994 0.03794963 -0.52022630 5 0 27112 2.01000000 887980279 887980279 -15.00000000
-4.23653030 0.08356462 0.07396330 7 1 27113 4.23800000 887980281 887980281 1.00000000
-2.22891736 0.04435407 -0.51468801 4 2 27114 2.28800000 887980284 887980284 -13.00000000
-4.33119726 0.08618814 0.22703338 15 3 27114 4.33800000 887980286 887980286 3.00000000
-2.59293675 0.05205056 -0.50411737 3 4 27115 2.64200000 887980288 887980288 -11.00000000
-4.87039375 0.09861859 0.42619157 9 5 27116 4.89000000 887980291 887980291 5.00000000
-3.14019418 0.06413279 -0.49746159 3 6 27117 3.18000000 887980293 887980293 -9.00000000
-5.61860466 0.11573088 0.69002420 2 7 27118 5.66200000 887980295 887980295 7.00000000
-3.92169642 0.08146307 -0.48162764 5 8 27119 3.95200000 887980298 887980298 -7.00000000
-5.16114855 0.10811065 -0.45164105 9 10 27120 5.18200000 887980302 887980302 -5.00000000
-4.22036839 0.09135182 -0.07368406 12 14 27124 4.22200000 887980311 887980311 -1.00000000
-10.27307320 0.22415927 2.75331712 45 15 27125 10.63800000 887980314 887980314 15.00000000
-1.95065236 0.04494776 -0.52281445 6 0 27132 2.02000000 887980334 887980334 -15.00000000
-4.21822071 0.09793463 0.07364915 7 1 27133 4.22000000 887980337 887980337 1.00000000
-2.22485256 0.05204304 -0.51378822 4 2 27134 2.28400000 887980339 887980339 -13.00000000
-4.33087015 0.10130632 0.22703338 11 3 27134 4.33800000 887980341 887980341 3.00000000
-2.61629176 0.06165633 -0.50869679 3 4 27135 2.66600000 887980344 887980344 -11.00000000
-4.86006069 0.11538240 0.42532003 9 5 27136 4.88000000 887980346 887980346 5.00000000
-3.12020302 0.07462143 -0.49433291 3 6 27137 3.16000000 887980348 887980348 -9.00000000
-5.61816645 0.13534276 0.69002420 2 7 27138 5.66200000 887980350 887980350 7.00000000
-3.92932606 0.09534446 -0.48260260 5 8 27139 3.96000000 887980353 887980353 -7.00000000
-5.15078115 0.12588237 -0.45076951 9 10 27140 5.17200000 887980357 887980357 -5.00000000
-4.20403147 0.10568108 -0.07340482 14 14 27144 4.20600000 887980367 887980367 -1.00000000
-10.27999878 0.25841895 2.75538754 45 15 27144 10.64600000 887980369 887980369 15.00000000
-1.95048356 0.05175653 -0.52281445 6 0 27152 2.02000000 887980390 887980390 -15.00000000
-4.21985197 0.11271176 0.07368406 7 1 27153 4.22200000 887980392 887980392 1.00000000
-2.21686530 0.05959941 -0.51198858 4 2 27154 2.27600000 887980394 887980394 -13.00000000
-4.32450056 0.11626223 0.22671936 28 3 27154 4.33200000 887980397 887980397 3.00000000
-2.61213541 0.07068231 -0.50793356 3 4 27155 2.66200000 887980399 887980399 -11.00000000
-4.84369516 0.13191254 0.42392552 9 5 27156 4.86400000 887980401 887980401 5.00000000
-3.12782192 0.08572900 -0.49558440 4 6 27157 3.16800000 887980403 887980403 -9.00000000
-3.90912604 0.10850898 -0.48016521 5 8 27159 3.94000000 887980408 887980408 -7.00000000
-5.16425133 0.14425060 -0.45198968 9 10 27160 5.18600000 887980413 887980413 -5.00000000
-4.30636597 0.12179209 -0.22577731 2 12 27162 4.31400000 887980417 887980417 -3.00000000
-4.19564152 0.12012633 -0.07326520 17 14 27164 4.19800000 887980422 887980422 -1.00000000
-10.27898216 0.29609531 2.75538754 45 15 27165 10.64600000 887980424 887980424 15.00000000
-1.95610440 0.05805582 -0.52436739 5 0 27170 2.02600000 887980445 887980445 -15.00000000
-4.22347450 0.12608759 0.07375387 7 1 27171 4.22600000 887980447 887980447 1.00000000
-2.22056270 0.06668058 -0.51288843 4 2 27172 2.28000000 887980450 887980450 -13.00000000
-4.34605122 0.13126542 0.22787075 7 3 27173 4.35400000 887980452 887980452 3.00000000
-2.61190057 0.07888821 -0.50793356 3 4 27173 2.66200000 887980454 887980454 -11.00000000
-4.84923124 0.14731027 0.42444846 9 5 27174 4.87000000 887980456 887980456 5.00000000
-3.12753725 0.09555490 -0.49558440 3 6 27175 3.16800000 887980459 887980459 -9.00000000
-7.30367756 0.22442347 0.89720213 2 7 27176 7.36200000 887980461 887980461 7.00000000
-3.91273427 0.12091193 -0.48065269 5 8 27177 3.94400000 887980463 887980463 -7.00000000
-5.17970419 0.16096894 -0.45338416 9 10 27178 5.20200000 887980468 887980468 -5.00000000
-4.26404047 0.13400286 -0.22357920 2 12 27180 4.27200000 887980473 887980473 -3.00000000
-4.18524981 0.13298915 -0.07309068 24 14 27182 4.18800000 887980477 887980477 -1.00000000
-10.27805901 0.32659233 2.75538754 45 15 27182 10.64600000 887980480 887980480 15.00000000
-1.94430506 0.06449924 -0.52126157 4 0 27190 2.01400000 887980500 887980500 -15.00000000
-4.21901178 0.14069620 0.07368406 7 1 27191 4.22200000 887980503 887980503 1.00000000
-2.21642113 0.07430080 -0.51198858 4 2 27192 2.27600000 887980505 887980505 -13.00000000
-4.40145779 0.14831857 0.23080157 20 3 27193 4.41000000 887980507 887980507 3.00000000
-2.60572267 0.08780660 -0.50678867 3 4 27193 2.65600000 887980509 887980509 -11.00000000
-4.82678366 0.16349442 0.42253104 9 5 27194 4.84800000 887980512 887980512 5.00000000
-3.13902998 0.10687476 -0.49746159 3 6 27195 3.18000000 887980514 887980514 -9.00000000
-3.92815971 0.13511510 -0.48260260 5 8 27197 3.96000000 887980519 887980519 -7.00000000
-5.17911100 0.17904849 -0.45338416 9 10 27198 5.20200000 887980523 887980523 -5.00000000
-4.26554251 0.14895603 -0.22368388 4 12 27200 4.27400000 887980528 887980528 -3.00000000
-4.17276955 0.14717469 -0.07288125 33 14 27202 4.17600000 887980533 887980533 -1.00000000
-10.27679253 0.36426109 2.75538754 47 15 27203 10.64600000 887980535 887980535 15.00000000
-1.94406807 0.07128574 -0.52126157 4 0 27210 2.01400000 887980556 887980556 -15.00000000
-4.20650482 0.15498069 0.07347463 7 1 27211 4.21000000 887980558 887980558 1.00000000
-2.23562241 0.08275799 -0.51648760 4 2 27212 2.29600000 887980560 887980560 -13.00000000
-4.40490532 0.16383009 0.23101091 7 3 27213 4.41400000 887980562 887980562 3.00000000
-2.60343862 0.09682877 -0.50640708 3 4 27213 2.65400000 887980565 887980565 -11.00000000
-4.81025553 0.17974687 0.42113656 9 5 27214 4.83200000 887980567 887980567 5.00000000
-3.14258575 0.11797959 -0.49808735 3 6 27215 3.18400000 887980569 887980569 -9.00000000
-3.91576219 0.14837514 -0.48114017 7 8 27217 3.94800000 887980574 887980574 -7.00000000
-5.15854454 0.19636799 -0.45164105 9 10 27218 5.18200000 887980579 887980579 -5.00000000
-4.25501776 0.16346130 -0.22316052 4 12 27220 4.26400000 887980583 887980583 -3.00000000
-4.17223024 0.16173947 -0.07288125 35 14 27222 4.17600000 887980588 887980588 -1.00000000
-10.24850273 0.39729050 2.74814057 47 15 27222 10.61800000 887980590 887980590 15.00000000
-1.94573772 0.07814890 -0.52177918 5 0 27230 2.01600000 887980611 887980611 -15.00000000
-4.19594765 0.16926019 0.07330011 7 1 27231 4.20000000 887980613 887980613 1.00000000
-2.22363710 0.09008795 -0.51378822 4 2 27232 2.28400000 887980615 887980615 -13.00000000
-4.39033699 0.17863669 0.23027821 5 3 27233 4.40000000 887980618 887980618 3.00000000
-2.61289287 0.10631496 -0.50831515 3 4 27233 2.66400000 887980620 887980620 -11.00000000
-4.81756163 0.19686209 0.42183378 9 5 27234 4.84000000 887980622 887980622 5.00000000
-3.13820744 0.12878655 -0.49746159 3 6 27235 3.18000000 887980625 887980625 -9.00000000
-3.92315388 0.16237114 -0.48211512 5 8 27237 3.95600000 887980629 887980629 -7.00000000
-5.17773438 0.21520086 -0.45338416 9 10 27238 5.20200000 887980634 887980634 -5.00000000
-4.23845720 0.17764398 -0.22232315 6 12 27240 4.24800000 887980638 887980638 -3.00000000
-10.07775688 0.42414519 2.32869339 13 13 27241 10.35200000 887980641 887980641 13.00000000
-4.17763376 0.17655559 -0.07298596 45 14 27242 4.18200000 887980643 887980643 -1.00000000
-10.25469780 0.43517810 2.75021124 42 15 27243 10.62600000 887980645 887980645 15.00000000
