# .PCD v0.7 - Point Cloud Data file format
VERSION 0.7
FIELDS x y z intensity laser_id azimuth distance_m adjustedtime timestamp vertical_angle
SIZE 4 4 4 1 1 2 8 8 4 8
TYPE F F F U U U F U U F
COUNT 1 1 1 1 1 1 1 1 1 1
WIDTH 551
HEIGHT 1
VIEWPOINT 0 0 0 1 0 0 0
POINTS 551
DATA ascii
3.02887630 1.11500978 -0.62737995 5 4 6979 3.28800000 878724498 878724498 -11.00000000
7.83838415 2.88396382 0.73071373 79 5 6980 8.38400000 878724501 878724501 5.00000000
3.81181622 1.40172005 -0.64325851 6 6 6981 4.11200000 878724503 878724503 -9.00000000
7.85675526 2.88916636 1.02784610 99 7 6981 8.43400000 878724505 878724505 7.00000000
5.15370655 1.89415252 -0.67418122 9 8 6982 5.53200000 878724508 878724508 -7.00000000
6.39089489 2.34632707 -0.59562236 16 10 6984 6.83400000 878724512 878724512 -5.00000000
7.83056307 2.87177968 -0.43710992 17 12 6986 8.35200000 878724517 878724517 -3.00000000
7.81996393 2.86634421 -0.14537854 18 14 6987 8.33000000 878724521 878724521 -1.00000000
7.89797735 2.89337564 2.25379634 47 15 6988 8.70800000 878724524 878724524 15.00000000
2.12886024 0.77652526 -0.60718948 4 0 6996 2.34600000 878724545 878724545 -15.00000000
7.83059120 2.85474610 0.14548326 15 1 6997 8.33600000 878724547 878724547 1.00000000
2.51943398 0.91799504 -0.61906528 7 2 6998 2.75200000 878724549 878724549 -13.00000000
7.84831905 2.85810590 0.43773794 15 3 6999 8.36400000 878724551 878724551 3.00000000
3.04012895 1.10711741 -0.62890643 5 4 6999 3.29600000 878724554 878724554 -11.00000000
7.83342552 2.85113358 0.72931927 79 5 7000 8.36800000 878724556 878724556 5.00000000
3.81482959 1.38773048 -0.64294565 6 6 7001 4.11000000 878724558 878724558 -9.00000000
7.86356068 2.85899401 1.02735853 99 7 7002 8.43000000 878724561 878724561 7.00000000
5.17553997 1.88067424 -0.67613113 9 8 7003 5.54800000 878724563 878724563 -7.00000000
6.40507030 2.32492709 -0.59614527 16 10 7005 6.84000000 878724568 878724568 -5.00000000
7.83490753 2.84238505 -0.43679589 17 12 7006 8.34600000 878724572 878724572 -3.00000000
7.83417702 2.83902597 -0.14544836 18 14 7008 8.33400000 878724577 878724577 -1.00000000
7.90489626 2.86309290 2.25276089 47 15 7009 8.70400000 878724579 878724579 15.00000000
2.13532662 0.77002805 -0.60822475 4 0 7017 2.35000000 878724600 878724600 -15.00000000
7.83298349 2.82468152 0.14534365 15 1 7017 8.32800000 878724602 878724602 1.00000000
2.50795650 0.90390897 -0.61546606 7 2 7018 2.73600000 878724604 878724604 -13.00000000
7.84885263 2.82730842 0.43721458 15 3 7019 8.35400000 878724607 878724607 3.00000000
3.05709672 1.10062253 -0.63157779 6 4 7020 3.31000000 878724609 878724609 -11.00000000
7.84007311 2.82105446 0.72897065 79 5 7021 8.36400000 878724611 878724611 5.00000000
3.80873728 1.36972821 -0.64106846 6 6 7022 4.09800000 878724614 878724614 -9.00000000
7.86041689 2.82682514 1.02565241 95 7 7022 8.41600000 878724616 878724616 7.00000000
5.16899681 1.85789657 -0.67442495 9 8 7023 5.53400000 878724618 878724618 -7.00000000
6.47127771 2.32342601 -0.60154891 4 10 7025 6.90200000 878724623 878724623 -5.00000000
7.83587265 2.81027818 -0.43627253 17 12 7027 8.33600000 878724627 878724627 -3.00000000
7.84215689 2.81098747 -0.14541344 18 14 7028 8.33200000 878724632 878724632 -1.00000000
7.90574884 2.83222461 2.25017285 47 15 7029 8.69400000 878724634 878724634 15.00000000
2.14865112 0.76721376 -0.61133057 4 0 7035 2.36200000 878724656 878724656 -15.00000000
7.83477402 2.79600239 0.14520402 21 1 7036 8.32000000 878724658 878724658 1.00000000
2.50726938 0.89427799 -0.61456627 7 2 7037 2.73200000 878724661 878724661 -13.00000000
7.86333942 2.80464935 0.43752858 23 3 7037 8.36000000 878724663 878724663 3.00000000
3.05499148 1.08903527 -0.63043290 5 4 7038 3.30400000 878724665 878724665 -11.00000000
7.84889698 2.79641032 0.72897065 76 5 7039 8.36400000 878724668 878724668 5.00000000
3.81488252 1.35841858 -0.64138132 6 6 7040 4.10000000 878724670 878724670 -9.00000000
7.85478640 2.79541898 1.02370250 95 7 7041 8.40000000 878724672 878724672 7.00000000
5.15642643 1.83409286 -0.67198753 9 8 7042 5.51400000 878724674 878724674 -7.00000000
7.81893349 2.77958488 -0.72600734 17 10 7043 8.33000000 878724679 878724679 -5.00000000
7.82772350 2.77963233 -0.43533048 17 12 7045 8.31800000 878724684 878724684 -3.00000000
7.84766626 2.78362942 -0.14534365 16 14 7047 8.32800000 878724688 878724688 -1.00000000
7.91278648 2.80672836 2.24965525 47 15 7047 8.69200000 878724691 878724691 15.00000000
2.14585137 0.75777906 -0.60977769 4 0 7055 2.35600000 878724711 878724711 -15.00000000
7.84260082 2.76797128 0.14516912 18 1 7056 8.31800000 878724714 878724714 1.00000000
2.51405120 0.88681704 -0.61546606 7 2 7057 2.73600000 878724716 878724716 -13.00000000
7.85096264 2.76784110 0.43627253 23 3 7058 8.33600000 878724718 878724718 3.00000000
3.05507112 1.07705915 -0.62966967 5 4 7058 3.30000000 878724721 878724721 -11.00000000
7.85673141 2.76833344 0.72879630 76 5 7059 8.36200000 878724723 878724723 5.00000000
3.83078051 1.34903073 -0.64325851 6 6 7060 4.11200000 878724725 878724725 -9.00000000
7.86449623 2.76798344 1.02370250 95 7 7061 8.40000000 878724727 878724727 7.00000000
5.16654205 1.81739986 -0.67247504 9 8 7062 5.51800000 878724730 878724730 -7.00000000
7.82670879 2.75161386 -0.72583300 17 10 7063 8.32800000 878724734 878724734 -5.00000000
7.83737850 2.75229144 -0.43533048 17 12 7065 8.31800000 878724739 878724739 -3.00000000
7.84412622 2.75158572 -0.14509931 18 14 7067 8.31400000 878724744 878724744 -1.00000000
7.92302084 2.77770758 2.24965525 47 15 7068 8.69200000 878724746 878724746 15.00000000
2.14470506 0.74938452 -0.60874242 4 0 7074 2.35200000 878724767 878724767 -15.00000000
7.85739994 2.74392700 0.14527383 15 1 7075 8.32400000 878724769 878724769 1.00000000
2.52065778 0.87975961 -0.61636591 7 2 7076 2.74000000 878724771 878724771 -13.00000000
7.85773373 2.74250484 0.43616787 28 3 7076 8.33400000 878724774 878724774 3.00000000
3.05306482 1.06498241 -0.62852484 5 4 7077 3.29400000 878724776 878724776 -11.00000000
7.85458040 2.73832893 0.72775048 76 5 7078 8.35000000 878724778 878724778 5.00000000
3.83709836 1.33696997 -0.64357138 6 6 7079 4.11400000 878724780 878724780 -9.00000000
7.87738132 2.74319434 1.02418995 92 7 7080 8.40400000 878724783 878724783 7.00000000
5.17816496 1.80221450 -0.67320627 9 8 7081 5.52400000 878724785 878724785 -7.00000000
7.82073593 2.72040772 -0.72443855 17 10 7082 8.31200000 878724790 878724790 -5.00000000
7.84268904 2.72497559 -0.43512115 17 12 7084 8.31400000 878724794 878724794 -3.00000000
7.83998394 2.72096896 -0.14485498 16 14 7086 8.30000000 878724799 878724799 -1.00000000
7.92258263 2.74963593 2.24706697 47 15 7086 8.68200000 878724801 878724801 15.00000000
2.14000392 0.73937011 -0.60667187 4 0 7094 2.34400000 878724822 878724822 -15.00000000
7.84991884 2.71060872 0.14495969 15 1 7095 8.30600000 878724824 878724824 1.00000000
2.52739763 0.87222695 -0.61726570 7 2 7096 2.74400000 878724826 878724826 -13.00000000
7.86537123 2.71440792 0.43606320 36 3 7096 8.33200000 878724829 878724829 3.00000000
3.05305171 1.05303848 -0.62776160 5 4 7097 3.29000000 878724831 878724831 -11.00000000
7.85090590 2.70634937 0.72653025 76 5 7098 8.33600000 878724833 878724833 5.00000000
3.83800650 1.32228100 -0.64294565 6 6 7099 4.11000000 878724836 878724836 -9.00000000
7.87940121 2.71309543 1.02321506 97 7 7100 8.39600000 878724838 878724838 7.00000000
5.18817854 1.78542030 -0.67369372 9 8 7101 5.52800000 878724840 878724840 -7.00000000
7.66815472 2.63736367 -0.70944774 17 10 7102 8.14000000 878724845 878724845 -5.00000000
7.85593128 2.69888067 -0.43533048 17 12 7104 8.31800000 878724850 878724850 -3.00000000
7.85510826 2.69553280 -0.14495969 22 14 7106 8.30600000 878724854 878724854 -1.00000000
7.92482328 2.71945620 2.24499631 47 15 7106 8.67400000 878724856 878724856 15.00000000
2.14635611 0.73276997 -0.60770714 4 0 7115 2.34800000 878724877 878724877 -15.00000000
7.84655285 2.67729878 0.14471535 12 1 7116 8.29200000 878724879 878724879 1.00000000
2.52504420 0.86107081 -0.61591601 9 2 7117 2.73800000 878724882 878724882 -13.00000000
7.87384510 2.68354297 0.43595850 39 3 7118 8.33000000 878724884 878724884 3.00000000
3.05874920 1.04247475 -0.62814319 5 4 7118 3.29200000 878724886 878724886 -11.00000000
7.86077261 2.67755628 0.72653025 76 5 7119 8.33600000 878724889 878724889 5.00000000
3.82973719 1.30374885 -0.64075559 6 6 7120 4.09600000 878724891 878724891 -9.00000000
7.88553333 2.68291879 1.02272749 95 7 7121 8.39200000 878724893 878724893 7.00000000
5.19280815 1.76575363 -0.67344999 9 8 7122 5.52600000 878724896 878724896 -7.00000000
7.62306309 2.59064913 -0.70439273 30 10 7123 8.08200000 878724900 878724900 -5.00000000
7.85631371 2.66685915 -0.43480712 21 12 7125 8.30800000 878724905 878724905 -3.00000000
7.96118498 2.70090866 1.94087768 4 13 7126 8.62800000 878724907 878724907 13.00000000
7.85357237 2.66287160 -0.14475025 16 14 7127 8.29400000 878724909 878724909 -1.00000000
7.92422915 2.68528700 2.24189067 47 15 7128 8.66200000 878724912 878724912 15.00000000
2.15622234 0.72774440 -0.60977769 4 0 7135 2.35600000 878724932 878724932 -15.00000000
7.85774565 2.65053201 0.14475025 21 1 7136 8.29400000 878724935 878724935 1.00000000
2.51510811 0.84789371 -0.61276668 7 2 7137 2.72400000 878724937 878724937 -13.00000000
7.88080835 2.65677953 0.43585384 39 3 7137 8.32800000 878724939 878724939 3.00000000
3.07353234 1.03555250 -0.63043290 5 4 7138 3.30400000 878724942 878724942 -11.00000000
7.87573576 2.65200830 0.72705323 76 5 7139 8.34200000 878724944 878724944 5.00000000
3.83988142 1.29226291 -0.64169419 6 6 7140 4.10200000 878724946 878724946 -9.00000000
7.87039089 2.64715004 1.01955891 99 7 7141 8.36600000 878724949 878724949 7.00000000
5.18200541 1.74192405 -0.67125636 9 8 7142 5.50800000 878724951 878724951 -7.00000000
7.63772583 2.56592751 -0.70491564 39 10 7143 8.08800000 878724956 878724956 -5.00000000
7.85610771 2.63624239 -0.43428376 17 12 7145 8.29800000 878724960 878724960 -3.00000000
7.96317434 2.67062402 1.93907809 4 13 7146 8.62000000 878724962 878724962 13.00000000
7.86092377 2.63480592 -0.14471535 16 14 7147 8.29200000 878724965 878724965 -1.00000000
7.93355417 2.65760970 2.24189067 47 15 7148 8.66200000 878724967 878724967 15.00000000
2.15862393 0.72059011 -0.60977769 4 0 7154 2.35600000 878724988 878724988 -15.00000000
7.86838865 2.62509298 0.14478517 15 1 7155 8.29600000 878724990 878724990 1.00000000
2.53084683 0.84386355 -0.61591601 10 2 7156 2.73800000 878724992 878724992 -13.00000000
7.87631226 2.62620902 0.43512115 52 3 7156 8.31400000 878724995 878724995 3.00000000
3.06763673 1.02225113 -0.62852484 5 4 7157 3.29400000 878724997 878724997 -11.00000000
7.88070583 2.62461758 0.72670460 76 5 7158 8.33800000 878724999 878724999 5.00000000
3.85164261 1.28201771 -0.64294565 6 6 7159 4.11000000 878725002 878725002 -9.00000000
7.88666010 2.62354279 1.02053392 99 7 7160 8.37400000 878725004 878725004 7.00000000
5.17833471 1.72159898 -0.67003763 9 8 7161 5.49800000 878725006 878725006 -7.00000000
7.80123425 2.59210110 -0.71920919 17 10 7162 8.25200000 878725011 878725011 -5.00000000
7.85911989 2.60828876 -0.43396974 17 12 7164 8.29200000 878725015 878725015 -3.00000000
7.95903921 2.63990784 1.93592882 5 13 7165 8.60600000 878725018 878725018 13.00000000
7.86392355 2.60683584 -0.14461064 18 14 7166 8.28600000 878725020 878725020 -1.00000000
7.94599104 2.63250160 2.24292588 47 15 7167 8.66600000 878725022 878725022 15.00000000
2.16479516 0.71426135 -0.61081296 4 0 7174 2.36000000 878725043 878725043 -15.00000000
7.86990738 2.59510636 0.14464554 15 1 7175 8.28800000 878725045 878725045 1.00000000
2.53192616 0.83441412 -0.61546606 12 2 7176 2.73600000 878725048 878725048 -13.00000000
7.88543129 2.59869957 0.43512115 57 3 7176 8.31400000 878725050 878725050 3.00000000
3.07118630 1.01153696 -0.62852484 5 4 7177 3.29400000 878725052 878725052 -11.00000000
7.87278700 2.59148622 0.72513580 79 5 7178 8.32000000 878725055 878725055 5.00000000
3.86735296 1.27226901 -0.64482284 6 6 7179 4.12200000 878725057 878725057 -9.00000000
7.89199877 2.59475708 1.02004635 100 7 7180 8.37000000 878725059 878725059 7.00000000
5.20128584 1.70908988 -0.67223132 9 8 7181 5.51600000 878725062 878725062 -7.00000000
7.83862877 2.57417846 -0.72182387 17 10 7182 8.28200000 878725066 878725066 -5.00000000
7.86058521 2.57834935 -0.43355107 17 12 7184 8.28400000 878725071 878725071 -3.00000000
7.96450186 2.61089563 1.93502891 4 13 7185 8.60200000 878725073 878725073 13.00000000
7.85397196 2.57314396 -0.14426160 18 14 7186 8.26600000 878725075 878725075 -1.00000000
7.93310070 2.59753513 2.23671412 49 15 7187 8.64200000 878725078 878725078 15.00000000
2.15992856 0.70430487 -0.60874242 4 0 7194 2.35200000 878725098 878725098 -15.00000000
7.86751032 2.56390190 0.14443612 18 1 7195 8.27600000 878725101 878725101 1.00000000
2.54408813 0.82858843 -0.61771560 7 2 7196 2.74600000 878725103 878725103 -13.00000000
7.89065647 2.56992126 0.43491179 65 3 7196 8.31000000 878725105 878725105 3.00000000
3.06349754 0.99716437 -0.62623513 5 4 7197 3.28200000 878725108 878725108 -11.00000000
7.87041712 2.56029129 0.72408992 79 5 7198 8.30800000 878725110 878725110 5.00000000
3.85862041 1.25448632 -0.64263278 6 6 7199 4.10800000 878725112 878725112 -9.00000000
7.89534426 2.56535268 1.01931524 100 7 7200 8.36400000 878725114 878725114 7.00000000
5.19211531 1.68601882 -0.67028141 9 8 7201 5.50000000 878725117 878725117 -7.00000000
7.83430099 2.54249573 -0.72060370 17 10 7202 8.26800000 878725121 878725121 -5.00000000
7.86763763 2.55027938 -0.43344638 17 12 7204 8.28200000 878725126 878725126 -3.00000000
7.97356701 2.58307838 1.93502891 4 13 7205 8.60200000 878725128 878725128 13.00000000
7.86671114 2.54694462 -0.14433140 18 14 7206 8.27000000 878725131 878725131 -1.00000000
7.93248081 2.56823850 2.23412609 56 15 7206 8.63200000 878725133 878725133 15.00000000
2.16605139 0.69794595 -0.60977769 4 0 7214 2.35600000 878725154 878725154 -15.00000000
7.86499166 2.53274560 0.14422669 15 1 7215 8.26400000 878725156 878725156 1.00000000
2.53768992 0.81671774 -0.61546606 7 2 7216 2.73600000 878725158 878725158 -13.00000000
7.89387512 2.54052639 0.43459779 70 3 7216 8.30400000 878725161 878725161 3.00000000
3.07817340 0.99007148 -0.62852484 5 4 7217 3.29400000 878725163 878725163 -11.00000000
7.87551260 2.53158331 0.72374129 90 5 7218 8.30400000 878725165 878725165 5.00000000
3.85169148 1.23738444 -0.64075559 6 6 7219 4.09600000 878725167 878725167 -9.00000000
7.89291048 2.53413630 1.01785278 100 7 7220 8.35200000 878725170 878725170 7.00000000
5.19985914 1.66849113 -0.67052513 9 8 7221 5.50200000 878725172 878725172 -7.00000000
7.84692240 2.51635003 -0.72095233 17 10 7222 8.27200000 878725177 878725177 -5.00000000
7.98126316 2.55789423 1.62912714 3 11 7223 8.53800000 878725179 878725179 11.00000000
7.87078571 2.52097297 -0.43313238 17 12 7224 8.27600000 878725181 878725181 -3.00000000
7.98624706 2.55641794 1.93592882 6 13 7225 8.60600000 878725184 878725184 13.00000000
7.87936258 2.52068782 -0.14440121 14 14 7226 8.27400000 878725186 878725186 -1.00000000
7.94184065 2.53914738 2.23412609 58 15 7227 8.63200000 878725188 878725188 15.00000000
2.16847444 0.69038081 -0.60977769 4 0 7234 2.35600000 878725209 878725209 -15.00000000
7.86997366 2.50406361 0.14415687 15 1 7235 8.26000000 878725211 878725211 1.00000000
2.53681111 0.80667353 -0.61456627 7 2 7236 2.73200000 878725214 878725214 -13.00000000
7.89742327 2.50976229 0.43428376 84 3 7237 8.29800000 878725216 878725216 3.00000000
3.08348155 0.97991526 -0.62890643 5 4 7237 3.29600000 878725218 878725218 -11.00000000
7.89189720 2.50648952 0.72443855 90 5 7238 8.31200000 878725220 878725220 5.00000000
3.84845614 1.22154152 -0.63950408 6 6 7239 4.08800000 878725223 878725223 -9.00000000
7.88278627 2.50056720 1.01541531 100 7 7240 8.33200000 878725225 878725225 7.00000000
5.19808292 1.64793050 -0.66955018 9 8 7241 5.49400000 878725227 878725227 -7.00000000
7.86135626 2.49074912 -0.72147524 17 10 7242 8.27800000 878725232 878725232 -5.00000000
7.86620808 2.48926544 -0.43239966 17 12 7244 8.26200000 878725237 878725237 -3.00000000
7.98583174 2.52558708 1.93367922 6 13 7245 8.59600000 878725239 878725239 13.00000000
7.87667322 2.48955250 -0.14419179 14 14 7246 8.26200000 878725241 878725241 -1.00000000
7.94653320 2.51163292 2.23309064 58 15 7246 8.62800000 878725244 878725244 15.00000000
2.17639971 0.68454611 -0.61133057 4 0 7254 2.36200000 878725264 878725264 -15.00000000
7.87866640 2.47657704 0.14415687 18 1 7255 8.26000000 878725267 878725267 1.00000000
2.53775215 0.79722947 -0.61411637 6 2 7256 2.73000000 878725269 878725269 -13.00000000
7.90041924 2.48038507 0.43396974 89 3 7257 8.29200000 878725271 878725271 3.00000000
3.07939100 0.96679360 -0.62737995 5 4 7257 3.28800000 878725273 878725273 -11.00000000
7.89299440 2.47654057 0.72374129 79 5 7258 8.30400000 878725276 878725276 5.00000000
3.86777568 1.21282887 -0.64200705 9 6 7259 4.10400000 878725278 878725278 -9.00000000
7.89904404 2.47541022 1.01639032 100 7 7260 8.34000000 878725280 878725280 7.00000000
5.19243717 1.62621593 -0.66808772 9 8 7261 5.48200000 878725283 878725283 -7.00000000
7.86619997 2.46210241 -0.72112662 17 10 7262 8.27400000 878725287 878725287 -5.00000000
7.87294340 2.46119595 -0.43229499 17 12 7264 8.26000000 878725292 878725292 -3.00000000
7.98157883 2.49362803 1.93052995 7 13 7265 8.58200000 878725294 878725294 13.00000000
7.87577152 2.45906258 -0.14401726 16 14 7266 8.25200000 878725297 878725297 -1.00000000
7.95199728 2.48133969 2.23205543 58 15 7267 8.62400000 878725299 878725299 15.00000000
2.18234730 0.67847216 -0.61236584 4 0 7273 2.36600000 878725320 878725320 -15.00000000
7.88683558 2.45043683 0.14415687 18 1 7274 8.26000000 878725322 878725322 1.00000000
2.54410410 0.78996533 -0.61501616 6 2 7275 2.73400000 878725324 878725324 -13.00000000
7.89524841 2.45002913 0.43323705 76 3 7276 8.27800000 878725326 878725326 3.00000000
3.08258009 0.95657670 -0.62737995 5 4 7276 3.28800000 878725329 878725329 -11.00000000
7.88784266 2.44622183 0.72252113 83 5 7277 8.29000000 878725331 878725331 5.00000000
3.86611581 1.19824183 -0.64106846 6 6 7278 4.09800000 878725333 878725333 -9.00000000
7.90341663 2.44802785 1.01590288 99 7 7279 8.33600000 878725336 878725336 7.00000000
5.21107578 1.61309731 -0.66979390 9 8 7280 5.49600000 878725338 878725338 -7.00000000
7.86670780 2.43364835 -0.72042936 17 10 7281 8.26600000 878725343 878725343 -5.00000000
7.87915325 2.43448520 -0.43219033 21 12 7283 8.25800000 878725347 878725347 -3.00000000
7.97676992 2.46312165 1.92738068 5 13 7284 8.56800000 878725350 878725350 13.00000000
7.87241793 2.42939425 -0.14380783 18 14 7285 8.24000000 878725352 878725352 -1.00000000
7.95236921 2.45406675 2.22998500 60 15 7285 8.61600000 878725354 878725354 15.00000000
2.16623473 0.66517943 -0.60718948 4 0 7293 2.34600000 878725375 878725375 -15.00000000
7.88769436 2.42054510 0.14401726 15 1 7294 8.25200000 878725377 878725377 1.00000000
2.55243540 0.78279406 -0.61636591 7 2 7295 2.74000000 878725379 878725379 -13.00000000
7.90757179 2.42362499 0.43344638 94 3 7296 8.28200000 878725382 878725382 3.00000000
3.08026910 0.94408470 -0.62623513 5 4 7296 3.28200000 878725384 878725384 -11.00000000
7.88680840 2.41575551 0.72164953 90 5 7297 8.28000000 878725386 878725386 5.00000000
3.87027502 1.18473923 -0.64106846 6 6 7298 4.09800000 878725389 878725389 -9.00000000
7.91191387 2.42042494 1.01590288 100 7 7299 8.33600000 878725391 878725391 7.00000000
5.21477604 1.59431708 -0.66955018 9 8 7300 5.49400000 878725393 878725393 -7.00000000
7.86181688 2.40209842 -0.71920919 17 10 7301 8.25200000 878725398 878725398 -5.00000000
7.89142370 2.40813303 -0.43239966 17 12 7303 8.26200000 878725402 878725402 -3.00000000
7.98904705 2.43639946 1.92828047 3 13 7304 8.57200000 878725405 878725405 13.00000000
7.87702465 2.40073347 -0.14373802 16 14 7305 8.23600000 878725407 878725407 -1.00000000
7.95022249 2.42152619 2.22687912 60 15 7306 8.60400000 878725409 878725409 15.00000000
2.17408967 0.65929574 -0.60874242 4 0 7313 2.35200000 878725430 878725430 -15.00000000
7.87887192 2.38777733 0.14370312 15 1 7314 8.23400000 878725432 878725432 1.00000000
2.55515242 0.77387965 -0.61636591 7 2 7315 2.74000000 878725435 878725435 -13.00000000
7.91980696 2.39716506 0.43365574 99 3 7316 8.28600000 878725437 878725437 3.00000000
3.09294105 0.93617058 -0.62814319 5 4 7316 3.29200000 878725439 878725439 -11.00000000
7.89519310 2.38821077 0.72164953 90 5 7317 8.28000000 878725442 878725442 5.00000000
3.87438679 1.17122221 -0.64106846 6 6 7318 4.09800000 878725444 878725444 -9.00000000
7.90511227 2.38819981 1.01395297 100 7 7319 8.32000000 878725446 878725446 7.00000000
5.22601080 1.57782567 -0.67028141 9 8 7320 5.50000000 878725449 878725449 -7.00000000
7.87015390 2.37464094 -0.71920919 17 10 7321 8.25200000 878725453 878725453 -5.00000000
7.89404488 2.37884331 -0.43208566 17 12 7323 8.25600000 878725458 878725458 -3.00000000
8.00123501 2.40962148 1.92918026 3 13 7324 8.57600000 878725460 878725460 13.00000000
7.89493084 2.37610459 -0.14391254 16 14 7325 8.24600000 878725462 878725462 -1.00000000
7.95450878 2.39403558 2.22584391 58 15 7325 8.60000000 878725465 878725465 15.00000000
2.18378043 0.65391940 -0.61081296 4 0 7333 2.36000000 878725485 878725485 -15.00000000
7.88524342 2.35968709 0.14366820 15 1 7334 8.23200000 878725488 878725488 1.00000000
2.54663587 0.76160562 -0.61366647 7 2 7335 2.72800000 878725490 878725490 -13.00000000
7.91473103 2.36550164 0.43292302 89 3 7336 8.27200000 878725492 878725492 3.00000000
3.09995222 0.92649287 -0.62890643 5 4 7336 3.29600000 878725495 878725495 -11.00000000
7.90348101 2.36063671 0.72164953 94 5 7337 8.28000000 878725497 878725497 5.00000000
3.87466598 1.15656090 -0.64044273 4 6 7338 4.09400000 878725499 878725499 -9.00000000
7.90198708 2.35718656 1.01249051 100 7 7339 8.30800000 878725502 878725502 7.00000000
5.22007227 1.55617118 -0.66881895 6 8 7340 5.48800000 878725504 878725504 -7.00000000
7.87839508 2.34715438 -0.71920919 17 10 7341 8.25200000 878725508 878725508 -5.00000000
7.88698578 2.34671664 -0.43124828 17 12 7343 8.24000000 878725513 878725513 -3.00000000
8.00212574 2.37945557 1.92738068 2 13 7344 8.56800000 878725515 878725515 13.00000000
7.90317678 2.34853148 -0.14391254 14 14 7345 8.24600000 878725518 878725518 -1.00000000
7.95952654 2.36376476 2.22480845 51 15 7346 8.59600000 878725520 878725520 15.00000000
2.19345999 0.64848340 -0.61288351 4 0 7353 2.36800000 878725541 878725541 -15.00000000
7.89343214 2.33214808 0.14366820 18 1 7354 8.23200000 878725543 878725543 1.00000000
2.55301690 0.75381523 -0.61456627 7 2 7355 2.73200000 878725545 878725545 -13.00000000
7.91527748 2.33559871 0.43250436 100 3 7356 8.26400000 878725548 878725548 3.00000000
3.09375238 0.91288829 -0.62699836 5 4 7356 3.28600000 878725550 878725550 -11.00000000
7.91549540 2.33416128 0.72199816 79 5 7357 8.28400000 878725552 878725552 5.00000000
3.87867951 1.14302874 -0.64044273 6 6 7358 4.09400000 878725555 878725555 -9.00000000
7.91016722 2.32958889 1.01249051 99 7 7359 8.30800000 878725557 878725557 7.00000000
5.21404696 1.53457737 -0.66735655 6 8 7360 5.47600000 878725559 878725559 -7.00000000
7.89418602 2.32188821 -0.71990645 17 10 7361 8.26000000 878725564 878725564 -5.00000000
7.89512920 2.31917167 -0.43124828 17 12 7363 8.24000000 878725568 878725568 -3.00000000
7.99168444 2.34601951 1.92288160 1 13 7364 8.54800000 878725571 878725571 13.00000000
7.89981365 2.31755257 -0.14370312 16 14 7365 8.23400000 878725573 878725573 -1.00000000
7.96546745 2.33681321 2.22429085 49 15 7365 8.59400000 878725575 878725575 15.00000000
2.18087435 0.63649297 -0.60874242 4 0 7373 2.35200000 878725596 878725596 -15.00000000
7.90536404 2.30570054 0.14373802 18 1 7374 8.23600000 878725598 878725598 1.00000000
2.55937433 0.74598962 -0.61546606 7 2 7375 2.73600000 878725601 878725601 -13.00000000
7.90995884 2.30404496 0.43177164 100 3 7376 8.25000000 878725603 878725603 3.00000000
3.09315038 0.90098542 -0.62623513 5 4 7376 3.28200000 878725605 878725605 -11.00000000
7.90446472 2.30094814 0.72025508 90 5 7377 8.26400000 878725608 878725608 5.00000000
3.89023280 1.13168979 -0.64169419 4 6 7378 4.10200000 878725610 878725610 -9.00000000
7.91825056 2.30196309 1.01249051 99 7 7379 8.30800000 878725612 878725612 7.00000000
5.22699690 1.51858294 -0.66833150 9 8 7380 5.48400000 878725614 878725614 -7.00000000
7.88310909 2.28876305 -0.71816331 17 10 7381 8.24000000 878725619 878725619 -5.00000000
7.90317678 2.29159832 -0.43124828 17 12 7383 8.24000000 878725624 878725624 -3.00000000
8.02041435 2.32407498 1.92783058 0 13 7384 8.57000000 878725626 878725626 13.00000000
7.88864756 2.28440070 -0.14335407 18 14 7385 8.21400000 878725628 878725628 -1.00000000
7.96655607 2.30545449 2.22222042 49 15 7386 8.58600000 878725631 878725631 15.00000000
2.17543864 0.62749678 -0.60667187 4 0 7391 2.34400000 878725651 878725651 -15.00000000
7.89719677 2.27642274 0.14345878 18 1 7392 8.22000000 878725654 878725654 1.00000000
2.55983281 0.73740596 -0.61501616 6 2 7393 2.73400000 878725656 878725656 -13.00000000
7.92099667 2.28028893 0.43198100 100 3 7394 8.25400000 878725658 878725658 3.00000000
3.09973884 0.89234978 -0.62699836 5 4 7394 3.28600000 878725661 878725661 -11.00000000
7.90782499 2.27500248 0.71990645 94 5 7395 8.26000000 878725663 878725663 5.00000000
3.88237810 1.11618781 -0.63981694 6 6 7396 4.09000000 878725665 878725665 -9.00000000
7.92544317 2.27707601 1.01249051 100 7 7397 8.30800000 878725667 878725667 7.00000000
5.23555756 1.50325000 -0.66881895 9 8 7398 5.48800000 878725670 878725670 -7.00000000
7.88259983 2.26178813 -0.71746606 17 10 7399 8.23200000 878725674 878725674 -5.00000000
7.90841675 2.26620841 -0.43114361 17 12 7401 8.23800000 878725679 878725679 -3.00000000
7.88809490 2.25740576 -0.14321445 18 14 7403 8.20600000 878725684 878725684 -1.00000000
7.96407461 2.27914953 2.21963215 56 15 7403 8.57600000 878725686 878725686 15.00000000
2.18876386 0.62307280 -0.60977769 4 0 7411 2.35600000 878725707 878725707 -15.00000000
7.89547825 2.24610662 0.14328426 12 1 7412 8.21000000 878725709 878725709 1.00000000
2.56988907 0.73059756 -0.61681581 9 2 7413 2.74200000 878725711 878725711 -13.00000000
7.92122316 2.25044227 0.43156230 100 3 7414 8.24600000 878725714 878725714 3.00000000
3.10283494 0.88152426 -0.62699836 5 4 7414 3.28600000 878725716 878725716 -11.00000000
7.91188478 2.24629688 0.71955782 94 5 7415 8.25600000 878725718 878725718 5.00000000
3.88435030 1.10208988 -0.63950408 9 6 7416 4.08800000 878725720 878725720 -9.00000000
7.92570448 2.24723101 1.01151550 100 7 7417 8.30000000 878725723 878725723 7.00000000
5.23886347 1.48442423 -0.66857523 9 8 7418 5.48600000 878725725 878725725 -7.00000000
7.88661289 2.23317337 -0.71711743 17 10 7419 8.22800000 878725730 878725730 -5.00000000
7.91435766 2.23804545 -0.43103895 17 12 7421 8.23600000 878725734 878725734 -3.00000000
7.89592695 2.22985744 -0.14321445 18 14 7423 8.20600000 878725739 878725739 -1.00000000
7.97198200 2.25133586 2.21963215 54 15 7423 8.57600000 878725741 878725741 15.00000000
2.19278526 0.61595124 -0.61029530 4 0 7431 2.35800000 878725762 878725762 -15.00000000
7.89941978 2.21745181 0.14321445 15 1 7432 8.20600000 878725764 878725764 1.00000000
2.56304193 0.71899080 -0.61456627 7 2 7433 2.73200000 878725767 878725767 -13.00000000
7.92133808 2.22062182 0.43114361 100 3 7434 8.23800000 878725769 878725769 3.00000000
3.10022187 0.86909819 -0.62585348 5 4 7434 3.28000000 878725771 878725771 -11.00000000
7.91200352 2.21651578 0.71886057 79 5 7435 8.24800000 878725773 878725773 5.00000000
3.91290259 1.09544730 -0.64357138 13 6 7436 4.11400000 878725776 878725776 -9.00000000
7.91438341 2.21420312 1.00907815 99 7 7437 8.28000000 878725778 878725778 7.00000000
5.23636580 1.46399009 -0.66760027 9 8 7438 5.47800000 878725780 878725780 -7.00000000
7.89819813 2.20670247 -0.71746606 17 10 7439 8.23200000 878725785 878725785 -5.00000000
7.90480757 2.20557475 -0.43009689 17 12 7441 8.21800000 878725790 878725790 -3.00000000
7.91714668 2.20603919 -0.14345878 18 14 7443 8.22000000 878725794 878725794 -1.00000000
7.97606993 2.22245765 2.21859694 51 15 7443 8.57200000 878725796 878725796 15.00000000
2.19864535 0.60932511 -0.61133057 4 0 7451 2.36200000 878725817 878725817 -15.00000000
7.90903902 2.19039798 0.14324935 18 1 7452 8.20800000 878725820 878725820 1.00000000
2.55802369 0.70796055 -0.61276668 7 2 7453 2.72400000 878725822 878725822 -13.00000000
7.91749144 2.18976331 0.43051559 100 3 7454 8.22600000 878725824 878725824 3.00000000
3.10512900 0.85879439 -0.62623513 5 4 7454 3.28200000 878725826 878725826 -11.00000000
7.92545366 2.19047642 0.71938348 83 5 7455 8.25400000 878725829 878725829 5.00000000
3.91479850 1.08125615 -0.64325851 11 6 7456 4.11200000 878725831 878725831 -9.00000000
7.92206430 2.18656349 1.00907815 99 7 7457 8.28000000 878725833 878725833 7.00000000
5.23761702 1.44464719 -0.66711277 9 8 7458 5.47400000 878725836 878725836 -7.00000000
7.90393209 2.17858982 -0.71729177 17 10 7459 8.23000000 878725840 878725840 -5.00000000
7.93171453 2.18326879 -0.43114361 17 12 7461 8.23800000 878725845 878725845 -3.00000000
7.90744543 2.17361951 -0.14314464 18 14 7463 8.20200000 878725849 878725849 -1.00000000
7.99161339 2.19525576 2.22066736 51 15 7464 8.58000000 878725852 878725852 15.00000000
2.19340968 0.59922612 -0.60926002 4 0 7472 2.35400000 878725873 878725873 -15.00000000
7.91701412 2.16139507 0.14324935 12 1 7473 8.20800000 878725875 878725875 1.00000000
2.57376146 0.70217055 -0.61591601 9 2 7474 2.73800000 878725877 878725877 -13.00000000
7.92546415 2.16072941 0.43051559 100 3 7475 8.22600000 878725879 878725879 3.00000000
3.08552623 0.84121102 -0.62165570 6 4 7475 3.25800000 878725882 878725882 -11.00000000
7.92766190 2.15984225 0.71886057 90 5 7476 8.24800000 878725884 878725884 5.00000000
3.91682935 1.06638145 -0.64294565 9 6 7477 4.11000000 878725886 878725886 -9.00000000
7.93002510 2.15751290 1.00907815 100 7 7478 8.28000000 878725889 878725889 7.00000000
5.23713017 1.42387831 -0.66638160 6 8 7479 5.46800000 878725891 878725891 -7.00000000
7.90417290 2.14751625 -0.71659452 17 10 7480 8.22200000 878725896 878725896 -5.00000000
7.92231512 2.14947605 -0.43020156 17 12 7482 8.22000000 878725900 878725900 -3.00000000
7.89991808 2.14043903 -0.14286540 18 14 7484 8.18600000 878725905 878725905 -1.00000000
7.98244619 2.16279960 2.21600866 47 15 7484 8.56200000 878725907 878725907 15.00000000
2.18429613 0.58855045 -0.60615420 4 0 7492 2.34200000 878725928 878725928 -15.00000000
7.90520144 2.12854719 0.14290030 15 1 7493 8.18800000 878725930 878725930 1.00000000
2.58184218 0.69470119 -0.61726570 10 2 7494 2.74400000 878725932 878725932 -13.00000000
7.94067335 2.13512564 0.43093425 100 3 7495 8.23400000 878725935 878725935 3.00000000
3.09223557 0.83145493 -0.62241894 8 4 7495 3.26200000 878725937 878725937 -11.00000000
7.92168379 2.12853742 0.71764040 83 5 7496 8.23400000 878725939 878725939 5.00000000
3.90908098 1.04962909 -0.64106846 9 6 7497 4.09800000 878725942 878725942 -9.00000000
7.94134235 2.13084769 1.00956559 100 7 7498 8.28400000 878725944 878725944 7.00000000
5.24973774 1.40764511 -0.66735655 6 8 7499 5.47600000 878725946 878725946 -7.00000000
7.89814949 2.11630273 -0.71537435 17 10 7500 8.20800000 878725951 878725951 -5.00000000
7.92205238 2.11974406 -0.42978287 25 12 7502 8.21200000 878725955 878725955 -3.00000000
7.91120529 2.11388254 -0.14293520 18 14 7504 8.19000000 878725960 878725960 -1.00000000
7.97874880 2.13193035 2.21290278 49 15 7504 8.55000000 878725962 878725962 15.00000000
2.19743776 0.58428228 -0.60926002 4 0 7511 2.35400000 878725983 878725983 -15.00000000
7.90641880 2.10078025 0.14279559 12 1 7512 8.18200000 878725985 878725985 1.00000000
2.57471442 0.68363518 -0.61501616 9 2 7513 2.73400000 878725988 878725988 -13.00000000
7.93768978 2.10760617 0.43041089 100 3 7513 8.22400000 878725990 878725990 3.00000000
3.09497595 0.82119614 -0.62241894 6 4 7514 3.26200000 878725992 878725992 -11.00000000
7.92099571 2.10021400 0.71694314 83 5 7515 8.22600000 878725995 878725995 5.00000000
3.90299273 1.03413069 -0.63950408 9 6 7516 4.08800000 878725997 878725997 -9.00000000
7.93109417 2.09992862 1.00737202 97 7 7517 8.26600000 878725999 878725999 7.00000000
5.26013422 1.39175189 -0.66808772 9 8 7518 5.48200000 878726001 878726001 -7.00000000
7.90705013 2.09060931 -0.71554863 17 10 7519 8.21000000 878726006 878726006 -5.00000000
7.92131376 2.09142256 -0.42936417 21 12 7521 8.20400000 878726011 878726011 -3.00000000
7.91817188 2.08763647 -0.14293520 18 14 7523 8.19000000 878726015 878726015 -1.00000000
7.98203897 2.10447502 2.21186757 49 15 7523 8.54600000 878726018 878726018 15.00000000
2.19946384 0.57660824 -0.60926002 4 0 7531 2.35400000 878726038 878726038 -15.00000000
7.90790033 2.07164860 0.14269088 15 1 7532 8.17600000 878726041 878726041 1.00000000
2.56954408 0.67266947 -0.61321658 9 2 7533 2.72600000 878726043 878726043 -13.00000000
7.93956470 2.07698250 0.43009689 100 3 7534 8.21800000 878726045 878726045 3.00000000
3.10162210 0.81138140 -0.62318218 5 4 7534 3.26600000 878726048 878726048 -11.00000000
7.93791628 2.07507110 0.71781468 90 5 7535 8.23600000 878726050 878726050 5.00000000
3.90084505 1.01900268 -0.63856548 11 6 7536 4.08200000 878726052 878726052 -9.00000000
7.93645525 2.07172990 1.00712824 100 7 7537 8.26400000 878726054 878726054 7.00000000
5.26303911 1.37288105 -0.66784400 9 8 7538 5.48000000 878726057 878726057 -7.00000000
7.91429949 2.06299567 -0.71554863 17 10 7539 8.21000000 878726061 878726061 -5.00000000
7.92663336 2.06325603 -0.42925951 17 12 7541 8.20200000 878726066 878726066 -3.00000000
7.92347527 2.05948114 -0.14290030 20 14 7543 8.18800000 878726071 878726071 -1.00000000
7.99343824 2.07617664 2.21290278 49 15 7544 8.55000000 878726073 878726073 15.00000000
2.20156240 0.56854296 -0.60926002 4 0 7552 2.35400000 878726094 878726094 -15.00000000
7.92318535 2.04464960 0.14283049 15 1 7553 8.18400000 878726096 878726096 1.00000000
2.57010531 0.66276050 -0.61276668 7 2 7554 2.72400000 878726098 878726098 -13.00000000
7.94096422 2.04775929 0.42978287 100 3 7554 8.21200000 878726101 878726101 3.00000000
3.09887171 0.79853821 -0.62203735 5 4 7555 3.26000000 878726103 878726103 -11.00000000
7.93968010 2.04447293 0.71729177 83 5 7556 8.23000000 878726105 878726105 5.00000000
3.91985822 1.00863647 -0.64106846 11 6 7557 4.09800000 878726107 878726107 -9.00000000
7.95168543 2.04460478 1.00810325 100 7 7558 8.27200000 878726110 878726110 7.00000000
5.25457716 1.35012376 -0.66613781 9 8 7559 5.46600000 878726112 878726112 -7.00000000
7.92180777 2.03397441 -0.71554863 17 10 7560 8.21000000 878726117 878726117 -5.00000000
7.93027306 2.03319764 -0.42905018 17 12 7562 8.19800000 878726121 878726121 -3.00000000
7.93097067 2.03042626 -0.14290030 20 14 7564 8.18800000 878726126 878726126 -1.00000000
8.00250816 2.04874086 2.21342039 56 15 7564 8.55200000 878726128 878726128 15.00000000
2.19230056 0.55799550 -0.60615420 4 0 7572 2.34200000 878726149 878726149 -15.00000000
7.92833614 2.01648712 0.14279559 21 1 7573 8.18200000 878726151 878726151 1.00000000
2.57618046 0.65474516 -0.61366647 5 2 7574 2.72800000 878726153 878726153 -13.00000000
7.94419241 2.01904392 0.42957354 100 3 7574 8.20800000 878726156 878726156 3.00000000
3.10354304 0.78819954 -0.62241894 5 4 7575 3.26200000 878726158 878726158 -11.00000000
7.94290590 2.01576543 0.71694314 83 5 7576 8.22600000 878726160 878726160 5.00000000
3.93292880 0.99737543 -0.64263278 18 6 7577 4.10800000 878726163 878726163 -9.00000000
7.95107698 2.01488519 1.00712824 100 7 7578 8.26400000 878726165 878726165 7.00000000
5.26695538 1.33372283 -0.66711277 6 8 7579 5.47400000 878726167 878726167 -7.00000000
7.91727018 2.00337744 -0.71450275 17 10 7580 8.19800000 878726172 878726172 -5.00000000
7.93925810 2.00599265 -0.42915484 17 12 7582 8.20000000 878726177 878726177 -3.00000000
7.91474247 1.99685943 -0.14248145 16 14 7584 8.16400000 878726181 878726181 -1.00000000
8.00211811 2.01890397 2.21134996 49 15 7584 8.54400000 878726183 878726183 15.00000000
2.19779015 0.55204672 -0.60718948 4 0 7590 2.34600000 878726204 878726204 -15.00000000
7.93269253 1.99108279 0.14276068 21 1 7591 8.18000000 878726206 878726206 1.00000000
2.58578563 0.64854497 -0.61546606 5 2 7592 2.73600000 878726209 878726209 -13.00000000
7.95084429 1.99268889 0.42957354 100 3 7593 8.20800000 878726211 878726211 3.00000000
3.11171722 0.77987742 -0.62356383 5 4 7593 3.26800000 878726213 878726213 -11.00000000
7.93567085 1.98741400 0.71572298 90 5 7594 8.21200000 878726216 878726216 5.00000000
3.92646146 0.98261708 -0.64106846 20 6 7595 4.09800000 878726218 878726218 -9.00000000
7.95736790 1.98989630 1.00712824 99 7 7596 8.26400000 878726220 878726220 7.00000000
5.27497149 1.31813204 -0.66760027 9 8 7597 5.47800000 878726223 878726223 -7.00000000
7.91192675 1.97559857 -0.71345693 17 10 7598 8.18600000 878726227 878726227 -5.00000000
7.94358301 1.98055768 -0.42905018 17 12 7600 8.19800000 878726232 878726232 -3.00000000
7.93261957 1.97488332 -0.14269088 18 14 7602 8.17600000 878726236 878726236 -1.00000000
7.99564600 1.98909223 2.20772648 47 15 7603 8.53000000 878726239 878726239 15.00000000
2.19970369 0.54437166 -0.60718948 4 0 7610 2.34600000 878726259 878726259 -15.00000000
7.92988825 1.96098018 0.14258616 18 1 7611 8.17000000 878726262 878726262 1.00000000
2.58046627 0.63764501 -0.61366647 6 2 7612 2.72800000 878726264 878726264 -13.00000000
7.95159149 1.96487463 0.42925951 100 3 7612 8.20200000 878726266 878726266 3.00000000
3.11632633 0.76948142 -0.62394542 5 4 7613 3.27000000 878726269 878726269 -11.00000000
7.93869114 1.95874679 0.71537435 79 5 7614 8.20800000 878726271 878726271 5.00000000
3.93945718 0.97126949 -0.64263278 9 6 7615 4.10800000 878726273 878726273 -9.00000000
7.95270061 1.95925856 1.00566578 99 7 7616 8.25200000 878726276 878726276 7.00000000
5.27954006 1.29971099 -0.66760027 9 8 7617 5.47800000 878726278 878726278 -7.00000000
7.92651367 1.94987249 -0.71415418 13 10 7618 8.19400000 878726283 878726283 -5.00000000
7.94075012 1.95043528 -0.42852682 17 12 7620 8.18800000 878726287 878726287 -3.00000000
7.93558025 1.94622862 -0.14262107 18 14 7622 8.17200000 878726292 878726292 -1.00000000
8.00629330 1.96208978 2.20876169 47 15 7623 8.53400000 878726294 878726294 15.00000000
2.19793034 0.53539127 -0.60615420 4 0 7631 2.34200000 878726315 878726315 -15.00000000
7.93507910 1.93142962 0.14255126 15 1 7632 8.16800000 878726317 878726317 1.00000000
2.57521200 0.62634069 -0.61186689 5 2 7633 2.72000000 878726319 878726319 -13.00000000
7.95485830 1.93477333 0.42905018 100 3 7633 8.19800000 878726322 878726322 3.00000000
3.11721802 0.75759071 -0.62356383 4 4 7634 3.26800000 878726324 878726324 -11.00000000
7.95356131 1.93151760 0.71607161 79 5 7635 8.21600000 878726326 878726326 5.00000000
3.94107080 0.95635831 -0.64231992 9 6 7636 4.10600000 878726329 878726329 -9.00000000
7.95596981 1.92916179 1.00517833 100 7 7637 8.24800000 878726331 878726331 7.00000000
5.28812695 1.28128672 -0.66808772 9 8 7638 5.48200000 878726333 878726333 -7.00000000
6.47352886 1.56730747 -0.58272332 12 10 7639 6.68600000 878726338 878726338 -5.00000000
7.93425608 1.91803277 -0.42779410 17 12 7641 8.17400000 878726342 878726342 -3.00000000
7.94071674 1.91666102 -0.14258616 16 14 7643 8.17000000 878726347 878726347 -1.00000000
8.00591850 1.93092024 2.20669127 49 15 7644 8.52600000 878726349 878726349 15.00000000
2.21481419 0.53132099 -0.61029530 4 0 7651 2.35800000 878726370 878726370 -15.00000000
7.94566202 1.90465152 0.14262107 15 1 7652 8.17200000 878726372 878726372 1.00000000
2.58496308 0.61916339 -0.61366647 6 2 7653 2.72800000 878726375 878726375 -13.00000000
7.94602489 1.90327203 0.42821279 100 3 7653 8.18200000 878726377 878726377 3.00000000
3.11793423 0.74624801 -0.62318218 5 4 7654 3.26600000 878726379 878726379 -11.00000000
7.96025515 1.90374267 0.71607161 79 5 7655 8.21600000 878726382 878726382 5.00000000
3.95591283 0.94535035 -0.64419711 9 6 7656 4.11800000 878726384 878726384 -9.00000000
7.96265554 1.90137851 1.00517833 100 7 7657 8.24800000 878726386 878726386 7.00000000
5.27712011 1.25913417 -0.66613781 9 8 7658 5.46600000 878726389 878726389 -7.00000000
6.48671246 1.54654944 -0.58342052 16 10 7659 6.69400000 878726393 878726393 -5.00000000
7.93507385 1.88893783 -0.42748010 17 12 7661 8.16800000 878726398 878726398 -3.00000000
7.94152212 1.88754380 -0.14248145 16 14 7663 8.16400000 878726402 878726402 -1.00000000
8.02012825 1.90474820 2.20876169 47 15 7664 8.53400000 878726405 878726405 15.00000000
2.20519257 0.52169186 -0.60718948 4 0 7669 2.34600000 878726425 878726425 -15.00000000
7.94576836 1.87830007 0.14251634 21 1 7670 8.16600000 878726428 878726428 1.00000000
2.59448171 0.61283135 -0.61546606 6 2 7671 2.73600000 878726430 878726430 -13.00000000
7.95779657 1.87967694 0.42852682 100 3 7671 8.18800000 878726432 878726432 3.00000000
3.11835241 0.73599803 -0.62280059 4 4 7672 3.26400000 878726435 878726435 -11.00000000
7.95262241 1.87552416 0.71485138 83 5 7673 8.20200000 878726437 878726437 5.00000000
3.95886326 0.93291783 -0.64419711 9 6 7674 4.11800000 878726439 878726439 -9.00000000
7.96858931 1.87635374 1.00517833 99 7 7675 8.24800000 878726441 878726441 7.00000000
5.28104973 1.24254942 -0.66613781 9 8 7676 5.46600000 878726444 878726444 -7.00000000
6.49153948 1.52616322 -0.58342052 12 10 7677 6.69400000 878726448 878726448 -5.00000000
7.95457983 1.86719465 -0.42821279 17 12 7679 8.18200000 878726453 878726453 -3.00000000
7.94351912 1.86167288 -0.14241163 18 14 7681 8.16000000 878726458 878726458 -1.00000000
8.01445961 1.87829876 2.20565581 47 15 7681 8.52200000 878726460 878726460 15.00000000
2.20323730 0.51311475 -0.60615420 4 0 7689 2.34200000 878726481 878726481 -15.00000000
7.94838095 1.84964621 0.14244655 28 1 7690 8.16200000 878726483 878726483 1.00000000
2.59660506 0.60377121 -0.61546606 5 2 7691 2.73600000 878726485 878726485 -13.00000000
7.96625471 1.85233986 0.42863148 100 3 7691 8.19000000 878726488 878726488 3.00000000
3.12472725 0.72599709 -0.62356383 4 4 7692 3.26800000 878726490 878726490 -11.00000000
7.95329809 1.84640121 0.71432847 79 5 7693 8.19600000 878726492 878726492 5.00000000
3.95054984 0.91641486 -0.64231992 9 6 7694 4.10600000 878726494 878726494 -9.00000000
7.97509050 1.84852672 1.00517833 99 7 7695 8.24800000 878726497 878726497 7.00000000
5.29695845 1.22679496 -0.66760027 9 8 7696 5.47800000 878726499 878726499 -7.00000000
6.48129845 1.49990058 -0.58202606 12 10 7697 6.67800000 878726504 878726504 -5.00000000
7.95715714 1.83851731 -0.42800346 17 12 7699 8.17800000 878726508 878726508 -3.00000000
7.94802046 1.83348405 -0.14237674 18 14 7701 8.15800000 878726513 878726513 -1.00000000
8.00999451 1.84630823 2.20255017 47 15 7702 8.51000000 878726515 878726515 15.00000000
2.20886922 0.50589859 -0.60718948 4 0 7710 2.34600000 878726536 878726536 -15.00000000
7.94536066 1.81827104 0.14227201 28 1 7711 8.15200000 878726538 878726538 1.00000000
2.59500122 0.59338135 -0.61456627 6 2 7712 2.73200000 878726541 878726541 -13.00000000
7.97136116 1.82129323 0.42852682 100 3 7713 8.18800000 878726543 878726543 3.00000000
3.11588359 0.71191573 -0.62127411 4 4 7713 3.25600000 878726545 878726545 -11.00000000
7.95612764 1.81635153 0.71397984 76 5 7714 8.19200000 878726547 878726547 5.00000000
3.94617867 0.90017194 -0.64106846 9 6 7715 4.09800000 878726550 878726550 -9.00000000
7.97213507 1.81707847 1.00395966 95 7 7716 8.23800000 878726552 878726552 7.00000000
5.29367733 1.20560908 -0.66662532 6 8 7717 5.47000000 878726554 878726554 -7.00000000
6.49646568 1.47834575 -0.58289760 16 10 7718 6.68800000 878726559 878726559 -5.00000000
7.95410395 1.80712807 -0.42748010 21 12 7720 8.16800000 878726564 878726564 -3.00000000
7.95468712 1.80434072 -0.14237674 16 14 7722 8.15800000 878726568 878726568 -1.00000000
8.02015877 1.81919158 2.20358539 47 15 7722 8.51400000 878726571 878726571 15.00000000
2.21439099 0.49903455 -0.60822475 4 0 7730 2.35000000 878726591 878726591 -15.00000000
7.95165920 1.79052556 0.14227201 21 1 7731 8.15200000 878726594 878726594 1.00000000
2.58374810 0.58132517 -0.61141694 6 2 7732 2.71800000 878726596 878726596 -13.00000000
7.97182417 1.79214263 0.42821279 100 3 7733 8.18200000 878726598 878726598 3.00000000
3.12601137 0.70275742 -0.62280059 4 4 7733 3.26400000 878726600 878726600 -11.00000000
7.96630716 1.78944182 0.71432847 79 5 7734 8.19600000 878726603 878726603 5.00000000
3.94929671 0.88639176 -0.64106846 9 6 7735 4.09800000 878726605 878726605 -9.00000000
7.96680737 1.78663313 1.00249720 92 7 7736 8.22600000 878726607 878726607 7.00000000
5.29397917 1.18625534 -0.66613781 6 8 7737 5.46600000 878726610 878726610 -7.00000000
6.48992109 1.45304799 -0.58185172 24 10 7738 6.67600000 878726614 878726614 -5.00000000
7.94477034 1.77586663 -0.42664272 17 12 7740 8.15200000 878726619 878726619 -3.00000000
7.95898533 1.77612722 -0.14234182 16 14 7742 8.15600000 878726624 878726624 -1.00000000
8.02677250 1.78978395 2.20358539 47 15 7743 8.51400000 878726626 878726626 15.00000000
2.23112154 0.49503627 -0.61236584 4 0 7749 2.36600000 878726647 878726647 -15.00000000
7.95950508 1.76457977 0.14230692 18 1 7750 8.15400000 878726649 878726649 1.00000000
2.58756423 0.57317537 -0.61186689 6 2 7751 2.72000000 878726651 878726651 -13.00000000
7.96797323 1.76353931 0.42768943 99 3 7752 8.17200000 878726653 878726653 3.00000000
3.13215852 0.69323581 -0.62356383 4 4 7752 3.26800000 878726656 878726656 -11.00000000
7.97803354 1.76430535 0.71485138 83 5 7753 8.20200000 878726658 878726658 5.00000000
3.96764517 0.87670016 -0.64357138 9 6 7754 4.11400000 878726660 878726660 -9.00000000
7.98044157 1.76191628 1.00347221 95 7 7755 8.23400000 878726663 878726663 7.00000000
5.28431416 1.16569996 -0.66443163 9 8 7756 5.45200000 878726665 878726665 -7.00000000
6.52778053 1.43880928 -0.58481503 48 10 7757 6.71000000 878726670 878726670 -5.00000000
7.95451689 1.75036943 -0.42685205 17 12 7759 8.15600000 878726674 878726674 -3.00000000
7.95701885 1.74800825 -0.14220221 16 14 7761 8.14800000 878726679 878726679 -1.00000000
8.03612995 1.76538742 2.20462060 47 15 7761 8.51800000 878726681 878726681 15.00000000
2.21207404 0.48271459 -0.60667187 4 0 7769 2.34400000 878726702 878726702 -15.00000000
7.96366262 1.73635924 0.14227201 21 1 7770 8.15200000 878726704 878726704 1.00000000
2.59906960 0.56621367 -0.61411637 6 2 7771 2.73000000 878726706 878726706 -13.00000000
7.97017717 1.73486555 0.42748010 100 3 7772 8.16800000 878726709 878726709 3.00000000
3.11921239 0.67895782 -0.62051088 5 4 7772 3.25200000 878726711 878726711 -11.00000000
7.97051525 1.73348212 0.71363121 94 5 7773 8.18800000 878726713 878726713 5.00000000
3.96296000 0.86116725 -0.64231992 9 6 7774 4.10600000 878726716 878726716 -9.00000000
7.98072386 1.73278499 1.00274098 100 7 7775 8.22800000 878726718 878726718 7.00000000
5.29029131 1.14766800 -0.66467541 6 8 7776 5.45400000 878726720 878726720 -7.00000000
6.49771404 1.40841711 -0.58167744 20 10 7777 6.67400000 878726725 878726725 -5.00000000
7.95667410 1.72174752 -0.42664272 17 12 7779 8.15200000 878726729 878726729 -3.00000000
7.95916271 1.71937788 -0.14213240 16 14 7781 8.14400000 878726734 878726734 -1.00000000
8.03310394 1.73388374 2.20203233 45 15 7782 8.50800000 878726736 878726736 15.00000000
2.20996785 0.47417951 -0.60563654 4 0 7789 2.34000000 878726757 878726757 -15.00000000
7.96380901 1.70729280 0.14216730 25 1 7790 8.14600000 878726759 878726759 1.00000000
2.60674691 0.55836225 -0.61546606 7 2 7791 2.73600000 878726762 878726762 -13.00000000
7.98204374 1.70828784 0.42779410 100 3 7792 8.17400000 878726764 878726764 3.00000000
3.12924266 0.66970909 -0.62203735 5 4 7792 3.26000000 878726766 878726766 -11.00000000
7.96287918 1.70273292 0.71241105 76 5 7793 8.17400000 878726769 878726769 5.00000000
3.96207833 0.84650326 -0.64169419 9 6 7794 4.10200000 878726771 878726771 -9.00000000
