# .PCD v0.7 - Point Cloud Data file format
VERSION 0.7
FIELDS x y z intensity laser_id azimuth distance_m adjustedtime timestamp vertical_angle
SIZE 4 4 4 1 1 2 8 8 4 8
TYPE F F F U U U F U U F
COUNT 1 1 1 1 1 1 1 1 1 1
WIDTH 537
HEIGHT 1
VIEWPOINT 0 0 0 1 0 0 0
POINTS 537
DATA ascii
0.77057135 -2.22026324 -0.54258192 3 2 16086 2.41200000 879849659 879849659 -13.00000000
1.88060927 -5.42169285 -1.11546934 7 4 16087 5.84600000 879849663 879849663 -11.00000000
1.86768222 -5.39050150 -0.90356547 47 6 16089 5.77600000 879849668 879849668 -9.00000000
1.42181444 -4.10827398 -0.53378773 2 8 16091 4.38000000 879849672 879849672 -7.00000000
1.85096121 -5.35129738 -0.49539325 35 10 16092 5.68400000 879849677 879849677 -5.00000000
1.85687363 -5.37446308 -0.29800093 30 12 16094 5.69400000 879849682 879849682 -3.00000000
3.72156024 -10.77763367 2.63237715 47 13 16095 11.70200000 879849684 879849684 13.00000000
1.85856497 -5.38544798 -0.09944381 203 14 16096 5.69800000 879849686 879849686 -1.00000000
3.18543315 -9.23545742 2.61769581 35 15 16097 10.11400000 879849689 879849689 15.00000000
0.66533446 -1.93666267 -0.54869640 4 0 16104 2.12000000 879849709 879849709 -15.00000000
1.86049342 -5.41862202 0.10000229 42 1 16105 5.73000000 879849712 879849712 1.00000000
0.76408154 -2.22662592 -0.54348177 3 2 16106 2.41600000 879849714 879849714 -13.00000000
1.84501338 -5.38577557 -0.90168828 100 6 16109 5.76400000 879849723 879849723 -9.00000000
1.40489447 -4.10569906 -0.53281277 2 8 16111 4.37200000 879849728 879849728 -7.00000000
1.83549392 -5.36715174 -0.49626479 39 10 16112 5.69400000 879849732 879849732 -5.00000000
1.84003890 -5.38658190 -0.29831496 45 12 16114 5.70000000 879849737 879849737 -3.00000000
3.68139815 -10.78318119 2.63057756 48 13 16115 11.69400000 879849739 879849739 13.00000000
1.83975494 -5.39190292 -0.09944381 203 14 16116 5.69800000 879849742 879849742 -1.00000000
3.15790892 -9.25511169 2.62028408 38 15 16116 10.12400000 879849744 879849744 15.00000000
0.65608501 -1.93165648 -0.54662585 4 0 16124 2.11200000 879849765 879849765 -15.00000000
1.83835375 -5.41561556 0.09982777 47 1 16125 5.72000000 879849767 879849767 1.00000000
0.75755668 -2.23297024 -0.54438156 3 2 16126 2.42000000 879849769 879849769 -13.00000000
1.83380616 -5.41463518 -0.90544266 100 6 16129 5.78800000 879849778 879849778 -9.00000000
1.39055443 -4.11057806 -0.53281277 2 8 16131 4.37200000 879849783 879849783 -7.00000000
1.81100476 -5.35653925 -0.49469599 38 10 16132 5.67600000 879849788 879849788 -5.00000000
1.82314205 -5.39864874 -0.29862896 30 12 16134 5.70600000 879849792 879849792 -3.00000000
3.64498186 -10.79965878 2.63147736 47 13 16135 11.69800000 879849795 879849795 13.00000000
1.81900501 -5.39260769 -0.09933910 199 14 16136 5.69200000 879849797 879849797 -1.00000000
3.12064362 -9.25143433 2.61614299 38 15 16136 10.10800000 879849799 879849799 15.00000000
0.64564884 -1.92294657 -0.54351997 4 0 16144 2.10000000 879849820 879849820 -15.00000000
0.75099683 -2.23929644 -0.54528135 3 2 16146 2.42400000 879849825 879849825 -13.00000000
1.81301308 -5.41538382 -0.90450406 99 6 16149 5.78200000 879849834 879849834 -9.00000000
1.37745643 -4.11917210 -0.53330022 2 8 16151 4.37600000 879849838 879849838 -7.00000000
1.78850675 -5.35149050 -0.49365014 28 10 16152 5.66400000 879849843 879849843 -5.00000000
1.80744827 -5.41445255 -0.29915231 24 12 16154 5.71600000 879849848 879849848 -3.00000000
3.60972857 -10.81971073 2.63327694 47 13 16155 11.70600000 879849850 879849850 13.00000000
1.80270040 -5.40651226 -0.09947871 181 14 16156 5.70000000 879849852 879849852 -1.00000000
3.08955336 -9.26593685 2.61717820 38 15 16156 10.11200000 879849854 879849854 15.00000000
0.63771558 -1.92152154 -0.54248470 4 0 16164 2.09600000 879849875 879849875 -15.00000000
0.74317563 -2.24190426 -0.54528135 3 2 16166 2.42400000 879849880 879849880 -13.00000000
1.79978788 -5.43251276 -1.11241639 140 4 16167 5.83000000 879849884 879849884 -11.00000000
1.79533994 -5.42542982 -0.90512979 47 6 16169 5.78600000 879849889 879849889 -9.00000000
1.36057746 -4.11641645 -0.53232527 2 8 16171 4.36800000 879849894 879849894 -7.00000000
1.77668989 -5.37851095 -0.49556756 31 10 16172 5.68600000 879849898 879849898 -5.00000000
1.79041469 -5.42641878 -0.29946634 21 12 16174 5.72200000 879849903 879849903 -3.00000000
3.57437992 -10.83964825 2.63507676 50 13 16175 11.71400000 879849905 879849905 13.00000000
1.79320562 -5.44126034 -0.10000229 141 14 16176 5.73000000 879849907 879849907 -1.00000000
3.05738425 -9.28270245 2.61873102 35 15 16177 10.11800000 879849910 879849910 15.00000000
0.63374978 -1.93096781 -0.54455525 4 0 16183 2.10400000 879849931 879849931 -15.00000000
1.77812755 -5.42095757 0.09958343 2 1 16184 5.70600000 879849933 879849933 1.00000000
0.72966671 -2.22583842 -0.54078233 3 2 16185 2.40400000 879849935 879849935 -13.00000000
1.34445262 -4.11335802 -0.53135031 2 8 16190 4.36000000 879849949 879849949 -7.00000000
1.76131904 -5.39194870 -0.49626479 32 10 16191 5.69400000 879849954 879849954 -5.00000000
1.77364922 -5.43612337 -0.29967567 12 12 16193 5.72600000 879849958 879849958 -3.00000000
3.53599811 -10.84403038 2.63327694 50 13 16194 11.70600000 879849960 879849960 13.00000000
3.03119946 -9.30144596 2.62131929 38 15 16195 10.12800000 879849965 879849965 15.00000000
0.63058168 -1.94419396 -0.54766113 4 0 16203 2.11600000 879849986 879849986 -15.00000000
0.72309375 -2.23207974 -0.54168212 3 2 16205 2.40800000 879849990 879849990 -13.00000000
1.04298687 -3.22529984 -0.53688306 1 6 16208 3.43200000 879850000 879850000 -9.00000000
1.32764566 -4.11046982 -0.53037536 2 8 16210 4.35200000 879850004 879850004 -7.00000000
1.74738324 -5.41323280 -0.49765930 32 10 16211 5.71000000 879850009 879850009 -5.00000000
1.76140440 -5.46319151 -0.30082709 9 12 16213 5.74800000 879850013 879850013 -3.00000000
3.49931931 -10.86001778 2.63417673 46 13 16214 11.71000000 879850016 879850016 13.00000000
3.00108171 -9.31932545 2.62338996 40 15 16215 10.13600000 879850020 879850020 15.00000000
0.61907452 -1.93166578 -0.54351997 4 0 16223 2.10000000 879850041 879850041 -15.00000000
0.71708024 -2.24015808 -0.54303187 4 2 16225 2.41400000 879850046 879850046 -13.00000000
0.84525633 -2.64216828 -0.53922623 2 4 16226 2.82600000 879850050 879850050 -11.00000000
1.02991843 -3.22327590 -0.53594446 1 6 16228 3.42600000 879850055 879850055 -9.00000000
1.31932461 -4.13399029 -0.53281277 2 8 16230 4.37200000 879850059 879850059 -7.00000000
1.72908223 -5.42119741 -0.49783361 29 10 16231 5.71200000 879850064 879850064 -5.00000000
3.46138930 -10.87216568 2.63417673 48 13 16234 11.71000000 879850071 879850071 13.00000000
2.96677566 -9.32422161 2.62183690 35 15 16235 10.13000000 879850076 879850076 15.00000000
0.61116165 -1.93013155 -0.54248470 4 0 16243 2.09600000 879850096 879850096 -15.00000000
0.71336961 -2.25565386 -0.54618114 3 2 16245 2.42800000 879850101 879850101 -13.00000000
0.83247828 -2.63387084 -0.53693652 3 4 16246 2.81400000 879850106 879850106 -11.00000000
1.01509285 -3.21554899 -0.53406727 1 6 16248 3.41400000 879850110 879850110 -9.00000000
1.30130470 -4.12721109 -0.53135031 2 8 16250 4.36000000 879850115 879850115 -7.00000000
1.71613610 -5.44620275 -0.49957672 18 10 16251 5.73200000 879850119 879850119 -5.00000000
3.42692566 -10.89533615 2.63687634 47 13 16254 11.72200000 879850126 879850126 13.00000000
2.93084383 -9.32950401 2.62028408 38 15 16256 10.12400000 879850131 879850131 15.00000000
0.60442054 -1.93225312 -0.54248470 4 0 16263 2.09600000 879850152 879850152 -15.00000000
0.70200479 -2.24696970 -0.54348177 3 2 16265 2.41600000 879850156 879850156 -13.00000000
0.82210904 -2.63301253 -0.53617328 3 4 16266 2.81000000 879850161 879850161 -11.00000000
1.00562656 -3.22473001 -0.53500587 1 6 16268 3.42000000 879850165 879850165 -9.00000000
1.28452885 -4.12414742 -0.53037536 2 8 16270 4.35200000 879850170 879850170 -7.00000000
1.70481288 -5.47689056 -0.50184274 10 10 16271 5.75800000 879850175 879850175 -5.00000000
3.39234209 -10.91839790 2.63957572 47 13 16274 11.73400000 879850182 879850182 13.00000000
2.90275431 -9.34839630 2.62287211 35 15 16275 10.13400000 879850186 879850186 15.00000000
0.59995323 -1.94173419 -0.54455525 4 0 16283 2.10400000 879850207 879850207 -15.00000000
0.69185859 -2.24195814 -0.54168212 3 2 16285 2.40800000 879850211 879850211 -13.00000000
0.81638461 -2.64712262 -0.53846300 3 4 16286 2.82200000 879850216 879850216 -11.00000000
0.99436402 -3.22822070 -0.53500587 1 6 16288 3.42000000 879850221 879850221 -9.00000000
1.27829683 -4.15516901 -0.53378773 2 8 16290 4.38000000 879850225 879850225 -7.00000000
1.70676291 -5.55136728 -0.50811797 10 10 16291 5.83000000 879850230 879850230 -5.00000000
2.80767131 -9.14351082 -0.50127381 4 12 16293 9.57800000 879850235 879850235 -3.00000000
3.35192227 -10.92272091 2.63777614 48 13 16294 11.72600000 879850237 879850237 13.00000000
2.87180376 -9.36401272 2.62442517 38 15 16295 10.14000000 879850241 879850241 15.00000000
0.59429932 -1.94751203 -0.54559052 4 0 16303 2.10800000 879850262 879850262 -15.00000000
0.68630099 -2.25181580 -0.54348177 3 2 16305 2.41600000 879850267 879850267 -13.00000000
0.80713946 -2.64995623 -0.53846300 3 4 16306 2.82200000 879850271 879850271 -11.00000000
0.97849011 -3.21655297 -0.53250289 1 6 16308 3.40400000 879850276 879850276 -9.00000000
1.25916827 -4.14441061 -0.53183782 2 8 16310 4.36400000 879850281 879850281 -7.00000000
1.69258440 -5.57444906 -0.50968677 11 10 16311 5.84800000 879850285 879850285 -5.00000000
2.77573752 -9.15325546 -0.50127381 4 12 16313 9.57800000 879850290 879850290 -3.00000000
3.31377435 -10.93435478 2.63777614 47 13 16314 11.72600000 879850292 879850292 13.00000000
2.78765416 -9.20991421 2.57835531 27 15 16316 9.96200000 879850297 879850297 15.00000000
0.58638287 -1.94587529 -0.54455525 4 0 16323 2.10400000 879850317 879850317 -15.00000000
0.67506677 -2.24300146 -0.54078233 3 2 16325 2.40400000 879850322 879850322 -13.00000000
0.79336065 -2.63771701 -0.53541005 3 4 16326 2.80600000 879850327 879850327 -11.00000000
0.97293931 -3.23886776 -0.53563160 1 6 16328 3.42400000 879850331 879850331 -9.00000000
1.23556685 -4.11835909 -0.52793801 2 8 16330 4.33200000 879850336 879850336 -7.00000000
1.68398750 -5.61658382 -0.51299870 11 10 16331 5.88600000 879850341 879850341 -5.00000000
2.74376988 -9.16288948 -0.50127381 4 12 16333 9.57800000 879850345 879850345 -3.00000000
3.27782106 -10.95332336 2.63957572 50 13 16334 11.73400000 879850347 879850347 13.00000000
2.80693626 -9.39172649 2.62649560 38 15 16336 10.14800000 879850352 879850352 15.00000000
0.57738316 -1.94050384 -0.54248470 4 0 16343 2.09600000 879850373 879850373 -15.00000000
0.67056376 -2.25655222 -0.54348177 3 2 16345 2.41600000 879850377 879850377 -13.00000000
0.78191286 -2.63294220 -0.53388357 3 4 16346 2.79800000 879850382 879850382 -11.00000000
0.96050423 -3.23845649 -0.53500587 1 6 16348 3.42000000 879850387 879850387 -9.00000000
1.22682154 -4.14168024 -0.53037536 2 8 16350 4.35200000 879850391 879850391 -7.00000000
1.68699312 -5.69884539 -0.51997113 3 10 16351 5.96600000 879850396 879850396 -5.00000000
3.24287987 -10.97591114 2.64227509 50 13 16354 11.74600000 879850403 879850403 13.00000000
2.77194905 -9.39405632 2.62442517 38 15 16356 10.14000000 879850407 879850407 15.00000000
0.57060599 -1.94250739 -0.54248470 4 0 16363 2.09600000 879850428 879850428 -15.00000000
0.66158569 -2.25513935 -0.54258192 4 2 16365 2.41200000 879850433 879850433 -13.00000000
0.77161270 -2.63188767 -0.53312033 3 4 16366 2.79400000 879850437 879850437 -11.00000000
0.94530851 -3.22851896 -0.53281581 1 6 16368 3.40600000 879850442 879850442 -9.00000000
1.21569979 -4.15736914 -0.53183782 2 8 16370 4.36400000 879850447 879850447 -7.00000000
1.68050289 -5.75059700 -0.52415466 3 10 16371 6.01400000 879850451 879850451 -5.00000000
3.20454693 -10.98716450 2.64227509 47 13 16374 11.74600000 879850458 879850458 13.00000000
2.74292254 -9.41665840 2.62804866 40 15 16376 10.15400000 879850463 879850463 15.00000000
0.56651187 -1.95376456 -0.54507291 4 0 16383 2.10600000 879850483 879850483 -15.00000000
0.64991540 -2.24433208 -0.53943264 4 2 16385 2.39800000 879850488 879850488 -13.00000000
0.76569557 -2.64588022 -0.53541005 3 4 16386 2.80600000 879850493 879850493 -11.00000000
0.93403310 -3.23179913 -0.53281581 1 6 16388 3.40600000 879850497 879850497 -9.00000000
1.19347358 -4.13488626 -0.52842546 2 8 16390 4.33600000 879850502 879850502 -7.00000000
1.65379310 -5.73345613 -0.52206290 3 10 16391 5.99000000 879850506 879850506 -5.00000000
3.16725326 -11.00202847 2.64317489 47 13 16394 11.75000000 879850513 879850513 13.00000000
2.71381712 -9.43312836 2.63011909 38 15 16395 10.16200000 879850518 879850518 15.00000000
0.56075156 -1.95944464 -0.54610819 4 0 16403 2.11000000 879850539 879850539 -15.00000000
0.64261276 -2.24846077 -0.53988254 3 2 16405 2.40000000 879850543 879850543 -13.00000000
0.75429839 -2.64098597 -0.53388357 3 4 16406 2.79800000 879850548 879850548 -11.00000000
0.92220449 -3.23314023 -0.53250289 3 6 16408 3.40400000 879850552 879850552 -9.00000000
1.18066430 -4.14475441 -0.52915668 2 8 16410 4.34200000 879850557 879850557 -7.00000000
1.64031553 -5.76218891 -0.52415466 3 10 16411 6.01400000 879850562 879850562 -5.00000000
3.12882972 -11.01301765 2.64317489 50 13 16414 11.75000000 879850569 879850569 13.00000000
2.68133402 -9.45044613 2.63218975 42 15 16416 10.17000000 879850573 879850573 15.00000000
0.55233330 -1.95581269 -0.54455525 4 0 16423 2.10400000 879850594 879850594 -15.00000000
0.63687617 -2.25819254 -0.54168212 4 2 16425 2.40800000 879850599 879850599 -13.00000000
0.74187958 -2.63226485 -0.53159386 3 4 16426 2.78600000 879850603 879850603 -11.00000000
0.91251874 -3.24204397 -0.53344154 3 6 16428 3.41000000 879850608 879850608 -9.00000000
1.16618931 -4.14885044 -0.52915668 2 8 16430 4.34200000 879850612 879850612 -7.00000000
1.62665737 -5.79089737 -0.52624637 3 10 16431 6.03800000 879850617 879850617 -5.00000000
3.09036803 -11.02387142 2.64317489 48 13 16434 11.75000000 879850624 879850624 13.00000000
2.64789581 -9.45184422 2.63011909 38 15 16435 10.16200000 879850629 879850629 15.00000000
0.54031754 -1.93911922 -0.53937888 4 0 16443 2.08400000 879850649 879850649 -15.00000000
0.63003451 -2.26415658 -0.54258192 4 2 16445 2.41200000 879850654 879850654 -13.00000000
0.73689455 -2.64997053 -0.53464681 3 4 16446 2.80200000 879850658 879850658 -11.00000000
0.89802492 -3.23378944 -0.53156430 3 6 16448 3.39800000 879850663 879850663 -9.00000000
1.14639509 -4.13376713 -0.52671933 2 8 16450 4.32200000 879850668 879850668 -7.00000000
1.59366286 -5.75045967 -0.52206290 3 10 16451 5.99000000 879850672 879850672 -5.00000000
3.05706334 -11.05337429 2.64767385 50 13 16454 11.77000000 879850679 879850679 13.00000000
2.61272097 -9.45962429 2.62960148 40 15 16456 10.16000000 879850684 879850684 15.00000000
0.53627372 -1.94825745 -0.54144943 4 0 16461 2.09200000 879850705 879850705 -15.00000000
0.62240189 -2.26424575 -0.54213202 4 2 16463 2.41000000 879850709 879850709 -13.00000000
0.72752571 -2.64848614 -0.53388357 3 4 16464 2.79800000 879850714 879850714 -11.00000000
0.89047414 -3.24611974 -0.53312868 1 6 16466 3.40800000 879850718 879850718 -9.00000000
1.13864756 -4.15649366 -0.52915668 2 8 16468 4.34200000 879850723 879850723 -7.00000000
1.57558942 -5.75543833 -0.52206290 3 10 16469 5.99000000 879850728 879850728 -5.00000000
3.02386379 -11.06856346 2.64902353 51 13 16472 11.77600000 879850735 879850735 13.00000000
2.58718634 -9.47665215 2.63218975 40 15 16473 10.17000000 879850739 879850739 15.00000000
0.53351921 -1.96503234 -0.54559052 4 0 16481 2.10800000 879850760 879850760 -15.00000000
0.61092472 -2.25323868 -0.53898275 3 2 16483 2.39600000 879850764 879850764 -13.00000000
0.71981663 -2.65669441 -0.53502840 3 4 16484 2.80400000 879850769 879850769 -11.00000000
0.88016951 -3.25302196 -0.53375441 1 6 16486 3.41200000 879850774 879850774 -9.00000000
1.11377585 -4.12211561 -0.52428192 2 8 16488 4.30200000 879850778 879850778 -7.00000000
1.54925728 -5.73782063 -0.51997113 3 10 16489 5.96600000 879850783 879850783 -5.00000000
2.98368788 -11.07340622 2.64767385 50 13 16492 11.77000000 879850790 879850790 13.00000000
2.55394101 -9.49166775 2.63374257 42 15 16494 10.17600000 879850794 879850794 15.00000000
0.52531475 -1.96324217 -0.54455525 4 0 16502 2.10400000 879850815 879850815 -15.00000000
0.60467428 -2.26299357 -0.54078233 3 2 16504 2.40400000 879850820 879850820 -13.00000000
0.33387873 -1.25041616 0.06782740 2 3 16505 1.29600000 879850822 879850822 3.00000000
0.70855510 -2.65362430 -0.53388357 3 4 16505 2.79800000 879850824 879850824 -11.00000000
0.32000563 -1.19929945 0.10859606 2 5 16506 1.24600000 879850827 879850827 5.00000000
0.86976749 -3.26195216 -0.53469300 1 6 16507 3.41800000 879850829 879850829 -9.00000000
1.10581088 -4.15302563 -0.52769428 2 8 16509 4.33000000 879850834 879850834 -7.00000000
1.52821672 -5.74346066 -0.51997113 3 10 16510 5.96600000 879850838 879850838 -5.00000000
2.44288087 -9.19393539 -0.49855232 4 12 16512 9.52600000 879850843 879850843 -3.00000000
2.94208169 -11.08050060 2.64677405 48 13 16513 11.76600000 879850845 879850845 13.00000000
2.52178431 -9.50425911 2.63477778 40 15 16514 10.18000000 879850850 879850850 15.00000000
0.51451588 -1.95012045 -0.54041415 4 0 16522 2.08800000 879850870 879850870 -15.00000000
0.59379238 -2.25378370 -0.53808290 3 2 16524 2.39200000 879850875 879850875 -13.00000000
0.30001858 -1.13955033 0.06175643 2 3 16525 1.18000000 879850877 879850877 3.00000000
0.69728851 -2.64848733 -0.53235710 3 4 16525 2.79000000 879850880 879850880 -11.00000000
0.30060944 -1.14260459 0.10336671 3 5 16526 1.18600000 879850882 879850882 5.00000000
0.85938036 -3.26878929 -0.53531873 3 6 16527 3.42200000 879850884 879850884 -9.00000000
1.09231544 -4.16070032 -0.52818173 2 8 16529 4.33400000 879850889 879850889 -7.00000000
1.51321483 -5.76803160 -0.52171427 3 10 16530 5.98600000 879850893 879850893 -5.00000000
2.40469956 -9.17922211 -0.49729624 4 12 16532 9.50200000 879850898 879850898 -3.00000000
2.90437269 -11.09447384 2.64767385 48 13 16533 11.77000000 879850900 879850900 13.00000000
2.48839831 -9.51904583 2.63633084 42 15 16535 10.18600000 879850905 879850905 15.00000000
0.50542098 -1.94451427 -0.53834361 4 0 16543 2.08000000 879850926 879850926 -15.00000000
0.58699661 -2.26160383 -0.53943264 4 2 16545 2.39800000 879850930 879850930 -13.00000000
0.30285981 -1.16770840 0.06322183 2 3 16546 1.20800000 879850933 879850933 3.00000000
0.68757665 -2.65102506 -0.53235710 3 4 16546 2.79000000 879850935 879850935 -11.00000000
0.83946973 -3.24132061 -0.53031284 3 6 16548 3.39000000 879850940 879850940 -9.00000000
1.07308221 -4.14930105 -0.52623183 2 8 16550 4.31800000 879850944 879850944 -7.00000000
1.48707855 -5.75424910 -0.51997113 3 10 16551 5.96600000 879850949 879850949 -5.00000000
2.36505103 -9.16476727 -0.49604020 4 12 16553 9.47800000 879850953 879850953 -3.00000000
2.86758280 -11.12014008 2.65127301 48 13 16554 11.78600000 879850956 879850956 13.00000000
2.45467329 -9.52580261 2.63581324 42 15 16555 10.18400000 879850960 879850960 15.00000000
0.49815080 -1.94439530 -0.53782600 4 0 16563 2.07800000 879850981 879850981 -15.00000000
0.58054751 -2.26930285 -0.54078233 3 2 16565 2.40400000 879850986 879850986 -13.00000000
0.29581389 -1.15714824 0.06259380 2 3 16566 1.19600000 879850988 879850988 3.00000000
0.68123615 -2.66482162 -0.53464681 3 4 16566 2.80200000 879850990 879850990 -11.00000000
0.83059317 -3.25380111 -0.53187716 3 6 16568 3.40000000 879850995 879850995 -9.00000000
1.07134008 -4.20303488 -0.53256905 2 8 16570 4.37000000 879850999 879850999 -7.00000000
1.46698344 -5.75940514 -0.51997113 3 10 16571 5.96600000 879851004 879851004 -5.00000000
2.83258891 -11.14519119 2.65487242 50 13 16574 11.80200000 879851011 879851011 13.00000000
2.41831756 -9.52911854 2.63426018 40 15 16576 10.17800000 879851016 879851016 15.00000000
0.49467099 -1.95923376 -0.54144943 4 0 16583 2.09200000 879851036 879851036 -15.00000000
0.56881148 -2.25619864 -0.53718311 4 2 16585 2.38800000 879851041 879851041 -13.00000000
0.28786957 -1.14267981 0.06175643 2 3 16586 1.18000000 879851043 879851043 3.00000000
0.67193002 -2.66718340 -0.53464681 3 4 16586 2.80200000 879851046 879851046 -11.00000000
0.81585693 -3.24327064 -0.52968711 1 6 16588 3.38600000 879851050 879851050 -9.00000000
0.31262156 -1.24367988 0.15745519 2 7 16589 1.29200000 879851052 879851052 7.00000000
1.04312146 -4.15284061 -0.52574432 2 8 16590 4.31400000 879851055 879851055 -7.00000000
1.44687045 -5.76449060 -0.51997113 3 10 16591 5.96600000 879851059 879851059 -5.00000000
2.79082704 -11.14366913 2.65217304 47 13 16594 11.79000000 879851066 879851066 13.00000000
2.39139438 -9.55582619 2.63943672 42 15 16595 10.19800000 879851071 879851071 15.00000000
0.48969448 -1.96844745 -0.54351997 4 0 16603 2.10000000 879851092 879851092 -15.00000000
0.56046265 -2.25627899 -0.53673321 4 2 16605 2.38600000 879851096 879851096 -13.00000000
0.27858645 -1.12235498 0.06060504 2 3 16606 1.15800000 879851099 879851099 3.00000000
0.65694022 -2.64664745 -0.53006738 3 4 16606 2.77800000 879851101 879851101 -11.00000000
0.80785733 -3.25952029 -0.53187716 1 6 16608 3.40000000 879851105 879851105 -9.00000000
0.29396206 -1.18695724 0.15014303 2 7 16609 1.23200000 879851108 879851108 7.00000000
1.02194273 -4.12947941 -0.52233201 2 8 16610 4.28600000 879851110 879851110 -7.00000000
1.42673981 -5.76950598 -0.51997113 3 10 16611 5.96600000 879851115 879851115 -5.00000000
2.75284505 -11.15712738 2.65307283 47 13 16614 11.79400000 879851122 879851122 13.00000000
2.35941100 -9.56974220 2.64098954 40 15 16615 10.20400000 879851126 879851126 15.00000000
0.47948292 -1.95505047 -0.53937888 4 0 16622 2.08400000 879851147 879851147 -15.00000000
0.55900317 -2.28273177 -0.54258192 3 2 16624 2.41200000 879851152 879851152 -13.00000000
0.27391362 -1.11939251 0.06039570 2 3 16625 1.15400000 879851154 879851154 3.00000000
0.64862663 -2.65071821 -0.53044903 3 4 16625 2.78000000 879851156 879851156 -11.00000000
0.79751277 -3.26410031 -0.53219002 1 6 16627 3.40200000 879851161 879851161 -9.00000000
0.28343290 -1.16092718 0.14673069 2 7 16628 1.20400000 879851163 879851163 7.00000000
1.01859391 -4.17527294 -0.52769428 2 8 16629 4.33000000 879851165 879851165 -7.00000000
1.40193713 -5.75097704 -0.51787943 3 10 16630 5.94200000 879851170 879851170 -5.00000000
2.71583152 -11.16619492 2.65307283 50 13 16633 11.79400000 879851177 879851177 13.00000000
2.32675123 -9.57375908 2.63995433 40 15 16634 10.20000000 879851181 879851181 15.00000000
0.47265559 -1.95671237 -0.53937888 4 0 16642 2.08400000 879851202 879851202 -15.00000000
0.54920393 -2.27709150 -0.54078233 3 2 16644 2.40400000 879851207 879851207 -13.00000000
0.27281222 -1.13199186 0.06102372 2 3 16645 1.16600000 879851209 879851209 3.00000000
0.64074987 -2.65869212 -0.53159386 3 4 16645 2.78600000 879851211 879851211 -11.00000000
0.26821822 -1.11378324 0.10022911 3 5 16646 1.15000000 879851214 879851214 5.00000000
0.78611410 -3.26686430 -0.53219002 1 6 16647 3.40200000 879851216 879851216 -9.00000000
0.27752244 -1.15418911 0.14575574 2 7 16648 1.19600000 879851218 879851218 7.00000000
0.99844831 -4.15564108 -0.52476937 2 8 16649 4.30600000 879851221 879851221 -7.00000000
1.37627256 -5.73258781 -0.51578766 3 10 16650 5.91800000 879851225 879851225 -5.00000000
2.68046927 -11.19076729 2.65667200 47 13 16653 11.81000000 879851232 879851232 13.00000000
2.29119682 -9.58034420 2.63943672 42 15 16655 10.19800000 879851237 879851237 15.00000000
0.46537545 -1.95647085 -0.53886127 4 0 16662 2.08200000 879851258 879851258 -15.00000000
0.53764969 -2.26382661 -0.53718311 3 2 16664 2.38800000 879851262 879851262 -13.00000000
0.26747566 -1.12710738 0.06070971 2 3 16665 1.16000000 879851264 879851264 3.00000000
0.63327867 -2.66855335 -0.53312033 3 4 16665 2.79400000 879851267 879851267 -11.00000000
0.77060682 -3.25228906 -0.52937424 1 6 16667 3.38400000 879851271 879851271 -9.00000000
0.26525968 -1.12038040 0.14136843 2 7 16668 1.16000000 879851274 879851274 7.00000000
0.98485035 -4.16296482 -0.52525687 2 8 16669 4.31000000 879851276 879851276 -7.00000000
1.35808706 -5.74511242 -0.51648492 3 10 16670 5.92600000 879851281 879851281 -5.00000000
2.64228439 -11.20384979 2.65757179 50 13 16673 11.81400000 879851287 879851287 13.00000000
2.25941443 -9.58788967 2.63943672 40 15 16674 10.19800000 879851292 879851292 15.00000000
0.46074569 -1.96748817 -0.54144943 4 0 16682 2.09200000 879851313 879851313 -15.00000000
0.52974421 -2.26568961 -0.53718311 3 2 16684 2.38800000 879851317 879851317 -13.00000000
0.26217657 -1.12219954 0.06039570 5 3 16685 1.15400000 879851320 879851320 3.00000000
0.62440646 -2.67265940 -0.53350192 3 4 16685 2.79600000 879851322 879851322 -11.00000000
0.75700587 -3.24534059 -0.52780986 1 6 16687 3.37400000 879851327 879851327 -9.00000000
0.26360020 -1.13096595 0.14258713 2 7 16688 1.17000000 879851329 879851329 7.00000000
0.97391498 -4.18184376 -0.52720678 2 8 16689 4.32600000 879851331 879851331 -7.00000000
1.34254038 -5.76922369 -0.51822805 3 10 16690 5.94600000 879851336 879851336 -5.00000000
2.11943889 -9.12216949 -0.49080661 4 12 16692 9.37800000 879851340 879851340 -3.00000000
2.60404086 -11.21680069 2.65847158 47 13 16693 11.81800000 879851343 879851343 13.00000000
2.22855210 -9.60700893 2.64254236 40 15 16694 10.21000000 879851347 879851347 15.00000000
0.45647857 -1.98037946 -0.54455525 4 0 16702 2.10400000 879851368 879851368 -15.00000000
0.52226931 -2.26942396 -0.53763300 4 2 16704 2.39000000 879851373 879851373 -13.00000000
0.25621414 -1.11333084 0.05987233 5 3 16704 1.14400000 879851375 879851375 3.00000000
0.61243355 -2.66334271 -0.53121227 3 4 16705 2.78400000 879851377 879851377 -11.00000000
0.75186110 -3.27491713 -0.53219002 1 6 16707 3.40200000 879851382 879851382 -9.00000000
0.25965080 -1.13187909 0.14258713 2 7 16708 1.17000000 879851384 879851384 7.00000000
0.95398957 -4.16199923 -0.52428192 2 8 16709 4.30200000 879851386 879851386 -7.00000000
1.31972504 -5.76222229 -0.51718217 3 10 16710 5.93400000 879851391 879851391 -5.00000000
2.56400299 -11.22202301 2.65757179 46 13 16713 11.81400000 879851398 879851398 13.00000000
2.19586372 -9.61849689 2.64357781 38 15 16714 10.21400000 879851403 879851403 15.00000000
0.44528955 -1.96312094 -0.53937888 4 0 16722 2.08400000 879851423 879851423 -15.00000000
0.51692683 -2.28263688 -0.54033244 4 2 16724 2.40200000 879851428 879851428 -13.00000000
0.25389501 -1.12205446 0.06029102 7 3 16725 1.15200000 879851430 879851430 3.00000000
0.60226643 -2.66163468 -0.53044903 3 4 16725 2.78000000 879851433 879851433 -11.00000000
0.73911905 -3.27174139 -0.53125143 3 6 16727 3.39600000 879851437 879851437 -9.00000000
0.25351274 -1.12309670 0.14136843 2 7 16728 1.16000000 879851439 879851439 7.00000000
0.93858218 -4.16143084 -0.52379441 2 8 16729 4.29800000 879851442 879851442 -7.00000000
1.29609895 -5.75124454 -0.51578766 3 10 16730 5.91800000 879851446 879851446 -5.00000000
2.52737975 -11.24231243 2.66027117 46 13 16733 11.82600000 879851453 879851453 13.00000000
2.15974927 -9.62271023 2.64254236 42 15 16735 10.21000000 879851458 879851458 15.00000000
0.43869862 -1.96262479 -0.53886127 4 0 16740 2.08200000 879851479 879851479 -15.00000000
0.50890428 -2.28044581 -0.53943264 4 2 16742 2.39800000 879851483 879851483 -13.00000000
0.24751964 -1.10915768 0.05955832 7 3 16742 1.13800000 879851486 879851486 3.00000000
0.59432894 -2.66542983 -0.53083062 3 4 16743 2.78200000 879851488 879851488 -11.00000000
0.72883695 -3.27404714 -0.53125143 1 6 16745 3.39600000 879851492 879851492 -9.00000000
0.25472426 -1.14520276 0.14404957 4 7 16746 1.18200000 879851495 879851495 7.00000000
0.92636538 -4.16823483 -0.52428192 2 8 16747 4.30200000 879851497 879851497 -7.00000000
1.28839040 -5.80196810 -0.51997113 3 10 16748 5.96600000 879851502 879851502 -5.00000000
2.49457741 -11.26161289 2.66297054 47 13 16751 11.83800000 879851509 879851509 13.00000000
2.13035369 -9.62530327 2.64150715 40 15 16752 10.20600000 879851513 879851513 15.00000000
0.43391928 -1.97357810 -0.54144943 4 0 16760 2.09200000 879851534 879851534 -15.00000000
0.50135875 -2.28411174 -0.53988254 4 2 16762 2.40000000 879851538 879851538 -13.00000000
0.24750026 -1.12757230 0.06050036 7 3 16762 1.15600000 879851541 879851541 3.00000000
0.58670354 -2.67515874 -0.53235710 3 4 16763 2.79000000 879851543 879851543 -11.00000000
0.71275645 -3.25534511 -0.52780986 1 6 16765 3.37400000 879851548 879851548 -9.00000000
0.24733129 -1.13057101 0.14209965 7 7 16766 1.16600000 879851550 879851550 7.00000000
0.90587527 -4.14429235 -0.52086955 2 8 16767 4.27400000 879851552 879851552 -7.00000000
1.25112510 -5.72856998 -0.51299870 3 10 16768 5.88600000 879851557 879851557 -5.00000000
2.45857024 -11.28548431 2.66656971 46 13 16771 11.85400000 879851564 879851564 13.00000000
2.09756398 -9.63645649 2.64254236 42 15 16772 10.21000000 879851568 879851568 15.00000000
0.42511535 -1.96956456 -0.53989655 4 0 16782 2.08600000 879851589 879851589 -15.00000000
0.48847985 -2.26696968 -0.53538352 4 2 16784 2.38000000 879851594 879851594 -13.00000000
0.24213117 -1.12465167 0.06029102 7 3 16785 1.15200000 879851596 879851596 3.00000000
0.57477456 -2.66971469 -0.53083062 3 4 16785 2.78200000 879851598 879851598 -11.00000000
0.70606279 -3.28509569 -0.53219002 1 6 16787 3.40200000 879851603 879851603 -9.00000000
0.23965408 -1.11598563 0.14014974 7 7 16788 1.15000000 879851605 879851605 7.00000000
0.88745701 -4.13609505 -0.51940715 2 8 16789 4.26200000 879851608 879851608 -7.00000000
1.22828460 -5.72943544 -0.51265007 3 10 16790 5.88200000 879851612 879851612 -5.00000000
2.41195917 -11.27959633 2.66297054 45 13 16793 11.83800000 879851619 879851619 13.00000000
2.06209040 -9.65991306 2.64668345 38 15 16795 10.22600000 879851624 879851624 15.00000000
0.41984168 -1.97859561 -0.54196709 4 0 16802 2.09400000 879851644 879851644 -15.00000000
0.48177516 -2.27438045 -0.53673321 4 2 16804 2.38600000 879851649 879851649 -13.00000000
0.23426147 -1.10590947 0.05924430 7 3 16804 1.13200000 879851651 879851651 3.00000000
0.56382596 -2.66402197 -0.52930415 3 4 16805 2.77400000 879851654 879851654 -11.00000000
0.69377470 -3.28367472 -0.53156430 1 6 16807 3.39800000 879851658 879851658 -9.00000000
0.23739715 -1.12458456 0.14112470 7 7 16808 1.15800000 879851661 879851661 7.00000000
0.87137520 -4.13139820 -0.51843220 2 8 16809 4.25400000 879851663 879851663 -7.00000000
1.22553289 -5.81556988 -0.51997113 3 10 16810 5.96600000 879851668 879851668 -5.00000000
2.37337303 -11.29176044 2.66387033 47 13 16813 11.84200000 879851674 879851674 13.00000000
2.02875519 -9.66894341 2.64720130 38 15 16815 10.22800000 879851679 879851679 15.00000000
0.41135493 -1.97248447 -0.53989655 4 0 16822 2.08600000 879851700 879851700 -15.00000000
0.47701058 -2.29131103 -0.54033244 4 2 16824 2.40200000 879851704 879851704 -13.00000000
0.23243503 -1.11649716 0.05976766 10 3 16824 1.14200000 879851707 879851707 3.00000000
0.55452335 -2.66597390 -0.52930415 3 4 16825 2.77400000 879851709 879851709 -11.00000000
0.68190670 -3.28414249 -0.53125143 1 6 16827 3.39600000 879851714 879851714 -9.00000000
0.23306695 -1.12346268 0.14088096 7 7 16828 1.15600000 879851716 879851716 7.00000000
0.85614288 -4.13052702 -0.51794469 2 8 16829 4.25000000 879851718 879851718 -7.00000000
1.20522523 -5.81981277 -0.51997113 3 10 16830 5.96600000 879851723 879851723 -5.00000000
2.33473134 -11.30379295 2.66477013 46 13 16833 11.84600000 879851730 879851730 13.00000000
1.99265122 -9.66461372 2.64409542 38 15 16835 10.21600000 879851734 879851734 15.00000000
0.40291601 -1.96633816 -0.53782600 4 0 16842 2.07800000 879851755 879851755 -15.00000000
0.46940002 -2.29487133 -0.54078233 3 2 16844 2.40400000 879851760 879851760 -13.00000000
0.22773583 -1.11338818 0.05955832 10 3 16844 1.13800000 879851762 879851762 3.00000000
0.54442781 -2.66404629 -0.52854091 3 4 16845 2.77000000 879851764 879851764 -11.00000000
0.66846454 -3.27682519 -0.52968711 1 6 16847 3.38600000 879851769 879851769 -9.00000000
0.23231545 -1.13983023 0.14283086 9 7 16848 1.17200000 879851771 879851771 7.00000000
0.84607655 -4.15488720 -0.52062583 2 8 16849 4.27200000 879851774 879851774 -7.00000000
1.18490291 -5.82398415 -0.51997113 3 10 16850 5.96600000 879851778 879851778 -5.00000000
2.29758453 -11.32333279 2.66746950 45 13 16853 11.85800000 879851785 879851785 13.00000000
1.95967019 -9.67529678 2.64513063 40 15 16855 10.22000000 879851790 879851790 15.00000000
0.39566857 -1.96583879 -0.53730834 4 0 16862 2.07600000 879851810 879851810 -15.00000000
0.45831579 -2.28121138 -0.53718311 3 2 16864 2.38800000 879851815 879851815 -13.00000000
0.22738865 -1.13179946 0.06050036 10 3 16864 1.15600000 879851817 879851817 3.00000000
0.53744352 -2.67747974 -0.53083062 3 4 16865 2.78200000 879851820 879851820 -11.00000000
0.65158910 -3.25202227 -0.52530694 1 6 16867 3.35800000 879851824 879851824 -9.00000000
0.22521807 -1.12506235 0.14088096 9 7 16868 1.15600000 879851826 879851826 7.00000000
0.83117884 -4.15586853 -0.52038211 2 8 16869 4.27000000 879851829 879851829 -7.00000000
2.25956821 -11.33892918 2.66926932 45 13 16873 11.86600000 879851840 879851840 13.00000000
1.92908394 -9.68932152 2.64720130 38 15 16874 10.22800000 879851845 879851845 15.00000000
0.39030239 -1.97478867 -0.53937888 4 0 16882 2.08400000 879851866 879851866 -15.00000000
0.44884136 -2.27514958 -0.53538352 3 2 16884 2.38000000 879851870 879851870 -13.00000000
0.21995744 -1.11495090 0.05955832 10 3 16884 1.13800000 879851873 879851873 3.00000000
0.52733475 -2.67548704 -0.53006738 3 4 16885 2.77800000 879851875 879851875 -11.00000000
0.22057267 -1.12012839 0.09988048 12 5 16886 1.14600000 879851877 879851877 5.00000000
0.64328396 -3.26978254 -0.52780986 1 6 16887 3.37400000 879851879 879851879 -9.00000000
0.22090665 -1.12389386 0.14063722 9 7 16888 1.15400000 879851882 879851882 7.00000000
0.81437200 -4.14705753 -0.51891965 2 8 16889 4.25800000 879851884 879851884 -7.00000000
1.13424230 -5.78128147 -0.51543903 3 10 16890 5.91400000 879851889 879851889 -5.00000000
2.21922565 -11.34292221 2.66836929 44 13 16893 11.86200000 879851896 879851896 13.00000000
1.89355779 -9.69632626 2.64720130 40 15 16895 10.22800000 879851900 879851900 15.00000000
0.38409650 -1.97600508 -0.53937888 4 0 16900 2.08400000 879851921 879851921 -15.00000000
0.44169158 -2.27654839 -0.53538352 3 2 16902 2.38000000 879851926 879851926 -13.00000000
0.21625891 -1.11567414 0.05955832 15 3 16903 1.13800000 879851928 879851928 3.00000000
0.51817971 -2.67327571 -0.52930415 3 4 16903 2.77400000 879851930 879851930 -11.00000000
0.63300848 -3.27178741 -0.52780986 1 6 16905 3.37400000 879851935 879851935 -9.00000000
0.21850495 -1.13042939 0.14136843 11 7 16906 1.16000000 879851937 879851937 7.00000000
0.79607016 -4.12230825 -0.51550734 2 8 16907 4.23000000 879851939 879851939 -7.00000000
1.10475123 -5.72612667 -0.51020974 3 10 16908 5.85400000 879851944 879851944 -5.00000000
2.18431640 -11.35366535 2.66926932 45 13 16911 11.86600000 879851951 879851951 13.00000000
1.86696780 -9.71328449 2.65030694 40 15 16912 10.24000000 879851956 879851956 15.00000000
0.37755859 -1.97923148 -0.53989655 4 0 16920 2.08600000 879851976 879851976 -15.00000000
0.43665814 -2.29339123 -0.53898275 3 2 16922 2.39600000 879851981 879851981 -13.00000000
0.21236317 -1.11642230 0.05955832 15 3 16923 1.13800000 879851983 879851983 3.00000000
0.50701070 -2.66542482 -0.52739608 3 4 16923 2.76400000 879851985 879851985 -11.00000000
0.62526852 -3.29338431 -0.53093857 1 6 16925 3.39400000 879851990 879851990 -9.00000000
0.21455768 -1.13118517 0.14136843 16 7 16926 1.16000000 879851992 879851992 7.00000000
0.78167576 -4.12506199 -0.51550734 2 8 16927 4.23000000 879851995 879851995 -7.00000000
1.10551035 -5.83957481 -0.51997113 3 10 16928 5.96600000 879851999 879851999 -5.00000000
2.14539433 -11.36505127 2.67016912 45 13 16931 11.87000000 879852006 879852006 13.00000000
1.82992351 -9.71246910 2.64823651 38 15 16933 10.23200000 879852011 879852011 15.00000000
0.36781657 -1.96730936 -0.53627306 4 0 16941 2.07200000 879852032 879852032 -15.00000000
0.42824951 -2.29497623 -0.53898275 3 2 16943 2.39600000 879852036 879852036 -13.00000000
0.20900191 -1.12111998 0.05976766 15 3 16944 1.14200000 879852038 879852038 3.00000000
0.49831745 -2.67305517 -0.52854091 3 4 16944 2.77000000 879852041 879852041 -11.00000000
0.61030275 -3.28011751 -0.52843565 1 6 16946 3.37800000 879852045 879852045 -9.00000000
0.21077302 -1.13391566 0.14161217 16 7 16947 1.16200000 879852048 879852048 7.00000000
0.77162546 -4.15522337 -0.51891965 2 8 16948 4.25800000 879852050 879852050 -7.00000000
1.06592858 -5.74563932 -0.51125556 3 10 16949 5.86600000 879852055 879852055 -5.00000000
2.10585165 -11.38433552 2.67286849 45 13 16952 11.88200000 879852062 879852062 13.00000000
1.79671168 -9.72259617 2.64927173 38 15 16953 10.23600000 879852066 879852066 15.00000000
0.36129555 -1.97048151 -0.53679073 4 0 16961 2.07400000 879852087 879852087 -15.00000000
0.41883284 -2.28878951 -0.53718311 3 2 16963 2.38800000 879852091 879852091 -13.00000000
0.20580554 -1.12577212 0.05997701 17 3 16964 1.14600000 879852094 879852094 3.00000000
0.48898369 -2.67477846 -0.52854091 3 4 16964 2.77000000 879852096 879852096 -11.00000000
0.59530371 -3.26279473 -0.52530694 1 6 16966 3.35800000 879852101 879852101 -9.00000000
0.20574574 -1.12878573 0.14088096 9 7 16967 1.15600000 879852103 879852103 7.00000000
0.75996131 -4.17351532 -0.52086955 2 8 16968 4.27400000 879852105 879852105 -7.00000000
1.04871869 -5.76500654 -0.51265007 3 10 16969 5.88200000 879852110 879852110 -5.00000000
2.06679559 -11.39545155 2.67376828 43 13 16972 11.88600000 879852117 879852117 13.00000000
1.76244080 -9.73672009 2.65134239 40 15 16974 10.24400000 879852121 879852121 15.00000000
0.35818022 -1.99068201 -0.54196709 4 0 16980 2.09400000 879852142 879852142 -15.00000000
0.40779638 -2.27098513 -0.53268409 4 2 16982 2.36800000 879852147 879852147 -13.00000000
0.20066059 -1.11858487 0.05955832 17 3 16983 1.13800000 879852149 879852149 3.00000000
0.47941783 -2.67252040 -0.52777767 3 4 16983 2.76600000 879852151 879852151 -11.00000000
0.58517683 -3.26863980 -0.52593267 1 6 16985 3.36200000 879852156 879852156 -9.00000000
0.20025401 -1.11969137 0.13966227 9 7 16986 1.14600000 879852158 879852158 7.00000000
0.74332410 -4.16037941 -0.51891965 2 8 16987 4.25800000 879852161 879852161 -7.00000000
1.01769269 -5.70176554 -0.50672346 3 10 16988 5.81400000 879852165 879852165 -5.00000000
2.03036118 -11.40991688 2.67556787 41 13 16991 11.89400000 879852172 879852172 13.00000000
1.73387206 -9.75362110 2.65444803 38 15 16992 10.25600000 879852177 879852177 15.00000000
0.34988740 -1.98431015 -0.53989655 4 0 17000 2.08600000 879852197 879852197 -15.00000000
0.40358168 -2.29350662 -0.53763300 4 2 17002 2.39000000 879852202 879852202 -13.00000000
0.19606321 -1.11534429 0.05934897 15 3 17003 1.13400000 879852204 879852204 3.00000000
0.46940625 -2.67031050 -0.52701443 3 4 17003 2.76200000 879852207 879852207 -11.00000000
0.57512885 -3.27844524 -0.52718413 1 6 17005 3.37000000 879852211 879852211 -9.00000000
0.19668700 -1.12233889 0.13990600 7 7 17006 1.14800000 879852214 879852214 7.00000000
0.72058147 -4.11602020 -0.51306993 2 8 17007 4.21000000 879852216 879852216 -7.00000000
1.00464833 -5.74453497 -0.51020974 3 10 17008 5.85400000 879852220 879852220 -5.00000000
1.98851252 -11.40541649 2.67286849 43 13 17011 11.88200000 879852227 879852227 13.00000000
1.69877398 -9.76371765 2.65548348 40 15 17013 10.26000000 879852232 879852232 15.00000000
0.34064126 -1.97415686 -0.53679073 4 0 17021 2.07400000 879852253 879852253 -15.00000000
0.39285803 -2.28152704 -0.53448373 3 2 17023 2.37600000 879852257 879852257 -13.00000000
0.19028105 -1.10621369 0.05882562 10 3 17024 1.12400000 879852260 879852260 3.00000000
0.45828468 -2.66427350 -0.52548796 3 4 17024 2.75400000 879852262 879852262 -11.00000000
0.56511402 -3.29221272 -0.52906138 1 6 17026 3.38200000 879852267 879852267 -9.00000000
0.19223660 -1.12109566 0.13966227 7 7 17027 1.14600000 879852269 879852269 7.00000000
0.70951247 -4.14211273 -0.51599479 2 8 17028 4.23400000 879852271 879852271 -7.00000000
0.97350562 -5.68926334 -0.50498039 3 10 17029 5.79400000 879852276 879852276 -5.00000000
1.94735157 -11.41646957 2.67376828 43 13 17032 11.88600000 879852283 879852283 13.00000000
1.66533089 -9.77339649 2.65651870 38 15 17033 10.26400000 879852287 879852287 15.00000000
0.33439177 -1.97914362 -0.53782600 4 0 17041 2.07800000 879852308 879852308 -15.00000000
0.38780746 -2.30017900 -0.53853285 4 2 17043 2.39400000 879852313 879852313 -13.00000000
0.19139406 -1.13641393 0.06039570 12 3 17044 1.15400000 879852315 879852315 3.00000000
0.45224240 -2.68521690 -0.52930415 3 4 17044 2.77400000 879852317 879852317 -11.00000000
0.55067211 -3.27663279 -0.52624553 1 6 17046 3.36400000 879852322 879852322 -9.00000000
0.19160868 -1.14133680 0.14209965 7 7 17047 1.16600000 879852324 879852324 7.00000000
0.69472116 -4.14260626 -0.51575106 2 8 17048 4.23200000 879852326 879852326 -7.00000000
0.95429879 -5.69655704 -0.50532901 3 10 17049 5.79800000 879852331 879852331 -5.00000000
1.90877271 -11.43088627 2.67556787 44 13 17052 11.89400000 879852338 879852338 13.00000000
1.62822831 -9.77181244 2.65444803 38 15 17054 10.25600000 879852343 879852343 15.00000000
0.32716605 -1.97839284 -0.53730834 4 0 17061 2.07600000 879852363 879852363 -15.00000000
0.37787232 -2.28998232 -0.53583342 4 2 17063 2.38200000 879852368 879852368 -13.00000000
0.19132401 -1.16072309 0.06165176 25 3 17064 1.17800000 879852370 879852370 3.00000000
0.44222790 -2.68290496 -0.52854091 3 4 17064 2.77000000 879852373 879852373 -11.00000000
0.53634590 -3.26099229 -0.52342969 1 6 17066 3.34600000 879852377 879852377 -9.00000000
0.18633620 -1.13416338 0.14112470 7 7 17067 1.15800000 879852379 879852379 7.00000000
0.68540025 -4.17634821 -0.51965088 2 8 17068 4.26400000 879852382 879852382 -7.00000000
0.93440831 -5.69985342 -0.50532901 3 10 17069 5.79800000 879852386 879852386 -5.00000000
1.87074530 -11.44901848 2.67826724 40 13 17072 11.90600000 879852393 879852393 13.00000000
1.59705961 -9.78478432 2.65651870 38 15 17073 10.26400000 879852398 879852398 15.00000000
0.32087526 -1.98333693 -0.53834361 4 0 17081 2.08000000 879852419 879852419 -15.00000000
0.36801314 -2.27974439 -0.53313398 4 2 17083 2.37000000 879852423 879852423 -13.00000000
0.18536349 -1.14955318 0.06102372 60 3 17084 1.16600000 879852426 879852426 3.00000000
0.43160999 -2.67667937 -0.52701443 3 4 17084 2.76200000 879852428 879852428 -11.00000000
0.52590096 -3.26869535 -0.52436835 1 6 17086 3.35200000 879852432 879852432 -9.00000000
0.18048619 -1.12304723 0.13966227 7 7 17087 1.14600000 879852435 879852435 7.00000000
0.66578364 -4.14735556 -0.51575106 2 8 17088 4.23200000 879852437 879852437 -7.00000000
0.91576821 -5.71094942 -0.50602627 3 10 17089 5.80600000 879852442 879852442 -5.00000000
1.56594002 -9.80937672 2.66169500 38 15 17093 10.28400000 879852453 879852453 15.00000000
0.31395015 -1.98444486 -0.53834361 4 0 17101 2.08000000 879852474 879852474 -15.00000000
0.36066079 -2.28486490 -0.53403378 4 2 17103 2.37400000 879852479 879852479 -13.00000000
0.18134966 -1.15019321 0.06102372 100 3 17104 1.16600000 879852481 879852481 3.00000000
0.42471012 -2.69368410 -0.53006738 3 4 17104 2.77800000 879852483 879852483 -11.00000000
0.51725066 -3.28807378 -0.52718413 1 6 17106 3.37000000 879852488 879852488 -9.00000000
0.17964634 -1.14328074 0.14209965 7 7 17107 1.16600000 879852490 879852490 7.00000000
0.65253383 -4.15749836 -0.51672602 2 8 17108 4.24000000 879852492 879852492 -7.00000000
0.89335901 -5.69836426 -0.50463176 3 10 17109 5.79000000 879852497 879852497 -5.00000000
1.53258300 -9.82050896 2.66324806 33 15 17113 10.29000000 879852508 879852508 15.00000000
0.30672604 -1.98361945 -0.53782600 4 0 17121 2.07800000 879852529 879852529 -15.00000000
0.35357428 -2.29188776 -0.53538352 3 2 17123 2.38000000 879852534 879852534 -13.00000000
0.17611694 -1.14292336 0.06060504 75 3 17124 1.15800000 879852536 879852536 3.00000000
0.41201589 -2.67380619 -0.52586961 3 4 17124 2.75600000 879852538 879852538 -11.00000000
0.50336868 -3.27423978 -0.52468121 1 6 17126 3.35400000 879852543 879852543 -9.00000000
0.17685963 -1.15174925 0.14307460 7 7 17127 1.17400000 879852545 879852545 7.00000000
0.63681364 -4.15190220 -0.51575106 2 8 17128 4.23200000 879852548 879852548 -7.00000000
0.87225568 -5.69357061 -0.50393450 3 10 17129 5.78200000 879852552 879852552 -5.00000000
1.49686968 -9.82797050 2.66376567 38 15 17134 10.29200000 879852564 879852564 15.00000000
0.29904673 -1.97502291 -0.53523779 4 0 17139 2.06800000 879852585 879852585 -15.00000000
0.34666345 -2.29491425 -0.53583342 4 2 17141 2.38200000 879852589 879852589 -13.00000000
0.17401534 -1.15334558 0.06112840 60 3 17142 1.16800000 879852591 879852591 3.00000000
0.40332097 -2.67314625 -0.52548796 3 4 17142 2.75400000 879852594 879852594 -11.00000000
0.49307990 -3.27580500 -0.52468121 1 6 17144 3.35400000 879852598 879852598 -9.00000000
0.17265017 -1.14837313 0.14258713 7 7 17145 1.17000000 879852601 879852601 7.00000000
0.62494606 -4.16173458 -0.51672602 2 8 17146 4.24000000 879852603 879852603 -7.00000000
0.85554665 -5.70416403 -0.50463176 3 10 17147 5.79000000 879852608 879852608 -5.00000000
0.43193486 -2.88325858 0.56670272 5 11 17148 2.97000000 879852610 879852610 11.00000000
0.42572626 -2.84860110 0.66495532 36 13 17150 2.95600000 879852614 879852614 13.00000000
1.46770287 -9.83236790 2.66376567 16 15 17151 10.29200000 879852619 879852619 15.00000000
0.29356351 -1.98561013 -0.53782600 4 0 17159 2.07800000 879852640 879852640 -15.00000000
0.33666021 -2.28261518 -0.53268409 4 2 17161 2.36800000 879852644 879852644 -13.00000000
0.17057051 -1.15789783 0.06133774 52 3 17162 1.17200000 879852647 879852647 3.00000000
0.39312911 -2.66871095 -0.52434313 3 4 17162 2.74800000 879852649 879852649 -11.00000000
0.48279104 -3.28532362 -0.52593267 1 6 17164 3.36200000 879852654 879852654 -9.00000000
0.16979365 -1.15682495 0.14356209 4 7 17165 1.17800000 879852656 879852656 7.00000000
0.60753578 -4.14424992 -0.51428860 2 8 17166 4.22000000 879852658 879852658 -7.00000000
0.83216643 -5.68345928 -0.50253999 3 10 17167 5.76600000 879852663 879852663 -5.00000000
0.41634282 -2.85392642 0.66585511 52 13 17170 2.96000000 879852670 879852670 13.00000000
0.28663066 -1.98662281 -0.53782600 4 0 17179 2.07800000 879852696 879852696 -15.00000000
0.32841271 -2.28184748 -0.53223419 4 2 17181 2.36600000 879852701 879852701 -13.00000000
0.16616079 -1.15450335 0.06112840 52 3 17181 1.16800000 879852703 879852703 3.00000000
0.38576657 -2.68366981 -0.52701443 3 4 17182 2.76200000 879852705 879852705 -11.00000000
0.47019866 -3.27916741 -0.52468121 1 6 17184 3.35400000 879852710 879852710 -9.00000000
0.16350321 -1.14169025 0.14161217 7 7 17185 1.16200000 879852712 879852712 7.00000000
0.59362811 -4.15027571 -0.51477611 2 8 17186 4.22400000 879852714 879852714 -7.00000000
0.40752035 -2.84912682 0.45585003 3 9 17186 2.91400000 879852717 879852717 9.00000000
0.81232238 -5.68632936 -0.50253999 3 10 17187 5.76600000 879852719 879852719 -5.00000000
0.40236723 -2.82012248 0.55372769 53 11 17188 2.90200000 879852721 879852721 11.00000000
0.40335786 -2.83414006 0.66090620 50 13 17190 2.93800000 879852726 879852726 13.00000000
0.40399358 -2.84216261 0.76921022 5 15 17191 2.97200000 879852731 879852731 15.00000000
0.28050190 -1.99335027 -0.53937888 4 0 17199 2.08400000 879852751 879852751 -15.00000000
0.32098734 -2.28683949 -0.53313398 4 2 17201 2.37000000 879852756 879852756 -13.00000000
0.16026457 -1.14323711 0.06050036 50 3 17202 1.15600000 879852758 879852758 3.00000000
0.37394348 -2.66750193 -0.52357990 3 4 17202 2.74400000 879852761 879852761 -11.00000000
0.45738158 -3.27100706 -0.52311683 1 6 17204 3.34400000 879852765 879852765 -9.00000000
0.16006608 -1.14618611 0.14209965 4 7 17205 1.16600000 879852767 879852767 7.00000000
