# .PCD v0.7 - Point Cloud Data file format
VERSION 0.7
FIELDS x y z intensity laser_id azimuth distance_m adjustedtime timestamp vertical_angle
SIZE 4 4 4 1 1 2 8 8 4 8
TYPE F F F U U U F U U F
COUNT 1 1 1 1 1 1 1 1 1 1
WIDTH 551
HEIGHT 1
VIEWPOINT 0 0 0 1 0 0 0
POINTS 551
DATA ascii
7.74996090 3.76317883 1.05782592 100 7 6410 8.68000000 881822801 881822801 7.00000000
4.98968315 2.42178392 -0.68100590 9 8 6411 5.58800000 881822803 881822803 -7.00000000
7.75000286 3.76152778 1.36442137 100 9 6411 8.72200000 881822805 881822805 9.00000000
7.70627165 3.73864079 -0.74936509 17 10 6412 8.59800000 881822808 881822808 -5.00000000
7.76557589 3.76573753 1.67759264 100 11 6413 8.79200000 881822810 881822810 11.00000000
7.73000908 3.74682403 -0.45019388 17 12 6414 8.60200000 881822812 881822812 -3.00000000
7.76909685 3.76409602 1.99306631 101 13 6415 8.86000000 881822815 881822815 13.00000000
7.72095013 3.73910522 -0.14974165 14 14 6416 8.58000000 881822817 881822817 -1.00000000
6.92348289 3.35290766 2.06123495 47 15 6416 7.96400000 881822819 881822819 15.00000000
2.05130529 0.98987365 -0.61029530 4 0 6424 2.35800000 881822840 881822840 -15.00000000
7.72321177 3.72523499 0.14967184 12 1 6425 8.57600000 881822842 881822842 1.00000000
2.42241693 1.16791403 -0.62086493 4 2 6426 2.76000000 881822844 881822844 -13.00000000
7.75648260 3.73794627 0.45124063 15 3 6427 8.62200000 881822847 881822847 3.00000000
2.90934277 1.40204871 -0.62776160 5 4 6427 3.29000000 881822849 881822849 -11.00000000
7.73283672 3.72488809 0.75093389 79 5 6428 8.61600000 881822851 881822851 5.00000000
3.66286349 1.76360452 -0.64388424 4 6 6429 4.11600000 881822854 881822854 -9.00000000
7.74516201 3.72749496 1.05538857 100 7 6430 8.66000000 881822856 881822856 7.00000000
5.00168419 2.40607285 -0.68149334 6 8 6431 5.59200000 881822858 881822858 -7.00000000
7.75483608 3.72881722 1.36285710 100 9 6432 8.71200000 881822861 881822861 9.00000000
7.71927500 3.71171808 -0.74936509 17 10 6432 8.59800000 881822863 881822863 -5.00000000
7.75390053 3.72670126 1.67225003 100 11 6433 8.76400000 881822865 881822865 11.00000000
7.72863865 3.71289945 -0.44935653 17 12 6434 8.58600000 881822867 881822867 -3.00000000
7.77867556 3.73526669 1.99216652 103 13 6435 8.85600000 881822870 881822870 13.00000000
7.72674370 3.70867014 -0.14960203 16 14 6436 8.57200000 881822872 881822872 -1.00000000
6.94095087 3.33001614 2.06278777 47 15 6437 7.97000000 881822874 881822874 15.00000000
2.06346226 0.98687476 -0.61288351 4 0 6444 2.36800000 881822895 881822895 -15.00000000
7.72353888 3.69221616 0.14942750 12 1 6445 8.56200000 881822897 881822897 1.00000000
2.41768742 1.15525019 -0.61861539 6 2 6446 2.75000000 881822900 881822900 -13.00000000
7.74965858 3.70137954 0.45008922 10 3 6447 8.60000000 881822902 881822902 3.00000000
2.91953373 1.39442301 -0.62890643 5 4 6447 3.29600000 881822904 881822904 -11.00000000
7.73680210 3.69358087 0.75006235 83 5 6448 8.60600000 881822907 881822907 5.00000000
3.66186595 1.74740505 -0.64263278 6 6 6449 4.10800000 881822909 881822909 -9.00000000
7.74558449 3.69445419 1.05368233 97 7 6450 8.64600000 881822911 881822911 7.00000000
4.99930143 2.38347340 -0.68003094 9 8 6451 5.58000000 881822914 881822914 -7.00000000
7.76002645 3.69968033 1.36160553 99 9 6451 8.70400000 881822916 881822916 9.00000000
6.31668568 3.01019835 -0.61218196 12 10 6452 7.02400000 881822918 881822918 -5.00000000
7.75977230 3.69623542 1.67072356 96 11 6453 8.75600000 881822920 881822920 11.00000000
7.72351885 3.67731309 -0.44830981 17 12 6454 8.56600000 881822923 881822923 -3.00000000
7.77758932 3.70139194 1.98856735 103 13 6455 8.84000000 881822925 881822925 13.00000000
7.73603058 3.67995811 -0.14953221 16 14 6456 8.56800000 881822927 881822927 -1.00000000
6.98335695 3.32191825 2.07210517 47 15 6456 8.00600000 881822930 881822930 15.00000000
2.06863999 0.98049331 -0.61340111 4 0 6464 2.37000000 881822950 881822950 -15.00000000
7.72915173 3.66180873 0.14928788 12 1 6465 8.55400000 881822953 881822953 1.00000000
2.41994381 1.14596987 -0.61816549 7 2 6466 2.74800000 881822955 881822955 -13.00000000
7.74086857 3.66405177 0.44883317 10 3 6467 8.57600000 881822957 881822957 3.00000000
2.91905975 1.38170362 -0.62776160 5 4 6467 3.29000000 881822960 881822960 -11.00000000
7.75144863 3.66740394 0.75023663 79 5 6468 8.60800000 881822962 881822962 5.00000000
3.68580079 1.74305713 -0.64576149 6 6 6469 4.12800000 881822964 881822964 -9.00000000
7.75304937 3.66484952 1.05295110 100 7 6470 8.64000000 881822967 881822967 7.00000000
5.00400114 2.36431193 -0.67954344 9 8 6471 5.57600000 881822969 881822969 -7.00000000
7.75745869 3.66362143 1.35878980 94 9 6472 8.68600000 881822971 881822971 9.00000000
6.32895613 2.98898149 -0.61235625 12 10 6472 7.02600000 881822973 881822973 -5.00000000
7.77617788 3.67080235 1.67148685 100 11 6473 8.76000000 881822976 881822976 11.00000000
7.72185755 3.64351225 -0.44747242 17 12 6474 8.55000000 881822978 881822978 -3.00000000
7.77283669 3.66590786 1.98406827 106 13 6475 8.82000000 881822980 881822980 13.00000000
7.74159384 3.64952111 -0.14939260 16 14 6476 8.56000000 881822983 881822983 -1.00000000
7.04441738 3.31935740 2.08659911 47 15 6477 8.06200000 881822985 881822985 15.00000000
2.06330729 0.96915984 -0.61081296 4 0 6484 2.36000000 881823006 881823006 -15.00000000
7.74188662 3.63480663 0.14928788 12 1 6485 8.55400000 881823008 881823008 1.00000000
2.43451428 1.14248300 -0.62086493 7 2 6486 2.76000000 881823010 881823010 -13.00000000
7.75361156 3.63700891 0.44883317 10 3 6487 8.57600000 881823013 881823013 3.00000000
2.92741990 1.37317336 -0.62852484 5 4 6487 3.29400000 881823015 881823015 -11.00000000
7.75337934 3.63524914 0.74919075 79 5 6488 8.59600000 881823017 881823017 5.00000000
3.68649673 1.72766590 -0.64482284 6 6 6489 4.12200000 881823020 881823020 -9.00000000
7.76579475 3.63776398 1.05295110 100 7 6490 8.64000000 881823022 881823022 7.00000000
4.99784136 2.34009624 -0.67759353 9 8 6491 5.56000000 881823024 881823024 -7.00000000
7.75525284 3.63117552 1.35628676 99 9 6491 8.67000000 881823026 881823026 9.00000000
6.31769657 2.95673656 -0.61026454 12 10 6492 7.00200000 881823029 881823029 -5.00000000
7.77827406 3.63864470 1.66919708 87 11 6493 8.74800000 881823031 881823031 11.00000000
7.73091030 3.61484385 -0.44726309 17 12 6494 8.54600000 881823033 881823033 -3.00000000
7.77852392 3.63545275 1.98226869 104 13 6495 8.81200000 881823036 881823036 13.00000000
7.73254490 3.61231923 -0.14897375 14 14 6496 8.53600000 881823038 881823038 -1.00000000
7.10439396 3.31887341 2.10109305 42 15 6496 8.11800000 881823040 881823040 15.00000000
2.07368326 0.96521252 -0.61288351 4 0 6504 2.36800000 881823061 881823061 -15.00000000
7.74183607 3.60185552 0.14904355 12 1 6505 8.54000000 881823063 881823063 1.00000000
2.44202137 1.13562143 -0.62176472 7 2 6506 2.76400000 881823066 881823066 -13.00000000
7.75177050 3.60318661 0.44799578 13 3 6507 8.56000000 881823068 881823068 3.00000000
2.92863464 1.36129129 -0.62776160 5 4 6507 3.29000000 881823070 881823070 -11.00000000
7.74433899 3.59808874 0.74709904 76 5 6508 8.57200000 881823073 881823073 5.00000000
3.68354678 1.71062708 -0.64325851 6 6 6509 4.11200000 881823075 881823075 -9.00000000
7.76584148 3.60478354 1.05124497 95 7 6510 8.62600000 881823077 881823077 7.00000000
5.01678324 2.32764912 -0.67905599 9 8 6511 5.57200000 881823079 881823079 -7.00000000
7.76671791 3.60189557 1.35597396 91 9 6512 8.66800000 881823082 881823082 9.00000000
6.31713438 2.92963624 -0.60921866 12 10 6512 6.99000000 881823084 881823084 -5.00000000
7.78380346 3.60816860 1.66767061 100 11 6513 8.74000000 881823086 881823086 11.00000000
7.74348164 3.58783579 -0.44726309 17 12 6514 8.54600000 881823089 881823089 -3.00000000
7.78409338 3.60500264 1.98046911 106 13 6515 8.80400000 881823091 881823091 13.00000000
7.73784828 3.58194542 -0.14883412 14 14 6516 8.52800000 881823093 881823093 -1.00000000
7.17962790 3.32201672 2.11972809 47 15 6517 8.19000000 881823096 881823096 15.00000000
2.06826854 0.95392263 -0.61029530 4 0 6524 2.35800000 881823116 881823116 -15.00000000
7.73801756 3.56727481 0.14872941 12 1 6525 8.52200000 881823119 881823119 1.00000000
2.43535137 1.12219703 -0.61906528 7 2 6526 2.75200000 881823121 881823121 -13.00000000
7.76611471 3.57694149 0.44810045 10 3 6527 8.56200000 881823123 881823123 3.00000000
2.93871832 1.35352409 -0.62890643 5 4 6527 3.29600000 881823126 881823126 -11.00000000
7.75504160 3.57020092 0.74692470 76 5 6528 8.57000000 881823128 881823128 5.00000000
3.69846821 1.70188737 -0.64482284 6 6 6529 4.12200000 881823130 881823130 -9.00000000
7.76394939 3.57101774 1.04929507 92 7 6530 8.61000000 881823132 881823132 7.00000000
5.03028870 2.31261063 -0.67978722 9 8 6531 5.57800000 881823135 881823135 -7.00000000
7.76964569 3.57199478 1.35440958 90 9 6531 8.65800000 881823137 881823137 9.00000000
6.30197668 2.89592052 -0.60677826 16 10 6532 6.96200000 881823139 881823139 -5.00000000
7.77672625 3.57196212 1.66347277 87 11 6533 8.71800000 881823142 881823142 11.00000000
7.73599195 3.55161762 -0.44611168 17 12 6534 8.52400000 881823144 881823144 -3.00000000
7.79308748 3.57618380 1.97956932 104 13 6535 8.80000000 881823146 881823146 13.00000000
7.74666929 3.55324602 -0.14876431 14 14 6536 8.52400000 881823149 881823149 -1.00000000
7.27664614 3.33765554 2.14509225 45 15 6536 8.28800000 881823151 881823151 15.00000000
2.08739948 0.95392394 -0.61495405 4 0 6544 2.37600000 881823172 881823172 -15.00000000
7.75224113 3.54107332 0.14876431 12 1 6545 8.52400000 881823174 881823174 1.00000000
2.43570828 1.11207044 -0.61816549 7 2 6546 2.74800000 881823176 881823176 -13.00000000
7.76765156 3.54483557 0.44747242 13 3 6547 8.55000000 881823179 881823179 3.00000000
2.94878316 1.34570301 -0.63005131 5 4 6547 3.30200000 881823181 881823181 -11.00000000
7.77108192 3.54476261 0.74727333 76 5 6548 8.57400000 881823183 881823183 5.00000000
3.68821001 1.68159163 -0.64200705 6 6 6549 4.10400000 881823185 881823185 -9.00000000
7.77275467 3.54224849 1.04880762 92 7 6550 8.60600000 881823188 881823188 7.00000000
5.02749157 2.29010034 -0.67832476 9 8 6551 5.56600000 881823190 881823190 -7.00000000
7.78925753 3.54812741 1.35566103 63 9 6551 8.66600000 881823192 881823192 9.00000000
6.31567335 2.87555623 -0.60712689 20 10 6552 6.96600000 881823195 881823195 -5.00000000
7.78914738 3.54479456 1.66347277 31 11 6553 8.71800000 881823197 881823197 11.00000000
7.73925257 3.52045751 -0.44558832 17 12 6554 8.51400000 881823199 881823199 -3.00000000
7.79133177 3.54250622 1.97597003 32 13 6555 8.78400000 881823202 881823202 13.00000000
7.76812792 3.53032041 -0.14893883 16 14 6556 8.53400000 881823204 881823204 -1.00000000
7.36211967 3.34580493 2.16683316 47 15 6556 8.37200000 881823206 881823206 15.00000000
2.08703184 0.94540232 -0.61391878 4 0 6563 2.37200000 881823227 881823227 -15.00000000
7.75483274 3.51122236 0.14858979 12 1 6564 8.51400000 881823229 881823229 1.00000000
2.44470882 1.10639775 -0.61951518 9 2 6565 2.75400000 881823232 881823232 -13.00000000
7.76662588 3.51329565 0.44673973 13 3 6566 8.53600000 881823234 881823234 3.00000000
2.94965196 1.33429885 -0.62928808 5 4 6566 3.29800000 881823236 881823236 -11.00000000
7.77553225 3.51568985 0.74657607 76 5 6567 8.56600000 881823238 881823238 5.00000000
3.70096636 1.67260587 -0.64325851 6 6 6568 4.11200000 881823241 881823241 -9.00000000
7.78084040 3.51481915 1.04832006 92 7 6569 8.60200000 881823243 881823243 7.00000000
5.02782154 2.27014828 -0.67734981 9 8 6570 5.55800000 881823245 881823245 -7.00000000
7.86101198 3.54773140 1.36598575 13 9 6571 8.73200000 881823248 881823248 9.00000000
6.32335806 2.85377717 -0.60695261 24 10 6571 6.96400000 881823250 881823250 -5.00000000
7.87602234 3.55285120 1.67950082 12 11 6572 8.80200000 881823252 881823252 11.00000000
7.75634623 3.49723673 -0.44590235 17 12 6573 8.52000000 881823255 881823255 -3.00000000
7.88653851 3.55428243 1.99711549 17 13 6574 8.87800000 881823257 881823257 13.00000000
7.75609016 3.49386382 -0.14848508 14 14 6575 8.50800000 881823259 881823259 -1.00000000
7.45067549 3.35628462 2.18960905 45 15 6575 8.46000000 881823261 881823261 15.00000000
2.07621932 0.93178356 -0.60977769 4 0 6583 2.35600000 881823282 881823282 -15.00000000
7.76521778 3.48331308 0.14855488 12 1 6584 8.51200000 881823285 881823285 1.00000000
2.45389056 1.10024917 -0.62086493 7 2 6585 2.76000000 881823287 881823287 -13.00000000
7.77337408 3.48371315 0.44642571 13 3 6586 8.53000000 881823289 881823289 3.00000000
2.94891691 1.32158577 -0.62814319 5 4 6586 3.29200000 881823291 881823291 -11.00000000
7.76957417 3.48038173 0.74483299 76 5 6587 8.54600000 881823294 881823294 5.00000000
3.72481132 1.66774929 -0.64638722 6 6 6588 4.13200000 881823296 881823296 -9.00000000
7.78219032 3.48277211 1.04685771 95 7 6589 8.59000000 881823298 881823298 7.00000000
5.04658747 2.25744772 -0.67881227 9 8 6590 5.57000000 881823301 881823301 -7.00000000
7.89498806 3.52994514 1.36974013 13 9 6591 8.75600000 881823303 881823303 9.00000000
6.31873035 2.82518125 -0.60555810 16 10 6591 6.94800000 881823305 881823305 -5.00000000
7.87224436 3.51812792 1.67606616 12 11 6592 8.78400000 881823308 881823308 11.00000000
7.76303577 3.46769691 -0.44558832 17 12 6593 8.51400000 881823310 881823310 -3.00000000
7.87398529 3.51560879 1.99081683 4 13 6594 8.85000000 881823312 881823312 13.00000000
7.75545597 3.46106410 -0.14824075 14 14 6595 8.49400000 881823314 881823314 -1.00000000
7.53526258 3.36122036 2.21083236 45 15 6596 8.54200000 881823317 881823317 15.00000000
2.07255888 0.92102951 -0.60770714 4 0 6604 2.34800000 881823338 881823338 -15.00000000
7.75600243 3.44508767 0.14813602 12 1 6605 8.48800000 881823340 881823340 1.00000000
2.45612550 1.09045708 -0.62041503 9 2 6606 2.75800000 881823342 881823342 -13.00000000
7.78426504 3.45438862 0.44632104 13 3 6607 8.52800000 881823344 881823344 3.00000000
2.95194650 1.30997217 -0.62776160 5 4 6607 3.29000000 881823347 881823347 -11.00000000
7.77499294 3.44865012 0.74413574 76 5 6608 8.53800000 881823349 881823349 5.00000000
3.71645212 1.64768100 -0.64388424 4 6 6609 4.11600000 881823351 881823351 -9.00000000
7.79127359 3.45261717 1.04637015 95 7 6610 8.58600000 881823354 881823354 7.00000000
5.06027269 2.24134755 -0.67954344 9 8 6611 5.57600000 881823356 881823356 -7.00000000
8.06140614 3.56895757 1.39633405 7 9 6612 8.92600000 881823358 881823358 9.00000000
6.31628990 2.79635715 -0.60433793 16 10 6612 6.93400000 881823361 881823361 -5.00000000
8.09873009 3.58379126 1.72147870 9 11 6613 9.02200000 881823363 881823363 11.00000000
7.76473427 3.43437314 -0.44496030 17 12 6614 8.50200000 881823365 881823365 -3.00000000
7.85830021 3.47411823 1.98361838 2 13 6615 8.81800000 881823367 881823367 13.00000000
7.76077271 3.42938280 -0.14810112 16 14 6616 8.48600000 881823370 881823370 -1.00000000
7.63706779 3.37471890 2.23723173 45 15 6616 8.64400000 881823372 881823372 15.00000000
2.08636999 0.91845948 -0.61081296 4 0 6624 2.36000000 881823393 881823393 -15.00000000
7.76798058 3.41799331 0.14813602 12 1 6625 8.48800000 881823395 881823395 1.00000000
2.45456553 1.07952332 -0.61906528 7 2 6626 2.75200000 881823397 881823397 -13.00000000
7.79627562 3.42719555 0.44632104 13 3 6627 8.52800000 881823400 881823400 3.00000000
2.96548748 1.30361032 -0.62966967 5 4 6627 3.30000000 881823402 881823402 -11.00000000
7.78151178 3.41908503 0.74361283 76 5 6628 8.53200000 881823404 881823404 5.00000000
3.70771194 1.62834358 -0.64138132 6 6 6629 4.10000000 881823407 881823407 -9.00000000
7.79237175 3.42061210 1.04490781 97 7 6630 8.57400000 881823409 881823409 7.00000000
5.06988335 2.22446775 -0.67978722 9 8 6631 5.57800000 881823411 881823411 -7.00000000
8.17874050 3.58681154 1.41448045 10 9 6632 9.04200000 881823414 881823414 9.00000000
6.32783699 2.77509236 -0.60451221 12 10 6632 6.93600000 881823416 881823416 -5.00000000
8.19749928 3.59333253 1.73979640 12 11 6633 9.11800000 881823418 881823418 11.00000000
7.76935768 3.40404224 -0.44454160 17 12 6634 8.49400000 881823420 881823420 -3.00000000
7.95070744 3.48184443 2.00386405 2 13 6635 8.90800000 881823423 881823423 13.00000000
7.76720095 3.39986610 -0.14799641 14 14 6636 8.48000000 881823425 881823425 -1.00000000
7.75498533 3.39451909 2.26829004 45 15 6636 8.76400000 881823427 881823427 15.00000000
2.09294558 0.91308069 -0.61184824 4 0 6643 2.36400000 881823448 881823448 -15.00000000
7.77010727 3.38821840 0.14796150 12 1 6644 8.47800000 881823450 881823450 1.00000000
2.45634532 1.07059920 -0.61861539 9 2 6645 2.75000000 881823453 881823453 -13.00000000
7.79418755 3.39709997 0.44558832 13 3 6645 8.51400000 881823455 881823455 3.00000000
2.97159410 1.29455340 -0.63005131 5 4 6646 3.30200000 881823457 881823457 -11.00000000
7.78550005 3.39007998 0.74291557 79 5 6647 8.52400000 881823460 881823460 5.00000000
3.72033620 1.61919272 -0.64263278 6 6 6648 4.10800000 881823462 881823462 -9.00000000
7.78000784 3.38445854 1.04173911 100 7 6649 8.54800000 881823464 881823464 7.00000000
5.06630945 2.20289397 -0.67832476 9 8 6650 5.56600000 881823466 881823466 -7.00000000
8.27873325 3.59969592 1.42981100 10 9 6650 9.14000000 881823469 881823469 9.00000000
6.33883238 2.75488734 -0.60468656 28 10 6651 6.93800000 881823471 881823471 -5.00000000
8.22017384 3.57082224 1.74208617 6 11 6652 9.13000000 881823473 881823473 11.00000000
7.76777887 3.37269139 -0.44380891 12 12 6653 8.48000000 881823476 881823476 -3.00000000
7.88712883 3.42287588 1.98496807 3 13 6654 8.82400000 881823478 881823478 13.00000000
7.78210163 3.37568188 -0.14806622 14 14 6655 8.48400000 881823480 881823480 -1.00000000
7.84240818 3.40184140 2.29054856 49 15 6655 8.85000000 881823483 881823483 15.00000000
2.10144019 0.90806830 -0.61340111 4 0 6663 2.37000000 881823503 881823503 -15.00000000
7.76903677 3.35552478 0.14771716 12 1 6664 8.46400000 881823506 881823506 1.00000000
2.45648909 1.06047368 -0.61771560 10 2 6665 2.74600000 881823508 881823508 -13.00000000
7.79191542 3.36217976 0.44475096 15 3 6666 8.49800000 881823510 881823510 3.00000000
2.96347642 1.27872801 -0.62737995 5 4 6666 3.28800000 881823513 881823513 -11.00000000
7.79545641 3.36209393 0.74274123 76 5 6667 8.52200000 881823515 881823515 5.00000000
3.73684978 1.61088836 -0.64450997 6 6 6668 4.12000000 881823517 881823517 -9.00000000
7.78812838 3.35570955 1.04125166 99 7 6669 8.54400000 881823519 881823519 7.00000000
5.06667519 2.18205500 -0.67734981 9 8 6670 5.55800000 881823522 881823522 -7.00000000
7.74754763 3.33501816 1.33595037 5 9 6671 8.54000000 881823524 881823524 9.00000000
6.34291983 2.73038054 -0.60416359 36 10 6671 6.93200000 881823526 881823526 -5.00000000
7.69517088 3.31088042 1.62836397 12 11 6672 8.53400000 881823529 881823529 11.00000000
7.77033043 3.34161091 -0.44328555 17 12 6673 8.47000000 881823531 881823531 -3.00000000
7.76260328 3.33507752 -0.14747283 18 14 6675 8.45000000 881823536 881823536 -1.00000000
7.71281576 3.31209254 2.24913740 18 15 6676 8.69000000 881823538 881823538 15.00000000
2.09556031 0.89729261 -0.61081296 4 0 6682 2.36000000 881823559 881823559 -15.00000000
7.71026182 3.29984474 0.14639078 12 1 6683 8.38800000 881823561 881823561 1.00000000
2.46715903 1.05538750 -0.61951518 9 2 6684 2.75400000 881823563 881823563 -13.00000000
7.69226170 3.29055285 0.43847063 21 3 6684 8.37800000 881823566 881823566 3.00000000
2.96589541 1.26812184 -0.62699836 5 4 6685 3.28600000 881823568 881823568 -11.00000000
7.68381262 3.28376579 0.73106235 21 5 6686 8.38800000 881823570 881823570 5.00000000
3.74762082 1.60081553 -0.64544863 6 6 6687 4.12600000 881823572 881823572 -9.00000000
7.68784857 3.28231740 1.02638364 28 7 6688 8.42200000 881823575 881823575 7.00000000
5.08301210 2.16913700 -0.67856848 6 8 6689 5.56800000 881823577 881823577 -7.00000000
7.68225050 3.27675748 1.32280982 22 9 6690 8.45600000 881823579 881823579 9.00000000
6.32994747 2.69995141 -0.60207188 40 10 6690 6.90800000 881823582 881823582 -5.00000000
7.70430183 3.28457403 1.62798238 25 11 6691 8.53200000 881823584 881823584 11.00000000
7.67112494 3.26884770 -0.43700522 17 12 6692 8.35000000 881823586 881823586 -3.00000000
7.69151163 3.27594876 1.93008006 28 13 6693 8.58000000 881823589 881823589 13.00000000
7.65954590 3.26075482 -0.14530873 22 14 6694 8.32600000 881823591 881823591 -1.00000000
7.71074009 3.28254890 2.24551415 22 15 6694 8.67600000 881823593 881823593 15.00000000
2.09512281 0.88846385 -0.60977769 4 0 6702 2.35600000 881823614 881823614 -15.00000000
7.66649914 3.24949956 0.14534365 31 1 6703 8.32800000 881823616 881823616 1.00000000
2.47082806 1.04676914 -0.61951518 9 2 6704 2.75400000 881823618 881823618 -13.00000000
7.68714952 3.25666976 0.43752858 39 3 6704 8.36000000 881823621 881823621 3.00000000
2.96307254 1.25469911 -0.62547189 5 4 6705 3.27800000 881823623 881823623 -11.00000000
7.68054962 3.25071192 0.72966790 32 5 6706 8.37200000 881823625 881823625 5.00000000
3.73135448 1.57848871 -0.64169419 6 6 6707 4.10200000 881823628 881823628 -9.00000000
7.69377375 3.25314260 1.02565241 30 7 6708 8.41600000 881823630 881823630 7.00000000
5.09786701 2.15447187 -0.67954344 9 8 6709 5.57600000 881823632 881823632 -7.00000000
7.68636274 3.24684668 1.32155836 25 9 6710 8.44800000 881823635 881823635 9.00000000
6.33199215 2.67473817 -0.60137463 40 10 6710 6.90000000 881823637 881823637 -5.00000000
7.69944239 3.25078845 1.62454784 28 11 6711 8.51400000 881823639 881823639 11.00000000
7.66960812 3.23661470 -0.43627253 38 12 6712 8.33600000 881823642 881823642 -3.00000000
7.71187782 3.25286722 1.93232954 31 13 6713 8.59000000 881823644 881823644 13.00000000
7.66903830 3.23322129 -0.14527383 44 14 6714 8.32400000 881823646 881823646 -1.00000000
7.72393179 3.25636387 2.24603176 20 15 6714 8.67800000 881823648 881823648 15.00000000
2.10177350 0.88264108 -0.61081296 4 0 6722 2.36000000 881823669 881823669 -15.00000000
7.66304493 3.21652699 0.14506440 34 1 6723 8.31200000 881823671 881823671 1.00000000
2.46907592 1.03587615 -0.61816549 7 2 6724 2.74800000 881823674 881823674 -13.00000000
7.69903421 3.22847295 0.43752858 26 3 6725 8.36000000 881823676 881823676 3.00000000
2.98916030 1.25345898 -0.63005131 5 4 6725 3.30200000 881823678 881823678 -11.00000000
7.69552469 3.22542214 0.73001653 18 5 6726 8.37600000 881823681 881823681 5.00000000
3.74595141 1.56927049 -0.64325851 6 6 6727 4.11200000 881823683 881823683 -9.00000000
7.73437929 3.23853374 1.02955222 26 7 6728 8.44800000 881823685 881823685 7.00000000
5.10535622 2.13666391 -0.67954344 9 8 6729 5.57600000 881823688 881823688 -7.00000000
7.72624302 3.23354197 1.32656431 12 9 6729 8.48000000 881823690 881823690 9.00000000
6.33761406 2.65108132 -0.60102600 40 10 6730 6.89600000 881823692 881823692 -5.00000000
7.66980219 3.20520258 -0.43564451 21 12 6732 8.32400000 881823697 881823697 -3.00000000
8.17273045 3.41370034 2.04480505 44 13 6733 9.09000000 881823699 881823699 13.00000000
7.67843246 3.20566130 -0.14523892 16 14 6734 8.32200000 881823701 881823701 -1.00000000
7.85526657 3.27787757 2.28071332 42 15 6735 8.81200000 881823704 881823704 15.00000000
2.10662556 0.87604094 -0.61133057 4 0 6742 2.36200000 881823724 881823724 -15.00000000
7.73885489 3.21662116 0.14628607 15 1 6743 8.38200000 881823727 881823727 1.00000000
2.46727800 1.02500832 -0.61681581 9 2 6744 2.74200000 881823729 881823729 -13.00000000
7.78347492 3.23357439 0.44171548 18 3 6744 8.44000000 881823731 881823731 3.00000000
2.98989129 1.24151146 -0.62928808 5 4 6745 3.29800000 881823734 881823734 -11.00000000
7.79874659 3.23672724 0.73873210 68 5 6746 8.47600000 881823736 881823736 5.00000000
3.74775720 1.55467141 -0.64263278 6 6 6747 4.10800000 881823738 881823738 -9.00000000
7.80981731 3.23812652 1.03808308 97 7 6748 8.51800000 881823741 881823741 7.00000000
5.09811306 2.11275005 -0.67759353 9 8 6749 5.56000000 881823743 881823743 -7.00000000
6.34498882 2.62818027 -0.60085171 36 10 6750 6.89400000 881823748 881823748 -5.00000000
7.76768208 3.21430302 -0.44056407 17 12 6752 8.41800000 881823752 881823752 -3.00000000
8.20260429 3.39259934 2.04930401 43 13 6753 9.11000000 881823754 881823754 13.00000000
7.79121637 3.22085667 -0.14715870 16 14 6754 8.43200000 881823757 881823757 -1.00000000
7.86487484 3.24969983 2.28019571 49 15 6755 8.81000000 881823759 881823759 15.00000000
2.10773277 0.86831445 -0.61081296 4 0 6761 2.36000000 881823780 881823780 -15.00000000
7.80125284 3.21225905 0.14726341 12 1 6762 8.43800000 881823782 881823782 1.00000000
2.47426748 1.01830423 -0.61771560 9 2 6763 2.74600000 881823784 881823784 -13.00000000
7.80708408 3.21306658 0.44244817 18 3 6763 8.45400000 881823787 881823787 3.00000000
2.99217629 1.23084295 -0.62890643 5 4 6764 3.29600000 881823789 881823789 -11.00000000
7.81680775 3.21387839 0.73942930 76 5 6765 8.48400000 881823791 881823791 5.00000000
3.75471926 1.54298568 -0.64294565 6 6 6766 4.11000000 881823794 881823794 -9.00000000
7.81500340 3.20994782 1.03735185 100 7 6767 8.51200000 881823796 881823796 7.00000000
5.09040022 2.08980131 -0.67564362 9 8 6768 5.54400000 881823798 881823798 -7.00000000
6.35182571 2.60636878 -0.60067737 40 10 6769 6.89200000 881823803 881823803 -5.00000000
7.80047464 3.19761729 -0.44182014 17 12 6771 8.44200000 881823807 881823807 -3.00000000
8.21020317 3.36390233 2.04840422 46 13 6772 9.10600000 881823810 881823810 13.00000000
7.79445219 3.19197106 -0.14701907 14 14 6773 8.42400000 881823812 881823812 -1.00000000
7.87382030 3.22286916 2.27967811 56 15 6774 8.80800000 881823814 881823814 15.00000000
2.10896206 0.86022216 -0.61029530 4 0 6781 2.35800000 881823835 881823835 -15.00000000
7.80315971 3.18123341 0.14708889 12 1 6782 8.42800000 881823837 881823837 1.00000000
2.48502564 1.01260269 -0.61951518 9 2 6783 2.75400000 881823840 881823840 -13.00000000
7.80160570 3.17901206 0.44150612 10 3 6783 8.43600000 881823842 881823842 3.00000000
2.98736334 1.21668816 -0.62699836 6 4 6784 3.28600000 881823844 881823844 -11.00000000
7.81690693 3.18206573 0.73838347 94 5 6785 8.47200000 881823847 881823847 5.00000000
3.76923084 1.53359210 -0.64450997 6 6 6786 4.12000000 881823849 881823849 -9.00000000
7.81145000 3.17666626 1.03540194 100 7 6787 8.49600000 881823851 881823851 7.00000000
5.10869789 2.07650471 -0.67710608 6 8 6788 5.55600000 881823854 881823854 -7.00000000
6.34980965 2.57968140 -0.59963149 32 10 6789 6.88000000 881823858 881823858 -5.00000000
7.80788755 3.16886711 -0.44161081 17 12 6791 8.43800000 881823863 881823863 -3.00000000
8.24717712 3.34547830 2.05470300 37 13 6792 9.13400000 881823865 881823865 13.00000000
7.78701496 3.15723038 -0.14667003 14 14 6793 8.40400000 881823867 881823867 -1.00000000
7.85995626 3.18520713 2.27243114 63 15 6794 8.78000000 881823870 881823870 15.00000000
2.10822082 0.85177648 -0.60926002 4 0 6800 2.35400000 881823890 881823890 -15.00000000
7.79883242 3.14934969 0.14680964 12 1 6801 8.41200000 881823893 881823893 1.00000000
2.48294878 1.00216830 -0.61816549 7 2 6802 2.74800000 881823895 881823895 -13.00000000
7.81395674 3.15387106 0.44161081 10 3 6802 8.43800000 881823897 881823897 3.00000000
2.99138141 1.20677495 -0.62699836 6 4 6803 3.28600000 881823900 881823900 -11.00000000
7.80524206 3.14718556 0.73629171 90 5 6804 8.44800000 881823902 881823902 5.00000000
3.75963831 1.51517737 -0.64200705 6 6 6805 4.10400000 881823904 881823904 -9.00000000
7.82194138 3.15074515 1.03540194 100 7 6806 8.49600000 881823906 881823906 7.00000000
5.11555576 2.05955219 -0.67710608 9 8 6807 5.55600000 881823909 881823909 -7.00000000
6.34723949 2.55414796 -0.59858567 8 10 6808 6.86800000 881823913 881823913 -5.00000000
7.80352783 3.13699818 -0.44077343 17 12 6810 8.42200000 881823918 881823918 -3.00000000
8.26003361 3.31883788 2.05515289 35 13 6811 9.13600000 881823920 881823920 13.00000000
7.79558611 3.13064504 -0.14663512 14 14 6812 8.40200000 881823923 881823923 -1.00000000
7.85737514 3.15545917 2.26880765 60 15 6812 8.76600000 881823925 881823925 15.00000000
2.11656237 0.84656453 -0.61081296 4 0 6820 2.36000000 881823946 881823946 -15.00000000
7.79863739 3.11765361 0.14660022 12 1 6821 8.40000000 881823948 881823948 1.00000000
2.48824143 0.99421817 -0.61861539 9 2 6822 2.75000000 881823950 881823950 -13.00000000
7.83048248 3.12879920 0.44192481 13 3 6822 8.44400000 881823953 881823953 3.00000000
3.00286865 1.19923830 -0.62852484 6 4 6823 3.29400000 881823955 881823955 -11.00000000
7.81062889 3.11770535 0.73576880 83 5 6824 8.44200000 881823957 881823957 5.00000000
3.76306963 1.50131261 -0.64169419 6 6 6825 4.10200000 881823959 881823959 -9.00000000
7.81814051 3.11754012 1.03345203 100 7 6826 8.48000000 881823962 881823962 7.00000000
5.12640142 2.04315281 -0.67759353 9 8 6827 5.56000000 881823964 881823964 -7.00000000
6.35796738 2.53271365 -0.59875995 12 10 6828 6.87000000 881823969 881823969 -5.00000000
7.81628609 3.11047792 -0.44087809 12 12 6830 8.42400000 881823973 881823973 -3.00000000
7.79717541 3.09972072 -0.14646059 14 14 6832 8.39200000 881823978 881823978 -1.00000000
7.86529732 3.12521243 2.26777244 49 15 6833 8.76200000 881823980 881823980 15.00000000
2.13416886 0.84411556 -0.61495405 4 0 6842 2.37600000 881824001 881824001 -15.00000000
7.80683136 3.08621573 0.14653040 12 1 6843 8.39600000 881824003 881824003 1.00000000
2.48297858 0.98107612 -0.61636591 7 2 6844 2.74000000 881824006 881824006 -13.00000000
7.83183336 3.09293890 0.44129679 13 3 6845 8.43200000 881824008 881824008 3.00000000
3.00379920 1.18625700 -0.62776160 8 4 6845 3.29000000 881824010 881824010 -11.00000000
7.81512928 3.08476567 0.73507154 76 5 6846 8.43400000 881824012 881824012 5.00000000
3.77248168 1.48830223 -0.64231992 6 6 6847 4.10600000 881824015 881824015 -9.00000000
7.81158638 3.08021593 1.03101468 100 7 6848 8.46000000 881824017 881824017 7.00000000
5.11204672 2.01471949 -0.67466867 9 8 6849 5.53600000 881824019 881824019 -7.00000000
6.36208391 2.50609159 -0.59823704 16 10 6850 6.86400000 881824024 881824024 -5.00000000
7.80401087 3.07093525 -0.43951735 17 12 6852 8.39800000 881824029 881824029 -3.00000000
7.81274223 3.07122207 -0.14653040 16 14 6854 8.39600000 881824033 881824033 -1.00000000
7.88029480 3.09777713 2.26880765 51 15 6854 8.76600000 881824036 881824036 15.00000000
2.12990665 0.83384377 -0.61288351 4 0 6862 2.36800000 881824056 881824056 -15.00000000
7.80265903 3.05311680 0.14625117 18 1 6863 8.38000000 881824059 881824059 1.00000000
2.48275828 0.97098339 -0.61546606 7 2 6864 2.73600000 881824061 881824061 -13.00000000
7.81839943 3.05612922 0.43993604 13 3 6865 8.40600000 881824063 881824063 3.00000000
3.00426459 1.17433512 -0.62699836 13 4 6865 3.28600000 881824065 881824065 -11.00000000
7.82399368 3.05674195 0.73489720 79 5 6866 8.43200000 881824068 881824068 5.00000000
3.77765369 1.47512472 -0.64231992 6 6 6867 4.10600000 881824070 881824070 -9.00000000
7.82598925 3.05437303 1.03150213 100 7 6868 8.46400000 881824072 881824072 7.00000000
5.11719894 1.99614143 -0.67442495 9 8 6869 5.53400000 881824075 881824075 -7.00000000
6.37821817 2.48676348 -0.59893429 32 10 6870 6.87200000 881824079 881824079 -5.00000000
7.80723858 3.04077601 -0.43909869 21 12 6872 8.39000000 881824084 881824084 -3.00000000
7.81223345 3.03958130 -0.14632097 18 14 6874 8.38400000 881824089 881824089 -1.00000000
7.88439369 3.06607294 2.26673722 54 15 6875 8.75800000 881824091 881824091 15.00000000
2.12199616 0.82221603 -0.60977769 4 0 6882 2.35600000 881824112 881824112 -15.00000000
7.80953932 3.02441740 0.14618136 18 1 6883 8.37600000 881824114 881824114 1.00000000
2.49703670 0.96653169 -0.61816549 7 2 6884 2.74800000 881824116 881824116 -13.00000000
7.83274508 3.03026056 0.44014540 13 3 6885 8.41000000 881824118 881824118 3.00000000
3.01383853 1.16596615 -0.62814319 20 4 6885 3.29200000 881824121 881824121 -11.00000000
7.82160807 3.02438259 0.73367703 76 5 6886 8.41800000 881824123 881824123 5.00000000
3.79383516 1.46620190 -0.64419711 6 6 6887 4.11800000 881824125 881824125 -9.00000000
7.83289957 3.02560616 1.03101468 100 7 6888 8.46000000 881824128 881824128 7.00000000
5.14265442 1.98541653 -0.67686236 9 8 6889 5.55400000 881824130 881824130 -7.00000000
6.37570715 2.46018052 -0.59788841 32 10 6890 6.86000000 881824135 881824135 -5.00000000
7.82525969 3.01637864 -0.43951735 17 12 6892 8.39800000 881824139 881824139 -3.00000000
7.80973291 3.00726295 -0.14607663 20 14 6894 8.37000000 881824144 881824144 -1.00000000
7.88189793 3.03505111 2.26311374 49 15 6894 8.74400000 881824146 881824146 15.00000000
2.12124586 0.81342053 -0.60874242 4 0 6902 2.35200000 881824167 881824167 -15.00000000
7.81444740 2.99499178 0.14607663 25 1 6903 8.37000000 881824169 881824169 1.00000000
2.50403476 0.95920372 -0.61906528 7 2 6904 2.75200000 881824171 881824171 -13.00000000
7.84140968 3.00218654 0.44004071 13 3 6905 8.40800000 881824174 881824174 3.00000000
3.01422334 1.15403485 -0.62737995 15 4 6905 3.28800000 881824176 881824176 -11.00000000
7.80978775 2.98851705 0.73158532 76 5 6906 8.39400000 881824178 881824178 5.00000000
3.78970504 1.44942164 -0.64263278 6 6 6907 4.10800000 881824181 881824181 -9.00000000
7.84341335 2.99824572 1.03101468 100 7 6908 8.46000000 881824183 881824183 7.00000000
5.15326214 1.96887016 -0.67734981 9 8 6909 5.55800000 881824185 881824185 -7.00000000
6.36936569 2.43222427 -0.59649390 16 10 6910 6.84400000 881824190 881824190 -5.00000000
7.83574104 2.98904490 -0.43951735 21 12 6912 8.39800000 881824194 881824194 -3.00000000
7.80710268 2.97499895 -0.14583232 20 14 6914 8.35600000 881824199 881824199 -1.00000000
7.87852621 3.00064135 2.25897264 47 15 6915 8.72800000 881824201 881824201 15.00000000
2.12740254 0.80812448 -0.60977769 4 0 6920 2.35600000 881824222 881824222 -15.00000000
7.81260061 2.96616840 0.14586721 25 1 6921 8.35800000 881824224 881824224 1.00000000
2.50703597 0.95133233 -0.61906528 7 2 6922 2.75200000 881824227 881824227 -13.00000000
7.84893513 2.97682905 0.43993604 13 3 6923 8.40600000 881824229 881824229 3.00000000
3.03251910 1.15012944 -0.63043290 9 4 6923 3.30400000 881824231 881824231 -11.00000000
7.82845306 2.96749806 0.73245686 76 5 6924 8.40400000 881824234 881824234 5.00000000
3.78500366 1.43400955 -0.64106846 6 6 6925 4.09800000 881824236 881824236 -9.00000000
7.83608580 2.96726346 1.02882099 97 7 6926 8.44200000 881824238 881824238 7.00000000
5.15013933 1.94915771 -0.67613113 9 8 6927 5.54800000 881824241 881824241 -7.00000000
6.38070202 2.41361213 -0.59684253 16 10 6928 6.84800000 881824245 881824245 -5.00000000
7.81893635 2.95452976 -0.43805194 17 12 6930 8.37000000 881824250 881824250 -3.00000000
7.82015181 2.95186996 -0.14590211 18 14 6932 8.36000000 881824254 881824254 -1.00000000
7.88739491 2.97725224 2.25897264 49 15 6932 8.72800000 881824257 881824257 15.00000000
2.13744378 0.80341232 -0.61184824 4 0 6940 2.36400000 881824277 881824277 -15.00000000
7.82290697 2.93887925 0.14586721 18 1 6941 8.35800000 881824280 881824280 1.00000000
2.49574637 0.93709528 -0.61546606 7 2 6942 2.73600000 881824282 881824282 -13.00000000
7.84431887 2.94379902 0.43909869 13 3 6943 8.39000000 881824284 881824284 3.00000000
3.04019165 1.14091647 -0.63119614 6 4 6943 3.30800000 881824287 881824287 -11.00000000
7.83130217 2.93735480 0.73175961 79 5 6944 8.39600000 881824289 881824289 5.00000000
3.80293393 1.42564249 -0.64325851 6 6 6945 4.11200000 881824291 881824291 -9.00000000
7.84081888 2.93780279 1.02808976 99 7 6946 8.43600000 881824294 881824294 7.00000000
5.15505266 1.93047237 -0.67588741 9 8 6947 5.54600000 881824296 881824296 -7.00000000
6.39095449 2.39202285 -0.59701681 16 10 6948 6.85000000 881824300 881824300 -5.00000000
7.81423569 2.92162299 -0.43721458 17 12 6950 8.35400000 881824305 881824305 -3.00000000
7.82666159 2.92315531 -0.14583232 18 14 6952 8.35600000 881824310 881824310 -1.00000000
7.89463425 2.94697213 2.25793743 47 15 6953 8.72400000 881824312 881824312 15.00000000
2.14385676 0.79729313 -0.61288351 4 0 6960 2.36800000 881824333 881824333 -15.00000000
7.83124352 2.91085768 0.14583232 21 1 6961 8.35600000 881824335 881824335 1.00000000
2.50265574 0.92973506 -0.61636591 7 2 6962 2.74000000 881824337 881824337 -13.00000000
7.83769560 2.91014242 0.43815663 13 3 6963 8.37200000 881824340 881824340 3.00000000
3.03495312 1.12688041 -0.62928808 5 4 6963 3.29800000 881824342 881824342 -11.00000000
7.83777189 2.90861416 0.73141098 76 5 6964 8.39200000 881824344 881824344 5.00000000
3.80603504 1.41167223 -0.64294565 6 6 6965 4.11000000 881824347 881824347 -9.00000000
7.84358072 2.90765548 1.02711487 97 7 6966 8.42800000 881824349 881824349 7.00000000
5.13383818 1.90212095 -0.67223132 9 8 6967 5.51600000 881824351 881824351 -7.00000000
6.39739656 2.36900783 -0.59684253 16 10 6968 6.84800000 881824356 881824356 -5.00000000
7.82064009 2.89294267 -0.43700522 17 12 6970 8.35000000 881824360 881824360 -3.00000000
7.81618452 2.88819313 -0.14544836 18 14 6972 8.33400000 881824365 881824365 -1.00000000
7.90073919 2.91943741 2.25690198 47 15 6972 8.72000000 881824367 881824367 15.00000000
2.12849641 0.78313416 -0.60770714 4 0 6980 2.34800000 881824388 881824388 -15.00000000
7.83760309 2.88212347 0.14576250 18 1 6981 8.35200000 881824390 881824390 1.00000000
2.50954413 0.92233801 -0.61726570 7 2 6982 2.74400000 881824393 881824393 -13.00000000
7.84593153 2.88207746 0.43805194 15 3 6983 8.37000000 881824395 881824395 3.00000000
3.04255390 1.11763346 -0.63005131 5 4 6983 3.30200000 881824397 881824397 -11.00000000
7.84039545 2.87849092 0.73071373 90 5 6984 8.38400000 881824400 881824400 5.00000000
3.81093955 1.39837801 -0.64294565 6 6 6985 4.11000000 881824402 881824402 -9.00000000
7.85927391 2.88230896 1.02784610 99 7 6986 8.43400000 881824404 881824404 7.00000000
5.15162992 1.88828802 -0.67369372 9 8 6987 5.52800000 881824406 881824406 -7.00000000
6.38878965 2.34049416 -0.59527373 16 10 6988 6.83000000 881824411 881824411 -5.00000000
7.83069038 2.86562586 -0.43700522 17 12 6990 8.35000000 881824416 881824416 -3.00000000
7.81870604 2.85814571 -0.14530873 16 14 6992 8.32600000 881824420 881824420 -1.00000000
7.90412807 2.88780832 2.25483155 47 15 6993 8.71200000 881824423 881824423 15.00000000
2.13652730 0.77805465 -0.60926002 4 0 6999 2.35400000 881824443 881824443 -15.00000000
7.84335947 2.85474920 0.14569269 15 1 7000 8.34800000 881824446 881824446 1.00000000
2.51625156 0.91534334 -0.61816549 7 2 7001 2.74800000 881824448 881824448 -13.00000000
7.85544586 2.85604358 0.43805194 18 3 7002 8.37000000 881824450 881824450 3.00000000
3.03886318 1.10485458 -0.62852484 5 4 7002 3.29400000 881824453 881824453 -11.00000000
7.83678961 2.84771228 0.72949356 76 5 7003 8.37000000 881824455 881824455 5.00000000
3.80812883 1.38303554 -0.64169419 6 6 7004 4.10200000 881824457 881824457 -9.00000000
7.86132479 2.85352159 1.02687109 99 7 7005 8.42600000 881824459 881824459 7.00000000
5.15786314 1.87119412 -0.67369372 9 8 7006 5.52800000 881824462 881824462 -7.00000000
6.40775442 2.32337022 -0.59631962 16 10 7007 6.84200000 881824466 881824466 -5.00000000
7.83451653 2.83760214 -0.43669122 17 12 7009 8.34400000 881824471 881824471 -3.00000000
7.83378220 2.83424330 -0.14541344 18 14 7011 8.33200000 881824476 881824476 -1.00000000
7.89499521 2.85639000 2.24965525 47 15 7011 8.69200000 881824478 881824478 15.00000000
2.13559508 0.76928264 -0.60822475 4 0 7019 2.35000000 881824499 881824499 -15.00000000
7.82693577 2.81787014 0.14520402 15 1 7020 8.32000000 881824501 881824501 1.00000000
2.51576400 0.90523481 -0.61726570 7 2 7021 2.74400000 881824503 881824503 -13.00000000
7.85972881 2.82657766 0.43773794 15 3 7022 8.36400000 881824506 881824506 3.00000000
3.05009103 1.09689772 -0.63005131 6 4 7022 3.30200000 881824508 881824508 -11.00000000
7.83918238 2.81764364 0.72879630 76 5 7023 8.36200000 881824510 881824510 5.00000000
3.79434276 1.36305594 -0.63856548 6 6 7024 4.08200000 881824512 881824512 -9.00000000
7.85442257 2.82002592 1.02467740 92 7 7025 8.40800000 881824515 881824515 7.00000000
5.17370558 1.85653079 -0.67491245 9 8 7026 5.53800000 881824517 881824517 -7.00000000
7.82614422 2.80678940 -0.72740185 17 10 7027 8.34600000 881824522 881824522 -5.00000000
7.83309269 2.80619574 -0.43606320 17 12 7029 8.33200000 881824526 881824526 -3.00000000
7.84174490 2.80620718 -0.14537854 18 14 7031 8.33000000 881824531 881824531 -1.00000000
7.90855551 2.83011580 2.25069046 47 15 7031 8.69600000 881824533 881824533 15.00000000
2.14022040 0.76209819 -0.60874242 4 0 7040 2.35200000 881824554 881824554 -15.00000000
7.84286308 2.79117560 0.14530873 28 1 7041 8.32600000 881824556 881824556 1.00000000
2.51172090 0.89339578 -0.61546606 7 2 7042 2.73600000 881824559 881824559 -13.00000000
7.85498095 2.79239941 0.43690056 21 3 7043 8.34800000 881824561 881824561 3.00000000
3.05779052 1.08702648 -0.63081455 5 4 7043 3.30600000 881824563 881824563 -11.00000000
7.84757996 2.78822565 0.72862202 79 5 7044 8.36000000 881824565 881824565 5.00000000
3.81792808 1.35574996 -0.64169419 6 6 7045 4.10200000 881824568 881824568 -9.00000000
7.86096430 2.78989124 1.02418995 95 7 7046 8.40400000 881824570 881824570 7.00000000
5.17673349 1.83622849 -0.67442495 9 8 7047 5.53400000 881824572 881824572 -7.00000000
7.82886791 2.77542329 -0.72670460 17 10 7048 8.33800000 881824577 881824577 -5.00000000
7.83391142 2.77413368 -0.43553984 17 12 7050 8.32200000 881824582 881824582 -3.00000000
7.84066629 2.77344584 -0.14516912 16 14 7052 8.31800000 881824586 881824586 -1.00000000
7.91159058 2.79853344 2.24861979 47 15 7052 8.68800000 881824588 881824588 15.00000000
2.15380049 0.75847286 -0.61184824 4 0 7060 2.36400000 881824609 881824609 -15.00000000
7.85255814 2.76378179 0.14530873 18 1 7061 8.32600000 881824612 881824612 1.00000000
2.51482415 0.88462275 -0.61546606 7 2 7062 2.73600000 881824614 881824614 -13.00000000
7.85714388 2.76231384 0.43648186 23 3 7063 8.34000000 881824616 881824616 3.00000000
3.05045342 1.07243931 -0.62852484 5 4 7063 3.29400000 881824618 881824618 -11.00000000
7.85538483 2.76015496 0.72844768 76 5 7064 8.35800000 881824621 881824621 5.00000000
3.83009243 1.34503269 -0.64294565 6 6 7065 4.11000000 881824623 881824623 -9.00000000
7.86690855 2.76111937 1.02370250 92 7 7066 8.40000000 881824625 881824625 7.00000000
5.15688705 1.80894804 -0.67101258 9 8 7067 5.50600000 881824628 881824628 -7.00000000
7.83474779 2.74676013 -0.72635597 17 10 7068 8.33400000 881824632 881824632 -5.00000000
7.83223724 2.74281049 -0.43491179 17 12 7070 8.31000000 881824637 881824637 -3.00000000
7.84463692 2.74407911 -0.14506440 18 14 7072 8.31200000 881824641 881824641 -1.00000000
7.92544174 2.77079248 2.24965525 47 15 7073 8.69200000 881824644 881824644 15.00000000
2.14183974 0.74586755 -0.60770714 4 0 7080 2.34800000 881824665 881824665 -15.00000000
7.85271502 2.73306799 0.14513421 15 1 7081 8.31600000 881824667 881824667 1.00000000
2.52525902 0.87839997 -0.61726570 7 2 7082 2.74400000 881824669 881824669 -13.00000000
7.86296511 2.73355865 0.43627253 47 3 7083 8.33600000 881824671 881824671 3.00000000
3.05046964 1.06049538 -0.62776160 5 4 7083 3.29000000 881824674 881824674 -11.00000000
7.85744381 2.73010206 0.72775048 76 5 7084 8.35000000 881824676 881824676 5.00000000
3.82543373 1.32841492 -0.64138132 6 6 7085 4.10000000 881824678 881824678 -9.00000000
7.87649870 2.73364186 1.02370250 97 7 7086 8.40000000 881824681 881824681 7.00000000
5.17629862 1.79548991 -0.67271876 9 8 7087 5.52000000 881824683 881824683 -7.00000000
7.81793308 2.71025872 -0.72391558 17 10 7088 8.30600000 881824688 881824688 -5.00000000
7.84553862 2.71676135 -0.43512115 17 12 7090 8.31400000 881824692 881824692 -3.00000000
7.84093904 2.71210384 -0.14482006 18 14 7092 8.29800000 881824697 881824697 -1.00000000
7.92728329 2.74196935 2.24758458 47 15 7092 8.68400000 881824699 881824699 15.00000000
2.14808345 0.73964447 -0.60874242 4 0 7100 2.35200000 881824720 881824720 -15.00000000
7.85464382 2.70303750 0.14499459 15 1 7101 8.30800000 881824722 881824722 1.00000000
2.52646685 0.86894596 -0.61681581 9 2 7102 2.74200000 881824724 881824724 -13.00000000
7.86868143 2.70479655 0.43606320 34 3 7103 8.33200000 881824727 881824727 3.00000000
3.05415297 1.04984069 -0.62776160 5 4 7103 3.29000000 881824729 881824729 -11.00000000
7.85561991 2.69877386 0.72670460 76 5 7104 8.33800000 881824731 881824731 5.00000000
3.83191586 1.31569517 -0.64169419 6 6 7105 4.10200000 881824734 881824734 -9.00000000
7.88599300 2.70613122 1.02370250 95 7 7106 8.40000000 881824736 881824736 7.00000000
5.19004536 1.77998626 -0.67369372 9 8 7107 5.52800000 881824738 881824738 -7.00000000
7.63887167 2.61834979 -0.70648444 17 10 7108 8.10600000 881824743 881824743 -5.00000000
7.86064243 2.69129944 -0.43543515 21 12 7110 8.32000000 881824747 881824747 -3.00000000
7.85035801 2.68471718 -0.14482006 20 14 7112 8.29800000 881824752 881824752 -1.00000000
7.91487122 2.70677996 2.24137282 47 15 7112 8.66000000 881824754 881824754 15.00000000
2.14686704 0.73127133 -0.60770714 4 0 7119 2.34800000 881824775 881824775 -15.00000000
7.84842014 2.67182016 0.14471535 15 1 7120 8.29200000 881824777 881824777 1.00000000
2.53117943 0.86119086 -0.61726570 7 2 7121 2.74400000 881824780 881824780 -13.00000000
7.87524939 2.67941976 0.43595850 39 3 7121 8.33000000 881824782 881824782 3.00000000
3.05761743 1.03970706 -0.62776160 5 4 7122 3.29000000 881824784 881824784 -11.00000000
7.86075354 2.67142653 0.72635597 76 5 7123 8.33400000 881824787 881824787 5.00000000
3.83625770 1.30298078 -0.64169419 6 6 7124 4.10200000 881824789 881824789 -9.00000000
7.88364506 2.67613697 1.02224004 97 7 7125 8.38800000 881824791 881824791 7.00000000
5.19403934 1.76212788 -0.67344999 9 8 7126 5.52600000 881824793 881824793 -7.00000000
7.62486982 2.58532667 -0.70439273 30 10 7127 8.08200000 881824798 881824798 -5.00000000
7.85060692 2.65881109 -0.43438843 21 12 7129 8.30000000 881824803 881824803 -3.00000000
7.96306896 2.69535017 1.94087768 3 13 7130 8.62800000 881824805 881824805 13.00000000
7.85921812 2.65866971 -0.14482006 16 14 7131 8.29800000 881824807 881824807 -1.00000000
7.92746401 2.68175650 2.24240828 47 15 7131 8.66400000 881824810 881824810 15.00000000
2.15672994 0.72623891 -0.60977769 4 0 7139 2.35600000 881824830 881824830 -15.00000000
7.86148930 2.64568353 0.14478517 18 1 7140 8.29600000 881824833 881824833 1.00000000
2.51754665 0.84675890 -0.61321658 9 2 7141 2.72600000 881824835 881824835 -13.00000000
7.87365770 2.64671922 0.43533048 42 3 7142 8.31800000 881824837 881824837 3.00000000
3.07425451 1.03340650 -0.63043290 5 4 7142 3.30400000 881824840 881824840 -11.00000000
7.87380791 2.64524031 0.72670460 76 5 7143 8.33800000 881824842 881824842 5.00000000
3.83141947 1.28643799 -0.64012980 6 6 7144 4.09200000 881824844 881824844 -9.00000000
7.87600088 2.64291787 1.02004635 99 7 7145 8.37000000 881824846 881824846 7.00000000
5.18698454 1.73956823 -0.67174381 9 8 7146 5.51200000 881824849 881824849 -7.00000000
7.66218424 2.56819296 -0.70700741 30 10 7147 8.11200000 881824853 881824853 -5.00000000
7.84468842 2.62631869 -0.43355107 17 12 7149 8.28400000 881824858 881824858 -3.00000000
7.96688461 2.66568232 1.93952799 4 13 7150 8.62200000 881824860 881824860 13.00000000
7.86465740 2.62995148 -0.14475025 16 14 7151 8.29400000 881824863 881824863 -1.00000000
7.93357515 2.65145802 2.24137282 47 15 7152 8.66000000 881824865 881824865 15.00000000
2.17037582 0.72198796 -0.61288351 4 0 7160 2.36800000 881824886 881824886 -15.00000000
7.86544037 2.61495924 0.14468046 12 1 7161 8.29000000 881824888 881824888 1.00000000
2.53912640 0.84367067 -0.61771560 11 2 7162 2.74600000 881824890 881824890 -13.00000000
7.87147665 2.61544037 0.43470246 52 3 7162 8.30600000 881824893 881824893 3.00000000
3.07615829 1.02151310 -0.63005131 5 4 7163 3.30200000 881824895 881824895 -11.00000000
7.87966824 2.61510825 0.72635597 76 5 7164 8.33400000 881824897 881824897 5.00000000
3.84735823 1.27611792 -0.64200705 6 6 7165 4.10400000 881824899 881824899 -9.00000000
7.88563490 2.61403322 1.02004635 99 7 7166 8.37000000 881824902 881824902 7.00000000
5.18578768 1.71804810 -0.67076886 9 8 7167 5.50400000 881824904 881824904 -7.00000000
