# .PCD v0.7 - Point Cloud Data file format
VERSION 0.7
FIELDS x y z intensity laser_id azimuth distance_m adjustedtime timestamp vertical_angle
SIZE 4 4 4 1 1 2 8 8 4 8
TYPE F F F U U U F U U F
COUNT 1 1 1 1 1 1 1 1 1 1
WIDTH 534
HEIGHT 1
VIEWPOINT 0 0 0 1 0 0 0
POINTS 534
DATA ascii
4.42323065 7.10345316 -0.73210824 8 10 3191 8.40000000 1204912983 1204912983 -5.00000000
6.25419474 10.03997040 2.29924846 50 11 3192 12.05000000 1204912985 1204912985 11.00000000
8.43468285 13.53508282 -0.83580524 9 12 3193 15.97000000 1204912987 1204912987 -3.00000000
5.35472202 8.58934784 2.33679152 54 13 3194 10.38800000 1204912989 1204912989 13.00000000
8.43171215 13.51979923 -0.27812156 9 14 3195 15.93600000 1204912992 1204912992 -1.00000000
4.66603899 7.47883654 2.36198258 38 15 3196 9.12600000 1204912994 1204912994 15.00000000
1.21515548 1.94239151 -0.61391878 4 0 3203 2.37200000 1204913015 1204913015 -15.00000000
8.44657326 13.49636745 0.27791211 10 1 3204 15.92400000 1204913017 1204913017 1.00000000
1.43949044 2.29919910 -0.62626374 3 2 3205 2.78400000 1204913019 1204913019 -13.00000000
8.45029354 13.49707317 0.83454913 50 3 3205 15.94600000 1204913022 1204913022 3.00000000
1.73511195 2.77029991 -0.63539398 2 4 3206 3.33000000 1204913024 1204913024 -11.00000000
9.55044174 15.24243164 1.57368410 15 5 3207 18.05600000 1204913026 1204913026 5.00000000
2.20631647 3.51989889 -0.65796334 2 6 3208 4.20600000 1204913029 1204913029 -9.00000000
8.52312946 13.59230232 1.96989608 45 7 3209 16.16400000 1204913031 1204913031 7.00000000
2.95892501 4.71693087 -0.68368703 6 8 3210 5.61000000 1204913033 1204913033 -7.00000000
6.70556259 10.68958282 1.99860668 47 9 3210 12.77600000 1204913036 1204913036 9.00000000
4.46600294 7.11665964 -0.73507154 8 10 3211 8.43400000 1204913038 1204913038 -5.00000000
6.29442167 10.02639198 2.30115652 46 11 3212 12.06000000 1204913040 1204913040 11.00000000
8.42239285 13.41084099 -0.82994360 9 12 3213 15.85800000 1204913042 1204913042 -3.00000000
5.38570833 8.57225418 2.33724141 59 13 3214 10.39000000 1204913045 1204913045 13.00000000
8.43096828 13.41409683 -0.27655083 9 14 3215 15.84600000 1204913047 1204913047 -1.00000000
4.68903160 7.45759726 2.36042976 40 15 3216 9.12000000 1204913049 1204913049 15.00000000
1.21368599 1.92506456 -0.60977769 4 0 3223 2.35600000 1204913070 1204913070 -15.00000000
8.44456196 13.38899803 0.27630651 10 1 3224 15.83200000 1204913072 1204913072 1.00000000
1.44750738 2.29416037 -0.62626374 3 2 3225 2.78400000 1204913075 1204913075 -13.00000000
8.45365906 13.39823914 0.83025759 52 3 3225 15.86400000 1204913077 1204913077 3.00000000
1.73848403 2.75426507 -0.63310426 2 4 3226 3.31800000 1204913079 1204913079 -11.00000000
9.56954956 15.15509319 1.56810617 47 5 3227 17.99200000 1204913082 1204913082 5.00000000
2.21648002 3.50883579 -0.65733761 2 6 3228 4.20200000 1204913084 1204913084 -9.00000000
8.52386379 13.48863125 1.95917153 47 7 3229 16.07600000 1204913086 1204913086 7.00000000
2.98279738 4.71831894 -0.68539321 4 8 3230 5.62400000 1204913089 1204913089 -7.00000000
6.74811316 10.67445946 2.00017118 50 9 3230 12.78600000 1204913091 1204913091 9.00000000
4.48016834 7.08418798 -0.73332840 4 10 3231 8.41400000 1204913093 1204913093 -5.00000000
6.32623339 9.99938202 2.30001163 53 11 3232 12.05400000 1204913095 1204913095 11.00000000
8.43711090 13.33073044 -0.82680345 9 12 3233 15.79800000 1204913098 1204913098 -3.00000000
5.41768312 8.55669594 2.33814120 57 13 3234 10.39400000 1204913100 1204913100 13.00000000
8.42210007 13.29674053 -0.27473578 9 14 3235 15.74200000 1204913102 1204913102 -1.00000000
4.71193314 7.43628836 2.35887671 40 15 3236 9.11400000 1204913105 1204913105 15.00000000
1.22454226 1.92733860 -0.61184824 4 0 3243 2.36400000 1204913125 1204913125 -15.00000000
8.44404888 13.28518200 0.27477068 10 1 3244 15.74400000 1204913128 1204913128 1.00000000
1.45341551 2.28580475 -0.62536395 4 2 3245 2.78000000 1204913130 1204913130 -13.00000000
8.44893646 13.28774929 0.82523334 47 3 3245 15.76800000 1204913132 1204913132 3.00000000
1.75019503 2.75149298 -0.63386750 2 4 3246 3.32200000 1204913135 1204913135 -11.00000000
9.56784058 15.03586960 1.55921626 42 5 3247 17.89000000 1204913137 1204913137 5.00000000
2.21492434 3.47941446 -0.65327030 2 6 3248 4.17600000 1204913139 1204913139 -9.00000000
8.51651478 13.37340069 1.94674087 37 7 3249 15.97400000 1204913141 1204913141 7.00000000
2.98538351 4.68611336 -0.68222457 4 8 3250 5.59800000 1204913144 1204913144 -7.00000000
6.78639412 10.65250492 2.00048399 47 9 3250 12.78800000 1204913146 1204913146 9.00000000
4.48773670 7.04162312 -0.73053944 4 10 3251 8.38200000 1204913148 1204913148 -5.00000000
6.36215448 9.97889328 2.30039334 50 11 3252 12.05600000 1204913151 1204913151 11.00000000
8.41485500 13.19342804 -0.82010442 9 12 3253 15.67000000 1204913153 1204913153 -3.00000000
5.44542217 8.53444672 2.33724141 56 13 3254 10.39000000 1204913155 1204913155 13.00000000
8.42865467 13.20489407 -0.27344429 9 14 3255 15.66800000 1204913158 1204913158 -1.00000000
4.73864555 7.42387915 2.35991216 38 15 3255 9.11800000 1204913160 1204913160 15.00000000
1.23959589 1.93606794 -0.61598933 4 0 3263 2.38000000 1204913181 1204913181 -15.00000000
8.43860054 13.17479897 0.27309525 10 1 3264 15.64800000 1204913183 1204913183 1.00000000
1.45928288 2.27743578 -0.62446415 3 2 3265 2.77600000 1204913185 1204913185 -13.00000000
8.44246960 13.17577457 0.82010442 52 3 3265 15.67000000 1204913188 1204913188 3.00000000
1.76402676 2.75197816 -0.63539398 2 4 3266 3.33000000 1204913190 1204913190 -11.00000000
9.55251122 14.89671707 1.54823458 46 5 3267 17.76400000 1204913192 1204913192 5.00000000
2.23025608 3.47664952 -0.65420896 2 6 3268 4.18200000 1204913194 1204913194 -9.00000000
8.50846577 13.25838757 1.93431020 45 7 3269 15.87200000 1204913197 1204913197 7.00000000
3.01566434 4.69738007 -0.68539321 4 8 3270 5.62400000 1204913199 1204913199 -7.00000000
6.82567120 10.63207531 2.00110960 47 9 3270 12.79200000 1204913201 1204913201 9.00000000
4.51444244 7.02926779 -0.73088807 4 10 3271 8.38600000 1204913204 1204913204 -5.00000000
6.39588737 9.95497322 2.30001163 50 11 3272 12.05400000 1204913206 1204913206 11.00000000
8.42522144 13.10852909 -0.81665027 9 12 3273 15.60400000 1204913208 1204913208 -3.00000000
5.47517967 8.51538658 2.33724141 59 13 3274 10.39000000 1204913211 1204913211 13.00000000
8.43250751 13.10980129 -0.27208301 9 14 3275 15.59000000 1204913213 1204913213 -1.00000000
4.42503405 6.87684774 2.19116211 20 15 3276 8.46600000 1204913215 1204913215 15.00000000
1.24634647 1.93172920 -0.61598933 4 0 3283 2.38000000 1204913236 1204913236 -15.00000000
8.43899250 13.07469749 0.27162924 10 1 3284 15.56400000 1204913238 1204913238 1.00000000
1.46722364 2.27232814 -0.62446415 3 2 3285 2.77600000 1204913241 1204913241 -13.00000000
8.44410515 13.07260227 0.81560355 57 3 3286 15.58400000 1204913243 1204913243 3.00000000
1.76510024 2.73261070 -0.63234103 2 4 3286 3.31400000 1204913245 1204913245 -11.00000000
9.56011772 14.79467201 1.54108787 46 5 3287 17.68200000 1204913247 1204913247 5.00000000
2.24130583 3.46718454 -0.65389609 2 6 3288 4.18000000 1204913250 1204913250 -9.00000000
8.52019978 13.17526531 1.92651057 36 7 3289 15.80800000 1204913252 1204913252 7.00000000
3.02341700 4.67349100 -0.68344325 4 8 3290 5.60800000 1204913254 1204913254 -7.00000000
6.85630465 10.59823322 1.99923241 43 9 3290 12.78000000 1204913257 1204913257 9.00000000
4.55518913 7.03855658 -0.73350275 4 10 3291 8.41600000 1204913259 1204913259 -5.00000000
6.43166447 9.93423462 2.30039334 50 11 3292 12.05600000 1204913261 1204913261 11.00000000
8.41664124 12.99522114 -0.81141669 9 12 3293 15.50400000 1204913264 1204913264 -3.00000000
5.49109507 8.47496128 2.33139277 54 13 3294 10.36400000 1204913266 1204913266 13.00000000
8.41948509 12.98967266 -0.27019817 9 14 3295 15.48200000 1204913268 1204913268 -1.00000000
4.79666233 7.40034294 2.36301780 42 15 3295 9.13000000 1204913271 1204913271 15.00000000
1.24781680 1.91926861 -0.61340111 4 0 3303 2.37000000 1204913291 1204913291 -15.00000000
8.43442726 12.96805000 0.27002364 10 1 3304 15.47200000 1204913294 1204913294 1.00000000
1.48152339 2.27699327 -0.62716353 3 2 3305 2.78800000 1204913296 1204913296 -13.00000000
8.44065666 12.96772194 0.81089330 55 3 3306 15.49400000 1204913298 1204913298 3.00000000
1.77891207 2.73301435 -0.63386750 2 4 3306 3.32200000 1204913300 1204913300 -11.00000000
9.56821537 14.69442558 1.53411543 15 5 3307 17.60200000 1204913303 1204913303 5.00000000
2.26417661 3.47589159 -0.65702474 2 6 3308 4.20000000 1204913305 1204913305 -9.00000000
8.54012775 13.10552883 1.92066085 36 7 3309 15.76000000 1204913307 1204913307 7.00000000
3.04838467 4.67621231 -0.68539321 6 8 3310 5.62400000 1204913310 1204913310 -7.00000000
6.89078712 10.56641388 1.99798095 47 9 3311 12.77200000 1204913312 1204913312 9.00000000
4.57755423 7.01927567 -0.73315412 4 10 3311 8.41200000 1204913314 1204913314 -5.00000000
6.46952057 9.91665649 2.30153799 53 11 3312 12.06200000 1204913317 1204913317 11.00000000
8.41719627 12.89718723 -0.80712509 9 12 3313 15.42200000 1204913319 1204913319 -3.00000000
5.53129864 8.47206020 2.33589172 54 13 3314 10.38400000 1204913321 1204913321 13.00000000
8.41447544 12.88318920 -0.26859254 9 14 3315 15.39000000 1204913324 1204913324 -1.00000000
4.81741381 7.37300920 2.35991216 40 15 3316 9.11800000 1204913326 1204913326 15.00000000
1.24921548 1.90682149 -0.61081296 4 0 3323 2.36000000 1204913347 1204913347 -15.00000000
8.43360519 12.86828327 0.26855764 10 1 3324 15.38800000 1204913349 1204913349 1.00000000
1.49694192 2.28321576 -0.63031286 4 2 3325 2.80200000 1204913351 1204913351 -13.00000000
8.43000698 12.85300446 0.80555505 52 3 3326 15.39200000 1204913353 1204913353 3.00000000
1.78844130 2.72678828 -0.63386750 2 4 3326 3.32200000 1204913356 1204913356 -11.00000000
8.55815220 13.04341984 1.36485898 4 5 3327 15.66000000 1204913358 1204913358 5.00000000
2.27196026 3.46136141 -0.65577328 2 6 3328 4.19200000 1204913360 1204913360 -9.00000000
8.55531406 13.02917671 1.91383612 38 7 3329 15.70400000 1204913363 1204913363 7.00000000
3.06032968 4.65890646 -0.68441826 9 8 3330 5.61600000 1204913365 1204913365 -7.00000000
6.91819715 10.53194809 1.99579096 50 9 3330 12.75800000 1204913367 1204913367 9.00000000
4.60202789 7.00325394 -0.73315412 4 10 3331 8.41200000 1204913370 1204913370 -5.00000000
6.50193977 9.89073181 2.30077481 50 11 3332 12.05800000 1204913372 1204913372 11.00000000
8.41607380 12.79763985 -0.80272889 9 12 3333 15.33800000 1204913374 1204913374 -3.00000000
5.56405067 8.45758438 2.33724141 56 13 3334 10.39000000 1204913377 1204913377 13.00000000
8.41981792 12.79360485 -0.26733595 9 14 3335 15.31800000 1204913379 1204913379 -1.00000000
4.84077501 7.35537958 2.35939431 40 15 3335 9.11600000 1204913381 1204913381 15.00000000
1.26012111 1.90889835 -0.61288351 4 0 3343 2.36800000 1204913402 1204913402 -15.00000000
8.42778301 12.76200771 0.26695201 10 1 3344 15.29600000 1204913404 1204913404 1.00000000
1.49308693 2.26009107 -0.62536395 3 2 3345 2.78000000 1204913406 1204913406 -13.00000000
8.44178486 12.77351284 0.80241489 52 3 3346 15.33200000 1204913409 1204913409 3.00000000
1.79578376 2.71725297 -0.63310426 2 4 3346 3.31800000 1204913411 1204913411 -11.00000000
9.55958939 14.45940685 1.51650989 20 5 3347 17.40000000 1204913413 1204913413 5.00000000
2.28947735 3.46164775 -0.65733761 2 6 3348 4.20200000 1204913416 1204913416 -9.00000000
8.58759880 12.97936726 1.91091132 38 7 3349 15.68000000 1204913418 1204913418 7.00000000
3.07547784 4.64654016 -0.68417448 6 8 3350 5.61400000 1204913420 1204913420 -7.00000000
6.96329546 10.51640320 1.99766815 50 9 3351 12.77000000 1204913423 1204913423 9.00000000
4.61764622 6.97385740 -0.73175961 4 10 3351 8.39600000 1204913425 1204913425 -5.00000000
6.53208876 9.86142826 2.29924846 50 11 3352 12.05000000 1204913427 1204913427 11.00000000
8.40884209 12.68993378 -0.79780930 9 12 3353 15.24400000 1204913429 1204913429 -3.00000000
5.59784651 8.44460773 2.33904099 56 13 3354 10.39800000 1204913432 1204913432 13.00000000
8.42021847 12.69747353 -0.26593977 9 14 3355 15.23800000 1204913434 1204913434 -1.00000000
4.86236143 7.32953882 2.35680628 40 15 3356 9.10600000 1204913436 1204913436 15.00000000
1.26825047 1.90814793 -0.61391878 4 0 3361 2.37200000 1204913457 1204913457 -15.00000000
8.41690254 12.65886879 0.26534638 14 1 3362 15.20400000 1204913459 1204913459 1.00000000
1.49802125 2.25214410 -0.62446415 3 2 3363 2.77600000 1204913462 1204913462 -13.00000000
8.43761539 12.68041706 0.79822803 57 3 3364 15.25200000 1204913464 1204913464 3.00000000
1.81301212 2.72467375 -0.63615721 2 4 3364 3.33400000 1204913466 1204913466 -11.00000000
9.57295036 14.38120556 1.51145494 45 5 3365 17.34200000 1204913469 1204913469 5.00000000
2.28501272 3.43141937 -0.65295744 2 6 3366 4.17400000 1204913471 1204913471 -9.00000000
8.62392998 12.94571590 1.90993631 45 7 3367 15.67200000 1204913473 1204913473 7.00000000
3.09446359 4.64346313 -0.68514943 6 8 3368 5.62200000 1204913476 1204913476 -7.00000000
6.99775362 10.50062752 1.99860668 40 9 3368 12.77600000 1204913478 1204913478 9.00000000
4.66053057 6.99081373 -0.73507154 4 10 3369 8.43400000 1204913480 1204913480 -5.00000000
6.56085825 9.83759212 2.29848504 50 11 3370 12.04600000 1204913482 1204913482 11.00000000
8.40100384 12.59201145 -0.79330844 9 12 3371 15.15800000 1204913485 1204913485 -3.00000000
5.61785746 8.41725540 2.33634162 59 13 3372 10.38600000 1204913487 1204913487 13.00000000
8.41343117 12.60110950 -0.26447377 9 14 3373 15.15400000 1204913489 1204913489 -1.00000000
4.89052391 7.32471943 2.35991216 38 15 3373 9.11800000 1204913492 1204913492 15.00000000
1.27490342 1.90370929 -0.61391878 4 0 3381 2.37200000 1204913512 1204913512 -15.00000000
8.41874504 12.56628036 0.26402000 24 1 3382 15.12800000 1204913515 1204913515 1.00000000
1.50587356 2.24690127 -0.62446415 3 2 3383 2.77600000 1204913517 1204913517 -13.00000000
8.42732811 12.56960011 0.79309911 55 3 3384 15.15400000 1204913519 1204913519 3.00000000
1.81813872 2.71180582 -0.63463074 4 4 3384 3.32600000 1204913522 1204913522 -11.00000000
9.57093143 14.26993275 1.50326228 30 5 3385 17.24800000 1204913524 1204913524 5.00000000
2.30578160 3.43654513 -0.65546042 2 6 3386 4.19000000 1204913526 1204913526 -9.00000000
8.66906643 12.91553402 1.90993631 47 7 3387 15.67200000 1204913529 1204913529 7.00000000
3.10844040 4.62933683 -0.68466198 6 8 3388 5.61800000 1204913531 1204913531 -7.00000000
7.03729486 10.47654915 1.99891961 47 9 3389 12.77800000 1204913533 1204913533 9.00000000
4.68490505 6.97450304 -0.73507154 4 10 3389 8.43400000 1204913535 1204913535 -5.00000000
6.59844303 9.81951904 2.29962993 50 11 3390 12.05200000 1204913538 1204913538 11.00000000
8.39810848 12.49299335 -0.78891218 9 12 3391 15.07400000 1204913540 1204913540 -3.00000000
5.64067984 8.38789082 2.33364224 57 13 3392 10.37400000 1204913542 1204913542 13.00000000
8.40936947 12.50031853 -0.26297286 9 14 3393 15.06800000 1204913545 1204913545 -1.00000000
4.92165184 7.31315660 2.36198258 42 15 3394 9.12600000 1204913547 1204913547 15.00000000
1.27721870 1.89284182 -0.61184824 4 0 3401 2.36400000 1204913568 1204913568 -15.00000000
8.42675686 12.48377895 0.26290306 42 1 3402 15.06400000 1204913570 1204913570 1.00000000
1.52461326 2.25778127 -0.62896317 3 2 3403 2.79600000 1204913572 1204913572 -13.00000000
8.42866802 12.47721577 0.78912157 52 3 3404 15.07800000 1204913575 1204913575 3.00000000
1.83418751 2.71520400 -0.63692045 2 4 3404 3.33800000 1204913577 1204913577 -11.00000000
9.57383060 14.16710377 1.49594116 30 5 3405 17.16400000 1204913579 1204913579 5.00000000
2.31444430 3.42356610 -0.65452182 2 6 3406 4.18400000 1204913582 1204913582 -9.00000000
8.71187305 12.88190556 1.90944886 38 7 3407 15.66800000 1204913584 1204913584 7.00000000
3.12903023 4.62503481 -0.68563694 6 8 3408 5.62600000 1204913586 1204913586 -7.00000000
7.05760813 10.43188572 1.99485230 47 9 3408 12.75200000 1204913588 1204913588 9.00000000
4.70028782 6.94490719 -0.73367703 4 10 3409 8.41800000 1204913591 1204913591 -5.00000000
6.63488054 9.79967785 2.30039334 50 11 3410 12.05600000 1204913593 1204913593 11.00000000
8.40806484 12.41399193 -0.78577203 9 12 3411 15.01400000 1204913595 1204913595 -3.00000000
5.67648363 8.37783051 2.33634162 57 13 3412 10.38600000 1204913598 1204913598 13.00000000
8.40695190 12.40302181 -0.26154175 9 14 3413 14.98600000 1204913600 1204913600 -1.00000000
4.93937254 7.28720093 2.35887671 40 15 3413 9.11400000 1204913602 1204913602 15.00000000
1.28381813 1.88837194 -0.61184824 4 0 3421 2.36400000 1204913623 1204913623 -15.00000000
8.41180420 12.36830521 0.26108801 38 1 3422 14.96000000 1204913625 1204913625 1.00000000
1.53248513 2.25244546 -0.62896317 3 2 3423 2.79600000 1204913628 1204913628 -13.00000000
8.43508625 12.39323235 0.78566736 57 3 3424 15.01200000 1204913630 1204913630 3.00000000
1.82597983 2.68281698 -0.63081455 4 4 3424 3.30600000 1204913632 1204913632 -11.00000000
9.56715870 14.05125427 1.48722565 14 5 3425 17.06400000 1204913635 1204913635 5.00000000
2.32638073 3.41546631 -0.65452182 2 6 3426 4.18400000 1204913637 1204913637 -9.00000000
8.75007915 12.84157467 1.90798640 36 7 3427 15.65600000 1204913639 1204913639 7.00000000
3.14962769 4.62064552 -0.68661189 6 8 3428 5.63400000 1204913641 1204913641 -7.00000000
7.10358572 10.41737270 1.99704242 50 9 3429 12.76600000 1204913644 1204913644 9.00000000
4.70766449 6.90376616 -0.73106235 4 10 3429 8.38800000 1204913646 1204913646 -5.00000000
6.67457914 9.78456688 2.30230141 50 11 3430 12.06600000 1204913648 1204913648 11.00000000
8.40293694 12.31362820 -0.78127116 9 12 3431 14.92800000 1204913651 1204913651 -3.00000000
5.70789051 8.36118317 2.33724141 57 13 3432 10.39000000 1204913653 1204913653 13.00000000
8.40057468 12.30094147 -0.26000595 9 14 3433 14.89800000 1204913655 1204913655 -1.00000000
4.96168900 7.26266766 2.35680628 40 15 3434 9.10600000 1204913658 1204913658 15.00000000
1.29291475 1.88684106 -0.61288351 4 0 3442 2.36800000 1204913678 1204913678 -15.00000000
8.41072464 12.26976681 0.25965691 52 1 3443 14.87800000 1204913681 1204913681 1.00000000
1.53411782 2.23717046 -0.62626374 3 2 3444 2.78400000 1204913683 1204913683 -13.00000000
8.43412971 12.29470634 0.78137583 55 3 3445 14.93000000 1204913685 1204913685 3.00000000
1.85134876 2.69877148 -0.63615721 4 4 3445 3.33400000 1204913688 1204913688 -11.00000000
2.34335542 3.41343093 -0.65577328 2 6 3447 4.19200000 1204913692 1204913692 -9.00000000
8.77910614 12.78323555 1.90408659 36 7 3448 15.62400000 1204913694 1204913694 7.00000000
3.16654205 4.60907030 -0.68661189 6 8 3449 5.63400000 1204913697 1204913697 -7.00000000
7.15556622 10.41530704 2.00142264 54 9 3449 12.79400000 1204913699 1204913699 9.00000000
4.74647856 6.90616894 -0.73315412 4 10 3450 8.41200000 1204913701 1204913701 -5.00000000
6.70261049 9.74871349 2.29962993 50 11 3451 12.05200000 1204913704 1204913704 11.00000000
8.39708042 12.20869541 -0.77656090 9 12 3452 14.83800000 1204913706 1204913706 -3.00000000
5.74070644 8.34341812 2.33814120 56 13 3453 10.39400000 1204913708 1204913708 13.00000000
8.40818787 12.21571064 -0.25885409 9 14 3454 14.83200000 1204913711 1204913711 -1.00000000
4.98701048 7.24530363 2.35680628 38 15 3454 9.10600000 1204913713 1204913713 15.00000000
1.30278575 1.88708591 -0.61443639 4 0 3462 2.37400000 1204913734 1204913734 -15.00000000
8.41259289 12.18109798 0.25840032 63 1 3463 14.80600000 1204913736 1204913736 1.00000000
1.54634845 2.23821521 -0.62806332 3 2 3464 2.79200000 1204913738 1204913738 -13.00000000
8.42703056 12.19289780 0.77677023 55 3 3465 14.84200000 1204913741 1204913741 3.00000000
1.86522293 2.69875288 -0.63768369 4 4 3465 3.34200000 1204913743 1204913743 -11.00000000
2.36536956 3.41985202 -0.65858912 2 6 3467 4.21000000 1204913747 1204913747 -9.00000000
8.80560303 12.72639465 1.90018678 36 7 3468 15.59200000 1204913750 1204913750 7.00000000
3.17357326 4.58493137 -0.68466198 6 8 3469 5.61800000 1204913752 1204913752 -7.00000000
7.19974852 10.40163517 2.00361252 57 9 3469 12.80800000 1204913754 1204913754 9.00000000
4.78303289 6.90757704 -0.73507154 8 10 3470 8.43400000 1204913757 1204913757 -5.00000000
6.73883486 9.72848511 2.30039334 50 11 3471 12.05600000 1204913759 1204913759 11.00000000
8.40096760 12.12349415 -0.77300209 9 12 3472 14.77000000 1204913761 1204913761 -3.00000000
5.76535463 8.31692219 2.33634162 57 13 3473 10.38600000 1204913764 1204913764 13.00000000
8.40747547 12.12384319 -0.25752771 9 14 3474 14.75600000 1204913766 1204913766 -1.00000000
5.01777506 7.23578930 2.35939431 42 15 3474 9.11600000 1204913768 1204913768 15.00000000
1.31046808 1.88411272 -0.61495405 4 0 3482 2.37600000 1204913789 1204913789 -15.00000000
8.41623020 12.09584904 0.25721356 59 1 3483 14.73800000 1204913791 1204913791 1.00000000
1.55192530 2.22960472 -0.62716353 4 2 3484 2.78800000 1204913794 1204913794 -13.00000000
8.41704082 12.08801079 0.77195537 52 3 3485 14.75000000 1204913796 1204913796 3.00000000
1.86565709 2.67933631 -0.63463074 4 4 3485 3.32600000 1204913798 1204913798 -11.00000000
8.57513618 12.31047535 1.31256545 4 5 3486 15.06000000 1204913800 1204913800 5.00000000
2.36712837 3.39698815 -0.65577328 2 6 3487 4.19200000 1204913803 1204913803 -9.00000000
8.85451317 12.70209312 1.90116179 35 7 3488 15.60000000 1204913805 1204913805 7.00000000
3.18955827 4.57382536 -0.68466198 6 8 3489 5.61800000 1204913807 1204913807 -7.00000000
7.25364685 10.39785862 2.00799274 57 9 3490 12.83600000 1204913810 1204913810 9.00000000
4.81167555 6.89737511 -0.73576880 8 10 3490 8.44200000 1204913812 1204913812 -5.00000000
6.77387619 9.70651340 2.30077481 50 11 3491 12.05800000 1204913814 1204913814 11.00000000
8.39178753 12.02040100 -0.76829183 13 12 3492 14.68000000 1204913817 1204913817 -3.00000000
5.78988791 8.29035568 2.33454204 55 13 3493 10.37800000 1204913819 1204913819 13.00000000
8.39935303 12.02229500 -0.25599191 9 14 3494 14.66800000 1204913821 1204913821 -1.00000000
5.04410887 7.21981335 2.35991216 40 15 3494 9.11800000 1204913823 1204913823 15.00000000
1.31038523 1.87003434 -0.61184824 4 0 3502 2.36400000 1204913844 1204913844 -15.00000000
8.41248798 12.00089836 0.25581738 59 1 3503 14.65800000 1204913847 1204913847 1.00000000
1.55857980 2.22257853 -0.62671363 4 2 3504 2.78600000 1204913849 1204913849 -13.00000000
8.41789150 11.99969482 0.76818717 55 3 3505 14.67800000 1204913851 1204913851 3.00000000
1.87048841 2.66637897 -0.63310426 2 4 3505 3.31800000 1204913853 1204913853 -11.00000000
9.80718708 13.97494411 1.49367511 5 5 3506 17.13800000 1204913856 1204913856 5.00000000
2.38010669 3.39032125 -0.65608615 4 6 3507 4.19400000 1204913858 1204913858 -9.00000000
8.88510704 12.65161419 1.89823687 28 7 3508 15.57600000 1204913860 1204913860 7.00000000
3.20778680 4.56591272 -0.68514943 6 8 3509 5.62200000 1204913863 1204913863 -7.00000000
7.29444122 10.37894058 2.00924420 57 9 3510 12.84400000 1204913865 1204913865 9.00000000
4.82884884 6.87075710 -0.73472291 13 10 3510 8.43000000 1204913867 1204913867 -5.00000000
6.80997562 9.68602085 2.30153799 50 11 3511 12.06200000 1204913870 1204913870 11.00000000
8.39807606 11.94039154 -0.76504701 13 12 3512 14.61800000 1204913872 1204913872 -3.00000000
5.82327700 8.27647018 2.33634162 55 13 3513 10.38600000 1204913874 1204913874 13.00000000
8.38717079 11.91604519 -0.25435138 9 14 3514 14.57400000 1204913876 1204913876 -1.00000000
5.06831217 7.19811821 2.35887671 38 15 3515 9.11400000 1204913879 1204913879 15.00000000
1.31657922 1.86567867 -0.61184824 4 0 3521 2.36400000 1204913900 1204913900 -15.00000000
8.40610790 11.90759087 0.25442117 52 1 3522 14.57800000 1204913902 1204913902 1.00000000
1.56706572 2.21898961 -0.62716353 4 2 3523 2.78800000 1204913904 1204913904 -13.00000000
8.41845608 11.91625118 0.76462829 55 3 3524 14.61000000 1204913906 1204913906 3.00000000
1.88611698 2.66978216 -0.63539398 4 4 3524 3.33000000 1204913909 1204913909 -11.00000000
9.86842442 13.96349716 1.49594116 15 5 3525 17.16400000 1204913911 1204913911 5.00000000
2.40616107 3.40337873 -0.66015345 2 6 3526 4.22000000 1204913913 1204913913 -9.00000000
16.51061821 23.34469032 3.51081204 28 7 3527 28.80800000 1204913916 1204913916 7.00000000
3.23208261 4.56821442 -0.68709934 6 8 3528 5.63800000 1204913918 1204913918 -7.00000000
7.34593725 10.37887955 2.01393723 60 9 3529 12.87400000 1204913920 1204913920 9.00000000
4.85160637 6.85470629 -0.73472291 13 10 3529 8.43000000 1204913923 1204913923 -5.00000000
6.83865452 9.65857792 2.30039334 46 11 3530 12.05600000 1204913925 1204913925 11.00000000
8.38683128 11.84076405 -0.76044142 9 12 3531 14.53000000 1204913927 1204913927 -3.00000000
5.85519695 8.26347351 2.33814120 59 13 3532 10.39400000 1204913929 1204913929 13.00000000
8.39194870 11.83922482 -0.25330421 9 14 3533 14.51400000 1204913932 1204913932 -1.00000000
5.08643198 7.17585611 2.35680628 40 15 3533 9.10600000 1204913934 1204913934 15.00000000
1.32308364 1.86107159 -0.61184824 4 0 3541 2.36400000 1204913955 1204913955 -15.00000000
8.40358162 11.81624985 0.25309479 49 1 3542 14.50200000 1204913957 1204913957 1.00000000
1.57141280 2.20874238 -0.62581384 4 2 3543 2.78200000 1204913959 1204913959 -13.00000000
8.42062378 11.83146763 0.76106948 52 3 3544 14.54200000 1204913962 1204913962 3.00000000
1.89314795 2.65998316 -0.63463074 2 4 3544 3.32600000 1204913964 1204913964 -11.00000000
9.95523930 13.98252583 1.50169349 20 5 3545 17.23000000 1204913966 1204913966 5.00000000
2.40312862 3.37404203 -0.65608615 2 6 3546 4.19400000 1204913969 1204913969 -9.00000000
16.56205559 23.24488068 3.50447488 35 7 3547 28.75600000 1204913971 1204913971 7.00000000
3.24570441 4.55367136 -0.68661189 6 8 3548 5.63400000 1204913973 1204913973 -7.00000000
7.41193867 10.39499187 2.02207184 60 9 3549 12.92600000 1204913976 1204913976 9.00000000
4.87550449 6.83772898 -0.73472291 13 10 3549 8.43000000 1204913978 1204913978 -5.00000000
6.86890745 9.62985325 2.29924846 50 11 3550 12.05000000 1204913980 1204913980 11.00000000
8.38634872 11.75288773 -0.75667328 9 12 3551 14.45800000 1204913982 1204913982 -3.00000000
5.88627100 8.24615669 2.33904099 56 13 3552 10.39800000 1204913985 1204913985 13.00000000
8.40068531 11.76429272 -0.25232691 9 14 3553 14.45800000 1204913987 1204913987 -1.00000000
5.11930799 7.16906261 2.36042976 40 15 3553 9.12000000 1204913989 1204913989 15.00000000
1.33599532 1.86609852 -0.61495405 4 0 3560 2.37600000 1204914010 1204914010 -15.00000000
8.39963818 11.72816563 0.25180331 45 1 3561 14.42800000 1204914012 1204914012 1.00000000
1.57191885 2.19401455 -0.62311441 4 2 3562 2.77000000 1204914015 1204914015 -13.00000000
8.40773392 11.73514175 0.75656861 57 3 3562 14.45600000 1204914017 1204914017 3.00000000
1.89967096 2.65049934 -0.63386750 2 4 3563 3.32200000 1204914019 1204914019 -11.00000000
8.54456520 11.91733551 1.28293252 4 5 3564 14.72000000 1204914022 1204914022 5.00000000
2.42006063 3.37408042 -0.65765047 2 6 3565 4.20400000 1204914024 1204914024 -9.00000000
13.66952515 19.05121040 2.87904143 13 7 3566 23.62400000 1204914026 1204914026 7.00000000
3.25847220 4.53965759 -0.68612438 6 8 3567 5.63000000 1204914028 1204914028 -7.00000000
7.45838165 10.39091301 2.02582622 60 9 3567 12.95000000 1204914031 1204914031 9.00000000
4.90744877 6.83447075 -0.73611742 13 10 3568 8.44600000 1204914033 1204914033 -5.00000000
6.90080357 9.60702229 2.29924846 50 11 3569 12.05000000 1204914035 1204914035 11.00000000
8.36933327 11.64715958 -0.75164902 9 12 3570 14.36200000 1204914038 1204914038 -3.00000000
5.90448427 8.21393394 2.33544183 49 13 3571 10.38200000 1204914040 1204914040 13.00000000
8.39412022 11.67305279 -0.25096560 11 14 3572 14.38000000 1204914042 1204914042 -1.00000000
5.14643717 7.15675211 2.36198258 40 15 3572 9.12600000 1204914045 1204914045 15.00000000
1.34024107 1.85828996 -0.61391878 4 0 3580 2.37200000 1204914065 1204914065 -15.00000000
8.40542507 11.65012360 0.25075617 35 1 3581 14.36800000 1204914068 1204914068 1.00000000
1.58527017 2.19641495 -0.62536395 3 2 3582 2.78000000 1204914070 1204914070 -13.00000000
8.40275288 11.63785648 0.75227702 55 3 3583 14.37400000 1204914072 1204914072 3.00000000
1.90661287 2.64066863 -0.63310426 2 4 3583 3.31800000 1204914075 1204914075 -11.00000000
10.08868217 13.96773815 1.50744569 60 5 3584 17.29600000 1204914077 1204914077 5.00000000
2.43182373 3.36561227 -0.65765047 2 6 3585 4.20400000 1204914079 1204914079 -9.00000000
3.27429867 4.52825594 -0.68612438 6 8 3587 5.63000000 1204914084 1204914084 -7.00000000
7.50683594 10.37791157 2.02864218 60 9 3588 12.96800000 1204914086 1204914086 9.00000000
4.93594646 6.82375622 -0.73681468 8 10 3588 8.45400000 1204914088 1204914088 -5.00000000
6.94350338 9.59559917 2.30230141 50 11 3589 12.06600000 1204914091 1204914091 11.00000000
8.36777782 11.55963135 -0.74788082 13 12 3590 14.29000000 1204914093 1204914093 -3.00000000
5.93312025 8.19327259 2.33544183 23 13 3591 10.38200000 1204914095 1204914095 13.00000000
8.38788986 11.57890415 -0.24956942 14 14 3592 14.30000000 1204914098 1204914098 -1.00000000
5.17149973 7.13627720 2.36146498 42 15 3593 9.12400000 1204914100 1204914100 15.00000000
1.34217739 1.84734881 -0.61184824 4 0 3600 2.36400000 1204914121 1204914121 -15.00000000
8.40136528 11.55924416 0.24942979 28 1 3601 14.29200000 1204914123 1204914123 1.00000000
1.58834350 2.18456316 -0.62356430 3 2 3602 2.77200000 1204914125 1204914125 -13.00000000
8.40488911 11.55984974 0.74903220 57 3 3602 14.31200000 1204914128 1204914128 3.00000000
1.92043817 2.64034796 -0.63463074 2 4 3603 3.32600000 1204914130 1204914130 -11.00000000
10.16199398 13.96626949 1.51110625 65 5 3604 17.33800000 1204914132 1204914132 5.00000000
2.44471955 3.35870004 -0.65796334 4 6 3605 4.20600000 1204914134 1204914134 -9.00000000
8.51361179 11.69221306 1.77588010 1 7 3606 14.57200000 1204914137 1204914137 7.00000000
3.28307271 4.50717163 -0.68466198 6 8 3607 5.61800000 1204914139 1204914139 -7.00000000
7.55697584 10.37080288 2.03239655 57 9 3608 12.99200000 1204914141 1204914141 9.00000000
4.95973587 6.80648518 -0.73681468 8 10 3608 8.45400000 1204914144 1204914144 -5.00000000
6.97579956 9.56971645 2.30191970 50 11 3609 12.06400000 1204914146 1204914146 11.00000000
8.38218784 11.49484921 -0.74557805 9 12 3610 14.24600000 1204914148 1204914148 -3.00000000
4.99352741 6.84532547 1.95617437 15 13 3611 8.69600000 1204914151 1204914151 13.00000000
8.39171505 11.49947929 -0.24848737 11 14 3612 14.23800000 1204914153 1204914153 -1.00000000
5.19058084 7.11284637 2.35939431 40 15 3612 9.11600000 1204914155 1204914155 15.00000000
1.34861767 1.84265244 -0.61184824 4 0 3620 2.36400000 1204914176 1204914176 -15.00000000
8.39913559 11.47176266 0.24817322 21 1 3621 14.22000000 1204914178 1204914178 1.00000000
1.60632277 2.19315505 -0.62761343 3 2 3622 2.79000000 1204914180 1204914180 -13.00000000
8.39798355 11.46598911 0.74484533 60 3 3622 14.23200000 1204914183 1204914183 3.00000000
1.92964292 2.63362837 -0.63463074 2 4 3623 3.32600000 1204914185 1204914185 -11.00000000
10.23070621 13.95803070 1.51406956 60 5 3624 17.37200000 1204914187 1204914187 5.00000000
2.45409250 3.34696007 -0.65733761 6 6 3625 4.20200000 1204914190 1204914190 -9.00000000
13.65694046 18.61890221 2.83516836 11 7 3626 23.26400000 1204914192 1204914192 7.00000000
3.29878569 4.49568415 -0.68466198 6 8 3627 5.61800000 1204914194 1204914194 -7.00000000
7.61417055 10.37302399 2.03802824 60 9 3628 13.02800000 1204914197 1204914197 9.00000000
4.97874880 6.78270626 -0.73611742 8 10 3628 8.44600000 1204914199 1204914199 -5.00000000
7.01380968 9.55163860 2.30344629 46 11 3629 12.07200000 1204914201 1204914201 11.00000000
8.37969494 11.40757275 -0.74180984 9 12 3630 14.17400000 1204914204 1204914204 -3.00000000
5.03008509 6.84512711 1.96112335 20 13 3631 8.71800000 1204914206 1204914206 13.00000000
8.37850571 11.39761257 -0.24691665 11 14 3632 14.14800000 1204914208 1204914208 -1.00000000
5.21194506 7.09001493 2.35784149 40 15 3632 9.11000000 1204914210 1204914210 15.00000000
1.35733438 1.84104347 -0.61288351 4 0 3640 2.36800000 1204914231 1204914231 -15.00000000
8.39639854 11.38443756 0.24691665 14 1 3641 14.14800000 1204914233 1204914233 1.00000000
1.61859632 2.19380689 -0.62941307 3 2 3642 2.79800000 1204914236 1204914236 -13.00000000
8.40555668 11.38852978 0.74180984 52 3 3643 14.17400000 1204914238 1204914238 3.00000000
1.93182909 2.61739898 -0.63234103 4 4 3643 3.31400000 1204914240 1204914240 -11.00000000
10.30540180 13.95749664 1.51790440 65 5 3644 17.41600000 1204914243 1204914243 5.00000000
2.45637178 3.32566166 -0.65483469 6 6 3645 4.18600000 1204914245 1204914245 -9.00000000
13.69471741 18.53439522 2.82956243 30 7 3646 23.21800000 1204914247 1204914247 7.00000000
3.32861757 4.50329781 -0.68758684 6 8 3647 5.64200000 1204914250 1204914250 -7.00000000
7.67083597 10.37790012 2.04397273 60 9 3647 13.06600000 1204914252 1204914252 9.00000000
5.00476360 6.76848984 -0.73646605 13 10 3648 8.45000000 1204914254 1204914254 -5.00000000
7.04243803 9.52078342 2.30191970 50 11 3649 12.06400000 1204914257 1204914257 11.00000000
8.36719131 11.30760956 -0.73720425 9 12 3650 14.08600000 1204914259 1204914259 -3.00000000
5.06206465 6.83849096 1.96427262 22 13 3651 8.73200000 1204914261 1204914261 13.00000000
8.38491917 11.32329941 -0.24593931 9 14 3652 14.09200000 1204914263 1204914263 -1.00000000
5.24134588 7.07552147 2.35939431 42 15 3653 9.11600000 1204914266 1204914266 15.00000000
1.36720800 1.84094715 -0.61443639 4 0 3660 2.37400000 1204914286 1204914286 -15.00000000
8.39196205 11.29566765 0.24562517 14 1 3661 14.07400000 1204914289 1204914289 1.00000000
1.61810732 2.17719507 -0.62626374 3 2 3662 2.78400000 1204914291 1204914291 -13.00000000
8.39919472 11.30128193 0.73793697 57 3 3662 14.10000000 1204914293 1204914293 3.00000000
1.95266747 2.62639475 -0.63615721 4 4 3663 3.33400000 1204914296 1204914296 -11.00000000
10.38259697 13.95980740 1.52208793 61 5 3664 17.46400000 1204914298 1204914298 5.00000000
2.47268224 3.32340646 -0.65608615 6 6 3665 4.19400000 1204914300 1204914300 -9.00000000
13.78540611 18.52151299 2.83492470 30 7 3666 23.26200000 1204914303 1204914303 7.00000000
3.34194589 4.48846722 -0.68709934 6 8 3667 5.63800000 1204914305 1204914305 -7.00000000
7.73478127 10.38456821 2.05085588 60 9 3668 13.11000000 1204914307 1204914307 9.00000000
5.02835989 6.75097895 -0.73646605 13 10 3668 8.45000000 1204914310 1204914310 -5.00000000
7.07797527 9.49929142 2.30268288 50 11 3669 12.06800000 1204914312 1204914312 11.00000000
8.36125374 11.21748257 -0.73322678 9 12 3670 14.01000000 1204914314 1204914314 -3.00000000
5.09638834 6.83483982 1.96832168 23 13 3671 8.75000000 1204914316 1204914316 13.00000000
8.38852501 11.24587440 -0.24489217 9 14 3672 14.03200000 1204914319 1204914319 -1.00000000
5.26601219 7.05718279 2.35939431 42 15 3673 9.11600000 1204914321 1204914321 15.00000000
1.37677610 1.84104443 -0.61598933 4 0 3679 2.38000000 1204914342 1204914342 -15.00000000
8.39224052 11.21813869 0.24454312 10 1 3680 14.01200000 1204914344 1204914344 1.00000000
1.62998867 2.17805815 -0.62806332 3 2 3681 2.79200000 1204914346 1204914346 -13.00000000
8.38875771 11.20940495 0.73375010 60 3 3681 14.02000000 1204914349 1204914349 3.00000000
1.95195341 2.60733199 -0.63310426 2 4 3682 3.31800000 1204914351 1204914351 -11.00000000
10.45749569 13.96357441 1.52627134 56 5 3683 17.51200000 1204914353 1204914353 5.00000000
2.49079585 3.32467389 -0.65796334 6 6 3684 4.20600000 1204914356 1204914356 -9.00000000
13.87413120 18.51223183 2.84053063 27 7 3685 23.30800000 1204914358 1204914358 7.00000000
2.86978221 3.82775378 -0.58741021 8 8 3686 4.82000000 1204914360 1204914360 -7.00000000
7.78040123 10.37760258 2.05429745 67 9 3686 13.13200000 1204914363 1204914363 9.00000000
5.04832840 6.73107910 -0.73611742 8 10 3687 8.44600000 1204914365 1204914365 -5.00000000
7.11415005 9.48204994 2.30420947 50 11 3688 12.07600000 1204914367 1204914367 11.00000000
8.37083149 11.15295410 -0.73081928 13 12 3689 13.96400000 1204914369 1204914369 -3.00000000
5.12721586 6.82881069 1.97147107 20 13 3690 8.76400000 1204914372 1204914372 13.00000000
8.37172890 11.14604473 -0.24332145 9 14 3691 13.94200000 1204914374 1204914374 -1.00000000
5.29634857 7.04894829 2.36250019 42 15 3692 9.12800000 1204914376 1204914376 15.00000000
1.37854481 1.83005524 -0.61391878 4 0 3699 2.37200000 1204914397 1204914397 -15.00000000
8.39043045 11.13447762 0.24335636 14 1 3700 13.94400000 1204914399 1204914399 1.00000000
1.62819719 2.15990615 -0.62446415 3 2 3701 2.77600000 1204914402 1204914402 -13.00000000
8.39657593 11.13858795 0.73102862 85 3 3701 13.96800000 1204914404 1204914404 3.00000000
1.96695316 2.60834026 -0.63501233 4 4 3702 3.32800000 1204914406 1204914406 -11.00000000
8.38478184 11.11486721 1.21808863 17 5 3703 13.97600000 1204914409 1204914409 5.00000000
2.50000596 3.31280565 -0.65733761 6 6 3704 4.20200000 1204914411 1204914411 -9.00000000
8.42491531 11.15996456 1.71689534 52 7 3705 14.08800000 1204914413 1204914413 7.00000000
2.87834096 3.81137657 -0.58643526 21 8 3706 4.81200000 1204914416 1204914416 -7.00000000
7.83443546 10.37402630 2.05899048 67 9 3706 13.16200000 1204914418 1204914418 9.00000000
2.97245765 3.93457389 -0.43142092 3 10 3707 4.95000000 1204914420 1204914420 -5.00000000
7.14838886 9.45872498 2.30459094 50 11 3708 12.07800000 1204914422 1204914422 11.00000000
8.37839508 11.08224297 -0.72809780 8 12 3709 13.91200000 1204914425 1204914425 -3.00000000
5.16747856 6.83263159 1.97776961 16 13 3710 8.79200000 1204914427 1204914427 13.00000000
8.36956406 11.06253338 -0.24213469 9 14 3711 13.87400000 1204914429 1204914429 -1.00000000
5.31392670 7.02117491 2.35939431 42 15 3712 9.11600000 1204914432 1204914432 15.00000000
1.38142133 1.82061505 -0.61236584 3 0 3719 2.36600000 1204914452 1204914452 -15.00000000
8.38088512 11.04140854 0.24196017 14 1 3720 13.86400000 1204914455 1204914455 1.00000000
2.87312794 3.78383493 -1.09686136 9 2 3721 4.87600000 1204914457 1204914457 -13.00000000
8.39554787 11.05671787 0.72757447 62 3 3721 13.90200000 1204914459 1204914459 3.00000000
1.97604597 2.60145831 -0.63501233 4 4 3722 3.32800000 1204914462 1204914462 -11.00000000
8.39700890 11.05063152 1.21425378 52 5 3723 13.93200000 1204914464 1204914464 5.00000000
2.51394558 3.30720401 -0.65796334 4 6 3724 4.20600000 1204914466 1204914466 -9.00000000
8.41816044 11.07044315 1.70763326 63 7 3725 14.01200000 1204914468 1204914468 7.00000000
2.87360001 3.77760720 -0.58277923 21 8 3726 4.78200000 1204914471 1204914471 -7.00000000
2.89085746 3.79891753 -0.41765031 14 10 3727 4.79200000 1204914475 1204914475 -5.00000000
7.17779493 9.42902851 2.30344629 46 11 3728 12.07200000 1204914478 1204914478 11.00000000
2.90046239 3.80877995 -0.25089857 40 12 3729 4.79400000 1204914480 1204914480 -3.00000000
5.21373510 6.84400558 1.98631775 7 13 3730 8.83000000 1204914482 1204914482 13.00000000
8.37297821 10.98712635 -0.24112245 9 14 3731 13.81600000 1204914485 1204914485 -1.00000000
5.33600950 7.00197840 2.35887671 40 15 3731 9.11400000 1204914487 1204914487 15.00000000
1.38776803 1.81578195 -0.61236584 3 0 3739 2.36600000 1204914508 1204914508 -15.00000000
8.37322235 10.95172024 0.24063379 10 1 3740 13.78800000 1204914510 1204914510 1.00000000
8.39769077 10.97975159 0.72443432 62 3 3741 13.84200000 1204914515 1204914515 3.00000000
1.98392177 2.59298563 -0.63463074 4 4 3742 3.32600000 1204914517 1204914517 -11.00000000
8.40283585 10.97853470 1.20954740 52 5 3743 13.87800000 1204914519 1204914519 5.00000000
2.51826906 3.28899789 -0.65608615 4 6 3744 4.19400000 1204914521 1204914521 -9.00000000
8.40726185 10.97637749 1.69763994 65 7 3745 13.93000000 1204914524 1204914524 7.00000000
2.87952471 3.75809908 -0.58131677 21 8 3746 4.77000000 1204914526 1204914526 -7.00000000
7.27831602 9.49901009 1.89535999 13 9 3746 12.11600000 1204914528 1204914528 9.00000000
2.89440417 3.77615309 -0.41625583 25 10 3747 4.77600000 1204914531 1204914531 -5.00000000
7.20230246 9.39301014 2.30077481 50 11 3748 12.05800000 1204914533 1204914533 11.00000000
5.36281395 6.98390579 2.35939431 42 15 3752 9.11600000 1204914542 1204914542 15.00000000
2.89072013 3.75503206 -1.26976621 20 0 3759 4.90600000 1204914563 1204914563 -15.00000000
8.36747646 10.86538982 0.23937720 14 1 3760 13.71600000 1204914565 1204914565 1.00000000
8.38911057 10.88561916 0.72024745 55 3 3762 13.76200000 1204914570 1204914570 3.00000000
1.99775457 2.59226489 -0.63615721 2 4 3762 3.33400000 1204914572 1204914572 -11.00000000
8.39488125 10.88917637 1.20292354 52 5 3763 13.80200000 1204914574 1204914574 5.00000000
2.54662347 3.30208683 -0.66046631 6 6 3764 4.22200000 1204914577 1204914577 -9.00000000
8.40066051 10.88881016 1.68862164 61 7 3765 13.85600000 1204914579 1204914579 7.00000000
2.88170981 3.73388124 -0.57912314 23 8 3766 4.75200000 1204914581 1204914581 -7.00000000
7.33556747 9.50482178 1.90161741 13 9 3766 12.15600000 1204914584 1204914584 9.00000000
2.90391493 3.76129556 -0.41573289 25 10 3767 4.77000000 1204914586 1204914586 -5.00000000
7.23264599 9.36470509 2.30001163 50 11 3768 12.05400000 1204914588 1204914588 11.00000000
6.18734407 8.00548840 2.33589172 51 13 3770 10.38400000 1204914593 1204914593 13.00000000
5.38830709 6.96914053 2.36042976 40 15 3771 9.12000000 1204914598 1204914598 15.00000000
8.37348652 10.79503345 0.23846968 14 1 3780 13.66400000 1204914621 1204914621 1.00000000
2.89586878 3.73198628 -1.09056270 142 2 3781 4.84800000 1204914623 1204914623 -13.00000000
8.37929440 10.79473877 0.71616524 60 3 3782 13.68400000 1204914625 1204914625 3.00000000
1.99475276 2.56976700 -0.63234103 4 4 3782 3.31400000 1204914627 1204914627 -11.00000000
8.39862442 10.81574345 1.19804287 48 5 3783 13.74600000 1204914630 1204914630 5.00000000
2.55571079 3.29005718 -0.65984058 6 6 3784 4.21800000 1204914632 1204914632 -9.00000000
8.40694904 10.81866646 1.68228447 63 7 3785 13.80400000 1204914634 1204914634 7.00000000
2.89107084 3.71909761 -0.57839191 29 8 3786 4.74600000 1204914637 1204914637 -7.00000000
7.37884331 9.48878765 1.90380740 13 9 3787 12.17000000 1204914639 1204914639 9.00000000
2.90846515 3.74012637 -0.41451272 27 10 3787 4.75600000 1204914641 1204914641 -5.00000000
7.27011299 9.34559917 2.30153799 50 11 3788 12.06200000 1204914644 1204914644 11.00000000
2.91197586 3.74194503 -0.24849112 189 12 3789 4.74800000 1204914646 1204914646 -3.00000000
6.21644783 7.98537922 2.33634162 60 13 3790 10.38600000 1204914648 1204914648 13.00000000
5.42212486 6.96001244 2.36405325 45 15 3792 9.13400000 1204914653 1204914653 15.00000000
8.38097954 10.72330570 0.23756215 14 1 3801 13.61200000 1204914676 1204914676 1.00000000
2.91312861 3.72595286 -1.09191239 162 2 3802 4.85400000 1204914678 1204914678 -13.00000000
8.38558102 10.72147751 0.71333909 62 3 3803 13.63000000 1204914680 1204914680 3.00000000
2.00415802 2.56243849 -0.63234103 4 4 3803 3.31400000 1204914683 1204914683 -11.00000000
8.40015030 10.73624420 1.19263923 52 5 3804 13.68400000 1204914685 1204914685 5.00000000
2.58236265 3.29933453 -0.66359502 6 6 3805 4.24200000 1204914687 1204914687 -9.00000000
8.41839790 10.75183201 1.67667842 69 7 3806 13.75800000 1204914690 1204914690 7.00000000
2.89856243 3.70066261 -0.57717323 36 8 3807 4.73600000 1204914692 1204914692 -7.00000000
8.11352539 10.35872841 2.08401990 43 9 3807 13.32200000 1204914694 1204914694 9.00000000
2.91600966 3.72159982 -0.41364115 33 10 3808 4.74600000 1204914697 1204914697 -5.00000000
7.30916166 9.32507133 2.30306458 50 11 3809 12.07000000 1204914699 1204914699 11.00000000
2.92443895 3.72967529 -0.24838644 197 12 3810 4.74600000 1204914701 1204914701 -3.00000000
6.25289059 7.97174072 2.33904099 64 13 3811 10.39800000 1204914704 1204914704 13.00000000
2.92313743 3.72533655 -0.08265460 225 14 3812 4.73600000 1204914706 1204914706 -1.00000000
5.44042397 6.93344402 2.36146498 45 15 3812 9.12400000 1204914708 1204914708 15.00000000
2.90664005 3.69368076 -1.25941348 160 0 3820 4.86600000 1204914729 1204914729 -15.00000000
8.37630463 10.64056301 0.23637539 14 1 3821 13.54400000 1204914731 1204914731 1.00000000
2.93093944 3.72188568 -1.09371197 162 2 3822 4.86200000 1204914733 1204914733 -13.00000000
8.38216877 10.64036751 0.70988488 57 3 3823 13.56400000 1204914736 1204914736 3.00000000
2.02280951 2.56776476 -0.63539398 4 4 3823 3.33000000 1204914738 1204914738 -11.00000000
8.39441395 10.65208626 1.18653834 52 5 3824 13.61400000 1204914740 1204914740 5.00000000
2.59386373 3.29030037 -0.66359502 6 6 3825 4.24200000 1204914743 1204914743 -9.00000000
8.40916729 10.66314888 1.66741633 65 7 3826 13.68200000 1204914745 1204914745 7.00000000
2.91515088 3.69519758 -0.57790440 44 8 3827 4.74200000 1204914747 1204914747 -7.00000000
8.17346573 10.35683250 2.08965158 56 9 3828 13.35800000 1204914750 1204914750 9.00000000
2.92157698 3.70201421 -0.41259527 52 10 3828 4.73400000 1204914752 1204914752 -5.00000000
7.33801842 9.29487801 2.30191970 50 11 3829 12.06400000 1204914754 1204914754 11.00000000
2.93496442 3.71630955 -0.24817711 221 12 3830 4.74200000 1204914756 1204914756 -3.00000000
6.28551102 7.95598221 2.34084058 68 13 3831 10.40600000 1204914759 1204914759 13.00000000
2.93984318 3.71981668 -0.08275931 213 14 3832 4.74200000 1204914761 1204914761 -1.00000000
5.45861101 6.90436459 2.35835910 42 15 3833 9.11200000 1204914763 1204914763 15.00000000
2.92182803 3.68907428 -1.26096642 148 0 3838 4.87200000 1204914784 1204914784 -15.00000000
8.35753441 10.54836655 0.23490939 14 1 3839 13.46000000 1204914786 1204914786 1.00000000
2.93777585 3.70655060 -1.09191239 162 2 3840 4.85400000 1204914789 1204914789 -13.00000000
8.38329220 10.57329082 0.70716345 57 3 3841 13.51200000 1204914791 1204914791 3.00000000
2.04550338 2.57985783 -0.63997334 5 4 3841 3.35400000 1204914793 1204914793 -11.00000000
8.38821697 10.57571030 1.18096030 52 5 3842 13.55000000 1204914796 1204914796 5.00000000
2.60418773 3.28213525 -0.66359502 6 6 3843 4.24200000 1204914798 1204914798 -9.00000000
8.40189934 10.58536911 1.65937293 58 7 3844 13.61600000 1204914800 1204914800 7.00000000
2.93291736 3.69379425 -0.57912314 36 8 3845 4.75200000 1204914803 1204914803 -7.00000000
8.23241043 10.36811733 2.09684753 59 9 3845 13.40400000 1204914805 1204914805 9.00000000
2.94062805 3.70217824 -0.41364115 44 10 3846 4.74600000 1204914807 1204914807 -5.00000000
7.35863352 9.26101875 2.29924846 53 11 3847 12.05000000 1204914809 1204914809 11.00000000
2.94413948 3.70394373 -0.24796776 235 12 3848 4.73800000 1204914812 1204914812 -3.00000000
6.31775141 7.94534826 2.34354019 66 13 3849 10.41800000 1204914814 1204914814 13.00000000
2.95773911 3.71838760 -0.08293384 203 14 3850 4.75200000 1204914816 1204914816 -1.00000000
5.48869324 6.90023327 2.36250019 42 15 3850 9.12800000 1204914819 1204914819 15.00000000
8.36436939 10.48161602 0.23407167 14 1 3859 13.41200000 1204914842 1204914842 1.00000000
2.94948030 3.69475031 -1.09146249 165 2 3860 4.85200000 1204914844 1204914844 -13.00000000
8.37777328 10.49090004 0.70360458 77 3 3861 13.44400000 1204914846 1204914846 3.00000000
2.05204606 2.56963372 -0.63921010 2 4 3861 3.35000000 1204914849 1204914849 -11.00000000
8.39648056 10.51056194 1.17695117 48 5 3862 13.50400000 1204914851 1204914851 5.00000000
2.64769197 3.31314707 -0.67172956 6 6 3863 4.29400000 1204914853 1204914853 -9.00000000
8.40409088 10.51256180 1.65254831 39 7 3864 13.56000000 1204914856 1204914856 7.00000000
2.95199227 3.69128561 -0.58034182 25 8 3865 4.76200000 1204914858 1204914858 -7.00000000
8.29503632 10.36872482 2.10310483 66 9 3866 13.44400000 1204914860 1204914860 9.00000000
2.96722412 3.70900464 -0.41555858 30 10 3866 4.76800000 1204914862 1204914862 -5.00000000
7.39827585 9.24447346 2.30153799 50 11 3867 12.06200000 1204914865 1204914865 11.00000000
2.95954704 3.69676256 -0.24817711 221 12 3868 4.74200000 1204914867 1204914867 -3.00000000
6.34544754 7.92324686 2.34354019 62 13 3869 10.41800000 1204914869 1204914869 13.00000000
2.99820709 3.74237418 -0.08370174 141 14 3870 4.79600000 1204914872 1204914872 -1.00000000
