# .PCD v0.7 - Point Cloud Data file format
VERSION 0.7
FIELDS x y z intensity laser_id azimuth distance_m adjustedtime timestamp vertical_angle
SIZE 4 4 4 1 1 2 8 8 4 8
TYPE F F F U U U F U U F
COUNT 1 1 1 1 1 1 1 1 1 1
WIDTH 543
HEIGHT 1
VIEWPOINT 0 0 0 1 0 0 0
POINTS 543
DATA ascii
2.97233963 2.50116968 -0.20358688 5 12 4992 3.89000000 1204618037 1204618037 -3.00000000
2.96612573 2.49417281 -0.06764553 4 14 4994 3.87600000 1204618042 1204618042 -1.00000000
3.02222371 2.54134488 1.05805230 14 15 4994 4.08800000 1204618044 1204618044 15.00000000
1.75243950 1.46995020 -0.61288351 3 0 5001 2.36800000 1204618065 1204618065 -15.00000000
2.97879934 2.49773788 0.06785496 8 1 5002 3.88800000 1204618067 1204618067 1.00000000
2.07892036 1.74256718 -0.62626374 3 2 5003 2.78400000 1204618070 1204618070 -13.00000000
2.99244261 2.50828862 0.20463359 6 3 5003 3.91000000 1204618072 1204618072 3.00000000
2.49649763 2.09184194 -0.63310426 5 4 5004 3.31800000 1204618074 1204618074 -11.00000000
2.99060202 2.50496888 0.34130189 6 5 5005 3.91600000 1204618077 1204618077 5.00000000
2.98821735 2.50208426 -0.61729038 10 6 5006 3.94600000 1204618079 1204618079 -9.00000000
3.00335336 2.51386619 0.48089644 4 7 5007 3.94600000 1204618081 1204618081 7.00000000
2.98095536 2.49423409 -0.47724035 3 8 5008 3.91600000 1204618083 1204618083 -7.00000000
3.02848053 2.53399944 0.62542498 13 9 5008 3.99800000 1204618086 1204618086 9.00000000
2.97706723 2.49009752 -0.33955878 6 10 5009 3.89600000 1204618088 1204618088 -5.00000000
3.02884817 2.53251028 0.76743376 14 11 5010 4.02200000 1204618090 1204618090 11.00000000
2.99134469 2.50026536 -0.20431957 7 12 5011 3.90400000 1204618093 1204618093 -3.00000000
3.02826953 2.53023076 0.91105175 11 13 5012 4.05000000 1204618095 1204618095 13.00000000
2.98358893 2.49201441 -0.06785496 4 14 5013 3.88800000 1204618097 1204618097 -1.00000000
3.02766919 2.52883196 1.05701697 14 15 5013 4.08400000 1204618100 1204618100 15.00000000
1.75904429 1.46506047 -0.61340111 4 0 5021 2.37000000 1204618120 1204618120 -15.00000000
2.99211025 2.49116325 0.06795967 1 1 5022 3.89400000 1204618123 1204618123 1.00000000
2.07899904 1.73031318 -0.62446415 3 2 5023 2.77600000 1204618125 1204618125 -13.00000000
3.01082802 2.50496840 0.20526162 1 3 5024 3.92200000 1204618127 1204618127 3.00000000
2.51133037 2.08939290 -0.63501233 5 4 5024 3.32800000 1204618130 1204618130 -11.00000000
2.99626398 2.49196649 0.34095326 1 5 5025 3.91200000 1204618132 1204618132 5.00000000
2.99693298 2.49163818 -0.61729038 8 6 5026 3.94600000 1204618134 1204618134 -9.00000000
3.02737665 2.51605535 0.48333383 4 7 5027 3.96600000 1204618136 1204618136 7.00000000
3.02934265 2.51679564 -0.48357755 3 8 5028 3.96800000 1204618139 1204618139 -7.00000000
3.03622818 2.52162051 0.62511212 11 9 5029 3.99600000 1204618141 1204618141 9.00000000
3.01792836 2.50642228 -0.34321931 2 10 5029 3.93800000 1204618143 1204618143 -5.00000000
3.03011727 2.51565170 0.76552570 10 11 5030 4.01200000 1204618146 1204618146 11.00000000
3.03386593 2.51786971 -0.20662236 1 12 5031 3.94800000 1204618148 1204618148 -3.00000000
3.05208111 2.53208756 0.91555077 8 13 5032 4.07000000 1204618150 1204618150 13.00000000
3.02921128 2.51222157 -0.06869267 1 14 5033 3.93600000 1204618153 1204618153 -1.00000000
3.04584074 2.52511573 1.06012285 8 15 5034 4.09600000 1204618155 1204618155 15.00000000
1.76984704 1.46414483 -0.61547166 4 0 5040 2.37800000 1204618176 1204618176 -15.00000000
3.01422381 2.49269676 0.06827381 1 1 5041 3.91200000 1204618178 1204618178 1.00000000
2.08472538 1.72340953 -0.62446415 3 2 5042 2.77600000 1204618180 1204618180 -13.00000000
3.03099751 2.50567770 0.20609899 1 3 5042 3.93800000 1204618183 1204618183 3.00000000
2.52278543 2.08480549 -0.63615721 5 4 5043 3.33400000 1204618185 1204618185 -11.00000000
3.03216004 2.50485754 0.34409088 1 5 5044 3.94800000 1204618187 1204618187 5.00000000
3.02193379 2.49552226 -0.62073195 10 6 5045 3.96800000 1204618189 1204618189 -9.00000000
3.04335785 2.51232123 0.48455250 4 7 5046 3.97600000 1204618192 1204618192 7.00000000
3.01623678 2.48904729 -0.48016521 24 8 5047 3.94000000 1204618194 1204618194 -7.00000000
3.06590676 2.52913642 0.62949228 8 9 5048 4.02400000 1204618196 1204618196 9.00000000
3.02314949 2.49386501 -0.34287068 19 10 5048 3.93400000 1204618199 1204618199 -5.00000000
3.05207491 2.51683116 0.76896024 8 11 5049 4.03000000 1204618201 1204618201 11.00000000
3.02062297 2.49000955 -0.20515695 15 12 5050 3.92000000 1204618203 1204618203 -3.00000000
3.06346893 2.52443099 0.91645062 8 13 5051 4.07400000 1204618206 1204618206 13.00000000
3.03906894 2.50343394 -0.06872758 17 14 5052 3.93800000 1204618208 1204618208 -1.00000000
3.07016063 2.52904582 1.06581688 8 15 5052 4.11800000 1204618210 1204618210 15.00000000
1.78390396 1.46531522 -0.61857754 4 0 5060 2.39000000 1204618231 1204618231 -15.00000000
3.03990650 2.49611902 0.06865776 21 1 5061 3.93400000 1204618233 1204618233 1.00000000
2.09072852 1.71612191 -0.62446415 3 2 5062 2.77600000 1204618235 1204618235 -13.00000000
3.04281306 2.49761653 0.20630834 21 3 5062 3.94200000 1204618238 1204618238 3.00000000
2.53308272 2.07847738 -0.63692045 5 4 5063 3.33800000 1204618240 1204618240 -11.00000000
3.05474949 2.50563002 0.34565967 19 5 5064 3.96600000 1204618242 1204618242 5.00000000
3.04742932 2.49873614 -0.62417352 10 6 5065 3.99000000 1204618245 1204618245 -9.00000000
3.05671477 2.50545764 0.48528373 9 7 5066 3.98200000 1204618247 1204618247 7.00000000
3.05408096 2.50240803 -0.48479626 5 8 5067 3.97800000 1204618249 1204618249 -7.00000000
3.08082914 2.52342582 0.63074374 8 9 5068 4.03200000 1204618252 1204618252 9.00000000
3.04416704 2.49339700 -0.34426519 14 10 5068 3.95000000 1204618254 1204618254 -5.00000000
3.08058906 2.52233100 0.77392131 8 11 5069 4.05600000 1204618256 1204618256 11.00000000
3.03856969 2.48704052 -0.20578498 17 12 5070 3.93200000 1204618259 1204618259 -3.00000000
3.07829523 2.51865840 0.91825020 8 13 5071 4.08200000 1204618261 1204618261 13.00000000
3.03231001 2.48014998 -0.06837853 8 14 5072 3.91800000 1204618263 1204618263 -1.00000000
3.09392357 2.53054428 1.07099319 8 15 5072 4.13800000 1204618265 1204618265 15.00000000
1.78053212 1.45113194 -0.61547166 4 0 5082 2.37800000 1204618286 1204618286 -15.00000000
3.07427359 2.50463700 0.06921624 4 1 5083 3.96600000 1204618288 1204618288 1.00000000
2.10636878 1.71546519 -0.62716353 3 2 5084 2.78800000 1204618291 1204618291 -13.00000000
3.07759666 2.50555754 0.20798309 4 3 5085 3.97400000 1204618293 1204618293 3.00000000
2.52886486 2.05881977 -0.63386750 5 4 5085 3.32200000 1204618295 1204618295 -11.00000000
3.07207441 2.50017023 0.34653124 4 5 5086 3.97600000 1204618298 1204618298 5.00000000
3.07692146 2.50322247 -0.62824082 9 6 5087 4.01600000 1204618300 1204618300 -9.00000000
3.10789490 2.52751946 0.49186468 7 7 5088 4.03600000 1204618302 1204618302 7.00000000
3.07598948 2.50068045 -0.48674616 7 8 5089 3.99400000 1204618305 1204618305 -7.00000000
3.09465551 2.51585531 0.63168240 8 9 5089 4.03800000 1204618307 1204618307 9.00000000
3.08000374 2.50305128 -0.34722847 8 10 5090 3.98400000 1204618309 1204618309 -5.00000000
3.11006069 2.52657652 0.77888232 8 11 5091 4.08200000 1204618312 1204618312 11.00000000
3.08065534 2.50179577 -0.20798309 7 12 5092 3.97400000 1204618314 1204618314 -3.00000000
3.10609889 2.52155876 0.92364901 8 13 5093 4.10600000 1204618316 1204618316 13.00000000
3.07907653 2.49873042 -0.06921624 8 14 5094 3.96600000 1204618318 1204618318 -1.00000000
3.10405707 2.51810408 1.07099319 8 15 5095 4.13800000 1204618321 1204618321 15.00000000
1.77657616 1.43761647 -0.61236584 4 0 5102 2.36600000 1204618341 1204618341 -15.00000000
3.09232593 2.50143647 0.06942567 8 1 5103 3.97800000 1204618344 1204618344 1.00000000
2.11537457 1.71055269 -0.62806332 3 2 5104 2.79200000 1204618346 1204618346 -13.00000000
3.11384296 2.51794314 0.20986718 7 3 5104 4.01000000 1204618348 1204618348 3.00000000
2.54061651 2.05368233 -0.63501233 5 4 5105 3.32800000 1204618351 1204618351 -11.00000000
3.09627962 2.50195384 0.34827435 6 5 5106 3.99600000 1204618353 1204618353 5.00000000
3.09178734 2.49743199 -0.62949228 9 6 5107 4.02400000 1204618355 1204618355 -9.00000000
3.12596536 2.52413821 0.49332711 7 7 5108 4.04800000 1204618358 1204618358 7.00000000
3.10014653 2.50239635 -0.48918355 8 8 5109 4.01400000 1204618360 1204618360 -7.00000000
3.12076640 2.51814103 0.63512391 8 9 5110 4.06000000 1204618362 1204618362 9.00000000
3.09647512 2.49854040 -0.34810004 8 10 5110 3.99400000 1204618365 1204618365 -5.00000000
3.12650156 2.52186799 0.78079039 8 11 5111 4.09200000 1204618367 1204618367 11.00000000
3.11269140 2.50983191 -0.20955317 7 12 5112 4.00400000 1204618369 1204618369 -3.00000000
3.12701964 2.52048469 0.92724824 7 13 5113 4.12200000 1204618371 1204618371 13.00000000
3.10490823 2.50176811 -0.06960019 8 14 5114 3.98800000 1204618374 1204618374 -1.00000000
3.12486386 2.51694798 1.07513428 8 15 5115 4.15400000 1204618376 1204618376 15.00000000
1.78760755 1.43624628 -0.61443639 4 0 5122 2.37400000 1204618397 1204618397 -15.00000000
3.10727525 2.49563575 0.06956529 6 1 5123 3.98600000 1204618399 1204618399 1.00000000
2.12437177 1.70559835 -0.62896317 3 2 5124 2.79600000 1204618401 1204618401 -13.00000000
3.13351536 2.51581120 0.21059988 7 3 5124 4.02400000 1204618404 1204618404 3.00000000
2.54470754 2.04234362 -0.63424909 5 4 5125 3.32400000 1204618406 1204618406 -11.00000000
3.12208891 2.50484538 0.35019177 6 5 5126 4.01800000 1204618408 1204618408 5.00000000
3.10973215 2.49403977 -0.63136947 9 6 5127 4.03600000 1204618411 1204618411 -9.00000000
3.13940358 2.51693630 0.49405831 7 7 5128 4.05400000 1204618413 1204618413 7.00000000
3.12745070 2.50645685 -0.49210840 10 8 5129 4.03800000 1204618415 1204618415 -7.00000000
3.14297271 2.51889658 0.63793975 8 9 5129 4.07800000 1204618418 1204618418 9.00000000
3.11761713 2.49768233 -0.34949452 9 10 5130 4.01000000 1204618420 1204618420 -5.00000000
3.13375306 2.50971174 0.78040880 8 11 5131 4.09000000 1204618422 1204618422 11.00000000
3.12455177 2.50144768 -0.20976251 7 12 5132 4.00800000 1204618424 1204618424 -3.00000000
3.14949226 2.52051258 0.93129736 8 13 5133 4.14000000 1204618427 1204618427 13.00000000
3.13860607 2.51090217 -0.07015868 7 14 5134 4.02000000 1204618429 1204618429 -1.00000000
3.14871788 2.51809049 1.08031070 8 15 5135 4.17400000 1204618431 1204618431 15.00000000
1.79261005 1.42999756 -0.61443639 4 0 5142 2.37400000 1204618452 1204618452 -15.00000000
3.13003874 2.49599481 0.06987944 8 1 5143 4.00400000 1204618454 1204618454 1.00000000
2.11202669 1.68359590 -0.62356430 3 2 5144 2.77200000 1204618457 1204618457 -13.00000000
3.15008688 2.51108265 0.21112324 7 3 5144 4.03400000 1204618459 1204618459 3.00000000
2.55949807 2.03956604 -0.63615721 5 4 5145 3.33400000 1204618461 1204618461 -11.00000000
3.15574765 2.51379418 0.35298076 6 5 5146 4.05000000 1204618464 1204618464 5.00000000
3.12614560 2.48932219 -0.63293386 9 6 5147 4.04600000 1204618466 1204618466 -9.00000000
3.16214824 2.51708889 0.49625197 7 7 5148 4.07200000 1204618468 1204618468 7.00000000
3.13928747 2.49799681 -0.49259588 10 8 5149 4.04200000 1204618471 1204618471 -7.00000000
3.16720343 2.52021003 0.64106846 8 9 5149 4.09800000 1204618473 1204618473 9.00000000
3.14814639 2.50414872 -0.35193488 9 10 5150 4.03800000 1204618475 1204618475 -5.00000000
3.16093469 2.51342034 0.78498822 8 11 5151 4.11400000 1204618477 1204618477 11.00000000
3.14733577 2.50171065 -0.21070457 7 12 5152 4.02600000 1204618480 1204618480 -3.00000000
3.17352867 2.52162671 0.93579638 8 13 5153 4.16000000 1204618482 1204618482 13.00000000
3.16301012 2.51236844 -0.07050772 7 14 5154 4.04000000 1204618484 1204618484 -1.00000000
3.16959214 2.51669431 1.08445179 8 15 5155 4.19000000 1204618487 1204618487 15.00000000
1.80037057 1.42644465 -0.61547166 4 0 5161 2.37800000 1204618507 1204618507 -15.00000000
3.15554190 2.49925876 0.07026339 7 1 5162 4.02600000 1204618510 1204618510 1.00000000
2.12065363 1.67900229 -0.62446415 3 2 5163 2.77600000 1204618512 1204618512 -13.00000000
3.16466022 2.50558186 0.21154194 7 3 5163 4.04200000 1204618514 1204618514 3.00000000
2.55855036 2.02497530 -0.63424909 5 4 5164 3.32400000 1204618517 1204618517 -11.00000000
3.18437886 2.51938605 0.35524681 6 5 5165 4.07600000 1204618519 1204618519 5.00000000
3.14987707 2.49119544 -0.63606256 11 6 5166 4.06600000 1204618521 1204618521 -9.00000000
3.18293548 2.51643801 0.49820188 7 7 5167 4.08800000 1204618523 1204618523 7.00000000
3.15689850 2.49495792 -0.49405831 10 8 5168 4.05400000 1204618526 1204618526 -7.00000000
3.18174243 2.51459265 0.64231992 8 9 5168 4.10600000 1204618528 1204618528 9.00000000
3.17050338 2.50481129 -0.35350370 9 10 5169 4.05600000 1204618530 1204618530 -5.00000000
3.18619990 2.51630902 0.78918600 8 11 5170 4.13600000 1204618533 1204618533 11.00000000
3.17285824 2.50487351 -0.21185595 7 12 5171 4.04800000 1204618535 1204618535 -3.00000000
3.18340302 2.51229644 0.93624628 8 13 5172 4.16200000 1204618537 1204618537 13.00000000
3.17760396 2.50681996 -0.07064734 7 14 5173 4.04800000 1204618540 1204618540 -1.00000000
3.19568324 2.52108264 1.09066343 8 15 5173 4.21400000 1204618542 1204618542 15.00000000
1.79926538 1.41537380 -0.61340111 3 0 5181 2.37000000 1204618563 1204618563 -15.00000000
3.18310952 2.50306153 0.07068224 7 1 5182 4.05000000 1204618565 1204618565 1.00000000
2.13569403 1.67881548 -0.62716353 3 2 5183 2.78800000 1204618567 1204618567 -13.00000000
3.19379950 2.51056576 0.21290267 8 3 5183 4.06800000 1204618570 1204618570 3.00000000
2.56251574 2.01360583 -0.63348585 5 4 5184 3.32000000 1204618572 1204618572 -11.00000000
3.20412135 2.51687050 0.35646698 6 5 5185 4.09000000 1204618574 1204618574 5.00000000
3.17564368 2.49360490 -0.63950408 9 6 5186 4.08800000 1204618576 1204618576 -9.00000000
3.20731497 2.51756907 0.50063926 7 7 5187 4.10800000 1204618579 1204618579 7.00000000
3.19057560 2.50352979 -0.49795812 10 8 5188 4.08600000 1204618581 1204618581 -7.00000000
3.19516277 2.50712919 0.64325851 8 9 5188 4.11200000 1204618583 1204618583 9.00000000
3.18706584 2.49987721 -0.35437524 9 10 5189 4.06600000 1204618586 1204618586 -5.00000000
3.21041369 2.51728582 0.79300219 8 11 5190 4.15600000 1204618588 1204618588 11.00000000
3.19415808 2.50363970 -0.21269332 7 12 5191 4.06400000 1204618590 1204618590 -3.00000000
3.20749259 2.51318789 0.94074529 9 13 5192 4.18200000 1204618593 1204618593 13.00000000
3.19420648 2.50187802 -0.07082187 7 14 5193 4.05800000 1204618595 1204618595 -1.00000000
3.22771811 2.52721739 1.09842801 8 15 5194 4.24400000 1204618597 1204618597 15.00000000
1.79329276 1.40107393 -0.60977769 4 0 5200 2.35600000 1204618618 1204618618 -15.00000000
3.20242453 2.50110817 0.07092658 7 1 5201 4.06400000 1204618620 1204618620 1.00000000
2.15046573 1.67891932 -0.62986296 3 2 5202 2.80000000 1204618623 1204618623 -13.00000000
3.22458673 2.51660538 0.21436808 7 3 5203 4.09600000 1204618625 1204618625 3.00000000
2.57072663 2.00630498 -0.63386750 5 4 5203 3.32200000 1204618627 1204618627 -11.00000000
3.21559191 2.50868249 0.35681561 6 5 5204 4.09400000 1204618629 1204618629 5.00000000
3.18545318 2.48427510 -0.63981694 9 6 5205 4.09000000 1204618632 1204618632 -9.00000000
3.23599815 2.52278614 0.50380784 7 7 5206 4.13400000 1204618634 1204618634 7.00000000
3.21295190 2.50391769 -0.50015181 10 8 5207 4.10400000 1204618636 1204618636 -7.00000000
3.22215652 2.51109099 0.64701295 8 9 5207 4.13600000 1204618639 1204618639 9.00000000
3.19690990 2.49051905 -0.35454956 9 10 5208 4.06800000 1204618641 1204618641 -5.00000000
3.23113537 2.51627612 0.79605514 8 11 5209 4.17200000 1204618643 1204618643 11.00000000
3.21189880 2.50039506 -0.21332136 7 12 5210 4.07600000 1204618646 1204618646 -3.00000000
3.24349165 2.52408028 0.94884354 9 13 5211 4.21800000 1204618648 1204618648 13.00000000
3.21195555 2.49863887 -0.07103129 7 14 5212 4.07000000 1204618650 1204618650 -1.00000000
3.23716640 2.51825094 1.09894562 8 15 5212 4.24600000 1204618653 1204618653 15.00000000
1.80733132 1.40190983 -0.61288351 4 0 5220 2.36800000 1204618673 1204618673 -15.00000000
3.21429610 2.49236512 0.07099639 7 1 5221 4.06800000 1204618676 1204618676 1.00000000
2.15015221 1.66662717 -0.62806332 3 2 5222 2.79200000 1204618678 1204618678 -13.00000000
3.24282432 2.51267409 0.21499611 7 3 5223 4.10800000 1204618680 1204618680 3.00000000
2.58237004 2.00092673 -0.63501233 5 4 5223 3.32800000 1204618682 1204618682 -11.00000000
3.24953151 2.51696348 0.35960460 6 5 5224 4.12600000 1204618685 1204618685 5.00000000
3.19566727 2.47434998 -0.64012980 9 6 5225 4.09200000 1204618687 1204618687 -9.00000000
3.26048255 2.52362537 0.50624526 7 7 5226 4.15400000 1204618689 1204618689 7.00000000
3.23266268 2.50119042 -0.50185794 10 8 5227 4.11800000 1204618692 1204618692 -7.00000000
3.24696374 2.51134968 0.65014166 8 9 5228 4.15600000 1204618694 1204618694 9.00000000
3.22607207 2.49519110 -0.35681561 9 10 5228 4.09400000 1204618696 1204618696 -5.00000000
3.25232434 2.51458883 0.79910809 8 11 5229 4.18800000 1204618699 1204618699 11.00000000
3.23166919 2.49771786 -0.21405406 7 12 5230 4.09000000 1204618701 1204618701 -3.00000000
3.25999308 2.51870036 0.95109308 8 13 5231 4.22800000 1204618703 1204618703 13.00000000
3.23331881 2.49719048 -0.07131054 7 14 5232 4.08600000 1204618706 1204618706 -1.00000000
3.26166606 2.51817513 1.10412204 8 15 5233 4.26600000 1204618708 1204618708 15.00000000
1.81551898 1.39763319 -0.61391878 4 0 5241 2.37200000 1204618729 1204618729 -15.00000000
3.24401140 2.49642158 0.07145015 7 1 5242 4.09400000 1204618731 1204618731 1.00000000
2.14388943 1.64922965 -0.62446415 3 2 5243 2.77600000 1204618733 1204618733 -13.00000000
3.25834513 2.50564170 0.21541479 7 3 5244 4.11600000 1204618735 1204618735 3.00000000
2.59902430 1.99862921 -0.63730204 5 4 5244 3.34000000 1204618738 1204618738 -11.00000000
3.27453089 2.51717901 0.36134771 6 5 5245 4.14600000 1204618740 1204618740 5.00000000
3.22507715 2.47826791 -0.64419711 9 6 5246 4.11800000 1204618742 1204618742 -9.00000000
3.27285886 2.51407671 0.50673270 7 7 5247 4.15800000 1204618745 1204618745 7.00000000
3.25597858 2.50020647 -0.50405163 8 8 5248 4.13600000 1204618747 1204618747 -7.00000000
3.27137780 2.51203132 0.65327030 8 9 5248 4.17600000 1204618749 1204618749 9.00000000
3.25416112 2.49790812 -0.35890734 9 10 5249 4.11800000 1204618752 1204618752 -5.00000000
3.27242184 2.51101756 0.80177939 8 11 5250 4.20200000 1204618754 1204618754 11.00000000
3.25031066 2.49315000 -0.21468209 7 12 5251 4.10200000 1204618756 1204618756 -3.00000000
3.28621364 2.51977849 0.95604199 8 13 5252 4.25000000 1204618759 1204618759 13.00000000
3.25990796 2.49870443 -0.07169449 7 14 5253 4.10800000 1204618761 1204618761 -1.00000000
3.29803467 2.52792859 1.11343956 8 15 5253 4.30200000 1204618763 1204618763 15.00000000
1.82652617 1.39597964 -0.61598933 4 0 5261 2.38000000 1204618784 1204618784 -15.00000000
3.27018499 2.49843693 0.07183410 7 1 5262 4.11600000 1204618786 1204618786 1.00000000
2.15273070 1.64410162 -0.62536395 3 2 5263 2.78000000 1204618788 1204618788 -13.00000000
3.27977157 2.50394845 0.21625218 7 3 5264 4.13200000 1204618791 1204618791 3.00000000
2.59662223 1.98239660 -0.63501233 6 4 5264 3.32800000 1204618793 1204618793 -11.00000000
3.30071974 2.51902986 0.36326513 7 5 5265 4.16800000 1204618795 1204618795 5.00000000
3.23999023 2.47178769 -0.64544863 9 6 5266 4.12600000 1204618798 1204618798 -9.00000000
3.29582071 2.51347089 0.50892639 7 7 5267 4.17600000 1204618800 1204618800 7.00000000
3.26942205 2.49243617 -0.50478280 8 8 5268 4.14200000 1204618802 1204618802 -7.00000000
3.30098796 2.51558948 0.65733761 8 9 5269 4.20200000 1204618805 1204618805 9.00000000
3.27870750 2.49861026 -0.36065045 9 10 5269 4.13800000 1204618807 1204618807 -5.00000000
3.30615449 2.51861477 0.80788529 8 11 5270 4.23400000 1204618809 1204618809 11.00000000
3.27329445 2.49267936 -0.21562414 7 12 5271 4.12000000 1204618811 1204618811 -3.00000000
3.30119157 2.51301360 0.95784158 8 13 5272 4.25800000 1204618814 1204618814 13.00000000
3.27974963 2.49578691 -0.07193882 7 14 5273 4.12200000 1204618816 1204618816 -1.00000000
3.31957841 2.52518058 1.11758065 8 15 5274 4.31800000 1204618818 1204618818 15.00000000
1.82652903 1.38641107 -0.61443639 3 0 5280 2.37400000 1204618839 1204618839 -15.00000000
3.29916143 2.50329232 0.07228786 7 1 5281 4.14200000 1204618841 1204618841 1.00000000
2.16127634 1.63930917 -0.62626374 3 2 5282 2.78400000 1204618844 1204618844 -13.00000000
3.31033802 2.50995255 0.21771757 7 3 5283 4.16000000 1204618846 1204618846 3.00000000
2.59692407 1.96903038 -0.63348585 5 4 5283 3.32000000 1204618848 1204618848 -11.00000000
3.31540656 2.51288438 0.36396238 7 5 5284 4.17600000 1204618851 1204618851 5.00000000
3.26233959 2.47176647 -0.64826441 11 6 5285 4.14400000 1204618853 1204618853 -9.00000000
3.33103919 2.52290273 0.51306993 7 7 5286 4.21000000 1204618855 1204618855 7.00000000
3.29349566 2.49356318 -0.50722021 8 8 5287 4.16200000 1204618858 1204618858 -7.00000000
3.31989884 2.51355338 0.65952772 8 9 5287 4.21600000 1204618860 1204618860 9.00000000
3.29968452 2.49734282 -0.36204496 9 10 5288 4.15400000 1204618862 1204618862 -5.00000000
3.32857919 2.51829791 0.81131983 8 11 5289 4.25200000 1204618864 1204618864 11.00000000
3.30862308 2.50229192 -0.21740356 7 12 5290 4.15400000 1204618867 1204618867 -3.00000000
3.32971525 2.51733041 0.96369034 8 13 5291 4.28400000 1204618869 1204618869 13.00000000
3.30077052 2.49454236 -0.07221806 7 14 5292 4.13800000 1204618871 1204618871 -1.00000000
3.33982491 2.52405763 1.12172174 8 15 5292 4.33400000 1204618874 1204618874 15.00000000
1.82981455 1.37886417 -0.61391878 4 0 5300 2.37200000 1204618894 1204618894 -15.00000000
3.31426835 2.49657345 0.07242749 7 1 5301 4.15000000 1204618897 1204618897 1.00000000
2.17632580 1.63878834 -0.62896317 3 2 5302 2.79600000 1204618899 1204618899 -13.00000000
3.33503628 2.51039338 0.21876429 7 3 5303 4.18000000 1204618901 1204618901 3.00000000
2.61162424 1.96585691 -0.63539398 6 4 5303 3.33000000 1204618904 1204618904 -11.00000000
3.33530211 2.50968170 0.36518255 7 5 5304 4.19000000 1204618906 1204618906 5.00000000
3.26621199 2.45680141 -0.64732581 11 6 5305 4.13800000 1204618908 1204618908 -9.00000000
3.35410500 2.52199674 0.51526356 7 7 5306 4.22800000 1204618911 1204618911 7.00000000
3.32439542 2.49874973 -0.51063257 8 8 5307 4.19000000 1204618913 1204618913 -7.00000000
3.34804034 2.51560783 0.66328216 8 9 5308 4.24000000 1204618915 1204618915 9.00000000
3.33068180 2.50256515 -0.36448532 9 10 5308 4.18200000 1204618917 1204618917 -5.00000000
3.35618663 2.52081227 0.81589925 8 11 5309 4.27600000 1204618920 1204618920 11.00000000
3.32692051 2.49792266 -0.21803160 7 12 5310 4.16600000 1204618922 1204618922 -3.00000000
3.35874367 2.52089953 0.96953905 8 13 5311 4.31000000 1204618924 1204618924 13.00000000
3.32705307 2.49620652 -0.07260201 7 14 5312 4.16000000 1204618927 1204618927 -1.00000000
3.35523534 2.51643586 1.12379229 8 15 5313 4.34200000 1204618929 1204618929 15.00000000
1.83283031 1.37163126 -0.61340111 4 0 5319 2.37000000 1204618950 1204618950 -15.00000000
3.33854127 2.49754786 0.07277653 7 1 5320 4.17000000 1204618952 1204618952 1.00000000
2.17550588 1.62689412 -0.62716353 3 2 5321 2.78800000 1204618954 1204618954 -13.00000000
3.35773993 2.51008272 0.21970634 7 3 5322 4.19800000 1204618957 1204618957 3.00000000
2.61970139 1.95836115 -0.63577557 5 4 5322 3.33200000 1204618959 1204618959 -11.00000000
3.36275816 2.51291943 0.36727431 7 5 5323 4.21400000 1204618961 1204618961 5.00000000
3.27434111 2.44595671 -0.64732581 11 6 5324 4.13800000 1204618964 1204618964 -9.00000000
3.37199306 2.51798677 0.51672602 7 7 5325 4.24000000 1204618966 1204618966 7.00000000
3.34857106 2.49958634 -0.51306993 8 8 5326 4.21000000 1204618968 1204618968 -7.00000000
3.37492275 2.51925683 0.66703653 8 9 5326 4.26400000 1204618970 1204618970 9.00000000
3.34854341 2.49865580 -0.36553118 9 10 5327 4.19400000 1204618973 1204618973 -5.00000000
3.36767507 2.51201677 0.81666249 8 11 5328 4.28000000 1204618975 1204618975 11.00000000
3.34799480 2.49642754 -0.21886897 8 12 5329 4.18200000 1204618977 1204618977 -3.00000000
3.37489724 2.51557088 0.97178853 8 13 5330 4.32000000 1204618980 1204618980 13.00000000
3.35295105 2.49830246 -0.07298596 7 14 5331 4.18200000 1204618982 1204618982 -1.00000000
3.37861562 2.51742530 1.12896872 8 15 5331 4.36200000 1204618984 1204618984 15.00000000
1.83915770 1.36637712 -0.61391878 4 0 5339 2.37200000 1204619005 1204619005 -15.00000000
3.36329293 2.49780178 0.07312559 7 1 5340 4.19000000 1204619007 1204619007 1.00000000
2.16239524 1.60535097 -0.62176472 3 2 5341 2.76400000 1204619010 1204619010 -13.00000000
3.38091588 2.50905919 0.22064839 7 3 5342 4.21600000 1204619012 1204619012 3.00000000
2.62494469 1.94803476 -0.63539398 5 4 5342 3.33000000 1204619014 1204619014 -11.00000000
3.38271022 2.50947547 0.36849448 7 5 5343 4.22800000 1204619017 1204619017 5.00000000
3.28603244 2.43686557 -0.64795154 9 6 5344 4.14200000 1204619019 1204619019 -9.00000000
3.38714075 2.51092958 0.51770097 7 7 5345 4.24800000 1204619021 1204619021 7.00000000
3.36844015 2.49615574 -0.51477611 8 8 5346 4.22400000 1204619023 1204619023 -7.00000000
3.40000653 2.51862860 0.67016524 8 9 5347 4.28400000 1204619026 1204619026 9.00000000
3.37965846 2.50355530 -0.36797154 9 10 5347 4.22200000 1204619028 1204619028 -5.00000000
3.38746738 2.50842428 0.81933385 8 11 5348 4.29400000 1204619030 1204619030 11.00000000
3.37274170 2.49660873 -0.21991569 8 12 5349 4.20200000 1204619033 1204619033 -3.00000000
3.39618969 2.51304817 0.97538775 8 13 5350 4.33600000 1204619035 1204619035 13.00000000
3.38737416 2.50561023 -0.07354444 7 14 5351 4.21400000 1204619037 1204619037 -1.00000000
3.40490651 2.51765943 1.13466275 8 15 5352 4.38400000 1204619040 1204619040 15.00000000
1.85168970 1.36568236 -0.61650699 3 0 5359 2.38200000 1204619060 1204619060 -15.00000000
3.39130592 2.50028634 0.07354444 7 1 5360 4.21400000 1204619063 1204619063 1.00000000
2.16798568 1.59779298 -0.62176472 3 2 5361 2.76400000 1204619065 1204619065 -13.00000000
3.39769363 2.50316548 0.22117175 7 3 5362 4.22600000 1204619067 1204619067 3.00000000
2.62856746 1.93653119 -0.63463074 6 4 5362 3.32600000 1204619070 1204619070 -11.00000000
3.42032647 2.51891899 0.37163210 7 5 5363 4.26400000 1204619072 1204619072 5.00000000
3.29451871 2.42538023 -0.64795154 9 6 5364 4.14200000 1204619074 1204619074 -9.00000000
3.41187310 2.51085687 0.52013838 7 7 5365 4.26800000 1204619076 1204619076 7.00000000
3.38672686 2.49144030 -0.51623851 8 8 5366 4.23600000 1204619079 1204619079 -7.00000000
3.41788721 2.51436329 0.67204249 8 9 5366 4.29600000 1204619081 1204619081 9.00000000
3.40763831 2.50590730 -0.37006328 9 10 5367 4.24600000 1204619083 1204619083 -5.00000000
3.41993022 2.51402688 0.82505810 8 11 5368 4.32400000 1204619086 1204619086 11.00000000
3.39592099 2.49546456 -0.22085774 8 12 5369 4.22000000 1204619088 1204619088 -3.00000000
3.41907597 2.51156092 0.97943687 8 13 5370 4.35400000 1204619090 1204619090 13.00000000
3.40577078 2.50087237 -0.07375387 7 14 5371 4.22600000 1204619093 1204619093 -1.00000000
3.43036509 2.51893187 1.14035666 8 15 5371 4.40600000 1204619095 1204619095 15.00000000
1.85021067 1.35464549 -0.61443639 4 0 5379 2.37400000 1204619116 1204619116 -15.00000000
3.41937685 2.50260568 0.07396330 7 1 5380 4.23800000 1204619118 1204619118 1.00000000
2.19242287 1.60402346 -0.62716353 3 2 5381 2.78800000 1204619120 1204619120 -13.00000000
3.42414379 2.50425935 0.22232315 7 3 5382 4.24800000 1204619123 1204619123 3.00000000
2.62897253 1.92270815 -0.63310426 5 4 5382 3.31800000 1204619125 1204619125 -11.00000000
3.43714023 2.51284385 0.37250364 7 5 5383 4.27400000 1204619127 1204619127 5.00000000
3.30934429 2.41852760 -0.64920300 9 6 5384 4.15000000 1204619129 1204619129 -9.00000000
3.43824887 2.51181293 0.52281946 7 7 5385 4.29000000 1204619132 1204619132 7.00000000
3.41143417 2.49131060 -0.51867592 8 8 5386 4.25600000 1204619134 1204619134 -7.00000000
3.42983365 2.50474739 0.67266822 8 9 5386 4.30000000 1204619136 1204619136 9.00000000
3.41958308 2.49634647 -0.37041190 9 10 5387 4.25000000 1204619139 1204619139 -5.00000000
3.44454384 2.51364684 0.82887429 8 11 5388 4.34400000 1204619141 1204619141 11.00000000
3.43204141 2.50360537 -0.22263716 8 12 5389 4.25400000 1204619143 1204619143 -3.00000000
3.44199324 2.50994468 0.98348600 9 13 5390 4.37200000 1204619146 1204619146 13.00000000
3.42740726 2.49839211 -0.07403311 7 14 5391 4.24200000 1204619148 1204619148 -1.00000000
3.45162582 2.51604605 1.14449787 8 15 5391 4.42200000 1204619150 1204619150 15.00000000
1.84398913 1.34022832 -0.61081296 4 0 5399 2.36000000 1204619171 1204619171 -15.00000000
3.43456292 2.49535608 0.07410292 7 1 5400 4.24600000 1204619173 1204619173 1.00000000
2.19800878 1.59636080 -0.62716353 3 2 5401 2.78800000 1204619176 1204619176 -13.00000000
3.45710778 2.50989270 0.22389323 7 3 5402 4.27800000 1204619178 1204619178 3.00000000
2.63249063 1.91121280 -0.63234103 5 4 5402 3.31400000 1204619180 1204619180 -11.00000000
3.45234084 2.50551152 0.37320089 7 5 5403 4.28200000 1204619182 1204619182 5.00000000
3.31776619 2.40696120 -0.64920300 9 6 5404 4.15000000 1204619185 1204619185 -9.00000000
3.47110057 2.51727700 0.52647555 7 7 5405 4.32000000 1204619187 1204619187 7.00000000
3.43618155 2.49103856 -0.52111334 8 8 5406 4.27600000 1204619189 1204619189 -7.00000000
3.46938205 2.51418328 0.67861271 8 9 5407 4.33800000 1204619192 1204619192 9.00000000
3.44118261 2.49374771 -0.37180641 9 10 5407 4.26600000 1204619194 1204619194 -5.00000000
3.47237611 2.51542878 0.83345371 8 11 5408 4.36800000 1204619196 1204619196 11.00000000
3.45370102 2.50098133 -0.22347453 8 12 5409 4.27000000 1204619199 1204619199 -3.00000000
3.47441196 2.51505494 0.99023455 9 13 5410 4.40200000 1204619201 1204619201 13.00000000
3.44582748 2.49344683 -0.07424254 7 14 5411 4.25400000 1204619203 1204619203 -1.00000000
3.47447300 2.51417494 1.14915657 8 15 5411 4.44000000 1204619205 1204619205 15.00000000
1.85962272 1.34169567 -0.61443639 4 0 5419 2.37400000 1204619226 1204619226 -15.00000000
3.45460558 2.49154019 0.07434725 7 1 5420 4.26000000 1204619229 1204619229 1.00000000
2.19724464 1.58411992 -0.62536395 3 2 5421 2.78000000 1204619231 1204619231 -13.00000000
3.48367143 2.51065493 0.22504461 7 3 5422 4.30000000 1204619233 1204619233 3.00000000
2.64392400 1.90545559 -0.63348585 5 4 5422 3.32000000 1204619235 1204619235 -11.00000000
3.48046446 2.50742078 0.37529263 7 5 5423 4.30600000 1204619238 1204619238 5.00000000
3.32294202 2.39305663 -0.64857727 9 6 5424 4.14600000 1204619240 1204619240 -9.00000000
3.48792171 2.51094437 0.52769428 7 7 5425 4.33000000 1204619242 1204619242 7.00000000
3.47546983 2.50105953 -0.52574432 8 8 5426 4.31400000 1204619245 1204619245 -7.00000000
3.49577618 2.51474667 0.68205428 8 9 5427 4.36000000 1204619247 1204619247 9.00000000
3.46604037 2.49335551 -0.37354952 9 10 5427 4.28600000 1204619249 1204619249 -5.00000000
3.48751116 2.50787759 0.83498019 8 11 5428 4.37600000 1204619252 1204619252 11.00000000
3.47376227 2.49707079 -0.22420724 8 12 5429 4.28400000 1204619254 1204619254 -3.00000000
3.50374293 2.51769471 0.99608326 9 13 5430 4.42800000 1204619256 1204619256 13.00000000
3.47399974 2.49540281 -0.07466140 7 14 5431 4.27800000 1204619258 1204619258 -1.00000000
3.50877213 2.51945186 1.15743876 8 15 5432 4.47200000 1204619261 1204619261 15.00000000
1.86563206 1.33664668 -0.61495405 4 0 5438 2.37600000 1204619282 1204619282 -15.00000000
3.49211240 2.50102901 0.07497554 7 1 5439 4.29600000 1204619284 1204619284 1.00000000
2.19297862 1.57001841 -0.62266451 3 2 5440 2.76800000 1204619286 1204619286 -13.00000000
3.51146793 2.51303720 0.22630067 7 3 5441 4.32400000 1204619288 1204619288 3.00000000
2.65821099 1.90239048 -0.63539398 5 4 5441 3.33000000 1204619291 1204619291 -11.00000000
3.51468682 2.51441336 0.37808162 7 5 5442 4.33800000 1204619293 1204619293 5.00000000
3.32121873 2.37512970 -0.64670008 9 6 5443 4.13400000 1204619295 1204619295 -9.00000000
3.50268865 2.50398183 0.52866924 7 7 5444 4.33800000 1204619298 1204619298 7.00000000
3.49505019 2.49759984 -0.52745050 10 8 5445 4.32800000 1204619300 1204619300 -7.00000000
3.52338481 2.51691914 0.68580872 8 9 5446 4.38400000 1204619302 1204619302 9.00000000
3.48725939 2.49111295 -0.37494400 9 10 5446 4.30200000 1204619305 1204619305 -5.00000000
3.51178575 2.50770783 0.83879632 8 11 5447 4.39600000 1204619307 1204619307 11.00000000
3.48364925 2.48669815 -0.22431190 8 12 5448 4.28600000 1204619309 1204619309 -3.00000000
3.52000427 2.51172161 0.99833280 8 13 5449 4.43800000 1204619311 1204619311 13.00000000
3.50341964 2.49896479 -0.07511516 7 14 5450 4.30400000 1204619314 1204619314 -1.00000000
3.53554296 2.52187824 1.16365039 8 15 5450 4.49600000 1204619316 1204619316 15.00000000
1.87343514 1.33236551 -0.61598933 4 0 5458 2.38000000 1204619337 1204619337 -15.00000000
3.51874924 2.50156927 0.07535949 7 1 5459 4.31800000 1204619339 1204619339 1.00000000
2.20162249 1.56461167 -0.62356430 3 2 5460 2.77200000 1204619341 1204619341 -13.00000000
3.52021885 2.50076461 0.22630067 7 3 5461 4.32400000 1204619344 1204619344 3.00000000
2.65843320 1.88855195 -0.63386750 5 4 5461 3.32200000 1204619346 1204619346 -11.00000000
3.53968692 2.51366544 0.37982473 7 5 5462 4.35800000 1204619348 1204619348 5.00000000
3.33271074 2.36580896 -0.64732581 9 6 5463 4.13800000 1204619351 1204619351 -9.00000000
3.54378605 2.51471591 0.53354400 7 7 5464 4.37800000 1204619353 1204619353 7.00000000
3.51346183 2.49227548 -0.52891296 8 8 5465 4.34000000 1204619355 1204619355 -7.00000000
3.53859448 2.50917530 0.68706018 8 9 5466 4.39200000 1204619358 1204619358 9.00000000
3.51868725 2.49505925 -0.37738436 10 10 5466 4.33000000 1204619360 1204619360 -5.00000000
3.54934835 2.51586986 0.84566545 8 11 5467 4.43200000 1204619362 1204619362 11.00000000
3.52001214 2.49415255 -0.22609133 8 12 5468 4.32000000 1204619364 1204619364 -3.00000000
3.54942346 2.51406217 1.00418150 9 13 5469 4.46400000 1204619367 1204619367 13.00000000
3.52354527 2.49480915 -0.07535949 7 14 5470 4.31800000 1204619369 1204619369 -1.00000000
3.56639767 2.52515030 1.17089736 8 15 5470 4.52400000 1204619371 1204619371 15.00000000
1.86544883 1.31690478 -0.61184824 4 0 5478 2.36400000 1204619392 1204619392 -15.00000000
3.54216433 2.49964809 0.07567363 7 1 5479 4.33600000 1204619394 1204619394 1.00000000
2.21980977 1.56590354 -0.62716353 3 2 5480 2.78800000 1204619397 1204619397 -13.00000000
3.54807687 2.50289297 0.22755674 7 3 5480 4.34800000 1204619399 1204619399 3.00000000
2.65377808 1.87134099 -0.63119614 5 4 5481 3.30800000 1204619401 1204619401 -11.00000000
3.55821061 2.50818181 0.38087061 7 5 5482 4.37000000 1204619404 1204619404 5.00000000
3.34417820 2.35643697 -0.64795154 9 6 5483 4.14200000 1204619406 1204619406 -9.00000000
3.56552553 2.51147556 0.53549391 7 7 5484 4.39400000 1204619408 1204619408 7.00000000
3.54161739 2.49371052 -0.53183782 8 8 5485 4.36400000 1204619410 1204619410 -7.00000000
3.55981708 2.50652528 0.68956310 8 9 5485 4.40800000 1204619413 1204619413 9.00000000
3.54366803 2.49422932 -0.37912747 10 10 5486 4.35000000 1204619415 1204619415 -5.00000000
3.57898211 2.51815128 0.85062653 9 11 5487 4.45800000 1204619417 1204619417 11.00000000
3.54013252 2.48989344 -0.22682403 8 12 5488 4.33400000 1204619420 1204619420 -3.00000000
3.57252502 2.51174426 1.00823057 8 13 5489 4.48200000 1204619422 1204619422 13.00000000
3.53714061 2.48594403 -0.07546420 7 14 5490 4.32400000 1204619424 1204619424 -1.00000000
3.57677078 2.51379657 1.17141497 8 15 5490 4.52600000 1204619427 1204619427 15.00000000
1.87636268 1.31481969 -0.61391878 4 0 5498 2.37200000 1204619447 1204619447 -15.00000000
3.56069541 2.49415207 0.07588306 7 1 5499 4.34800000 1204619450 1204619450 1.00000000
2.21249175 1.54920352 -0.62356430 3 2 5500 2.77200000 1204619452 1204619452 -13.00000000
3.58177042 2.50705123 0.22912681 7 3 5501 4.37800000 1204619454 1204619454 3.00000000
2.66833615 1.86769509 -0.63310426 5 4 5501 3.31800000 1204619457 1204619457 -11.00000000
3.57837129 2.50374150 0.38209078 7 5 5502 4.38400000 1204619459 1204619459 5.00000000
3.33943343 2.33569169 -0.64544863 9 6 5503 4.12600000 1204619461 1204619461 -9.00000000
3.59542012 2.51380134 0.53866249 7 7 5504 4.42000000 1204619463 1204619463 7.00000000
3.56982541 2.49497890 -0.53476268 8 8 5505 4.38800000 1204619466 1204619466 -7.00000000
3.59165049 2.50929976 0.69394326 8 9 5506 4.43600000 1204619468 1204619468 9.00000000
3.56541896 2.49097300 -0.38052198 10 10 5506 4.36600000 1204619470 1204619470 -5.00000000
3.60223651 2.51575994 0.85406107 9 11 5507 4.47600000 1204619473 1204619473 11.00000000
3.58155537 2.50038671 -0.22891748 8 12 5508 4.37400000 1204619475 1204619475 -3.00000000
3.60684013 2.51710248 1.01542902 8 13 5509 4.51400000 1204619477 1204619477 13.00000000
3.57531762 2.49417615 -0.07609249 7 14 5510 4.36000000 1204619480 1204619480 -1.00000000
3.60180640 2.51172042 1.17659140 8 15 5511 4.54600000 1204619482 1204619482 15.00000000
1.87618303 1.30495262 -0.61236584 4 0 5518 2.36600000 1204619503 1204619503 -15.00000000
3.58415651 2.49198151 0.07619721 7 1 5519 4.36600000 1204619505 1204619505 1.00000000
2.21788621 1.54147100 -0.62356430 3 2 5520 2.77200000 1204619507 1204619507 -13.00000000
3.60646486 2.50655842 0.23017353 7 3 5520 4.39800000 1204619510 1204619510 3.00000000
2.67161465 1.85612917 -0.63234103 5 4 5521 3.31400000 1204619512 1204619512 -11.00000000
3.60181713 2.50146413 0.38365957 7 5 5522 4.40200000 1204619514 1204619514 5.00000000
3.34756637 2.32402062 -0.64544863 9 6 5523 4.12600000 1204619516 1204619516 -9.00000000
3.61395812 2.50802636 0.54012495 7 7 5524 4.43200000 1204619519 1204619519 7.00000000
3.58993006 2.49042320 -0.53646886 8 8 5525 4.40200000 1204619521 1204619521 -7.00000000
3.61337376 2.50575256 0.69644624 8 9 5526 4.45200000 1204619523 1204619523 9.00000000
3.60028815 2.49667811 -0.38331094 10 10 5526 4.39800000 1204619526 1204619526 -5.00000000
3.62229061 2.51099992 0.85673237 9 11 5527 4.49000000 1204619528 1204619528 11.00000000
3.59190321 2.48900700 -0.22902215 8 12 5528 4.37600000 1204619530 1204619530 -3.00000000
3.63322592 2.51670313 1.02037799 9 13 5529 4.53600000 1204619533 1204619533 13.00000000
3.60701871 2.49761820 -0.07658116 7 14 5530 4.38800000 1204619535 1204619535 -1.00000000
3.63235140 2.51515937 1.18383837 8 15 5530 4.57400000 1204619537 1204619537 15.00000000
1.88231647 1.29949319 -0.61288351 4 0 5538 2.36800000 1204619558 1204619558 -15.00000000
3.61587477 2.49535656 0.07668588 7 1 5539 4.39400000 1204619560 1204619560 1.00000000
2.22004509 1.53150654 -0.62266451 4 2 5540 2.76800000 1204619562 1204619562 -13.00000000
3.63492060 2.50756383 0.23142959 7 3 5540 4.42200000 1204619565 1204619565 3.00000000
2.67807746 1.84679222 -0.63234103 5 4 5541 3.31400000 1204619567 1204619567 -11.00000000
3.63021183 2.50244570 0.38575131 7 5 5542 4.42600000 1204619569 1204619569 5.00000000
3.35728478 2.31344223 -0.64576149 6 6 5543 4.12800000 1204619572 1204619572 -9.00000000
3.63903856 2.50665689 0.54256231 7 7 5544 4.45200000 1204619574 1204619574 7.00000000
3.61985612 2.49251199 -0.53963745 8 8 5545 4.42800000 1204619576 1204619576 -7.00000000
3.64487910 2.50880432 0.70082641 8 9 5546 4.48000000 1204619579 1204619579 9.00000000
3.61882854 2.49087334 -0.38435683 10 10 5546 4.41000000 1204619581 1204619581 -5.00000000
3.65691161 2.51614594 0.86283827 9 11 5547 4.52200000 1204619583 1204619583 11.00000000
3.61867118 2.48890400 -0.23017353 8 12 5548 4.39800000 1204619586 1204619586 -3.00000000
3.65644097 2.51394200 1.02442706 8 13 5549 4.55400000 1204619588 1204619588 13.00000000
3.64537907 2.50539947 -0.07720944 7 14 5550 4.42400000 1204619590 1204619590 -1.00000000
3.65702963 2.51340675 1.18901467 8 15 5550 4.59400000 1204619592 1204619592 15.00000000
1.89298916 1.29761302 -0.61495405 4 0 5557 2.37600000 1204619613 1204619613 -15.00000000
3.64557433 2.49804664 0.07713964 7 1 5558 4.42000000 1204619615 1204619615 1.00000000
2.23154259 1.52854121 -0.62446415 3 2 5559 2.77600000 1204619618 1204619618 -13.00000000
3.65189147 2.50050211 0.23195297 7 3 5560 4.43200000 1204619620 1204619620 3.00000000
2.68580699 1.83901036 -0.63272262 6 4 5560 3.31600000 1204619622 1204619622 -11.00000000
3.66150832 2.50614858 0.38819167 7 5 5561 4.45400000 1204619625 1204619625 5.00000000
3.36819863 2.30452728 -0.64638722 6 6 5562 4.13200000 1204619627 1204619627 -9.00000000
3.66207767 2.50466132 0.54475594 7 7 5563 4.47000000 1204619629 1204619629 7.00000000
3.63629532 2.48609638 -0.54085612 8 8 5564 4.43800000 1204619632 1204619632 -7.00000000
3.66578817 2.50626040 0.70332938 8 9 5564 4.49600000 1204619634 1204619634 9.00000000
3.64680767 2.49234962 -0.38644856 10 10 5565 4.43400000 1204619636 1204619636 -5.00000000
3.67009878 2.50732780 0.86398315 9 11 5566 4.52800000 1204619639 1204619639 11.00000000
3.65164495 2.49378586 -0.23174362 8 12 5567 4.42800000 1204619641 1204619641 -3.00000000
3.66958594 2.50509906 1.02577686 9 13 5568 4.56000000 1204619643 1204619643 13.00000000
3.66522932 2.50118732 -0.07745378 7 14 5569 4.43800000 1204619645 1204619645 -1.00000000
3.68812346 2.51586723 1.19626164 8 15 5570 4.62200000 1204619648 1204619648 15.00000000
1.89431262 1.28882396 -0.61391878 4 0 5577 2.37200000 1204619668 1204619668 -15.00000000
3.67246079 2.49767613 0.07752359 7 1 5578 4.44200000 1204619671 1204619671 1.00000000
2.23686457 1.52074242 -0.62446415 3 2 5579 2.77600000 1204619673 1204619673 -13.00000000
3.67833185 2.50073051 0.23310435 7 3 5579 4.45400000 1204619675 1204619675 3.00000000
2.69220996 1.82962394 -0.63272262 5 4 5580 3.31600000 1204619678 1204619678 -11.00000000
3.68671465 2.50454831 0.38993478 8 5 5581 4.47400000 1204619680 1204619680 5.00000000
3.38929582 2.30163407 -0.64889014 6 6 5582 4.14800000 1204619682 1204619682 -9.00000000
3.69543433 2.50858712 0.54841202 7 7 5583 4.50000000 1204619685 1204619685 7.00000000
3.66301990 2.48564911 -0.54353726 8 8 5584 4.46000000 1204619687 1204619687 -7.00000000
3.68802762 2.50167894 0.70583230 8 9 5585 4.51200000 1204619689 1204619689 9.00000000
3.67197394 2.49078918 -0.38819167 10 10 5585 4.45400000 1204619692 1204619692 -5.00000000
3.71132708 2.51653767 0.87161547 9 11 5586 4.56800000 1204619694 1204619694 11.00000000
3.68016672 2.49447155 -0.23299968 8 12 5587 4.45200000 1204619696 1204619696 -3.00000000
3.70896053 2.51304364 1.03432500 9 13 5588 4.59800000 1204619698 1204619698 13.00000000
3.68387175 2.49510646 -0.07766321 7 14 5589 4.45000000 1204619701 1204619701 -1.00000000
3.71447945 2.51489162 1.20195568 8 15 5590 4.64400000 1204619703 1204619703 15.00000000
1.88919389 1.27571714 -0.61081296 4 0 5597 2.36000000 1204619724 1204619724 -15.00000000
3.69110155 2.49155450 0.07773302 8 1 5598 4.45400000 1204619726 1204619726 1.00000000
2.24215937 1.51292503 -0.62446415 3 2 5599 2.77600000 1204619728 1204619728 -13.00000000
3.70690608 2.50128102 0.23436041 7 3 5599 4.47800000 1204619731 1204619731 3.00000000
2.69044209 1.81472611 -0.63081455 5 4 5600 3.30600000 1204619733 1204619733 -11.00000000
3.70865035 2.50057459 0.39132929 8 5 5601 4.49000000 1204619735 1204619735 5.00000000
3.37929082 2.27764463 -0.64544863 9 6 5602 4.12600000 1204619738 1204619738 -9.00000000
3.72557044 2.51009178 0.55158067 8 7 5603 4.52600000 1204619740 1204619740 7.00000000
3.69801807 2.49059010 -0.54743707 8 8 5604 4.49200000 1204619742 1204619742 -7.00000000
3.71596432 2.50267696 0.70958674 8 9 5604 4.53600000 1204619745 1204619745 9.00000000
3.69386792 2.48685813 -0.38958618 10 10 5605 4.47000000 1204619747 1204619747 -5.00000000
3.73963380 2.51672101 0.87619489 9 11 5606 4.59200000 1204619749 1204619749 11.00000000
3.70376611 2.49164343 -0.23394172 8 12 5607 4.47000000 1204619751 1204619751 -3.00000000
3.73226380 2.50986886 1.03837407 9 13 5608 4.61600000 1204619754 1204619754 13.00000000
3.70749521 2.49227262 -0.07797735 7 14 5609 4.46800000 1204619756 1204619756 -1.00000000
3.73285627 2.50837541 1.20506144 8 15 5610 4.65600000 1204619758 1204619758 15.00000000
1.89684498 1.27126586 -0.61184824 4 0 5617 2.36400000 1204619779 1204619779 -15.00000000
3.71638942 2.48978496 0.07808207 8 1 5618 4.47400000 1204619781 1204619781 1.00000000
2.25552273 1.51051104 -0.62671363 4 2 5619 2.78600000 1204619784 1204619784 -13.00000000
3.73884749 2.50388527 0.23582582 7 3 5619 4.50600000 1204619786 1204619786 3.00000000
2.70328593 1.80969226 -0.63234103 5 4 5620 3.31400000 1204619788 1204619788 -11.00000000
3.73391485 2.49869442 0.39307240 8 5 5621 4.51000000 1204619791 1204619791 5.00000000
3.38557887 2.26473641 -0.64513576 9 6 5622 4.12400000 1204619793 1204619793 -9.00000000
3.74256039 2.50258899 0.55279934 8 7 5623 4.53600000 1204619795 1204619795 7.00000000
3.72979426 2.49311042 -0.55084944 8 8 5624 4.52000000 1204619798 1204619798 -7.00000000
3.75423861 2.50944996 0.71521837 8 9 5624 4.57200000 1204619800 1204619800 9.00000000
3.71743560 2.48391104 -0.39115497 10 10 5625 4.48800000 1204619802 1204619802 -5.00000000
3.75166130 2.50583291 0.87695813 9 11 5626 4.59600000 1204619804 1204619804 11.00000000
3.72739053 2.48868108 -0.23488377 8 12 5627 4.48800000 1204619807 1204619807 -3.00000000
3.77341986 2.51846170 1.04737210 9 13 5628 4.65600000 1204619809 1204619809 13.00000000
3.73946071 2.49485326 -0.07846602 7 14 5629 4.49600000 1204619811 1204619811 -1.00000000
3.76730490 2.51248002 1.21334374 8 15 5630 4.68800000 1204619814 1204619814 15.00000000
1.91092205 1.27105629 -0.61495405 4 0 5637 2.37600000 1204619834 1204619834 -15.00000000
3.74837065 2.49229789 0.07857073 8 1 5638 4.50200000 1204619837 1204619837 1.00000000
2.24779797 1.49399889 -0.62311441 4 2 5639 2.77000000 1204619839 1204619839 -13.00000000
3.76752520 2.50408578 0.23708189 7 3 5639 4.53000000 1204619841 1204619841 3.00000000
2.71285701 1.80241787 -0.63310426 5 4 5640 3.31800000 1204619844 1204619844 -11.00000000
3.77580810 2.50769114 0.39655864 8 5 5641 4.55000000 1204619846 1204619846 5.00000000
3.39675498 2.25509000 -0.64576149 9 6 5642 4.12800000 1204619848 1204619848 -9.00000000
3.75623512 2.49280262 0.55353057 8 7 5643 4.54200000 1204619850 1204619850 7.00000000
3.74674511 2.48556280 -0.55206811 8 8 5644 4.53000000 1204619853 1204619853 -7.00000000
3.78272843 2.50943398 0.71897280 8 9 5644 4.59600000 1204619855 1204619855 9.00000000
3.75265098 2.48853755 -0.39394397 10 10 5645 4.52000000 1204619857 1204619857 -5.00000000
3.78002191 2.50573874 0.88153756 9 11 5646 4.62000000 1204619860 1204619860 11.00000000
3.74770927 2.48337770 -0.23561648 8 12 5647 4.50200000 1204619862 1204619862 -3.00000000
8.29222012 5.49266434 2.29630041 29 13 5648 10.20800000 1204619864 1204619864 13.00000000
3.75981784 2.48951292 -0.07871035 7 14 5649 4.51000000 1204619867 1204619867 -1.00000000
3.80622005 2.52023768 1.22317886 6 15 5649 4.72600000 1204619869 1204619869 15.00000000
1.91212285 1.26224971 -0.61391878 4 0 5657 2.37200000 1204619890 1204619890 -15.00000000
3.77540708 2.49131370 0.07895469 8 1 5658 4.52400000 1204619892 1204619892 1.00000000
2.24811912 1.48292446 -0.62176472 3 2 5659 2.76400000 1204619894 1204619894 -13.00000000
8.25938606 5.44813013 0.51854467 52 3 5659 9.90800000 1204619897 1204619897 3.00000000
2.71257591 1.78861427 -0.63157779 6 4 5660 3.31000000 1204619899 1204619899 -11.00000000
8.25778008 5.44293499 0.86528224 50 5 5661 9.92800000 1204619901 1204619901 5.00000000
3.40295672 2.24213266 -0.64544863 9 6 5662 4.12600000 1204619903 1204619903 -9.00000000
3.80801725 2.50806499 0.55986774 6 7 5663 4.59400000 1204619906 1204619906 7.00000000
3.76866245 2.48120189 -0.55401802 8 8 5664 4.54600000 1204619908 1204619908 -7.00000000
19.09096718 12.56905937 3.62020636 33 9 5664 23.14200000 1204619910 1204619910 9.00000000
3.79460049 2.49732971 -0.39743018 10 10 5665 4.56000000 1204619913 1204619913 -5.00000000
8.66162968 5.69828749 2.01532459 28 11 5666 10.56200000 1204619915 1204619915 11.00000000
