# .PCD v0.7 - Point Cloud Data file format
VERSION 0.7
FIELDS x y z intensity laser_id azimuth distance_m adjustedtime timestamp vertical_angle
SIZE 4 4 4 1 1 2 8 8 4 8
TYPE F F F U U U F U U F
COUNT 1 1 1 1 1 1 1 1 1 1
WIDTH 523
HEIGHT 1
VIEWPOINT 0 0 0 1 0 0 0
POINTS 523
DATA ascii
2.78196716 -5.44112349 0.10666911 8 1 15292 6.11200000 1204846661 1204846661 1.00000000
1.08193278 -2.11701465 -0.54888058 3 2 15293 2.44000000 1204846663 1204846663 -13.00000000
2.79126287 -5.46165609 0.32144743 7 3 15293 6.14200000 1204846666 1204846666 3.00000000
1.27092421 -2.48788524 -0.54304242 3 4 15294 2.84600000 1204846668 1204846668 -11.00000000
2.79252219 -5.46883011 0.53722799 9 5 15295 6.16400000 1204846670 1204846670 5.00000000
1.55449128 -3.04560280 -0.54157615 1 6 15296 3.46200000 1204846673 1204846673 -9.00000000
2.80655456 -5.50105095 0.75827104 7 7 15297 6.22200000 1204846675 1204846675 7.00000000
2.01919818 -3.95948219 -0.54573095 2 8 15298 4.47800000 1204846677 1204846677 -7.00000000
2.79904222 -5.48869276 0.97583818 37 9 15298 6.23800000 1204846680 1204846680 9.00000000
2.45481920 -4.81577587 -0.47290707 10 10 15299 5.42600000 1204846682 1204846682 -5.00000000
2.81115651 -5.51720524 1.20362318 40 11 15300 6.30800000 1204846684 1204846684 11.00000000
2.64495111 -5.19324970 -0.30543265 31 12 15301 5.83600000 1204846686 1204846686 -3.00000000
2.80791235 -5.51559687 1.42888916 47 13 15302 6.35200000 1204846689 1204846689 13.00000000
2.64001393 -5.18803310 -0.10160791 24 14 15303 5.82200000 1204846691 1204846691 -1.00000000
2.82020617 -5.54453182 1.66679466 40 15 15304 6.44000000 1204846693 1204846693 15.00000000
0.92004406 -1.81429064 -0.54507291 4 0 15311 2.10600000 1204846714 1204846714 -15.00000000
2.77471066 -5.47398853 0.10712287 8 1 15312 6.13800000 1204846716 1204846716 1.00000000
1.07805955 -2.12773180 -0.55068016 3 2 15313 2.44800000 1204846719 1204846719 -13.00000000
2.79474854 -5.51590681 0.32406425 7 3 15313 6.19200000 1204846721 1204846721 3.00000000
1.26223218 -2.49230623 -0.54304242 3 4 15314 2.84600000 1204846723 1204846723 -11.00000000
2.78601360 -5.50343084 0.53966838 6 5 15315 6.19200000 1204846726 1204846726 5.00000000
1.53671563 -3.03690982 -0.53907317 1 6 15316 3.44600000 1204846728 1204846728 -9.00000000
2.80704641 -5.54978466 0.76363331 7 7 15317 6.26600000 1204846730 1204846730 7.00000000
1.99640822 -3.94879103 -0.54329354 2 8 15318 4.45800000 1204846733 1204846733 -7.00000000
2.80214787 -5.54250145 0.98365992 42 9 15318 6.28800000 1204846735 1204846735 9.00000000
2.76150227 -5.46447515 -0.53565919 11 10 15319 6.14600000 1204846737 1204846737 -5.00000000
2.80692887 -5.55677462 1.21011066 34 11 15320 6.34200000 1204846739 1204846739 11.00000000
2.62860775 -5.20601606 -0.30564198 28 12 15321 5.84000000 1204846742 1204846742 -3.00000000
4.66237068 -9.23793697 2.38898015 41 13 15322 10.62000000 1204846744 1204846744 13.00000000
2.69574428 -5.34361696 -0.10447010 24 14 15323 5.98600000 1204846746 1204846746 -1.00000000
3.59237504 -7.12404776 2.13784528 13 15 15324 8.26000000 1204846749 1204846749 15.00000000
0.92206234 -1.83491218 -0.55024928 4 0 15332 2.12600000 1204846769 1204846769 -15.00000000
2.77976060 -5.53415585 0.10810021 8 1 15333 6.19400000 1204846772 1204846772 1.00000000
1.06325865 -2.11773634 -0.54708099 3 2 15334 2.43200000 1204846774 1204846774 -13.00000000
2.78257847 -5.54217720 0.32500628 2 3 15334 6.21000000 1204846776 1204846776 3.00000000
1.25132775 -2.49340653 -0.54227918 3 4 15335 2.84200000 1204846779 1204846779 -11.00000000
2.78101087 -5.54387999 0.54263163 9 5 15336 6.22600000 1204846781 1204846781 5.00000000
1.52203286 -3.03545856 -0.53782171 1 6 15337 3.43800000 1204846783 1204846783 -9.00000000
6.56245565 -13.09350300 1.79830408 21 7 15338 14.75600000 1204846785 1204846785 7.00000000
2.72080779 -5.43096018 -0.74584037 4 8 15339 6.12000000 1204846788 1204846788 -7.00000000
6.00249100 -11.98147392 2.12250280 31 9 15339 13.56800000 1204846790 1204846790 9.00000000
2.73699498 -5.46565247 -0.53478765 11 10 15340 6.13600000 1204846792 1204846792 -5.00000000
5.19258451 -10.37387371 2.25498080 40 11 15341 11.81800000 1204846795 1204846795 11.00000000
2.74981475 -5.49604416 -0.32207549 32 12 15342 6.15400000 1204846797 1204846797 -3.00000000
4.63196754 -9.26193428 2.39077973 50 13 15343 10.62800000 1204846799 1204846799 13.00000000
2.74588323 -5.49297714 -0.10719268 24 14 15344 6.14200000 1204846802 1204846802 -1.00000000
3.57180476 -7.14518404 2.14043355 18 15 15344 8.27000000 1204846804 1204846804 15.00000000
0.91048336 -1.82774448 -0.54714346 4 0 15352 2.11400000 1204846825 1204846825 -15.00000000
2.76488256 -5.55277538 0.10827473 8 1 15353 6.20400000 1204846827 1204846827 1.00000000
1.05759656 -2.12492418 -0.54798079 3 2 15354 2.43600000 1204846829 1204846829 -13.00000000
2.77211499 -5.56973696 0.32605299 10 3 15354 6.23000000 1204846832 1204846832 3.00000000
1.24786329 -2.50830579 -0.54456890 3 4 15355 2.85400000 1204846834 1204846834 -11.00000000
6.52130795 -13.11409378 1.28136373 27 5 15356 14.70200000 1204846836 1204846836 5.00000000
1.52373731 -3.06551766 -0.54220188 3 6 15357 3.46600000 1204846838 1204846838 -9.00000000
6.51052761 -13.10388565 1.79659784 64 7 15358 14.74200000 1204846841 1204846841 7.00000000
2.72479057 -5.48664999 -0.75217760 4 8 15359 6.17200000 1204846843 1204846843 -7.00000000
5.96941757 -12.02004528 2.12563157 38 9 15359 13.58800000 1204846845 1204846845 9.00000000
2.60893559 -5.25566626 -0.51334733 15 10 15360 5.89000000 1204846848 1204846848 -5.00000000
5.17292118 -10.42535019 2.26223135 40 11 15361 11.85600000 1204846850 1204846850 11.00000000
2.72528863 -5.49487352 -0.32144743 32 12 15362 6.14200000 1204846852 1204846852 -3.00000000
4.60826445 -9.29550648 2.39527893 47 13 15363 10.64800000 1204846855 1204846855 13.00000000
2.72491670 -5.49894524 -0.10712287 24 14 15364 6.13800000 1204846857 1204846857 -1.00000000
3.53787518 -7.14264727 2.13577485 13 15 15365 8.25200000 1204846859 1204846859 15.00000000
0.90783989 -1.83768189 -0.54921401 4 0 15371 2.12200000 1204846880 1204846880 -15.00000000
6.48276424 -13.12841129 0.25557303 7 1 15372 14.64400000 1204846882 1204846882 1.00000000
1.04709411 -2.12142968 -0.54618114 3 2 15373 2.42800000 1204846885 1204846885 -13.00000000
6.19634819 -12.55942440 0.73395944 7 3 15374 14.02400000 1204846887 1204846887 3.00000000
1.23780131 -2.50890875 -0.54380566 3 4 15374 2.85000000 1204846889 1204846889 -11.00000000
6.46897221 -13.11777782 1.27962065 58 5 15375 14.68200000 1204846891 1204846891 5.00000000
1.51181650 -3.06700993 -0.54157615 1 6 15376 3.46200000 1204846894 1204846894 -9.00000000
6.45563221 -13.10225487 1.79342926 73 7 15377 14.71600000 1204846896 1204846896 7.00000000
2.71272039 -5.50812149 -0.75388378 6 8 15378 6.18600000 1204846898 1204846898 -7.00000000
5.94785261 -12.07698917 2.13220167 35 9 15378 13.63000000 1204846901 1204846901 9.00000000
2.76132560 -5.60928345 -0.54698944 15 10 15379 6.27600000 1204846903 1204846903 -5.00000000
5.14698887 -10.46006298 2.26604772 37 11 15380 11.87600000 1204846905 1204846905 11.00000000
2.70528913 -5.50029659 -0.32123810 32 12 15381 6.13800000 1204846908 1204846908 -3.00000000
4.58429241 -9.32472706 2.39887810 47 13 15382 10.66400000 1204846910 1204846910 13.00000000
2.69608331 -5.48641443 -0.10670401 27 14 15383 6.11400000 1204846912 1204846912 -1.00000000
3.51541853 -7.15372658 2.13577485 11 15 15383 8.25200000 1204846915 1204846915 15.00000000
0.90141964 -1.84083962 -0.54921401 4 0 15391 2.12200000 1204846935 1204846935 -15.00000000
6.16349220 -12.59237671 0.24471764 14 1 15392 14.02200000 1204846938 1204846938 1.00000000
1.04139543 -2.12857270 -0.54708099 3 2 15393 2.43200000 1204846940 1204846940 -13.00000000
6.39288282 -13.07258987 0.76263958 10 3 15394 14.57200000 1204846942 1204846942 3.00000000
1.22731113 -2.50968695 -0.54304242 3 4 15394 2.84600000 1204846944 1204846944 -11.00000000
6.41439342 -13.12237930 1.27787745 63 5 15395 14.66200000 1204846947 1204846947 5.00000000
1.48549211 -3.04032111 -0.53594446 1 6 15396 3.42600000 1204846949 1204846949 -9.00000000
6.39417696 -13.09260178 1.78904200 70 7 15397 14.68000000 1204846951 1204846951 7.00000000
2.68825197 -5.50685406 -0.75242132 6 8 15398 6.17400000 1204846954 1204846954 -7.00000000
5.91567612 -12.12356186 2.13658190 35 9 15399 13.65800000 1204846956 1204846956 9.00000000
2.75920320 -5.65469980 -0.55047566 34 10 15399 6.31600000 1204846958 1204846958 -5.00000000
2.67907119 -5.49534416 -0.32040071 32 12 15401 6.12200000 1204846963 1204846963 -3.00000000
4.55854416 -9.35468769 2.40247726 48 13 15402 10.68000000 1204846965 1204846965 13.00000000
2.67166185 -5.48500538 -0.10649458 24 14 15403 6.10200000 1204846968 1204846968 -1.00000000
3.48410130 -7.15614176 2.13266897 9 15 15404 8.24000000 1204846970 1204846970 15.00000000
0.88960725 -1.83370245 -0.54610819 4 0 15412 2.11000000 1204846991 1204846991 -15.00000000
6.09461164 -12.56810093 0.24381012 14 1 15413 13.97000000 1204846993 1204846993 1.00000000
1.03528678 -2.13588262 -0.54798079 3 2 15414 2.43600000 1204846995 1204846995 -13.00000000
5.63171005 -11.62385368 0.67691326 5 3 15415 12.93400000 1204846997 1204846997 3.00000000
1.21296835 -2.50356746 -0.54075271 3 4 15415 2.83400000 1204847000 1204847000 -11.00000000
6.34975481 -13.11173058 1.27456558 58 5 15416 14.62400000 1204847002 1204847002 5.00000000
1.48810959 -3.07419372 -0.54095036 1 6 15417 3.45800000 1204847004 1204847004 -9.00000000
6.33663654 -13.09629440 1.78636086 73 7 15418 14.65800000 1204847007 1204847007 7.00000000
2.66286469 -5.50594759 -0.75095892 6 8 15419 6.16200000 1204847009 1204847009 -7.00000000
5.89396191 -12.18681717 2.14409089 38 9 15419 13.70600000 1204847011 1204847011 9.00000000
2.74192786 -5.67194986 -0.55117291 27 10 15420 6.32400000 1204847014 1204847014 -5.00000000
4.49715710 -9.30696106 2.00921869 9 11 15421 10.53000000 1204847016 1204847016 11.00000000
2.65369987 -5.49433565 -0.31977269 32 12 15422 6.11000000 1204847018 1204847018 -3.00000000
4.53608847 -9.39590168 2.40877581 50 13 15423 10.70800000 1204847021 1204847021 13.00000000
2.63502789 -5.46054268 -0.10583139 36 14 15424 6.06400000 1204847023 1204847023 -1.00000000
3.44986486 -7.14912128 2.12697482 9 15 15424 8.21800000 1204847025 1204847025 15.00000000
0.88487530 -1.84027874 -0.54714346 4 0 15432 2.11400000 1204847046 1204847046 -15.00000000
6.30104780 -13.11017323 0.25389761 10 1 15433 14.54800000 1204847048 1204847048 1.00000000
1.02951252 -2.14299655 -0.54888058 3 2 15434 2.44000000 1204847050 1204847050 -13.00000000
6.30263281 -13.12520313 0.76305825 10 3 15435 14.58000000 1204847053 1204847053 3.00000000
1.20592153 -2.51132584 -0.54151595 3 4 15435 2.83800000 1204847055 1204847055 -11.00000000
6.29618835 -13.11764908 1.27299678 72 5 15436 14.60600000 1204847057 1204847057 5.00000000
1.47053385 -3.06512117 -0.53844744 1 6 15437 3.44200000 1204847060 1204847060 -9.00000000
6.28144169 -13.09864426 1.78367972 75 7 15438 14.63600000 1204847062 1204847062 7.00000000
2.62646818 -5.47940779 -0.74608409 9 8 15439 6.12200000 1204847064 1204847064 -7.00000000
5.86803341 -12.24752998 2.15097380 42 9 15440 13.75000000 1204847067 1204847067 9.00000000
2.72727752 -5.69226742 -0.55221879 19 10 15440 6.33600000 1204847069 1204847069 -5.00000000
5.06671143 -10.57978153 2.28016758 28 11 15441 11.95000000 1204847071 1204847071 11.00000000
2.61984491 -5.47293997 -0.31799328 45 12 15442 6.07600000 1204847073 1204847073 -3.00000000
4.51335621 -9.43277264 2.41417480 50 13 15443 10.73200000 1204847076 1204847076 13.00000000
2.61767650 -5.47331524 -0.10590120 31 14 15444 6.06800000 1204847078 1204847078 -1.00000000
3.42030597 -7.15474606 2.12490439 6 15 15445 8.21000000 1204847080 1204847080 15.00000000
0.88343257 -1.85381997 -0.55024928 4 0 15452 2.12600000 1204847101 1204847101 -15.00000000
6.23976755 -13.09959126 0.25326931 14 1 15453 14.51200000 1204847103 1204847103 1.00000000
1.01699948 -2.13602018 -0.54618114 3 2 15454 2.42800000 1204847106 1204847106 -13.00000000
6.24047184 -13.11285782 0.76106948 10 3 15455 14.54200000 1204847108 1204847108 3.00000000
1.20727193 -2.53679299 -0.54609537 3 4 15455 2.86200000 1204847110 1204847110 -11.00000000
6.22982025 -13.09636688 1.26881325 49 5 15456 14.55800000 1204847113 1204847113 5.00000000
1.45473623 -3.05953193 -0.53657019 3 6 15457 3.43000000 1204847115 1204847115 -9.00000000
6.22034264 -13.08821869 1.77929246 71 7 15458 14.60000000 1204847117 1204847117 7.00000000
2.60221481 -5.47778416 -0.74462169 9 8 15459 6.11000000 1204847120 1204847120 -7.00000000
5.85112000 -12.31688213 2.15973425 35 9 15459 13.80600000 1204847122 1204847122 9.00000000
2.71080971 -5.70895195 -0.55291605 15 10 15460 6.34400000 1204847124 1204847124 -5.00000000
5.04321909 -10.62578106 2.28627348 37 11 15461 11.98200000 1204847126 1204847126 11.00000000
2.59730053 -5.47483349 -0.31757459 35 12 15462 6.06800000 1204847129 1204847129 -3.00000000
4.48958683 -9.46783829 2.41912365 51 13 15463 10.75400000 1204847131 1204847131 13.00000000
2.59769869 -5.48061228 -0.10586630 29 14 15464 6.06600000 1204847133 1204847133 -1.00000000
3.39159679 -7.15557432 2.12179852 6 15 15464 8.19800000 1204847136 1204847136 15.00000000
0.87530619 -1.85339880 -0.54921401 4 0 15472 2.12200000 1204847156 1204847156 -15.00000000
6.14107752 -13.00917625 0.25110522 10 1 15473 14.38800000 1204847159 1204847159 1.00000000
1.00454772 -2.12898278 -0.54348177 3 2 15474 2.41600000 1204847161 1204847161 -13.00000000
5.47730398 -11.61354637 0.67293572 5 3 15475 12.85800000 1204847163 1204847163 3.00000000
1.19003487 -2.52323484 -0.54227918 3 4 15475 2.84200000 1204847166 1204847166 -11.00000000
6.17981958 -13.10902214 1.26794171 54 5 15476 14.54800000 1204847168 1204847168 5.00000000
1.44573152 -3.06816506 -0.53719598 3 6 15477 3.43400000 1204847170 1204847170 -9.00000000
6.16785145 -13.09548473 1.77734256 73 7 15478 14.58400000 1204847173 1204847173 7.00000000
2.58476901 -5.49042606 -0.74510914 9 8 15479 6.11400000 1204847175 1204847175 -7.00000000
5.81771231 -12.36326790 2.16411448 35 9 15480 13.83400000 1204847177 1204847177 9.00000000
2.69001675 -5.71657658 -0.55274171 15 10 15480 6.34200000 1204847179 1204847179 -5.00000000
5.02531624 -10.68418121 2.29505062 40 11 15481 12.02800000 1204847182 1204847182 11.00000000
2.57817388 -5.48386621 -0.31757459 35 12 15482 6.06800000 1204847184 1204847184 -3.00000000
4.46562719 -9.50285339 2.42407250 54 13 15483 10.77600000 1204847186 1204847186 13.00000000
2.57600141 -5.48421669 -0.10576158 31 14 15484 6.06000000 1204847189 1204847189 -1.00000000
3.36863160 -7.17495203 2.12386918 6 15 15485 8.20600000 1204847191 1204847191 15.00000000
0.86620128 -1.84914184 -0.54714346 4 0 15490 2.11400000 1204847212 1204847212 -15.00000000
6.14257574 -13.11895466 0.25285047 10 1 15491 14.48800000 1204847214 1204847214 1.00000000
1.00611472 -2.14977813 -0.54798079 3 2 15492 2.43600000 1204847216 1204847216 -13.00000000
6.13390303 -13.11234856 0.75866205 10 3 15493 14.49600000 1204847219 1204847219 3.00000000
6.14177275 -13.12917233 -2.81748557 4 4 15493 14.76600000 1204847221 1204847221 -11.00000000
6.13016701 -13.11032295 1.26619864 63 5 15494 14.52800000 1204847223 1204847223 5.00000000
1.44695866 -3.09595609 -0.54126322 1 6 15495 3.46000000 1204847226 1204847226 -9.00000000
6.11659813 -13.09321499 1.77441764 73 7 15496 14.56000000 1204847228 1204847228 7.00000000
2.56582785 -5.49492168 -0.74462169 9 8 15497 6.11000000 1204847230 1204847230 -7.00000000
5.79604769 -12.41269207 2.16974592 35 9 15497 13.87000000 1204847232 1204847232 9.00000000
2.66024733 -5.69972372 -0.55030137 15 10 15498 6.31400000 1204847235 1204847235 -5.00000000
5.00500679 -10.72838211 2.30115652 37 11 15499 12.06000000 1204847237 1204847237 11.00000000
2.56008911 -5.49012852 -0.31746992 35 12 15500 6.06600000 1204847239 1204847239 -3.00000000
4.44727707 -9.54156399 2.43037128 54 13 15501 10.80400000 1204847242 1204847242 13.00000000
2.55284834 -5.47959375 -0.10551725 29 14 15502 6.04600000 1204847244 1204847244 -1.00000000
3.61410284 -7.75753736 2.29313684 9 15 15502 8.86000000 1204847246 1204847246 15.00000000
0.85648781 -1.84514499 -0.54507291 4 0 15510 2.10600000 1204847267 1204847267 -15.00000000
6.08159542 -13.10766506 0.25222218 14 1 15511 14.45200000 1204847269 1204847269 1.00000000
0.99696475 -2.14974141 -0.54708099 3 2 15512 2.43200000 1204847272 1204847272 -13.00000000
5.97553873 -12.89086628 0.74463600 10 3 15513 14.22800000 1204847274 1204847274 3.00000000
1.17327404 -2.53107190 -0.54227918 3 4 15513 2.84200000 1204847276 1204847276 -11.00000000
6.07096434 -13.10271740 1.26340961 54 5 15514 14.49600000 1204847279 1204847279 5.00000000
1.43116212 -3.09023333 -0.53938603 1 6 15515 3.44800000 1204847281 1204847281 -9.00000000
6.06251812 -13.09647179 1.77198029 76 7 15516 14.54000000 1204847283 1204847283 7.00000000
2.54579759 -5.50204325 -0.74437797 9 8 15517 6.10800000 1204847285 1204847285 -7.00000000
5.77124405 -12.47867489 2.17756772 38 9 15518 13.92000000 1204847288 1204847288 9.00000000
2.63866258 -5.70535803 -0.54995275 11 10 15518 6.31000000 1204847290 1204847290 -5.00000000
4.97988415 -10.77251816 2.30688071 34 11 15519 12.09000000 1204847292 1204847292 11.00000000
2.54174709 -5.50084448 -0.31757459 39 12 15520 6.06800000 1204847295 1204847295 -3.00000000
4.42783403 -9.58710575 2.43801951 55 13 15521 10.83800000 1204847297 1204847297 13.00000000
2.53538156 -5.49210262 -0.10558706 29 14 15522 6.05000000 1204847299 1204847299 -1.00000000
3.57593298 -7.74968195 2.28692508 29 15 15523 8.83600000 1204847302 1204847302 15.00000000
0.85246360 -1.85338879 -0.54662585 4 0 15530 2.11200000 1204847322 1204847322 -15.00000000
6.00907469 -13.07067394 0.25110522 14 1 15531 14.38800000 1204847325 1204847325 1.00000000
0.99270946 -2.16029119 -0.54888058 3 2 15532 2.44000000 1204847327 1204847327 -13.00000000
5.33862162 -11.62302303 0.67031890 7 3 15533 12.80800000 1204847329 1204847329 3.00000000
6.03849268 -13.14675236 -2.81214309 4 4 15533 14.73800000 1204847332 1204847332 -11.00000000
6.00773287 -13.08580494 1.25974905 45 5 15534 14.45400000 1204847334 1204847334 5.00000000
1.41789484 -3.08982396 -0.53844744 1 6 15535 3.44200000 1204847336 1204847336 -9.00000000
6.00104141 -13.08327103 1.76734924 78 7 15536 14.50200000 1204847338 1204847338 7.00000000
2.52988577 -5.51811409 -0.74535292 6 8 15537 6.11600000 1204847341 1204847341 -7.00000000
5.74711990 -12.53545380 2.18413806 38 9 15537 13.96200000 1204847343 1204847343 9.00000000
2.61541104 -5.70728874 -0.54925549 11 10 15538 6.30200000 1204847345 1204847345 -5.00000000
4.95042658 -10.80768490 2.31069684 37 11 15539 12.11000000 1204847348 1204847348 11.00000000
2.52253008 -5.50968361 -0.31757459 35 12 15540 6.06800000 1204847350 1204847350 -3.00000000
4.40245104 -9.62022305 2.44251847 56 13 15541 10.85800000 1204847352 1204847352 13.00000000
2.51369977 -5.49546385 -0.10548235 29 14 15542 6.04400000 1204847355 1204847355 -1.00000000
3.55342889 -7.76852512 2.28899574 29 15 15542 8.84400000 1204847357 1204847357 15.00000000
0.84679002 -1.85811102 -0.54714346 4 0 15550 2.11400000 1204847378 1204847378 -15.00000000
5.29942989 -11.63391781 0.22314647 14 1 15551 12.78600000 1204847380 1204847380 1.00000000
0.97708750 -2.14600754 -0.54438156 3 2 15552 2.42000000 1204847382 1204847382 -13.00000000
5.29388046 -11.63249779 0.66979557 2 3 15553 12.79800000 1204847385 1204847385 3.00000000
5.97955370 -13.13916016 -2.80603719 4 4 15553 14.70600000 1204847387 1204847387 -11.00000000
5.96366835 -13.11032295 1.26009774 72 5 15554 14.45800000 1204847389 1204847389 5.00000000
1.40546548 -3.09115815 -0.53782171 3 6 15555 3.43800000 1204847391 1204847391 -9.00000000
5.93973064 -13.06980228 1.76271820 76 7 15556 14.46400000 1204847394 1204847394 7.00000000
2.50404048 -5.51245260 -0.74340302 9 8 15557 6.10000000 1204847396 1204847396 -7.00000000
5.71966743 -12.59140873 2.19039536 36 9 15557 14.00200000 1204847398 1204847398 9.00000000
2.60535741 -5.73815346 -0.55134726 11 10 15558 6.32600000 1204847401 1204847401 -5.00000000
4.92808580 -10.85886669 2.31794763 40 11 15559 12.14800000 1204847403 1204847403 11.00000000
2.49503160 -5.50026655 -0.31652787 35 12 15560 6.04800000 1204847405 1204847405 -3.00000000
4.37367201 -9.64618111 2.44521785 50 13 15561 10.87000000 1204847408 1204847408 13.00000000
2.49615264 -5.50784779 -0.10555215 31 14 15562 6.04800000 1204847410 1204847410 -1.00000000
3.53187203 -7.79319859 2.29261899 36 15 15562 8.85800000 1204847412 1204847412 15.00000000
0.84506875 -1.87161982 -0.55024928 4 0 15570 2.12600000 1204847433 1204847433 -15.00000000
5.91274309 -13.10136986 0.25089580 14 1 15571 14.37600000 1204847435 1204847435 1.00000000
0.97439843 -2.16006351 -0.54708099 3 2 15572 2.43200000 1204847438 1204847438 -13.00000000
5.83447409 -12.93998909 0.74390328 10 3 15573 14.21400000 1204847440 1204847440 3.00000000
1.14186311 -2.53248096 -0.53998947 3 4 15573 2.83000000 1204847442 1204847442 -11.00000000
5.90149593 -13.09473133 1.25661147 72 5 15574 14.41800000 1204847444 1204847444 5.00000000
1.40277994 -3.11405611 -0.54095036 3 6 15575 3.45800000 1204847447 1204847447 -9.00000000
5.88836718 -13.07778549 1.76101196 78 7 15576 14.45000000 1204847449 1204847449 7.00000000
2.47826576 -5.50667810 -0.74145311 9 8 15577 6.08400000 1204847451 1204847451 -7.00000000
5.68806648 -12.64471436 2.19602704 36 9 15578 14.03800000 1204847454 1204847454 9.00000000
2.57795548 -5.73085976 -0.54977840 11 10 15578 6.30800000 1204847456 1204847456 -5.00000000
4.90786362 -10.91539574 2.32634330 43 11 15579 12.19200000 1204847458 1204847458 11.00000000
2.47745419 -5.51258564 -0.31673720 35 12 15580 6.05200000 1204847461 1204847461 -3.00000000
4.34236908 -9.66672230 2.44656777 48 13 15581 10.87600000 1204847463 1204847463 13.00000000
2.47691154 -5.51652718 -0.10555215 33 14 15582 6.04800000 1204847465 1204847465 -1.00000000
3.51018620 -7.81781578 2.29624248 33 15 15582 8.87200000 1204847467 1204847467 15.00000000
0.83221972 -1.86045051 -0.54610819 4 0 15590 2.11000000 1204847488 1204847488 -15.00000000
5.85554743 -13.09637260 0.25040713 14 1 15591 14.34800000 1204847491 1204847491 1.00000000
0.96685249 -2.16345167 -0.54708099 3 2 15592 2.43200000 1204847493 1204847493 -13.00000000
5.85525131 -13.10798740 0.75238168 10 3 15593 14.37600000 1204847495 1204847495 3.00000000
1.13221538 -2.53465891 -0.53960782 3 4 15593 2.82800000 1204847497 1204847497 -11.00000000
5.84437895 -13.08978176 1.25417113 72 5 15594 14.39000000 1204847500 1204847500 5.00000000
1.38465607 -3.10269856 -0.53813457 3 6 15595 3.44000000 1204847502 1204847502 -9.00000000
5.83702087 -13.08556938 1.75930583 75 7 15596 14.43600000 1204847504 1204847504 7.00000000
2.46226215 -5.52254725 -0.74242806 9 8 15597 6.09200000 1204847507 1204847507 -7.00000000
5.65836716 -12.69696999 2.20165873 36 9 15598 14.07400000 1204847509 1204847509 9.00000000
2.55063605 -5.72344494 -0.54820961 11 10 15598 6.29000000 1204847511 1204847511 -5.00000000
4.88331223 -10.96294880 2.33283067 40 11 15599 12.22600000 1204847514 1204847514 11.00000000
2.45982146 -5.52484941 -0.31694654 35 12 15600 6.05600000 1204847516 1204847516 -3.00000000
4.31810760 -9.70318508 2.45196652 47 13 15601 10.90000000 1204847518 1204847518 13.00000000
2.45357656 -5.51600409 -0.10537763 33 14 15602 6.03800000 1204847520 1204847520 -1.00000000
3.47993922 -7.82709837 2.29520726 33 15 15603 8.86800000 1204847523 1204847523 15.00000000
0.82134777 -1.85260367 -0.54300237 4 0 15609 2.09800000 1204847544 1204847544 -15.00000000
5.80236435 -13.09377956 0.24998827 14 1 15610 14.32400000 1204847546 1204847546 1.00000000
0.95967293 -2.16664577 -0.54708099 3 2 15611 2.43200000 1204847548 1204847548 -13.00000000
5.79962349 -13.09993744 0.75081164 10 3 15612 14.34600000 1204847550 1204847550 3.00000000
1.12618828 -2.54378510 -0.54075271 3 4 15612 2.83400000 1204847553 1204847553 -11.00000000
5.78723335 -13.07811737 1.25120783 67 5 15613 14.35600000 1204847555 1204847555 5.00000000
1.37116337 -3.10004711 -0.53688306 3 6 15614 3.43200000 1204847557 1204847557 -9.00000000
5.78396320 -13.08306694 1.75638103 73 7 15615 14.41200000 1204847560 1204847560 7.00000000
2.44313288 -5.52886629 -0.74218428 9 8 15616 6.09000000 1204847562 1204847562 -7.00000000
5.63538551 -12.75903225 2.20916748 39 9 15617 14.12200000 1204847564 1204847564 9.00000000
2.53164244 -5.73187160 -0.54820961 11 10 15617 6.29000000 1204847567 1204847567 -5.00000000
4.85644531 -11.00063419 2.33741021 34 11 15618 12.25000000 1204847569 1204847569 11.00000000
2.43987417 -5.52932119 -0.31673720 35 12 15619 6.05200000 1204847571 1204847571 -3.00000000
4.11682987 -9.33410263 2.35523748 48 13 15620 10.47000000 1204847573 1204847573 13.00000000
2.43365788 -5.52045059 -0.10530782 36 14 15621 6.03400000 1204847576 1204847576 -1.00000000
3.45533252 -7.83799219 2.29520726 31 15 15621 8.86800000 1204847578 1204847578 15.00000000
0.81953686 -1.86607218 -0.54610819 4 0 15629 2.11000000 1204847599 1204847599 -15.00000000
5.67785311 -12.93451118 0.24656759 10 1 15630 14.12800000 1204847601 1204847601 1.00000000
0.94897217 -2.16284442 -0.54528135 3 2 15631 2.42400000 1204847603 1204847603 -13.00000000
5.72899389 -13.06340027 0.74756682 10 3 15632 14.28400000 1204847606 1204847606 3.00000000
1.11887896 -2.55129671 -0.54151595 3 4 15632 2.83800000 1204847608 1204847608 -11.00000000
5.73354816 -13.07999039 1.24946475 63 5 15633 14.33600000 1204847610 1204847610 5.00000000
1.35478461 -3.09214902 -0.53469300 1 6 15634 3.41800000 1204847613 1204847613 -9.00000000
5.72870398 -13.08135605 1.75345612 71 7 15635 14.38800000 1204847615 1204847615 7.00000000
2.42541051 -5.54099798 -0.74267179 9 8 15636 6.09400000 1204847617 1204847617 -7.00000000
5.61456776 -12.83291721 2.21855354 36 9 15637 14.18200000 1204847620 1204847620 9.00000000
2.51161909 -5.74067402 -0.54820961 7 10 15637 6.29000000 1204847622 1204847622 -5.00000000
4.82666922 -11.03730583 2.34160805 40 11 15638 12.27200000 1204847624 1204847624 11.00000000
2.41735864 -5.53048420 -0.31631851 39 12 15639 6.04400000 1204847626 1204847626 -3.00000000
4.27458572 -9.78413963 2.46501374 50 13 15640 10.95800000 1204847629 1204847629 13.00000000
2.41757417 -5.53624249 -0.10544744 36 14 15641 6.04200000 1204847631 1204847631 -1.00000000
3.42795181 -7.85000610 2.29520726 33 15 15641 8.86800000 1204847633 1204847633 15.00000000
0.81236565 -1.86920512 -0.54610819 4 0 15651 2.11000000 1204847655 1204847655 -15.00000000
5.68710518 -13.09194183 0.24915056 14 1 15652 14.27600000 1204847657 1204847657 1.00000000
0.93600368 -2.15574718 -0.54258192 3 2 15653 2.41200000 1204847660 1204847660 -13.00000000
5.69062090 -13.10629463 0.74882287 10 3 15653 14.30800000 1204847662 1204847662 3.00000000
1.10751128 -2.55197215 -0.54075271 3 4 15654 2.83400000 1204847664 1204847664 -11.00000000
5.67852497 -13.09094238 1.24841881 58 5 15655 14.32400000 1204847667 1204847667 5.00000000
1.34525907 -3.10276532 -0.53563160 1 6 15656 3.42400000 1204847669 1204847669 -9.00000000
5.66738224 -13.07775688 1.75004375 76 7 15657 14.36000000 1204847671 1204847671 7.00000000
2.39701581 -5.53387594 -0.74047816 9 8 15658 6.07600000 1204847673 1204847673 -7.00000000
5.58947897 -12.90416336 2.22731400 36 9 15658 14.23800000 1204847676 1204847676 9.00000000
2.48955798 -5.75027561 -0.54820961 7 10 15659 6.29000000 1204847678 1204847678 -5.00000000
4.79594898 -11.08278465 2.34733224 37 11 15660 12.30200000 1204847680 1204847680 11.00000000
2.39451957 -5.53605890 -0.31610918 35 12 15661 6.04000000 1204847683 1204847683 -3.00000000
4.24085236 -9.80942440 2.46726322 51 13 15662 10.96800000 1204847685 1204847685 13.00000000
2.39233279 -5.53630590 -0.10527292 20 14 15663 6.03200000 1204847687 1204847687 -1.00000000
3.40085006 -7.87020397 2.29727793 33 15 15663 8.87600000 1204847690 1204847690 15.00000000
0.81041890 -1.88267601 -0.54921401 4 0 15671 2.12200000 1204847710 1204847710 -15.00000000
5.63979053 -13.10803986 0.24908075 14 1 15672 14.27200000 1204847713 1204847713 1.00000000
0.93309230 -2.16974258 -0.54528135 3 2 15673 2.42400000 1204847715 1204847715 -13.00000000
5.63150358 -13.10137463 0.74735743 10 3 15674 14.28000000 1204847717 1204847717 3.00000000
1.09549522 -2.54860783 -0.53922623 3 4 15674 2.82600000 1204847720 1204847720 -11.00000000
5.62728930 -13.09787083 1.24719870 63 5 15675 14.31000000 1204847722 1204847722 5.00000000
1.33987629 -3.12014794 -0.53782171 3 6 15676 3.43800000 1204847724 1204847724 -9.00000000
5.61308527 -13.07739449 1.74736261 78 7 15677 14.33800000 1204847726 1204847726 7.00000000
2.37142324 -5.52761507 -0.73852819 2 8 15678 6.06000000 1204847729 1204847729 -7.00000000
5.57250690 -12.99536800 2.23951578 39 9 15679 14.31600000 1204847731 1204847731 9.00000000
2.46475935 -5.74794388 -0.54716372 7 10 15679 6.27800000 1204847733 1204847733 -5.00000000
4.77347517 -11.13735199 2.35534620 40 11 15680 12.34400000 1204847736 1204847736 11.00000000
4.21578979 -9.84566498 2.47266197 55 13 15682 10.99200000 1204847740 1204847740 13.00000000
5.61540127 -13.12068176 -0.24911565 9 14 15683 14.27400000 1204847743 1204847743 -1.00000000
3.37502050 -7.88972044 2.29934835 31 15 15684 8.88400000 1204847745 1204847745 15.00000000
0.80146730 -1.87810552 -0.54714346 4 0 15689 2.11400000 1204847766 1204847766 -15.00000000
5.37341547 -12.59779549 0.23906307 24 1 15690 13.69800000 1204847768 1204847768 1.00000000
0.92932826 -2.17983389 -0.54708099 3 2 15691 2.43200000 1204847770 1204847770 -13.00000000
5.37485504 -12.60726833 0.71825868 10 3 15691 13.72400000 1204847773 1204847773 3.00000000
1.08902240 -2.55564904 -0.53998947 3 4 15692 2.83000000 1204847775 1204847775 -11.00000000
5.57362175 -13.08615589 1.24440968 76 5 15693 14.27800000 1204847777 1204847777 5.00000000
1.33006752 -3.12434196 -0.53782171 3 6 15694 3.43800000 1204847779 1204847779 -9.00000000
5.56575584 -13.08035088 1.74541271 80 7 15695 14.32200000 1204847782 1204847782 7.00000000
1.72474658 -4.05537415 -0.54109991 2 8 15696 4.44000000 1204847784 1204847784 -7.00000000
5.54710913 -13.04916954 2.24577308 61 9 15697 14.35600000 1204847786 1204847786 9.00000000
2.44513059 -5.75199127 -0.54681516 7 10 15697 6.27400000 1204847789 1204847789 -5.00000000
4.75535297 -11.19204617 2.36374187 43 11 15698 12.38800000 1204847791 1204847791 11.00000000
3.89341140 -9.16785336 -0.52199882 8 12 15699 9.97400000 1204847793 1204847793 -3.00000000
4.19702101 -9.88756180 2.47986031 50 13 15700 11.02400000 1204847796 1204847796 13.00000000
5.34687614 -12.60256672 -0.23895834 9 14 15701 13.69200000 1204847798 1204847798 -1.00000000
3.34857845 -7.89258575 2.29727793 33 15 15701 8.87600000 1204847800 1204847800 15.00000000
0.78889030 -1.86665595 -0.54300237 4 0 15709 2.09800000 1204847821 1204847821 -15.00000000
5.52938747 -13.08989334 0.24803360 10 1 15710 14.21200000 1204847823 1204847823 1.00000000
0.92171359 -2.18306446 -0.54708099 3 2 15711 2.43200000 1204847825 1204847825 -13.00000000
5.53124475 -13.10066891 0.74526399 10 3 15711 14.24000000 1204847828 1204847828 3.00000000
5.53863525 -13.12456417 -2.76902008 4 4 15712 14.51200000 1204847830 1204847830 -11.00000000
5.51474524 -13.07432365 1.24144638 76 5 15713 14.24400000 1204847832 1204847832 5.00000000
1.31761861 -3.12532520 -0.53719598 1 6 15714 3.43400000 1204847835 1204847835 -9.00000000
5.51235485 -13.08140659 1.74297535 80 7 15715 14.30200000 1204847837 1204847837 7.00000000
1.70903909 -4.05771112 -0.54061240 2 8 15716 4.43600000 1204847839 1204847839 -7.00000000
5.49922609 -13.06299114 2.24483466 72 9 15717 14.35000000 1204847842 1204847842 9.00000000
2.42039943 -5.74947357 -0.54576927 7 10 15717 6.26200000 1204847844 1204847844 -5.00000000
4.72691631 -11.23391056 2.36908460 43 11 15718 12.41600000 1204847846 1204847846 11.00000000
3.85209441 -9.15929508 -0.52074277 8 12 15719 9.95000000 1204847849 1204847849 -3.00000000
4.17380905 -9.92909908 2.48660898 46 13 15720 11.05400000 1204847851 1204847851 13.00000000
5.50966835 -13.11338997 -0.24827793 9 14 15721 14.22600000 1204847853 1204847853 -1.00000000
3.31951118 -7.90066433 2.29624248 33 15 15721 8.87200000 1204847855 1204847855 15.00000000
0.78684461 -1.88009083 -0.54610819 4 0 15729 2.11000000 1204847876 1204847876 -15.00000000
5.47903109 -13.09804535 0.24782418 14 1 15730 14.20000000 1204847878 1204847878 1.00000000
0.90957731 -2.17548108 -0.54438156 4 2 15731 2.42000000 1204847881 1204847881 -13.00000000
5.47394991 -13.09873962 0.74400795 10 3 15732 14.21600000 1204847883 1204847883 3.00000000
5.48521805 -13.12570381 -2.76520395 4 4 15732 14.49200000 1204847885 1204847885 -11.00000000
5.46216249 -13.07694817 1.23987758 76 5 15733 14.22600000 1204847888 1204847888 5.00000000
1.30213487 -3.11896825 -0.53531873 1 6 15734 3.42200000 1204847890 1204847890 -9.00000000
5.45442724 -13.07125664 1.73907554 84 7 15735 14.27000000 1204847892 1204847892 7.00000000
1.68722320 -4.04533100 -0.53817505 2 8 15736 4.41600000 1204847895 1204847895 -7.00000000
5.44675255 -13.05927753 2.24108005 76 9 15736 14.32600000 1204847897 1204847897 9.00000000
2.39878201 -5.75420952 -0.54542065 7 10 15737 6.25800000 1204847899 1204847899 -5.00000000
4.69673491 -11.27208900 2.37366390 43 11 15738 12.44000000 1204847902 1204847902 11.00000000
3.81011701 -9.14871693 -0.51938200 8 12 15739 9.92400000 1204847904 1204847904 -3.00000000
4.14960909 -9.96879578 2.49290752 46 13 15740 11.08200000 1204847906 1204847906 13.00000000
5.45848370 -13.11961842 -0.24803360 9 14 15741 14.21200000 1204847908 1204847908 -1.00000000
3.29424024 -7.92169714 2.29883075 31 15 15742 8.88200000 1204847911 1204847911 15.00000000
0.78471464 -1.89353395 -0.54921401 4 0 15749 2.12200000 1204847931 1204847931 -15.00000000
5.42332888 -13.09307384 0.24737041 14 1 15750 14.17400000 1204847934 1204847934 1.00000000
0.90197796 -2.17864275 -0.54438156 3 2 15751 2.42000000 1204847936 1204847936 -13.00000000
5.41978693 -13.09098530 0.74254256 10 3 15751 14.18800000 1204847938 1204847938 3.00000000
5.43110991 -13.12481594 -2.76100612 4 4 15752 14.47000000 1204847941 1204847941 -11.00000000
5.40962839 -13.07936478 1.23830879 81 5 15753 14.20800000 1204847943 1204847943 5.00000000
1.28973043 -3.11984348 -0.53469300 1 6 15754 3.41800000 1204847945 1204847945 -9.00000000
5.39663744 -13.06086159 1.73517573 78 7 15755 14.23800000 1204847948 1204847948 7.00000000
1.67309213 -4.05119562 -0.53817505 2 8 15756 4.41600000 1204847950 1204847950 -7.00000000
5.39131403 -13.06089401 2.23795152 76 9 15757 14.30600000 1204847952 1204847952 9.00000000
2.38324261 -5.77359772 -0.54646653 7 10 15757 6.27000000 1204847955 1204847955 -5.00000000
4.67158604 -11.32289791 2.38091469 40 11 15758 12.47800000 1204847957 1204847957 11.00000000
3.77206755 -9.14719009 -0.51854467 4 12 15759 9.90800000 1204847959 1204847959 -3.00000000
4.12072706 -9.99763298 2.49650669 50 13 15760 11.09800000 1204847961 1204847961 13.00000000
5.40732241 -13.12564945 -0.24778926 9 14 15761 14.19800000 1204847964 1204847964 -1.00000000
3.27024603 -7.94207954 2.30141902 31 15 15762 8.89200000 1204847966 1204847966 15.00000000
0.77516675 -1.88911259 -0.54714346 4 0 15769 2.11400000 1204847987 1204847987 -15.00000000
5.37228107 -13.09897423 0.24712607 14 1 15770 14.16000000 1204847989 1204847989 1.00000000
0.89584589 -2.18538427 -0.54528135 3 2 15771 2.42400000 1204847991 1204847991 -13.00000000
5.36345196 -13.08395195 0.74107713 10 3 15771 14.16000000 1204847994 1204847994 3.00000000
1.05546689 -2.57605505 -0.54113430 3 4 15772 2.83600000 1204847996 1204847996 -11.00000000
5.35714436 -13.08157349 1.23673999 72 5 15773 14.19000000 1204847998 1204847998 5.00000000
1.27883232 -3.12432647 -0.53469300 1 6 15774 3.41800000 1204848001 1204848001 -9.00000000
5.34575224 -13.06675911 1.73346949 76 7 15775 14.22400000 1204848003 1204848003 7.00000000
1.65142727 -4.03863716 -0.53573763 2 8 15776 4.39600000 1204848005 1204848005 -7.00000000
5.33526278 -13.04761696 2.23263264 72 9 15776 14.27200000 1204848008 1204848008 9.00000000
2.35704422 -5.76712704 -0.54507202 7 10 15777 6.25400000 1204848010 1204848010 -5.00000000
4.64316988 -11.36639786 2.38663888 37 11 15778 12.50800000 1204848012 1204848012 11.00000000
3.72803521 -9.13071632 -0.51686990 8 12 15779 9.87600000 1204848014 1204848014 -3.00000000
4.09169436 -10.02639008 2.50010610 50 13 15780 11.11400000 1204848017 1204848017 13.00000000
5.34561205 -13.10556126 -0.24705626 9 14 15781 14.15600000 1204848019 1204848019 -1.00000000
3.24906683 -7.96954632 2.30607772 36 15 15782 8.91000000 1204848021 1204848021 15.00000000
0.76711357 -1.88822734 -0.54610819 4 0 15789 2.11000000 1204848042 1204848042 -15.00000000
5.31448698 -13.08800316 0.24656759 14 1 15790 14.12800000 1204848044 1204848044 1.00000000
0.89114338 -2.19572091 -0.54708099 3 2 15791 2.43200000 1204848047 1204848047 -13.00000000
5.31173897 -13.08778858 0.74023974 10 3 15791 14.14400000 1204848049 1204848049 3.00000000
5.32680416 -13.13148403 -2.75451875 4 4 15792 14.43600000 1204848051 1204848051 -11.00000000
5.30096817 -13.07434464 1.23429966 54 5 15793 14.16200000 1204848054 1204848054 5.00000000
1.27311194 -3.14158654 -0.53688306 1 6 15794 3.43200000 1204848056 1204848056 -9.00000000
5.29265594 -13.06694031 1.73103213 76 7 15795 14.20400000 1204848058 1204848058 7.00000000
1.63136041 -4.02965689 -0.53378773 2 8 15796 4.38000000 1204848061 1204848061 -7.00000000
5.28079033 -13.04418850 2.22887826 72 9 15796 14.24800000 1204848063 1204848063 9.00000000
2.33390951 -5.76793194 -0.54437476 7 10 15797 6.24600000 1204848065 1204848065 -5.00000000
4.62039566 -11.42439651 2.39541602 43 11 15798 12.55400000 1204848067 1204848067 11.00000000
3.69389486 -9.13811874 -0.51655591 8 12 15799 9.87000000 1204848070 1204848070 -3.00000000
4.07054090 -10.07494164 2.50865412 51 13 15800 11.15200000 1204848072 1204848072 13.00000000
5.28860092 -13.09632778 -0.24653269 9 14 15801 14.12600000 1204848074 1204848074 -1.00000000
3.21616673 -7.96829939 2.30245423 33 15 15802 8.89600000 1204848077 1204848077 15.00000000
0.75475079 -1.87655509 -0.54196709 4 0 15809 2.09400000 1204848097 1204848097 -15.00000000
4.80409670 -11.95056629 0.22482190 21 1 15810 12.88200000 1204848100 1204848100 1.00000000
0.88347346 -2.19881821 -0.54708099 3 2 15811 2.43200000 1204848102 1204848102 -13.00000000
4.81030846 -11.97205544 0.67618054 30 3 15811 12.92000000 1204848104 1204848104 3.00000000
1.03233552 -2.57060790 -0.53846300 3 4 15812 2.82200000 1204848107 1204848107 -11.00000000
4.81519175 -11.99631214 1.13093293 21 5 15813 12.97600000 1204848109 1204848109 5.00000000
1.25919592 -3.13867807 -0.53563160 1 6 15814 3.42400000 1204848111 1204848111 -9.00000000
5.24257851 -13.07428074 1.72956967 75 7 15815 14.19200000 1204848113 1204848113 7.00000000
1.62466919 -4.05375290 -0.53622514 2 8 15816 4.40000000 1204848116 1204848116 -7.00000000
5.22787666 -13.04420662 2.22574949 72 9 15816 14.22800000 1204848118 1204848118 9.00000000
2.31079793 -5.76864576 -0.54367751 7 10 15817 6.23800000 1204848120 1204848120 -5.00000000
4.58997536 -11.46414948 2.40037727 46 11 15818 12.58000000 1204848123 1204848123 11.00000000
3.66568470 -9.16022873 -0.51707923 4 12 15819 9.88000000 1204848125 1204848125 -3.00000000
4.04909801 -10.12346745 2.51720238 52 13 15820 11.19000000 1204848127 1204848127 13.00000000
4.79005194 -11.98204899 -0.22524075 29 14 15821 12.90600000 1204848130 1204848130 -1.00000000
3.18972540 -7.97892046 2.30245423 33 15 15821 8.89600000 1204848132 1204848132 15.00000000
0.75248343 -1.88994718 -0.54507291 4 0 15829 2.10600000 1204848153 1204848153 -15.00000000
4.78231573 -12.01742840 0.22576433 35 1 15830 12.93600000 1204848155 1204848155 1.00000000
0.87291187 -2.19464564 -0.54528135 3 2 15831 2.42400000 1204848157 1204848157 -13.00000000
4.81942177 -12.11682701 0.68340290 20 3 15831 13.05800000 1204848160 1204848160 3.00000000
1.02190566 -2.57054710 -0.53769976 3 4 15832 2.81800000 1204848162 1204848162 -11.00000000
1.24823225 -3.14305449 -0.53563160 3 6 15834 3.42400000 1204848166 1204848166 -9.00000000
5.18812037 -13.07036018 1.72664487 76 7 15835 14.16800000 1204848169 1204848169 7.00000000
4.76783895 -12.01766777 -1.58747005 5 8 15836 13.02600000 1204848171 1204848171 -7.00000000
5.17502737 -13.04401398 2.22262096 72 9 15836 14.20800000 1204848173 1204848173 9.00000000
2.29064751 -5.77667665 -0.54367751 7 10 15837 6.23800000 1204848176 1204848176 -5.00000000
4.56150341 -11.50930309 2.40648293 43 11 15838 12.61200000 1204848178 1204848178 11.00000000
3.62412477 -9.14882851 -0.51571852 8 12 15839 9.85400000 1204848180 1204848180 -3.00000000
4.02880096 -10.17558956 2.52665019 56 13 15840 11.23200000 1204848183 1204848183 13.00000000
4.77763033 -12.07307243 -0.22663695 18 14 15841 12.98600000 1204848185 1204848185 -1.00000000
3.16543341 -8.00313282 2.30607772 36 15 15842 8.91000000 1204848187 1204848187 15.00000000
0.74729836 -1.89615691 -0.54610819 4 0 15849 2.11000000 1204848208 1204848208 -15.00000000
0.86381799 -2.19405270 -0.54438156 3 2 15851 2.42000000 1204848213 1204848213 -13.00000000
4.85103941 -12.32769775 0.69428879 10 3 15852 13.26600000 1204848215 1204848215 3.00000000
1.01867771 -2.58871365 -0.54075271 3 4 15852 2.83400000 1204848217 1204848217 -11.00000000
5.09959221 -12.96597385 1.21896017 67 5 15853 13.98600000 1204848219 1204848219 5.00000000
1.23508525 -3.14187717 -0.53469300 3 6 15854 3.41800000 1204848222 1204848222 -9.00000000
5.12794638 -13.05143929 1.72177005 76 7 15855 14.12800000 1204848224 1204848224 7.00000000
4.78535986 -12.18575001 -1.60745668 2 8 15856 13.19000000 1204848226 1204848226 -7.00000000
5.12513161 -13.05096722 2.22074366 76 9 15856 14.19600000 1204848229 1204848229 9.00000000
2.26318979 -5.76609087 -0.54193443 7 10 15857 6.21800000 1204848231 1204848231 -5.00000000
4.53564072 -11.56170940 2.41411543 43 11 15858 12.65200000 1204848233 1204848233 11.00000000
3.58123112 -9.13353252 -0.51414841 8 12 15859 9.82400000 1204848236 1204848236 -3.00000000
3.99965644 -10.20592022 2.53069925 53 13 15860 11.25000000 1204848238 1204848238 13.00000000
4.82005930 -12.30566311 -0.23068590 6 14 15861 13.21800000 1204848240 1204848240 -1.00000000
3.14028573 -8.01718330 2.30711293 36 15 15861 8.91400000 1204848243 1204848243 15.00000000
0.74137706 -1.90055370 -0.54662585 4 0 15869 2.11200000 1204848263 1204848263 -15.00000000
4.80871391 -12.33371353 0.23106986 14 1 15870 13.24000000 1204848266 1204848266 1.00000000
0.85473895 -2.19342303 -0.54348177 3 2 15871 2.41600000 1204848268 1204848268 -13.00000000
5.06385231 -13.00151825 0.73123801 15 3 15872 13.97200000 1204848270 1204848270 3.00000000
1.00678515 -2.58493614 -0.53922623 3 4 15872 2.82600000 1204848272 1204848272 -11.00000000
4.82446194 -12.39327526 1.16352916 17 5 15873 13.35000000 1204848275 1204848275 5.00000000
1.22912443 -3.15905595 -0.53688306 1 6 15874 3.43200000 1204848277 1204848277 -9.00000000
5.07732058 -13.05630875 1.72006392 78 7 15875 14.11400000 1204848279 1204848279 7.00000000
1.57853436 -4.06129265 -0.53500640 2 8 15876 4.39000000 1204848282 1204848282 -7.00000000
5.06867933 -13.04756832 2.21698928 76 9 15877 14.17200000 1204848284 1204848284 9.00000000
2.25026321 -5.79252720 -0.54367751 7 10 15877 6.23800000 1204848286 1204848286 -5.00000000
4.50804567 -11.61041355 2.42098451 40 11 15878 12.68800000 1204848289 1204848289 11.00000000
3.53776598 -9.11618614 -0.51247370 8 12 15879 9.79200000 1204848291 1204848291 -3.00000000
3.97105384 -10.23798847 2.53519845 51 13 15880 11.27000000 1204848293 1204848293 13.00000000
5.03584242 -12.98990059 -0.24318182 9 14 15881 13.93400000 1204848296 1204848296 -1.00000000
3.11506820 -8.03944778 2.31021881 36 15 15882 8.92600000 1204848298 1204848298 15.00000000
0.73404258 -1.90132773 -0.54610819 4 0 15889 2.11000000 1204848319 1204848319 -15.00000000
0.84847969 -2.20002985 -0.54438156 3 2 15891 2.42000000 1204848323 1204848323 -13.00000000
0.99493140 -2.58110714 -0.53769976 3 4 15892 2.81800000 1204848328 1204848328 -11.00000000
4.83919096 -12.56063366 1.17764843 17 5 15893 13.51200000 1204848330 1204848330 5.00000000
1.21596026 -3.15779662 -0.53594446 1 6 15894 3.42600000 1204848332 1204848332 -9.00000000
5.02886248 -13.06654167 1.71908891 82 7 15895 14.10600000 1204848335 1204848335 7.00000000
4.80279827 -12.48565674 -1.64255500 2 8 15896 13.47800000 1204848337 1204848337 -7.00000000
5.01332760 -13.03296185 2.21167040 79 9 15896 14.13800000 1204848339 1204848339 9.00000000
2.23002982 -5.80034685 -0.54367751 7 10 15897 6.23800000 1204848342 1204848342 -5.00000000
4.47805357 -11.65356827 2.42670870 40 11 15898 12.71800000 1204848344 1204848344 11.00000000
3.50950336 -9.13780212 -0.51299703 8 12 15899 9.80200000 1204848346 1204848346 -3.00000000
3.58541107 -9.34031487 2.30979753 16 13 15900 10.26800000 1204848349 1204848349 13.00000000
4.72328806 -12.31100845 -0.23016234 27 14 15901 13.18800000 1204848351 1204848351 -1.00000000
3.08562326 -8.04251862 2.30814815 36 15 15901 8.91800000 1204848353 1204848353 15.00000000
0.72464335 -1.89665997 -0.54403764 4 0 15909 2.10200000 1204848374 1204848374 -15.00000000
4.82022285 -12.62291622 0.23585182 14 1 15910 13.51400000 1204848376 1204848376 1.00000000
0.84357446 -2.21026063 -0.54618114 3 2 15911 2.42800000 1204848378 1204848378 -13.00000000
4.96299648 -13.01042843 0.72977257 20 3 15912 13.94400000 1204848381 1204848381 3.00000000
0.98591560 -2.58456445 -0.53769976 3 4 15912 2.81800000 1204848383 1204848383 -11.00000000
4.90320396 -12.86042309 1.20414376 17 5 15913 13.81600000 1204848385 1204848385 5.00000000
1.20915043 -3.17309737 -0.53782171 1 6 15914 3.43800000 1204848388 1204848388 -9.00000000
4.97474289 -13.06175518 1.71616411 82 7 15915 14.08200000 1204848390 1204848390 7.00000000
4.74506187 -12.46524143 -1.63768029 2 8 15916 13.43800000 1204848392 1204848392 -7.00000000
4.96131134 -13.04017162 2.20979333 76 9 15917 14.12600000 1204848395 1204848395 9.00000000
2.19843364 -5.77830124 -0.54088855 7 10 15917 6.20600000 1204848397 1204848397 -5.00000000
4.44781494 -11.69665432 2.43243313 43 11 15918 12.74800000 1204848399 1204848399 11.00000000
3.47048950 -9.13132668 -0.51195031 4 12 15919 9.78200000 1204848401 1204848401 -3.00000000
3.55555344 -9.36006069 2.31159711 46 13 15920 10.27600000 1204848404 1204848404 13.00000000
4.89818811 -12.90135384 -0.24087812 11 14 15921 13.80200000 1204848406 1204848406 -1.00000000
3.05818129 -8.05919266 2.30970120 33 15 15922 8.92400000 1204848408 1204848408 15.00000000
0.71665198 -1.89556384 -0.54300237 4 0 15929 2.09800000 1204848429 1204848429 -15.00000000
4.87862349 -12.91090298 0.24091302 17 1 15930 13.80400000 1204848431 1204848431 1.00000000
0.83447707 -2.20954561 -0.54528135 3 2 15931 2.42400000 1204848434 1204848434 -13.00000000
4.92248869 -13.04075241 0.73050529 50 3 15932 13.95800000 1204848436 1204848436 3.00000000
0.97966105 -2.59533715 -0.53922623 3 4 15932 2.82600000 1204848438 1204848438 -11.00000000
4.92931461 -13.06573772 1.22174919 58 5 15933 14.01800000 1204848441 1204848441 5.00000000
1.18761265 -3.14957356 -0.53312868 1 6 15934 3.40800000 1204848443 1204848443 -9.00000000
4.91931772 -13.05303478 1.71275175 80 7 15935 14.05400000 1204848445 1204848445 7.00000000
1.53591883 -4.07760000 -0.53500640 2 8 15936 4.39000000 1204848448 1204848448 -7.00000000
4.91107798 -13.03806686 2.20666456 76 9 15936 14.10600000 1204848450 1204848450 9.00000000
2.17684603 -5.78221083 -0.54053992 3 10 15937 6.20200000 1204848452 1204848452 -5.00000000
4.41663837 -11.73783302 2.43777561 46 11 15938 12.77600000 1204848454 1204848454 11.00000000
3.42523623 -9.10786629 -0.50996155 8 12 15939 9.74400000 1204848457 1204848457 -3.00000000
3.52765870 -9.38518333 2.31474638 48 13 15940 10.29000000 1204848459 1204848459 13.00000000
4.87844133 -12.98576355 -0.24213469 15 14 15941 13.87400000 1204848461 1204848461 -1.00000000
3.03143930 -8.06928921 2.30970120 33 15 15941 8.92400000 1204848464 1204848464 15.00000000
0.71544582 -1.91252899 -0.54714346 4 0 15949 2.11400000 1204848484 1204848484 -15.00000000
4.86854172 -13.02150631 0.24265826 14 1 15950 13.90400000 1204848487 1204848487 1.00000000
