# .PCD v0.7 - Point Cloud Data file format
VERSION 0.7
FIELDS x y z intensity laser_id azimuth distance_m adjustedtime timestamp vertical_angle
SIZE 4 4 4 1 1 2 8 8 4 8
TYPE F F F U U U F U U F
COUNT 1 1 1 1 1 1 1 1 1 1
WIDTH 534
HEIGHT 1
VIEWPOINT 0 0 0 1 0 0 0
POINTS 534
DATA ascii
8.44547462 14.17866611 -0.86490399 4 12 3078 16.52600000 1204212828 1204212828 -3.00000000
5.20020914 8.72689438 2.34533978 57 13 3079 10.42600000 1204212830 1204212830 13.00000000
8.44844437 14.17239761 -0.28799960 7 14 3080 16.50200000 1204212833 1204212833 -1.00000000
4.50708342 7.55770350 2.35784149 31 15 3081 9.11000000 1204212835 1204212835 15.00000000
1.17196107 1.95975637 -0.61184824 4 0 3088 2.36400000 1204212856 1204212856 -15.00000000
8.45734978 14.13680077 0.28754586 10 1 3089 16.47600000 1204212858 1204212858 1.00000000
1.38705122 2.31759357 -0.62356430 3 2 3090 2.77200000 1204212860 1204212860 -13.00000000
8.47249317 14.15089989 0.86438066 47 3 3091 16.51600000 1204212863 1204212863 3.00000000
1.68521369 2.81467199 -0.63768369 2 4 3091 3.34200000 1204212865 1204212865 -11.00000000
19.43936157 32.45508957 3.30982637 42 5 3092 37.97600000 1204212867 1204212867 5.00000000
2.12710547 3.54991460 -0.65546042 2 6 3093 4.19000000 1204212870 1204212870 -9.00000000
8.52724457 14.22544003 2.03643680 54 7 3094 16.71000000 1204212872 1204212872 7.00000000
2.86161876 4.77196121 -0.68319952 6 8 3095 5.60600000 1204212874 1204212874 -7.00000000
6.48967266 10.82201004 1.99860668 47 9 3095 12.77600000 1204212876 1204212876 9.00000000
4.29972363 7.16727066 -0.73123670 8 10 3096 8.39000000 1204212879 1204212879 -5.00000000
6.09091473 10.14901733 2.30077481 50 11 3097 12.05800000 1204212881 1204212881 11.00000000
8.43940067 14.05663300 -0.85925174 9 12 3098 16.41800000 1204212883 1204212883 -3.00000000
5.22060585 8.69198322 2.34084058 59 13 3099 10.40600000 1204212886 1204212886 13.00000000
8.45254707 14.06740093 -0.28646380 7 14 3100 16.41400000 1204212888 1204212888 -1.00000000
4.53908587 7.55430746 2.36146498 40 15 3100 9.12400000 1204212890 1204212890 15.00000000
1.18477845 1.96558070 -0.61495405 4 0 3108 2.37600000 1204212911 1204212911 -15.00000000
8.45501423 14.02157021 0.28580061 10 1 3109 16.37600000 1204212913 1204212913 1.00000000
1.40318537 2.32608700 -0.62716353 3 2 3110 2.78800000 1204212916 1204212916 -13.00000000
8.46301651 14.02376842 0.85841435 50 3 3111 16.40200000 1204212918 1204212918 3.00000000
1.67879844 2.78187799 -0.63157779 2 4 3111 3.31000000 1204212920 1204212920 -11.00000000
8.57559967 14.20472050 1.45166600 4 5 3112 16.65600000 1204212923 1204212923 5.00000000
2.14152646 3.54584980 -0.65608615 2 6 3113 4.19400000 1204212925 1204212925 -9.00000000
8.53065300 14.11913013 2.02546859 45 7 3114 16.62000000 1204212927 1204212927 7.00000000
2.87825847 4.76194334 -0.68319952 6 8 3115 5.60600000 1204212929 1204212929 -7.00000000
6.52929354 10.79815102 1.99860668 47 9 3116 12.77600000 1204212932 1204212932 9.00000000
4.32471561 7.15221834 -0.73123670 8 10 3116 8.39000000 1204212934 1204212934 -5.00000000
6.12325573 10.12265491 2.29962993 50 11 3117 12.05200000 1204212936 1204212936 11.00000000
8.43671417 13.94165134 -0.85401815 9 12 3118 16.31800000 1204212939 1204212939 -3.00000000
5.24687815 8.66703892 2.33904099 60 13 3119 10.39800000 1204212941 1204212941 13.00000000
8.44359016 13.94202423 -0.28450912 7 14 3120 16.30200000 1204212943 1204212943 -1.00000000
4.56073713 7.52770662 2.35835910 38 15 3121 9.11200000 1204212946 1204212946 15.00000000
1.18561411 1.95152688 -0.61184824 4 0 3128 2.36400000 1204212966 1204212966 -15.00000000
8.45197773 13.90652943 0.28405538 10 1 3129 16.27600000 1204212969 1204212969 1.00000000
1.40927160 2.31784463 -0.62626374 3 2 3130 2.78400000 1204212971 1204212971 -13.00000000
8.46313477 13.91394138 0.85349476 45 3 3131 16.30800000 1204212973 1204212973 3.00000000
1.69053924 2.77935576 -0.63234103 2 4 3131 3.31400000 1204212976 1204212976 -11.00000000
19.65614319 32.30326843 3.30825758 10 5 3132 37.95800000 1204212978 1204212978 5.00000000
2.15183640 3.53497839 -0.65546042 2 6 3133 4.19000000 1204212980 1204212980 -9.00000000
8.52826214 14.00449371 2.01328158 49 7 3134 16.52000000 1204212982 1204212982 7.00000000
2.89486337 4.75186729 -0.68319952 6 8 3135 5.60600000 1204212985 1204212985 -7.00000000
6.56506586 10.77643967 1.99860668 43 9 3135 12.77600000 1204212987 1204212987 9.00000000
4.35172892 7.14048147 -0.73158532 8 10 3136 8.39400000 1204212989 1204212989 -5.00000000
6.16264105 10.10792446 2.30115652 46 11 3137 12.06000000 1204212992 1204212992 11.00000000
8.43748856 13.83368111 -0.84920323 9 12 3138 16.22600000 1204212994 1204212994 -3.00000000
5.27709961 8.64867115 2.33904099 56 13 3139 10.39800000 1204212996 1204212996 13.00000000
8.44011211 13.82712364 -0.28276390 10 14 3140 16.20200000 1204212999 1204212999 -1.00000000
4.58567476 7.51254129 2.35835910 40 15 3140 9.11200000 1204213001 1204213001 15.00000000
1.19241893 1.94737637 -0.61184824 4 0 3148 2.36400000 1204213022 1204213022 -15.00000000
8.45868778 13.80873299 0.28265917 10 1 3149 16.19600000 1204213024 1204213024 1.00000000
1.42142665 2.31955743 -0.62806332 3 2 3150 2.79200000 1204213026 1204213026 -13.00000000
8.46259117 13.80428410 0.84857517 55 3 3151 16.21400000 1204213029 1204213029 3.00000000
1.70433509 2.78013277 -0.63386750 2 4 3151 3.32200000 1204213031 1204213031 -11.00000000
9.57867813 15.61874104 1.60296845 16 5 3152 18.39200000 1204213033 1204213033 5.00000000
2.15383267 3.51060796 -0.65233171 2 6 3153 4.17000000 1204213035 1204213035 -9.00000000
8.52725220 13.89343071 2.00158215 45 7 3154 16.42400000 1204213038 1204213038 7.00000000
2.91143274 4.74173307 -0.68319952 9 8 3155 5.60600000 1204213040 1204213040 -7.00000000
6.60781050 10.76187515 2.00017118 47 9 3155 12.78600000 1204213042 1204213042 9.00000000
4.38288403 7.13543367 -0.73263115 8 10 3156 8.40600000 1204213045 1204213045 -5.00000000
6.19891453 10.08802414 2.30153799 50 11 3157 12.06200000 1204213047 1204213047 11.00000000
8.44493389 13.73778629 -0.84512103 14 12 3158 16.14800000 1204213049 1204213049 -3.00000000
5.31134033 8.63683796 2.34084058 56 13 3159 10.40600000 1204213052 1204213052 13.00000000
8.44012737 13.71923065 -0.28115827 10 14 3160 16.11000000 1204213054 1204213054 -1.00000000
4.60883379 7.49155235 2.35680628 40 15 3160 9.10600000 1204213056 1204213056 15.00000000
1.19819474 1.94155824 -0.61133057 3 0 3168 2.36200000 1204213077 1204213077 -15.00000000
8.44485950 13.67873192 0.28059980 10 1 3169 16.07800000 1204213079 1204213079 1.00000000
1.42951477 2.31458163 -0.62806332 3 2 3170 2.79200000 1204213082 1204213082 -13.00000000
8.46138477 13.69480228 0.84365559 47 3 3171 16.12000000 1204213084 1204213084 3.00000000
1.72022069 2.78418756 -0.63615721 2 4 3171 3.33400000 1204213086 1204213086 -11.00000000
9.56504917 15.47504997 1.59163821 32 5 3172 18.26200000 1204213088 1204213088 5.00000000
2.16399598 3.49970818 -0.65170598 2 6 3173 4.16600000 1204213091 1204213091 -9.00000000
8.52139473 13.77579308 1.98890769 47 7 3174 16.32000000 1204213093 1204213093 7.00000000
2.93423414 4.74166965 -0.68466198 6 8 3175 5.61800000 1204213095 1204213095 -7.00000000
6.64825010 10.73926353 2.00048399 43 9 3176 12.78800000 1204213098 1204213098 9.00000000
4.40042400 7.10823250 -0.73141098 8 10 3176 8.39200000 1204213100 1204213100 -5.00000000
6.22582150 10.05297089 2.29848504 50 11 3177 12.04600000 1204213102 1204213102 11.00000000
8.44339752 13.62842655 -0.84020144 9 12 3178 16.05400000 1204213105 1204213105 -3.00000000
5.34145594 8.61824512 2.34084058 57 13 3179 10.40600000 1204213107 1204213107 13.00000000
8.44054604 13.61320686 -0.27958754 10 14 3180 16.02000000 1204213109 1204213109 -1.00000000
4.64004612 7.48362780 2.35939431 40 15 3180 9.11600000 1204213111 1204213111 15.00000000
1.21108651 1.94720662 -0.61443639 3 0 3188 2.37400000 1204213132 1204213132 -15.00000000
8.44818592 13.57785988 0.27913380 10 1 3189 15.99400000 1204213135 1204213135 1.00000000
1.42934716 2.29634213 -0.62446415 3 2 3190 2.77600000 1204213137 1204213137 -13.00000000
8.46162891 13.58888912 0.83894539 52 3 3191 16.03000000 1204213139 1204213139 3.00000000
1.72577786 2.77149963 -0.63463074 2 4 3191 3.32600000 1204213141 1204213141 -11.00000000
9.57792473 15.37561321 1.58484006 16 5 3192 18.18400000 1204213144 1204213144 5.00000000
2.18560171 3.50722146 -0.65452182 2 6 3193 4.18400000 1204213146 1204213146 -9.00000000
8.52007103 13.66679001 1.97745192 42 7 3194 16.22600000 1204213148 1204213148 7.00000000
2.93711185 4.70950174 -0.68149334 6 8 3195 5.59200000 1204213151 1204213151 -7.00000000
6.68778801 10.71934319 2.00110960 47 9 3196 12.79200000 1204213153 1204213153 9.00000000
4.43153715 7.10297155 -0.73245686 4 10 3196 8.40400000 1204213155 1204213155 -5.00000000
6.26087475 10.03117752 2.29848504 50 11 3197 12.04600000 1204213158 1204213158 11.00000000
8.43485546 13.50908089 -0.83465385 9 12 3198 15.94800000 1204213160 1204213160 -3.00000000
5.36531258 8.58963013 2.33814120 59 13 3199 10.39400000 1204213162 1204213162 13.00000000
8.43820858 13.50395679 -0.27794704 9 14 3200 15.92600000 1204213164 1204213164 -1.00000000
4.66846752 7.46820927 2.35991216 38 15 3201 9.11800000 1204213167 1204213167 15.00000000
1.21822333 1.94502950 -0.61495405 4 0 3206 2.37600000 1204213188 1204213188 -15.00000000
8.44195938 13.47330284 0.27752817 10 1 3207 15.90200000 1204213190 1204213190 1.00000000
1.43655419 2.29184031 -0.62446415 3 2 3208 2.77600000 1204213192 1204213192 -13.00000000
8.44592094 13.46917248 0.83318841 47 3 3209 15.92000000 1204213194 1204213194 3.00000000
1.73239028 2.76273775 -0.63386750 2 4 3209 3.32200000 1204213197 1204213197 -11.00000000
9.55630398 15.23405361 1.57333541 21 5 3210 18.05200000 1204213199 1204213199 5.00000000
2.19765925 3.50201106 -0.65483469 2 6 3211 4.18600000 1204213201 1204213201 -9.00000000
8.51335812 13.56093693 1.96599627 47 7 3212 16.13200000 1204213204 1204213204 7.00000000
2.95717144 4.70865631 -0.68271208 6 8 3213 5.60200000 1204213206 1204213206 -7.00000000
6.72248173 10.69995213 2.00142264 47 9 3214 12.79400000 1204213208 1204213208 9.00000000
4.45806932 7.09576225 -0.73315412 4 10 3214 8.41200000 1204213211 1204213211 -5.00000000
6.29653645 10.01810837 2.30001163 50 11 3215 12.05400000 1204213213 1204213213 11.00000000
8.42728710 13.40304756 -0.82973427 9 12 3216 15.85400000 1204213215 1204213215 -3.00000000
5.38812065 8.56613445 2.33634162 57 13 3217 10.38600000 1204213217 1204213217 13.00000000
8.42947102 13.39614105 -0.27627158 9 14 3218 15.83000000 1204213220 1204213220 -1.00000000
4.69163465 7.45595980 2.36042976 40 15 3218 9.12000000 1204213222 1204213222 15.00000000
1.21881843 1.93096340 -0.61184824 4 0 3226 2.36400000 1204213243 1204213243 -15.00000000
8.44302940 13.37104797 0.27602726 10 1 3227 15.81600000 1204213245 1204213245 1.00000000
1.44974923 2.29504967 -0.62671363 4 2 3228 2.78600000 1204213247 1204213247 -13.00000000
8.44594002 13.36532021 0.82858288 52 3 3229 15.83200000 1204213250 1204213250 3.00000000
1.74831617 2.76663160 -0.63615721 2 4 3229 3.33400000 1204213252 1204213252 -11.00000000
9.57322407 15.14334393 1.56740892 47 5 3230 17.98400000 1204213254 1204213254 5.00000000
2.21092606 3.49598789 -0.65514755 2 6 3231 4.18800000 1204213257 1204213257 -9.00000000
8.51288319 13.45564747 1.95502806 42 7 3232 16.04200000 1204213259 1204213259 7.00000000
2.97783613 4.70501471 -0.68368703 4 8 3233 5.61000000 1204213261 1204213261 -7.00000000
6.75556374 10.66974545 2.00017118 50 9 3234 12.78600000 1204213264 1204213264 9.00000000
4.48174524 7.07847452 -0.73297977 4 10 3234 8.41000000 1204213266 1204213266 -5.00000000
6.33356905 9.99938488 2.30077481 50 11 3235 12.05800000 1204213268 1204213268 11.00000000
8.42270947 13.29256916 -0.82471001 9 12 3236 15.75800000 1204213270 1204213270 -3.00000000
5.41798925 8.54727364 2.33634162 59 13 3237 10.38600000 1204213273 1204213273 13.00000000
8.41835213 13.27544117 -0.27438673 9 14 3238 15.72200000 1204213275 1204213275 -1.00000000
4.71659756 7.43790627 2.35991216 40 15 3238 9.11800000 1204213277 1204213277 15.00000000
1.22277617 1.92159367 -0.61029530 4 0 3247 2.35800000 1204213298 1204213298 -15.00000000
8.43184471 13.24554634 0.27407259 10 1 3248 15.70400000 1204213300 1204213300 1.00000000
1.45710444 2.28807712 -0.62626374 3 2 3249 2.78400000 1204213303 1204213303 -13.00000000
8.44319153 13.25826263 0.82376796 50 3 3249 15.74000000 1204213305 1204213305 3.00000000
1.75422525 2.75358200 -0.63463074 2 4 3250 3.32600000 1204213307 1204213307 -11.00000000
9.56441498 15.00734329 1.55695021 42 5 3251 17.86400000 1204213310 1204213310 5.00000000
2.22691035 3.49285793 -0.65608615 2 6 3252 4.19400000 1204213312 1204213312 -9.00000000
8.52157974 13.36075687 1.94576597 42 7 3253 15.96600000 1204213314 1204213314 7.00000000
2.99933195 4.70076275 -0.68466198 4 8 3254 5.61800000 1204213316 1204213316 -7.00000000
6.78745413 10.63777256 1.99860668 47 9 3254 12.77600000 1204213319 1204213319 9.00000000
4.50551510 7.05864143 -0.73263115 4 10 3255 8.40600000 1204213321 1204213321 -5.00000000
6.37017584 9.97610378 2.30077481 50 11 3256 12.05800000 1204213323 1204213323 11.00000000
8.42406464 13.18754959 -0.82010442 9 12 3257 15.67000000 1204213326 1204213326 -3.00000000
5.45137882 8.53064251 2.33724141 60 13 3258 10.39000000 1204213328 1204213328 13.00000000
8.42925453 13.18552780 -0.27316508 9 14 3259 15.65200000 1204213330 1204213330 -1.00000000
4.74174595 7.41731358 2.35887671 38 15 3259 9.11400000 1204213333 1204213333 15.00000000
1.23469043 1.92544472 -0.61288351 4 0 3267 2.36800000 1204213353 1204213353 -15.00000000
8.43591976 13.15039062 0.27271131 10 1 3268 15.62600000 1204213356 1204213356 1.00000000
1.46718740 2.28625703 -0.62716353 3 2 3269 2.78800000 1204213358 1204213358 -13.00000000
8.45180607 13.16504097 0.81989509 52 3 3270 15.66600000 1204213360 1204213360 3.00000000
1.76594758 2.75074601 -0.63539398 2 4 3270 3.33000000 1204213363 1204213363 -11.00000000
9.55214214 14.87328053 1.54649150 41 5 3271 17.74400000 1204213365 1204213365 5.00000000
2.24015689 3.48672533 -0.65639901 2 6 3272 4.19600000 1204213367 1204213367 -9.00000000
8.51557350 13.24910450 1.93382275 49 7 3273 15.86800000 1204213369 1204213369 7.00000000
3.01894307 4.69527388 -0.68539321 4 8 3274 5.62400000 1204213372 1204213372 -7.00000000
6.83280993 10.62279224 2.00048399 47 9 3275 12.78800000 1204213374 1204213374 9.00000000
4.52581596 7.03616858 -0.73193395 4 10 3275 8.39800000 1204213376 1204213376 -5.00000000
6.40496016 9.95380783 2.30077481 50 11 3276 12.05800000 1204213379 1204213379 11.00000000
8.42139816 13.08249092 -0.81539422 9 12 3277 15.58000000 1204213381 1204213381 -3.00000000
5.48323345 8.51483917 2.33814120 59 13 3278 10.39400000 1204213383 1204213383 13.00000000
8.42974567 13.08541965 -0.27169907 9 14 3279 15.56800000 1204213386 1204213386 -1.00000000
4.58994865 7.12220621 2.27036071 40 15 3280 8.77200000 1204213388 1204213388 15.00000000
1.24526143 1.92783082 -0.61495405 4 0 3286 2.37600000 1204213409 1204213409 -15.00000000
8.43281364 13.05012226 0.27121040 10 1 3287 15.54000000 1204213411 1204213411 1.00000000
1.47052920 2.27483273 -0.62536395 3 2 3288 2.78000000 1204213413 1204213413 -13.00000000
8.44324684 13.06126690 0.81508017 52 3 3288 15.57400000 1204213416 1204213416 3.00000000
1.77932405 2.75146914 -0.63692045 2 4 3289 3.33800000 1204213418 1204213418 -11.00000000
9.55487633 14.76959038 1.53899610 51 5 3290 17.65800000 1204213420 1204213420 5.00000000
2.24097443 3.46269369 -0.65327030 2 6 3291 4.17600000 1204213422 1204213422 -9.00000000
8.51846695 13.15747166 1.92456067 36 7 3292 15.79200000 1204213425 1204213425 7.00000000
3.03449655 4.68523645 -0.68539321 6 8 3293 5.62400000 1204213427 1204213427 -7.00000000
6.86907291 10.60173321 2.00079679 47 9 3294 12.79000000 1204213429 1204213429 9.00000000
4.55237389 7.02613783 -0.73245686 4 10 3294 8.40400000 1204213432 1204213432 -5.00000000
6.43579769 9.92921829 2.30001163 50 11 3295 12.05400000 1204213434 1204213434 11.00000000
8.41583729 12.97908211 -0.81068397 9 12 3296 15.49000000 1204213436 1204213436 -3.00000000
5.50295544 8.48353004 2.33454204 56 13 3297 10.37800000 1204213439 1204213439 13.00000000
8.42301941 12.98023033 -0.27009344 9 14 3298 15.47600000 1204213441 1204213441 -1.00000000
4.79422712 7.38810682 2.35991216 40 15 3298 9.11800000 1204213443 1204213443 15.00000000
1.25619864 1.92994857 -0.61702460 4 0 3306 2.38400000 1204213464 1204213464 -15.00000000
8.43685150 12.95692825 0.26988402 10 1 3307 15.46400000 1204213466 1204213466 1.00000000
1.48271537 2.27621722 -0.62716353 3 2 3308 2.78800000 1204213468 1204213468 -13.00000000
8.43428135 12.94803905 0.80984658 52 3 3308 15.47400000 1204213471 1204213471 3.00000000
1.78463030 2.73866200 -0.63539398 2 4 3309 3.33000000 1204213473 1204213473 -11.00000000
2.25952196 3.46477795 -0.65514755 2 6 3311 4.18800000 1204213478 1204213478 -9.00000000
8.53288841 13.07944202 1.91749227 42 7 3312 15.73400000 1204213480 1204213480 7.00000000
3.04757786 4.66962862 -0.68466198 6 8 3313 5.61800000 1204213482 1204213482 -7.00000000
6.89631844 10.56280518 1.99798095 47 9 3314 12.77200000 1204213485 1204213485 9.00000000
4.58122873 7.01687765 -0.73315412 4 10 3314 8.41200000 1204213487 1204213487 -5.00000000
6.47256470 9.90997982 2.30077481 50 11 3315 12.05800000 1204213489 1204213489 11.00000000
8.41739368 12.88274574 -0.80649710 9 12 3316 15.41000000 1204213492 1204213492 -3.00000000
5.53253508 8.46426964 2.33454204 57 13 3317 10.37800000 1204213494 1204213494 13.00000000
8.42450237 12.88380241 -0.26869726 9 14 3318 15.39600000 1204213496 1204213496 -1.00000000
4.82210159 7.37456083 2.36094737 38 15 3318 9.12200000 1204213498 1204213498 15.00000000
1.25835478 1.91930997 -0.61495405 4 0 3325 2.37600000 1204213519 1204213519 -15.00000000
8.43809700 12.86533928 0.26855764 10 1 3326 15.38800000 1204213521 1204213521 1.00000000
1.49239361 2.27454662 -0.62806332 3 2 3327 2.79200000 1204213524 1204213524 -13.00000000
8.43339729 12.84839153 0.80545038 52 3 3328 15.39000000 1204213526 1204213526 3.00000000
1.79370213 2.73272896 -0.63539398 2 4 3328 3.33000000 1204213528 1204213528 -11.00000000
8.56270504 13.04043102 1.36485898 4 5 3329 15.66000000 1204213531 1204213531 5.00000000
2.27642202 3.46552110 -0.65671188 4 6 3330 4.19800000 1204213533 1204213533 -9.00000000
8.55986214 13.02618980 1.91383612 36 7 3331 15.70400000 1204213535 1204213535 7.00000000
3.06304622 4.65949678 -0.68466198 9 8 3332 5.61800000 1204213538 1204213538 -7.00000000
6.92187262 10.52953243 1.99579096 47 9 3332 12.75800000 1204213540 1204213540 9.00000000
4.60337734 6.99998236 -0.73297977 4 10 3333 8.41000000 1204213542 1204213542 -5.00000000
6.50755024 9.89174175 2.30153799 50 11 3334 12.06200000 1204213545 1204213545 11.00000000
8.40956020 12.77801704 -0.80168217 13 12 3335 15.31800000 1204213547 1204213547 -3.00000000
5.56057310 8.44587612 2.33454204 55 13 3336 10.37800000 1204213549 1204213549 13.00000000
8.41218472 12.77229404 -0.26695201 9 14 3337 15.29600000 1204213551 1204213551 -1.00000000
4.84568834 7.35445738 2.35991216 40 15 3338 9.11800000 1204213554 1204213554 15.00000000
1.25759280 1.90362275 -0.61133057 4 0 3345 2.36200000 1204213574 1204213574 -15.00000000
8.42121124 12.74238205 0.26660296 14 1 3346 15.27600000 1204213577 1204213577 1.00000000
1.50462306 2.27582550 -0.62986296 3 2 3347 2.80000000 1204213579 1204213579 -13.00000000
8.42969513 12.75038052 0.80105412 52 3 3347 15.30600000 1204213581 1204213581 3.00000000
1.79456604 2.71335101 -0.63234103 2 4 3348 3.31400000 1204213584 1204213584 -11.00000000
9.56463528 14.45606899 1.51650989 40 5 3349 17.40000000 1204213586 1204213586 5.00000000
2.28305364 3.44931769 -0.65514755 2 6 3350 4.18800000 1204213588 1204213588 -9.00000000
8.60089588 12.98960972 1.91286123 36 7 3351 15.69600000 1204213591 1204213591 7.00000000
3.08367705 4.65539598 -0.68563694 6 8 3352 5.62600000 1204213593 1204213593 -7.00000000
6.96260118 10.50738525 1.99641669 50 9 3353 12.76200000 1204213595 1204213595 9.00000000
4.62228107 6.97556686 -0.73210824 4 10 3353 8.40000000 1204213598 1204213598 -5.00000000
6.53878498 9.86405659 2.30039334 50 11 3354 12.05600000 1204213600 1204213600 11.00000000
8.41768646 12.69365501 -0.79822803 9 12 3355 15.25200000 1204213602 1204213602 -3.00000000
5.60079384 8.44265366 2.33904099 56 13 3356 10.39800000 1204213604 1204213604 13.00000000
8.41801643 12.68453693 -0.26573035 9 14 3357 15.22600000 1204213607 1204213607 -1.00000000
4.86491966 7.32784128 2.35680628 40 15 3358 9.10600000 1204213609 1204213609 15.00000000
1.26744139 1.90404570 -0.61288351 4 0 3365 2.36800000 1204213630 1204213630 -15.00000000
8.41798019 12.64133835 0.26510206 14 1 3366 15.19000000 1204213632 1204213632 1.00000000
1.50823641 2.26407242 -0.62806332 3 2 3367 2.79200000 1204213634 1204213634 -13.00000000
8.43871689 12.66768646 0.79770464 62 3 3367 15.24200000 1204213637 1204213637 3.00000000
1.81273639 2.72013998 -0.63539398 2 4 3368 3.33000000 1204213639 1204213639 -11.00000000
9.57193661 14.35794163 1.50971174 40 5 3369 17.32200000 1204213641 1204213641 5.00000000
2.29179192 3.43639708 -0.65420896 2 6 3370 4.18200000 1204213644 1204213644 -9.00000000
8.63737202 12.94629765 1.91091132 47 7 3371 15.68000000 1204213646 1204213646 7.00000000
3.09990859 4.64460373 -0.68563694 6 8 3372 5.62600000 1204213648 1204213648 -7.00000000
6.99631023 10.48259544 1.99610376 40 9 3372 12.76000000 1204213651 1204213651 9.00000000
4.64770889 6.96104670 -0.73228258 4 10 3373 8.40200000 1204213653 1204213653 -5.00000000
6.56990576 9.83627415 2.29924846 50 11 3374 12.05000000 1204213655 1204213655 11.00000000
8.40313435 12.57617950 -0.79268038 9 12 3375 15.14600000 1204213657 1204213657 -3.00000000
5.63239574 8.42629242 2.33994079 57 13 3376 10.40200000 1204213660 1204213660 13.00000000
8.40666485 12.57196045 -0.26398510 9 14 3377 15.12600000 1204213662 1204213662 -1.00000000
4.89476538 7.31723738 2.35887671 40 15 3378 9.11400000 1204213664 1204213664 15.00000000
1.26977575 1.89319229 -0.61081296 4 0 3385 2.36000000 1204213685 1204213685 -15.00000000
8.42083073 12.55043697 0.26381058 31 1 3386 15.11600000 1204213687 1204213687 1.00000000
1.50744188 2.24584937 -0.62446415 3 2 3387 2.77600000 1204213690 1204213690 -13.00000000
8.43056870 12.56021118 0.79278505 50 3 3387 15.14800000 1204213692 1204213692 3.00000000
1.82440925 2.71705556 -0.63615721 2 4 3388 3.33400000 1204213694 1204213694 -11.00000000
9.56756020 14.24340057 1.50117052 20 5 3389 17.22400000 1204213697 1204213697 5.00000000
2.30707860 3.43329501 -0.65514755 2 6 3390 4.18800000 1204213699 1204213699 -9.00000000
8.67365074 12.90288925 1.90896142 47 7 3391 15.66400000 1204213701 1204213701 7.00000000
3.10945582 4.62387133 -0.68417448 6 8 3392 5.61400000 1204213704 1204213704 -7.00000000
7.03726816 10.46466732 1.99735522 47 9 3392 12.76800000 1204213706 1204213706 9.00000000
4.69088507 6.97288370 -0.73524582 4 10 3393 8.43600000 1204213708 1204213708 -5.00000000
6.60420036 9.81328106 2.29924846 50 11 3394 12.05000000 1204213710 1204213710 11.00000000
8.39567375 12.47055912 -0.78786546 9 12 3395 15.05400000 1204213713 1204213713 -3.00000000
5.65524340 8.39688206 2.33724141 56 13 3396 10.39000000 1204213715 1204213715 13.00000000
8.41027260 12.48283577 -0.26272851 9 14 3397 15.05400000 1204213717 1204213717 -1.00000000
4.92027760 7.30010700 2.35887671 38 15 3398 9.11400000 1204213720 1204213720 15.00000000
1.28894019 1.90590560 -0.61650699 4 0 3407 2.38200000 1204213740 1204213740 -15.00000000
8.42862034 12.45838547 0.26255399 42 1 3408 15.04400000 1204213743 1204213743 1.00000000
1.52260768 2.24972796 -0.62716353 3 2 3409 2.78800000 1204213745 1204213745 -13.00000000
8.43619537 12.46489429 0.78880751 57 3 3409 15.07200000 1204213747 1204213747 3.00000000
1.83042574 2.70352769 -0.63463074 2 4 3410 3.32600000 1204213750 1204213750 -11.00000000
9.58195686 14.14717197 1.49489534 25 5 3411 17.15200000 1204213752 1204213752 5.00000000
2.31913638 3.42277575 -0.65483469 2 6 3412 4.18600000 1204213754 1204213754 -9.00000000
8.71644783 12.85963058 1.90749896 36 7 3413 15.65200000 1204213756 1204213756 7.00000000
3.13387179 4.62175560 -0.68563694 6 8 3414 5.62600000 1204213759 1204213759 -7.00000000
7.07850599 10.43920326 1.99766815 50 9 3414 12.77000000 1204213761 1204213761 9.00000000
4.70643950 6.93833208 -0.73350275 4 10 3415 8.41600000 1204213763 1204213763 -5.00000000
6.64183187 9.78785038 2.29924846 50 11 3416 12.05000000 1204213766 1204213766 11.00000000
8.41208649 12.39196110 -0.78493470 9 12 3417 14.99800000 1204213768 1204213768 -3.00000000
5.68087435 8.36543274 2.33454204 55 13 3418 10.37800000 1204213770 1204213770 13.00000000
8.41206932 12.38263226 -0.26129743 9 14 3419 14.97200000 1204213773 1204213773 -1.00000000
4.95134306 7.28841639 2.36094737 42 15 3419 9.12200000 1204213775 1204213775 15.00000000
1.28905833 1.89181590 -0.61340111 4 0 3427 2.37000000 1204213796 1204213796 -15.00000000
8.41799450 12.34957600 0.26087856 38 1 3428 14.94800000 1204213798 1204213798 1.00000000
1.53045142 2.24439931 -0.62716353 3 2 3429 2.78800000 1204213800 1204213800 -13.00000000
8.43464565 12.36936474 0.78462064 57 3 3429 14.99200000 1204213803 1204213803 3.00000000
1.83321357 2.68739057 -0.63234103 4 4 3430 3.31400000 1204213805 1204213805 -11.00000000
9.57962132 14.03793621 1.48687696 9 5 3431 17.06000000 1204213807 1204213807 5.00000000
2.33106995 3.41465974 -0.65483469 2 6 3432 4.18600000 1204213809 1204213809 -9.00000000
8.75456619 12.81929016 1.90603650 36 7 3433 15.64000000 1204213812 1204213812 7.00000000
3.15670443 4.62062311 -0.68709934 6 8 3434 5.63800000 1204213814 1204213814 -7.00000000
7.11267376 10.41116905 1.99704242 54 9 3434 12.76600000 1204213816 1204213816 9.00000000
4.72276115 6.91034698 -0.73228258 4 10 3435 8.40200000 1204213819 1204213819 -5.00000000
6.68149805 9.77270985 2.30115652 50 11 3436 12.06000000 1204213821 1204213821 11.00000000
8.40793514 12.29328251 -0.78053844 9 12 3437 14.91400000 1204213823 1204213823 -3.00000000
5.71224165 8.34876823 2.33544183 55 13 3438 10.38200000 1204213826 1204213826 13.00000000
8.40441513 12.27893639 -0.25972670 9 14 3439 14.88200000 1204213828 1204213828 -1.00000000
4.96929169 7.25746775 2.35680628 38 15 3440 9.10600000 1204213830 1204213830 15.00000000
1.29171681 1.88297784 -0.61184824 4 0 3445 2.36400000 1204213851 1204213851 -15.00000000
8.41714764 12.26536083 0.25965691 52 1 3446 14.87800000 1204213853 1204213853 1.00000000
1.54190660 2.24600649 -0.62896317 3 2 3447 2.79600000 1204213856 1204213856 -13.00000000
8.42812824 12.27217865 0.78022444 50 3 3448 14.90800000 1204213858 1204213858 3.00000000
1.84609294 2.68809175 -0.63386750 2 4 3448 3.32200000 1204213860 1204213860 -11.00000000
2.34402347 3.41057539 -0.65546042 2 6 3450 4.19000000 1204213865 1204213865 -9.00000000
8.78804779 12.78190899 1.90457416 35 7 3451 15.62800000 1204213867 1204213867 7.00000000
3.16220546 4.59759855 -0.68514943 6 8 3452 5.62200000 1204213869 1204213869 -7.00000000
7.15989923 10.40993118 2.00110960 54 9 3452 12.79200000 1204213872 1204213872 9.00000000
4.75009394 6.90368271 -0.73315412 8 10 3453 8.41200000 1204213874 1204213874 -5.00000000
6.71661901 9.75814056 2.30268288 50 11 3454 12.06800000 1204213876 1204213876 11.00000000
8.39780807 12.19607162 -0.77603757 9 12 3455 14.82800000 1204213879 1204213879 -3.00000000
5.73844147 8.33078194 2.33544183 60 13 3456 10.38200000 1204213881 1204213881 13.00000000
8.40777493 12.20142746 -0.25864467 9 14 3457 14.82000000 1204213883 1204213883 -1.00000000
4.98641872 7.23632860 2.35473561 40 15 3457 9.09800000 1204213886 1204213886 15.00000000
1.30047858 1.88163579 -0.61288351 4 0 3465 2.36800000 1204213906 1204213906 -15.00000000
8.40304852 12.15366364 0.25791165 56 1 3466 14.77800000 1204213909 1204213909 1.00000000
1.54308605 2.23099422 -0.62626374 3 2 3467 2.78400000 1204213911 1204213911 -13.00000000
8.43341351 12.18848324 0.77677023 62 3 3468 14.84200000 1204213913 1204213913 3.00000000
1.86216736 2.69131804 -0.63615721 4 4 3468 3.33400000 1204213915 1204213915 -11.00000000
2.35141635 3.39587641 -0.65420896 2 6 3470 4.18200000 1204213920 1204213920 -9.00000000
8.81000423 12.71851826 1.89969933 35 7 3471 15.58800000 1204213922 1204213922 7.00000000
3.18275738 4.59305906 -0.68612438 6 8 3472 5.63000000 1204213925 1204213925 -7.00000000
7.20925903 10.39985371 2.00423837 57 9 3473 12.81200000 1204213927 1204213927 9.00000000
4.77529860 6.88869715 -0.73332840 8 10 3473 8.41400000 1204213929 1204213929 -5.00000000
6.73833418 9.71688938 2.29848504 53 11 3474 12.04600000 1204213932 1204213932 11.00000000
8.38909912 12.09283733 -0.77132732 9 12 3475 14.73800000 1204213934 1204213934 -3.00000000
5.77415276 8.32030582 2.33814120 59 13 3476 10.39400000 1204213936 1204213936 13.00000000
8.39443588 12.09151459 -0.25693431 9 14 3477 14.72200000 1204213939 1204213939 -1.00000000
5.02172375 7.23069763 2.35887671 40 15 3478 9.11400000 1204213941 1204213941 15.00000000
1.30703878 1.87708485 -0.61288351 4 0 3485 2.36800000 1204213962 1204213962 -15.00000000
8.40884686 12.07174969 0.25679472 59 1 3486 14.71400000 1204213964 1204213964 1.00000000
1.54975009 2.22399545 -0.62581384 4 2 3487 2.78200000 1204213966 1204213966 -13.00000000
8.42565250 12.08687973 0.77216470 47 3 3488 14.75400000 1204213968 1204213968 3.00000000
1.87604129 2.69124365 -0.63768369 4 4 3488 3.34200000 1204213971 1204213971 -11.00000000
9.75428295 13.98763847 1.49193203 15 5 3489 17.11800000 1204213973 1204213973 5.00000000
2.36664629 3.39250803 -0.65514755 2 6 3490 4.18800000 1204213975 1204213975 -9.00000000
8.85207462 12.68443298 1.89921188 33 7 3491 15.58400000 1204213978 1204213978 7.00000000
3.19649792 4.57866573 -0.68563694 6 8 3492 5.62600000 1204213980 1204213980 -7.00000000
7.26179886 10.40180492 2.00924420 57 9 3492 12.84400000 1204213982 1204213982 9.00000000
4.80844164 6.88505411 -0.73472291 8 10 3493 8.43000000 1204213985 1204213985 -5.00000000
6.77558470 9.69813728 2.29962993 50 11 3494 12.05200000 1204213987 1204213987 11.00000000
8.38778210 12.00127125 -0.76734978 9 12 3495 14.66200000 1204213989 1204213989 -3.00000000
5.79869461 8.29371166 2.33634162 56 13 3496 10.38600000 1204213992 1204213992 13.00000000
8.40793896 12.02117252 -0.25606170 9 14 3497 14.67200000 1204213994 1204213994 -1.00000000
5.05010271 7.22033739 2.36094737 38 15 3497 9.12200000 1204213996 1204213996 15.00000000
1.31802082 1.87883699 -0.61495405 4 0 3505 2.37600000 1204214017 1204214017 -15.00000000
8.40958023 11.98339748 0.25553814 63 1 3506 14.64200000 1204214019 1204214019 1.00000000
1.55638421 2.21697736 -0.62536395 4 2 3507 2.78000000 1204214021 1204214021 -13.00000000
8.41958237 11.98874760 0.76776850 62 3 3508 14.67000000 1204214024 1204214024 3.00000000
1.87639749 2.67182565 -0.63463074 2 4 3508 3.32600000 1204214026 1204214026 -11.00000000
9.88207817 14.06599331 1.50395954 5 5 3509 17.25600000 1204214028 1204214028 5.00000000
2.37733817 3.38261008 -0.65483469 4 6 3510 4.18600000 1204214031 1204214031 -9.00000000
8.88602161 12.63884068 1.89701819 22 7 3511 15.56600000 1204214033 1204214033 7.00000000
3.21474504 4.57072735 -0.68612438 6 8 3512 5.63000000 1204214035 1204214035 -7.00000000
7.31124163 10.39127541 2.01237297 60 9 3513 12.86400000 1204214038 1204214038 9.00000000
4.83473873 6.87148666 -0.73507154 13 10 3513 8.43400000 1204214040 1204214040 -5.00000000
6.81504583 9.68245411 2.30153799 50 11 3514 12.06200000 1204214042 1204214042 11.00000000
8.39052868 11.91639614 -0.76379097 13 12 3515 14.59400000 1204214044 1204214044 -3.00000000
5.82312059 8.26704693 2.33454204 56 13 3516 10.37800000 1204214047 1204214047 13.00000000
8.39686489 11.91655636 -0.25445607 9 14 3517 14.58000000 1204214049 1204214049 -1.00000000
5.07875872 7.20493746 2.36198258 42 15 3518 9.12600000 1204214051 1204214051 15.00000000
1.32043731 1.86768389 -0.61288351 4 0 3526 2.36800000 1204214072 1204214072 -15.00000000
8.41418648 11.89698505 0.25435138 56 1 3527 14.57400000 1204214074 1204214074 1.00000000
1.57125258 2.22080302 -0.62806332 4 2 3528 2.79200000 1204214077 1204214077 -13.00000000
8.41962051 11.89585876 0.76379097 55 3 3529 14.59400000 1204214079 1204214079 3.00000000
1.87937248 2.65531540 -0.63234103 4 4 3529 3.31400000 1204214081 1204214081 -11.00000000
9.88060570 13.95487976 1.49594116 10 5 3530 17.16400000 1204214084 1204214084 5.00000000
2.40456295 3.39482975 -0.65890199 2 6 3531 4.21200000 1204214086 1204214086 -9.00000000
16.52180290 23.31731606 3.50886202 35 7 3532 28.79200000 1204214088 1204214088 7.00000000
3.22229242 4.54595804 -0.68417448 6 8 3533 5.61400000 1204214091 1204214091 -7.00000000
7.35660791 10.37858295 2.01487589 57 9 3533 12.88000000 1204214093 1204214093 9.00000000
4.85297680 6.84396887 -0.73402566 13 10 3534 8.42200000 1204214095 1204214095 -5.00000000
6.84708071 9.65260696 2.30039334 50 11 3535 12.05600000 1204214097 1204214097 11.00000000
8.39716148 11.83344078 -0.76044142 9 12 3536 14.53000000 1204214100 1204214100 -3.00000000
5.85563803 8.24882698 2.33544183 55 13 3537 10.38200000 1204214102 1204214102 13.00000000
8.39185619 11.81722260 -0.25299010 9 14 3538 14.49600000 1204214104 1204214104 -1.00000000
5.09716654 7.17771482 2.35887671 40 15 3538 9.11400000 1204214107 1204214107 15.00000000
1.32470727 1.85991621 -0.61184824 4 0 3546 2.36400000 1204214127 1204214127 -15.00000000
8.40460682 11.79588318 0.25281557 45 1 3547 14.48600000 1204214130 1204214130 1.00000000
1.58012617 2.21689153 -0.62851322 4 2 3548 2.79400000 1204214132 1204214132 -13.00000000
8.41935062 11.80785275 0.76002276 55 3 3549 14.52200000 1204214134 1204214134 3.00000000
1.89546847 2.65833020 -0.63463074 2 4 3549 3.32600000 1204214137 1204214137 -11.00000000
9.96859455 13.97545433 1.50186777 20 5 3550 17.23200000 1204214139 1204214139 5.00000000
2.40721941 3.37355161 -0.65639901 2 6 3551 4.19600000 1204214141 1204214141 -9.00000000
16.58464050 23.23365021 3.50496221 35 7 3552 28.76000000 1204214144 1204214144 7.00000000
3.24506283 4.54437542 -0.68563694 6 8 3553 5.62600000 1204214146 1204214146 -7.00000000
7.40952492 10.37244606 2.01894331 60 9 3554 12.90600000 1204214148 1204214148 9.00000000
4.88610220 6.83995676 -0.73542017 13 10 3554 8.43800000 1204214150 1204214150 -5.00000000
6.87959146 9.62704945 2.30001163 50 11 3555 12.05400000 1204214153 1204214153 11.00000000
8.38498688 11.72931671 -0.75562656 9 12 3556 14.43800000 1204214155 1204214155 -3.00000000
5.89346457 8.24101734 2.33904099 55 13 3557 10.39800000 1204214157 1204214157 13.00000000
8.39815044 11.73906708 -0.25194293 9 14 3558 14.43600000 1204214160 1204214160 -1.00000000
5.12006712 7.15427160 2.35732388 40 15 3559 9.10800000 1204214162 1204214162 15.00000000
1.33054376 1.85574543 -0.61184824 4 0 3564 2.36400000 1204214183 1204214183 -15.00000000
8.39733410 11.70767403 0.25148916 42 1 3565 14.41000000 1204214185 1204214185 1.00000000
1.58026648 2.20241666 -0.62581384 4 2 3566 2.78200000 1204214187 1204214187 -13.00000000
8.41447735 11.72293282 0.75625455 55 3 3567 14.45000000 1204214190 1204214190 3.00000000
1.90381050 2.65236211 -0.63463074 2 4 3567 3.32600000 1204214192 1204214192 -11.00000000
10.02174759 13.95701599 1.50326228 15 5 3568 17.24800000 1204214194 1204214194 5.00000000
2.41665339 3.36436820 -0.65608615 2 6 3569 4.19400000 1204214197 1204214197 -9.00000000
13.67934704 19.03682518 2.87831020 11 7 3570 23.61800000 1204214199 1204214199 7.00000000
3.26859260 4.54705286 -0.68758684 6 8 3571 5.64200000 1204214201 1204214201 -7.00000000
7.46102190 10.37928772 2.02457476 57 9 3571 12.94200000 1204214203 1204214203 9.00000000
4.90756607 6.82457304 -0.73542017 13 10 3572 8.43800000 1204214206 1204214206 -5.00000000
6.91209459 9.60857677 2.30077481 50 11 3573 12.05800000 1204214208 1204214208 11.00000000
8.38212872 11.64779854 -0.75206769 9 12 3574 14.37000000 1204214210 1204214210 -3.00000000
5.91704845 8.21929836 2.33814120 48 13 3575 10.39400000 1204214213 1204214213 13.00000000
8.39058113 11.65096283 -0.25061655 9 14 3576 14.36000000 1204214215 1204214215 -1.00000000
5.14465857 7.14375162 2.35887671 40 15 3576 9.11400000 1204214217 1204214217 15.00000000
1.34380031 1.86048603 -0.61495405 4 0 3584 2.37600000 1204214238 1204214238 -15.00000000
8.40418720 11.63128567 0.25047693 35 1 3585 14.35200000 1204214240 1204214240 1.00000000
1.57767045 2.18267274 -0.62176472 3 2 3586 2.76400000 1204214243 1204214243 -13.00000000
8.40385437 11.62227631 0.75164902 52 3 3587 14.36200000 1204214245 1204214245 3.00000000
1.91305745 2.64570045 -0.63463074 2 4 3587 3.32600000 1204214247 1204214247 -11.00000000
10.10076618 13.96392059 1.50779438 60 5 3588 17.30000000 1204214250 1204214250 5.00000000
2.43069863 3.35911274 -0.65671188 4 6 3589 4.19800000 1204214252 1204214252 -9.00000000
8.49024010 11.72880650 1.77783000 1 7 3590 14.58800000 1204214254 1204214254 7.00000000
3.27862334 4.52757692 -0.68636817 6 8 3591 5.63200000 1204214256 1204214256 -7.00000000
7.53146219 10.39666462 2.03333521 60 9 3592 12.99800000 1204214259 1204214259 9.00000000
4.93603373 6.81385469 -0.73611742 8 10 3592 8.44600000 1204214261 1204214261 -5.00000000
6.94328833 9.58121109 2.30001163 50 11 3593 12.05400000 1204214263 1204214263 11.00000000
8.36412334 11.53761578 -0.74683410 13 12 3594 14.27000000 1204214266 1204214266 -3.00000000
5.94227076 8.19386196 2.33679152 17 13 3595 10.38800000 1204214268 1204214268 13.00000000
8.39479733 11.57142639 -0.24953450 14 14 3596 14.29800000 1204214270 1204214270 -1.00000000
5.17648029 7.13266468 2.36146498 42 15 3597 9.12400000 1204214273 1204214273 15.00000000
1.35288405 1.85867202 -0.61598933 4 0 3605 2.38000000 1204214293 1204214293 -15.00000000
8.40438652 11.54220867 0.24922037 28 1 3606 14.28000000 1204214296 1204214296 1.00000000
1.59254396 2.18632674 -0.62446415 3 2 3607 2.77600000 1204214298 1204214298 -13.00000000
8.40522766 11.53490067 0.74798548 57 3 3608 14.29200000 1204214300 1204214300 3.00000000
1.92042911 2.63549757 -0.63386750 2 4 3608 3.32200000 1204214303 1204214303 -11.00000000
10.18239307 13.96866703 1.51232648 65 5 3609 17.35200000 1204214305 1204214305 5.00000000
2.44764972 3.35656548 -0.65796334 4 6 3610 4.20600000 1204214307 1204214307 -9.00000000
8.53083134 11.69440174 1.77734256 1 7 3611 14.58400000 1204214309 1204214309 7.00000000
3.28934503 4.50751209 -0.68514943 6 8 3612 5.62200000 1204214312 1204214312 -7.00000000
7.57469416 10.37988567 2.03521228 60 9 3612 13.01000000 1204214314 1204214314 9.00000000
4.96802330 6.80537271 -0.73716325 8 10 3613 8.45800000 1204214316 1204214316 -5.00000000
6.98299026 9.56204033 2.30153799 50 11 3614 12.06200000 1204214319 1204214319 11.00000000
8.37572098 11.46495152 -0.74411261 9 12 3615 14.21800000 1204214321 1204214321 -3.00000000
5.00064898 6.84253836 1.95662427 15 13 3616 8.69800000 1204214323 1204214323 13.00000000
8.40056610 11.49053764 -0.24845245 9 14 3617 14.23600000 1204214326 1204214326 -1.00000000
5.20362711 7.11767101 2.36250019 40 15 3617 9.12800000 1204214328 1204214328 15.00000000
1.35707915 1.85082245 -0.61495405 4 0 3625 2.37600000 1204214349 1204214349 -15.00000000
8.40677834 11.46120358 0.24810341 17 1 3626 14.21600000 1204214351 1204214351 1.00000000
1.60938883 2.19332361 -0.62806332 3 2 3627 2.79200000 1204214353 1204214353 -13.00000000
8.40053082 11.44430828 0.74400795 57 3 3628 14.21600000 1204214356 1204214356 3.00000000
1.93194044 2.63194346 -0.63463074 2 4 3628 3.32600000 1204214358 1204214358 -11.00000000
10.24759960 13.95552158 1.51476681 60 5 3629 17.38000000 1204214360 1204214360 5.00000000
2.46870685 3.36073709 -0.66046631 6 6 3630 4.22200000 1204214362 1204214362 -9.00000000
13.66142845 18.59098053 2.83273101 22 7 3631 23.24400000 1204214365 1204214365 7.00000000
3.31211352 4.50559902 -0.68661189 6 8 3632 5.63400000 1204214367 1204214367 -7.00000000
7.62960052 10.37884712 2.04021835 57 9 3632 13.04200000 1204214369 1204214369 9.00000000
4.99174833 6.78798962 -0.73716325 8 10 3633 8.45800000 1204214372 1204214372 -5.00000000
7.02214241 9.54551411 2.30344629 50 11 3634 12.07200000 1204214374 1204214374 11.00000000
8.38254356 11.39060402 -0.74118179 9 12 3635 14.16200000 1204214376 1204214376 -3.00000000
5.03143549 6.83445740 1.95932364 20 13 3636 8.71000000 1204214379 1204214379 13.00000000
8.38251972 11.38224602 -0.24674213 11 14 3637 14.13800000 1204214381 1204214381 -1.00000000
5.22614956 7.09635258 2.36146498 40 15 3637 9.12400000 1204214383 1204214383 15.00000000
1.35632432 1.83698726 -0.61184824 4 0 3644 2.36400000 1204214404 1204214404 -15.00000000
8.39365196 11.36409664 0.24660251 14 1 3645 14.13000000 1204214406 1204214406 1.00000000
1.61896944 2.19110918 -0.62896317 3 2 3646 2.79600000 1204214409 1204214409 -13.00000000
8.40638161 11.37302208 0.74118179 52 3 3647 14.16200000 1204214411 1204214411 3.00000000
1.94299161 2.62867999 -0.63539398 2 4 3647 3.33000000 1204214413 1204214413 -11.00000000
10.31988239 13.95670605 1.51860166 65 5 3648 17.42400000 1204214415 1204214415 5.00000000
2.46809077 3.33665085 -0.65733761 6 6 3649 4.20200000 1204214418 1204214418 -9.00000000
13.71946144 18.54078674 2.83199978 33 7 3650 23.23800000 1204214420 1204214420 7.00000000
3.32703662 4.49459076 -0.68661189 6 8 3651 5.63400000 1204214422 1204214422 -7.00000000
7.68459177 10.37755203 2.04522419 64 9 3652 13.07400000 1204214425 1204214425 9.00000000
5.00948811 6.76499462 -0.73646605 13 10 3652 8.45000000 1204214427 1204214427 -5.00000000
7.05142069 9.51902008 2.30268288 46 11 3653 12.06800000 1204214429 1204214429 11.00000000
8.37032700 11.29534721 -0.73678559 9 12 3654 14.07800000 1204214432 1204214432 -3.00000000
5.06915855 6.83808661 1.96517241 22 13 3655 8.73600000 1204214434 1204214434 13.00000000
8.38210201 11.30298710 -0.24562517 9 14 3656 14.07400000 1204214436 1204214436 -1.00000000
5.23929644 7.06501770 2.35680628 40 15 3656 9.10600000 1204214438 1204214438 15.00000000
1.36733997 1.83844209 -0.61391878 4 0 3664 2.37200000 1204214459 1204214459 -15.00000000
8.38432884 11.26894951 0.24517141 14 1 3665 14.04800000 1204214462 1204214462 1.00000000
1.62893498 2.18857098 -0.62986296 3 2 3666 2.80000000 1204214464 1204214464 -13.00000000
8.40666866 11.29074383 0.73772764 57 3 3667 14.09600000 1204214466 1204214466 3.00000000
1.94981062 2.61873221 -0.63463074 4 4 3667 3.32600000 1204214468 1204214468 -11.00000000
10.39710045 13.95894718 1.52278519 61 5 3668 17.47200000 1204214471 1204214471 5.00000000
2.46910048 3.31375933 -0.65452182 6 6 3669 4.18400000 1204214473 1204214473 -9.00000000
13.79951954 18.51347542 2.83516836 30 7 3670 23.26400000 1204214475 1204214475 7.00000000
3.33677220 4.47499323 -0.68539321 4 8 3671 5.62400000 1204214478 1204214478 -7.00000000
7.73730469 10.37283230 2.04960442 67 9 3672 13.10200000 1204214480 1204214480 9.00000000
5.03545427 6.75066090 -0.73681468 13 10 3672 8.45400000 1204214482 1204214482 -5.00000000
7.08225679 9.49120140 2.30191970 50 11 3673 12.06400000 1204214485 1204214485 11.00000000
8.37864113 11.22444630 -0.73406410 13 12 3674 14.02600000 1204214487 1204214487 -3.00000000
5.10465670 6.83596420 1.96967149 22 13 3675 8.75600000 1204214489 1204214489 13.00000000
8.38201332 11.22079086 -0.24447331 9 14 3676 14.00800000 1204214491 1204214491 -1.00000000
5.27093792 7.05350447 2.35939431 40 15 3677 9.11600000 1204214494 1204214494 15.00000000
1.37342894 1.83389771 -0.61391878 4 0 3683 2.37200000 1204214515 1204214515 -15.00000000
8.38328457 11.18987179 0.24405445 10 1 3684 13.98400000 1204214517 1204214517 1.00000000
1.62449658 2.16756320 -0.62536395 3 2 3685 2.78000000 1204214519 1204214519 -13.00000000
8.39973450 11.20367813 0.73385477 62 3 3686 14.02200000 1204214521 1204214521 3.00000000
1.96555007 2.62167692 -0.63692045 2 4 3686 3.33800000 1204214524 1204214524 -11.00000000
10.46485138 13.95308304 1.52592278 46 5 3687 17.50800000 1204214526 1204214526 5.00000000
2.48600316 3.31345367 -0.65608615 4 6 3688 4.19400000 1204214528 1204214528 -9.00000000
13.88943481 18.50571632 2.84101820 13 7 3689 23.31200000 1204214531 1204214531 7.00000000
2.87364578 3.82733679 -0.58765399 8 8 3690 4.82200000 1204214533 1204214533 -7.00000000
7.80013180 10.38502407 2.05711317 67 9 3691 13.15000000 1204214535 1204214535 9.00000000
5.07217121 6.75304270 -0.73890638 8 10 3691 8.47800000 1204214538 1204214538 -5.00000000
7.11605072 9.47080231 2.30268288 46 11 3692 12.06800000 1204214540 1204214540 11.00000000
8.35581493 11.11677265 -0.72883052 8 12 3693 13.92600000 1204214542 1204214542 -3.00000000
5.13783789 6.83301735 1.97372055 20 13 3694 8.77400000 1204214544 1204214544 13.00000000
8.36869049 11.12581444 -0.24300730 9 14 3695 13.92400000 1204214547 1204214547 -1.00000000
5.30119991 7.04771757 2.36301780 45 15 3695 9.13000000 1204214549 1204214549 15.00000000
1.38447583 1.83526123 -0.61598933 4 0 3703 2.38000000 1204214570 1204214570 -15.00000000
8.38374710 11.10946274 0.24293749 14 1 3704 13.92000000 1204214572 1204214572 1.00000000
1.62735641 2.15565825 -0.62356430 3 2 3705 2.77200000 1204214574 1204214574 -13.00000000
8.39184952 11.11213017 0.72977257 60 3 3706 13.94400000 1204214577 1204214577 3.00000000
1.96404099 2.60069966 -0.63348585 4 4 3706 3.32000000 1204214579 1204214579 -11.00000000
8.39974499 11.11854935 1.21913457 36 5 3707 13.98800000 1204214581 1204214581 5.00000000
2.50231814 3.31105947 -0.65733761 4 6 3708 4.20200000 1204214584 1204214584 -9.00000000
8.41115570 11.12557697 1.71250796 58 7 3709 14.05200000 1204214586 1204214586 7.00000000
2.87501383 3.80144978 -0.58521658 21 8 3710 4.80200000 1204214588 1204214588 -7.00000000
7.86017132 10.38924026 2.06337070 60 9 3711 13.19000000 1204214591 1204214591 9.00000000
2.90668392 3.84193110 -0.42148519 2 10 3711 4.83600000 1204214593 1204214593 -5.00000000
7.15143633 9.44903564 2.30344629 46 11 3712 12.07200000 1204214595 1204214595 11.00000000
2.87293649 3.79457164 -0.24943317 4 12 3713 4.76600000 1204214597 1204214597 -3.00000000
5.17577744 6.83368254 1.97911942 15 13 3714 8.79800000 1204214600 1204214600 13.00000000
8.37486935 11.05350018 -0.24206488 9 14 3715 13.87000000 1204214602 1204214602 -1.00000000
5.32460213 7.02763033 2.36250019 42 15 3715 9.12800000 1204214604 1204214604 15.00000000
1.38534772 1.82248473 -0.61340111 4 0 3724 2.37000000 1204214625 1204214625 -15.00000000
8.38325500 11.02453995 0.24175073 14 1 3725 13.85200000 1204214627 1204214627 1.00000000
2.88232803 3.78908110 -1.09911084 17 2 3726 4.88600000 1204214630 1204214630 -13.00000000
8.39431095 11.03508091 0.72663242 60 3 3726 13.88400000 1204214632 1204214632 3.00000000
1.98069322 2.60285759 -0.63577557 4 4 3727 3.33200000 1204214634 1204214634 -11.00000000
8.40544224 11.04171371 1.21407950 52 5 3728 13.93000000 1204214637 1204214637 5.00000000
2.51204348 3.29872274 -0.65671188 4 6 3729 4.19800000 1204214639 1204214639 -9.00000000
8.41578865 11.04730129 1.70519590 73 7 3730 13.99200000 1204214641 1204214641 7.00000000
2.87087941 3.76720357 -0.58156049 21 8 3731 4.77200000 1204214643 1204214643 -7.00000000
2.89779544 3.80114675 -0.41817325 20 10 3732 4.79800000 1204214648 1204214648 -5.00000000
7.18602037 9.42276096 2.30344629 43 11 3733 12.07200000 1204214650 1204214650 11.00000000
2.90499640 3.80783534 -0.25100324 64 12 3734 4.79600000 1204214653 1204214653 -3.00000000
5.21734095 6.83635473 1.98541796 3 13 3735 8.82600000 1204214655 1204214655 13.00000000
2.89045525 3.78603363 -0.08314326 13 14 3736 4.76400000 1204214657 1204214657 -1.00000000
5.34563494 7.00192547 2.36042976 42 15 3736 9.12000000 1204214660 1204214660 15.00000000
1.39287531 1.81917179 -0.61391878 4 0 3744 2.37200000 1204214680 1204214680 -15.00000000
8.38277626 10.94440937 0.24063379 10 1 3745 13.78800000 1204214683 1204214683 1.00000000
8.39460373 10.95192909 0.72317827 62 3 3747 13.81800000 1204214687 1204214687 3.00000000
1.98618376 2.59125328 -0.63463074 4 4 3747 3.32600000 1204214690 1204214690 -11.00000000
8.39544010 10.94906235 1.20710707 52 5 3748 13.85000000 1204214692 1204214692 5.00000000
2.52113843 3.28679919 -0.65608615 4 6 3749 4.19400000 1204214694 1204214694 -9.00000000
