# .PCD v0.7 - Point Cloud Data file format
VERSION 0.7
FIELDS x y z intensity laser_id azimuth distance_m adjustedtime timestamp vertical_angle
SIZE 4 4 4 1 1 2 8 8 4 8
TYPE F F F U U U F U U F
COUNT 1 1 1 1 1 1 1 1 1 1
WIDTH 518
HEIGHT 1
VIEWPOINT 0 0 0 1 0 0 0
POINTS 518
DATA ascii
-0.09111050 -2.26845336 -0.52413595 4 2 18230 2.33000000 1204754817 1204754817 -13.00000000
-1.82642698 -45.27698898 2.37479639 62 3 18231 45.37600000 1204754819 1204754819 3.00000000
-0.10730203 -2.66000962 -0.51747400 3 4 18231 2.71200000 1204754822 1204754822 -11.00000000
-1.41271913 -34.87008667 3.05324006 30 5 18232 35.03200000 1204754824 1204754824 5.00000000
-0.13122469 -3.22509694 -0.51122785 1 6 18233 3.26800000 1204754826 1204754826 -9.00000000
-0.81674117 -19.98709488 2.45615482 9 7 18234 20.15400000 1204754828 1204754828 7.00000000
-0.16678083 -4.06403351 -0.49942058 2 8 18235 4.09800000 1204754831 1204754831 -7.00000000
-0.73509043 -17.83633804 2.82739663 41 9 18236 18.07400000 1204754833 1204754833 9.00000000
-0.22766893 -5.52419090 -0.48371437 3 10 18236 5.55000000 1204754835 1204754835 -5.00000000
-0.49084750 -11.85968304 2.30726242 18 11 18237 12.09200000 1204754838 1204754838 11.00000000
-1.88456178 -45.34257507 -2.37835526 12 12 18238 45.44400000 1204754840 1204754840 -3.00000000
-0.49279061 -11.80688095 2.72820640 51 13 18239 12.12800000 1204754842 1204754842 13.00000000
-0.42509976 -10.10043812 2.70880008 47 15 18241 10.46600000 1204754847 1204754847 15.00000000
-0.08619542 -1.98213840 -0.53161430 5 0 18249 2.05400000 1204754868 1204754868 -15.00000000
-1.97836125 -45.31192398 0.79167604 77 1 18250 45.36200000 1204754870 1204754870 1.00000000
-0.10002158 -2.28173232 -0.52728528 4 2 18251 2.34400000 1204754872 1204754872 -13.00000000
-1.98489928 -45.28031540 2.37531972 93 3 18251 45.38600000 1204754875 1204754875 3.00000000
-0.11670545 -2.65175295 -0.51594752 3 4 18252 2.70400000 1204754877 1204754877 -11.00000000
-1.13665307 -25.72454071 2.25280166 8 5 18253 25.84800000 1204754879 1204754879 5.00000000
-0.14304438 -3.22459435 -0.51122785 1 6 18254 3.26800000 1204754881 1204754881 -9.00000000
-0.89122850 -20.01173019 2.45956707 7 7 18255 20.18200000 1204754884 1204754884 7.00000000
-0.18273912 -4.08719206 -0.50234544 2 8 18256 4.12200000 1204754886 1204754886 -7.00000000
-0.80090183 -17.84339142 2.82896090 45 9 18257 18.08400000 1204754888 1204754888 9.00000000
-0.24898663 -5.54720402 -0.48580611 3 10 18257 5.57400000 1204754891 1204754891 -5.00000000
-0.53466558 -11.86564922 2.30878878 18 11 18258 12.10000000 1204754893 1204754893 11.00000000
-2.05055737 -45.33137131 -2.37814593 12 12 18259 45.44000000 1204754895 1204754895 -3.00000000
-0.53615010 -11.80694199 2.72865629 51 13 18260 12.13000000 1204754898 1204754898 13.00000000
-0.45982644 -10.08731365 2.70569420 47 15 18261 10.45400000 1204754902 1204754902 15.00000000
-0.09238853 -1.96638763 -0.52747321 5 0 18269 2.03800000 1204754923 1204754923 -15.00000000
-2.13595223 -45.29275513 0.79146665 66 1 18270 45.35000000 1204754925 1204754925 1.00000000
-0.10780143 -2.27747607 -0.52638549 4 2 18271 2.34000000 1204754927 1204754927 -13.00000000
-2.14313388 -45.27710342 2.37552905 100 3 18271 45.39000000 1204754930 1204754930 3.00000000
-0.12652008 -2.66309571 -0.51823723 3 4 18272 2.71600000 1204754932 1204754932 -11.00000000
-1.66780484 -34.97650146 3.06352425 40 5 18273 35.15000000 1204754934 1204754934 5.00000000
-0.15392172 -3.21618295 -0.50997633 1 6 18274 3.26000000 1204754937 1204754937 -9.00000000
-0.96069610 -20.00056648 2.45859218 7 7 18275 20.17400000 1204754939 1204754939 7.00000000
-0.19757849 -4.09842587 -0.50380784 2 8 18276 4.13400000 1204754941 1204754941 -7.00000000
-0.86365932 -17.85035133 2.83052516 45 9 18277 18.09400000 1204754944 1204754944 9.00000000
-0.26719305 -5.52242041 -0.48371437 3 10 18277 5.55000000 1204754946 1204754946 -5.00000000
-0.57570028 -11.85586643 2.30726242 15 11 18278 12.09200000 1204754948 1204754948 11.00000000
-2.21072531 -45.36383438 -2.38023925 12 12 18279 45.48000000 1204754951 1204754951 -3.00000000
-0.57802713 -11.81862354 2.73180556 53 13 18280 12.14400000 1204754953 1204754953 13.00000000
-2.22594309 -45.35048676 -0.79254866 6 14 18281 45.41200000 1204754955 1204754955 -1.00000000
-0.49484551 -10.08178806 2.70465899 47 15 18281 10.45000000 1204754957 1204754957 15.00000000
-0.09944674 -1.96991193 -0.52850848 4 0 18289 2.04200000 1204754978 1204754978 -15.00000000
-2.29383802 -45.28102875 0.79139680 66 1 18290 45.34600000 1204754980 1204754980 1.00000000
-0.11535492 -2.26930094 -0.52458584 4 2 18291 2.33200000 1204754983 1204754983 -13.00000000
-2.30876327 -45.26295853 2.37521505 100 3 18292 45.38400000 1204754985 1204754985 3.00000000
-0.13501516 -2.64695215 -0.51518428 5 4 18292 2.70000000 1204754987 1204754987 -11.00000000
-1.78947806 -34.96250916 3.06282711 40 5 18293 35.14200000 1204754990 1204754990 5.00000000
-0.16514735 -3.21562600 -0.50997633 3 6 18294 3.26000000 1204754992 1204754992 -9.00000000
-0.93876404 -18.21684074 2.23971486 8 7 18295 18.37800000 1204754994 1204754994 7.00000000
-0.21147344 -4.08978176 -0.50283289 2 8 18296 4.12600000 1204754997 1204754997 -7.00000000
-0.92427653 -17.87500763 2.83490539 49 9 18296 18.12200000 1204754999 1204754999 9.00000000
-0.28646827 -5.52145433 -0.48371437 3 10 18297 5.55000000 1204755001 1204755001 -5.00000000
-0.61667323 -11.84594250 2.30573583 15 11 18298 12.08400000 1204755004 1204755004 11.00000000
-2.36906123 -45.35584259 -2.38023925 12 12 18299 45.48000000 1204755006 1204755006 -3.00000000
-0.61917633 -11.81458759 2.73135567 53 13 18300 12.14200000 1204755008 1204755008 13.00000000
-2.38276219 -45.31448364 -0.79206002 6 14 18301 45.38400000 1204755010 1204755010 -1.00000000
-0.53220093 -10.08762360 2.70672965 47 15 18302 10.45800000 1204755013 1204755013 15.00000000
-0.10621828 -1.96762383 -0.52799088 3 0 18309 2.04000000 1204755033 1204755033 -15.00000000
-2.45210075 -45.27674103 0.79146665 55 1 18310 45.35000000 1204755036 1204755036 1.00000000
-0.12264120 -2.25720930 -0.52188647 4 2 18311 2.32000000 1204755038 1204755038 -13.00000000
-2.45906448 -45.25904083 2.37542439 100 3 18311 45.38800000 1204755040 1204755040 3.00000000
-0.14489506 -2.65822697 -0.51747400 3 4 18312 2.71200000 1204755043 1204755043 -11.00000000
-1.91237938 -34.97196579 3.06422162 40 5 18313 35.15800000 1204755045 1204755045 5.00000000
-0.17604637 -3.20911264 -0.50903773 1 6 18314 3.25400000 1204755047 1204755047 -9.00000000
-0.95936894 -17.43250847 2.14368176 4 7 18315 17.59000000 1204755050 1204755050 7.00000000
-0.22531043 -4.08109045 -0.50185794 2 8 18316 4.11800000 1204755052 1204755052 -7.00000000
-0.99065942 -17.88727951 2.83740830 41 9 18317 18.13800000 1204755054 1204755054 9.00000000
-0.30574000 -5.52042055 -0.48371437 3 10 18317 5.55000000 1204755057 1204755057 -5.00000000
-0.65834624 -11.84959793 2.30688071 18 11 18318 12.09000000 1204755059 1204755059 11.00000000
-2.52870202 -45.37122726 -2.38149524 12 12 18319 45.50400000 1204755061 1204755061 -3.00000000
-0.66084826 -11.82013702 2.73315525 51 13 18320 12.15000000 1204755063 1204755063 13.00000000
-2.54070067 -45.30189896 -0.79199022 6 14 18321 45.38000000 1204755066 1204755066 -1.00000000
-0.56816965 -10.09920597 2.71035314 47 15 18322 10.47200000 1204755068 1204755068 15.00000000
-0.07616669 -1.32499468 -0.35561737 6 0 18329 1.37400000 1204755089 1204755089 -15.00000000
-2.61001587 -45.26591110 0.79143173 66 1 18330 45.34800000 1204755091 1204755091 1.00000000
-0.13119468 -2.26844025 -0.52458584 4 2 18331 2.33200000 1204755093 1204755093 -13.00000000
-2.61611056 -45.23423004 2.37458706 93 3 18331 45.37200000 1204755096 1204755096 3.00000000
-0.15394573 -2.65378499 -0.51671076 3 4 18332 2.70800000 1204755098 1204755098 -11.00000000
-2.03652596 -35.00087738 3.06735921 40 5 18333 35.19400000 1204755100 1204755100 5.00000000
-0.18759245 -3.21439457 -0.50997633 1 6 18334 3.26000000 1204755103 1204755103 -9.00000000
-1.16950500 -19.97950172 2.45737338 2 7 18335 20.16400000 1204755105 1204755105 7.00000000
-0.23699513 -4.03668213 -0.49649569 2 8 18336 4.07400000 1204755107 1204755107 -7.00000000
-1.05008614 -17.88586807 2.83772111 41 9 18336 18.14000000 1204755110 1204755110 9.00000000
-0.32500800 -5.51931953 -0.48371437 3 10 18337 5.55000000 1204755112 1204755112 -5.00000000
-0.70016807 -11.85506725 2.30840731 18 11 18338 12.09800000 1204755114 1204755114 11.00000000
-2.68847895 -45.38604736 -2.38275146 12 12 18339 45.52800000 1204755116 1204755116 -3.00000000
-0.70175749 -11.81192207 2.73180556 53 13 18340 12.14400000 1204755119 1204755119 13.00000000
-2.69834256 -45.28476715 -0.79185057 6 14 18341 45.37200000 1204755121 1204755121 -1.00000000
-0.60411042 -10.10873127 2.71345878 47 15 18342 10.48400000 1204755123 1204755123 15.00000000
-0.08043852 -1.31893599 -0.35406446 16 0 18349 1.36800000 1204755144 1204755144 -15.00000000
-2.76812959 -45.25851822 0.79146665 77 1 18350 45.35000000 1204755146 1204755146 1.00000000
-0.13911222 -2.26796865 -0.52458584 4 2 18351 2.33200000 1204755149 1204755149 -13.00000000
-2.77484751 -45.23877716 2.37531972 72 3 18351 45.38600000 1204755151 1204755151 3.00000000
-0.16272607 -2.64539313 -0.51518428 3 4 18352 2.70000000 1204755153 1204755153 -11.00000000
-2.16003871 -35.01543045 3.06927657 40 5 18353 35.21600000 1204755156 1204755156 5.00000000
-0.19868967 -3.21174860 -0.50966346 3 6 18354 3.25800000 1204755158 1204755158 -9.00000000
-1.24169767 -20.01492310 2.46224833 2 7 18355 20.20400000 1204755160 1204755160 7.00000000
-0.25207043 -4.05168009 -0.49844560 2 8 18356 4.09000000 1204755163 1204755163 -7.00000000
-0.34625703 -5.54996777 -0.48650336 3 10 18357 5.58200000 1204755167 1204755167 -5.00000000
-0.74240386 -11.86626720 2.31107855 15 11 18358 12.11200000 1204755169 1204755169 11.00000000
-0.74335164 -11.81523514 2.73315525 51 13 18360 12.15000000 1204755174 1204755174 13.00000000
-2.85690331 -45.28305817 -0.79199022 6 14 18361 45.38000000 1204755176 1204755176 -1.00000000
-0.63902688 -10.10077667 2.71190596 47 15 18362 10.47800000 1204755179 1204755179 15.00000000
-0.08406787 -1.30709469 -0.35095862 22 0 18368 1.35600000 1204755199 1204755199 -15.00000000
-2.91742492 -45.23711777 0.79125720 100 1 18369 45.33800000 1204755202 1204755202 1.00000000
-0.14738685 -2.27916288 -0.52728528 4 2 18370 2.34400000 1204755204 1204755204 -13.00000000
-2.92536497 -45.23730087 2.37573838 62 3 18370 45.39400000 1204755206 1204755206 3.00000000
-0.17200576 -2.65267563 -0.51671076 3 4 18371 2.70800000 1204755209 1204755209 -11.00000000
-2.27808118 -35.03789902 3.07189131 40 5 18372 35.24600000 1204755211 1204755211 5.00000000
-0.20933913 -3.21107221 -0.50966346 3 6 18373 3.25800000 1204755213 1204755213 -9.00000000
-1.30624998 -19.98296356 2.45883584 2 7 18374 20.17600000 1204755215 1204755215 7.00000000
-0.26602423 -4.05874538 -0.49942058 2 8 18375 4.09800000 1204755218 1204755218 -7.00000000
-0.87375128 -13.33086872 2.11593246 3 9 18375 13.52600000 1204755220 1204755220 9.00000000
-0.35943326 -5.46926498 -0.47953090 3 10 18376 5.50200000 1204755222 1204755222 -5.00000000
-0.78123337 -11.85590363 2.30955219 15 11 18377 12.10400000 1204755225 1204755225 11.00000000
-2.99076366 -45.26705170 -2.37751794 12 12 18378 45.42800000 1204755227 1204755227 -3.00000000
-0.78239948 -11.81076145 2.73270535 51 13 18379 12.14800000 1204755229 1204755229 13.00000000
-3.00837684 -45.29328537 -0.79233927 6 14 18380 45.40000000 1204755232 1204755232 -1.00000000
-0.67037213 -10.09293652 2.71035314 45 15 18380 10.47200000 1204755234 1204755234 15.00000000
-0.08797635 -1.29715621 -0.34837043 24 0 18388 1.34600000 1204755255 1204755255 -15.00000000
-3.07762027 -45.26057434 0.79185057 55 1 18389 45.37200000 1204755257 1204755257 1.00000000
-0.15401627 -2.25919223 -0.52278626 4 2 18390 2.32400000 1204755259 1204755259 -13.00000000
-3.08461332 -45.24673843 2.37678504 41 3 18390 45.41400000 1204755262 1204755262 3.00000000
-0.18046103 -2.64030695 -0.51442105 3 4 18391 2.69600000 1204755264 1204755264 -11.00000000
-2.40377760 -35.07942581 3.07624912 40 5 18392 35.29600000 1204755266 1204755266 5.00000000
-0.21959886 -3.19652677 -0.50747341 3 6 18393 3.24400000 1204755268 1204755268 -9.00000000
-1.29838443 -18.85143280 2.32014847 2 7 18394 19.03800000 1204755271 1204755271 7.00000000
-0.28073725 -4.06571341 -0.50039554 2 8 18395 4.10600000 1204755273 1204755273 -7.00000000
-1.23665524 -17.90957832 2.84335279 16 9 18395 18.17600000 1204755275 1204755275 9.00000000
-0.37742162 -5.45207596 -0.47813639 3 10 18396 5.48600000 1204755278 1204755278 -5.00000000
-0.82220566 -11.84722900 2.30840731 12 11 18397 12.09800000 1204755280 1204755280 11.00000000
-3.15568829 -45.35595703 -2.38275146 12 12 18398 45.52800000 1204755282 1204755282 -3.00000000
-0.82524908 -11.83128643 2.73810434 55 13 18399 12.17200000 1204755285 1204755285 13.00000000
-3.16925144 -45.32240677 -0.79303735 6 14 18400 45.44000000 1204755287 1204755287 -1.00000000
-0.70736009 -10.09041214 2.71035314 47 15 18401 10.47200000 1204755289 1204755289 15.00000000
-0.09204114 -1.28719032 -0.34578225 26 0 18409 1.33600000 1204755310 1204755310 -15.00000000
-3.24391699 -45.25497437 0.79195529 55 1 18410 45.37800000 1204755312 1204755312 1.00000000
-0.16215593 -2.25666881 -0.52233636 2 2 18411 2.32200000 1204755315 1204755315 -13.00000000
-3.25932956 -45.24850845 2.37751794 51 3 18412 45.42800000 1204755317 1204755317 3.00000000
-0.19126545 -2.65529323 -0.51747400 3 4 18412 2.71200000 1204755319 1204755319 -11.00000000
-2.53434277 -35.09820175 3.07868958 40 5 18413 35.32400000 1204755321 1204755321 5.00000000
-0.23102802 -3.19175982 -0.50684768 3 6 18414 3.24000000 1204755324 1204755324 -9.00000000
-1.36344719 -18.79111099 2.31332397 6 7 18415 18.98200000 1204755326 1204755326 7.00000000
-0.29333290 -4.03297949 -0.49649569 2 8 18416 4.07400000 1204755328 1204755328 -7.00000000
-1.30243206 -17.90689659 2.84366560 49 9 18416 18.17800000 1204755331 1204755331 9.00000000
-0.39827120 -5.46257877 -0.47918227 3 10 18417 5.49800000 1204755333 1204755333 -5.00000000
-0.81639540 -11.17057323 2.17713070 6 11 18418 11.41000000 1204755335 1204755335 11.00000000
-0.86446846 -11.77182007 2.72505713 51 13 18420 12.11400000 1204755340 1204755340 13.00000000
-0.74357063 -10.10136795 2.71397662 47 15 18421 10.48600000 1204755345 1204755345 15.00000000
-0.09667823 -1.28878772 -0.34629989 28 0 18429 1.33800000 1204755365 1204755365 -15.00000000
-3.40276599 -45.25534058 0.79216474 55 1 18430 45.39000000 1204755368 1204755368 1.00000000
-3.41740680 -45.23884583 2.37762260 51 3 18432 45.43000000 1204755372 1204755372 3.00000000
-0.19964567 -2.64286327 -0.51518428 3 4 18432 2.70000000 1204755374 1204755374 -11.00000000
-2.65819693 -35.10702133 3.08025837 40 5 18433 35.34200000 1204755377 1204755377 5.00000000
-0.24261640 -3.19684315 -0.50778627 3 6 18434 3.24600000 1204755379 1204755379 -9.00000000
-1.59781790 -21.00511551 2.58655500 10 7 18435 21.22400000 1204755381 1204755381 7.00000000
-0.30710703 -4.02797222 -0.49600822 2 8 18436 4.07000000 1204755384 1204755384 -7.00000000
-1.36865747 -17.90987968 2.84491730 41 9 18437 18.18600000 1204755386 1204755386 9.00000000
-0.41733673 -5.46115541 -0.47918227 3 10 18437 5.49800000 1204755388 1204755388 -5.00000000
-0.81280130 -10.61171913 2.06875110 12 11 18438 10.84200000 1204755391 1204755391 11.00000000
-0.90884364 -11.81147671 2.73495483 55 13 18440 12.15800000 1204755395 1204755395 13.00000000
-1.32943201 -17.23817825 -0.30178702 2 14 18441 17.29200000 1204755398 1204755398 -1.00000000
-0.78103566 -10.10435295 2.71552944 45 15 18442 10.49200000 1204755400 1204755400 15.00000000
-0.09989518 -1.27497840 -0.34267640 30 0 18448 1.32400000 1204755421 1204755421 -15.00000000
-3.55375886 -45.25576782 0.79237413 55 1 18449 45.40200000 1204755423 1204755423 1.00000000
-3.56850481 -45.24120331 2.37835526 41 3 18451 45.44400000 1204755427 1204755427 3.00000000
-0.20809987 -2.63827252 -0.51442105 3 4 18451 2.69600000 1204755430 1204755430 -11.00000000
-2.77475834 -35.09999847 3.08043265 50 5 18452 35.34400000 1204755432 1204755432 5.00000000
-0.25430831 -3.20980549 -0.50997633 1 6 18453 3.26000000 1204755434 1204755434 -9.00000000
-0.32140744 -4.03880501 -0.49747065 2 8 18455 4.08200000 1204755439 1204755439 -7.00000000
-1.42460275 -17.90155411 2.84429145 45 9 18455 18.18200000 1204755441 1204755441 9.00000000
-0.43481070 -5.45179701 -0.47848502 3 10 18456 5.49000000 1204755444 1204755444 -5.00000000
-0.84783012 -10.60700893 2.06836963 12 11 18457 10.84000000 1204755446 1204755446 11.00000000
-0.79681748 -9.90350914 2.66221261 47 15 18460 10.28600000 1204755455 1204755455 15.00000000
-0.10355697 -1.26499486 -0.34008822 28 0 18468 1.31400000 1204755476 1204755476 -15.00000000
-3.71121860 -45.23711014 0.79226947 44 1 18469 45.39600000 1204755478 1204755478 1.00000000
-3.72640443 -45.22846985 2.37835526 41 3 18471 45.44400000 1204755483 1204755483 3.00000000
-0.11913244 -1.44594562 -0.28201568 1 4 18471 1.47800000 1204755485 1204755485 -11.00000000
-2.89742732 -35.09208679 3.08060694 40 5 18472 35.34600000 1204755487 1204755487 5.00000000
-0.26485950 -3.20102358 -0.50872487 3 6 18473 3.25200000 1204755490 1204755490 -9.00000000
-1.74141312 -21.00166702 2.58752990 40 7 18474 21.23200000 1204755492 1204755492 7.00000000
-0.33484599 -4.02974510 -0.49649569 2 8 18475 4.07400000 1204755494 1204755494 -7.00000000
-1.49118924 -17.90802383 2.84616876 45 9 18476 18.19400000 1204755497 1204755497 9.00000000
-0.45383835 -5.45024633 -0.47848502 3 10 18476 5.49000000 1204755499 1204755499 -5.00000000
-0.77620989 -9.26302528 2.14603305 7 13 18479 9.54000000 1204755506 1204755506 13.00000000
-0.84914720 -10.09110260 2.71345878 47 15 18481 10.48400000 1204755510 1204755510 15.00000000
-0.10895804 -1.27617478 -0.34319407 30 0 18488 1.32600000 1204755531 1204755531 -15.00000000
-3.87012577 -45.23583221 0.79247886 33 1 18489 45.40800000 1204755533 1204755533 1.00000000
-3.88596797 -45.23508453 2.37940192 41 3 18491 45.46400000 1204755538 1204755538 3.00000000
-0.12451508 -1.44943297 -0.28277892 3 4 18491 1.48200000 1204755540 1204755540 -11.00000000
-3.02434659 -35.13336945 3.08513904 40 5 18492 35.39800000 1204755543 1204755543 5.00000000
-0.27586180 -3.19811153 -0.50841200 1 6 18493 3.25000000 1204755545 1204755545 -9.00000000
-1.81505394 -20.99941444 2.58801746 40 7 18494 21.23600000 1204755547 1204755547 7.00000000
-0.35113713 -4.05426168 -0.49966431 4 8 18495 4.10000000 1204755550 1204755550 -7.00000000
-1.55158877 -17.91478920 2.84804583 41 9 18495 18.20600000 1204755552 1204755552 9.00000000
-0.46390286 -5.34541225 -0.46942082 3 10 18496 5.38600000 1204755554 1204755554 -5.00000000
-1.03003371 -11.84476662 2.31107855 12 11 18497 12.11200000 1204755556 1204755556 11.00000000
-0.77158707 -8.83704472 2.04795432 2 13 18499 9.10400000 1204755561 1204755561 13.00000000
-0.88327932 -10.09592915 2.71552944 45 15 18500 10.49200000 1204755566 1204755566 15.00000000
-0.11358312 -1.27771091 -0.34371170 32 0 18508 1.32800000 1204755586 1204755586 -15.00000000
-4.03013372 -45.24594879 0.79289770 11 1 18509 45.43200000 1204755589 1204755589 1.00000000
-4.04473352 -45.23119354 2.37992525 41 3 18511 45.47400000 1204755593 1204755593 3.00000000
-3.15176725 -35.17617798 3.08984542 40 5 18512 35.45200000 1204755598 1204755598 5.00000000
-1.88941157 -21.00481415 2.58947992 40 7 18514 21.24800000 1204755603 1204755603 7.00000000
-0.36760345 -4.07871342 -0.50283289 2 8 18515 4.12600000 1204755605 1204755605 -7.00000000
-1.61937129 -17.93259048 2.85180020 41 9 18516 18.23000000 1204755607 1204755607 9.00000000
-1.07208097 -11.84891987 2.31260514 18 11 18517 12.12000000 1204755612 1204755612 11.00000000
-0.79802239 -8.78577805 2.03670692 3 13 18519 9.05400000 1204755616 1204755616 13.00000000
-0.11822024 -1.27923024 -0.34422934 34 0 18528 1.33000000 1204755642 1204755642 -15.00000000
-4.20259523 -45.21679688 2.37992525 31 3 18531 45.47400000 1204755649 1204755649 3.00000000
-3.27601361 -35.18083191 3.09123993 50 5 18532 35.46800000 1204755653 1204755653 5.00000000
-0.13817291 -1.48102713 -0.23559031 1 6 18533 1.50600000 1204755656 1204755656 -9.00000000
-1.96382904 -21.00995064 2.59094214 40 7 18534 21.26000000 1204755658 1204755658 7.00000000
-1.67772388 -17.91531944 2.84992313 49 9 18535 18.21800000 1204755662 1204755662 9.00000000
-1.11343491 -11.84510517 2.31260514 12 11 18537 12.12000000 1204755667 1204755667 11.00000000
-0.75466549 -7.98352718 2.14871573 9 15 18540 8.30200000 1204755676 1204755676 15.00000000
-0.12139345 -1.26534867 -0.34060585 30 0 18548 1.31600000 1204755697 1204755697 -15.00000000
-4.36193991 -45.21775818 2.38076258 10 3 18551 45.49000000 1204755704 1204755704 3.00000000
-3.39879775 -35.16918182 3.09123993 40 5 18552 35.46800000 1204755709 1204755709 5.00000000
-0.14486471 -1.49626529 -0.23809326 14 6 18553 1.52200000 1204755711 1204755711 -9.00000000
-2.04041338 -21.03655624 2.59508586 45 7 18554 21.29400000 1204755713 1204755713 7.00000000
-1.74452388 -17.92084694 2.85180020 45 9 18556 18.23000000 1204755718 1204755718 9.00000000
-1.15687144 -11.86264038 2.31680274 12 11 18557 12.14200000 1204755722 1204755722 11.00000000
-1.15470672 -11.79781246 2.73675442 43 13 18559 12.16600000 1204755727 1204755727 13.00000000
-0.74350733 -7.56927156 2.03794122 4 15 18561 7.87400000 1204755732 1204755732 15.00000000
-0.12485360 -1.25530541 -0.33801767 36 0 18568 1.30600000 1204755752 1204755752 -15.00000000
-3.52471757 -35.18882370 3.09402895 10 5 18572 35.50000000 1204755764 1204755764 5.00000000
-0.14693120 -1.46430242 -0.23308735 30 6 18573 1.49000000 1204755766 1204755766 -9.00000000
-2.11482501 -21.03918076 2.59630442 40 7 18574 21.30400000 1204755768 1204755768 7.00000000
-1.80433786 -17.91889381 2.85242605 45 9 18575 18.23400000 1204755773 1204755773 9.00000000
-1.19807529 -11.85657692 2.31642127 12 11 18577 12.14000000 1204755778 1204755778 11.00000000
-1.19804430 -11.81503677 2.74170351 53 13 18579 12.18800000 1204755782 1204755782 13.00000000
-0.14792389 -1.45628357 -0.02555032 1 14 18580 1.46400000 1204755785 1204755785 -1.00000000
-0.75240016 -7.40724134 1.99497724 9 15 18580 7.70800000 1204755787 1204755787 15.00000000
-0.12943259 -1.25678360 -0.33853531 34 0 18588 1.30800000 1204755808 1204755808 -15.00000000
-0.15163350 -1.45985103 -0.23246162 71 6 18593 1.48600000 1204755821 1204755821 -9.00000000
-2.18927956 -21.04154205 2.59752321 30 7 18594 21.31400000 1204755824 1204755824 7.00000000
-1.86810410 -17.92427635 2.85430336 49 9 18595 18.24600000 1204755828 1204755828 9.00000000
-1.23986363 -11.85622787 2.31718445 12 11 18597 12.14400000 1204755833 1204755833 11.00000000
-0.15293664 -1.45999706 -0.07693385 2 12 18598 1.47000000 1204755835 1204755835 -3.00000000
-1.24049938 -11.82241154 2.74440289 59 13 18599 12.20000000 1204755838 1204755838 13.00000000
-0.77804971 -7.40264845 1.99445951 6 15 18600 7.70600000 1204755842 1204755842 15.00000000
-0.13485786 -1.26398456 -0.34060585 34 0 18609 1.31600000 1204755863 1204755863 -15.00000000
-0.15550412 -1.44553709 -0.23027153 76 6 18614 1.47200000 1204755877 1204755877 -9.00000000
-2.26574802 -21.02745628 2.59679198 12 7 18615 21.30800000 1204755879 1204755879 7.00000000
-0.15017268 -1.39140964 -0.17183578 1 8 18616 1.41000000 1204755881 1204755881 -7.00000000
-1.93797600 -17.92679024 2.85586762 53 9 18617 18.25600000 1204755884 1204755884 9.00000000
-1.28288782 -11.84770012 2.31642127 12 11 18618 12.14000000 1204755888 1204755888 11.00000000
-1.28424323 -11.82166004 2.74530268 57 13 18620 12.20400000 1204755893 1204755893 13.00000000
-1.09857595 -10.09615135 2.72122335 30 15 18621 10.51400000 1204755897 1204755897 15.00000000
-0.13969249 -1.26734662 -0.34164113 32 0 18629 1.32000000 1204755918 1204755918 -15.00000000
-0.16071825 -1.45112336 0.07651517 2 3 18632 1.46200000 1204755925 1204755925 3.00000000
-0.16167739 -1.45745850 0.12829325 2 5 18633 1.47200000 1204755930 1204755930 5.00000000
-0.16076718 -1.44694877 -0.23058440 45 6 18634 1.47400000 1204755932 1204755932 -9.00000000
-0.15238990 -1.36720240 -0.16891091 1 8 18636 1.38600000 1204755937 1204755937 -7.00000000
-2.00010204 -17.91598892 2.85524178 45 9 18637 18.25200000 1204755939 1204755939 9.00000000
-1.32554519 -11.85485649 2.31871080 12 11 18638 12.15200000 1204755944 1204755944 11.00000000
-1.32506633 -11.81323242 2.74440289 56 13 18640 12.20000000 1204755948 1204755948 13.00000000
-0.16141029 -1.43674135 -0.02523618 4 14 18641 1.44600000 1204755950 1204755950 -1.00000000
-1.03167129 -9.16866302 2.47223949 22 15 18642 9.55200000 1204755953 1204755953 15.00000000
-0.14346042 -1.26109278 -0.34008822 34 0 18649 1.31400000 1204755974 1204755974 -15.00000000
-0.16873088 -1.47634995 0.07787590 15 3 18652 1.48800000 1204755980 1204755980 3.00000000
-0.16789679 -1.46678257 0.12916481 2 5 18653 1.48200000 1204755985 1204755985 5.00000000
-0.16078995 -1.39821565 -0.17281073 1 8 18656 1.41800000 1204755992 1204755992 -7.00000000
-2.06330633 -17.91478539 2.85618043 45 9 18657 18.25800000 1204755994 1204755994 9.00000000
-1.36849308 -11.86380959 2.32138228 12 11 18658 12.16600000 1204755999 1204755999 11.00000000
-1.36808598 -11.82402134 2.74800205 56 13 18660 12.21600000 1204756003 1204756003 13.00000000
-1.17014492 -10.09783077 2.72381163 49 15 18661 10.52400000 1204756008 1204756008 15.00000000
-0.14718641 -1.25482833 -0.33853531 34 0 18669 1.30800000 1204756029 1204756029 -15.00000000
-0.17131242 -1.45393312 0.07672451 40 3 18672 1.46600000 1204756036 1204756036 3.00000000
-0.17394975 -1.47410226 0.12986206 18 5 18673 1.49000000 1204756040 1204756040 5.00000000
-0.16239832 -1.37004781 -0.16939838 1 8 18676 1.39000000 1204756047 1204756047 -7.00000000
-2.12699246 -17.91728210 2.85774469 45 9 18677 18.26800000 1204756050 1204756050 9.00000000
-1.40850651 -11.84726238 2.31909251 12 11 18678 12.15400000 1204756054 1204756054 11.00000000
-1.41027415 -11.82691383 2.74980164 56 13 18680 12.22400000 1204756059 1204756059 13.00000000
-0.17119950 -1.43359399 -0.02520127 4 14 18681 1.44400000 1204756061 1204756061 -1.00000000
-1.20424044 -10.08409405 2.72122335 49 15 18681 10.51400000 1204756063 1204756063 15.00000000
-0.15227243 -1.26200509 -0.34060585 36 0 18688 1.31600000 1204756084 1204756084 -15.00000000
-0.17731890 -1.46528447 0.07735255 52 3 18690 1.47800000 1204756091 1204756091 3.00000000
-0.16838188 -1.38132477 -0.17086081 1 8 18695 1.40200000 1204756102 1204756102 -7.00000000
-2.18350959 -17.91247368 2.85805774 41 9 18695 18.27000000 1204756105 1204756105 9.00000000
-1.44778562 -11.84252644 2.31909251 12 11 18697 12.15400000 1204756109 1204756109 11.00000000
-1.44948578 -11.82217216 2.74980164 56 13 18699 12.22400000 1204756114 1204756114 13.00000000
-0.17400292 -1.41714001 -0.02492204 1 14 18700 1.42800000 1204756116 1204756116 -1.00000000
-1.23932195 -10.09346676 2.72484684 49 15 18700 10.52800000 1204756119 1204756119 15.00000000
-0.15739106 -1.26721716 -0.34215876 38 0 18708 1.32200000 1204756139 1204756139 -15.00000000
-0.18021615 -1.44480574 0.07630582 30 3 18711 1.45800000 1204756146 1204756146 3.00000000
-0.18274477 -1.46299887 0.12899050 90 5 18712 1.48000000 1204756151 1204756151 5.00000000
-0.16525523 -1.32110822 -0.21087366 2 6 18713 1.34800000 1204756153 1204756153 -9.00000000
-0.17270842 -1.37678933 -0.17037334 1 8 18715 1.39800000 1204756158 1204756158 -7.00000000
-2.25136328 -17.92198944 2.86087346 20 9 18716 18.28800000 1204756160 1204756160 9.00000000
-1.48960507 -11.84129715 2.31985569 12 11 18717 12.15800000 1204756165 1204756165 11.00000000
-1.49025631 -11.81317425 2.74890184 57 13 18719 12.22000000 1204756169 1204756169 13.00000000
-0.18095362 -1.43239546 -0.02520127 1 14 18720 1.44400000 1204756172 1204756172 -1.00000000
-1.27679288 -10.09268951 2.72588229 49 15 18721 10.53200000 1204756174 1204756174 15.00000000
-0.16205831 -1.26857638 -0.34267640 38 0 18728 1.32400000 1204756195 1204756195 -15.00000000
-0.18759663 -1.46037591 0.12881619 100 5 18732 1.47800000 1204756206 1204756206 5.00000000
-0.16986576 -1.32052338 -0.21087366 2 6 18733 1.34800000 1204756208 1204756208 -9.00000000
-0.19730823 -1.53174615 0.18962871 1 7 18734 1.55600000 1204756211 1204756211 7.00000000
-0.17598954 -1.36436534 -0.16891091 1 8 18735 1.38600000 1204756213 1204756213 -7.00000000
-2.31188464 -17.89834976 2.85837054 12 9 18736 18.27200000 1204756215 1204756215 9.00000000
-0.17279176 -1.33773422 -0.11800887 3 10 18736 1.35400000 1204756218 1204756218 -5.00000000
-1.53218901 -11.84576035 2.32176375 12 11 18737 12.16800000 1204756220 1204756220 11.00000000
-0.17573455 -1.35678899 -0.07170026 2 12 18738 1.37000000 1204756222 1204756222 -3.00000000
-1.53148282 -11.80789948 2.74890184 55 13 18739 12.22000000 1204756225 1204756225 13.00000000
-0.18286189 -1.40795863 -0.02478242 1 14 18740 1.42000000 1204756227 1204756227 -1.00000000
-1.31174731 -10.09989548 2.72898793 49 15 18740 10.54400000 1204756229 1204756229 15.00000000
-0.16598251 -1.26417208 -0.34164113 38 0 18748 1.32000000 1204756250 1204756250 -15.00000000
-0.18796082 -1.42770422 0.07546845 2 3 18750 1.44200000 1204756257 1204756257 3.00000000
-0.19165015 -1.45181119 0.12811895 100 5 18752 1.47000000 1204756261 1204756261 5.00000000
-0.17447421 -1.31992233 -0.21087366 2 6 18753 1.34800000 1204756264 1204756264 -9.00000000
-0.19379747 -1.46413863 0.18134159 1 7 18754 1.48800000 1204756266 1204756266 7.00000000
-0.17762110 -1.34012806 -0.16598605 1 8 18755 1.36200000 1204756268 1204756268 -7.00000000
-2.37720633 -17.91171074 2.86181211 4 9 18756 18.29400000 1204756271 1204756271 9.00000000
-0.18375133 -1.38452458 -0.12219235 3 10 18756 1.40200000 1204756273 1204756273 -5.00000000
-1.57508087 -11.85201645 2.32405353 12 11 18757 12.18000000 1204756275 1204756275 11.00000000
-0.18521182 -1.39180386 -0.07358436 2 12 18758 1.40600000 1204756278 1204756278 -3.00000000
-1.57269073 -11.80248165 2.74890184 57 13 18759 12.22000000 1204756280 1204756280 13.00000000
-0.19042020 -1.42713296 -0.02513147 1 14 18760 1.44000000 1204756282 1204756282 -1.00000000
-1.34699452 -10.09525490 2.72898793 49 15 18760 10.54400000 1204756284 1204756284 15.00000000
-0.16807072 -1.24635434 -0.33698240 42 0 18768 1.30200000 1204756305 1204756305 -15.00000000
-0.19105618 -1.41494179 0.02492204 1 1 18769 1.42800000 1204756307 1204756307 1.00000000
-0.19185260 -1.41710973 0.07494509 2 3 18771 1.43200000 1204756312 1204756312 3.00000000
-0.19564618 -1.44323599 0.12742169 100 5 18772 1.46200000 1204756317 1204756317 5.00000000
-0.17748635 -1.30756068 -0.20899644 2 6 18773 1.33600000 1204756319 1204756319 -9.00000000
-0.19569892 -1.43984914 0.17841671 1 7 18774 1.46400000 1204756321 1204756321 7.00000000
-0.18336871 -1.34736776 -0.16696100 1 8 18775 1.37000000 1204756324 1204756324 -7.00000000
-0.21017492 -1.54433608 0.24685359 2 9 18775 1.57800000 1204756326 1204756326 9.00000000
-0.18481682 -1.35623682 -0.11975199 3 10 18776 1.37400000 1204756328 1204756328 -5.00000000
-1.61803508 -11.85811806 2.32634330 12 11 18777 12.19200000 1204756331 1204756331 11.00000000
-0.18898752 -1.38323331 -0.07316567 4 12 18778 1.39800000 1204756333 1204756333 -3.00000000
-1.61546433 -11.80850506 2.75160122 56 13 18779 12.23200000 1204756335 1204756335 13.00000000
-0.19485788 -1.42249715 -0.02506166 1 14 18780 1.43600000 1204756337 1204756337 -1.00000000
-1.38293636 -10.08259392 2.72691751 49 15 18781 10.53600000 1204756340 1204756340 15.00000000
-0.17453912 -1.26106894 -0.34112349 40 0 18788 1.31800000 1204756360 1204756360 -15.00000000
-0.19626859 -1.41624713 0.02495694 1 1 18789 1.43000000 1204756363 1204756363 1.00000000
-0.19957049 -1.43822706 0.07609648 2 3 18790 1.45400000 1204756367 1204756367 3.00000000
-0.20150642 -1.44846451 0.12794463 27 5 18792 1.46800000 1204756372 1204756372 5.00000000
-0.18259457 -1.31084621 -0.20962219 2 6 18793 1.34000000 1204756374 1204756374 -9.00000000
-0.20127216 -1.44308937 0.17890419 3 7 18794 1.46800000 1204756377 1204756377 7.00000000
-0.19026724 -1.36244762 -0.16891091 1 8 18795 1.38600000 1204756379 1204756379 -7.00000000
-0.21036270 -1.50442851 0.24059620 4 9 18796 1.53800000 1204756381 1204756381 9.00000000
-0.18817030 -1.34571743 -0.11888044 6 10 18796 1.36400000 1204756384 1204756384 -5.00000000
-1.65669572 -11.83295441 2.32252717 12 11 18797 12.17200000 1204756386 1204756386 11.00000000
-0.19187383 -1.36871982 -0.07243297 4 12 18798 1.38400000 1204756388 1204756388 -3.00000000
-1.65884089 -11.81823254 2.75520062 56 13 18799 12.24800000 1204756390 1204756390 13.00000000
-0.19703910 -1.40200603 -0.02471261 1 14 18800 1.41600000 1204756393 1204756393 -1.00000000
-1.41893041 -10.08344460 2.72847033 49 15 18801 10.54200000 1204756395 1204756395 15.00000000
-0.18079120 -1.27189648 -0.34422934 40 0 18809 1.33000000 1204756416 1204756416 -15.00000000
-0.20117632 -1.41353846 0.02492204 1 1 18810 1.42800000 1204756418 1204756418 1.00000000
-0.20202290 -1.41771305 0.07504976 2 3 18811 1.43400000 1204756423 1204756423 3.00000000
-0.19187300 -1.34145570 -0.21462809 2 6 18814 1.37200000 1204756430 1204756430 -9.00000000
-0.20684141 -1.44430697 0.17914793 3 7 18815 1.47000000 1204756432 1204756432 7.00000000
-0.19441429 -1.35584617 -0.16817969 1 8 18816 1.38000000 1204756434 1204756434 -7.00000000
-0.21252866 -1.48217583 0.23715465 9 9 18816 1.51600000 1204756437 1204756437 9.00000000
-0.19734843 -1.37460124 -0.12149511 9 10 18817 1.39400000 1204756439 1204756439 -5.00000000
-1.70117188 -11.83457565 2.32405353 12 11 18818 12.18000000 1204756441 1204756441 11.00000000
-1.70131195 -11.80628681 2.75385070 56 13 18820 12.24200000 1204756446 1204756446 13.00000000
-1.45725954 -10.08773613 2.73105860 49 15 18822 10.55200000 1204756450 1204756450 15.00000000
-0.18328005 -1.25787604 -0.34060585 34 0 18829 1.31600000 1204756471 1204756471 -15.00000000
-0.20523845 -1.40514147 0.07442173 2 3 18831 1.42200000 1204756478 1204756478 3.00000000
-0.20955700 -1.43121445 0.12655014 2 5 18833 1.45200000 1204756483 1204756483 5.00000000
-0.19311611 -1.31732392 -0.21087366 2 6 18834 1.34800000 1204756485 1204756485 -9.00000000
-0.21130517 -1.43964803 0.17866045 5 7 18835 1.46600000 1204756487 1204756487 7.00000000
-0.19654834 -1.33748329 -0.16598605 2 8 18836 1.36200000 1204756490 1204756490 -7.00000000
-0.21683952 -1.47556174 0.23621604 45 9 18836 1.51000000 1204756492 1204756492 9.00000000
-0.20388561 -1.38573098 -0.12254097 9 10 18837 1.40600000 1204756494 1204756494 -5.00000000
-1.74390244 -11.83827686 2.32596159 12 11 18838 12.19000000 1204756496 1204756496 11.00000000
-0.20312029 -1.37719119 -0.07295632 6 12 18839 1.39400000 1204756499 1204756499 -3.00000000
-1.74251318 -11.80027580 2.75385070 57 13 18840 12.24200000 1204756501 1204756501 13.00000000
-1.49444354 -10.09596539 2.73468208 54 15 18842 10.56600000 1204756506 1204756506 15.00000000
-0.18517129 -1.24197543 -0.33646476 38 0 18848 1.30000000 1204756526 1204756526 -15.00000000
-0.21225864 -1.42025578 0.07525910 2 3 18850 1.43800000 1204756533 1204756533 3.00000000
-0.21341638 -1.42460048 0.12602720 2 5 18852 1.44600000 1204756538 1204756538 5.00000000
-0.19338143 -1.28932703 -0.20649350 2 6 18853 1.32000000 1204756540 1204756540 -9.00000000
-0.21902591 -1.45857024 0.18109785 18 7 18854 1.48600000 1204756542 1204756542 7.00000000
-0.20157278 -1.34075010 -0.16647352 1 8 18855 1.36600000 1204756545 1204756545 -7.00000000
-0.22085041 -1.46897435 0.23527743 97 9 18855 1.50400000 1204756547 1204756547 9.00000000
-1.78636813 -11.85378361 2.33015943 12 11 18857 12.21200000 1204756552 1204756552 11.00000000
-0.20679219 -1.37058532 -0.07264230 2 12 18858 1.38800000 1204756554 1204756554 -3.00000000
-1.78163469 -11.79443264 2.75385070 55 13 18859 12.24200000 1204756556 1204756556 13.00000000
-1.52470922 -10.08166981 2.73209381 49 15 18860 10.55600000 1204756561 1204756561 15.00000000
-0.19067165 -1.24896038 -0.33853531 32 0 18868 1.30800000 1204756582 1204756582 -15.00000000
-0.21298547 -1.39186621 0.07379370 2 3 18870 1.41000000 1204756589 1204756589 3.00000000
-0.21748169 -1.41793883 0.12550427 4 5 18872 1.44000000 1204756593 1204756593 5.00000000
-0.19608192 -1.27692914 -0.20461628 2 6 18873 1.30800000 1204756595 1204756595 -9.00000000
-0.20594965 -1.33807635 -0.16622978 2 8 18875 1.36400000 1204756600 1204756600 -7.00000000
-0.22657774 -1.47209930 0.23590317 100 9 18875 1.50800000 1204756602 1204756602 9.00000000
-1.82773471 -11.84747601 2.33015943 12 11 18877 12.21200000 1204756607 1204756607 11.00000000
-0.21614812 -1.39946294 -0.07421239 2 12 18878 1.41800000 1204756609 1204756609 -3.00000000
-1.82517648 -11.80354881 2.75745010 57 13 18879 12.25800000 1204756612 1204756612 13.00000000
-1.56017065 -10.06646824 2.72950554 47 15 18881 10.54600000 1204756616 1204756616 15.00000000
-0.19711766 -1.26164818 -0.34215876 34 0 18888 1.32200000 1204756637 1204756637 -15.00000000
-0.22427230 -1.43053949 0.07588714 2 3 18891 1.45000000 1204756644 1204756644 3.00000000
-0.20483091 -1.30355692 -0.20899644 2 6 18893 1.33600000 1204756651 1204756651 -9.00000000
-0.22766082 -1.44720078 0.17987914 100 7 18894 1.47600000 1204756653 1204756653 7.00000000
-0.21216328 -1.34715390 -0.16744848 4 8 18895 1.37400000 1204756655 1204756655 -7.00000000
-0.23048569 -1.46349406 0.23465170 100 9 18895 1.50000000 1204756658 1204756658 9.00000000
-0.21193795 -1.34419656 -0.11905474 6 10 18896 1.36600000 1204756660 1204756660 -5.00000000
-1.86785460 -11.83326721 2.32863307 12 11 18897 12.20400000 1204756662 1204756662 11.00000000
-0.21729082 -1.37502658 -0.07295632 2 12 18898 1.39400000 1204756665 1204756665 -3.00000000
-1.86758554 -11.80480480 2.75924969 56 13 18899 12.26600000 1204756667 1204756667 13.00000000
-0.22272874 -1.40625393 -0.02485223 4 14 18900 1.42400000 1204756669 1204756669 -1.00000000
-1.59565914 -10.07459545 2.73312902 49 15 18900 10.56000000 1204756672 1204756672 15.00000000
-0.20243505 -1.26667535 -0.34371170 34 0 18908 1.32800000 1204756692 1204756692 -15.00000000
-0.22556926 -1.40985155 0.02492204 3 1 18909 1.42800000 1204756695 1204756695 1.00000000
-0.22515351 -1.40411103 0.07452640 2 3 18911 1.42400000 1204756699 1204756699 3.00000000
-0.20812616 -1.29503262 -0.20774497 2 6 18913 1.32800000 1204756706 1204756706 -9.00000000
-0.22924250 -1.42483854 0.17719802 100 7 18914 1.45400000 1204756708 1204756708 7.00000000
-0.21149807 -1.31308794 -0.16330492 2 8 18915 1.34000000 1204756711 1204756711 -7.00000000
-0.23364687 -1.44898820 0.23246162 100 9 18916 1.48600000 1204756713 1204756713 9.00000000
-0.21980050 -1.36311829 -0.12079786 6 10 18916 1.38600000 1204756715 1204756715 -5.00000000
-1.91071332 -11.83636570 2.33054113 12 11 18917 12.21400000 1204756718 1204756718 11.00000000
-0.22463833 -1.39003313 -0.07379370 2 12 18918 1.41000000 1204756720 1204756720 -3.00000000
-1.90722442 -11.78859520 2.75700021 53 13 18919 12.25600000 1204756722 1204756722 13.00000000
-0.22763613 -1.40546799 -0.02485223 1 14 18920 1.42400000 1204756725 1204756725 -1.00000000
-1.63257372 -10.06867981 2.73312902 49 15 18921 10.56000000 1204756727 1204756727 15.00000000
-0.20529768 -1.25642812 -0.34112349 40 0 18928 1.31800000 1204756748 1204756748 -15.00000000
-0.23134583 -1.41120028 0.07494509 6 3 18931 1.43200000 1204756754 1204756754 3.00000000
-0.23360877 -1.42344797 0.12620151 2 5 18932 1.44800000 1204756759 1204756759 5.00000000
-0.21905038 -1.33328319 -0.21400234 2 6 18933 1.36800000 1204756761 1204756761 -9.00000000
-0.23582555 -1.43382347 0.17841671 100 7 18934 1.46400000 1204756764 1204756764 7.00000000
-0.21962790 -1.33388758 -0.16598605 1 8 18935 1.36200000 1204756766 1204756766 -7.00000000
-0.23973432 -1.45600200 0.23371309 100 9 18935 1.49400000 1204756768 1204756768 9.00000000
-0.22423330 -1.36037695 -0.12062355 6 10 18936 1.38400000 1204756771 1204756771 -5.00000000
-1.95265758 -11.83349800 2.33130431 12 11 18937 12.21800000 1204756773 1204756773 11.00000000
-0.22786149 -1.37938774 -0.07327034 2 12 18938 1.40000000 1204756775 1204756775 -3.00000000
-1.94836271 -11.78186607 2.75700021 54 13 18939 12.25600000 1204756778 1204756778 13.00000000
-0.23515357 -1.42044759 -0.02513147 1 14 18940 1.44000000 1204756780 1204756780 -1.00000000
-1.66563821 -10.06130409 2.73261142 42 15 18940 10.55800000 1204756782 1204756782 15.00000000
-0.20713672 -1.24046004 -0.33698240 36 0 18948 1.30200000 1204756803 1204756803 -15.00000000
-0.23990028 -1.43205214 0.07609648 4 3 18951 1.45400000 1204756810 1204756810 3.00000000
-0.21781614 -1.29744434 -0.20837070 2 6 18953 1.33200000 1204756817 1204756817 -9.00000000
-0.23852609 -1.41928804 0.17671055 100 7 18954 1.45000000 1204756819 1204756819 7.00000000
-0.23284562 -1.38400996 -0.17232326 1 8 18955 1.41400000 1204756821 1204756821 -7.00000000
-0.24375694 -1.44732177 0.23246162 100 9 18956 1.48600000 1204756824 1204756824 9.00000000
-0.22964233 -1.36351538 -0.12097217 3 10 18956 1.38800000 1204756826 1204756826 -5.00000000
-1.99852192 -11.85371304 2.33664703 12 11 18957 12.24600000 1204756828 1204756828 11.00000000
-0.23799336 -1.41009450 -0.07494509 2 12 18958 1.43200000 1204756830 1204756830 -3.00000000
-1.99045110 -11.78075790 2.75834990 46 13 18959 12.26200000 1204756833 1204756833 13.00000000
-0.24011043 -1.41961801 -0.02513147 1 14 18960 1.44000000 1204756835 1204756835 -1.00000000
-1.70218098 -10.05322742 2.73209381 14 15 18961 10.55600000 1204756837 1204756837 15.00000000
-0.20659301 -1.21116436 -0.32921782 25 0 18968 1.27200000 1204756858 1204756858 -15.00000000
-0.24253958 -1.41742539 0.07536378 2 3 18971 1.44000000 1204756865 1204756865 3.00000000
-0.22501454 -1.31225181 -0.21087366 2 6 18973 1.34800000 1204756872 1204756872 -9.00000000
-0.24448638 -1.42431629 0.17744176 100 7 18974 1.45600000 1204756874 1204756874 7.00000000
-0.24372643 -1.41840434 -0.17671055 1 8 18975 1.45000000 1204756877 1204756877 -7.00000000
-0.24922416 -1.45039916 0.23308735 100 9 18975 1.49000000 1204756879 1204756879 9.00000000
-0.23642701 -1.37448680 -0.12201804 3 10 18976 1.40000000 1204756881 1204756881 -5.00000000
-2.04088640 -11.85246849 2.33779192 12 11 18977 12.25200000 1204756883 1204756883 11.00000000
-0.24630672 -1.42893744 -0.07599181 2 12 18978 1.45200000 1204756886 1204756886 -3.00000000
-2.03255558 -11.77949905 2.75969958 41 13 18979 12.26800000 1204756888 1204756888 13.00000000
-0.20617881 -1.18379092 -0.32197088 34 0 18988 1.24400000 1204756913 1204756913 -15.00000000
-0.25195435 -1.44214714 0.07672451 2 3 18991 1.46600000 1204756920 1204756920 3.00000000
-0.23095636 -1.31924152 -0.21212514 2 6 18993 1.35600000 1204756927 1204756927 -9.00000000
-0.24877135 -1.41954362 0.17695428 100 7 18994 1.45200000 1204756930 1204756930 7.00000000
-0.25004810 -1.42536581 -0.17768550 1 8 18995 1.45800000 1204756932 1204756932 -7.00000000
-0.25522178 -1.45336711 0.23371309 100 9 18996 1.49400000 1204756934 1204756934 9.00000000
-0.24294645 -1.38346493 -0.12288960 2 10 18996 1.41000000 1204756936 1204756936 -5.00000000
-2.08156681 -11.84140491 2.33702850 12 11 18997 12.24800000 1204756939 1204756939 11.00000000
-0.25060087 -1.42413485 -0.07578246 4 12 18998 1.44800000 1204756941 1204756941 -3.00000000
-2.07433748 -11.77617073 2.76059937 40 13 18999 12.27200000 1204756943 1204756943 13.00000000
-0.25209874 -1.42972302 -0.02534089 1 14 19000 1.45200000 1204756946 1204756946 -1.00000000
-0.20828106 -1.17165184 -0.31886506 40 0 19008 1.23200000 1204756969 1204756969 -15.00000000
-0.25593504 -1.43536007 0.07641049 6 3 19011 1.46000000 1204756976 1204756976 3.00000000
-0.23833942 -1.33398390 -0.21462809 2 6 19013 1.37200000 1204756983 1204756983 -9.00000000
-0.25232702 -1.41085017 0.17597933 100 7 19014 1.44400000 1204756985 1204756985 7.00000000
-0.25047433 -1.39908206 -0.17451690 2 8 19015 1.43200000 1204756987 1204756987 -7.00000000
-0.25934368 -1.44862390 0.23308735 100 9 19015 1.49000000 1204756989 1204756989 9.00000000
-0.25304595 -1.41202569 -0.12550427 2 10 19016 1.44000000 1204756992 1204756992 -5.00000000
-2.12427497 -11.84179688 2.33855510 12 11 19017 12.25600000 1204756994 1204756994 11.00000000
-0.25274652 -1.40752494 -0.07494509 6 12 19018 1.43200000 1204756996 1204756996 -3.00000000
-2.11405230 -11.76118660 2.75879979 35 13 19019 12.26400000 1204756999 1204756999 13.00000000
-0.25496319 -1.41702580 -0.02513147 1 14 19020 1.44000000 1204757001 1204757001 -1.00000000
-0.21030107 -1.15951264 -0.31575924 47 0 19028 1.22000000 1204757024 1204757024 -15.00000000
-0.25736925 -1.41480792 0.07536378 26 3 19031 1.44000000 1204757031 1204757031 3.00000000
-0.25698808 -1.41131353 0.12550427 100 5 19032 1.44000000 1204757036 1204757036 5.00000000
-0.24299444 -1.33314383 -0.21462809 2 6 19033 1.37200000 1204757038 1204757038 -9.00000000
-0.25796288 -1.41386652 0.17646681 100 7 19034 1.44800000 1204757040 1204757040 7.00000000
-0.25535652 -1.39819920 -0.17451690 3 8 19035 1.43200000 1204757042 1204757042 -7.00000000
-0.26536191 -1.45155001 0.23371309 82 9 19036 1.49400000 1204757045 1204757045 9.00000000
-0.26083967 -1.42681301 -0.12689877 5 10 19036 1.45600000 1204757047 1204757047 -5.00000000
-2.16736460 -11.84396553 2.34046316 9 11 19037 12.26600000 1204757049 1204757049 11.00000000
-0.25981730 -1.41842151 -0.07557312 4 12 19038 1.44400000 1204757052 1204757052 -3.00000000
-2.15579653 -11.75756836 2.75969958 17 13 19039 12.26800000 1204757054 1204757054 13.00000000
-0.26496175 -1.44366300 -0.02562013 1 14 19040 1.46800000 1204757056 1204757056 -1.00000000
-0.24574375 -1.33763754 0.36441723 2 15 19041 1.40800000 1204757059 1204757059 15.00000000
-0.21294169 -1.15117300 -0.31368870 56 0 19048 1.21200000 1204757079 1204757079 -15.00000000
-0.26336798 -1.41824341 0.12620151 100 5 19052 1.44800000 1204757091 1204757091 5.00000000
-0.25558853 -1.37501395 -0.22151120 2 6 19053 1.41600000 1204757093 1204757093 -9.00000000
-0.26325974 -1.41490912 0.17671055 100 7 19054 1.45000000 1204757095 1204757095 7.00000000
-0.26096249 -1.40120232 -0.17500438 5 8 19055 1.43600000 1204757098 1204757098 -7.00000000
-0.27089730 -1.45454597 0.23433883 95 9 19055 1.49800000 1204757100 1204757100 9.00000000
-0.26581860 -1.42589378 -0.12689877 11 10 19056 1.45600000 1204757102 1204757102 -5.00000000
-2.21193576 -11.85369682 2.34389758 9 11 19057 12.28400000 1204757105 1204757105 11.00000000
-0.26916748 -1.44106567 -0.07682918 4 12 19058 1.46800000 1204757107 1204757107 -3.00000000
-2.19754124 -11.75380325 2.76059937 4 13 19059 12.27200000 1204757109 1204757109 13.00000000
-0.26374605 -1.40931463 -0.02502675 1 14 19060 1.43400000 1204757112 1204757112 -1.00000000
-0.24697988 -1.31972528 0.35975847 7 15 19060 1.39000000 1204757114 1204757114 15.00000000
-0.21337856 -1.13143885 -0.30851230 51 0 19068 1.19200000 1204757135 1204757135 -15.00000000
-0.26946715 -1.42475140 0.07599181 100 3 19071 1.45200000 1204757142 1204757142 3.00000000
-0.26683456 -1.40948498 0.12550427 87 5 19072 1.44000000 1204757146 1204757146 5.00000000
-0.26075444 -1.37605417 -0.22182406 8 6 19073 1.41800000 1204757148 1204757148 -9.00000000
-0.26967680 -1.42178273 0.17768550 100 7 19074 1.45800000 1204757151 1204757151 7.00000000
-0.26844388 -1.41393471 -0.17671055 5 8 19075 1.45000000 1204757153 1204757153 -7.00000000
-0.27191997 -1.43224370 0.23089728 74 9 19075 1.47600000 1204757155 1204757155 9.00000000
-2.24926400 -11.82468891 2.33969998 3 11 19077 12.26200000 1204757160 1204757160 11.00000000
-0.27867889 -1.46366143 -0.07808524 10 12 19078 1.49200000 1204757162 1204757162 -3.00000000
-2.24001551 -11.75371742 2.76239896 3 13 19079 12.28000000 1204757165 1204757165 13.00000000
-0.24977510 -1.30936694 0.35717028 21 15 19080 1.38000000 1204757169 1204757169 15.00000000
-0.21987921 -1.14396691 -0.31213576 54 0 19088 1.20600000 1204757190 1204757190 -15.00000000
-0.27481681 -1.42576337 0.07609648 94 3 19091 1.45400000 1204757197 1204757197 3.00000000
-0.27175295 -1.40854502 0.12550427 88 5 19092 1.44000000 1204757201 1204757201 5.00000000
-0.26255977 -1.35961926 -0.21932112 26 6 19093 1.40200000 1204757204 1204757204 -9.00000000
-0.27689850 -1.43252683 0.17914793 100 7 19094 1.47000000 1204757206 1204757206 7.00000000
