# .PCD v0.7 - Point Cloud Data file format
VERSION 0.7
FIELDS x y z intensity laser_id azimuth distance_m adjustedtime timestamp vertical_angle
SIZE 4 4 4 1 1 2 8 8 4 8
TYPE F F F U U U F U U F
COUNT 1 1 1 1 1 1 1 1 1 1
WIDTH 525
HEIGHT 1
VIEWPOINT 0 0 0 1 0 0 0
POINTS 525
DATA ascii
-1.85699415 0.74124128 -0.53575540 4 0 29176 2.07000000 1636084251 1636084251 -15.00000000
-4.07071352 1.62569737 0.07651135 3 1 29177 4.38400000 1636084253 1636084253 1.00000000
-2.17698503 0.86985052 -0.54123223 3 2 29178 2.40600000 1636084255 1636084255 -13.00000000
-4.12853003 1.64962280 0.23299968 7 3 29178 4.45200000 1636084258 1636084258 3.00000000
-2.52482867 1.00934839 -0.52854091 3 4 29179 2.77000000 1636084260 1636084260 -11.00000000
-5.25558090 2.10208249 0.49521893 2 5 29180 5.68200000 1636084262 1636084262 5.00000000
-3.07375240 1.23003566 -0.52436835 3 6 29181 3.35200000 1636084265 1636084265 -9.00000000
-20.15549850 8.06978607 2.66577005 81 7 29182 21.87400000 1636084267 1636084267 7.00000000
-3.82922173 1.53390563 -0.50648898 4 8 29183 4.15600000 1636084269 1636084269 -7.00000000
-16.23099709 6.50508356 2.76951575 61 9 29184 17.70400000 1636084272 1636084272 9.00000000
-5.10431194 2.04571366 -0.48109969 6 10 29184 5.52000000 1636084274 1636084274 -5.00000000
-9.87641525 3.96028543 2.06836963 28 11 29185 10.84000000 1636084276 1636084276 11.00000000
-4.10768604 1.64794910 -0.23195297 6 12 29186 4.43200000 1636084279 1636084279 -3.00000000
-10.93595123 4.38957453 2.72055817 55 13 29187 12.09400000 1636084281 1636084281 13.00000000
-3.96923566 1.59401333 -0.07466140 21 14 29188 4.27800000 1636084283 1636084283 -1.00000000
-8.19260883 3.29008627 2.36560607 47 15 29188 9.14000000 1636084285 1636084285 15.00000000
-1.85465634 0.74707156 -0.53575540 4 0 29194 2.07000000 1636084306 1636084306 -15.00000000
-4.06929588 1.63997293 0.07658116 3 1 29195 4.38800000 1636084308 1636084308 1.00000000
-2.15978265 0.87085545 -0.53763300 3 2 29196 2.39000000 1636084311 1636084311 -13.00000000
-4.13970709 1.67002928 0.23394172 5 3 29197 4.47000000 1636084313 1636084313 3.00000000
-2.53621078 1.02315128 -0.53159386 3 4 29197 2.78600000 1636084315 1636084315 -11.00000000
-5.28959799 2.13498878 0.49905378 3 5 29198 5.72600000 1636084318 1636084318 5.00000000
-3.05155635 1.23228931 -0.52123964 3 6 29199 3.33200000 1636084320 1636084320 -9.00000000
-20.14109039 8.13752842 2.66723251 81 7 29200 21.88600000 1636084322 1636084322 7.00000000
-3.84646893 1.55485523 -0.50941384 4 8 29201 4.18000000 1636084325 1636084325 -7.00000000
-16.19331169 6.54581022 2.76638699 61 9 29201 17.68400000 1636084327 1636084327 9.00000000
-5.11448336 2.06846237 -0.48266849 3 10 29202 5.53800000 1636084329 1636084329 -5.00000000
-9.86392498 3.99129367 2.06836963 28 11 29203 10.84000000 1636084332 1636084332 11.00000000
-4.09878635 1.65934658 -0.23174362 6 12 29204 4.42800000 1636084334 1636084334 -3.00000000
-10.91849518 4.42244577 2.71965814 59 13 29205 12.09000000 1636084336 1636084336 13.00000000
-3.97347474 1.61023033 -0.07483592 21 14 29206 4.28800000 1636084338 1636084338 -1.00000000
-8.18165398 3.31723571 2.36560607 45 15 29207 9.14000000 1636084341 1636084341 15.00000000
-1.86993134 0.76082152 -0.54093182 4 0 29214 2.09000000 1636084361 1636084361 -15.00000000
-4.08021545 1.66095293 0.07689530 5 1 29215 4.40600000 1636084364 1636084364 1.00000000
-2.15312004 0.87691909 -0.53673321 3 2 29216 2.38600000 1636084366 1636084366 -13.00000000
-4.12674713 1.68073452 0.23352304 5 3 29216 4.46200000 1636084368 1636084368 3.00000000
-2.53262401 1.03199804 -0.53159386 3 4 29217 2.78600000 1636084371 1636084371 -11.00000000
-5.27657795 2.15118337 0.49853083 3 5 29218 5.72000000 1636084373 1636084373 5.00000000
-3.03992009 1.23994946 -0.51998818 3 6 29219 3.32400000 1636084375 1636084375 -9.00000000
-20.13277817 8.21603489 2.66991353 36 7 29220 21.90800000 1636084378 1636084378 7.00000000
-3.83366680 1.56527102 -0.50843889 4 8 29221 4.17200000 1636084380 1636084380 -7.00000000
-16.15823936 6.60063553 2.76450992 57 9 29222 17.67200000 1636084382 1636084382 9.00000000
-5.11276484 2.08856297 -0.48319143 7 10 29222 5.54400000 1636084385 1636084385 -5.00000000
-9.86447144 4.03164291 2.07142234 31 11 29223 10.85600000 1636084387 1636084387 11.00000000
-4.04860067 1.65550148 -0.22923149 4 12 29224 4.38000000 1636084389 1636084389 -3.00000000
-10.89397335 4.45684195 2.71740866 52 13 29225 12.08000000 1636084391 1636084391 13.00000000
-3.97523260 1.62712049 -0.07497554 19 14 29226 4.29600000 1636084394 1636084394 -1.00000000
-8.16644859 3.34431076 2.36457086 47 15 29227 9.13600000 1636084396 1636084396 15.00000000
-1.87070370 0.76913929 -0.54196709 4 0 29235 2.09400000 1636084417 1636084417 -15.00000000
-4.08149767 1.67893946 0.07703492 5 1 29236 4.41400000 1636084419 1636084419 1.00000000
-2.14989161 0.88480473 -0.53673321 3 2 29237 2.38600000 1636084421 1636084421 -13.00000000
-4.13533497 1.70192957 0.23436041 5 3 29237 4.47800000 1636084424 1636084424 3.00000000
-2.52337837 1.03903115 -0.53044903 3 4 29238 2.78000000 1636084426 1636084426 -11.00000000
-3.05544448 1.25936341 -0.52342969 3 6 29240 3.34600000 1636084431 1636084431 -9.00000000
-18.03245163 7.43612194 2.39497638 6 7 29241 19.65200000 1636084433 1636084433 7.00000000
-3.81322360 1.57325482 -0.50648898 4 8 29242 4.15600000 1636084435 1636084435 -7.00000000
-16.11683846 6.64946413 2.76138115 61 9 29242 17.65200000 1636084438 1636084438 9.00000000
-5.11980915 2.11336970 -0.48458594 7 10 29243 5.56000000 1636084440 1636084440 -5.00000000
-9.86414528 4.07376623 2.07447529 31 11 29244 10.87200000 1636084442 1636084442 11.00000000
-4.03327656 1.66651571 -0.22870813 12 12 29245 4.37000000 1636084444 1636084444 -3.00000000
-10.86135674 4.49004030 2.71335959 53 13 29246 12.06200000 1636084447 1636084447 13.00000000
-3.98032928 1.64626527 -0.07518496 19 14 29247 4.30800000 1636084449 1636084449 -1.00000000
-8.16841698 3.38012910 2.36871195 45 15 29248 9.15200000 1636084451 1636084451 15.00000000
-1.86800754 0.77566457 -0.54196709 4 0 29255 2.09400000 1636084472 1636084472 -15.00000000
-4.08299923 1.69624507 0.07717454 9 1 29256 4.42200000 1636084474 1636084474 1.00000000
-2.16118598 0.89828748 -0.54033244 3 2 29257 2.40200000 1636084477 1636084477 -13.00000000
-4.12568045 1.71482098 0.23415107 5 3 29257 4.47400000 1636084479 1636084479 3.00000000
-2.51973605 1.04783309 -0.53044903 3 4 29258 2.78000000 1636084481 1636084481 -11.00000000
-5.43212557 2.26006341 0.51474184 9 5 29259 5.90600000 1636084484 1636084484 5.00000000
-3.06014824 1.27381682 -0.52499408 3 6 29260 3.35600000 1636084486 1636084486 -9.00000000
-17.87077713 7.44254637 2.37693977 6 7 29261 19.50400000 1636084488 1636084488 7.00000000
-3.80954099 1.58731937 -0.50673270 6 8 29262 4.15800000 1636084491 1636084491 -7.00000000
-16.06435585 6.69352579 2.75637531 57 9 29262 17.62000000 1636084493 1636084493 9.00000000
-4.88804340 2.03769970 -0.46331993 6 10 29263 5.31600000 1636084495 1636084495 -5.00000000
-9.87160873 4.11724234 2.07905483 28 11 29264 10.89600000 1636084497 1636084497 11.00000000
-4.04586697 1.68827569 -0.22975485 8 12 29265 4.39000000 1636084500 1636084500 -3.00000000
-10.84381866 4.52717495 2.71290970 54 13 29266 12.06000000 1636084502 1636084502 13.00000000
-3.97086811 1.65860772 -0.07511516 19 14 29267 4.30400000 1636084504 1636084504 -1.00000000
-8.14230824 3.40266252 2.36457086 45 15 29268 9.13600000 1636084507 1636084507 15.00000000
-1.85816240 0.77919215 -0.53989655 4 0 29275 2.08600000 1636084527 1636084527 -15.00000000
-4.07152128 1.70816612 0.07706983 24 1 29276 4.41600000 1636084530 1636084530 1.00000000
-2.15803719 0.90582597 -0.54033244 3 2 29277 2.40200000 1636084532 1636084532 -13.00000000
-4.14913511 1.74158001 0.23582582 5 3 29277 4.50600000 1636084534 1636084534 3.00000000
-2.52330351 1.05966282 -0.53197551 3 4 29278 2.78800000 1636084537 1636084537 -11.00000000
-5.40399837 2.27052188 0.51282442 12 5 29279 5.88400000 1636084539 1636084539 5.00000000
-3.05932522 1.28602195 -0.52561980 3 6 29280 3.36000000 1636084541 1636084541 -9.00000000
-20.14480972 8.47223568 2.68331909 44 7 29281 22.01800000 1636084543 1636084543 7.00000000
-3.81495547 1.60522676 -0.50819516 6 8 29282 4.17000000 1636084546 1636084546 -7.00000000
-16.04271317 6.75032616 2.75668812 49 9 29282 17.62200000 1636084548 1636084548 9.00000000
-4.79643106 2.01918983 -0.45530161 9 10 29283 5.22400000 1636084550 1636084550 -5.00000000
-9.86441422 4.15472364 2.08058119 28 11 29284 10.90400000 1636084553 1636084553 11.00000000
-4.04731083 1.70549047 -0.23017353 8 12 29285 4.39800000 1636084555 1636084555 -3.00000000
-10.82615471 4.56424236 2.71245980 55 13 29286 12.05800000 1636084557 1636084557 13.00000000
-3.97426677 1.67634439 -0.07528968 17 14 29287 4.31400000 1636084560 1636084560 -1.00000000
-8.12030029 3.42513990 2.36146498 42 15 29287 9.12400000 1636084562 1636084562 15.00000000
-1.85543120 0.78567362 -0.53989655 4 0 29295 2.08600000 1636084583 1636084583 -15.00000000
-4.05264473 1.71690762 0.07682549 54 1 29296 4.40200000 1636084585 1636084585 1.00000000
-2.14409661 0.90879041 -0.53763300 4 2 29297 2.39000000 1636084587 1636084587 -13.00000000
-4.15406370 1.76072907 0.23645385 5 3 29297 4.51800000 1636084590 1636084590 3.00000000
-2.51778173 1.06769788 -0.53159386 3 4 29298 2.78600000 1636084592 1636084592 -11.00000000
-5.41071272 2.29559684 0.51421887 12 5 29299 5.90000000 1636084594 1636084594 5.00000000
-3.04027081 1.29051840 -0.52311683 3 6 29300 3.34400000 1636084596 1636084596 -9.00000000
-20.14252090 8.55414200 2.68697524 63 7 29301 22.04800000 1636084599 1636084599 7.00000000
-3.81298280 1.62008619 -0.50868267 6 8 29302 4.17400000 1636084601 1636084601 -7.00000000
-16.00814438 6.80164957 2.75481105 49 9 29302 17.61000000 1636084603 1636084603 9.00000000
-4.76735020 2.02656674 -0.45320988 6 10 29303 5.20000000 1636084606 1636084606 -5.00000000
-9.85707760 4.19220543 2.08210778 31 11 29304 10.91200000 1636084608 1636084608 11.00000000
-4.10014296 1.74463165 -0.23352304 6 12 29305 4.46200000 1636084610 1636084610 -3.00000000
-10.81015587 4.60200500 2.71245980 55 13 29306 12.05800000 1636084613 1636084613 13.00000000
-3.97942972 1.69490850 -0.07549911 17 14 29307 4.32600000 1636084615 1636084615 -1.00000000
-8.10946941 3.45563650 2.36198258 31 15 29308 9.12600000 1636084617 1636084617 15.00000000
-1.85636842 0.79334044 -0.54093182 4 0 29314 2.09000000 1636084638 1636084638 -15.00000000
-4.05428362 1.73348188 0.07696512 7 1 29315 4.41000000 1636084640 1636084640 1.00000000
-2.14286304 0.91666198 -0.53808290 4 2 29316 2.39200000 1636084643 1636084643 -13.00000000
-4.15890932 1.77993381 0.23708189 5 3 29317 4.53000000 1636084645 1636084645 3.00000000
-2.52686167 1.08144855 -0.53426516 3 4 29317 2.80000000 1636084647 1636084647 -11.00000000
-5.41955471 2.32058501 0.51578766 9 5 29318 5.91800000 1636084649 1636084649 5.00000000
-3.04323769 1.30370474 -0.52436835 3 6 29319 3.35200000 1636084652 1636084652 -9.00000000
-20.13776207 8.63105583 2.69014382 78 7 29320 22.07400000 1636084654 1636084654 7.00000000
-3.81488729 1.63585091 -0.50965762 6 8 29321 4.18200000 1636084656 1636084656 -7.00000000
-15.98186970 6.85314035 2.75418520 49 9 29321 17.60600000 1636084659 1636084659 9.00000000
-4.72947645 2.02901077 -0.45024657 6 10 29322 5.16600000 1636084661 1636084661 -5.00000000
-9.85394669 4.22951555 2.08439755 28 11 29323 10.92400000 1636084663 1636084663 11.00000000
-4.07965326 1.75191402 -0.23268566 6 12 29324 4.44600000 1636084666 1636084666 -3.00000000
-10.78588390 4.63398123 2.71021032 54 13 29325 12.04800000 1636084668 1636084668 13.00000000
-3.99032187 1.71520257 -0.07581326 17 14 29326 4.34400000 1636084670 1636084670 -1.00000000
-8.09324837 3.47880745 2.36042976 6 15 29326 9.12000000 1636084673 1636084673 15.00000000
-1.85713542 0.80134630 -0.54196709 4 0 29334 2.09400000 1636084693 1636084693 -15.00000000
-4.14367628 1.78883719 0.07878016 6 1 29335 4.51400000 1636084696 1636084696 1.00000000
-2.14859509 0.92799979 -0.54033244 3 2 29336 2.40200000 1636084698 1636084698 -13.00000000
-4.15633774 1.79602480 0.23729123 5 3 29337 4.53400000 1636084700 1636084700 3.00000000
-2.51045585 1.08481097 -0.53159386 3 4 29337 2.78600000 1636084702 1636084702 -11.00000000
-5.43702459 2.35055757 0.51822805 9 5 29338 5.94600000 1636084705 1636084705 5.00000000
-3.04229450 1.31588805 -0.52499408 3 6 29339 3.35600000 1636084707 1636084707 -9.00000000
-20.12026405 8.70681572 2.69184995 73 7 29340 22.08800000 1636084709 1636084709 7.00000000
-3.80186701 1.64600265 -0.50868267 6 8 29341 4.17400000 1636084712 1636084712 -7.00000000
-15.94214344 6.90538931 2.75168228 45 9 29342 17.59000000 1636084714 1636084714 9.00000000
-4.69128513 2.03204489 -0.44728327 6 10 29342 5.13200000 1636084716 1636084716 -5.00000000
-9.86434174 4.27481556 2.08974004 28 11 29343 10.95200000 1636084719 1636084719 11.00000000
-4.08817244 1.77249980 -0.23352304 4 12 29344 4.46200000 1636084721 1636084721 -3.00000000
-10.76070309 4.66772509 2.70796084 56 13 29345 12.03800000 1636084723 1636084723 13.00000000
-3.98797917 1.73071313 -0.07588306 15 14 29346 4.34800000 1636084726 1636084726 -1.00000000
-8.03082657 3.48690414 2.34593582 2 15 29347 9.06400000 1636084728 1636084728 15.00000000
-1.84710205 0.80506021 -0.53989655 4 0 29355 2.08600000 1636084749 1636084749 -15.00000000
-4.17375183 1.81999838 0.07947826 8 1 29356 4.55400000 1636084751 1636084751 1.00000000
-2.14160705 0.93431008 -0.53943264 4 2 29357 2.39800000 1636084753 1636084753 -13.00000000
-4.15704918 1.81444228 0.23770991 5 3 29358 4.54200000 1636084755 1636084755 3.00000000
-2.50286436 1.09243429 -0.53083062 3 4 29358 2.78200000 1636084758 1636084758 -11.00000000
-5.43019867 2.37126684 0.51840234 9 5 29359 5.94800000 1636084760 1636084760 5.00000000
-3.04469180 1.33019316 -0.52624553 3 6 29360 3.36400000 1636084762 1636084762 -9.00000000
-20.13187218 8.79958344 2.69769979 70 7 29361 22.13600000 1636084765 1636084765 7.00000000
-3.79944611 1.66151690 -0.50917011 6 8 29362 4.17800000 1636084767 1636084767 -7.00000000
-15.88717365 6.94754076 2.74636340 49 9 29362 17.55600000 1636084769 1636084769 9.00000000
-4.65094995 2.03485060 -0.44414568 6 10 29363 5.09600000 1636084772 1636084772 -5.00000000
-9.86659241 4.31881380 2.09355640 28 11 29364 10.97200000 1636084774 1636084774 11.00000000
-4.08164883 1.78747189 -0.23352304 6 12 29365 4.46200000 1636084776 1636084776 -3.00000000
-10.72924328 4.70087767 2.70436168 57 13 29366 12.02200000 1636084779 1636084779 13.00000000
-3.97977757 1.74451542 -0.07584815 15 14 29367 4.34600000 1636084781 1636084781 -1.00000000
-7.96906519 3.49319959 2.33144188 2 15 29367 9.00800000 1636084783 1636084783 15.00000000
-1.84428060 0.81150287 -0.53989655 4 0 29375 2.08600000 1636084804 1636084804 -15.00000000
-4.21861935 1.85711575 0.08045559 48 1 29376 4.61000000 1636084806 1636084806 1.00000000
-2.14546657 0.94492185 -0.54123223 3 2 29377 2.40600000 1636084808 1636084808 -13.00000000
-4.15800095 1.83216345 0.23812860 5 3 29378 4.55000000 1636084811 1636084811 3.00000000
-2.50262904 1.10274756 -0.53159386 3 4 29378 2.78600000 1636084813 1636084813 -11.00000000
-26.69559860 11.76859665 2.55244303 18 5 29379 29.28600000 1636084815 1636084815 5.00000000
-3.04364467 1.34240723 -0.52687126 3 6 29380 3.36800000 1636084818 1636084818 -9.00000000
-20.12464333 8.88022041 2.70086837 60 7 29381 22.16200000 1636084820 1636084820 7.00000000
-3.80088735 1.67797613 -0.51014507 6 8 29382 4.18600000 1636084822 1636084822 -7.00000000
-15.87967300 7.01370478 2.74949217 57 9 29383 17.57600000 1636084825 1636084825 9.00000000
-4.63835096 2.04865813 -0.44362274 3 10 29383 5.09000000 1636084827 1636084827 -5.00000000
-9.86402702 4.35878277 2.09622765 25 11 29384 10.98600000 1636084829 1636084829 11.00000000
-4.08999777 1.80816925 -0.23436041 6 12 29385 4.47800000 1636084831 1636084831 -3.00000000
-10.70563984 4.73514795 2.70256186 57 13 29386 12.01400000 1636084834 1636084834 13.00000000
-3.99195027 1.76648879 -0.07619721 14 14 29387 4.36600000 1636084836 1636084836 -1.00000000
-7.94914246 3.51925588 2.32937145 2 15 29388 9.00000000 1636084838 1636084838 15.00000000
-1.83981371 0.81683034 -0.53937888 4 0 29394 2.08400000 1636084859 1636084859 -15.00000000
-2.14766359 0.95440543 -0.54258192 4 2 29396 2.41200000 1636084864 1636084864 -13.00000000
-4.16285229 1.85081017 0.23875663 5 3 29397 4.56200000 1636084866 1636084866 3.00000000
-2.50972199 1.11582601 -0.53388357 3 4 29397 2.79800000 1636084868 1636084868 -11.00000000
-26.67645073 11.86596489 2.55436039 82 5 29398 29.30800000 1636084871 1636084871 5.00000000
-3.02834797 1.34767413 -0.52499408 3 6 29399 3.35600000 1636084873 1636084873 -9.00000000
-20.12047195 8.95821190 2.70428061 63 7 29400 22.19000000 1636084875 1636084875 7.00000000
-3.79711533 1.69137883 -0.51038879 6 8 29401 4.18800000 1636084878 1636084878 -7.00000000
-15.85756016 7.06355715 2.74949217 57 9 29401 17.57600000 1636084880 1636084880 9.00000000
-4.61151314 2.05510712 -0.44170532 6 10 29402 5.06800000 1636084882 1636084882 -5.00000000
-9.85669136 4.39466715 2.09775400 25 11 29403 10.99400000 1636084884 1636084884 11.00000000
-4.09492350 1.82660401 -0.23498844 4 12 29404 4.49000000 1636084887 1636084887 -3.00000000
-10.68987846 4.77062321 2.70256186 57 13 29405 12.01400000 1636084889 1636084889 13.00000000
-3.99702621 1.78460848 -0.07640664 14 14 29406 4.37800000 1636084891 1636084891 -1.00000000
-7.95568752 3.55208755 2.33454776 2 15 29406 9.02000000 1636084894 1636084894 15.00000000
-1.84929156 0.82877797 -0.54300237 4 0 29414 2.09800000 1636084914 1636084914 -15.00000000
-2.12831664 0.95471805 -0.53853285 3 2 29416 2.39400000 1636084919 1636084919 -13.00000000
-4.16365528 1.86860108 0.23917532 5 3 29417 4.57000000 1636084921 1636084921 3.00000000
-2.51297641 1.12779522 -0.53541005 3 4 29417 2.80600000 1636084924 1636084924 -11.00000000
-26.59124565 11.93942451 2.55017710 63 5 29418 29.26000000 1636084926 1636084926 5.00000000
-3.03443694 1.36309350 -0.52687126 3 6 29419 3.36800000 1636084928 1636084928 -9.00000000
-20.10537529 9.03571415 2.70647430 68 7 29420 22.20800000 1636084931 1636084931 7.00000000
-3.80386162 1.71032131 -0.51209497 6 8 29421 4.20200000 1636084933 1636084933 -7.00000000
-15.82796192 7.12000990 2.74886632 61 9 29422 17.57200000 1636084935 1636084935 9.00000000
-4.60431147 2.07119179 -0.44170532 6 10 29422 5.06800000 1636084937 1636084937 -5.00000000
-9.86814594 4.44113255 2.10347843 21 11 29423 11.02400000 1636084940 1636084940 11.00000000
-4.06848955 1.83186686 -0.23383705 4 12 29424 4.46800000 1636084942 1636084942 -3.00000000
-10.65184021 4.79830408 2.69716311 59 13 29425 11.99000000 1636084944 1636084944 13.00000000
-4.01082659 1.80758774 -0.07679059 14 14 29426 4.40000000 1636084947 1636084947 -1.00000000
-7.95670366 3.58757520 2.33868885 2 15 29427 9.03600000 1636084949 1636084949 15.00000000
-1.84990764 0.83682060 -0.54403764 4 0 29434 2.10200000 1636084970 1636084970 -15.00000000
-4.21384668 1.90705347 0.08073483 86 1 29435 4.62600000 1636084972 1636084972 1.00000000
-2.12852168 0.96374905 -0.53943264 4 2 29436 2.39800000 1636084974 1636084974 -13.00000000
-4.16074610 1.88477182 0.23938467 5 3 29437 4.57400000 1636084977 1636084977 3.00000000
-2.49829435 1.13169968 -0.53312033 3 4 29437 2.79400000 1636084979 1636084979 -11.00000000
-26.50948334 12.01407909 2.54634213 73 5 29438 29.21600000 1636084981 1636084981 5.00000000
-3.05124927 1.38346601 -0.53062570 3 6 29439 3.39200000 1636084984 1636084984 -9.00000000
-20.10083008 9.11814022 2.71013045 63 7 29440 22.23800000 1636084986 1636084986 7.00000000
-3.79425311 1.72194815 -0.51160753 8 8 29441 4.19800000 1636084988 1636084988 -7.00000000
-15.78987312 7.16592741 2.74636340 66 9 29441 17.55600000 1636084990 1636084990 9.00000000
-4.60793877 2.09219337 -0.44275117 6 10 29442 5.08000000 1636084993 1636084993 -5.00000000
-9.87403297 4.48529530 2.10805774 21 11 29443 11.04800000 1636084995 1636084995 11.00000000
-4.09843636 1.86258423 -0.23593049 4 12 29444 4.50800000 1636084997 1636084997 -3.00000000
-10.62083340 4.82900381 2.69356394 57 13 29445 11.97400000 1636085000 1636085000 13.00000000
-4.01177359 1.82488906 -0.07693021 13 14 29446 4.40800000 1636085002 1636085002 -1.00000000
-7.94476318 3.61394095 2.33868885 2 15 29446 9.03600000 1636085004 1636085004 15.00000000
-1.84346068 0.84166819 -0.54300237 4 0 29454 2.09800000 1636085025 1636085025 -15.00000000
-4.23081017 1.93255198 0.08118860 108 1 29455 4.65200000 1636085027 1636085027 1.00000000
-2.13400674 0.97522300 -0.54168212 4 2 29456 2.40800000 1636085030 1636085030 -13.00000000
-4.17593861 1.90924966 0.24064073 5 3 29457 4.59800000 1636085032 1636085032 3.00000000
-2.49075770 1.13878083 -0.53235710 3 4 29457 2.79000000 1636085034 1636085034 -11.00000000
-26.41121864 12.08084965 2.54093862 54 5 29458 29.15400000 1636085037 1636085037 5.00000000
-3.03023553 1.38671041 -0.52780986 3 6 29459 3.37400000 1636085039 1636085039 -9.00000000
-20.11400223 9.20890903 2.71622396 73 7 29460 22.28800000 1636085041 1636085041 7.00000000
-3.78460979 1.73352861 -0.51112002 8 8 29461 4.19400000 1636085043 1636085043 -7.00000000
-15.74195385 7.21387672 2.74260902 66 9 29462 17.53200000 1636085046 1636085046 9.00000000
-4.60785246 2.11158538 -0.44344842 6 10 29462 5.08800000 1636085048 1636085048 -5.00000000
-9.87259293 4.52628040 2.11111069 28 11 29463 11.06400000 1636085050 1636085050 11.00000000
-4.09372520 1.87771189 -0.23603517 4 12 29464 4.51000000 1636085053 1636085053 -3.00000000
-10.60745525 4.86767387 2.69446373 60 13 29465 11.97800000 1636085055 1636085055 13.00000000
-4.00356150 1.83804739 -0.07689530 11 14 29466 4.40600000 1636085057 1636085057 -1.00000000
-7.95253038 3.65271163 2.34490061 2 15 29467 9.06000000 1636085060 1636085060 15.00000000
-1.82647514 0.84163004 -0.53886127 4 0 29474 2.08200000 1636085080 1636085080 -15.00000000
-2.14120698 0.98756313 -0.54438156 4 2 29476 2.42000000 1636085085 1636085085 -13.00000000
-4.17650270 1.92716205 0.24105941 5 3 29477 4.60600000 1636085087 1636085087 3.00000000
-2.50102854 1.15404868 -0.53541005 3 4 29477 2.80600000 1636085090 1636085090 -11.00000000
-28.13079262 12.98633671 2.71071792 38 5 29478 31.10200000 1636085092 1636085092 5.00000000
-3.02716970 1.39810777 -0.52812278 3 6 29479 3.37600000 1636085094 1636085094 -9.00000000
-20.12137794 9.29738235 2.72158623 68 7 29480 22.33200000 1636085096 1636085096 7.00000000
-3.80015802 1.75672448 -0.51404488 8 8 29481 4.21800000 1636085099 1636085099 -7.00000000
-15.72511673 7.26935482 2.74386048 61 9 29481 17.54000000 1636085101 1636085101 9.00000000
-4.60045338 2.12765694 -0.44344842 9 10 29482 5.08800000 1636085103 1636085103 -5.00000000
-9.87098694 4.56730986 2.11416364 12 11 29483 11.08000000 1636085106 1636085106 11.00000000
-4.11977053 1.90709257 -0.23791926 4 12 29484 4.54600000 1636085108 1636085108 -3.00000000
-10.59039879 4.90467072 2.69446373 60 13 29485 11.97800000 1636085110 1636085110 13.00000000
-4.00800753 1.85705531 -0.07710473 11 14 29486 4.41800000 1636085113 1636085113 -1.00000000
-9.03940582 4.18828440 2.66945958 30 15 29486 10.31400000 1636085115 1636085115 15.00000000
-1.83753979 0.85451734 -0.54300237 4 0 29494 2.09800000 1636085136 1636085136 -15.00000000
-4.25347710 1.97891176 0.08188669 59 1 29495 4.69200000 1636085138 1636085138 1.00000000
-2.13067985 0.99174196 -0.54258192 4 2 29496 2.41200000 1636085140 1636085140 -13.00000000
-4.18061352 1.94678771 0.24168745 5 3 29497 4.61800000 1636085143 1636085143 3.00000000
-2.49164557 1.16028559 -0.53426516 3 4 29497 2.80000000 1636085145 1636085145 -11.00000000
-28.13585854 13.10801125 2.71559858 96 5 29498 31.15800000 1636085147 1636085147 5.00000000
-3.00078583 1.39865184 -0.52436835 3 6 29499 3.35200000 1636085149 1636085149 -9.00000000
-20.10679245 9.37595177 2.72402358 68 7 29500 22.35200000 1636085152 1636085152 7.00000000
-3.78680682 1.76662183 -0.51306993 6 8 29501 4.21000000 1636085154 1636085154 -7.00000000
-15.69248581 7.32086086 2.74260902 61 9 29501 17.53200000 1636085156 1636085156 9.00000000
-4.59299850 2.14370275 -0.44344842 6 10 29502 5.08800000 1636085159 1636085159 -5.00000000
-12.06079292 5.63173008 2.58736992 31 11 29503 13.56000000 1636085161 1636085161 11.00000000
-4.10042143 1.91554415 -0.23718655 6 12 29504 4.53200000 1636085163 1636085163 -3.00000000
-10.56615257 4.93830776 2.69266415 57 13 29505 11.97000000 1636085166 1636085166 13.00000000
-4.02142668 1.88035154 -0.07748868 9 14 29506 4.44000000 1636085168 1636085168 -1.00000000
-9.03523064 4.22472191 2.67256546 45 15 29506 10.32600000 1636085170 1636085170 15.00000000
-1.83804345 0.86256778 -0.54403764 4 0 29514 2.10200000 1636085191 1636085191 -15.00000000
-2.12544131 0.99834490 -0.54213202 4 2 29516 2.41000000 1636085196 1636085196 -13.00000000
-4.19006109 1.96901393 0.24262950 5 3 29517 4.63600000 1636085198 1636085198 3.00000000
-2.49291086 1.17148089 -0.53541005 3 4 29517 2.80600000 1636085200 1636085200 -11.00000000
-28.12779617 13.22394562 2.71925926 96 5 29518 31.20000000 1636085202 1636085202 5.00000000
-3.01554799 1.41836631 -0.52780986 3 6 29519 3.37400000 1636085205 1636085205 -9.00000000
-20.09370041 9.45537758 2.72670460 60 7 29520 22.37400000 1636085207 1636085207 7.00000000
-3.77702522 1.77813840 -0.51258248 6 8 29521 4.20600000 1636085209 1636085209 -7.00000000
-15.65839958 7.37496090 2.74135756 61 9 29522 17.52400000 1636085212 1636085212 9.00000000
-4.61432743 2.17330527 -0.44623742 6 10 29522 5.12000000 1636085214 1636085214 -5.00000000
-12.06592464 5.68551159 2.59271264 56 11 29523 13.58800000 1636085216 1636085216 11.00000000
-4.09732342 1.93154895 -0.23739590 6 12 29524 4.53600000 1636085219 1636085219 -3.00000000
-10.53474998 4.96851063 2.68906498 62 13 29525 11.95400000 1636085221 1636085221 13.00000000
-4.02930641 1.90120411 -0.07776792 9 14 29526 4.45600000 1636085223 1636085223 -1.00000000
-9.02042866 4.25623512 2.67256546 47 15 29526 10.32600000 1636085225 1636085225 15.00000000
-1.84200525 0.87228572 -0.54610819 4 0 29534 2.11000000 1636085246 1636085246 -15.00000000
-2.11489964 1.00241935 -0.54033244 3 2 29536 2.40200000 1636085251 1636085251 -13.00000000
-4.19399023 1.98876250 0.24325752 5 3 29537 4.64800000 1636085253 1636085253 3.00000000
-2.48880649 1.18017566 -0.53541005 3 4 29537 2.80600000 1636085255 1636085255 -11.00000000
-28.13186646 13.34596062 2.72413993 96 5 29538 31.25600000 1636085258 1636085258 5.00000000
-3.01057863 1.42888391 -0.52780986 3 6 29539 3.37400000 1636085260 1636085260 -9.00000000
-20.09823036 9.54334068 2.73182321 68 7 29540 22.41600000 1636085262 1636085262 7.00000000
-3.77079535 1.79131186 -0.51258248 6 8 29541 4.20600000 1636085265 1636085265 -7.00000000
-15.62185669 7.42448616 2.73948026 61 9 29542 17.51200000 1636085267 1636085267 9.00000000
-4.62830687 2.19966197 -0.44832915 6 10 29542 5.14400000 1636085269 1636085269 -5.00000000
-12.08146572 5.74445581 2.60034490 59 11 29543 13.62800000 1636085272 1636085272 11.00000000
-4.10318089 1.95184517 -0.23812860 6 12 29544 4.55000000 1636085274 1636085274 -3.00000000
-10.51030350 5.00190353 2.68726540 57 13 29545 11.94600000 1636085276 1636085276 13.00000000
-4.02445126 1.91611707 -0.07780283 9 14 29546 4.45800000 1636085278 1636085278 -1.00000000
-9.00476837 4.28926802 2.67256546 47 15 29547 10.32600000 1636085281 1636085281 15.00000000
-1.83212960 0.87505883 -0.54403764 4 0 29553 2.10200000 1636085302 1636085302 -15.00000000
-4.25633001 2.03381395 0.08234046 94 1 29554 4.71800000 1636085304 1636085304 1.00000000
-2.11508012 1.01110816 -0.54123223 3 2 29555 2.40600000 1636085306 1636085306 -13.00000000
-4.20719194 2.01213837 0.24440892 6 3 29556 4.67000000 1636085308 1636085308 3.00000000
-2.47956586 1.18588114 -0.53426516 3 4 29556 2.80000000 1636085311 1636085311 -11.00000000
-28.11261749 13.45121479 2.72658014 96 5 29557 31.28400000 1636085313 1636085313 5.00000000
-3.01116896 1.44141829 -0.52874851 3 6 29558 3.38000000 1636085315 1636085315 -9.00000000
-20.10227966 9.62708473 2.73669791 73 7 29559 22.45600000 1636085318 1636085318 7.00000000
-3.77199531 1.80723727 -0.51355743 8 8 29560 4.21400000 1636085320 1636085320 -7.00000000
-15.57933712 7.46771097 2.73635173 61 9 29561 17.49200000 1636085322 1636085322 9.00000000
-4.87611151 2.33728766 -0.47308138 6 10 29561 5.42800000 1636085325 1636085325 -5.00000000
-12.09244442 5.79891920 2.60683250 62 11 29562 13.66200000 1636085327 1636085327 11.00000000
-4.11289263 1.97321653 -0.23907065 9 12 29563 4.56800000 1636085329 1636085329 -3.00000000
-10.50068665 5.04010248 2.68906498 60 13 29564 11.95400000 1636085331 1636085331 13.00000000
-4.02168036 1.93118334 -0.07787263 7 14 29565 4.46200000 1636085334 1636085334 -1.00000000
-8.99473190 4.31920862 2.67360067 47 15 29565 10.33000000 1636085336 1636085336 15.00000000
-1.82210279 0.87809414 -0.54196709 4 0 29573 2.09400000 1636085357 1636085357 -15.00000000
-2.11855865 1.02187145 -0.54303187 3 2 29575 2.41400000 1636085361 1636085361 -13.00000000
-4.26849604 2.05979657 0.24838644 4 3 29576 4.74600000 1636085364 1636085364 3.00000000
-2.47894740 1.19623566 -0.53502840 3 4 29576 2.80400000 1636085366 1636085366 -11.00000000
-28.10676003 13.56918716 2.73058939 96 5 29577 31.33000000 1636085368 1636085368 5.00000000
-3.00256157 1.45020223 -0.52812278 3 6 29578 3.37600000 1636085371 1636085371 -9.00000000
-20.10608673 9.71533298 2.74181652 78 7 29579 22.49800000 1636085373 1636085373 7.00000000
-3.76566386 1.82039297 -0.51355743 8 8 29580 4.21400000 1636085375 1636085375 -7.00000000
-15.55317497 7.52204752 2.73635173 61 9 29581 17.49200000 1636085378 1636085378 9.00000000
-5.04190588 2.43843818 -0.48998958 10 10 29581 5.62200000 1636085380 1636085380 -5.00000000
-12.07919693 5.84451485 2.60835886 62 11 29582 13.67000000 1636085382 1636085382 11.00000000
-4.11856365 1.99365258 -0.23980336 11 12 29583 4.58200000 1636085384 1636085384 -3.00000000
-10.47952080 5.07502747 2.68816519 55 13 29584 11.95000000 1636085387 1636085387 13.00000000
-4.03291035 1.95392883 -0.07822169 7 14 29585 4.48200000 1636085389 1636085389 -1.00000000
-8.96221447 4.34215641 2.66842437 47 15 29585 10.31000000 1636085391 1636085391 15.00000000
-1.81539762 0.88307649 -0.54093182 4 0 29594 2.09000000 1636085412 1636085412 -15.00000000
-2.11655140 1.03048253 -0.54348177 4 2 29596 2.41600000 1636085417 1636085417 -13.00000000
-41.82626724 20.36389923 2.43801808 21 3 29596 46.58400000 1636085419 1636085419 3.00000000
-2.47807646 1.20703292 -0.53579164 3 4 29597 2.80800000 1636085421 1636085421 -11.00000000
-28.11056900 13.69829559 2.73581886 100 5 29598 31.39000000 1636085424 1636085424 5.00000000
-2.99367499 1.45946610 -0.52749699 3 6 29599 3.37200000 1636085426 1636085426 -9.00000000
-20.09889030 9.80288410 2.74571633 63 7 29600 22.53000000 1636085428 1636085428 7.00000000
-3.77323866 1.84114683 -0.51550734 8 8 29601 4.23000000 1636085430 1636085430 -7.00000000
-15.53747463 7.58149004 2.73822880 61 9 29601 17.50400000 1636085433 1636085433 9.00000000
-5.03114414 2.45602727 -0.48981526 10 10 29602 5.62000000 1636085435 1636085435 -5.00000000
-12.07180786 5.89564037 2.61141181 62 11 29603 13.68600000 1636085437 1636085437 11.00000000
-4.13814688 2.02188635 -0.24137343 4 12 29604 4.61200000 1636085440 1636085440 -3.00000000
-10.46785259 5.11682606 2.68996477 62 13 29605 11.95800000 1636085442 1636085442 13.00000000
-4.04368591 1.97748196 -0.07857073 7 14 29606 4.50200000 1636085444 1636085444 -1.00000000
-8.94970989 4.37667274 2.66945958 47 15 29606 10.31400000 1636085447 1636085447 15.00000000
-1.82617819 0.89621687 -0.54507291 4 0 29614 2.10600000 1636085467 1636085467 -15.00000000
-4.15007067 2.03759122 0.08069993 4 1 29615 4.62400000 1636085470 1636085470 1.00000000
-2.10069752 1.03185022 -0.54033244 3 2 29616 2.40200000 1636085472 1636085472 -13.00000000
-41.80333328 20.54260826 2.44105363 31 3 29617 46.64200000 1636085474 1636085474 3.00000000
-2.47737193 1.21740735 -0.53655487 3 4 29617 2.81200000 1636085477 1636085477 -11.00000000
-28.11443329 13.82182884 2.74087381 96 5 29618 31.44800000 1636085479 1636085479 5.00000000
-3.00983310 1.48036909 -0.53125143 3 6 29619 3.39600000 1636085481 1636085481 -9.00000000
-20.08236122 9.88174725 2.74815369 63 7 29620 22.55000000 1636085483 1636085483 7.00000000
-3.75254107 1.84729266 -0.51355743 8 8 29621 4.21400000 1636085486 1636085486 -7.00000000
-15.50958347 7.63838673 2.73822880 61 9 29622 17.50400000 1636085488 1636085488 9.00000000
-5.02968979 2.47709537 -0.49051252 10 10 29622 5.62800000 1636085490 1636085490 -5.00000000
-12.06876564 5.94642019 2.61522818 62 11 29623 13.70600000 1636085493 1636085493 11.00000000
-7.61004305 3.75120687 -0.44464630 4 12 29624 8.49600000 1636085495 1636085495 -3.00000000
-10.44293690 5.14988661 2.68816519 56 13 29625 11.95000000 1636085497 1636085497 13.00000000
-4.05110502 1.99866307 -0.07884997 5 14 29626 4.51800000 1636085500 1636085500 -1.00000000
-8.93707371 4.41115570 2.67049479 47 15 29627 10.31800000 1636085502 1636085502 15.00000000
-1.82303870 0.90258598 -0.54507291 4 0 29634 2.10600000 1636085523 1636085523 -15.00000000
-4.15189219 2.05650330 0.08087445 8 1 29635 4.63400000 1636085525 1636085525 1.00000000
-2.10057497 1.04090726 -0.54123223 3 2 29636 2.40600000 1636085527 1636085527 -13.00000000
-41.80656433 20.71659279 2.44524050 21 3 29636 46.72200000 1636085530 1636085530 3.00000000
-2.46255350 1.22081554 -0.53426516 3 4 29637 2.80000000 1636085532 1636085532 -11.00000000
-28.10349846 13.93847275 2.74453425 86 5 29638 31.49000000 1636085534 1636085534 5.00000000
-3.00110817 1.48911023 -0.53062570 3 6 29639 3.39200000 1636085536 1636085536 -9.00000000
-20.08152771 9.96855736 2.75278473 70 7 29640 22.58800000 1636085539 1636085539 7.00000000
-3.74962568 1.86214614 -0.51404488 6 8 29641 4.21800000 1636085541 1636085541 -7.00000000
-15.48282528 7.69247866 2.73822880 66 9 29642 17.50400000 1636085543 1636085543 9.00000000
-5.02458096 2.49641013 -0.49086115 10 10 29642 5.63200000 1636085546 1636085546 -5.00000000
-12.07254791 6.00074577 2.62057066 65 11 29643 13.73400000 1636085548 1636085548 11.00000000
-7.55040550 3.75462604 -0.44192481 8 12 29644 8.44400000 1636085550 1636085550 -3.00000000
-9.06747913 4.51100302 2.33814120 15 13 29645 10.39400000 1636085553 1636085553 13.00000000
-4.05484533 2.01813793 -0.07905940 5 14 29646 4.53000000 1636085555 1636085555 -1.00000000
-8.92239666 4.44076824 2.67049479 47 15 29646 10.31800000 1636085557 1636085557 15.00000000
-1.80950725 0.90376490 -0.54196709 4 0 29654 2.09400000 1636085578 1636085578 -15.00000000
-4.17330980 2.08528471 0.08143293 2 1 29655 4.66600000 1636085580 1636085580 1.00000000
-2.10564423 1.05259013 -0.54348177 4 2 29656 2.41600000 1636085582 1636085582 -13.00000000
-41.79473495 20.89276314 2.44879937 31 3 29656 46.79000000 1636085585 1636085585 3.00000000
-2.46705675 1.23379469 -0.53617328 3 4 29657 2.81000000 1636085587 1636085587 -11.00000000
-28.10278130 14.06055737 2.74924064 96 5 29658 31.54400000 1636085589 1636085589 5.00000000
-2.98882627 1.49604034 -0.52937424 3 6 29659 3.38400000 1636085592 1636085592 -9.00000000
-20.08210945 10.05637074 2.75765944 70 7 29660 22.62800000 1636085594 1636085594 7.00000000
-3.74842739 1.87789094 -0.51477611 6 8 29661 4.22400000 1636085596 1636085596 -7.00000000
-15.44175148 7.73939610 2.73572588 61 9 29662 17.48800000 1636085599 1636085599 9.00000000
-5.01939869 2.51571941 -0.49120978 10 10 29662 5.63600000 1636085601 1636085601 -5.00000000
-12.06907749 6.05165005 2.62438703 34 11 29663 13.75400000 1636085603 1636085603 11.00000000
-7.55332041 3.78901887 -0.44286686 8 12 29664 8.46200000 1636085606 1636085606 -3.00000000
-10.38582897 5.21217680 2.68276620 46 13 29665 11.92600000 1636085608 1636085608 13.00000000
-4.09066629 2.05381370 -0.07989711 3 14 29666 4.57800000 1636085610 1636085610 -1.00000000
-8.89475536 4.46581841 2.66687155 47 15 29666 10.30400000 1636085612 1636085612 15.00000000
-1.80979204 0.91181421 -0.54300237 4 0 29674 2.09800000 1636085633 1636085633 -15.00000000
-19.66933060 9.91415882 0.38447651 4 1 29675 22.03000000 1636085635 1636085635 1.00000000
-2.11413741 1.06607580 -0.54663104 3 2 29676 2.43000000 1636085638 1636085638 -13.00000000
-41.79277420 21.08358955 2.45319557 31 3 29677 46.87400000 1636085640 1636085640 3.00000000
-2.46098208 1.24151456 -0.53579164 3 4 29677 2.80800000 1636085642 1636085642 -11.00000000
-28.09088326 14.17742062 2.75290132 96 5 29678 31.58600000 1636085645 1636085645 5.00000000
-2.99416590 1.51180625 -0.53125143 3 6 29679 3.39600000 1636085647 1636085647 -9.00000000
-20.08232117 10.14431000 2.76253438 73 7 29680 22.66800000 1636085649 1636085649 7.00000000
-3.74362111 1.89185929 -0.51501983 6 8 29681 4.22600000 1636085652 1636085652 -7.00000000
-15.41952801 7.79234219 2.73635173 61 9 29681 17.49200000 1636085654 1636085654 9.00000000
-5.00347424 2.52962947 -0.49051252 10 10 29682 5.62800000 1636085656 1636085656 -5.00000000
-10.18034458 5.14915466 2.21758223 25 11 29683 11.62200000 1636085659 1636085659 11.00000000
-7.55430508 3.82257605 -0.44370425 8 12 29684 8.47800000 1636085661 1636085661 -3.00000000
-17.40069389 8.81260586 -0.34046155 2 14 29686 19.50800000 1636085665 1636085665 -1.00000000
-8.87143517 4.49489689 2.66480088 47 15 29687 10.29600000 1636085668 1636085668 15.00000000
-1.81348705 0.92162699 -0.54507291 4 0 29694 2.10600000 1636085688 1636085688 -15.00000000
-19.60608292 9.96825600 0.38391805 4 1 29695 21.99800000 1636085691 1636085691 1.00000000
-2.10692930 1.07168198 -0.54573125 3 2 29696 2.42600000 1636085693 1636085693 -13.00000000
-41.78849411 21.25556755 2.45706844 32 3 29696 46.94800000 1636085695 1636085695 3.00000000
-2.45663333 1.25009739 -0.53579164 3 4 29697 2.80800000 1636085698 1636085698 -11.00000000
-28.09449005 14.30250645 2.75813055 100 5 29698 31.64600000 1636085700 1636085700 5.00000000
-2.97830915 1.51686966 -0.52937424 3 6 29699 3.38400000 1636085702 1636085702 -9.00000000
-20.07331848 10.22786713 2.76619029 81 7 29700 22.69800000 1636085705 1636085705 7.00000000
-3.74406886 1.90852153 -0.51599479 6 8 29701 4.23400000 1636085707 1636085707 -7.00000000
-15.37326622 7.83983135 2.73322296 66 9 29702 17.47200000 1636085709 1636085709 9.00000000
-5.00526333 2.55251026 -0.49155840 10 10 29702 5.64000000 1636085712 1636085712 -5.00000000
-10.16230869 5.18465900 2.21758223 28 11 29703 11.62200000 1636085714 1636085714 11.00000000
-7.55514717 3.85618591 -0.44454160 8 12 29704 8.49400000 1636085716 1636085716 -3.00000000
-8.77329350 4.47986460 2.27425528 15 13 29705 10.11000000 1636085718 1636085718 13.00000000
-17.41968727 8.89876366 -0.34143889 2 14 29706 19.56400000 1636085721 1636085721 -1.00000000
-8.86257172 4.52935314 2.66687155 47 15 29707 10.30400000 1636085723 1636085723 15.00000000
-1.81713545 0.93147659 -0.54714346 4 0 29714 2.11400000 1636085744 1636085744 -15.00000000
-2.09797406 1.07636130 -0.54438156 4 2 29716 2.42000000 1636085748 1636085748 -13.00000000
-41.78868103 21.43959808 2.46146464 32 3 29716 47.03200000 1636085751 1636085751 3.00000000
-2.46273446 1.26404393 -0.53808135 3 4 29717 2.82000000 1636085753 1636085753 -11.00000000
-28.09401894 14.42597008 2.76301146 96 5 29718 31.70200000 1636085755 1636085755 5.00000000
-2.99232411 1.53718555 -0.53281581 3 6 29719 3.40600000 1636085758 1636085758 -9.00000000
-20.06044769 10.30966949 2.76935887 70 7 29720 22.72400000 1636085760 1636085760 7.00000000
-3.74091482 1.92339456 -0.51648229 6 8 29721 4.23800000 1636085762 1636085762 -7.00000000
-15.34367085 7.88896132 2.73259735 61 9 29721 17.46800000 1636085765 1636085765 9.00000000
-5.00340986 2.57361174 -0.49225563 14 10 29722 5.64800000 1636085767 1636085767 -5.00000000
-12.06090641 6.20644903 2.63659859 31 11 29723 13.81800000 1636085769 1636085769 11.00000000
-7.54519224 3.88436317 -0.44475096 8 12 29724 8.49800000 1636085771 1636085771 -3.00000000
-8.69350147 4.47744751 2.25760889 15 13 29725 10.03600000 1636085774 1636085774 13.00000000
-17.47384453 9.00347996 -0.34311432 2 14 29726 19.66000000 1636085776 1636085776 -1.00000000
-8.84155560 4.55760622 2.66531849 47 15 29727 10.29800000 1636085778 1636085778 15.00000000
-1.81387293 0.93781388 -0.54714346 4 0 29734 2.11400000 1636085799 1636085799 -15.00000000
-2.09074259 1.08188689 -0.54348177 4 2 29736 2.41600000 1636085804 1636085804 -13.00000000
-41.78099442 21.62021828 2.46544218 10 3 29736 47.10800000 1636085806 1636085806 3.00000000
-2.45830727 1.27263284 -0.53808135 3 4 29737 2.82000000 1636085808 1636085808 -11.00000000
-28.10187531 14.55418587 2.76876354 100 5 29738 31.76800000 1636085811 1636085811 5.00000000
-2.99220204 1.55034769 -0.53375441 3 6 29739 3.41200000 1636085813 1636085813 -9.00000000
-20.05958557 10.39790154 2.77423382 55 7 29740 22.76400000 1636085815 1636085815 7.00000000
-3.72360468 1.93095791 -0.51501983 6 8 29741 4.22600000 1636085818 1636085818 -7.00000000
-15.30201054 7.93519735 2.73009419 66 9 29741 17.45200000 1636085820 1636085820 9.00000000
-5.00147009 2.59473109 -0.49295288 14 10 29742 5.65600000 1636085822 1636085822 -5.00000000
-12.06704903 6.26298189 2.64270449 62 11 29743 13.85000000 1636085824 1636085824 11.00000000
-7.56703806 3.92908478 -0.44684440 8 12 29744 8.53800000 1636085827 1636085827 -3.00000000
-8.61210442 4.47362995 2.24051261 14 13 29745 9.96000000 1636085829 1636085829 13.00000000
-8.83244896 4.59200573 2.66738915 49 15 29747 10.30600000 1636085834 1636085834 15.00000000
-1.80732691 0.94203788 -0.54610819 4 0 29753 2.11000000 1636085854 1636085854 -15.00000000
-2.10096550 1.09602475 -0.54708099 4 2 29755 2.43200000 1636085859 1636085859 -13.00000000
-2.45929480 1.28350294 -0.53922623 3 4 29756 2.82600000 1636085864 1636085864 -11.00000000
-2.99404788 1.56391990 -0.53500587 3 6 29758 3.42000000 1636085868 1636085868 -9.00000000
-20.04610634 10.47539711 2.77715850 35 7 29759 22.78800000 1636085870 1636085870 7.00000000
-3.73125458 1.95065272 -0.51696974 6 8 29760 4.24200000 1636085873 1636085873 -7.00000000
-15.25635624 7.97583008 2.72665262 53 9 29760 17.43000000 1636085875 1636085875 9.00000000
-5.00343132 2.61684275 -0.49399874 14 10 29761 5.66800000 1636085877 1636085877 -5.00000000
-12.07056713 6.31570578 2.64804721 62 11 29762 13.87800000 1636085880 1636085880 11.00000000
-5.05898142 2.64814544 -0.29925701 6 12 29763 5.71800000 1636085882 1636085882 -3.00000000
-8.56442070 4.48498726 2.23196435 12 13 29764 9.92200000 1636085884 1636085884 13.00000000
-5.03234291 2.63643980 -0.09916458 6 14 29765 5.68200000 1636085887 1636085887 -1.00000000
-8.80771160 4.61435175 2.66428328 47 15 29765 10.29400000 1636085889 1636085889 15.00000000
-1.80744755 0.95013869 -0.54714346 4 0 29773 2.11400000 1636085910 1636085910 -15.00000000
-5.02819538 2.64434123 0.09916458 10 1 29774 5.68200000 1636085912 1636085912 1.00000000
-2.09367776 1.10153711 -0.54618114 4 2 29775 2.42800000 1636085914 1636085914 -13.00000000
-5.02337599 2.64292598 0.29747757 7 3 29775 5.68400000 1636085917 1636085917 3.00000000
-2.44611311 1.28750753 -0.53731811 3 4 29776 2.81600000 1636085919 1636085919 -11.00000000
-5.01197052 2.63915944 0.49556756 2 5 29777 5.68600000 1636085921 1636085921 5.00000000
-2.97633672 1.56791687 -0.53281581 1 6 29778 3.40600000 1636085923 1636085923 -9.00000000
-3.73847055 1.97107196 -0.51891965 6 8 29780 4.25800000 1636085928 1636085928 -7.00000000
-4.96607018 2.61941934 -0.49120978 17 10 29781 5.63600000 1636085933 1636085933 -5.00000000
-5.01614809 2.64807248 -0.29726824 9 12 29783 5.68000000 1636085937 1636085937 -3.00000000
-10.27189732 5.42492485 2.68186641 2 13 29784 11.92200000 1636085940 1636085940 13.00000000
-4.99305201 2.63810873 -0.09857119 6 14 29785 5.64800000 1636085942 1636085942 -1.00000000
-8.77707672 4.63938046 2.66014218 26 15 29786 10.27800000 1636085944 1636085944 15.00000000
-1.79729259 0.95282263 -0.54507291 4 0 29793 2.10600000 1636085965 1636085965 -15.00000000
-4.96946955 2.63564205 0.09818724 10 1 29794 5.62600000 1636085967 1636085967 1.00000000
-2.08465552 1.10609853 -0.54483145 3 2 29795 2.42200000 1636085970 1636085970 -13.00000000
-4.98719358 2.64727330 0.29590750 6 3 29796 5.65400000 1636085972 1636085972 3.00000000
-2.44160390 1.29603827 -0.53731811 3 4 29796 2.81600000 1636085974 1636085974 -11.00000000
-4.97281313 2.64075279 0.49260426 8 5 29797 5.65200000 1636085976 1636085976 5.00000000
-2.94118929 1.56254148 -0.52749699 3 6 29798 3.37200000 1636085979 1636085979 -9.00000000
-4.99399805 2.65423799 0.69441152 7 7 29799 5.69800000 1636085981 1636085981 7.00000000
-3.73156738 1.98410964 -0.51891965 8 8 29800 4.25800000 1636085983 1636085983 -7.00000000
-4.98479223 2.65046120 0.89417940 9 9 29800 5.71600000 1636085986 1636085986 9.00000000
-4.94810104 2.63205981 -0.49033821 14 10 29801 5.62600000 1636085988 1636085988 -5.00000000
-4.94808292 2.63315821 1.08951938 8 11 29802 5.71000000 1636085990 1636085990 11.00000000
-4.96808863 2.64491725 -0.29496545 8 12 29803 5.63600000 1636085993 1636085993 -3.00000000
-4.97766924 2.65113282 1.30201674 7 13 29804 5.78800000 1636085995 1636085995 13.00000000
-4.94498730 2.63483429 -0.09780329 6 14 29805 5.60400000 1636085997 1636085997 -1.00000000
-1.80077028 0.96273381 -0.54714346 4 0 29813 2.11400000 1636086020 1636086020 -15.00000000
-4.94260550 2.64354157 0.09783819 7 1 29814 5.60600000 1636086023 1636086023 1.00000000
-2.07390881 1.10969114 -0.54303187 4 2 29815 2.41400000 1636086025 1636086025 -13.00000000
-4.94270515 2.64581418 0.29381406 6 3 29816 5.61400000 1636086027 1636086027 3.00000000
-2.45437384 1.31381845 -0.54113430 3 4 29816 2.83600000 1636086029 1636086029 -11.00000000
-4.92843723 2.63928318 0.48911804 8 5 29817 5.61200000 1636086032 1636086032 5.00000000
-2.98273039 1.59798574 -0.53594446 1 6 29818 3.42600000 1636086034 1636086034 -9.00000000
-4.94271135 2.64914799 0.68856180 7 7 29819 5.65000000 1636086036 1636086036 7.00000000
-3.72111988 1.99524701 -0.51843220 6 8 29820 4.25400000 1636086039 1636086039 -7.00000000
-4.94197035 2.65097189 0.88823491 9 9 29821 5.67800000 1636086041 1636086041 9.00000000
-4.93186045 2.64554882 -0.48964095 10 10 29821 5.61800000 1636086043 1636086043 -5.00000000
-4.92848206 2.64484429 1.08722961 8 11 29822 5.69800000 1636086046 1636086046 11.00000000
-4.90955448 2.63579059 -0.29203463 8 12 29823 5.58000000 1636086048 1636086048 -3.00000000
-4.92031479 2.64267373 1.28941941 7 13 29824 5.73200000 1636086050 1636086050 13.00000000
-4.90405273 2.63504243 -0.09717500 6 14 29825 5.56800000 1636086053 1636086053 -1.00000000
-4.93120956 2.65074372 1.50011516 6 15 29826 5.79600000 1636086055 1636086055 15.00000000
-1.80079973 0.97084731 -0.54817873 4 0 29833 2.11800000 1636086076 1636086076 -15.00000000
-4.90166759 2.64369178 0.09720990 7 1 29834 5.57000000 1636086078 1636086078 1.00000000
-2.06659269 1.11507285 -0.54213202 4 2 29835 2.41000000 1636086080 1636086080 -13.00000000
-4.89125824 2.64028215 0.29130194 6 3 29836 5.56600000 1636086082 1636086082 3.00000000
-2.43595171 1.31491721 -0.53808135 3 4 29836 2.82000000 1636086085 1636086085 -11.00000000
-4.88939142 2.64037657 0.48615474 8 5 29837 5.57800000 1636086087 1636086087 5.00000000
-2.97887230 1.60932660 -0.53625733 3 6 29838 3.42800000 1636086089 1636086089 -9.00000000
-4.89326811 2.64467669 0.68295580 7 7 29839 5.60400000 1636086092 1636086092 7.00000000
-3.70714784 2.00444746 -0.51745725 8 8 29840 4.24600000 1636086094 1636086094 -7.00000000
-4.89839935 2.64855480 0.88197750 9 9 29840 5.63800000 1636086096 1636086096 9.00000000
-4.87878466 2.63904977 -0.48528317 10 10 29841 5.56800000 1636086099 1636086099 -5.00000000
-4.90195322 2.65268803 1.08341348 8 11 29842 5.67800000 1636086101 1636086101 11.00000000
-4.88276005 2.64340353 -0.29098791 11 12 29843 5.56000000 1636086103 1636086103 -3.00000000
-4.87164831 2.63848734 1.27907169 7 13 29844 5.68600000 1636086106 1636086106 13.00000000
-4.84207869 2.62356567 -0.09612785 6 14 29845 5.50800000 1636086108 1636086108 -1.00000000
-4.87483311 2.64131284 1.48562133 6 15 29845 5.74000000 1636086110 1636086110 15.00000000
