# .PCD v0.7 - Point Cloud Data file format
VERSION 0.7
FIELDS x y z intensity laser_id azimuth distance_m adjustedtime timestamp vertical_angle
SIZE 4 4 4 1 1 2 8 8 4 8
TYPE F F F U U U F U U F
COUNT 1 1 1 1 1 1 1 1 1 1
WIDTH 541
HEIGHT 1
VIEWPOINT 0 0 0 1 0 0 0
POINTS 541
DATA ascii
3.02198935 3.04103708 0.98978466 57 13 4482 4.40000000 1635615591 1635615591 13.00000000
2.99581766 3.01364803 -0.07417273 7 14 4483 4.25000000 1635615593 1635615593 -1.00000000
3.03037500 3.04841113 1.15174472 62 15 4483 4.45000000 1635615595 1635615595 15.00000000
1.61346769 1.61854446 -0.61236584 4 0 4491 2.36600000 1635615616 1635615616 -15.00000000
2.99913573 3.00752258 0.07413782 7 1 4492 4.24800000 1635615618 1635615618 1.00000000
1.92817223 1.93288946 -0.63031286 3 2 4493 2.80200000 1635615621 1635615621 -13.00000000
3.01575375 3.02313161 0.22378854 7 3 4493 4.27600000 1635615623 1635615623 3.00000000
2.31591582 2.32077146 -0.63730204 4 4 4494 3.34000000 1635615625 1635615625 -11.00000000
3.01226854 3.01753044 0.37302658 7 5 4495 4.28000000 1635615628 1635615628 5.00000000
2.94659019 2.95070744 -0.66046631 13 6 4496 4.22200000 1635615630 1635615630 -9.00000000
3.02613521 3.02930593 0.52574432 65 7 4497 4.31400000 1635615632 1635615632 7.00000000
2.99158430 2.99367356 -0.51965088 8 8 4498 4.26400000 1635615634 1635615634 -7.00000000
3.02162480 3.02373505 0.67704839 68 9 4498 4.32800000 1635615637 1635615637 9.00000000
2.99042845 2.99147248 -0.37006328 9 10 4499 4.24600000 1635615639 1635615639 -5.00000000
3.02356601 3.02356601 0.83116400 61 11 4500 4.35600000 1635615641 1635615641 11.00000000
3.00019646 2.99914932 -0.22232315 8 12 4501 4.24800000 1635615644 1635615644 -3.00000000
3.02707243 3.02495980 0.98798501 58 13 4502 4.39200000 1635615646 1635615646 13.00000000
3.00207472 2.99893260 -0.07406801 7 14 4503 4.24400000 1635615648 1635615648 -1.00000000
3.02733016 3.02416158 1.14656842 64 15 4503 4.43000000 1635615651 1635615651 15.00000000
1.62321353 1.61699271 -0.61391878 4 0 4511 2.37200000 1635615671 1635615671 -15.00000000
2.99828005 2.98574710 0.07385858 7 1 4512 4.23200000 1635615674 1635615674 1.00000000
1.92109668 1.91239870 -0.62581384 3 2 4513 2.78200000 1635615676 1635615676 -13.00000000
3.01690364 3.00219631 0.22305584 7 3 4514 4.26200000 1635615678 1635615678 3.00000000
2.32678604 2.31544280 -0.63806528 4 4 4514 3.34400000 1635615681 1635615681 -11.00000000
3.01713324 3.00137663 0.37232932 7 5 4515 4.27200000 1635615683 1635615683 5.00000000
2.94846797 2.93204641 -0.65858912 11 6 4516 4.21000000 1635615685 1635615685 -9.00000000
3.01698136 2.99913120 0.52233201 65 7 4517 4.28600000 1635615687 1635615687 7.00000000
2.99356747 2.97481728 -0.51818848 8 8 4518 4.25200000 1635615690 1635615690 -7.00000000
3.02708125 3.00707126 0.67579687 68 9 4519 4.32000000 1635615692 1635615692 9.00000000
2.99519825 2.97539902 -0.36936605 9 10 4519 4.23800000 1635615694 1635615694 -5.00000000
3.01459885 2.99362612 0.82582134 59 11 4520 4.32800000 1635615697 1635615697 11.00000000
3.00072503 2.97880888 -0.22159044 8 12 4521 4.23400000 1635615699 1635615699 -3.00000000
3.02516389 3.00202107 0.98393589 60 13 4522 4.37400000 1635615701 1635615701 13.00000000
3.00826573 2.98421025 -0.07396330 7 14 4523 4.23800000 1635615704 1635615704 -1.00000000
3.02742004 3.00216317 1.14242721 60 15 4524 4.41400000 1635615706 1635615706 15.00000000
1.62032783 1.60344803 -0.61081296 4 0 4530 2.36000000 1635615727 1635615727 -15.00000000
3.00247812 2.97016263 0.07371897 7 1 4531 4.22400000 1635615729 1635615729 1.00000000
1.92742777 1.90601754 -0.62581384 3 2 4532 2.78200000 1635615731 1635615731 -13.00000000
3.01495934 2.98146868 0.22221847 7 3 4532 4.24600000 1635615734 1635615734 3.00000000
2.33445144 2.30771422 -0.63806528 4 4 4533 3.34400000 1635615736 1635615736 -11.00000000
3.01573229 2.98015141 0.37093484 7 5 4534 4.25600000 1635615738 1635615738 5.00000000
2.95958018 2.92364120 -0.65890199 13 6 4535 4.21200000 1635615740 1635615740 -9.00000000
3.01561069 2.97795153 0.52038211 67 7 4536 4.27000000 1635615743 1635615743 7.00000000
2.99211431 2.95371723 -0.51623851 8 8 4537 4.23600000 1635615745 1635615745 -7.00000000
3.02860022 2.98869157 0.67391968 70 9 4538 4.30800000 1635615747 1635615747 9.00000000
3.00221229 2.96265125 -0.36901742 9 10 4538 4.23400000 1635615750 1635615750 -5.00000000
3.01612353 2.97534037 0.82353163 65 11 4539 4.31600000 1635615752 1635615752 11.00000000
2.99636579 2.95481801 -0.22054371 8 12 4540 4.21400000 1635615754 1635615754 -3.00000000
3.02399993 2.98102808 0.98033667 59 13 4541 4.35800000 1635615757 1635615757 13.00000000
3.00959921 2.96579647 -0.07375387 7 14 4542 4.22600000 1635615759 1635615759 -1.00000000
3.03683662 2.99263740 1.14242721 62 15 4542 4.41400000 1635615761 1635615761 15.00000000
1.63693810 1.60861468 -0.61495405 4 0 4550 2.37600000 1635615782 1635615782 -15.00000000
3.00141549 2.94845319 0.07343972 7 1 4551 4.20800000 1635615784 1635615784 1.00000000
1.93406928 1.89927804 -0.62581384 3 2 4552 2.78200000 1635615786 1635615786 -13.00000000
3.00682282 2.95273399 0.22085774 7 3 4552 4.22000000 1635615789 1635615789 3.00000000
2.33969069 2.29680085 -0.63730204 2 4 4553 3.34000000 1635615791 1635615791 -11.00000000
3.02185035 2.96542001 0.37041190 7 5 4554 4.25000000 1635615793 1635615793 5.00000000
2.97117758 2.91467571 -0.65921485 11 6 4555 4.21400000 1635615796 1635615796 -9.00000000
3.01039672 2.95211816 0.51770097 57 7 4556 4.24800000 1635615798 1635615798 7.00000000
2.98823071 2.92935848 -0.51380116 8 8 4557 4.21600000 1635615800 1635615800 -7.00000000
3.01926208 2.95874524 0.66953951 70 9 4558 4.28000000 1635615803 1635615803 9.00000000
3.00399756 2.94378662 -0.36797154 9 10 4558 4.22200000 1635615805 1635615805 -5.00000000
3.01807642 2.95655084 0.82124192 55 11 4559 4.30400000 1635615807 1635615807 11.00000000
2.99524570 2.93316150 -0.21970634 8 12 4560 4.19800000 1635615810 1635615810 -3.00000000
3.00792861 2.94455314 0.97178853 57 13 4561 4.32000000 1635615812 1635615812 13.00000000
3.00135374 2.93709087 -0.07330011 8 14 4562 4.20000000 1635615814 1635615814 -1.00000000
3.03069568 2.96580482 1.13621557 64 15 4562 4.39000000 1635615816 1635615816 15.00000000
1.64254332 1.60289085 -0.61495405 4 0 4570 2.37600000 1635615837 1635615837 -15.00000000
3.00739503 2.93376923 0.07333501 7 1 4571 4.20200000 1635615839 1635615839 1.00000000
1.94905829 1.90067852 -0.62851322 3 2 4572 2.79400000 1635615842 1635615842 -13.00000000
3.01619482 2.94029951 0.22075306 7 3 4573 4.21800000 1635615844 1635615844 3.00000000
2.34769368 2.28861976 -0.63730204 4 4 4573 3.34000000 1635615846 1635615846 -11.00000000
3.01934099 2.94233894 0.36884311 7 5 4574 4.23200000 1635615849 1635615849 5.00000000
2.98274875 2.90566516 -0.65952772 9 6 4575 4.21600000 1635615851 1635615851 -9.00000000
3.01641655 2.93743706 0.51696974 38 7 4576 4.24200000 1635615853 1635615853 7.00000000
2.98990345 2.91060162 -0.51233870 8 8 4577 4.20400000 1635615856 1635615856 -7.00000000
3.01348710 2.93355966 0.66609794 72 9 4577 4.25800000 1635615858 1635615858 9.00000000
2.99712038 2.91660857 -0.36587980 9 10 4578 4.19800000 1635615860 1635615860 -5.00000000
3.00260258 2.91990328 -0.21949700 8 12 4580 4.19400000 1635615865 1635615865 -3.00000000
3.01259947 2.92860198 0.96998894 38 13 4581 4.31200000 1635615867 1635615867 13.00000000
2.99437857 2.90987301 -0.07288125 8 14 4582 4.17600000 1635615869 1635615869 -1.00000000
3.02768874 2.94121575 1.13103926 36 15 4583 4.37000000 1635615872 1635615872 15.00000000
1.63980448 1.58908117 -0.61184824 4 0 4590 2.36400000 1635615892 1635615892 -15.00000000
3.00038195 2.90655732 0.07291616 7 1 4591 4.17800000 1635615895 1635615895 1.00000000
1.96128070 1.89928615 -0.63031286 3 2 4592 2.80200000 1635615897 1635615897 -13.00000000
3.00871134 2.91360831 0.21949700 7 3 4592 4.19400000 1635615899 1635615899 3.00000000
2.36131048 2.28587294 -0.63882852 2 4 4593 3.34800000 1635615902 1635615902 -11.00000000
3.00382161 2.90684199 0.36570549 7 5 4594 4.19600000 1635615904 1635615904 5.00000000
2.97867537 2.88150120 -0.65639901 9 6 4595 4.19600000 1635615906 1635615906 -9.00000000
3.02665186 2.92688990 0.51696974 31 7 4596 4.24200000 1635615909 1635615909 7.00000000
2.99290895 2.89324856 -0.51112002 8 8 4597 4.19400000 1635615911 1635615911 -7.00000000
3.01427555 2.91288614 0.66390789 70 9 4598 4.24400000 1635615913 1635615913 9.00000000
2.99009037 2.88951445 -0.36378807 9 10 4598 4.17400000 1635615916 1635615916 -5.00000000
3.02311110 2.92040443 0.81704414 10 11 4599 4.28200000 1635615918 1635615918 11.00000000
3.00415635 2.90108013 -0.21886897 8 12 4600 4.18200000 1635615920 1635615920 -3.00000000
3.01439166 2.90994763 0.96728951 11 13 4601 4.30000000 1635615922 1635615922 13.00000000
2.99588418 2.89107132 -0.07267182 10 14 4602 4.16400000 1635615925 1635615925 -1.00000000
3.01012993 2.90380430 1.12068641 26 15 4603 4.33000000 1635615927 1635615927 15.00000000
1.64812541 1.58602655 -0.61288351 4 0 4610 2.36800000 1635615948 1635615948 -15.00000000
2.99465728 2.88081646 0.07253220 7 1 4611 4.15600000 1635615950 1635615950 1.00000000
1.95104277 1.87621915 -0.62491405 3 2 4612 2.77800000 1635615952 1635615952 -13.00000000
3.01598406 2.90031934 0.21928766 7 3 4612 4.19000000 1635615955 1635615955 3.00000000
2.37210608 2.28033757 -0.63959175 2 4 4613 3.35200000 1635615957 1635615957 -11.00000000
3.00820374 2.89081693 0.36500826 7 5 4614 4.18800000 1635615959 1635615959 5.00000000
2.97304559 2.85603261 -0.65295744 9 6 4615 4.17400000 1635615962 1635615962 -9.00000000
3.02682757 2.90668225 0.51526356 19 7 4616 4.22800000 1635615964 1635615964 7.00000000
2.99153376 2.87178612 -0.50917011 8 8 4617 4.17800000 1635615966 1635615966 -7.00000000
3.01821828 2.89740252 0.66265637 68 9 4617 4.23600000 1635615969 1635615969 9.00000000
2.99440837 2.87354136 -0.36309081 9 10 4618 4.16600000 1635615971 1635615971 -5.00000000
3.01061869 2.88808846 0.81093824 21 11 4619 4.25000000 1635615973 1635615973 11.00000000
2.99408317 2.87122250 -0.21740356 7 12 4620 4.15400000 1635615975 1635615975 -3.00000000
3.02453089 2.89940763 0.96728951 11 13 4621 4.30000000 1635615978 1635615978 13.00000000
2.99440718 2.86952758 -0.07239258 10 14 4622 4.14800000 1635615980 1635615980 -1.00000000
3.01745772 2.89060664 1.11965120 10 15 4623 4.32600000 1635615982 1635615982 15.00000000
1.65365171 1.58026385 -0.61288351 4 0 4630 2.36800000 1635616003 1635616003 -15.00000000
2.99891114 2.86482048 0.07239258 8 1 4631 4.14800000 1635616005 1635616005 1.00000000
1.96039879 1.87208903 -0.62581384 3 2 4632 2.78200000 1635616008 1635616008 -13.00000000
3.00875664 2.87322164 0.21803160 7 3 4632 4.16600000 1635616010 1635616010 3.00000000
2.37721133 2.26933217 -0.63882852 2 4 4633 3.34800000 1635616012 1635616012 -11.00000000
3.01539350 2.87754774 0.36465964 7 5 4634 4.18400000 1635616015 1635616015 5.00000000
2.98013806 2.84291053 -0.65233171 9 6 4635 4.17000000 1635616017 1635616017 -9.00000000
3.02977228 2.88924932 0.51404488 10 7 4636 4.21800000 1635616019 1635616019 7.00000000
2.99148226 2.85173821 -0.50746393 8 8 4637 4.16400000 1635616022 1635616022 -7.00000000
3.02545404 2.88412333 0.66203064 66 9 4637 4.23200000 1635616024 1635616024 9.00000000
2.99288177 2.85207558 -0.36169633 9 10 4638 4.15000000 1635616026 1635616026 -5.00000000
3.01926017 2.87620759 0.81055659 10 11 4639 4.24800000 1635616028 1635616028 11.00000000
2.99107003 2.84835744 -0.21646151 7 12 4640 4.13600000 1635616031 1635616031 -3.00000000
3.01628423 2.87136507 0.96144080 10 13 4641 4.27400000 1635616033 1635616033 13.00000000
3.00585413 2.86043620 -0.07242749 7 14 4642 4.15000000 1635616035 1635616035 -1.00000000
3.02752948 2.88005614 1.11965120 16 15 4643 4.32600000 1635616038 1635616038 15.00000000
1.66756570 1.58246076 -0.61598933 4 0 4650 2.38000000 1635616058 1635616058 -15.00000000
2.99873757 2.84470105 0.07214825 8 1 4651 4.13400000 1635616061 1635616061 1.00000000
1.96692169 1.86523461 -0.62581384 3 2 4652 2.78200000 1635616063 1635616063 -13.00000000
3.00717378 2.85170698 0.21719421 7 3 4652 4.15000000 1635616065 1635616065 3.00000000
2.38226867 2.25831914 -0.63806528 2 4 4653 3.34400000 1635616068 1635616068 -11.00000000
3.02397346 2.86563420 0.36448532 7 5 4654 4.18200000 1635616070 1635616070 5.00000000
2.98717546 2.82977343 -0.65170598 9 6 4655 4.16600000 1635616072 1635616072 -9.00000000
3.02686691 2.86637139 0.51185125 7 7 4656 4.20000000 1635616074 1635616074 7.00000000
2.98556066 2.82626700 -0.50478280 10 8 4657 4.14200000 1635616077 1635616077 -7.00000000
3.02402687 2.86268067 0.65952772 68 9 4657 4.21600000 1635616079 1635616079 9.00000000
3.00571346 2.84434986 -0.36204496 9 10 4658 4.15400000 1635616081 1635616081 -5.00000000
3.02500296 2.86160326 0.80941176 14 11 4659 4.24200000 1635616084 1635616084 11.00000000
2.98793411 2.82554865 -0.21551947 7 12 4660 4.11800000 1635616086 1635616086 -3.00000000
3.00787902 2.84341550 0.95559210 13 13 4661 4.24800000 1635616088 1635616088 13.00000000
2.99692631 2.83207130 -0.07197373 8 14 4662 4.12400000 1635616091 1635616091 -1.00000000
3.02863884 2.86203933 1.11654532 10 15 4662 4.31400000 1635616093 1635616093 15.00000000
1.66183174 1.56603098 -0.61184824 4 0 4670 2.36400000 1635616114 1635616114 -15.00000000
3.00573802 2.83147383 0.07207844 8 1 4671 4.13000000 1635616116 1635616116 1.00000000
1.97909546 1.86370134 -0.62761343 3 2 4672 2.79000000 1635616118 1635616118 -13.00000000
3.00838566 2.83297706 0.21656619 7 3 4672 4.13800000 1635616121 1635616121 3.00000000
2.38156009 2.24191546 -0.63577557 2 4 4673 3.33200000 1635616123 1635616123 -11.00000000
3.01799750 2.84004164 0.36256790 7 5 4674 4.16000000 1635616125 1635616125 5.00000000
2.98840213 2.81120801 -0.64982879 9 6 4675 4.15400000 1635616127 1635616127 -9.00000000
3.03106952 2.85034847 0.51087630 7 7 4676 4.19200000 1635616130 1635616130 7.00000000
2.98962259 2.81038976 -0.50380784 10 8 4677 4.13400000 1635616132 1635616132 -7.00000000
3.01672959 2.83587170 0.65577328 68 9 4677 4.19200000 1635616134 1635616134 9.00000000
2.99384499 2.81337476 -0.35943028 9 10 4678 4.12400000 1635616137 1635616137 -5.00000000
3.02352595 2.84027314 0.80635881 63 11 4679 4.22600000 1635616139 1635616139 11.00000000
2.99486685 2.81236720 -0.21531013 7 12 4680 4.11400000 1635616141 1635616141 -3.00000000
3.00357795 2.81956124 0.95109308 51 13 4681 4.22800000 1635616144 1635616144 13.00000000
2.98929548 2.80517244 -0.07155487 8 14 4682 4.10000000 1635616146 1635616146 -1.00000000
3.02642775 2.83902431 1.11188662 10 15 4683 4.29600000 1635616148 1635616148 15.00000000
1.66419506 1.55787110 -0.61081296 4 0 4689 2.36000000 1635616169 1635616169 -15.00000000
3.00489020 2.81192660 0.07183410 10 1 4690 4.11600000 1635616171 1635616171 1.00000000
1.98811102 1.85979068 -0.62851322 3 2 4691 2.79400000 1635616174 1635616174 -13.00000000
3.00950336 2.81427360 0.21593815 7 3 4692 4.12600000 1635616176 1635616176 3.00000000
2.39184928 2.23668742 -0.63653880 4 4 4692 3.33600000 1635616178 1635616178 -11.00000000
3.00702214 2.81096959 0.36012754 6 5 4693 4.13200000 1635616180 1635616180 5.00000000
2.98327518 2.78779554 -0.64670008 9 6 4694 4.13400000 1635616183 1635616183 -9.00000000
3.02889991 2.82944059 0.50892639 7 7 4695 4.17600000 1635616185 1635616185 7.00000000
2.99457312 2.79639578 -0.50307667 10 8 4696 4.12800000 1635616187 1635616187 -7.00000000
3.01745462 2.81776285 0.65389609 70 9 4696 4.18000000 1635616190 1635616190 9.00000000
2.98422432 2.78575706 -0.35716423 9 10 4697 4.09800000 1635616192 1635616192 -5.00000000
3.01283288 2.81147909 0.80101615 54 11 4698 4.19800000 1635616194 1635616194 11.00000000
2.98957205 2.78879666 -0.21426341 7 12 4699 4.09400000 1635616197 1635616197 -3.00000000
3.01576185 2.81224346 0.95199287 38 13 4700 4.23200000 1635616199 1635616199 13.00000000
2.99126768 2.78842640 -0.07138034 7 14 4701 4.09000000 1635616201 1635616201 -1.00000000
3.01978779 2.81501245 1.10619259 10 15 4701 4.27400000 1635616204 1635616204 15.00000000
1.67528260 1.55731368 -0.61288351 4 0 4709 2.36800000 1635616224 1635616224 -15.00000000
2.99417925 2.78236318 0.07134544 10 1 4710 4.08800000 1635616227 1635616227 1.00000000
1.99173534 1.85018694 -0.62761343 3 2 4711 2.79000000 1635616229 1635616229 -13.00000000
3.01199102 2.79695606 0.21541479 7 3 4712 4.11600000 1635616231 1635616231 3.00000000
2.40251946 2.23099661 -0.63730204 4 4 4712 3.34000000 1635616233 1635616233 -11.00000000
3.01097488 2.79503417 0.35943028 6 5 4713 4.12400000 1635616236 1635616236 5.00000000
2.97561240 2.76124096 -0.64294565 9 6 4714 4.11000000 1635616238 1635616238 -9.00000000
3.01547265 2.79725027 0.50502658 7 7 4715 4.14400000 1635616240 1635616240 7.00000000
2.99849391 2.78052664 -0.50210172 10 8 4716 4.12000000 1635616243 1635616243 -7.00000000
3.02196717 2.80131292 0.65264457 66 9 4717 4.17200000 1635616245 1635616245 9.00000000
2.98662448 2.76855087 -0.35629267 9 10 4717 4.08800000 1635616247 1635616247 -5.00000000
3.01686835 2.79560757 0.79948968 36 11 4718 4.19000000 1635616250 1635616250 11.00000000
2.98903203 2.76884317 -0.21353070 7 12 4719 4.08000000 1635616252 1635616252 -3.00000000
3.02413034 2.80037522 0.95154297 11 13 4720 4.23000000 1635616254 1635616254 13.00000000
3.00098300 2.77796793 -0.07138034 7 14 4721 4.09000000 1635616257 1635616257 -1.00000000
3.02157760 2.79605293 1.10308683 12 15 4722 4.26200000 1635616259 1635616259 15.00000000
1.68354750 1.55407703 -0.61391878 4 0 4729 2.37200000 1635616280 1635616280 -15.00000000
2.99799490 2.76646996 0.07120582 10 1 4730 4.08000000 1635616282 1635616282 1.00000000
1.98958719 1.83529544 -0.62491405 3 2 4731 2.77800000 1635616284 1635616284 -13.00000000
3.01145768 2.77694750 0.21468209 8 3 4732 4.10200000 1635616286 1635616286 3.00000000
2.40884924 2.22126579 -0.63692045 4 4 4732 3.33800000 1635616289 1635616289 -11.00000000
3.00899363 2.77370358 0.35803580 6 5 4733 4.10800000 1635616291 1635616291 5.00000000
2.97361135 2.74012852 -0.64044273 9 6 4734 4.09400000 1635616293 1635616293 -9.00000000
3.01645827 2.77863765 0.50356412 8 7 4735 4.13200000 1635616296 1635616296 7.00000000
2.98481703 2.74852800 -0.49820188 10 8 4736 4.08800000 1635616298 1635616298 -7.00000000
3.02688074 2.78726196 0.65170598 62 9 4736 4.16600000 1635616300 1635616300 9.00000000
2.99040675 2.75271130 -0.35559544 11 10 4737 4.08000000 1635616303 1635616303 -5.00000000
3.01505113 2.77442455 0.79643673 12 11 4738 4.17400000 1635616305 1635616305 11.00000000
2.99132919 2.75163174 -0.21300735 7 12 4739 4.07000000 1635616307 1635616307 -3.00000000
3.00232887 2.76078296 0.94164509 34 13 4740 4.18600000 1635616310 1635616310 13.00000000
3.00477290 2.76206255 -0.07124072 7 14 4741 4.08200000 1635616312 1635616312 -1.00000000
3.01803279 2.77425122 1.09842801 14 15 4741 4.24400000 1635616314 1635616314 15.00000000
1.69465828 1.55341244 -0.61598933 4 0 4749 2.38000000 1635616335 1635616335 -15.00000000
3.00173616 2.75058436 0.07106620 8 1 4750 4.07200000 1635616337 1635616337 1.00000000
2.01322532 1.84413481 -0.63031286 3 2 4751 2.80200000 1635616339 1635616339 -13.00000000
3.01082182 2.75697708 0.21394938 8 3 4752 4.08800000 1635616342 1635616342 3.00000000
2.42237997 2.21814728 -0.63844693 4 4 4752 3.34600000 1635616344 1635616344 -11.00000000
3.01865721 2.76318336 0.35803580 6 5 4753 4.10800000 1635616346 1635616346 5.00000000
2.98315811 2.72973204 -0.64044273 9 6 4754 4.09400000 1635616349 1635616349 -9.00000000
3.02320957 2.76541162 0.50307667 8 7 4755 4.12800000 1635616351 1635616351 7.00000000
2.98413801 2.72871542 -0.49649569 12 8 4756 4.07400000 1635616353 1635616353 -7.00000000
3.02978587 2.76948524 0.65014166 40 9 4757 4.15600000 1635616356 1635616356 9.00000000
2.99411511 2.73687887 -0.35489818 11 10 4757 4.07200000 1635616358 1635616358 -5.00000000
3.01312280 2.75328851 0.79338378 14 11 4758 4.15800000 1635616360 1635616360 11.00000000
2.99354267 2.73443842 -0.21248399 7 12 4759 4.06000000 1635616362 1635616362 -3.00000000
2.99611783 2.73583150 0.93669617 45 13 4760 4.16400000 1635616365 1635616365 13.00000000
2.99667287 2.73537946 -0.07082187 7 14 4761 4.05800000 1635616367 1635616367 -1.00000000
3.01961827 2.75535822 1.09532225 20 15 4762 4.23200000 1635616369 1635616369 15.00000000
1.69462502 1.54199016 -0.61391878 4 0 4770 2.37200000 1635616390 1635616390 -15.00000000
3.00440097 2.73283625 0.07089168 8 1 4771 4.06200000 1635616392 1635616392 1.00000000
2.01420379 1.83149958 -0.62851322 3 2 4772 2.79400000 1635616395 1635616395 -13.00000000
3.01499462 2.74054956 0.21353070 8 3 4773 4.08000000 1635616397 1635616397 3.00000000
2.41887140 2.19868946 -0.63539398 4 4 4773 3.33000000 1635616399 1635616399 -11.00000000
3.02286625 2.74674153 0.35733855 6 5 4774 4.10000000 1635616402 1635616402 5.00000000
2.98436975 2.71081066 -0.63856548 9 6 4775 4.08200000 1635616404 1635616404 -9.00000000
3.02450728 2.74630570 0.50161421 8 7 4776 4.11600000 1635616406 1635616406 7.00000000
2.98530006 2.70975447 -0.49503326 10 8 4777 4.06200000 1635616409 1635616409 -7.00000000
3.00725603 2.72968388 0.64325851 22 9 4777 4.11200000 1635616411 1635616411 9.00000000
2.99084663 2.71383691 -0.35332939 11 10 4778 4.05400000 1635616413 1635616413 -5.00000000
3.02028537 2.73958826 0.79262054 20 11 4779 4.15400000 1635616415 1635616415 11.00000000
2.99614692 2.71674013 -0.21196063 7 12 4780 4.05000000 1635616418 1635616418 -3.00000000
3.00612497 2.72483182 0.93669617 50 13 4781 4.16400000 1635616420 1635616420 13.00000000
2.99185991 2.71095037 -0.07047281 7 14 4782 4.03800000 1635616422 1635616422 -1.00000000
3.01060748 2.72793770 1.08859289 40 15 4782 4.20600000 1635616425 1635616425 15.00000000
1.69426370 1.53088474 -0.61184824 4 0 4790 2.36400000 1635616445 1635616445 -15.00000000
2.99908233 2.70892835 0.07054263 8 1 4791 4.04200000 1635616448 1635616448 1.00000000
2.01479912 1.81923354 -0.62671363 3 2 4792 2.78600000 1635616450 1635616450 -13.00000000
3.01712942 2.72331738 0.21300735 8 3 4793 4.07000000 1635616452 1635616452 3.00000000
2.43527579 2.19812536 -0.63768369 4 4 4793 3.34200000 1635616455 1635616455 -11.00000000
3.01320577 2.71882153 0.35507250 6 5 4794 4.07400000 1635616457 1635616457 5.00000000
2.97914577 2.68714619 -0.63543677 9 6 4795 4.06200000 1635616459 1635616459 -9.00000000
3.02670383 2.72908497 0.50039554 8 7 4796 4.10600000 1635616462 1635616462 7.00000000
2.99326634 2.69798827 -0.49478954 12 8 4797 4.06000000 1635616464 1635616464 -7.00000000
3.01870823 2.71996570 0.64357138 12 9 4798 4.11400000 1635616466 1635616466 9.00000000
2.98697996 2.69137740 -0.35176057 11 10 4798 4.03600000 1635616468 1635616468 -5.00000000
3.01961875 2.71983147 0.78994924 44 11 4799 4.14000000 1635616471 1635616471 11.00000000
2.99967480 2.70091939 -0.21154194 7 12 4800 4.04200000 1635616473 1635616473 -3.00000000
3.01706648 2.71562552 0.93714607 12 13 4801 4.16600000 1635616475 1635616475 13.00000000
3.00130463 2.70049047 -0.07047281 7 14 4802 4.03800000 1635616478 1635616478 -1.00000000
3.01627660 2.71300936 1.08703995 60 15 4803 4.20000000 1635616480 1635616480 15.00000000
1.70481455 1.53071713 -0.61391878 4 0 4808 2.37200000 1635616501 1635616501 -15.00000000
2.99120808 2.68480015 0.07015868 8 1 4809 4.02000000 1635616503 1635616503 1.00000000
2.02630639 1.81810069 -0.62851322 3 2 4810 2.79400000 1635616505 1635616505 -13.00000000
3.01377559 2.70315695 0.21216996 10 3 4811 4.05400000 1635616508 1635616508 3.00000000
2.43340039 2.18259883 -0.63539398 4 4 4811 3.33000000 1635616510 1635616510 -11.00000000
3.01431513 2.70269156 0.35420093 6 5 4812 4.06400000 1635616512 1635616512 5.00000000
2.97286320 2.66458917 -0.63230813 9 6 4813 4.04200000 1635616515 1635616515 -9.00000000
3.01899958 2.70499134 0.49771440 8 7 4814 4.08400000 1635616517 1635616517 7.00000000
2.99285531 2.68062472 -0.49332711 10 8 4815 4.04800000 1635616519 1635616519 -7.00000000
3.01352215 2.69913554 0.64075559 8 9 4815 4.09600000 1635616521 1635616521 9.00000000
2.98799849 2.67533493 -0.35088903 11 10 4816 4.02600000 1635616524 1635616524 -5.00000000
3.01059389 2.69461942 0.78536981 64 11 4817 4.11600000 1635616526 1635616526 11.00000000
2.99028373 2.67550111 -0.21028587 9 12 4818 4.01800000 1635616528 1635616528 -3.00000000
3.01541543 2.69703984 0.93399680 29 13 4819 4.15200000 1635616531 1635616531 13.00000000
3.00381064 2.68571663 -0.07033320 7 14 4820 4.03000000 1635616533 1635616533 -1.00000000
3.01567221 2.69632196 1.08393419 70 15 4820 4.18800000 1635616535 1635616535 15.00000000
1.71303129 1.52732813 -0.61495405 4 0 4828 2.37600000 1635616556 1635616556 -15.00000000
2.99459028 2.66902041 0.07001905 8 1 4829 4.01200000 1635616558 1635616558 1.00000000
2.02682018 1.80583096 -0.62671363 3 2 4830 2.78600000 1635616561 1635616561 -13.00000000
3.01573563 2.68597841 0.21164660 8 3 4831 4.04400000 1635616563 1635616563 3.00000000
2.44393635 2.17670274 -0.63615721 4 4 4831 3.33400000 1635616565 1635616565 -11.00000000
3.02224278 2.69082832 0.35402662 6 5 4832 4.06200000 1635616568 1635616568 5.00000000
2.97919512 2.65156913 -0.63168240 9 6 4833 4.03800000 1635616570 1635616570 -9.00000000
3.01062655 2.67860246 0.49478954 8 7 4834 4.06000000 1635616572 1635616572 7.00000000
2.98587799 2.65564966 -0.49064597 10 8 4835 4.02600000 1635616574 1635616574 -7.00000000
3.02044225 2.68544722 0.64012980 8 9 4836 4.09200000 1635616577 1635616577 9.00000000
2.99285197 2.66091704 -0.35036609 13 10 4836 4.02000000 1635616579 1635616579 -5.00000000
3.01117706 2.67626882 0.78308010 66 11 4837 4.10400000 1635616581 1635616581 11.00000000
2.99064636 2.65708756 -0.20965785 9 12 4838 4.00600000 1635616584 1635616584 -3.00000000
3.00732708 2.67096877 0.92859793 59 13 4839 4.12800000 1635616586 1635616586 13.00000000
3.00269985 2.66592169 -0.07008886 8 14 4840 4.01600000 1635616588 1635616588 -1.00000000
3.02264452 2.68268633 1.08289886 70 15 4841 4.18400000 1635616591 1635616591 15.00000000
1.72151101 1.52359998 -0.61598933 4 0 4849 2.38000000 1635616611 1635616611 -15.00000000
2.99536657 2.65007663 0.06980962 7 1 4850 4.00000000 1635616614 1635616614 1.00000000
2.03634477 1.80097222 -0.62761343 3 2 4851 2.79000000 1635616616 1635616616 -13.00000000
3.00610781 2.65770936 0.21028587 10 3 4852 4.01800000 1635616618 1635616618 3.00000000
2.45483971 2.17033148 -0.63692045 4 4 4852 3.33800000 1635616621 1635616621 -11.00000000
3.03208494 2.67973328 0.35402662 6 5 4853 4.06200000 1635616623 1635616623 5.00000000
2.97705054 2.63016891 -0.62917942 9 6 4854 4.02200000 1635616625 1635616625 -9.00000000
3.02042389 2.66755009 0.49478954 8 7 4855 4.06000000 1635616627 1635616627 7.00000000
2.97773385 2.62892246 -0.48772112 10 8 4856 4.00200000 1635616630 1635616630 -7.00000000
3.02387428 2.66965818 0.63887835 8 9 4856 4.08400000 1635616632 1635616632 9.00000000
2.99511552 2.64333797 -0.34949452 13 10 4857 4.01000000 1635616634 1635616634 -5.00000000
3.01213264 2.65742135 0.78079039 66 11 4858 4.09200000 1635616637 1635616637 11.00000000
2.98838139 2.63553977 -0.20882046 10 12 4859 3.99000000 1635616639 1635616639 -3.00000000
2.99955511 2.64446354 0.92319912 57 13 4860 4.10400000 1635616641 1635616641 13.00000000
2.99444795 2.63903236 -0.06967001 8 14 4861 3.99200000 1635616644 1635616644 -1.00000000
3.02619314 2.66700959 1.08082831 72 15 4861 4.17600000 1635616646 1635616646 15.00000000
1.72391665 1.51503098 -0.61495405 4 0 4869 2.37600000 1635616667 1635616667 -15.00000000
3.00159431 2.63696504 0.06973982 6 1 4870 3.99600000 1635616669 1635616669 1.00000000
2.03969049 1.79128122 -0.62671363 3 2 4871 2.78600000 1635616671 1635616671 -13.00000000
3.00786209 2.64061165 0.20976251 7 3 4872 4.00800000 1635616674 1635616674 3.00000000
2.45354819 2.15397787 -0.63463074 4 4 4872 3.32600000 1635616676 1635616676 -11.00000000
3.01895809 2.64942002 0.35141197 8 5 4873 4.03200000 1635616678 1635616678 5.00000000
2.98621321 2.61976099 -0.62917942 9 6 4874 4.02200000 1635616680 1635616680 -9.00000000
3.02225471 2.65044618 0.49357083 7 7 4875 4.05000000 1635616683 1635616683 7.00000000
2.98539972 2.61720371 -0.48747736 10 8 4876 4.00000000 1635616685 1635616685 -7.00000000
3.01535010 2.64346004 0.63512391 8 9 4876 4.06000000 1635616687 1635616687 9.00000000
2.98784184 2.61842227 -0.34757710 10 10 4877 3.98800000 1635616690 1635616690 -5.00000000
3.02434373 2.64947820 0.78155363 60 11 4878 4.09600000 1635616692 1635616692 11.00000000
2.99455786 2.62246060 -0.20861112 8 12 4879 3.98600000 1635616694 1635616694 -3.00000000
3.00290275 2.62884259 0.92139953 56 13 4880 4.09600000 1635616697 1635616697 13.00000000
2.98708844 2.61407757 -0.06928606 9 14 4881 3.97000000 1635616699 1635616699 -1.00000000
3.01222396 2.63607430 1.07254612 68 15 4881 4.14400000 1635616701 1635616701 15.00000000
1.71728861 1.49914229 -0.61081296 4 0 4888 2.36000000 1635616722 1635616722 -15.00000000
2.99073553 2.60990429 0.06928606 8 1 4889 3.97000000 1635616724 1635616724 1.00000000
2.05736732 1.79475594 -0.63031286 3 2 4890 2.80200000 1635616727 1635616727 -13.00000000
3.01208615 2.62668467 0.20944850 8 3 4891 4.00200000 1635616729 1635616729 3.00000000
2.46659636 2.15099120 -0.63615721 4 4 4891 3.33400000 1635616731 1635616731 -11.00000000
3.01571250 2.62892032 0.35001746 8 5 4892 4.01600000 1635616733 1635616733 5.00000000
2.97701335 2.59427047 -0.62542498 8 6 4893 3.99800000 1635616736 1635616736 -9.00000000
3.02204633 2.63258600 0.49210840 7 7 4894 4.03800000 1635616738 1635616738 7.00000000
2.98358297 2.59816384 -0.48577121 7 8 4895 3.98600000 1635616740 1635616740 -7.00000000
3.02157927 2.63032460 0.63449818 8 9 4896 4.05600000 1635616743 1635616743 9.00000000
2.98298335 2.59672642 -0.34600830 10 10 4896 3.97000000 1635616745 1635616745 -5.00000000
3.01830292 2.62654662 0.77773744 62 11 4897 4.07600000 1635616747 1635616747 11.00000000
2.99419665 2.60465097 -0.20798309 8 12 4898 3.97400000 1635616750 1635616750 -3.00000000
3.00719237 2.61503410 0.92004979 57 13 4899 4.09000000 1635616752 1635616752 13.00000000
2.98668551 2.59628606 -0.06907663 11 14 4900 3.95800000 1635616754 1635616754 -1.00000000
3.00928497 2.61593151 1.06840503 72 15 4900 4.12800000 1635616756 1635616756 15.00000000
1.72543061 1.49566936 -0.61184824 4 0 4908 2.36400000 1635616777 1635616777 -15.00000000
2.98169255 2.58373427 0.06886720 8 1 4909 3.94600000 1635616780 1635616780 1.00000000
2.05183601 1.77735615 -0.62671363 3 2 4910 2.78600000 1635616782 1635616782 -13.00000000
3.01972675 2.61484694 0.20934382 8 3 4911 4.00000000 1635616784 1635616784 3.00000000
2.48002625 2.14750862 -0.63768369 5 4 4911 3.34200000 1635616786 1635616786 -11.00000000
3.00528741 2.60142589 0.34775141 6 5 4912 3.99000000 1635616789 1635616789 5.00000000
2.97410059 2.57352233 -0.62292206 8 6 4913 3.98200000 1635616791 1635616791 -9.00000000
3.02671337 2.61812496 0.49137720 7 7 4914 4.03200000 1635616793 1635616793 7.00000000
2.99113250 2.58643484 -0.48552746 5 8 4915 3.98400000 1635616796 1635616796 -7.00000000
3.01729226 2.60813498 0.63168240 8 9 4916 4.03800000 1635616798 1635616798 9.00000000
3.00258088 2.59541845 -0.34722847 8 10 4916 3.98400000 1635616800 1635616800 -5.00000000
3.01556897 2.60572600 0.77468455 66 11 4917 4.06000000 1635616803 1635616803 11.00000000
2.99571300 2.58765531 -0.20745973 5 12 4918 3.96400000 1635616805 1635616805 -3.00000000
3.01777720 2.60579467 0.92049974 56 13 4919 4.09200000 1635616807 1635616807 13.00000000
2.98816133 2.57931161 -0.06890210 4 14 4920 3.94800000 1635616809 1635616809 -1.00000000
3.01592755 2.60236025 1.06736970 70 15 4921 4.12400000 1635616812 1635616812 15.00000000
1.73356926 1.49215794 -0.61288351 4 0 4928 2.36800000 1635616833 1635616833 -15.00000000
2.99827242 2.57983184 0.06904172 4 1 4929 3.95600000 1635616835 1635616835 1.00000000
2.05211806 1.76510000 -0.62491405 3 2 4930 2.77800000 1635616837 1635616837 -13.00000000
2.99551868 2.57564306 0.20704104 4 3 4931 3.95600000 1635616839 1635616839 3.00000000
2.48155284 2.13371873 -0.63615721 4 4 4931 3.33400000 1635616842 1635616842 -11.00000000
2.99470735 2.57403660 0.34548536 3 5 4932 3.96400000 1635616844 1635616844 5.00000000
2.97107959 2.55282617 -0.62041909 8 6 4933 3.96600000 1635616846 1635616846 -9.00000000
3.00571656 2.58167529 0.48650241 6 7 4934 3.99200000 1635616849 1635616849 7.00000000
2.97755122 2.55658078 -0.48187140 39 8 4935 3.95400000 1635616851 1635616851 -7.00000000
3.02338004 2.59501362 0.63105661 8 9 4936 4.03400000 1635616853 1635616853 9.00000000
2.97533751 2.55377793 -0.34304500 25 10 4936 3.93600000 1635616856 1635616856 -5.00000000
3.02166629 2.59262705 0.77392131 66 11 4937 4.05600000 1635616858 1635616858 11.00000000
2.96985912 2.54727578 -0.20505227 17 12 4938 3.91800000 1635616860 1635616860 -3.00000000
3.01058125 2.58129168 0.91555077 55 13 4939 4.07000000 1635616862 1635616862 13.00000000
2.98348188 2.55715322 -0.06858796 17 14 4940 3.93000000 1635616865 1635616865 -1.00000000
3.01867342 2.58731604 1.06529915 76 15 4940 4.11600000 1635616867 1635616867 15.00000000
1.73876727 1.48609757 -0.61288351 4 0 4948 2.36800000 1635616888 1635616888 -15.00000000
2.99205589 2.55636048 0.06869267 32 1 4949 3.93600000 1635616890 1635616890 1.00000000
2.06419420 1.76298845 -0.62671363 3 2 4950 2.78600000 1635616892 1635616892 -13.00000000
2.99233961 2.55479622 0.20620367 27 3 4951 3.94000000 1635616895 1635616895 3.00000000
2.49047875 2.12631822 -0.63653880 5 4 4951 3.33600000 1635616897 1635616897 -11.00000000
3.00518966 2.56486082 0.34565967 24 5 4952 3.96600000 1635616899 1635616899 5.00000000
2.97696710 2.53987551 -0.61979336 8 6 4953 3.96200000 1635616902 1635616902 -9.00000000
3.00262690 2.56086254 0.48455250 19 7 4954 3.97600000 1635616904 1635616904 7.00000000
3.01888919 2.57291222 0.62824082 8 9 4956 4.01600000 1635616909 1635616909 9.00000000
2.99484849 2.55242324 -0.34426519 14 10 4956 3.95000000 1635616911 1635616911 -5.00000000
3.02472019 2.57697082 0.77239484 68 11 4957 4.04800000 1635616913 1635616913 11.00000000
2.97873259 2.53689361 -0.20505227 14 12 4958 3.91800000 1635616915 1635616915 -3.00000000
3.00918651 2.56192422 0.91240150 58 13 4959 4.05600000 1635616918 1635616918 13.00000000
2.97259283 2.52987480 -0.06813420 13 14 4960 3.90400000 1635616920 1635616920 -1.00000000
3.01150346 2.56299043 1.05960512 64 15 4960 4.09400000 1635616922 1635616922 15.00000000
1.74689007 1.48251915 -0.61391878 4 0 4968 2.37200000 1635616944 1635616944 -15.00000000
3.00401092 2.54848790 0.06876248 4 1 4969 3.94000000 1635616946 1635616946 1.00000000
2.07628059 1.76081395 -0.62851322 3 2 4970 2.79400000 1635616949 1635616949 -13.00000000
2.99470210 2.53969216 0.20578498 4 3 4970 3.93200000 1635616951 1635616951 3.00000000
2.48740315 2.10872507 -0.63386750 5 4 4971 3.32200000 1635616953 1635616953 -11.00000000
2.98581481 2.52946854 -0.61979336 8 6 4973 3.96200000 1635616958 1635616958 -9.00000000
3.02215171 2.55934596 0.48625869 4 7 4974 3.99000000 1635616960 1635616960 7.00000000
2.97563076 2.51905727 -0.47870278 3 8 4975 3.92800000 1635616962 1635616962 -7.00000000
3.01383567 2.55140018 0.62542498 7 9 4975 3.99800000 1635616965 1635616965 9.00000000
3.03069925 2.56386089 0.77163160 66 11 4977 4.04400000 1635616969 1635616969 11.00000000
3.01066995 2.54511428 0.91015196 47 13 4979 4.04600000 1635616974 1635616974 13.00000000
3.01600504 2.54872179 1.05805230 54 15 4980 4.08800000 1635616979 1635616979 15.00000000
1.74762249 1.47267771 -0.61236584 4 0 4988 2.36600000 1635616999 1635616999 -15.00000000
2.97771263 2.50835514 0.06795967 1 1 4989 3.89400000 1635617002 1635617002 1.00000000
2.08241439 1.75355566 -0.62851322 3 2 4990 2.79400000 1635617004 1635617004 -13.00000000
2.97190309 2.50168848 0.20358688 1 3 4991 3.89000000 1635617006 1635617006 3.00000000
2.50526261 2.10887980 -0.63653880 5 4 4991 3.33600000 1635617009 1635617009 -11.00000000
2.98948407 2.51559639 0.34182483 3 5 4992 3.92200000 1635617011 1635617011 5.00000000
2.97950935 2.50631475 -0.61666465 8 6 4993 3.94200000 1635617013 1635617013 -9.00000000
3.02347040 2.54239321 0.48503998 1 7 4994 3.98000000 1635617015 1635617015 7.00000000
2.96921015 2.49588180 -0.47626540 7 8 4995 3.90800000 1635617018 1635617018 -7.00000000
3.01106787 2.53017020 0.62292206 11 9 4996 3.98200000 1635617020 1635617020 9.00000000
2.96835899 2.49428248 -0.33921015 8 10 4996 3.89200000 1635617022 1635617022 -5.00000000
2.98107529 2.50319314 -0.20400555 10 12 4998 3.89800000 1635617027 1635617027 -3.00000000
3.02102828 2.53584242 0.91060185 11 13 4999 4.04800000 1635617029 1635617029 13.00000000
2.97792721 2.49877763 -0.06785496 11 14 5000 3.88800000 1635617032 1635617032 -1.00000000
3.01200533 2.52647686 1.05339348 10 15 5001 4.07000000 1635617034 1635617034 15.00000000
1.75372159 1.46842039 -0.61288351 4 0 5006 2.36800000 1635617055 1635617055 -15.00000000
2.97637749 2.49128699 0.06775025 8 1 5007 3.88200000 1635617057 1635617057 1.00000000
2.08492398 1.74450386 -0.62761343 3 2 5008 2.79000000 1635617059 1635617059 -13.00000000
2.99616218 2.50695801 0.20473826 8 3 5008 3.91200000 1635617062 1635617062 3.00000000
2.51187539 2.10099888 -0.63653880 5 4 5009 3.33600000 1635617064 1635617064 -11.00000000
3.00195765 2.51002622 0.34234777 6 5 5010 3.92800000 1635617066 1635617066 5.00000000
2.99343109 2.50200915 -0.61791611 8 6 5011 3.95000000 1635617068 1635617068 -9.00000000
3.00859261 2.51378989 0.48138392 6 7 5012 3.95000000 1635617071 1635617071 7.00000000
2.99836636 2.50435710 -0.47967774 1 8 5013 3.93600000 1635617073 1635617073 -7.00000000
3.03264880 2.53209281 0.62573785 14 9 5014 4.00000000 1635617075 1635617075 9.00000000
2.99453306 2.50026822 -0.34130189 4 10 5014 3.91600000 1635617078 1635617078 -5.00000000
3.02804255 2.52734995 0.76667053 16 11 5015 4.01800000 1635617080 1635617080 11.00000000
2.99199176 2.49637437 -0.20421490 3 12 5016 3.90200000 1635617082 1635617082 -3.00000000
3.04095221 2.53632450 0.91420108 10 13 5017 4.06400000 1635617085 1635617085 13.00000000
3.00112152 2.50221539 -0.06820401 1 14 5018 3.90800000 1635617087 1635617087 -1.00000000
3.03729367 2.53237438 1.05960512 10 15 5018 4.09400000 1635617089 1635617089 15.00000000
1.76477873 1.46722996 -0.61495405 4 0 5026 2.37600000 1635617110 1635617110 -15.00000000
3.02504086 2.51411414 0.06865776 1 1 5027 3.93400000 1635617112 1635617112 1.00000000
2.08200717 1.72974360 -0.62491405 3 2 5028 2.77800000 1635617114 1635617114 -13.00000000
3.00950360 2.50031304 0.20505227 1 3 5028 3.91800000 1635617117 1635617117 3.00000000
2.51466298 2.08845496 -0.63539398 5 4 5029 3.33000000 1635617119 1635617119 -11.00000000
3.01836586 2.50589561 0.34321931 1 5 5030 3.93800000 1635617121 1635617121 5.00000000
3.01278687 2.50037575 -0.62010622 8 6 5031 3.96400000 1635617124 1635617124 -9.00000000
3.03873777 2.52101755 0.48479626 4 7 5032 3.97800000 1635617126 1635617126 7.00000000
3.02084184 2.50528049 -0.48187140 7 8 5033 3.95400000 1635617128 1635617128 -7.00000000
3.04603124 2.52527356 0.62667644 8 9 5034 4.00600000 1635617131 1635617131 9.00000000
3.01397920 2.49870133 -0.34252205 2 10 5034 3.93000000 1635617133 1635617133 -5.00000000
3.04440427 2.52302861 0.76857865 8 11 5035 4.02800000 1635617135 1635617135 11.00000000
2.98684525 2.47444773 -0.20327285 1 12 5036 3.88400000 1635617138 1635617138 -3.00000000
3.04528451 2.52196527 0.91285139 8 13 5037 4.05800000 1635617140 1635617140 13.00000000
3.03448319 2.51212740 -0.06876248 3 14 5038 3.94000000 1635617142 1635617142 -1.00000000
3.05057907 2.52545261 1.06115806 8 15 5038 4.10000000 1635617144 1635617144 15.00000000
1.76095068 1.45368171 -0.61184824 4 0 5046 2.36400000 1635617165 1635617165 -15.00000000
3.01529026 2.48826623 0.06823891 6 1 5047 3.91000000 1635617167 1635617167 1.00000000
2.08803225 1.72246552 -0.62491405 3 2 5048 2.77800000 1635617170 1635617170 -13.00000000
3.02943397 2.49816084 0.20578498 3 3 5049 3.93200000 1635617172 1635617172 3.00000000
2.52345252 2.08091354 -0.63577557 5 4 5049 3.33200000 1635617174 1635617174 -11.00000000
3.03631878 2.50294805 0.34426519 3 5 5050 3.95000000 1635617177 1635617177 5.00000000
3.03826571 2.50366259 -0.62354779 8 6 5051 3.98600000 1635617179 1635617179 -9.00000000
3.05671239 2.51796770 0.48625869 6 7 5052 3.99000000 1635617181 1635617181 7.00000000
3.02190661 2.48841119 -0.48065269 22 8 5053 3.94400000 1635617184 1635617184 -7.00000000
3.06811261 2.52645993 0.62949228 8 9 5053 4.02400000 1635617186 1635617186 9.00000000
3.02883601 2.49323034 -0.34321931 31 10 5054 3.93800000 1635617188 1635617188 -5.00000000
3.07138467 2.52735567 0.77315807 8 11 5055 4.05200000 1635617191 1635617191 11.00000000
3.01860142 2.48303843 -0.20484294 17 12 5056 3.91400000 1635617193 1635617193 -3.00000000
3.06310034 2.51874614 0.91555077 8 13 5057 4.07000000 1635617195 1635617195 13.00000000
3.02778578 2.48882174 -0.06841344 19 14 5058 3.92000000 1635617197 1635617197 -1.00000000
3.07623339 2.52774572 1.06685209 8 15 5059 4.12200000 1635617200 1635617200 15.00000000
1.76900244 1.44997525 -0.61288351 4 0 5066 2.36800000 1635617220 1635617220 -15.00000000
3.05025268 2.49927115 0.06883229 17 1 5067 3.94400000 1635617223 1635617223 1.00000000
2.10307765 1.72257531 -0.62761343 3 2 5068 2.79000000 1635617225 1635617225 -13.00000000
3.04697204 2.49569440 0.20641302 21 3 5068 3.94400000 1635617227 1635617227 3.00000000
2.52614379 2.06836104 -0.63463074 5 4 5069 3.32600000 1635617230 1635617230 -11.00000000
3.06353879 2.50747752 0.34635693 18 5 5070 3.97400000 1635617232 1635617232 5.00000000
3.05921745 2.50304890 -0.62605071 9 6 5071 4.00200000 1635617234 1635617234 -9.00000000
3.07931232 2.51859355 0.48845232 10 7 5072 4.00800000 1635617237 1635617237 7.00000000
3.07053113 2.51051688 -0.48698989 7 8 5073 3.99600000 1635617239 1635617239 -7.00000000
3.07888150 2.51644802 0.62980515 8 9 5074 4.02600000 1635617241 1635617241 9.00000000
3.06220317 2.50281644 -0.34600830 6 10 5074 3.97000000 1635617244 1635617244 -5.00000000
3.09083033 2.52531433 0.77582937 8 11 5075 4.06600000 1635617246 1635617246 11.00000000
3.07056332 2.50786185 -0.20777375 5 12 5076 3.97000000 1635617248 1635617248 -3.00000000
3.08244038 2.51666570 0.91870010 8 13 5077 4.08400000 1635617250 1635617250 13.00000000
3.05969310 2.49720359 -0.06893700 4 14 5078 3.95000000 1635617253 1635617253 -1.00000000
3.08653498 2.51821375 1.06736970 8 15 5079 4.12400000 1635617255 1635617255 15.00000000
1.76805961 1.43891382 -0.61081296 4 0 5086 2.36000000 1635617276 1635617276 -15.00000000
3.07602143 2.50249028 0.06921624 8 1 5087 3.96600000 1635617278 1635617278 1.00000000
2.10907769 1.71522379 -0.62761343 3 2 5088 2.79000000 1635617280 1635617280 -13.00000000
3.08355665 2.50772619 0.20829710 4 3 5088 3.98000000 1635617283 1635617283 3.00000000
2.53791833 2.06324601 -0.63577557 5 4 5089 3.33200000 1635617285 1635617285 -11.00000000
3.08154988 2.50430775 0.34740278 4 5 5090 3.98600000 1635617287 1635617287 5.00000000
3.07406878 2.49733710 -0.62730223 9 6 5091 4.01000000 1635617290 1635617290 -9.00000000
3.11582255 2.53035474 0.49283963 7 7 5092 4.04400000 1635617292 1635617292 7.00000000
3.08389926 2.50353694 -0.48772112 8 8 5093 4.00200000 1635617294 1635617294 -7.00000000
3.10101223 2.51742935 0.63262099 8 9 5093 4.04400000 1635617297 1635617297 9.00000000
3.07710934 2.49713397 -0.34670556 8 10 5094 3.97800000 1635617299 1635617299 -5.00000000
3.11182380 2.52440476 0.77888232 8 11 5095 4.08200000 1635617301 1635617301 11.00000000
3.10101652 2.51474023 -0.20923916 7 12 5096 3.99800000 1635617303 1635617303 -3.00000000
3.11088610 2.52184391 0.92454880 8 13 5097 4.11000000 1635617306 1635617306 13.00000000
3.09324908 2.50665212 -0.06949548 8 14 5098 3.98200000 1635617308 1635617308 -1.00000000
3.10431314 2.51472044 1.07047558 8 15 5099 4.13600000 1635617310 1635617310 15.00000000
1.77457416 1.43394744 -0.61133057 4 0 5106 2.36200000 1635617331 1635617331 -15.00000000
3.08940482 2.49550724 0.06932096 8 1 5107 3.97200000 1635617333 1635617333 1.00000000
2.11201978 1.70540273 -0.62671363 3 2 5108 2.78600000 1635617336 1635617336 -13.00000000
3.11404634 2.51451373 0.20976251 7 3 5108 4.00800000 1635617338 1635617338 3.00000000
2.53593898 2.04697561 -0.63348585 5 4 5109 3.32000000 1635617340 1635617340 -11.00000000
3.11818290 2.51605654 0.35054040 6 5 5110 4.02200000 1635617343 1635617343 5.00000000
3.09353018 2.49527287 -0.62949228 9 6 5111 4.02400000 1635617345 1635617345 -9.00000000
3.12618136 2.52070928 0.49308336 7 7 5112 4.04600000 1635617347 1635617347 7.00000000
3.10962033 2.50646019 -0.49040225 8 8 5113 4.02400000 1635617350 1635617350 -7.00000000
3.12516046 2.51898599 0.63574964 8 9 5113 4.06400000 1635617352 1635617352 9.00000000
3.10442448 2.50137830 -0.34879729 9 10 5114 4.00200000 1635617354 1635617354 -5.00000000
3.12214565 2.51475859 0.77926391 8 11 5115 4.08400000 1635617356 1635617356 11.00000000
3.11288714 2.50640559 -0.20944850 7 12 5116 4.00200000 1635617359 1635617359 -3.00000000
3.13029671 2.51952291 0.92769814 8 13 5117 4.12400000 1635617361 1635617361 13.00000000
3.12067604 2.51088214 -0.06991434 7 14 5118 4.00600000 1635617363 1635617363 -1.00000000
3.13113642 2.51839828 1.07668722 8 15 5119 4.16000000 1635617366 1635617366 15.00000000
1.77806199 1.42653537 -0.61081296 4 0 5126 2.36000000 1635617386 1635617386 -15.00000000
3.11525655 2.49847031 0.06970491 6 1 5127 3.99400000 1635617389 1635617389 1.00000000
2.10275555 1.68583035 -0.62221462 3 2 5128 2.76600000 1635617391 1635617391 -13.00000000
3.13838744 2.51612163 0.21080923 7 3 5128 4.02800000 1635617393 1635617393 3.00000000
2.55226064 2.04547787 -0.63577557 5 4 5129 3.33200000 1635617396 1635617396 -11.00000000
3.13627625 2.51263094 0.35158625 6 5 5130 4.03400000 1635617398 1635617398 5.00000000
3.11609817 2.49557257 -0.63230813 11 6 5131 4.04200000 1635617400 1635617400 -9.00000000
3.13961029 2.51350331 0.49381459 7 7 5132 4.05200000 1635617402 1635617402 7.00000000
3.12919974 2.50427270 -0.49210840 10 8 5133 4.03800000 1635617405 1635617405 -7.00000000
3.14781499 2.51917028 0.63856548 8 9 5133 4.08200000 1635617407 1635617407 9.00000000
3.12869477 2.50297308 -0.35054040 9 10 5134 4.02200000 1635617409 1635617409 -5.00000000
3.14470410 2.51488042 0.78269851 8 11 5135 4.10200000 1635617412 1635617412 11.00000000
3.13409734 2.50550151 -0.21028587 7 12 5136 4.01800000 1635617414 1635617414 -3.00000000
3.14972878 2.51709676 0.93084747 8 13 5137 4.13800000 1635617416 1635617416 13.00000000
3.14348292 2.51120663 -0.07022848 7 14 5138 4.02400000 1635617419 1635617419 -1.00000000
3.15758276 2.52247047 1.08289886 8 15 5138 4.18400000 1635617421 1635617421 15.00000000
1.79209685 1.42754209 -0.61391878 4 0 5146 2.37200000 1635617442 1635617442 -15.00000000
3.14116645 2.50128317 0.07008886 8 1 5147 4.01600000 1635617444 1635617444 1.00000000
2.12692356 1.69304395 -0.62761343 3 2 5148 2.79000000 1635617446 1635617446 -13.00000000
3.15340185 2.51012683 0.21122792 8 3 5148 4.03600000 1635617449 1635617449 3.00000000
2.55477643 2.03288889 -0.63463074 5 4 5149 3.32600000 1635617451 1635617451 -11.00000000
3.16217971 2.51531124 0.35350370 6 5 5150 4.05600000 1635617453 1635617453 5.00000000
3.13870573 2.49574494 -0.63512391 9 6 5151 4.06000000 1635617455 1635617455 -9.00000000
3.16390467 2.51488066 0.49625197 7 7 5152 4.07200000 1635617458 1635617458 7.00000000
3.14569330 2.49950933 -0.49332711 10 8 5153 4.04800000 1635617460 1635617460 -7.00000000
3.16896200 2.51799822 0.64106846 8 9 5153 4.09800000 1635617462 1635617462 9.00000000
3.15457416 2.50566792 -0.35245782 9 10 5154 4.04400000 1635617465 1635617465 -5.00000000
3.17652631 2.52220035 0.78842276 8 11 5155 4.13200000 1635617467 1635617467 11.00000000
3.14751720 2.49827123 -0.21059988 7 12 5156 4.02400000 1635617469 1635617469 -3.00000000
3.16460228 2.51093173 0.93264705 8 13 5157 4.14600000 1635617472 1635617472 13.00000000
3.15849638 2.50518918 -0.07036810 7 14 5158 4.03200000 1635617474 1635617474 -1.00000000
3.17588949 2.51808167 1.08600473 8 15 5159 4.19600000 1635617476 1635617476 15.00000000
1.79076087 1.41679692 -0.61184824 3 0 5165 2.36400000 1635617497 1635617497 -15.00000000
