# .PCD v0.7 - Point Cloud Data file format
VERSION 0.7
FIELDS x y z intensity laser_id azimuth distance_m adjustedtime timestamp vertical_angle
SIZE 4 4 4 1 1 2 8 8 4 8
TYPE F F F U U U F U U F
COUNT 1 1 1 1 1 1 1 1 1 1
WIDTH 516
HEIGHT 1
VIEWPOINT 0 0 0 1 0 0 0
POINTS 516
DATA ascii
-24.60675812 -4.33883524 3.06793880 39 7 26000 25.17400000 1635575322 1635575322 7.00000000
-3.82787919 -0.67426950 -0.47724035 7 8 26001 3.91600000 1635575324 1635575324 -7.00000000
-18.40818787 -3.23923516 2.96036577 42 9 26002 18.92400000 1635575326 1635575326 9.00000000
-5.02333736 -0.88394201 -0.44623742 6 10 26002 5.12000000 1635575328 1635575328 -5.00000000
-12.76760292 -2.24438047 2.51982355 46 11 26003 13.20600000 1635575331 1635575331 11.00000000
-7.37880898 -1.29577219 -0.39262435 8 12 26004 7.50200000 1635575333 1635575333 -3.00000000
-11.96955872 -2.09978771 2.80558944 47 13 26005 12.47200000 1635575335 1635575335 13.00000000
-14.25259018 -2.49772978 -0.25257123 4 14 26006 14.47200000 1635575338 1635575338 -1.00000000
-10.11968040 -1.77162743 2.75279927 40 15 26007 10.63600000 1635575340 1635575340 15.00000000
-1.92229128 -0.33445647 -0.52281445 5 0 26013 2.02000000 1635575361 1635575361 -15.00000000
-25.23575592 -4.38619184 0.44709575 5 1 26014 25.61800000 1635575363 1635575363 1.00000000
-2.18689561 -0.37970814 -0.51243848 4 2 26015 2.27800000 1635575365 1635575365 -13.00000000
-25.28131676 -4.38502026 1.34472001 16 3 26016 25.69400000 1635575368 1635575368 3.00000000
-2.56304359 -0.44455746 -0.50564384 3 4 26016 2.65000000 1635575370 1635575370 -11.00000000
-25.30878067 -4.38523388 2.24722362 24 5 26017 25.78400000 1635575372 1635575372 5.00000000
-3.05200887 -0.52827072 -0.49057847 2 6 26018 3.13600000 1635575375 1635575375 -9.00000000
-24.88703537 -4.30321074 3.10108733 45 7 26019 25.44600000 1635575377 1635575377 7.00000000
-3.80662060 -0.65751755 -0.47431549 7 8 26020 3.89200000 1635575379 1635575379 -7.00000000
-16.84156609 -2.90904355 2.70694208 16 9 26020 17.30400000 1635575381 1635575381 9.00000000
-5.03213120 -0.86829555 -0.44676033 6 10 26021 5.12600000 1635575384 1635575384 -5.00000000
-12.77497482 -2.20202923 2.51982355 46 11 26022 13.20600000 1635575386 1635575386 11.00000000
-7.36731911 -1.26858473 -0.39178696 7 12 26023 7.48600000 1635575388 1635575388 -3.00000000
-11.96109200 -2.05744076 2.80199027 45 13 26024 12.45600000 1635575391 1635575391 13.00000000
-14.29232788 -2.45587111 -0.25312969 4 14 26025 14.50400000 1635575393 1635575393 -1.00000000
-10.12519646 -1.73982692 2.75279927 38 15 26025 10.63600000 1635575395 1635575395 15.00000000
-1.91963828 -0.32709539 -0.52177918 5 0 26033 2.01600000 1635575416 1635575416 -15.00000000
-25.74177551 -4.38162851 0.45578703 5 1 26034 26.11600000 1635575418 1635575418 1.00000000
-2.19204998 -0.37272546 -0.51333833 4 2 26035 2.28200000 1635575421 1635575421 -13.00000000
-25.72966194 -4.37032509 1.36774790 16 3 26036 26.13400000 1635575423 1635575423 3.00000000
-2.54909563 -0.43297797 -0.50259089 3 4 26036 2.63400000 1635575425 1635575425 -11.00000000
-25.77965355 -4.37418795 2.28766394 32 5 26037 26.24800000 1635575428 1635575428 5.00000000
-3.06162477 -0.51893443 -0.49182996 3 6 26038 3.14400000 1635575430 1635575430 -9.00000000
-24.88233376 -4.21299887 3.09864998 39 7 26039 25.42600000 1635575432 1635575432 7.00000000
-3.80693507 -0.64389491 -0.47407174 7 8 26040 3.89000000 1635575434 1635575434 -7.00000000
-18.39475060 -3.10793686 2.95473409 46 9 26041 18.88800000 1635575437 1635575437 9.00000000
-5.03906059 -0.85138869 -0.44710895 6 10 26041 5.13000000 1635575439 1635575439 -5.00000000
-12.77484035 -2.15611601 2.51829720 46 11 26042 13.19800000 1635575441 1635575441 11.00000000
-7.36973286 -1.24252820 -0.39168230 7 12 26043 7.48400000 1635575444 1635575444 -3.00000000
-11.96051407 -2.01438165 2.80019069 44 13 26044 12.44800000 1635575446 1635575446 13.00000000
-14.28109360 -2.40264893 -0.25278065 4 14 26045 14.48400000 1635575448 1635575448 -1.00000000
-10.13912487 -1.70398521 2.75486994 38 15 26046 10.64400000 1635575451 1635575451 15.00000000
-1.91695726 -0.31975690 -0.52074391 5 0 26053 2.01200000 1635575471 1635575471 -15.00000000
-26.22834206 -4.37029791 0.46412930 5 1 26054 26.59400000 1635575474 1635575474 1.00000000
-2.19333768 -0.36507151 -0.51333833 4 2 26055 2.28200000 1635575476 1635575476 -13.00000000
-26.20578957 -4.35713911 1.39224112 21 3 26056 26.60200000 1635575478 1635575478 3.00000000
-2.55446482 -0.42472133 -0.50335413 3 4 26056 2.63800000 1635575481 1635575481 -11.00000000
-26.25075340 -4.35990715 2.32810426 24 5 26057 26.71200000 1635575483 1635575483 5.00000000
-3.07900739 -0.51083070 -0.49433291 3 6 26058 3.16000000 1635575485 1635575485 -9.00000000
-24.85967827 -4.11995077 3.09401894 42 7 26059 25.38800000 1635575487 1635575487 7.00000000
-3.81503487 -0.63157493 -0.47480297 7 8 26060 3.89600000 1635575490 1635575490 -7.00000000
-18.36597824 -3.04046798 2.94847679 42 9 26060 18.84800000 1635575492 1635575492 9.00000000
-5.04789877 -0.83476907 -0.44763190 3 10 26061 5.13600000 1635575494 1635575494 -5.00000000
-12.78616238 -2.11215019 2.51906037 50 11 26062 13.20200000 1635575497 1635575497 11.00000000
-7.37205458 -1.21647036 -0.39157763 3 12 26063 7.48200000 1635575499 1635575499 -3.00000000
-11.96747303 -1.97261941 2.80019069 44 13 26064 12.44800000 1635575501 1635575501 13.00000000
-14.28544712 -2.35213423 -0.25271085 2 14 26065 14.48000000 1635575504 1635575504 -1.00000000
-10.13328266 -1.66847014 2.75176406 40 15 26065 10.63200000 1635575506 1635575506 15.00000000
-1.90852869 -0.31150755 -0.51815575 5 0 26073 2.00200000 1635575527 1635575527 -15.00000000
-26.72500420 -4.35723162 0.47264606 5 1 26074 27.08200000 1635575529 1635575529 1.00000000
-2.20229244 -0.35866609 -0.51513791 4 2 26075 2.29000000 1635575531 1635575531 -13.00000000
-26.70578957 -4.34452963 1.41799045 17 3 26076 27.09400000 1635575534 1635575534 3.00000000
-2.55593181 -0.41580200 -0.50335413 3 4 26076 2.63800000 1635575536 1635575536 -11.00000000
-26.74172783 -4.34558535 2.37028766 25 5 26077 27.19600000 1635575538 1635575538 5.00000000
-3.06517291 -0.49754778 -0.49182996 3 6 26078 3.14400000 1635575540 1635575540 -9.00000000
-24.86411095 -4.03156090 3.09280014 39 7 26079 25.37800000 1635575543 1635575543 7.00000000
-3.82309484 -0.61920625 -0.47553417 7 8 26080 3.90200000 1635575545 1635575545 -7.00000000
-18.36867905 -2.97507691 2.94722533 42 9 26080 18.84000000 1635575547 1635575547 9.00000000
-5.04291487 -0.81587076 -0.44693464 6 10 26081 5.12800000 1635575550 1635575550 -5.00000000
-12.78958130 -2.06687903 2.51829720 50 11 26082 13.19800000 1635575552 1635575552 11.00000000
-7.39400148 -1.19359422 -0.39251968 3 12 26083 7.50000000 1635575554 1635575554 -3.00000000
-11.97043800 -1.93021274 2.79929090 45 13 26084 12.44400000 1635575557 1635575557 13.00000000
-14.33305550 -2.30861425 -0.25340894 2 14 26085 14.52000000 1635575559 1635575559 -1.00000000
-10.12950897 -1.63155222 2.74917579 42 15 26085 10.62200000 1635575561 1635575561 15.00000000
-1.91341984 -0.30545270 -0.51919103 4 0 26093 2.00600000 1635575582 1635575582 -15.00000000
-27.18634415 -4.33508253 0.48053455 5 1 26094 27.53400000 1635575584 1635575584 1.00000000
-2.19968200 -0.35036340 -0.51423812 4 2 26095 2.28600000 1635575587 1635575587 -13.00000000
-27.18431854 -4.32502937 1.44258833 21 3 26096 27.56400000 1635575589 1635575589 3.00000000
-2.56512308 -0.40811151 -0.50488061 3 4 26096 2.64600000 1635575591 1635575591 -11.00000000
-27.25652885 -4.33164072 2.41456270 25 5 26097 27.70400000 1635575593 1635575593 5.00000000
-3.08249879 -0.48932287 -0.49433291 3 6 26098 3.16000000 1635575596 1635575596 -9.00000000
-3.84091830 -0.60834169 -0.47748408 7 8 26100 3.91800000 1635575600 1635575600 -7.00000000
-18.38336182 -2.90834975 2.94785094 42 9 26101 18.84400000 1635575603 1635575603 9.00000000
-5.05753946 -0.80013072 -0.44798052 6 10 26101 5.14000000 1635575605 1635575605 -5.00000000
-12.78702259 -2.02069020 2.51638913 50 11 26102 13.18800000 1635575607 1635575607 11.00000000
-7.39220476 -1.16684282 -0.39220566 3 12 26103 7.49400000 1635575610 1635575610 -3.00000000
-11.98480225 -1.88963032 2.80109048 45 13 26104 12.45200000 1635575612 1635575612 13.00000000
-14.32522392 -2.25607967 -0.25312969 4 14 26105 14.50400000 1635575614 1635575614 -1.00000000
-10.15231705 -1.59888852 2.75383472 40 15 26105 10.64000000 1635575616 1635575616 15.00000000
-1.91829193 -0.29936752 -0.52022630 4 0 26113 2.01000000 1635575637 1635575637 -15.00000000
-27.73083496 -4.32270050 0.48988906 5 1 26114 28.07000000 1635575640 1635575640 1.00000000
-2.19318938 -0.34148371 -0.51243848 4 2 26115 2.27800000 1635575642 1635575642 -13.00000000
-27.71236801 -4.30991411 1.46980298 18 3 26116 28.08400000 1635575644 1635575644 3.00000000
-2.56653214 -0.39915508 -0.50488061 3 4 26116 2.64600000 1635575646 1635575646 -11.00000000
-27.79320908 -4.31751871 2.46075535 26 5 26117 28.23400000 1635575649 1635575649 5.00000000
-3.05685973 -0.47431955 -0.48995274 2 6 26118 3.13200000 1635575651 1635575651 -9.00000000
-24.82299232 -3.84723854 3.08426929 36 7 26119 25.30800000 1635575653 1635575653 7.00000000
-3.83517146 -0.59371591 -0.47650912 7 8 26120 3.91000000 1635575656 1635575656 -7.00000000
-18.38949776 -2.84355831 2.94722533 42 9 26121 18.84000000 1635575658 1635575658 9.00000000
-5.04454947 -0.78003603 -0.44658601 6 10 26121 5.12400000 1635575660 1635575660 -5.00000000
-12.78235626 -1.97424471 2.51409936 50 11 26122 13.17600000 1635575663 1635575663 11.00000000
-7.37254572 -1.13737798 -0.39094961 7 12 26123 7.47000000 1635575665 1635575665 -3.00000000
-11.98362160 -1.84659696 2.79929090 45 13 26124 12.44400000 1635575667 1635575667 13.00000000
-14.35475254 -2.20940781 -0.25351366 2 14 26125 14.52600000 1635575669 1635575669 -1.00000000
-10.16956615 -1.56342900 2.75694036 40 15 26126 10.65200000 1635575672 1635575672 15.00000000
-1.91932511 -0.29266962 -0.52022630 4 0 26133 2.01000000 1635575693 1635575693 -15.00000000
-28.28742409 -4.30837536 0.49945298 5 1 26134 28.61800000 1635575695 1635575695 1.00000000
-2.20207429 -0.33499831 -0.51423812 4 2 26135 2.28600000 1635575697 1635575697 -13.00000000
-28.25446129 -4.29326391 1.49775040 18 3 26136 28.61800000 1635575699 1635575699 3.00000000
-2.56790972 -0.39019376 -0.50488061 3 4 26136 2.64600000 1635575702 1635575702 -11.00000000
-28.35572433 -4.30358791 2.50921392 36 5 26137 28.79000000 1635575704 1635575704 5.00000000
-3.08193350 -0.46719909 -0.49370718 4 6 26138 3.15600000 1635575706 1635575706 -9.00000000
-24.82841873 -3.75937796 3.08329439 45 7 26139 25.30000000 1635575709 1635575709 7.00000000
-3.84114623 -0.58091873 -0.47699660 7 8 26140 3.91400000 1635575711 1635575711 -7.00000000
-18.39149857 -2.77816939 2.94597387 42 9 26141 18.83200000 1635575713 1635575713 9.00000000
-5.04724169 -0.76242250 -0.44658601 9 10 26141 5.12400000 1635575716 1635575716 -5.00000000
-12.79111099 -1.92990685 2.51448083 46 11 26142 13.17800000 1635575718 1635575718 11.00000000
-7.38634586 -1.11312413 -0.39147297 7 12 26143 7.48000000 1635575720 1635575720 -3.00000000
-11.97457790 -1.80243456 2.79569173 46 13 26144 12.42800000 1635575722 1635575722 13.00000000
-14.36830997 -2.16017866 -0.25361836 2 14 26145 14.53200000 1635575725 1635575725 -1.00000000
-10.17469501 -1.52969694 2.75694036 42 15 26145 10.65200000 1635575727 1635575727 15.00000000
-1.91651356 -0.28539905 -0.51919103 5 0 26153 2.00600000 1635575748 1635575748 -15.00000000
-28.60887146 -4.25520754 0.50486320 16 1 26154 28.92800000 1635575750 1635575750 1.00000000
-2.19551992 -0.32616416 -0.51243848 4 2 26155 2.27800000 1635575752 1635575752 -13.00000000
-28.60908318 -4.24503231 1.51575398 92 3 26156 28.96200000 1635575755 1635575755 3.00000000
-2.56148815 -0.38007510 -0.50335413 3 4 26156 2.63800000 1635575757 1635575757 -11.00000000
-28.58539772 -4.23641920 2.52821374 100 5 26157 29.00800000 1635575759 1635575759 5.00000000
-3.06009650 -0.45296726 -0.48995274 4 6 26158 3.13200000 1635575762 1635575762 -9.00000000
-24.80211449 -3.66688108 3.07841969 30 7 26159 25.26000000 1635575764 1635575764 7.00000000
-3.83333158 -0.56605715 -0.47577792 7 8 26160 3.90400000 1635575766 1635575766 -7.00000000
-18.37763405 -2.71049547 2.94221950 42 9 26161 18.80800000 1635575769 1635575769 9.00000000
-5.04198790 -0.74363685 -0.44588879 9 10 26161 5.11600000 1635575771 1635575771 -5.00000000
-12.80359650 -1.88610423 2.51562572 50 11 26162 13.18400000 1635575773 1635575773 11.00000000
-7.40401840 -1.08936930 -0.39220566 3 12 26163 7.49400000 1635575775 1635575775 -3.00000000
-11.98465252 -1.76119113 2.79659152 45 13 26164 12.43200000 1635575778 1635575778 13.00000000
-14.39554787 -2.11291480 -0.25396740 4 14 26165 14.55200000 1635575780 1635575780 -1.00000000
-10.18761730 -1.49529350 2.75901103 42 15 26165 10.66000000 1635575782 1635575782 15.00000000
-1.91176283 -0.27787381 -0.51763809 5 0 26173 2.00000000 1635575803 1635575803 -15.00000000
-28.59386635 -4.15100908 0.50433964 16 1 26174 28.89800000 1635575805 1635575805 1.00000000
-2.20821643 -0.32017615 -0.51513791 4 2 26175 2.29000000 1635575808 1635575808 -13.00000000
-28.60126114 -4.14698553 1.51460254 92 3 26175 28.94000000 1635575810 1635575810 3.00000000
-2.56279922 -0.37113151 -0.50335413 3 4 26176 2.63800000 1635575812 1635575812 -11.00000000
-28.58226395 -4.13404465 2.52664495 100 5 26177 28.99000000 1635575815 1635575815 5.00000000
-3.08120990 -0.44510707 -0.49308142 3 6 26178 3.15200000 1635575817 1635575817 -9.00000000
-24.81672859 -3.58056664 3.07866335 51 7 26179 25.26200000 1635575819 1635575819 7.00000000
-3.84510803 -0.55408853 -0.47699660 9 8 26180 3.91400000 1635575821 1635575821 -7.00000000
-18.36305809 -2.64615726 2.93846488 42 9 26180 18.78400000 1635575824 1635575824 9.00000000
-5.06032944 -0.72830313 -0.44728327 6 10 26181 5.13200000 1635575826 1635575826 -5.00000000
-12.79261303 -1.83888578 2.51219130 50 11 26182 13.16600000 1635575828 1635575828 11.00000000
-7.41370678 -1.06436932 -0.39251968 3 12 26183 7.50000000 1635575831 1635575831 -3.00000000
-11.98686981 -1.71879292 2.79569173 46 13 26184 12.42800000 1635575833 1635575833 13.00000000
-14.40877438 -2.06350255 -0.25407213 2 14 26185 14.55800000 1635575835 1635575835 -1.00000000
-10.18130112 -1.45807970 2.75590515 40 15 26185 10.64800000 1635575838 1635575838 15.00000000
-1.92037201 -0.27228361 -0.51970863 5 0 26193 2.00800000 1635575858 1635575858 -15.00000000
-28.62204170 -4.05313492 0.50458395 10 1 26194 28.91200000 1635575861 1635575861 1.00000000
-2.20546150 -0.31192029 -0.51423812 4 2 26195 2.28600000 1635575863 1635575863 -13.00000000
-28.59649086 -4.03933525 1.51355588 27 3 26196 28.92000000 1635575865 1635575865 3.00000000
-2.56796694 -0.36273259 -0.50411737 3 4 26196 2.64200000 1635575868 1635575868 -11.00000000
-28.57284737 -4.03090906 2.52455330 36 5 26197 28.96600000 1635575870 1635575870 5.00000000
-3.08665705 -0.43490013 -0.49370718 3 6 26198 3.15600000 1635575872 1635575872 -9.00000000
-24.79762459 -3.48949242 3.07476354 39 7 26199 25.23000000 1635575874 1635575874 7.00000000
-3.84701872 -0.54066324 -0.47699660 9 8 26200 3.91400000 1635575877 1635575877 -7.00000000
-18.36480904 -2.57773709 2.93721342 42 9 26201 18.77600000 1635575879 1635575879 9.00000000
-5.07073307 -0.71174264 -0.44798052 6 10 26201 5.14000000 1635575881 1635575881 -5.00000000
-12.77951145 -1.79149449 2.50837517 46 11 26202 13.14600000 1635575884 1635575884 11.00000000
-7.41342068 -1.03793037 -0.39231032 3 12 26203 7.49600000 1635575886 1635575886 -3.00000000
-12.00051594 -1.67802000 2.79749131 46 13 26204 12.43600000 1635575888 1635575888 13.00000000
-14.43965530 -2.01651287 -0.25449100 2 14 26205 14.58200000 1635575891 1635575891 -1.00000000
-10.19231701 -1.42155409 2.75745821 42 15 26206 10.65400000 1635575893 1635575893 15.00000000
-1.92901182 -0.26630002 -0.52177918 5 0 26214 2.01600000 1635575914 1635575914 -15.00000000
-29.19731522 -4.02549553 0.51446205 5 1 26215 29.47800000 1635575916 1635575916 1.00000000
-2.21045113 -0.30436644 -0.51513791 4 2 26216 2.29000000 1635575918 1635575918 -13.00000000
-29.13474274 -4.01168680 1.54129386 9 3 26216 29.45000000 1635575921 1635575921 3.00000000
-2.58094907 -0.35492286 -0.50640708 3 4 26217 2.65400000 1635575923 1635575923 -11.00000000
-29.23485565 -4.01507378 2.58172750 9 5 26218 29.62200000 1635575925 1635575925 5.00000000
-3.06865978 -0.42089972 -0.49057847 2 6 26219 3.13600000 1635575927 1635575927 -9.00000000
-24.77091217 -3.39319301 3.06988883 39 7 26220 25.19000000 1635575930 1635575930 7.00000000
-3.84897447 -0.52655959 -0.47699660 7 8 26221 3.91400000 1635575932 1635575932 -7.00000000
-18.36239052 -2.50880504 2.93533635 42 9 26222 18.76400000 1635575934 1635575934 9.00000000
-5.07922983 -0.69396180 -0.44850346 6 10 26222 5.14600000 1635575937 1635575937 -5.00000000
-12.78015614 -1.74384689 2.50723028 50 11 26223 13.14000000 1635575939 1635575939 11.00000000
-7.40530157 -1.00913370 -0.39168230 3 12 26224 7.48400000 1635575941 1635575941 -3.00000000
-11.99499989 -1.63244784 2.79479194 46 13 26225 12.42400000 1635575944 1635575944 13.00000000
-14.41326332 -1.95899701 -0.25389761 4 14 26226 14.54800000 1635575946 1635575946 -1.00000000
-10.19913101 -1.38622785 2.75797582 42 15 26226 10.65600000 1635575948 1635575948 15.00000000
-1.92801511 -0.25930738 -0.52126157 5 0 26234 2.01400000 1635575969 1635575969 -15.00000000
-41.53462982 -5.57879782 0.73150015 10 1 26235 41.91400000 1635575971 1635575971 1.00000000
-2.21536303 -0.29716682 -0.51603770 4 2 26236 2.29400000 1635575973 1635575973 -13.00000000
-58.62376022 -7.86373949 3.09985876 59 3 26236 59.23000000 1635575976 1635575976 3.00000000
-2.57828045 -0.34539017 -0.50564384 3 4 26237 2.65000000 1635575978 1635575978 -11.00000000
-33.11336517 -4.43003130 2.92285490 39 5 26238 33.53600000 1635575980 1635575980 5.00000000
-3.10535383 -0.41489431 -0.49621013 3 6 26239 3.17200000 1635575983 1635575983 -9.00000000
-24.76292992 -3.30408025 3.06745148 39 7 26240 25.17000000 1635575985 1635575985 7.00000000
-3.84291840 -0.51207215 -0.47602165 7 8 26241 3.90600000 1635575987 1635575987 -7.00000000
-18.35537148 -2.44260836 2.93283343 42 9 26242 18.74800000 1635575990 1635575990 9.00000000
-5.08754635 -0.67701620 -0.44902638 6 10 26242 5.15200000 1635575992 1635575992 -5.00000000
-12.78032684 -1.69844925 2.50608540 43 11 26243 13.13400000 1635575994 1635575994 11.00000000
-7.42857790 -0.98590595 -0.39272901 4 12 26244 7.50400000 1635575997 1635575997 -3.00000000
-12.00062561 -1.59056759 2.79479194 47 13 26245 12.42400000 1635575999 1635575999 13.00000000
-14.45767975 -1.91365886 -0.25456080 2 14 26246 14.58600000 1635576001 1635576001 -1.00000000
-10.21539879 -1.35213876 2.76108146 42 15 26246 10.66800000 1635576003 1635576003 15.00000000
-1.92316198 -0.25182331 -0.51970863 4 0 26254 2.00800000 1635576024 1635576024 -15.00000000
-41.55186462 -5.43352175 0.73146528 10 1 26255 41.91200000 1635576026 1635576026 1.00000000
-2.21252203 -0.28892729 -0.51513791 4 2 26256 2.29000000 1635576029 1635576029 -13.00000000
-58.63436508 -7.64649534 3.09891653 59 3 26257 59.21200000 1635576031 1635576031 3.00000000
-2.56389618 -0.33435717 -0.50259089 4 4 26257 2.63400000 1635576033 1635576033 -11.00000000
-33.11677551 -4.31287336 2.92180920 39 5 26258 33.52400000 1635576036 1635576036 5.00000000
-3.09502983 -0.40252352 -0.49433291 3 6 26259 3.16000000 1635576038 1635576038 -9.00000000
-24.71525574 -3.20995116 3.06013918 42 7 26260 25.11000000 1635576040 1635576040 7.00000000
-3.84665108 -0.49891007 -0.47626540 7 8 26261 3.90800000 1635576043 1635576043 -7.00000000
-18.35161591 -2.38020182 2.93095613 42 9 26261 18.73600000 1635576045 1635576045 9.00000000
-5.08592701 -0.65874135 -0.44867778 3 10 26262 5.14800000 1635576047 1635576047 -5.00000000
-12.79201889 -1.65458286 2.50723028 50 11 26263 13.14000000 1635576050 1635576050 11.00000000
-7.42207003 -0.95869011 -0.39220566 3 12 26264 7.49400000 1635576052 1635576052 -3.00000000
-12.00996971 -1.54916644 2.79569173 46 13 26265 12.42800000 1635576054 1635576054 13.00000000
-14.49600410 -1.86726809 -0.25511926 2 14 26266 14.61800000 1635576056 1635576056 -1.00000000
-10.22220230 -1.31493485 2.76159930 42 15 26267 10.67000000 1635576059 1635576059 15.00000000
-1.92402923 -0.24510869 -0.51970863 5 0 26274 2.00800000 1635576079 1635576079 -15.00000000
-2.21931672 -0.28193915 -0.51648760 4 2 26276 2.29600000 1635576084 1635576084 -13.00000000
-58.62769699 -7.44798756 3.09724188 59 3 26276 59.18000000 1635576086 1635576086 3.00000000
-2.57673359 -0.32688794 -0.50488061 3 4 26277 2.64600000 1635576089 1635576089 -11.00000000
-33.11581421 -4.19524479 2.92041469 39 5 26278 33.50800000 1635576091 1635576091 5.00000000
-3.10033560 -0.39221323 -0.49495864 3 6 26279 3.16400000 1635576093 1635576093 -9.00000000
-24.74009514 -3.12540102 3.06184530 42 7 26280 25.12400000 1635576096 1635576096 7.00000000
-3.85821652 -0.48672196 -0.47748408 7 8 26281 3.91800000 1635576098 1635576098 -7.00000000
-18.36021805 -2.31292391 2.93095613 42 9 26282 18.73600000 1635576100 1635576100 9.00000000
-5.08621836 -0.64073515 -0.44850346 6 10 26282 5.14600000 1635576103 1635576103 -5.00000000
-12.78992558 -1.60894012 2.50570369 50 11 26283 13.13200000 1635576105 1635576105 11.00000000
-7.46302319 -0.93750626 -0.39419442 4 12 26284 7.53200000 1635576107 1635576107 -3.00000000
-12.02303886 -1.50820470 2.79749131 46 13 26285 12.43600000 1635576109 1635576109 13.00000000
-14.51433945 -1.81814754 -0.25532871 2 14 26286 14.63000000 1635576112 1635576112 -1.00000000
-10.22289562 -1.27876508 2.76056385 42 15 26287 10.66600000 1635576114 1635576114 15.00000000
-1.92483151 -0.23872703 -0.51970863 4 0 26293 2.00800000 1635576135 1635576135 -15.00000000
-36.76150131 -4.55282688 0.64657676 17 1 26294 37.04800000 1635576137 1635576137 1.00000000
-2.21056938 -0.27338219 -0.51423812 4 2 26295 2.28600000 1635576139 1635576139 -13.00000000
-36.75913239 -4.54601955 1.94114065 85 3 26295 37.09000000 1635576142 1635576142 3.00000000
-2.57780337 -0.31834140 -0.50488061 3 4 26296 2.64600000 1635576144 1635576144 -11.00000000
-33.11174774 -4.08321095 2.91884589 39 5 26297 33.49000000 1635576146 1635576146 5.00000000
-3.08593464 -0.37999859 -0.49245569 3 6 26298 3.14800000 1635576149 1635576149 -9.00000000
-24.71485901 -3.03898191 3.05745816 42 7 26299 25.08800000 1635576151 1635576151 7.00000000
-3.86572027 -0.47465077 -0.47821531 7 8 26300 3.92400000 1635576153 1635576153 -7.00000000
-18.35562897 -2.25378776 2.92907882 42 9 26300 18.72400000 1635576156 1635576156 9.00000000
-5.09622574 -0.62483495 -0.44920069 3 10 26301 5.15400000 1635576158 1635576158 -5.00000000
-12.78544712 -1.56532538 2.50379562 46 11 26302 13.12200000 1635576160 1635576160 11.00000000
-7.44428349 -0.91008675 -0.39304304 4 12 26303 7.51000000 1635576162 1635576162 -3.00000000
-12.03184223 -1.46879876 2.79839110 45 13 26304 12.44000000 1635576165 1635576165 13.00000000
-14.52425861 -1.77049017 -0.25539851 2 14 26305 14.63400000 1635576167 1635576167 -1.00000000
-10.22324467 -1.24439085 2.75952864 45 15 26306 10.66200000 1635576169 1635576169 15.00000000
-1.92948902 -0.23246883 -0.52074391 5 0 26313 2.01200000 1635576190 1635576190 -15.00000000
-36.74143219 -4.42017794 0.64594847 17 1 26314 37.01200000 1635576192 1635576192 1.00000000
-2.20764065 -0.26519933 -0.51333833 4 2 26315 2.28200000 1635576195 1635576195 -13.00000000
-36.75098038 -4.41481972 1.93988454 85 3 26315 37.06600000 1635576197 1635576197 3.00000000
-2.57889891 -0.30934125 -0.50488061 3 4 26316 2.64600000 1635576199 1635576199 -11.00000000
-33.11986542 -3.96689391 2.91832280 39 5 26317 33.48400000 1635576202 1635576202 5.00000000
-3.09116507 -0.36969352 -0.49308142 3 6 26318 3.15200000 1635576204 1635576204 -9.00000000
-24.69772148 -2.94939709 3.05404568 42 7 26319 25.06000000 1635576206 1635576206 7.00000000
-3.85749793 -0.45997876 -0.47699660 7 8 26320 3.91400000 1635576209 1635576209 -7.00000000
-18.35553741 -2.18876553 2.92782736 46 9 26320 18.71600000 1635576211 1635576211 9.00000000
-5.10035419 -0.60727757 -0.44937500 3 10 26321 5.15600000 1635576213 1635576213 -5.00000000
-12.79083252 -1.52068639 2.50379562 46 11 26322 13.12200000 1635576215 1635576215 11.00000000
-7.43948174 -0.88315403 -0.39262435 4 12 26323 7.50200000 1635576218 1635576218 -3.00000000
-12.03689671 -1.42679083 2.79839110 45 13 26324 12.44000000 1635576220 1635576220 13.00000000
-14.51446342 -1.71790004 -0.25511926 2 14 26325 14.61800000 1635576222 1635576222 -1.00000000
-10.23711872 -1.20983112 2.76211691 42 15 26326 10.67200000 1635576225 1635576225 15.00000000
-1.93796384 -0.22662978 -0.52281445 5 0 26333 2.02000000 1635576245 1635576245 -15.00000000
-36.75663757 -4.29189968 0.64594847 17 1 26334 37.01200000 1635576248 1635576248 1.00000000
-2.20855284 -0.25749162 -0.51333833 4 2 26335 2.28200000 1635576250 1635576250 -13.00000000
-36.73442459 -4.28280735 1.93820977 62 3 26335 37.03400000 1635576252 1635576252 3.00000000
-2.57606292 -0.29988331 -0.50411737 3 4 26336 2.64200000 1635576255 1635576255 -11.00000000
-33.26214981 -3.86621213 2.92965317 39 5 26337 33.61400000 1635576257 1635576257 5.00000000
-3.08851218 -0.35844564 -0.49245569 3 6 26338 3.14800000 1635576259 1635576259 -9.00000000
-24.70392227 -2.86271095 3.05355835 42 7 26339 25.05600000 1635576261 1635576261 7.00000000
-3.85316420 -0.44582629 -0.47626540 7 8 26340 3.90800000 1635576264 1635576264 -7.00000000
-18.34344482 -2.12240887 2.92469883 42 9 26340 18.69600000 1635576266 1635576266 9.00000000
-5.10244274 -0.58947033 -0.44937500 3 10 26341 5.15600000 1635576268 1635576268 -5.00000000
-12.79996395 -1.47647870 2.50455880 46 11 26342 13.12600000 1635576271 1635576271 11.00000000
-7.45839214 -0.85900819 -0.39346170 4 12 26343 7.51800000 1635576273 1635576273 -3.00000000
-12.03018761 -1.38342977 2.79569173 47 13 26344 12.42800000 1635576275 1635576275 13.00000000
-14.56407833 -1.67224288 -0.25588718 2 14 26345 14.66200000 1635576278 1635576278 -1.00000000
-10.24299335 -1.17609739 2.76263452 42 15 26345 10.67400000 1635576280 1635576280 15.00000000
-1.93490410 -0.21942827 -0.52177918 5 0 26353 2.01600000 1635576301 1635576301 -15.00000000
-36.76742172 -4.16311884 0.64587867 17 1 26354 37.00800000 1635576303 1635576303 1.00000000
-2.22105670 -0.25109425 -0.51603770 4 2 26355 2.29400000 1635576305 1635576305 -13.00000000
-36.72930527 -4.15231037 1.93716311 77 3 26355 37.01400000 1635576308 1635576308 3.00000000
-2.57709384 -0.29088932 -0.50411737 3 4 26356 2.64200000 1635576310 1635576310 -11.00000000
-33.97235107 -3.82862234 2.99101067 40 5 26357 34.31800000 1635576312 1635576312 5.00000000
-3.09759665 -0.34854606 -0.49370718 3 6 26358 3.15600000 1635576314 1635576314 -9.00000000
-24.68022919 -2.77269316 3.04941463 39 7 26359 25.02200000 1635576317 1635576317 7.00000000
-3.87442422 -0.43458629 -0.47870278 7 8 26360 3.92800000 1635576319 1635576319 -7.00000000
-18.32718468 -2.05572295 2.92094421 42 9 26360 18.67200000 1635576321 1635576321 9.00000000
-5.11238956 -0.57254285 -0.45007226 3 10 26361 5.16400000 1635576324 1635576324 -5.00000000
-12.80308819 -1.43157125 2.50417733 50 11 26362 13.12400000 1635576326 1635576326 11.00000000
-7.46134520 -0.83296829 -0.39346170 4 12 26363 7.51800000 1635576328 1635576328 -3.00000000
-12.03881645 -1.34185994 2.79659152 47 13 26364 12.43200000 1635576331 1635576331 13.00000000
-14.59367561 -1.62404859 -0.25630605 2 14 26365 14.68600000 1635576333 1635576333 -1.00000000
-10.24531555 -1.13833368 2.76211691 40 15 26366 10.67200000 1635576335 1635576335 15.00000000
-1.92029583 -0.21098498 -0.51763809 5 0 26373 2.00000000 1635576356 1635576356 -15.00000000
-36.74992752 -4.03126240 0.64532018 17 1 26374 36.97600000 1635576358 1635576358 1.00000000
-2.23354268 -0.24461269 -0.51873714 4 2 26375 2.30600000 1635576361 1635576361 -13.00000000
-36.74626541 -4.01787996 1.93726778 100 3 26376 37.01600000 1635576363 1635576363 3.00000000
-2.58980346 -0.28317219 -0.50640708 3 4 26376 2.65400000 1635576365 1635576365 -11.00000000
-34.85301971 -3.80471516 3.06735921 40 5 26377 35.19400000 1635576367 1635576367 5.00000000
-3.11057687 -0.33901545 -0.49558440 3 6 26378 3.16800000 1635576370 1635576370 -9.00000000
-24.67002296 -2.68437886 3.04697728 39 7 26379 25.00200000 1635576372 1635576372 7.00000000
-3.87197065 -0.42063060 -0.47821531 5 8 26380 3.92400000 1635576374 1635576374 -7.00000000
-18.32639313 -1.99088335 2.91969275 42 9 26380 18.66400000 1635576377 1635576377 9.00000000
-5.09652996 -0.55276030 -0.44850346 3 10 26381 5.14600000 1635576379 1635576379 -5.00000000
-12.80605602 -1.38666010 2.50379562 46 11 26382 13.12200000 1635576381 1635576381 11.00000000
-7.47413588 -0.80799162 -0.39398509 8 12 26383 7.52800000 1635576384 1635576384 -3.00000000
-12.04730225 -1.30024660 2.79749131 47 13 26384 12.43600000 1635576386 1635576386 13.00000000
-14.65094852 -1.57866728 -0.25721356 2 14 26385 14.73800000 1635576388 1635576388 -1.00000000
-1.93254673 -0.20550629 -0.52074391 5 0 26393 2.01200000 1635576411 1635576411 -15.00000000
-36.72599030 -3.89894581 0.64465702 34 1 26394 36.93800000 1635576414 1635576414 1.00000000
-2.22081757 -0.23537695 -0.51558781 4 2 26395 2.29200000 1635576416 1635576416 -13.00000000
-36.73622894 -3.88706541 1.93601167 93 3 26396 36.99200000 1635576418 1635576418 3.00000000
-2.58687139 -0.27371719 -0.50564384 3 4 26396 2.65000000 1635576420 1635576420 -11.00000000
-35.73194504 -3.77449584 3.14353323 41 5 26397 36.06800000 1635576423 1635576423 5.00000000
-3.09995437 -0.32691243 -0.49370718 3 6 26398 3.15600000 1635576425 1635576425 -9.00000000
-24.64173317 -2.59429884 3.04234624 36 7 26399 24.96400000 1635576427 1635576427 7.00000000
-3.87736368 -0.40752736 -0.47870278 5 8 26400 3.92800000 1635576430 1635576430 -7.00000000
-18.32963753 -1.92328811 2.91906714 42 9 26401 18.66000000 1635576432 1635576432 9.00000000
-5.10040998 -0.53517467 -0.44867778 3 10 26401 5.14800000 1635576434 1635576434 -5.00000000
-12.80886555 -1.34174562 2.50341392 50 11 26402 13.12000000 1635576437 1635576437 11.00000000
-7.49478865 -0.78376663 -0.39492711 8 12 26403 7.54600000 1635576439 1635576439 -3.00000000
-12.05952072 -1.25899518 2.79929090 48 13 26404 12.44400000 1635576441 1635576441 13.00000000
-14.68421459 -1.53041840 -0.25770223 2 14 26405 14.76600000 1635576444 1635576444 -1.00000000
-8.57748318 -0.89244926 2.31073642 9 15 26406 8.92800000 1635576446 1635576446 15.00000000
-1.93709576 -0.19915433 -0.52177918 5 0 26413 2.01600000 1635576467 1635576467 -15.00000000
-2.21580982 -0.22702755 -0.51423812 4 2 26415 2.28600000 1635576471 1635576471 -13.00000000
-2.60343552 -0.26628375 -0.50869679 3 4 26416 2.66600000 1635576476 1635576476 -11.00000000
-36.60710907 -3.73778105 3.21935892 62 5 26417 36.93800000 1635576478 1635576478 5.00000000
-3.08928561 -0.31488770 -0.49182996 3 6 26418 3.14400000 1635576480 1635576480 -9.00000000
-24.62693977 -2.50585604 3.03942132 36 7 26419 24.94000000 1635576483 1635576483 7.00000000
-3.87481284 -0.39358914 -0.47821531 5 8 26420 3.92400000 1635576485 1635576485 -7.00000000
-18.32412338 -1.86129653 2.91718984 42 9 26420 18.64800000 1635576487 1635576487 9.00000000
-5.10224676 -0.51736766 -0.44867778 6 10 26421 5.14800000 1635576490 1635576490 -5.00000000
-12.80175114 -1.29583991 2.50112438 46 11 26422 13.10800000 1635576492 1635576492 11.00000000
-7.48754311 -0.75659621 -0.39440376 8 12 26423 7.53600000 1635576494 1635576494 -3.00000000
-12.05608654 -1.21610963 2.79749131 46 13 26424 12.43600000 1635576497 1635576497 13.00000000
-14.73323917 -1.48355925 -0.25847015 2 14 26425 14.81000000 1635576499 1635576499 -1.00000000
-8.68419075 -0.87445199 2.33868885 13 15 26425 9.03600000 1635576501 1635576501 15.00000000
-1.94354630 -0.19296399 -0.52333212 5 0 26433 2.02200000 1635576522 1635576522 -15.00000000
-58.62580490 -5.81029987 1.02833068 14 1 26434 58.92200000 1635576524 1635576524 1.00000000
-2.21658897 -0.21929155 -0.51423812 4 2 26435 2.28600000 1635576526 1635576526 -13.00000000
-58.58025360 -5.78513670 3.08499527 43 3 26436 58.94600000 1635576529 1635576529 3.00000000
-2.59653425 -0.25642267 -0.50717032 3 4 26436 2.65800000 1635576531 1635576531 -11.00000000
-36.69528198 -3.61740303 3.22598267 72 5 26437 37.01400000 1635576533 1635576533 5.00000000
-3.11395645 -0.30642357 -0.49558440 3 6 26438 3.16800000 1635576536 1635576536 -9.00000000
-24.62565994 -2.41890645 3.03820276 39 7 26439 24.93000000 1635576538 1635576538 7.00000000
-3.85245562 -0.37773657 -0.47529045 5 8 26440 3.90000000 1635576540 1635576540 -7.00000000
-18.31116295 -1.79219854 2.91406131 41 9 26441 18.62800000 1635576543 1635576543 9.00000000
-5.11988497 -0.50110698 -0.45007226 6 10 26441 5.16400000 1635576545 1635576545 -5.00000000
-12.81792068 -1.25229096 2.50341392 50 11 26442 13.12000000 1635576547 1635576547 11.00000000
-7.49411440 -0.73084289 -0.39461312 8 12 26443 7.54000000 1635576549 1635576549 -3.00000000
-12.04862022 -1.17288578 2.79479194 48 13 26444 12.42400000 1635576552 1635576552 13.00000000
-14.73036671 -1.43134797 -0.25833052 2 14 26445 14.80200000 1635576554 1635576554 -1.00000000
-10.25828743 -0.99498928 2.76159930 42 15 26446 10.67000000 1635576556 1635576556 15.00000000
-1.93266976 -0.18507366 -0.52022630 5 0 26453 2.01000000 1635576577 1635576577 -15.00000000
-44.85469818 -4.28741360 0.78651017 22 1 26454 45.06600000 1635576579 1635576579 1.00000000
-2.21928072 -0.21173796 -0.51468801 4 2 26455 2.28800000 1635576582 1635576582 -13.00000000
-44.82937622 -4.26920223 2.36003757 92 3 26456 45.09400000 1635576584 1635576584 3.00000000
-2.58959579 -0.24661303 -0.50564384 3 4 26456 2.65000000 1635576586 1635576586 -11.00000000
-36.66801453 -3.48551989 3.22249651 10 5 26457 36.97400000 1635576589 1635576589 5.00000000
-3.12680626 -0.29667148 -0.49746159 3 6 26458 3.18000000 1635576591 1635576591 -9.00000000
-24.63000107 -2.33255768 3.03771520 39 7 26459 24.92600000 1635576593 1635576593 7.00000000
-3.87351346 -0.36615482 -0.47772783 5 8 26460 3.92000000 1635576596 1635576596 -7.00000000
-18.30913734 -1.73072314 2.91280985 41 9 26460 18.62000000 1635576598 1635576598 9.00000000
-5.12160301 -0.48323217 -0.45007226 6 10 26461 5.16400000 1635576600 1635576600 -5.00000000
-12.83003235 -1.20827675 2.50494051 46 11 26462 13.12800000 1635576602 1635576602 11.00000000
-7.48071194 -0.70318377 -0.39377573 8 12 26463 7.52400000 1635576605 1635576605 -3.00000000
-12.04876041 -1.13045704 2.79389215 48 13 26464 12.42000000 1635576607 1635576607 13.00000000
-14.77111149 -1.38327682 -0.25895882 2 14 26465 14.83800000 1635576609 1635576609 -1.00000000
-1.92560923 -0.17761649 -0.51815575 5 0 26473 2.00200000 1635576632 1635576632 -15.00000000
-44.84151077 -4.12824869 0.78602147 21 1 26474 45.03800000 1635576635 1635576635 1.00000000
-2.22582817 -0.20452487 -0.51603770 4 2 26475 2.29400000 1635576637 1635576637 -13.00000000
-44.82212830 -4.11068583 2.35888624 41 3 26476 45.07200000 1635576639 1635576639 3.00000000
-2.58653069 -0.23721355 -0.50488061 3 4 26476 2.64600000 1635576642 1635576642 -11.00000000
-36.67003632 -3.35659528 3.22162485 72 5 26477 36.96400000 1635576644 1635576644 5.00000000
-3.12388849 -0.28539562 -0.49683586 3 6 26478 3.17600000 1635576646 1635576646 -9.00000000
-24.63799286 -2.24656892 3.03771520 39 7 26479 24.92600000 1635576649 1635576649 7.00000000
-3.88465261 -0.35353109 -0.47894651 5 8 26480 3.93000000 1635576651 1635576651 -7.00000000
-18.31142426 -1.66324770 2.91218400 41 9 26481 18.61600000 1635576653 1635576653 9.00000000
-5.11929035 -0.46499103 -0.44972363 6 10 26481 5.16000000 1635576655 1635576655 -5.00000000
-12.82244015 -1.16242063 2.50265074 40 11 26482 13.11600000 1635576658 1635576658 11.00000000
-7.51892519 -0.68030649 -0.39565983 8 12 26483 7.56000000 1635576660 1635576660 -3.00000000
-10.00116253 -0.90313756 2.31834555 15 13 26484 10.30600000 1635576662 1635576662 13.00000000
-14.79178238 -1.33314359 -0.25923803 2 14 26485 14.85400000 1635576665 1635576665 -1.00000000
-1.93391466 -0.17157668 -0.52022630 4 0 26493 2.01000000 1635576688 1635576688 -15.00000000
-44.82378006 -3.96887541 0.78546298 21 1 26494 45.00600000 1635576690 1635576690 1.00000000
-2.22846961 -0.19692557 -0.51648760 4 2 26495 2.29600000 1635576692 1635576692 -13.00000000
-44.83023453 -3.95367622 2.35857224 30 3 26496 45.06600000 1635576695 1635576695 3.00000000
-2.59712124 -0.22904579 -0.50678867 4 4 26496 2.65600000 1635576697 1635576697 -11.00000000
-36.66168594 -3.22682548 3.21988177 41 5 26497 36.94400000 1635576699 1635576699 5.00000000
-3.10125208 -0.27241525 -0.49308142 3 6 26498 3.15200000 1635576702 1635576702 -9.00000000
-24.62195396 -2.15847230 3.03479028 39 7 26499 24.90200000 1635576704 1635576704 7.00000000
-3.88388538 -0.33979595 -0.47870278 5 8 26500 3.92800000 1635576706 1635576706 -7.00000000
-18.32077408 -1.60286009 2.91280985 41 9 26500 18.62000000 1635576708 1635576708 9.00000000
-5.12088203 -0.44711855 -0.44972363 3 10 26501 5.16000000 1635576711 1635576711 -5.00000000
-11.10332203 -0.96750945 2.16644526 9 11 26502 11.35400000 1635576713 1635576713 11.00000000
-7.52722359 -0.65457547 -0.39597383 8 12 26503 7.56600000 1635576715 1635576715 -3.00000000
-10.00619602 -0.86839002 2.31879544 29 13 26504 10.30800000 1635576718 1635576718 13.00000000
-14.79634666 -1.28150249 -0.25923803 2 14 26505 14.85400000 1635576720 1635576720 -1.00000000
-10.24874306 -0.88763732 2.75642276 45 15 26505 10.65000000 1635576722 1635576722 15.00000000
-1.94412625 -0.16564503 -0.52281445 5 0 26513 2.02000000 1635576743 1635576743 -15.00000000
-44.82540512 -3.81137061 0.78525358 10 1 26514 44.99400000 1635576745 1635576745 1.00000000
-2.21749282 -0.18815699 -0.51378822 4 2 26515 2.28400000 1635576748 1635576748 -13.00000000
-44.81988144 -3.79514313 2.35731626 82 3 26516 45.04200000 1635576750 1635576750 3.00000000
-2.59986138 -0.22014441 -0.50717032 3 4 26516 2.65800000 1635576752 1635576752 -11.00000000
-36.67272568 -3.09883285 3.21988177 62 5 26517 36.94400000 1635576755 1635576755 5.00000000
-3.11399436 -0.26258412 -0.49495864 3 6 26518 3.16400000 1635576757 1635576757 -9.00000000
-24.59768867 -2.06984925 3.03089046 39 7 26519 24.87000000 1635576759 1635576759 7.00000000
-3.88702607 -0.32640269 -0.47894651 3 8 26520 3.93000000 1635576761 1635576761 -7.00000000
-18.31471443 -1.53471065 2.91093254 41 9 26521 18.60800000 1635576764 1635576764 9.00000000
-5.13829517 -0.43057159 -0.45111811 6 10 26521 5.17600000 1635576766 1635576766 -5.00000000
-12.81067848 -1.07123959 2.49883461 43 11 26522 13.09600000 1635576768 1635576768 11.00000000
-7.50557852 -0.62630355 -0.39471778 8 12 26523 7.54200000 1635576771 1635576771 -3.00000000
-10.11597729 -0.84235066 2.34354019 9 13 26524 10.41800000 1635576773 1635576773 13.00000000
-14.81667233 -1.23117054 -0.25951728 2 14 26525 14.87000000 1635576775 1635576775 -1.00000000
-10.25192738 -0.85006785 2.75642276 47 15 26526 10.65000000 1635576778 1635576778 15.00000000
-1.94276714 -0.15870047 -0.52229685 5 0 26533 2.01800000 1635576798 1635576798 -15.00000000
-44.82049942 -3.65341544 0.78493941 10 1 26534 44.97600000 1635576801 1635576801 1.00000000
-2.22784781 -0.18120526 -0.51603770 4 2 26535 2.29400000 1635576803 1635576803 -13.00000000
-44.80498505 -3.63640761 2.35585070 41 3 26536 45.01400000 1635576805 1635576805 3.00000000
-2.59670019 -0.21075022 -0.50640708 3 4 26536 2.65400000 1635576808 1635576808 -11.00000000
-36.66941833 -2.96967649 3.21866155 62 5 26537 36.93000000 1635576810 1635576810 5.00000000
-3.13064384 -0.25298551 -0.49746159 3 6 26538 3.18000000 1635576812 1635576812 -9.00000000
-24.59684944 -1.98333633 3.02991557 42 7 26539 24.86200000 1635576814 1635576814 7.00000000
-3.88418436 -0.31251404 -0.47845903 3 8 26540 3.92600000 1635576817 1635576817 -7.00000000
-18.30001450 -1.47238410 2.90780377 41 9 26540 18.58800000 1635576819 1635576819 9.00000000
-5.12387896 -0.41135743 -0.44972363 3 10 26541 5.16000000 1635576821 1635576821 -5.00000000
-12.81433964 -1.02651548 2.49883461 43 11 26542 13.09600000 1635576824 1635576824 11.00000000
-7.52762794 -0.60169178 -0.39576450 8 12 26543 7.56200000 1635576826 1635576826 -3.00000000
-14.87270737 -1.18356764 -0.26042482 2 14 26545 14.92200000 1635576831 1635576831 -1.00000000
-10.25854206 -0.81637305 2.75745821 47 15 26545 10.65400000 1635576833 1635576833 15.00000000
-1.92982745 -0.15086403 -0.51867336 5 0 26553 2.00400000 1635576854 1635576854 -15.00000000
-52.96104813 -4.13092422 0.92724633 12 1 26554 53.13000000 1635576856 1635576856 1.00000000
-2.23235250 -0.17372993 -0.51693749 4 2 26555 2.29800000 1635576858 1635576858 -13.00000000
-52.88601303 -4.10649872 2.77998137 50 3 26556 53.11800000 1635576861 1635576861 3.00000000
-2.58959055 -0.20107682 -0.50488061 3 4 26556 2.64600000 1635576863 1635576863 -11.00000000
-36.64976120 -2.83934975 3.21604681 41 5 26557 36.90000000 1635576865 1635576865 5.00000000
-3.13150787 -0.24205600 -0.49746159 3 6 26558 3.18000000 1635576867 1635576867 -9.00000000
-24.59174728 -1.89654946 3.02845311 42 7 26559 24.85000000 1635576870 1635576870 7.00000000
-3.89910626 -0.30001986 -0.48016521 5 8 26560 3.94000000 1635576872 1635576872 -7.00000000
-18.28928566 -1.40728378 2.90530086 41 9 26560 18.57200000 1635576874 1635576874 9.00000000
-5.12528324 -0.39346924 -0.44972363 3 10 26561 5.16000000 1635576877 1635576877 -5.00000000
-12.81784534 -0.98177880 2.49883461 46 11 26562 13.09600000 1635576879 1635576879 11.00000000
-7.58146000 -0.57936859 -0.39848596 12 12 26563 7.61400000 1635576881 1635576881 -3.00000000
-12.05693913 -0.91926420 2.79164267 51 13 26564 12.41000000 1635576884 1635576884 13.00000000
-14.85282135 -1.12982488 -0.26000595 2 14 26565 14.89800000 1635576886 1635576886 -1.00000000
-10.24591827 -0.77938688 2.75331712 42 15 26565 10.63800000 1635576888 1635576888 15.00000000
-1.92648935 -0.14383909 -0.51763809 5 0 26573 2.00000000 1635576909 1635576909 -15.00000000
-52.91332626 -3.94142556 0.92616433 12 1 26574 53.06800000 1635576911 1635576911 1.00000000
-2.22905850 -0.16564766 -0.51603770 4 2 26575 2.29400000 1635576914 1635576914 -13.00000000
-52.89205551 -3.92127657 2.77956271 75 3 26576 53.11000000 1635576916 1635576916 3.00000000
-2.59810829 -0.19261684 -0.50640708 3 4 26576 2.65400000 1635576918 1635576918 -11.00000000
-36.65150452 -2.71081305 3.21534967 62 5 26577 36.89200000 1635576920 1635576920 5.00000000
-3.12445354 -0.23054208 -0.49621013 3 6 26578 3.17200000 1635576923 1635576923 -9.00000000
-24.56654358 -1.80836499 3.02455330 39 7 26579 24.81800000 1635576925 1635576925 7.00000000
-3.90606904 -0.28684378 -0.48089644 5 8 26580 3.94600000 1635576927 1635576927 -7.00000000
-5.12662554 -0.37557629 -0.44972363 9 10 26581 5.16000000 1635576932 1635576932 -5.00000000
-12.82119370 -0.93703020 2.49883461 46 11 26582 13.09600000 1635576934 1635576934 11.00000000
-7.58941221 -0.55333650 -0.39879999 12 12 26583 7.62000000 1635576937 1635576937 -3.00000000
-12.06007481 -0.87717205 2.79164267 59 13 26584 12.41000000 1635576939 1635576939 13.00000000
-14.90055275 -1.08115566 -0.26077387 2 14 26585 14.94200000 1635576941 1635576941 -1.00000000
-10.24664974 -0.74347740 2.75279927 47 15 26585 10.63600000 1635576943 1635576943 15.00000000
-1.93854153 -0.13793619 -0.52074391 5 0 26593 2.01200000 1635576964 1635576964 -15.00000000
-52.90282440 -3.75500059 0.92574543 12 1 26594 53.04400000 1635576967 1635576967 1.00000000
-2.23351097 -0.15814106 -0.51693749 4 2 26595 2.29800000 1635576969 1635576969 -13.00000000
-52.90343094 -3.73648429 2.77945805 50 3 26596 53.10800000 1635576971 1635576971 3.00000000
-2.60659838 -0.18409985 -0.50793356 3 4 26596 2.66200000 1635576973 1635576973 -11.00000000
-36.64881897 -2.58201885 3.21430373 62 5 26597 36.88000000 1635576976 1635576976 5.00000000
-3.12129831 -0.21935733 -0.49558440 3 6 26598 3.16800000 1635576978 1635576978 -9.00000000
-24.54894257 -1.72093487 3.02162862 39 7 26599 24.79400000 1635576980 1635576980 7.00000000
-3.90308595 -0.27293035 -0.48040897 3 8 26600 3.94200000 1635576983 1635576983 -7.00000000
-18.30874062 -1.27706075 2.90686512 53 9 26601 18.58200000 1635576985 1635576985 9.00000000
-5.13784313 -0.35837191 -0.45059520 3 10 26601 5.17000000 1635576987 1635576987 -5.00000000
-12.78717518 -0.88968110 2.49158382 15 11 26602 13.05800000 1635576990 1635576990 11.00000000
-7.58332777 -0.52628803 -0.39838129 12 12 26603 7.61200000 1635576992 1635576992 -3.00000000
-12.05917454 -0.83480000 2.79074287 56 13 26604 12.40600000 1635576994 1635576994 13.00000000
-14.95211411 -1.03244245 -0.26161158 2 14 26605 14.99000000 1635576996 1635576996 -1.00000000
-10.24930573 -0.70591652 2.75279927 47 15 26606 10.63600000 1635576999 1635576999 15.00000000
-1.94093871 -0.13129896 -0.52126157 4 0 26613 2.01400000 1635577020 1635577020 -15.00000000
-52.90563583 -3.56963921 0.92557091 12 1 26614 53.03400000 1635577022 1635577022 1.00000000
-2.23016071 -0.15008199 -0.51603770 4 2 26615 2.29400000 1635577024 1635577024 -13.00000000
-52.88426590 -3.54965401 2.77778316 75 3 26616 53.07600000 1635577026 1635577026 3.00000000
-2.59938979 -0.17447408 -0.50640708 3 4 26616 2.65400000 1635577029 1635577029 -11.00000000
-36.64965439 -2.45354247 3.21360660 62 5 26617 36.87200000 1635577031 1635577031 5.00000000
-3.12204480 -0.20846063 -0.49558440 3 6 26618 3.16800000 1635577033 1635577033 -9.00000000
-24.54687691 -1.63470495 3.02065349 42 7 26619 24.78600000 1635577036 1635577036 7.00000000
-3.89609194 -0.25877815 -0.47943398 5 8 26620 3.93400000 1635577038 1635577038 -7.00000000
-18.28943443 -1.21157670 2.90311074 45 9 26621 18.55800000 1635577040 1635577040 9.00000000
-5.13508701 -0.34017190 -0.45024657 3 10 26621 5.16600000 1635577043 1635577043 -5.00000000
-11.10155869 -0.73347253 2.16262913 28 11 26622 11.33400000 1635577045 1635577045 11.00000000
-7.57316065 -0.49902615 -0.39775327 12 12 26623 7.60000000 1635577047 1635577047 -3.00000000
-11.09946537 -0.72944295 2.56804132 20 13 26624 11.41600000 1635577049 1635577049 13.00000000
-14.95961761 -0.98050517 -0.26168138 2 14 26625 14.99400000 1635577052 1635577052 -1.00000000
-10.24966240 -0.67179841 2.75228167 45 15 26625 10.63400000 1635577054 1635577054 15.00000000
-1.94331312 -0.12464668 -0.52177918 4 0 26633 2.01600000 1635577075 1635577075 -15.00000000
-52.90180588 -3.38392115 0.92529166 12 1 26634 53.01800000 1635577077 1635577077 1.00000000
-2.23845005 -0.14279260 -0.51783735 4 2 26635 2.30200000 1635577079 1635577079 -13.00000000
-52.87839508 -3.36389041 2.77684116 37 3 26636 53.05800000 1635577082 1635577082 3.00000000
-2.60390139 -0.16564873 -0.50717032 3 4 26636 2.65800000 1635577084 1635577084 -11.00000000
-36.65600967 -2.32547021 3.21343231 62 5 26637 36.87000000 1635577086 1635577086 5.00000000
-3.14246798 -0.19880861 -0.49871308 3 6 26638 3.18800000 1635577089 1635577089 -9.00000000
-24.54450989 -1.54851043 3.01967859 39 7 26639 24.77800000 1635577091 1635577091 7.00000000
-3.90885854 -0.24592453 -0.48089644 3 8 26640 3.94600000 1635577093 1635577093 -7.00000000
-18.29552269 -1.14785099 2.90342379 45 9 26641 18.56000000 1635577096 1635577096 9.00000000
-5.13425446 -0.32212028 -0.45007226 3 10 26641 5.16400000 1635577098 1635577098 -5.00000000
-12.82638454 -0.80247283 2.49807143 46 11 26642 13.09200000 1635577100 1635577100 11.00000000
-7.60675097 -0.47457767 -0.39942801 12 12 26643 7.63200000 1635577102 1635577102 -3.00000000
-12.03164482 -0.74853432 2.78309441 43 13 26644 12.37200000 1635577105 1635577105 13.00000000
-14.95895767 -0.92803276 -0.26161158 2 14 26645 14.99000000 1635577107 1635577107 -1.00000000
-10.25194550 -0.63601631 2.75228167 47 15 26645 10.63400000 1635577109 1635577109 15.00000000
-1.94566464 -0.11797942 -0.52229685 4 0 26653 2.01800000 1635577130 1635577130 -15.00000000
-2.23893499 -0.13497809 -0.51783735 4 2 26655 2.30200000 1635577135 1635577135 -13.00000000
-58.26810074 -3.51279354 3.05924606 14 3 26655 58.45400000 1635577137 1635577137 3.00000000
-2.59662485 -0.15608720 -0.50564384 3 4 26656 2.65000000 1635577139 1635577139 -11.00000000
