# .PCD v0.7 - Point Cloud Data file format
VERSION 0.7
FIELDS x y z intensity laser_id azimuth distance_m adjustedtime timestamp vertical_angle
SIZE 4 4 4 1 1 2 8 8 4 8
TYPE F F F U U U F U U F
COUNT 1 1 1 1 1 1 1 1 1 1
WIDTH 528
HEIGHT 1
VIEWPOINT 0 0 0 1 0 0 0
POINTS 528
DATA ascii
4.31745529 -5.24868107 1.82105076 47 15 14056 7.03600000 1636342296 1636342296 15.00000000
1.34400356 -1.63854754 -0.56784898 20 0 14064 2.19400000 1636342317 1636342317 -15.00000000
4.33755016 -5.29002523 0.11940937 11 1 14065 6.84200000 1636342319 1636342319 1.00000000
1.38605952 -1.69102383 -0.50479019 1 2 14066 2.24400000 1636342322 1636342322 -13.00000000
4.33801556 -5.29436111 0.35871065 10 3 14067 6.85400000 1636342324 1636342324 3.00000000
1.80918753 -2.20803547 -0.55487257 3 4 14067 2.90800000 1636342326 1636342326 -11.00000000
4.33535433 -5.29299736 0.59858567 13 5 14068 6.86800000 1636342329 1636342329 5.00000000
2.21879005 -2.70986652 -0.55471659 1 6 14069 3.54600000 1636342331 1636342331 -9.00000000
3.02133870 -3.69135451 0.58570409 6 7 14070 4.80600000 1636342333 1636342333 7.00000000
2.85350657 -3.48754549 -0.55328679 8 8 14071 4.54000000 1636342336 1636342336 -7.00000000
4.32185602 -5.28215694 1.08096218 65 9 14071 6.91000000 1636342338 1636342338 9.00000000
3.94566870 -4.82410002 -0.54524630 11 10 14072 6.25600000 1636342340 1636342340 -5.00000000
4.30220032 -5.26187992 1.32116151 59 11 14073 6.92400000 1636342342 1636342342 11.00000000
4.33407211 -5.30275011 -0.35891998 10 12 14074 6.85800000 1636342345 1636342345 -3.00000000
4.29939508 -5.26219702 1.56880867 68 13 14075 6.97400000 1636342347 1636342347 13.00000000
4.32991552 -5.30144024 -0.11947917 6 14 14076 6.84600000 1636342349 1636342349 -1.00000000
4.28933144 -5.25174999 1.81690967 49 15 14076 7.02000000 1636342352 1636342352 15.00000000
1.33583581 -1.64023316 -0.56681371 11 0 14084 2.19000000 1636342372 1636342372 -15.00000000
4.31274557 -5.29737997 0.11923484 5 1 14085 6.83200000 1636342375 1636342375 1.00000000
1.46748400 -1.80316508 -0.53673321 2 2 14086 2.38600000 1636342377 1636342377 -13.00000000
4.30438328 -5.29087973 0.35745457 2 3 14087 6.83000000 1636342379 1636342379 3.00000000
1.79403520 -2.20519972 -0.55258286 3 4 14087 2.89600000 1636342382 1636342382 -11.00000000
4.31685209 -5.30809832 0.59858567 3 5 14088 6.86800000 1636342384 1636342384 5.00000000
2.20807123 -2.71606231 -0.55440372 1 6 14089 3.54400000 1636342386 1636342386 -9.00000000
2.99341178 -3.68339229 0.58277923 6 7 14090 4.78200000 1636342389 1636342389 7.00000000
2.83881211 -3.49440336 -0.55279934 8 8 14091 4.53600000 1636342391 1636342391 -7.00000000
4.28254223 -5.27342701 1.07595623 62 9 14092 6.87800000 1636342393 1636342393 9.00000000
3.91373348 -4.81928396 -0.54315460 11 10 14092 6.23200000 1636342395 1636342395 -5.00000000
4.27638245 -5.26772022 1.31887174 59 11 14093 6.91200000 1636342398 1636342398 11.00000000
4.30798435 -5.30854130 -0.35829195 10 12 14094 6.84600000 1636342400 1636342400 -3.00000000
4.26135731 -5.25295830 1.56161022 72 13 14095 6.94200000 1636342402 1636342402 13.00000000
3.04933119 -3.76023960 -0.08450455 6 14 14096 4.84200000 1636342405 1636342405 -1.00000000
4.25788832 -5.25242901 1.81173337 49 15 14097 7.00000000 1636342407 1636342407 15.00000000
1.31094980 -1.62062252 -0.55853152 4 0 14103 2.15800000 1636342428 1636342428 -15.00000000
3.03904843 -3.75827408 0.08436494 6 1 14104 4.83400000 1636342430 1636342430 1.00000000
1.47864723 -1.82923889 -0.54303187 2 2 14105 2.41400000 1636342432 1636342432 -13.00000000
3.03026938 -3.75009394 0.25267801 6 3 14106 4.82800000 1636342435 1636342435 3.00000000
1.78424478 -2.20808268 -0.55181962 3 4 14106 2.89200000 1636342437 1636342437 -11.00000000
3.02097631 -3.73992825 0.42061362 6 5 14107 4.82600000 1636342439 1636342439 5.00000000
2.20029330 -2.72490644 -0.55471659 1 6 14108 3.54600000 1636342442 1636342442 -9.00000000
4.27040720 -5.29048395 0.83480501 47 7 14109 6.85000000 1636342444 1636342444 7.00000000
2.82970166 -3.50688767 -0.55328679 8 8 14110 4.54000000 1636342446 1636342446 -7.00000000
4.24734735 -5.26379538 1.07126319 52 9 14110 6.84800000 1636342448 1636342448 9.00000000
3.86520767 -4.79191542 -0.53862250 11 10 14111 6.18000000 1636342451 1636342451 -5.00000000
4.25396109 -5.27575874 1.31734526 62 11 14112 6.90400000 1636342453 1636342453 11.00000000
4.27907658 -5.30880308 -0.35734990 10 12 14113 6.82800000 1636342455 1636342455 -3.00000000
4.23168755 -5.25188637 1.55711114 68 13 14114 6.92200000 1636342458 1636342458 13.00000000
3.03935361 -3.77344561 -0.08457436 8 14 14115 4.84600000 1636342460 1636342460 -1.00000000
4.22803640 -5.24922991 1.80603933 56 15 14115 6.97800000 1636342462 1636342462 15.00000000
1.29560709 -1.61313903 -0.55439037 4 0 14123 2.14200000 1636342483 1636342483 -15.00000000
3.02465916 -3.76730013 0.08433003 8 1 14124 4.83200000 1636342485 1636342485 1.00000000
1.49420869 -1.86174548 -0.55113006 3 2 14125 2.45000000 1636342488 1636342488 -13.00000000
3.02341008 -3.76843810 0.25320137 8 3 14126 4.83800000 1636342490 1636342490 3.00000000
1.76915479 -2.20510960 -0.54952991 3 4 14126 2.88000000 1636342492 1636342492 -11.00000000
2.99668407 -3.73646212 0.41904482 9 5 14127 4.80800000 1636342495 1636342495 5.00000000
2.19323945 -2.73565269 -0.55534238 1 6 14128 3.55000000 1636342497 1636342497 -9.00000000
4.24074125 -5.29141712 0.83261138 63 7 14129 6.83200000 1636342499 1636342499 7.00000000
2.82116675 -3.52139163 -0.55401802 8 8 14130 4.54600000 1636342501 1636342501 -7.00000000
4.22061729 -5.27007580 1.06938601 55 9 14131 6.83600000 1636342504 1636342504 9.00000000
3.83600283 -4.78982687 -0.53687936 11 10 14131 6.16000000 1636342506 1636342506 -5.00000000
4.21834183 -5.26911926 1.31200266 59 11 14132 6.87600000 1636342508 1636342508 11.00000000
4.25178337 -5.31279182 -0.35661721 10 12 14133 6.81400000 1636342511 1636342511 -3.00000000
4.20359039 -5.25445175 1.55351198 68 13 14134 6.90600000 1636342513 1636342513 13.00000000
3.01367402 -3.76841497 -0.08422531 6 14 14135 4.82600000 1636342515 1636342515 -1.00000000
4.18705559 -5.23753023 1.79672182 60 15 14136 6.94200000 1636342518 1636342518 15.00000000
1.28996825 -1.61765170 -0.55439037 4 0 14143 2.14200000 1636342538 1636342538 -15.00000000
2.99528623 -3.75750732 0.08387627 4 1 14144 4.80600000 1636342541 1636342541 1.00000000
1.52534878 -1.91419506 -0.56507707 6 2 14145 2.51200000 1636342543 1636342543 -13.00000000
3.00277090 -3.76959538 0.25257331 2 3 14146 4.82600000 1636342545 1636342545 3.00000000
1.77612555 -2.22969890 -0.55410933 3 4 14146 2.90400000 1636342548 1636342548 -11.00000000
4.20239115 -5.27745533 0.59021866 3 5 14147 6.77200000 1636342550 1636342550 5.00000000
2.17014408 -2.72629118 -0.55190080 1 6 14148 3.52800000 1636342552 1636342552 -9.00000000
4.20864868 -5.28910112 0.82993025 68 7 14149 6.81000000 1636342554 1636342554 7.00000000
2.80391455 -3.52500367 -0.55304307 8 8 14150 4.53800000 1636342557 1636342557 -7.00000000
4.19573927 -5.27476740 1.06750882 55 9 14150 6.82400000 1636342559 1636342559 9.00000000
3.83042002 -4.81722355 -0.53844815 11 10 14151 6.17800000 1636342561 1636342561 -5.00000000
4.18037748 -5.25922203 1.30589676 56 11 14152 6.84400000 1636342564 1636342564 11.00000000
4.21457481 -5.30414534 -0.35504714 10 12 14153 6.78400000 1636342566 1636342566 -3.00000000
4.17795086 -5.25993729 1.55081260 70 13 14154 6.89400000 1636342568 1636342568 13.00000000
4.20542717 -5.29642725 -0.11804808 8 14 14155 6.76400000 1636342571 1636342571 -1.00000000
4.15765142 -5.23625660 1.79154539 56 15 14155 6.92200000 1636342573 1636342573 15.00000000
1.28791130 -1.62668860 -0.55594331 4 0 14163 2.14800000 1636342594 1636342594 -15.00000000
4.18469238 -5.28734636 0.11769903 11 1 14164 6.74400000 1636342596 1636342596 1.00000000
1.51140296 -1.91033828 -0.56237763 10 2 14165 2.50000000 1636342598 1636342598 -13.00000000
4.18518400 -5.29176235 0.35358173 10 3 14166 6.75600000 1636342601 1636342601 3.00000000
1.76346016 -2.22972560 -0.55258286 3 4 14166 2.89600000 1636342603 1636342603 -11.00000000
4.17529392 -5.28115177 0.58899850 10 5 14167 6.75800000 1636342605 1636342605 5.00000000
2.15938950 -2.73230004 -0.55158794 1 6 14168 3.52600000 1636342607 1636342607 -9.00000000
4.17170191 -5.28039551 0.82627416 55 7 14169 6.78000000 1636342610 1636342610 7.00000000
2.79159284 -3.53476977 -0.55304307 8 8 14170 4.53800000 1636342612 1636342612 -7.00000000
4.16505861 -5.27387905 1.06438005 55 9 14170 6.80400000 1636342614 1636342614 9.00000000
3.85679126 -4.88529730 -0.54454911 11 10 14171 6.24800000 1636342617 1636342617 -5.00000000
4.14983130 -5.25837040 1.30208063 59 11 14172 6.82400000 1636342619 1636342619 11.00000000
4.17995310 -5.29843998 -0.35368639 10 12 14173 6.75800000 1636342621 1636342621 -3.00000000
4.14508438 -5.25612736 1.54541373 62 13 14174 6.87000000 1636342624 1636342624 13.00000000
4.17577171 -5.29694128 -0.11773393 8 14 14175 6.74600000 1636342626 1636342626 -1.00000000
4.13217211 -5.24163532 1.78843963 54 15 14175 6.91000000 1636342628 1636342628 15.00000000
1.28461301 -1.63421190 -0.55697858 4 0 14183 2.15200000 1636342649 1636342649 -15.00000000
4.15385532 -5.28619814 0.11734998 11 1 14184 6.72400000 1636342651 1636342651 1.00000000
1.50111413 -1.91100502 -0.56102794 13 2 14185 2.49400000 1636342654 1636342654 -13.00000000
4.14941835 -5.28434753 0.35211632 10 3 14186 6.72800000 1636342656 1636342656 3.00000000
1.75081635 -2.22969127 -0.55105639 3 4 14186 2.88800000 1636342658 1636342658 -11.00000000
4.15191317 -5.28942537 0.58830124 10 5 14187 6.75000000 1636342660 1636342660 5.00000000
2.15593600 -2.74759150 -0.55315226 1 6 14188 3.53600000 1636342663 1636342663 -9.00000000
4.14589357 -5.28555393 0.82481170 57 7 14189 6.76800000 1636342665 1636342665 7.00000000
2.77433777 -3.53824401 -0.55206811 6 8 14190 4.53000000 1636342667 1636342667 -7.00000000
4.13107777 -5.27045250 1.06062567 55 9 14191 6.78000000 1636342670 1636342670 9.00000000
3.85200596 -4.91441154 -0.54629219 11 10 14191 6.26800000 1636342672 1636342672 -5.00000000
4.12418556 -5.26355219 1.29979086 59 11 14192 6.81200000 1636342674 1636342674 11.00000000
4.14665365 -5.29412985 -0.35243034 10 12 14193 6.73400000 1636342677 1636342677 -3.00000000
4.11229515 -5.25215197 1.54001486 62 13 14194 6.84600000 1636342679 1636342679 13.00000000
4.13630390 -5.28471518 -0.11714055 8 14 14195 6.71200000 1636342681 1636342681 -1.00000000
4.10670567 -5.24689960 1.78533375 54 15 14195 6.89800000 1636342683 1636342683 15.00000000
1.28008926 -1.64020896 -0.55749625 4 0 14203 2.15400000 1636342704 1636342704 -15.00000000
4.13414764 -5.29908895 0.11731508 11 1 14204 6.72200000 1636342707 1636342707 1.00000000
1.49683118 -1.91930652 -0.56192774 20 2 14205 2.49800000 1636342709 1636342709 -13.00000000
4.11743927 -5.28147268 0.35096493 10 3 14206 6.70600000 1636342711 1636342711 3.00000000
1.74302256 -2.23578906 -0.55105639 3 4 14206 2.88800000 1636342713 1636342713 -11.00000000
4.11627817 -5.28188467 0.58586091 10 5 14207 6.72200000 1636342716 1636342716 5.00000000
2.14997387 -2.75977516 -0.55409086 3 6 14208 3.54200000 1636342718 1636342718 -9.00000000
4.11888027 -5.28903008 0.82310557 60 7 14209 6.75400000 1636342720 1636342720 7.00000000
2.76197004 -3.54790664 -0.55206811 8 8 14210 4.53000000 1636342723 1636342723 -7.00000000
4.09688377 -5.26457453 1.05655837 60 9 14211 6.75400000 1636342725 1636342725 9.00000000
3.82014441 -4.90895891 -0.54420048 15 10 14211 6.24400000 1636342727 1636342727 -5.00000000
4.10096550 -5.27171755 1.29826438 59 11 14212 6.80400000 1636342730 1636342730 11.00000000
4.11588764 -5.29280567 -0.35138360 10 12 14213 6.71400000 1636342732 1636342732 -3.00000000
4.07958460 -5.24801159 1.53461611 44 13 14214 6.82200000 1636342734 1636342734 13.00000000
4.10801554 -5.28648901 -0.11686131 8 14 14215 6.69600000 1636342736 1636342736 -1.00000000
4.07085609 -5.24055719 1.77808678 36 15 14216 6.87000000 1636342739 1636342739 15.00000000
1.26607335 -1.63397777 -0.55387276 4 0 14223 2.14000000 1636342760 1636342760 -15.00000000
4.09235907 -5.28345013 0.11665189 11 1 14224 6.68400000 1636342762 1636342762 1.00000000
1.48535025 -1.91835642 -0.56012815 32 2 14225 2.49000000 1636342764 1636342764 -13.00000000
4.09653330 -5.29265404 0.35075557 10 3 14226 6.70200000 1636342766 1636342766 3.00000000
1.73280430 -2.23875475 -0.55029315 3 4 14226 2.88400000 1636342769 1636342769 -11.00000000
4.08440447 -5.27888727 0.58394349 10 5 14227 6.70000000 1636342771 1636342771 5.00000000
2.13186765 -2.75632548 -0.55190080 1 6 14228 3.52800000 1636342773 1636342773 -9.00000000
4.08582258 -5.28453016 0.82018065 60 7 14229 6.73000000 1636342776 1636342776 7.00000000
2.74228501 -3.54810238 -0.55060571 6 8 14230 4.51800000 1636342778 1636342778 -7.00000000
4.06519699 -5.26164818 1.05311680 45 9 14231 6.73200000 1636342780 1636342780 9.00000000
3.80054951 -4.91911077 -0.54385185 15 10 14231 6.24000000 1636342783 1636342783 -5.00000000
4.05253792 -5.24715567 1.28872395 28 11 14232 6.75400000 1636342785 1636342785 11.00000000
4.08762312 -5.29449320 -0.35054624 10 12 14233 6.69800000 1636342787 1636342787 -3.00000000
3.97432470 -5.14960146 1.50177324 59 13 14234 6.67600000 1636342789 1636342789 13.00000000
4.07732248 -5.28496408 -0.11651227 8 14 14235 6.67600000 1636342792 1636342792 -1.00000000
3.96967196 -5.14542913 1.74133456 6 15 14235 6.72800000 1636342794 1636342794 15.00000000
1.26271772 -1.64144969 -0.55490804 4 0 14243 2.14400000 1636342815 1636342815 -15.00000000
4.06292057 -5.28343630 0.11633774 11 1 14244 6.66600000 1636342817 1636342817 1.00000000
1.47270656 -1.91580451 -0.55787861 42 2 14245 2.48000000 1636342819 1636342819 -13.00000000
4.06829786 -5.29425192 0.34991822 10 3 14246 6.68600000 1636342822 1636342822 3.00000000
1.72976398 -2.25101662 -0.55181962 3 4 14246 2.89200000 1636342824 1636342824 -11.00000000
4.05867052 -5.28363180 0.58289760 10 5 14247 6.68800000 1636342826 1636342826 5.00000000
2.11621785 -2.75591636 -0.55033642 1 6 14248 3.51800000 1636342829 1636342829 -9.00000000
4.04801178 -5.27356529 0.81628084 63 7 14249 6.69800000 1636342831 1636342831 7.00000000
2.74438453 -3.57655168 -0.55353057 6 8 14250 4.54200000 1636342833 1636342833 -7.00000000
3.78335547 -4.93234682 -0.54385185 15 10 14251 6.24000000 1636342838 1636342838 -5.00000000
3.97207761 -5.18025541 1.26887977 12 11 14252 6.65000000 1636342840 1636342840 11.00000000
4.05696678 -5.29287767 -0.34949952 10 12 14253 6.67800000 1636342842 1636342842 -3.00000000
3.94802833 -5.15261507 1.49862397 22 13 14254 6.66200000 1636342845 1636342845 13.00000000
4.05155373 -5.28963900 -0.11630283 9 14 14255 6.66400000 1636342847 1636342847 -1.00000000
3.94581342 -5.15158653 1.73874629 9 15 14255 6.71800000 1636342849 1636342849 15.00000000
1.25229013 -1.63970613 -0.55283749 3 0 14263 2.13600000 1636342870 1636342870 -15.00000000
4.03353214 -5.28328133 0.11602360 11 1 14264 6.64800000 1636342872 1636342872 1.00000000
1.45536971 -1.90699124 -0.55382949 37 2 14265 2.46200000 1636342875 1636342875 -13.00000000
4.03617859 -5.28866148 0.34866214 10 3 14265 6.66200000 1636342877 1636342877 3.00000000
1.72427750 -2.26016259 -0.55258286 3 4 14266 2.89600000 1636342879 1636342879 -11.00000000
4.02691221 -5.28034019 0.58098018 9 5 14267 6.66600000 1636342882 1636342882 5.00000000
2.10418987 -2.76014471 -0.54971069 1 6 14268 3.51400000 1636342884 1636342884 -9.00000000
4.01514006 -5.26871681 0.81335598 63 7 14269 6.67400000 1636342886 1636342886 7.00000000
2.71263623 -3.56084418 -0.54963076 6 8 14270 4.51000000 1636342888 1636342888 -7.00000000
3.95147967 -5.18705845 1.03278029 10 9 14270 6.60200000 1636342891 1636342891 9.00000000
3.76852942 -4.94869375 -0.54420048 15 10 14271 6.24400000 1636342893 1636342893 -5.00000000
3.93494415 -5.16909456 1.26277399 12 11 14272 6.61800000 1636342895 1636342895 11.00000000
4.02637148 -5.29111290 -0.34845281 10 12 14273 6.65800000 1636342898 1636342898 -3.00000000
3.92175961 -5.15550804 1.49547458 21 13 14274 6.64800000 1636342900 1636342900 13.00000000
4.02822304 -5.29738235 -0.11616322 9 14 14275 6.65600000 1636342902 1636342902 -1.00000000
3.92196035 -5.15763950 1.73615813 9 15 14275 6.70800000 1636342905 1636342905 15.00000000
1.25006044 -1.64868557 -0.55439037 2 0 14283 2.14200000 1636342925 1636342925 -15.00000000
4.00298643 -5.28139210 0.11567455 11 1 14284 6.62800000 1636342928 1636342928 1.00000000
1.44752741 -1.91050661 -0.55337960 24 2 14285 2.46000000 1636342930 1636342930 -13.00000000
3.99867964 -5.27953720 0.34709206 10 3 14286 6.63200000 1636342932 1636342932 3.00000000
1.71400690 -2.26303768 -0.55181962 3 4 14286 2.89200000 1636342935 1636342935 -11.00000000
4.00725317 -5.29277611 0.58080590 9 5 14287 6.66400000 1636342937 1636342937 5.00000000
2.09454226 -2.76747298 -0.54971069 1 6 14288 3.51400000 1636342939 1636342939 -9.00000000
3.98714280 -5.27003574 0.81140608 60 7 14289 6.65800000 1636342941 1636342941 7.00000000
2.70976949 -3.58295751 -0.55158067 6 8 14290 4.52600000 1636342944 1636342944 -7.00000000
3.91099858 -5.17314339 1.02714872 10 9 14291 6.56600000 1636342946 1636342946 9.00000000
3.75003076 -4.96022892 -0.54402614 15 10 14291 6.24200000 1636342948 1636342948 -5.00000000
3.90740705 -5.17026854 1.25972104 12 11 14292 6.60200000 1636342951 1636342951 11.00000000
3.99824619 -5.29238653 -0.34761542 10 12 14293 6.64200000 1636342953 1636342953 -3.00000000
3.88847232 -5.14894962 1.48962593 25 13 14294 6.62200000 1636342955 1636342955 13.00000000
3.99163461 -5.28747177 -0.11563964 9 14 14295 6.62600000 1636342958 1636342958 -1.00000000
3.89604807 -5.16272736 1.73305237 9 15 14296 6.69600000 1636342960 1636342960 15.00000000
1.25097859 -1.66251814 -0.55749625 4 0 14304 2.15400000 1636342981 1636342981 -15.00000000
3.97879410 -5.28963614 0.11553493 11 1 14305 6.62000000 1636342983 1636342983 1.00000000
1.44168651 -1.91735673 -0.55382949 9 2 14306 2.46200000 1636342985 1636342985 -13.00000000
3.97302437 -5.28388500 0.34646404 10 3 14306 6.62000000 1636342988 1636342988 3.00000000
1.70334172 -2.26616597 -0.55105639 3 4 14307 2.88800000 1636342990 1636342990 -11.00000000
3.96867824 -5.28194237 0.57801688 9 5 14308 6.63200000 1636342992 1636342992 5.00000000
2.09387565 -2.78776693 -0.55221367 1 6 14309 3.53000000 1636342994 1636342994 -9.00000000
3.96541667 -5.28143883 0.81091863 63 7 14310 6.65400000 1636342997 1636342997 7.00000000
2.68946934 -3.58333921 -0.55011821 6 8 14311 4.51400000 1636342999 1636342999 -7.00000000
3.87897110 -5.17006207 1.02370715 10 9 14312 6.54400000 1636343001 1636343001 9.00000000
3.72345543 -4.96278381 -0.54280597 15 10 14312 6.22800000 1636343004 1636343004 -5.00000000
3.88254118 -5.17670202 1.25781286 12 11 14313 6.59200000 1636343006 1636343006 11.00000000
3.97402930 -5.30061340 -0.34719673 10 12 14314 6.63400000 1636343008 1636343008 -3.00000000
3.86489940 -5.15692949 1.48782623 30 13 14315 6.61400000 1636343011 1636343011 13.00000000
3.96383548 -5.29086351 -0.11539531 9 14 14316 6.61200000 1636343013 1636343013 -1.00000000
3.86294508 -5.15619659 1.72632301 9 15 14316 6.67000000 1636343015 1636343015 15.00000000
1.23476231 -1.65294540 -0.55283749 4 0 14324 2.13600000 1636343036 1636343036 -15.00000000
3.94953728 -5.28907204 0.11522079 11 1 14325 6.60200000 1636343038 1636343038 1.00000000
1.44431055 -1.93487060 -0.55742872 5 2 14326 2.47800000 1636343040 1636343040 -13.00000000
3.94380355 -5.28331661 0.34552199 7 3 14326 6.60200000 1636343043 1636343043 3.00000000
1.69072449 -2.26580405 -0.54952991 3 4 14327 2.88000000 1636343045 1636343045 -11.00000000
3.92758274 -5.26541948 0.57470495 9 5 14328 6.59400000 1636343047 1636343047 5.00000000
2.08058929 -2.79030824 -0.55127507 1 6 14329 3.52400000 1636343050 1636343050 -9.00000000
3.93627977 -5.28092432 0.80872494 55 7 14330 6.63600000 1636343052 1636343052 7.00000000
2.67694473 -3.59270549 -0.55011821 6 8 14331 4.51400000 1636343054 1636343054 -7.00000000
3.85618067 -5.17723370 1.02245569 12 9 14332 6.53600000 1636343057 1636343057 9.00000000
3.69658828 -4.96296835 -0.54141146 15 10 14332 6.21200000 1636343059 1636343059 -5.00000000
3.85624003 -5.17920017 1.25514162 15 11 14333 6.57800000 1636343061 1636343061 11.00000000
3.95550251 -5.31445312 -0.34719673 14 12 14334 6.63400000 1636343064 1636343064 -3.00000000
3.83873224 -5.15944481 1.48467696 30 13 14335 6.60000000 1636343066 1636343066 13.00000000
3.92386174 -5.27578545 -0.11476702 9 14 14336 6.57600000 1636343068 1636343068 -1.00000000
3.81840634 -5.13399649 1.71441734 9 15 14336 6.62400000 1636343070 1636343070 15.00000000
1.23128641 -1.66034901 -0.55387276 4 0 14344 2.14000000 1636343091 1636343091 -15.00000000
3.91556978 -5.28194284 0.11476702 11 1 14345 6.57600000 1636343093 1636343093 1.00000000
1.42478502 -1.92267776 -0.55247980 8 2 14346 2.45600000 1636343096 1636343096 -13.00000000
3.92560148 -5.29934072 0.34562665 10 3 14347 6.60400000 1636343098 1636343098 3.00000000
1.68981671 -2.28115726 -0.55181962 3 4 14347 2.89200000 1636343100 1636343100 -11.00000000
3.90206504 -5.26949024 0.57365912 9 5 14348 6.58200000 1636343103 1636343103 5.00000000
2.06378508 -2.78802752 -0.54939783 1 6 14349 3.51200000 1636343105 1636343105 -9.00000000
3.90129089 -5.27229214 0.80531263 57 7 14350 6.60800000 1636343107 1636343107 7.00000000
2.66438770 -3.60202789 -0.55011821 6 8 14351 4.51400000 1636343110 1636343110 -7.00000000
3.82841873 -5.17569971 1.01963985 15 9 14351 6.51800000 1636343112 1636343112 9.00000000
3.68161082 -4.97904539 -0.54176009 15 10 14352 6.21600000 1636343114 1636343114 -5.00000000
3.76228523 -5.09000826 1.23033643 12 11 14353 6.44800000 1636343117 1636343117 11.00000000
3.92624545 -5.31377077 -0.34625468 14 12 14354 6.61600000 1636343119 1636343119 -3.00000000
3.66555548 -4.96276522 1.42439008 10 13 14355 6.33200000 1636343121 1636343121 13.00000000
3.90542197 -5.28945017 -0.11476702 9 14 14356 6.57600000 1636343123 1636343123 -1.00000000
3.64010143 -4.93190479 1.64246571 9 15 14357 6.34600000 1636343126 1636343126 15.00000000
1.23120975 -1.67241549 -0.55646098 4 0 14364 2.15000000 1636343146 1636343146 -15.00000000
3.88999701 -5.28591490 0.11455759 11 1 14365 6.56400000 1636343149 1636343149 1.00000000
1.41460061 -1.92293024 -0.55113006 16 2 14366 2.45000000 1636343151 1636343151 -13.00000000
3.88670325 -5.28337049 0.34374255 10 3 14366 6.56800000 1636343153 1636343153 3.00000000
1.68416989 -2.29020524 -0.55258286 3 4 14367 2.89600000 1636343156 1636343156 -11.00000000
3.84706473 -5.23331451 0.56825542 9 5 14368 6.52000000 1636343158 1636343158 5.00000000
2.05988908 -2.80317354 -0.55096221 1 6 14369 3.52200000 1636343160 1636343160 -9.00000000
3.84290671 -5.23148346 0.79702550 18 7 14370 6.54000000 1636343163 1636343163 7.00000000
2.65414786 -3.61450648 -0.55060571 6 8 14371 4.51800000 1636343165 1636343165 -7.00000000
3.65045357 -4.97312784 0.97708964 10 9 14372 6.24600000 1636343167 1636343167 9.00000000
3.65949249 -4.98544168 -0.54106283 15 10 14372 6.20800000 1636343170 1636343170 -5.00000000
3.63531923 -4.95432234 1.19446433 12 11 14373 6.26000000 1636343172 1636343172 11.00000000
3.87814116 -5.28718185 -0.34363788 14 12 14374 6.56600000 1636343174 1636343174 -3.00000000
3.62285900 -4.94095612 1.41449225 8 13 14375 6.28800000 1636343176 1636343176 13.00000000
3.87274861 -5.28369617 -0.11434817 9 14 14376 6.55200000 1636343179 1636343179 -1.00000000
3.62286353 -4.94458103 1.64246571 9 15 14377 6.34600000 1636343181 1636343181 15.00000000
1.22793734 -1.67960823 -0.55749625 4 0 14383 2.15400000 1636343202 1636343202 -15.00000000
3.71079993 -5.07759905 0.10977564 8 1 14384 6.29000000 1636343204 1636343204 1.00000000
1.41281438 -1.93390489 -0.55292970 4 2 14385 2.45800000 1636343206 1636343206 -13.00000000
3.63234615 -4.97206974 0.32270351 7 3 14385 6.16600000 1636343209 1636343209 3.00000000
1.66498756 -2.27992272 -0.54876667 3 4 14386 2.87600000 1636343211 1636343211 -11.00000000
3.62175822 -4.96121168 0.53740233 9 5 14387 6.16600000 1636343213 1636343213 5.00000000
2.04010201 -2.79562783 -0.54814637 1 6 14388 3.50400000 1636343216 1636343216 -9.00000000
3.62665606 -4.97156382 0.75558990 7 7 14389 6.20000000 1636343218 1636343218 7.00000000
2.63629913 -3.61526847 -0.54938698 4 8 14390 4.50800000 1636343220 1636343220 -7.00000000
3.61735368 -4.96063042 0.97239661 10 9 14390 6.21600000 1636343223 1636343223 9.00000000
3.64176631 -4.99593973 -0.54088855 15 10 14391 6.20600000 1636343225 1636343225 -5.00000000
3.62465096 -4.97428370 1.19637239 12 11 14392 6.27000000 1636343227 1636343227 11.00000000
3.74181771 -5.13696051 -0.33306602 10 12 14393 6.36400000 1636343229 1636343229 -3.00000000
3.59842467 -4.94191551 1.41134286 9 13 14394 6.27400000 1636343232 1636343232 13.00000000
3.62455273 -4.97962475 -0.10750683 9 14 14395 6.16000000 1636343234 1636343234 -1.00000000
3.59849072 -4.94563293 1.63884223 9 15 14396 6.33200000 1636343236 1636343236 15.00000000
1.21298945 -1.67137635 -0.55335510 4 0 14403 2.13800000 1636343257 1636343257 -15.00000000
3.61202908 -4.97883749 0.10736720 11 1 14404 6.15200000 1636343259 1636343259 1.00000000
1.41291964 -1.94829011 -0.55562907 4 2 14405 2.47000000 1636343262 1636343262 -13.00000000
3.60558796 -4.97178411 0.32186612 10 3 14405 6.15000000 1636343264 1636343264 3.00000000
1.65471435 -2.28254175 -0.54800344 3 4 14406 2.87200000 1636343266 1636343266 -11.00000000
3.59857273 -4.96575737 0.53653073 9 5 14407 6.15600000 1636343269 1636343269 5.00000000
2.03960204 -2.81553006 -0.55064934 1 6 14408 3.52000000 1636343271 1636343271 -9.00000000
3.60113001 -4.97293854 0.75388378 10 7 14409 6.18600000 1636343273 1636343273 7.00000000
2.62482738 -3.62605667 -0.54963076 6 8 14410 4.51000000 1636343276 1636343276 -7.00000000
3.59074950 -4.96042585 0.96989369 10 9 14410 6.20000000 1636343278 1636343278 9.00000000
3.60561705 -4.98279524 -0.53809953 15 10 14411 6.17400000 1636343280 1636343280 -5.00000000
3.59345770 -4.96781731 1.19179296 12 11 14412 6.24600000 1636343282 1636343282 11.00000000
3.60332370 -4.98328781 -0.32228482 9 12 14413 6.15800000 1636343285 1636343285 -3.00000000
3.57430267 -4.94497013 1.40864348 9 13 14414 6.26200000 1636343287 1636343287 13.00000000
3.58840990 -4.96631241 -0.10694835 9 14 14415 6.12800000 1636343289 1636343289 -1.00000000
3.56763148 -4.93937111 1.63263059 9 15 14416 6.30800000 1636343292 1636343292 15.00000000
1.20601857 -1.67403281 -0.55283749 4 0 14423 2.13600000 1636343312 1636343312 -15.00000000
3.58411026 -4.97681093 0.10705306 11 1 14424 6.13400000 1636343315 1636343315 1.00000000
1.41749573 -1.96902573 -0.56012815 5 2 14425 2.49000000 1636343317 1636343317 -13.00000000
3.58821106 -4.98433971 0.32186612 7 3 14425 6.15000000 1636343319 1636343319 3.00000000
1.65591073 -2.30105209 -0.55105639 3 4 14426 2.88800000 1636343322 1636343322 -11.00000000
3.56958222 -4.96211433 0.53478765 9 5 14427 6.13600000 1636343324 1636343324 5.00000000
2.02630162 -2.81782103 -0.54971069 1 6 14428 3.51400000 1636343326 1636343326 -9.00000000
3.57216263 -4.96935987 0.75144637 10 7 14429 6.16600000 1636343328 1636343328 7.00000000
2.62142110 -3.64809346 -0.55158067 6 8 14430 4.52600000 1636343331 1636343331 -7.00000000
3.56188536 -4.95688820 0.96676499 10 9 14430 6.18000000 1636343333 1636343333 9.00000000
3.57774067 -4.98078728 -0.53653073 15 10 14431 6.15600000 1636343335 1636343335 -5.00000000
3.56235385 -4.96119356 1.18721354 12 11 14432 6.22200000 1636343338 1636343338 11.00000000
3.58474207 -4.99421263 -0.32218015 13 12 14433 6.15600000 1636343340 1636343340 -3.00000000
3.54793119 -4.94474983 1.40504432 9 13 14434 6.24600000 1636343342 1636343342 13.00000000
3.55939746 -4.96255875 -0.10659930 9 14 14435 6.10800000 1636343345 1636343345 -1.00000000
3.53997278 -4.93547678 1.62745416 9 15 14435 6.28800000 1636343347 1636343347 15.00000000
1.20353901 -1.68294656 -0.55439037 4 0 14443 2.14200000 1636343368 1636343368 -15.00000000
3.54927206 -4.96489000 0.10652949 11 1 14444 6.10400000 1636343370 1636343370 1.00000000
1.40381575 -1.96444869 -0.55742872 4 2 14445 2.47800000 1636343372 1636343372 -13.00000000
3.56382322 -4.98708487 0.32123810 7 3 14445 6.13800000 1636343375 1636343375 3.00000000
1.64558613 -2.30362320 -0.55029315 3 4 14446 2.88400000 1636343377 1636343377 -11.00000000
3.54529238 -4.96481609 0.53374177 9 5 14447 6.12400000 1636343379 1636343379 5.00000000
2.01071501 -2.81683803 -0.54814637 1 6 14448 3.50400000 1636343381 1636343381 -9.00000000
3.55018258 -4.97533512 0.75047141 10 7 14449 6.15800000 1636343384 1636343384 7.00000000
2.60751820 -3.65560555 -0.55133688 6 8 14450 4.52400000 1636343386 1636343386 -7.00000000
3.53767824 -4.95964193 0.96488780 10 9 14450 6.16800000 1636343388 1636343388 9.00000000
3.55801940 -4.99000120 -0.53618211 11 10 14451 6.15200000 1636343391 1636343391 -5.00000000
3.52792192 -4.94961786 1.18148935 12 11 14452 6.19200000 1636343393 1636343393 11.00000000
3.54410791 -4.97416306 -0.32008672 13 12 14453 6.11600000 1636343395 1636343395 -3.00000000
3.52725768 -4.95234251 1.40369463 9 13 14454 6.24000000 1636343398 1636343398 13.00000000
3.53741407 -4.96843719 -0.10645968 9 14 14455 6.10000000 1636343400 1636343400 -1.00000000
3.51401830 -4.93740082 1.62383068 9 15 14456 6.27400000 1636343402 1636343402 15.00000000
1.19989359 -1.69028807 -0.55542564 4 0 14463 2.14600000 1636343423 1636343423 -15.00000000
3.52381897 -4.96583366 0.10628515 11 1 14464 6.09000000 1636343425 1636343425 1.00000000
1.38680267 -1.95503187 -0.55337960 4 2 14465 2.46000000 1636343428 1636343428 -13.00000000
3.52703643 -4.97404528 0.31956336 7 3 14466 6.10600000 1636343430 1636343430 3.00000000
1.63526380 -2.30615044 -0.54952991 2 4 14466 2.88000000 1636343432 1636343432 -11.00000000
3.52217960 -4.96903372 0.53287023 13 5 14467 6.11400000 1636343434 1636343434 5.00000000
1.99173379 -2.81094527 -0.54564339 1 6 14468 3.48800000 1636343437 1636343437 -9.00000000
3.50984597 -4.95529938 0.74559665 10 7 14469 6.11800000 1636343439 1636343439 7.00000000
2.58556509 -3.65172434 -0.54938698 6 8 14470 4.50800000 1636343441 1636343441 -7.00000000
3.51463675 -4.96389961 0.96332341 10 9 14470 6.15800000 1636343444 1636343444 9.00000000
3.53137112 -4.98938036 -0.53478765 11 10 14471 6.13600000 1636343446 1636343446 -5.00000000
3.50041771 -4.94747829 1.17805469 12 11 14472 6.17400000 1636343448 1636343448 11.00000000
3.51634383 -4.97182846 -0.31914467 9 12 14473 6.09800000 1636343451 1636343451 -3.00000000
3.49419951 -4.94234753 1.39739597 9 13 14474 6.21200000 1636343453 1636343453 13.00000000
3.51427889 -4.97258949 -0.10628515 9 14 14475 6.09000000 1636343455 1636343455 -1.00000000
3.49539614 -4.94587088 1.62279546 9 15 14475 6.27000000 1636343458 1636343458 15.00000000
1.18953514 -1.68814933 -0.55335510 4 0 14483 2.13800000 1636343478 1636343478 -15.00000000
3.49840283 -4.96665955 0.10604082 11 1 14484 6.07600000 1636343481 1636343481 1.00000000
1.37884796 -1.95826733 -0.55292970 3 2 14485 2.45800000 1636343483 1636343483 -13.00000000
3.49585748 -4.96672773 0.31830728 10 3 14486 6.08200000 1636343485 1636343485 3.00000000
1.62268376 -2.30542254 -0.54800344 3 4 14486 2.87200000 1636343487 1636343487 -11.00000000
3.50022697 -4.97478008 0.53217298 13 5 14487 6.10600000 1636343490 1636343490 5.00000000
1.98759162 -2.82595944 -0.54720777 1 6 14488 3.49800000 1636343492 1636343492 -9.00000000
3.49024391 -4.96427298 0.74510914 10 7 14489 6.11400000 1636343494 1636343494 7.00000000
2.56595373 -3.65098286 -0.54792458 6 8 14490 4.49600000 1636343497 1636343497 -7.00000000
3.48279285 -4.95735168 0.95956904 10 9 14491 6.13400000 1636343499 1636343499 9.00000000
3.50706124 -4.99189520 -0.53374177 11 10 14491 6.12400000 1636343501 1636343501 -5.00000000
3.47861314 -4.95324039 1.17652822 12 11 14492 6.16600000 1636343504 1636343504 11.00000000
3.49667239 -4.98080301 -0.31893530 9 12 14493 6.09400000 1636343506 1636343506 -3.00000000
3.46125436 -4.93218231 1.39109731 9 13 14494 6.18400000 1636343508 1636343508 13.00000000
3.48886108 -4.97336721 -0.10604082 9 14 14495 6.07600000 1636343511 1636343511 -1.00000000
3.47059011 -4.94915915 1.61968958 9 15 14496 6.25800000 1636343513 1636343513 15.00000000
1.18584955 -1.69545746 -0.55439037 4 0 14503 2.14200000 1636343534 1636343534 -15.00000000
3.47989869 -4.97720242 0.10600591 11 1 14504 6.07400000 1636343536 1636343536 1.00000000
1.37646937 -1.96945763 -0.55472928 3 2 14505 2.46600000 1636343538 1636343538 -13.00000000
3.47621131 -4.97562599 0.31809795 10 3 14506 6.07800000 1636343540 1636343540 3.00000000
1.61237776 -2.30785394 -0.54724020 3 4 14506 2.86800000 1636343543 1636343543 -11.00000000
3.46915102 -4.96736670 0.53008121 13 5 14507 6.08200000 1636343545 1636343545 5.00000000
1.98789203 -2.84745765 -0.55002356 1 6 14508 3.51600000 1636343547 1636343547 -9.00000000
3.47062206 -4.97317028 0.74462169 10 7 14509 6.11000000 1636343550 1636343550 7.00000000
2.55432963 -3.66154552 -0.54816830 6 8 14510 4.49800000 1636343552 1636343552 -7.00000000
3.44938135 -4.94457245 0.95487595 10 9 14510 6.10400000 1636343554 1636343554 9.00000000
3.47138047 -4.97795868 -0.53095281 11 10 14511 6.09200000 1636343557 1636343557 -5.00000000
3.45456553 -4.95568943 1.17423856 12 11 14512 6.15400000 1636343559 1636343559 11.00000000
3.46784616 -4.97659159 -0.31788859 9 12 14513 6.07400000 1636343561 1636343561 -3.00000000
3.43956113 -4.93783808 1.38929772 9 13 14514 6.17600000 1636343564 1636343564 13.00000000
3.45662451 -4.96418142 -0.10558706 9 14 14515 6.05000000 1636343566 1636343566 -1.00000000
3.43539238 -4.93368912 1.61088979 9 15 14515 6.22400000 1636343568 1636343568 15.00000000
1.17331386 -1.69006503 -0.55128455 4 0 14523 2.13000000 1636343589 1636343589 -15.00000000
3.44882250 -4.96960497 0.10558706 11 1 14524 6.05000000 1636343591 1636343591 1.00000000
1.36958623 -1.97425044 -0.55472928 3 2 14525 2.46600000 1636343593 1636343593 -13.00000000
3.44857860 -4.97295856 0.31715590 10 3 14526 6.06000000 1636343596 1636343596 3.00000000
1.60431194 -2.31346822 -0.54724020 3 4 14526 2.86800000 1636343598 1636343598 -11.00000000
3.43476415 -4.95488405 0.52746654 9 5 14527 6.05200000 1636343600 1636343600 5.00000000
1.98019063 -2.85762668 -0.55064934 1 6 14528 3.52000000 1636343603 1636343603 -9.00000000
3.44193769 -4.96893597 0.74218428 10 7 14529 6.09000000 1636343605 1636343605 7.00000000
2.54944324 -3.68186378 -0.54987448 6 8 14530 4.51200000 1636343607 1636343607 -7.00000000
3.43011117 -4.95555735 0.95456308 10 9 14531 6.10200000 1636343610 1636343610 9.00000000
3.44491148 -4.97693968 -0.52955830 11 10 14531 6.07600000 1636343612 1636343612 -5.00000000
3.42607522 -4.95157290 1.17042243 12 11 14532 6.13400000 1636343614 1636343614 11.00000000
3.44590878 -4.98209620 -0.31746992 9 12 14533 6.06600000 1636343616 1636343616 -3.00000000
3.41565442 -4.94019699 1.38659835 9 13 14534 6.16400000 1636343619 1636343619 13.00000000
3.43700147 -4.97292709 -0.10551725 9 14 14535 6.04600000 1636343621 1636343621 -1.00000000
3.40520740 -4.92876387 1.60519576 9 15 14536 6.20200000 1636343623 1636343623 15.00000000
1.17288816 -1.70210409 -0.55387276 4 0 14543 2.14000000 1636343644 1636343644 -15.00000000
3.42237949 -4.96843863 0.10530782 11 1 14544 6.03400000 1636343646 1636343646 1.00000000
1.36268651 -1.97901917 -0.55472928 3 2 14545 2.46600000 1636343649 1636343649 -13.00000000
3.42213941 -4.97180462 0.31631851 10 3 14546 6.04400000 1636343651 1636343651 3.00000000
1.60290551 -2.32875729 -0.54952991 3 4 14546 2.88000000 1636343653 1636343653 -11.00000000
3.40841269 -4.95371246 0.52607208 9 5 14547 6.03600000 1636343656 1636343656 5.00000000
1.96012866 -2.84987330 -0.54783350 1 6 14548 3.50200000 1636343658 1636343658 -9.00000000
3.41332531 -4.96456289 0.73974693 10 7 14549 6.07000000 1636343660 1636343660 7.00000000
2.53657579 -3.69074059 -0.54987448 6 8 14550 4.51200000 1636343663 1636343663 -7.00000000
3.40582705 -4.95550919 0.95237303 10 9 14550 6.08800000 1636343665 1636343665 9.00000000
3.42526126 -4.98565006 -0.52920967 11 10 14551 6.07200000 1636343667 1636343667 -5.00000000
3.39321017 -4.94084501 1.16507971 12 11 14552 6.10600000 1636343669 1636343669 11.00000000
3.41945386 -4.98092127 -0.31663254 9 12 14553 6.05000000 1636343672 1636343672 -3.00000000
3.39397860 -4.94566250 1.38479865 9 13 14554 6.15600000 1636343674 1636343674 13.00000000
3.41396570 -4.97664928 -0.10534272 9 14 14555 6.03600000 1636343676 1636343676 -1.00000000
3.38010168 -4.92728472 1.60105467 9 15 14555 6.18600000 1636343679 1636343679 15.00000000
1.16912067 -1.70937705 -0.55490804 4 0 14563 2.14400000 1636343699 1636343699 -15.00000000
3.39598680 -4.96714878 0.10502858 11 1 14564 6.01800000 1636343702 1636343702 1.00000000
1.34917271 -1.97411048 -0.55202991 3 2 14565 2.45400000 1636343704 1636343704 -13.00000000
3.39237046 -4.96557903 0.31516713 10 3 14566 6.02200000 1636343706 1636343706 3.00000000
1.59698176 -2.33758044 -0.55029315 3 4 14566 2.88400000 1636343709 1636343709 -11.00000000
3.38660574 -4.95899868 0.52537483 9 5 14567 6.02800000 1636343711 1636343711 5.00000000
1.94571388 -2.85017228 -0.54658204 3 6 14568 3.49400000 1636343713 1636343713 -9.00000000
3.38702345 -4.96332979 0.73779702 10 7 14569 6.05400000 1636343716 1636343716 7.00000000
2.51472783 -3.68645334 -0.54792458 6 8 14570 4.49600000 1636343718 1636343718 -7.00000000
3.38652849 -4.96632671 0.95206016 32 9 14571 6.08600000 1636343720 1636343720 9.00000000
3.40334725 -4.99099159 -0.52851242 11 10 14571 6.06400000 1636343722 1636343722 -5.00000000
3.37373114 -4.94941521 1.16431653 12 11 14572 6.10200000 1636343725 1636343725 11.00000000
3.39080000 -4.97632217 -0.31558582 9 12 14573 6.03000000 1636343727 1636343727 -3.00000000
3.36352968 -4.93815231 1.37939990 9 13 14574 6.13200000 1636343729 1636343729 13.00000000
3.38531876 -4.97200632 -0.10499368 9 14 14575 6.01600000 1636343732 1636343732 -1.00000000
3.36201954 -4.93964005 1.60105467 9 15 14576 6.18600000 1636343734 1636343734 15.00000000
1.16423178 -1.71504593 -0.55542564 4 0 14583 2.14600000 1636343755 1636343755 -15.00000000
3.37413597 -4.97235394 0.10488896 11 1 14584 6.01000000 1636343757 1636343757 1.00000000
1.34008563 -1.97558248 -0.55113006 3 2 14585 2.45000000 1636343759 1636343759 -13.00000000
3.36941242 -4.96912527 0.31464377 10 3 14586 6.01200000 1636343762 1636343762 3.00000000
1.58220148 -2.33339119 -0.54800344 3 4 14586 2.87200000 1636343764 1636343764 -11.00000000
3.36033177 -4.95759583 0.52398032 9 5 14587 6.01200000 1636343766 1636343766 5.00000000
1.95237374 -2.88147688 -0.55127507 3 6 14588 3.52400000 1636343769 1636343769 -9.00000000
3.35631919 -4.95539951 0.73487216 10 7 14589 6.03000000 1636343771 1636343771 7.00000000
2.50852203 -3.70507145 -0.54938698 6 8 14590 4.50800000 1636343773 1636343773 -7.00000000
3.36228871 -4.96607971 0.94987005 65 9 14590 6.07200000 1636343775 1636343775 9.00000000
3.37920451 -4.99294090 -0.52746654 11 10 14591 6.05200000 1636343778 1636343778 -5.00000000
3.34653282 -4.94652700 1.16088188 12 11 14592 6.08400000 1636343780 1636343780 11.00000000
3.36893320 -4.98151016 -0.31516713 9 12 14593 6.02200000 1636343782 1636343782 -3.00000000
3.33644915 -4.93533325 1.37535071 9 13 14594 6.11400000 1636343785 1636343785 13.00000000
3.36010504 -4.97219515 -0.10474934 9 14 14595 6.00200000 1636343787 1636343787 -1.00000000
3.33372235 -4.93315506 1.59536064 9 15 14595 6.16400000 1636343789 1636343789 15.00000000
1.15392029 -1.71269083 -0.55335510 4 0 14603 2.13800000 1636343810 1636343810 -15.00000000
3.35005641 -4.97415018 0.10467953 11 1 14604 5.99800000 1636343812 1636343812 1.00000000
1.33753467 -1.98671436 -0.55292970 3 2 14605 2.45800000 1636343815 1636343815 -13.00000000
3.34089518 -4.96428633 0.31359705 9 3 14606 5.99200000 1636343817 1636343817 3.00000000
1.56308544 -2.32261229 -0.54418725 3 4 14606 2.85200000 1636343819 1636343819 -11.00000000
3.33410931 -4.95607042 0.52258581 9 5 14607 5.99600000 1636343822 1636343822 5.00000000
1.93568957 -2.87843919 -0.54939783 3 6 14608 3.51200000 1636343824 1636343824 -9.00000000
3.33789372 -4.96543741 0.73462838 10 7 14609 6.02800000 1636343826 1636343826 7.00000000
2.49446654 -3.71215773 -0.54914325 6 8 14610 4.50600000 1636343828 1636343828 -7.00000000
3.32864380 -4.95541286 0.94548988 67 9 14611 6.04400000 1636343831 1636343831 9.00000000
3.34398007 -4.97824383 -0.52467757 11 10 14611 6.02000000 1636343833 1636343833 -5.00000000
3.33034039 -4.95980835 1.16126359 12 11 14612 6.08600000 1636343835 1636343835 11.00000000
3.34484553 -4.98328972 -0.31453910 9 12 14613 6.01000000 1636343838 1636343838 -3.00000000
3.31485820 -4.94047642 1.37355113 9 13 14614 6.10600000 1636343840 1636343840 13.00000000
3.33158970 -4.96728659 -0.10440029 9 14 14615 5.98200000 1636343842 1636343842 -1.00000000
3.30701256 -4.93250370 1.59121954 9 15 14616 6.14800000 1636343845 1636343845 15.00000000
1.15223026 -1.72313201 -0.55542564 4 0 14623 2.14600000 1636343865 1636343865 -15.00000000
3.32267165 -4.97085094 0.10436539 11 1 14624 5.98000000 1636343868 1636343868 1.00000000
1.33708763 -2.00109291 -0.55562907 3 2 14625 2.47000000 1636343870 1636343870 -13.00000000
3.32132745 -4.97259665 0.31338769 9 3 14626 5.98800000 1636343872 1636343872 3.00000000
1.40121639 -2.09786105 -0.49037912 3 4 14626 2.57000000 1636343875 1636343875 -11.00000000
3.30793834 -4.95442247 0.52119136 9 5 14627 5.98000000 1636343877 1636343877 5.00000000
1.91905057 -2.87532020 -0.54752064 3 6 14628 3.50000000 1636343879 1636343879 -9.00000000
3.31833744 -4.97375631 0.73414093 10 7 14629 6.02400000 1636343881 1636343881 7.00000000
2.48039198 -3.71919084 -0.54889953 6 8 14630 4.50400000 1636343884 1636343884 -7.00000000
3.30123258 -4.94998932 0.94236124 57 9 14630 6.02400000 1636343886 1636343886 9.00000000
3.31995130 -4.97993946 -0.52363169 15 10 14631 6.00800000 1636343888 1636343888 -5.00000000
3.30320835 -4.95669937 1.15782893 12 11 14632 6.06800000 1636343891 1636343891 11.00000000
3.31967902 -4.98329926 -0.31380638 12 12 14633 5.99600000 1636343893 1636343893 -3.00000000
3.29111195 -4.94228554 1.37085176 9 13 14634 6.09400000 1636343895 1636343895 13.00000000
3.30979800 -4.97222710 -0.10426068 9 14 14635 5.97400000 1636343898 1636343898 -1.00000000
3.27993274 -4.92736149 1.58604312 9 15 14635 6.12800000 1636343900 1636343900 15.00000000
1.17291403 -1.76738453 -0.56836665 6 0 14643 2.19600000 1636343921 1636343921 -15.00000000
3.29645634 -4.96908808 0.10408615 11 1 14644 5.96400000 1636343923 1636343923 1.00000000
1.32147837 -1.99275541 -0.55202991 3 2 14645 2.45400000 1636343925 1636343925 -13.00000000
3.29843211 -4.97583628 0.31286433 9 3 14646 5.97800000 1636343928 1636343928 3.00000000
1.33097029 -2.00782967 -0.46824527 11 4 14646 2.45400000 1636343930 1636343930 -11.00000000
3.28402090 -4.95597410 0.52014548 9 5 14647 5.96800000 1636343932 1636343932 5.00000000
1.90791130 -2.88035440 -0.54720777 1 6 14648 3.49800000 1636343934 1636343934 -9.00000000
3.28780437 -4.96544743 0.73121607 11 7 14649 6.00000000 1636343937 1636343937 7.00000000
2.46520329 -3.72451568 -0.54841202 6 8 14650 4.50000000 1636343939 1636343939 -7.00000000
3.28175330 -4.95818806 0.94173551 55 9 14650 6.02000000 1636343941 1636343941 9.00000000
3.29815030 -4.98485136 -0.52293444 15 10 14651 6.00000000 1636343944 1636343944 -5.00000000
3.27072382 -4.94527435 1.15248632 12 11 14652 6.04000000 1636343946 1636343946 11.00000000
3.29345202 -4.98152828 -0.31296903 12 12 14653 5.98000000 1636343948 1636343948 -3.00000000
3.27061677 -4.94886589 1.36950207 9 13 14654 6.08800000 1636343951 1636343951 13.00000000
3.28470564 -4.97207069 -0.10401634 9 14 14655 5.96000000 1636343953 1636343953 -1.00000000
3.25632405 -4.92910957 1.58293724 9 15 14655 6.11600000 1636343955 1636343955 15.00000000
1.15398633 -1.75210774 -0.56215495 4 0 14663 2.17200000 1636343976 1636343976 -15.00000000
3.27029371 -4.96720314 0.10380691 11 1 14664 5.94800000 1636343978 1636343978 1.00000000
1.31022894 -1.99084473 -0.55023026 3 2 14665 2.44600000 1636343981 1636343981 -13.00000000
3.27226138 -4.97397089 0.31202698 9 3 14666 5.96200000 1636343983 1636343983 3.00000000
1.31424236 -1.99770212 -0.46481070 15 4 14666 2.43600000 1636343985 1636343985 -11.00000000
3.26232219 -4.96074867 0.51944822 9 5 14667 5.96000000 1636343987 1636343987 5.00000000
1.89241982 -2.87874365 -0.54564339 1 6 14668 3.48800000 1636343990 1636343990 -9.00000000
3.26609111 -4.97025776 0.73024112 10 7 14669 5.99200000 1636343992 1636343992 7.00000000
2.45000744 -3.72977996 -0.54792458 6 8 14670 4.49600000 1636343994 1636343994 -7.00000000
3.25922155 -4.96357822 0.94048399 25 9 14671 6.01200000 1636343997 1636343997 9.00000000
3.27416825 -4.98634100 -0.52188861 11 10 14671 5.98800000 1636343999 1636343999 -5.00000000
3.24697804 -4.94681358 1.15019667 12 11 14672 6.02800000 1636344001 1636344001 11.00000000
3.26070380 -4.96961594 -0.31150362 12 12 14673 5.95200000 1636344004 1636344004 -3.00000000
3.24156547 -4.94232750 1.36455309 9 13 14674 6.06600000 1636344006 1636344006 13.00000000
3.26075149 -4.97347260 -0.10380691 9 14 14675 5.94800000 1636344008 1636344008 -1.00000000
3.23380232 -4.93236828 1.58034909 9 15 14675 6.10600000 1636344010 1636344010 15.00000000
1.13623667 -1.73833752 -0.55646098 4 0 14683 2.15000000 1636344031 1636344031 -15.00000000
3.24746609 -4.97021818 0.10363239 11 1 14684 5.93800000 1636344034 1636344034 1.00000000
1.30114031 -1.99214303 -0.54933047 3 2 14685 2.44200000 1636344036 1636344036 -13.00000000
3.24396038 -4.96863937 0.31098026 9 3 14686 5.94200000 1636344038 1636344038 3.00000000
1.29545498 -1.98419464 -0.46061292 11 4 14686 2.41400000 1636344040 1636344040 -11.00000000
3.24063039 -4.96543217 0.51875097 12 5 14687 5.95200000 1636344043 1636344043 5.00000000
1.88451827 -2.88864064 -0.54626918 1 6 14688 3.49200000 1636344045 1636344045 -9.00000000
3.23787808 -4.96500063 0.72780371 10 7 14689 5.97200000 1636344047 1636344047 7.00000000
2.43263698 -3.73165751 -0.54694963 6 8 14690 4.48800000 1636344050 1636344050 -7.00000000
3.23648310 -4.96665001 0.93891966 7 9 14691 6.00200000 1636344052 1636344052 9.00000000
3.25674272 -4.99773979 -0.52188861 15 10 14691 5.98800000 1636344054 1636344054 -5.00000000
3.22326112 -4.94824743 1.14790690 12 11 14692 6.01600000 1636344057 1636344057 11.00000000
3.23679781 -4.97092533 -0.31087559 12 12 14693 5.94000000 1636344059 1636344059 -3.00000000
3.21047401 -4.93238068 1.35870433 9 13 14694 6.04000000 1636344061 1636344061 13.00000000
3.22810292 -4.96135855 -0.10331824 9 14 14695 5.92000000 1636344063 1636344063 -1.00000000
3.21148944 -4.93770981 1.57827854 9 15 14696 6.09800000 1636344066 1636344066 15.00000000
1.12595665 -1.73581016 -0.55439037 4 0 14703 2.14200000 1636344087 1636344087 -15.00000000
3.22683334 -4.97649002 0.10352767 11 1 14704 5.93200000 1636344089 1636344089 1.00000000
1.30265808 -2.00975490 -0.55292970 3 2 14705 2.45800000 1636344091 1636344091 -13.00000000
3.22442484 -4.97658014 0.31077090 9 3 14706 5.93800000 1636344093 1636344093 3.00000000
1.32801998 -2.04966736 -0.47473279 3 4 14706 2.48800000 1636344096 1636344096 -11.00000000
3.21677947 -4.96668005 0.51770508 12 5 14707 5.94000000 1636344098 1636344098 5.00000000
1.88086486 -2.90515041 -0.54814637 1 6 14708 3.50400000 1636344100 1636344100 -9.00000000
3.21189904 -4.96294022 0.72585380 10 7 14709 5.95600000 1636344103 1636344103 7.00000000
2.42930055 -3.75512671 -0.54914325 4 8 14710 4.50600000 1636344105 1636344105 -7.00000000
3.19981837 -4.94805956 0.93328804 9 9 14711 5.96600000 1636344107 1636344107 9.00000000
3.22413063 -4.98565483 -0.51944822 15 10 14711 5.96000000 1636344110 1636344110 -5.00000000
3.20383739 -4.95617104 1.14714372 12 11 14712 6.01200000 1636344112 1636344112 11.00000000
3.21942616 -4.98219347 -0.31087559 12 12 14713 5.94000000 1636344114 1636344114 -3.00000000
3.18900776 -4.93700933 1.35690475 9 13 14714 6.03200000 1636344116 1636344116 13.00000000
3.20100236 -4.95747709 -0.10300411 9 14 14715 5.90200000 1636344119 1636344119 -1.00000000
3.18881011 -4.93859482 1.57517266 9 15 14715 6.08600000 1636344121 1636344121 15.00000000
