# .PCD v0.7 - Point Cloud Data file format
VERSION 0.7
FIELDS x y z intensity laser_id azimuth distance_m adjustedtime timestamp vertical_angle
SIZE 4 4 4 1 1 2 8 8 4 8
TYPE F F F U U U F U U F
COUNT 1 1 1 1 1 1 1 1 1 1
WIDTH 514
HEIGHT 1
VIEWPOINT 0 0 0 1 0 0 0
POINTS 514
DATA ascii
-5.33899498 -12.79462910 0.24199507 31 1 20265 13.86600000 1636259542 1636259542 1.00000000
-0.42568961 -1.01964271 -0.25509450 100 2 20266 1.13400000 1636259544 1636259544 -13.00000000
-5.34395409 -12.80022717 0.72694641 20 3 20266 13.89000000 1636259546 1636259546 3.00000000
-0.42147258 -1.00904632 -0.21256122 97 4 20267 1.11400000 1636259549 1636259549 -11.00000000
-5.34306383 -12.78553867 1.21233642 17 5 20268 13.91000000 1636259551 1636259551 5.00000000
-0.43357331 -1.03699863 -0.17802241 100 6 20269 1.13800000 1636259553 1636259553 -9.00000000
-5.35475302 -12.80095005 1.70373344 7 7 20270 13.98000000 1636259556 1636259556 7.00000000
-0.44066778 -1.05293393 -0.14014974 100 8 20271 1.15000000 1636259558 1636259558 -7.00000000
-7.19381666 -17.18052483 2.95004106 59 9 20272 18.85800000 1636259560 1636259560 9.00000000
-0.46555758 -1.11186087 -0.10545845 65 10 20272 1.21000000 1636259563 1636259563 -5.00000000
-5.01952362 -11.98193073 2.52516627 62 11 20273 13.23400000 1636259565 1636259565 11.00000000
-0.46631247 -1.11257350 -0.06322183 100 12 20274 1.20800000 1636259567 1636259567 -3.00000000
-4.37012148 -10.42155743 2.60898232 70 13 20275 11.59800000 1636259569 1636259569 13.00000000
-5.37051153 -12.80095100 -0.24230921 18 14 20276 13.88400000 1636259572 1636259572 -1.00000000
-4.01584339 -9.56733322 2.78023410 71 15 20277 10.74200000 1636259574 1636259574 15.00000000
-0.41842508 -0.99345189 -0.28884205 2 0 20284 1.11600000 1636259595 1636259595 -15.00000000
-5.38750648 -12.78512859 0.24216959 17 1 20285 13.87600000 1636259597 1636259597 1.00000000
-0.42697507 -1.01276350 -0.25374478 100 2 20286 1.12800000 1636259599 1636259599 -13.00000000
-0.42804426 -1.01480472 -0.21408769 92 4 20287 1.12200000 1636259604 1636259604 -11.00000000
-10.86440659 -25.74471855 2.44471860 8 5 20288 28.05000000 1636259606 1636259606 5.00000000
-0.43411705 -1.02819955 -0.17677094 100 6 20289 1.13000000 1636259609 1636259609 -9.00000000
-0.44434050 -1.05138934 -0.14014974 100 8 20291 1.15000000 1636259613 1636259613 -7.00000000
-7.24382877 -17.14019775 2.94722533 63 9 20291 18.84000000 1636259616 1636259616 9.00000000
-0.47176364 -1.11573434 -0.10598138 72 10 20292 1.21600000 1636259618 1636259618 -5.00000000
-5.05978775 -11.96072102 2.52440310 59 11 20293 13.23000000 1636259620 1636259620 11.00000000
-0.47019324 -1.11093891 -0.06322183 100 12 20294 1.20800000 1636259622 1636259622 -3.00000000
-4.36999941 -10.32010365 2.58738708 70 13 20295 11.50200000 1636259625 1636259625 13.00000000
-5.41906261 -12.79133320 -0.24248374 6 14 20296 13.89400000 1636259627 1636259627 -1.00000000
-4.05147648 -9.55859280 2.78178716 66 15 20297 10.74800000 1636259629 1636259629 15.00000000
-0.42037818 -0.98842978 -0.28780678 7 0 20304 1.11200000 1636259650 1636259650 -15.00000000
-11.40052414 -26.79292107 0.50824898 100 1 20305 29.12200000 1636259652 1636259652 1.00000000
-0.42745444 -1.00409484 -0.25194517 97 2 20306 1.12000000 1636259655 1636259655 -13.00000000
-20.46304321 -48.06789398 2.73790312 12 3 20306 52.31400000 1636259657 1636259657 3.00000000
-0.42927605 -1.00788558 -0.21294284 87 4 20307 1.11600000 1636259659 1636259659 -11.00000000
-13.25126934 -31.09724236 2.95736861 30 5 20308 33.93200000 1636259662 1636259662 5.00000000
-0.43925288 -1.03031230 -0.17739668 100 6 20309 1.13400000 1636259664 1636259664 -9.00000000
-0.44489127 -1.04252875 -0.13917479 100 8 20311 1.14200000 1636259669 1636259669 -7.00000000
-7.30981779 -17.12934303 2.94972825 38 9 20311 18.85600000 1636259671 1636259671 9.00000000
-0.47722006 -1.11774552 -0.10633001 76 10 20312 1.22000000 1636259673 1636259673 -5.00000000
-5.10150766 -11.94298553 2.52440310 56 11 20313 13.23000000 1636259675 1636259675 11.00000000
-0.47092873 -1.10194457 -0.06280315 100 12 20314 1.20000000 1636259678 1636259678 -3.00000000
-4.37075472 -10.22236252 2.56669164 70 13 20315 11.41000000 1636259680 1636259680 13.00000000
-6.00399208 -14.03541565 -0.26646334 9 14 20316 15.26800000 1636259682 1636259682 -1.00000000
-4.04681253 -9.45559120 2.75590515 64 15 20317 10.64800000 1636259685 1636259685 15.00000000
-0.43526003 -1.01358294 -0.29557136 23 0 20324 1.14200000 1636259705 1636259705 -15.00000000
-11.51213551 -26.79521942 0.50905180 100 1 20325 29.16800000 1636259708 1636259708 1.00000000
-0.43326548 -1.00796759 -0.25329489 87 2 20326 1.12600000 1636259710 1636259710 -13.00000000
-20.45087624 -47.57780838 2.71403813 12 3 20326 51.85800000 1636259712 1636259712 3.00000000
-0.43511844 -1.01179171 -0.21408769 83 4 20327 1.12200000 1636259715 1636259715 -11.00000000
-13.33375263 -30.99040031 2.95161629 100 5 20328 33.86600000 1636259717 1636259717 5.00000000
-0.44440874 -1.03240156 -0.17802241 100 6 20329 1.13800000 1636259719 1636259719 -9.00000000
-8.93001556 -20.73526382 2.77204013 34 7 20330 22.74600000 1636259721 1636259721 7.00000000
-0.44931316 -1.04279244 -0.13941853 100 8 20331 1.14400000 1636259724 1636259724 -7.00000000
-6.23692894 -14.47503281 2.49638128 15 9 20331 15.95800000 1636259726 1636259726 9.00000000
-0.47954139 -1.11241364 -0.10598138 62 10 20332 1.21600000 1636259728 1636259728 -5.00000000
-5.14783049 -11.93592167 2.52669263 56 11 20333 13.24200000 1636259731 1636259731 11.00000000
-0.47635496 -1.10396171 -0.06301249 100 12 20334 1.20400000 1636259733 1636259733 -3.00000000
-4.36161280 -10.10327339 2.54059720 68 13 20335 11.29400000 1636259735 1636259735 13.00000000
-6.04105473 -13.98683548 -0.26593977 9 14 20336 15.23800000 1636259738 1636259738 -1.00000000
-4.12410545 -9.54852962 2.78696346 66 15 20336 10.76800000 1636259740 1636259740 15.00000000
-0.43187922 -0.99610549 -0.29091260 61 0 20344 1.12400000 1636259761 1636259761 -15.00000000
-11.61912632 -26.78605843 0.50964516 100 1 20345 29.20200000 1636259763 1636259763 1.00000000
-0.44143617 -1.01717508 -0.25599429 75 2 20346 1.13800000 1636259765 1636259765 -13.00000000
-12.81505013 -29.52895737 1.68699718 23 3 20346 32.23400000 1636259768 1636259768 3.00000000
-0.43708381 -1.00666499 -0.21332446 83 4 20347 1.11800000 1636259770 1636259770 -11.00000000
-12.78456116 -29.43056679 2.80728650 78 5 20348 32.21000000 1636259772 1636259772 5.00000000
-0.45273396 -1.04171395 -0.17989963 100 6 20349 1.15000000 1636259774 1636259774 -9.00000000
-9.01737976 -20.73855400 2.77667117 63 7 20350 22.78400000 1636259777 1636259777 7.00000000
-0.45532608 -1.04667866 -0.14014974 94 8 20351 1.15000000 1636259779 1636259779 -7.00000000
-6.28190231 -14.44049358 2.49419117 31 9 20351 15.94400000 1636259781 1636259781 9.00000000
-0.48262641 -1.10890603 -0.10580707 60 10 20352 1.21400000 1636259784 1636259784 -5.00000000
-5.19651747 -11.93408012 2.53012729 59 11 20353 13.26000000 1636259786 1636259786 11.00000000
-0.48499170 -1.11327851 -0.06364052 90 12 20354 1.21600000 1636259788 1636259788 -3.00000000
-4.36882305 -10.02367496 2.52440071 68 13 20355 11.22200000 1636259791 1636259791 13.00000000
-6.08264732 -13.94916630 -0.26562563 9 14 20356 15.22000000 1636259793 1636259793 -1.00000000
-4.15752983 -9.52980804 2.78592825 66 15 20357 10.76400000 1636259795 1636259795 15.00000000
-0.43380436 -0.99105245 -0.28987733 99 0 20364 1.12000000 1636259816 1636259816 -15.00000000
-11.72779751 -26.78014183 0.51030838 100 1 20365 29.24000000 1636259818 1636259818 1.00000000
-0.44498408 -1.01562798 -0.25599429 95 2 20366 1.13800000 1636259821 1636259821 -13.00000000
-12.82857704 -29.26593971 1.67464590 22 3 20367 31.99800000 1636259823 1636259823 3.00000000
-0.44217142 -1.00872934 -0.21408769 76 4 20367 1.12200000 1636259825 1636259825 -11.00000000
-12.77838802 -29.13760948 2.78358006 78 5 20368 31.93800000 1636259827 1636259827 5.00000000
-0.45636746 -1.04012728 -0.17989963 100 6 20369 1.15000000 1636259830 1636259830 -9.00000000
-9.09929085 -20.72876358 2.77959609 55 7 20370 22.80800000 1636259832 1636259832 7.00000000
-0.46616086 -1.06144071 -0.14234339 76 8 20371 1.16800000 1636259834 1636259834 -7.00000000
-6.34418535 -14.44560719 2.49888420 36 9 20371 15.97400000 1636259837 1636259837 9.00000000
-0.48168543 -1.09627020 -0.10476121 60 10 20372 1.20200000 1636259839 1636259839 -5.00000000
-5.24367380 -11.92844868 2.53279853 62 11 20373 13.27400000 1636259841 1636259841 11.00000000
-0.49369922 -1.12254822 -0.06426855 57 12 20374 1.22800000 1636259844 1636259844 -3.00000000
-4.38024044 -9.95485306 2.51090360 72 13 20375 11.16200000 1636259846 1636259846 13.00000000
-6.12324524 -13.90954685 -0.26527658 9 14 20376 15.20000000 1636259848 1636259848 -1.00000000
-4.18677425 -9.51066494 2.78437519 76 15 20376 10.75800000 1636259851 1636259851 15.00000000
-0.43491867 -0.98423105 -0.28832442 87 0 20384 1.11400000 1636259871 1636259871 -15.00000000
-11.83495140 -26.77013206 0.51090175 100 1 20385 29.27400000 1636259874 1636259874 1.00000000
-0.44931483 -1.01585066 -0.25644422 97 2 20386 1.14000000 1636259876 1636259876 -13.00000000
-12.81831360 -28.96710777 1.66009653 27 3 20387 31.72000000 1636259878 1636259878 3.00000000
-0.44886768 -1.01436102 -0.21561417 83 4 20387 1.13000000 1636259880 1636259880 -11.00000000
-12.78000546 -28.86692047 2.76196551 57 5 20388 31.69000000 1636259883 1636259883 5.00000000
-0.45519546 -1.02769113 -0.17802241 100 6 20389 1.13800000 1636259885 1636259885 -9.00000000
-9.18285179 -20.72228241 2.78300834 57 7 20390 22.83600000 1636259887 1636259887 7.00000000
-0.47951788 -1.08158386 -0.14526826 70 8 20391 1.19200000 1636259890 1636259890 -7.00000000
-6.40750074 -14.44573212 2.50295138 36 9 20392 16.00000000 1636259892 1636259892 9.00000000
-0.48874053 -1.10186720 -0.10545845 56 10 20392 1.21000000 1636259894 1636259894 -5.00000000
-5.28528023 -11.91007233 2.53279853 50 11 20393 13.27400000 1636259897 1636259897 11.00000000
-0.49842510 -1.12264359 -0.06437322 47 12 20394 1.23000000 1636259899 1636259899 -3.00000000
-4.39281273 -9.88963604 2.49830651 66 13 20395 11.10600000 1636259901 1636259901 13.00000000
-6.16445255 -13.87164211 -0.26496243 9 14 20396 15.18200000 1636259904 1636259904 -1.00000000
-4.22474337 -9.50231647 2.78644586 71 15 20397 10.76600000 1636259906 1636259906 15.00000000
-0.44149956 -0.98976403 -0.29039496 87 0 20404 1.12200000 1636259927 1636259927 -15.00000000
-11.94706821 -26.77065849 0.51170456 100 1 20405 29.32000000 1636259929 1636259929 1.00000000
-0.44888565 -1.00537884 -0.25419468 92 2 20406 1.13000000 1636259931 1636259931 -13.00000000
-12.87780571 -28.82918358 1.65475821 16 3 20407 31.61800000 1636259933 1636259933 3.00000000
-0.45240572 -1.01278806 -0.21561417 83 4 20407 1.13000000 1636259936 1636259936 -11.00000000
-12.87662697 -28.81303978 2.76109385 28 5 20408 31.68000000 1636259938 1636259938 5.00000000
-0.46442404 -1.03871930 -0.18021250 100 6 20409 1.15200000 1636259940 1636259940 -9.00000000
-9.26647758 -20.71547127 2.78642058 60 7 20410 22.86400000 1636259943 1636259943 7.00000000
-0.48653394 -1.08715117 -0.14624321 90 8 20411 1.20000000 1636259945 1636259945 -7.00000000
-6.46666622 -14.44964695 2.50733161 40 9 20411 16.02800000 1636259947 1636259947 9.00000000
-0.49991149 -1.11652029 -0.10702725 67 10 20412 1.22800000 1636259950 1636259950 -5.00000000
-5.68477917 -12.69065189 2.70300031 65 11 20413 14.16600000 1636259952 1636259952 11.00000000
-0.50479126 -1.12636471 -0.06468724 31 12 20414 1.23600000 1636259954 1636259954 -3.00000000
-4.42411804 -9.86712933 2.49650669 66 13 20415 11.09800000 1636259957 1636259957 13.00000000
-6.19482994 -13.80989933 -0.26419452 9 14 20416 15.13800000 1636259959 1636259959 -1.00000000
-4.26097536 -9.49882984 2.78955173 73 15 20416 10.77800000 1636259961 1636259961 15.00000000
-0.45050380 -1.00054765 -0.29401845 90 0 20424 1.13600000 1636259982 1636259982 -15.00000000
-12.05851173 -26.76890373 0.51247245 100 1 20425 29.36400000 1636259984 1636259984 1.00000000
-0.45719650 -1.01446581 -0.25689411 85 2 20426 1.14200000 1636259986 1636259986 -13.00000000
-12.99313736 -28.81682968 1.65664232 16 3 20427 31.65400000 1636259989 1636259989 3.00000000
-0.45755219 -1.01478219 -0.21637741 85 4 20427 1.13400000 1636259991 1636259991 -11.00000000
-12.99924469 -28.81695175 2.76580024 28 5 20428 31.73400000 1636259993 1636259993 5.00000000
-0.47292250 -1.04789484 -0.18208972 100 6 20429 1.16400000 1636259996 1636259996 -9.00000000
-9.35343647 -20.71556473 2.79080796 57 7 20430 22.90000000 1636259998 1636259998 7.00000000
-0.48460537 -1.07278264 -0.14453705 91 8 20431 1.18600000 1636260000 1636260000 -7.00000000
-6.52771854 -14.44384956 2.51046038 40 9 20432 16.04800000 1636260003 1636260003 9.00000000
-0.50134420 -1.10932171 -0.10650432 59 10 20432 1.22200000 1636260005 1636260005 -5.00000000
-5.74117565 -12.69756413 2.70872450 81 11 20433 14.19600000 1636260007 1636260007 11.00000000
-0.51283580 -1.13369441 -0.06521060 7 12 20434 1.24600000 1636260009 1636260009 -3.00000000
-4.45531988 -9.84452438 2.49470711 60 13 20435 11.09000000 1636260012 1636260012 13.00000000
-6.22897625 -13.75722313 -0.26360115 9 14 20436 15.10400000 1636260014 1636260014 -1.00000000
-4.29895020 -9.49018764 2.79162216 71 15 20437 10.78600000 1636260016 1636260016 15.00000000
-0.44839862 -0.98665774 -0.29039496 85 0 20444 1.12200000 1636260037 1636260037 -15.00000000
-12.17008781 -26.76669502 0.51324040 100 1 20445 29.40800000 1636260039 1636260039 1.00000000
-0.46557620 -1.02350676 -0.25959352 76 2 20446 1.15400000 1636260042 1636260042 -13.00000000
-13.11763859 -28.82401657 1.65967786 11 3 20447 31.71200000 1636260044 1636260044 3.00000000
-0.45946524 -1.00960493 -0.21561417 83 4 20447 1.13000000 1636260046 1636260046 -11.00000000
-13.11131382 -28.79678726 2.76824069 28 5 20448 31.76200000 1636260049 1636260049 5.00000000
-0.47903404 -1.05163062 -0.18302833 100 6 20449 1.17000000 1636260051 1636260051 -9.00000000
-9.44544697 -20.72614098 2.79665780 52 7 20450 22.94800000 1636260053 1636260053 7.00000000
-0.49987641 -1.09637153 -0.14794938 100 8 20451 1.21400000 1636260056 1636260056 -7.00000000
-6.58049726 -14.43290710 2.51233745 40 9 20451 16.06000000 1636260058 1636260058 9.00000000
-0.50355971 -1.10393953 -0.10615569 55 10 20452 1.21800000 1636260060 1636260060 -5.00000000
-5.79687452 -12.70245075 2.71406722 78 11 20453 14.22400000 1636260062 1636260062 11.00000000
-2.39316082 -5.24161148 -0.30197847 15 12 20454 5.77000000 1636260065 1636260065 -3.00000000
-4.49289513 -9.83600235 2.49650669 64 13 20455 11.09800000 1636260067 1636260067 13.00000000
-2.40788579 -5.26899385 -0.10111924 2 14 20456 5.79400000 1636260069 1636260069 -1.00000000
-4.32557917 -9.46533775 2.78851628 78 15 20456 10.77400000 1636260072 1636260072 15.00000000
-0.45506164 -0.99211031 -0.29246551 97 0 20464 1.13000000 1636260092 1636260092 -15.00000000
-12.28096104 -26.76221848 0.51397336 100 1 20465 29.45000000 1636260095 1636260095 1.00000000
-0.47077224 -1.02541733 -0.26049331 78 2 20466 1.15800000 1636260097 1636260097 -13.00000000
-13.23568058 -28.81616592 1.66187596 11 3 20467 31.75400000 1636260099 1636260099 3.00000000
-0.46462551 -1.01156318 -0.21637741 78 4 20467 1.13400000 1636260102 1636260102 -11.00000000
-13.23837566 -28.80877686 2.77381873 19 5 20468 31.82600000 1636260104 1636260104 5.00000000
-0.48022661 -1.04456770 -0.18208972 100 6 20469 1.16400000 1636260106 1636260106 -9.00000000
-0.51033896 -1.10904658 -0.14989929 100 8 20471 1.23000000 1636260111 1636260111 -7.00000000
-6.64161301 -14.42663574 2.51546621 40 9 20472 16.08000000 1636260113 1636260113 9.00000000
-0.50324416 -1.09312606 -0.10528414 53 10 20472 1.20800000 1636260115 1636260115 -5.00000000
-5.84774971 -12.69640446 2.71712017 71 11 20473 14.24000000 1636260118 1636260118 11.00000000
-2.41144276 -5.23322582 -0.30197847 18 12 20474 5.77000000 1636260120 1636260120 -3.00000000
-4.52720165 -9.82026005 2.49650669 68 13 20475 11.09800000 1636260122 1636260122 13.00000000
-2.41537571 -5.23695040 -0.10066548 20 14 20476 5.76800000 1636260125 1636260125 -1.00000000
-4.33596039 -9.39679623 2.77298737 78 15 20477 10.71400000 1636260127 1636260127 15.00000000
-0.46113038 -0.99569470 -0.29401845 78 0 20485 1.13600000 1636260148 1636260148 -15.00000000
-0.47124916 -1.01661289 -0.25869372 80 2 20487 1.15000000 1636260152 1636260152 -13.00000000
-13.36137486 -28.81094742 1.66438806 16 3 20488 31.80200000 1636260155 1636260155 3.00000000
-0.46998191 -1.01341546 -0.21714063 73 4 20488 1.13800000 1636260157 1636260157 -11.00000000
-11.60388088 -25.00984955 2.41212225 25 5 20489 27.67600000 1636260159 1636260159 5.00000000
-0.48322022 -1.04100883 -0.18177685 100 6 20490 1.16200000 1636260162 1636260162 -9.00000000
-0.51189113 -1.10176778 -0.14916807 100 8 20492 1.22400000 1636260166 1636260166 -7.00000000
-6.70774508 -14.43740177 2.52141070 44 9 20492 16.11800000 1636260168 1636260168 9.00000000
-0.51060653 -1.09850121 -0.10598138 52 10 20493 1.21600000 1636260171 1636260171 -5.00000000
-5.89838409 -12.68378639 2.71902823 68 11 20494 14.25000000 1636260173 1636260173 11.00000000
-2.42639470 -5.21529818 -0.30145511 24 12 20495 5.76000000 1636260175 1636260175 -3.00000000
-4.56645393 -9.81066799 2.49830651 66 13 20496 11.10600000 1636260178 1636260178 13.00000000
-2.43708634 -5.23350096 -0.10077020 22 14 20497 5.77400000 1636260180 1636260180 -1.00000000
-4.34345388 -9.32731438 2.75694036 68 15 20497 10.65200000 1636260182 1636260182 15.00000000
-0.47114691 -1.00808012 -0.29815954 80 0 20505 1.15200000 1636260203 1636260203 -15.00000000
-2.45208001 -5.24415779 0.10104943 8 1 20506 5.79000000 1636260205 1636260205 1.00000000
-0.47314349 -1.01143146 -0.25779390 87 2 20507 1.14600000 1636260208 1636260208 -13.00000000
-13.48048782 -28.80392838 1.66669083 11 3 20508 31.84600000 1636260210 1636260210 3.00000000
-0.47934186 -1.02421582 -0.21981196 71 4 20508 1.15200000 1636260212 1636260212 -11.00000000
-11.63366032 -24.84649467 2.40026927 8 5 20509 27.54000000 1636260215 1636260215 5.00000000
-0.48936492 -1.04468226 -0.18271546 100 6 20510 1.16800000 1636260217 1636260217 -9.00000000
-9.70263386 -20.70349693 2.80738211 57 7 20511 23.03600000 1636260219 1636260219 7.00000000
-0.51320577 -1.09458220 -0.14843686 100 8 20512 1.21800000 1636260221 1636260221 -7.00000000
-6.77236032 -14.43775749 2.52579093 44 9 20513 16.14600000 1636260224 1636260224 9.00000000
-0.51359183 -1.09490836 -0.10580707 100 10 20513 1.21400000 1636260226 1636260226 -5.00000000
-5.95346546 -12.68622494 2.72398925 81 11 20514 14.27600000 1636260228 1636260228 11.00000000
-2.43779421 -5.19233322 -0.30061772 27 12 20515 5.74400000 1636260231 1636260231 -3.00000000
-4.59735775 -9.78761292 2.49650669 66 13 20516 11.09800000 1636260233 1636260233 13.00000000
-2.45789123 -5.23039150 -0.10087491 24 14 20517 5.78000000 1636260235 1636260235 -1.00000000
-4.34226799 -9.23615646 2.73468208 76 15 20518 10.56600000 1636260238 1636260238 15.00000000
-0.47942981 -1.01699662 -0.30126536 100 0 20524 1.16400000 1636260258 1636260258 -15.00000000
-2.47542787 -5.24865818 0.10129377 30 1 20525 5.80400000 1636260261 1636260261 1.00000000
-0.47898963 -1.01514411 -0.25914362 95 2 20526 1.15200000 1636260263 1636260263 -13.00000000
-13.59724522 -28.80422020 1.66930771 11 3 20527 31.89600000 1636260265 1636260265 3.00000000
-0.48022139 -1.01729453 -0.21866710 87 4 20527 1.14600000 1636260268 1636260268 -11.00000000
-13.59973812 -28.79648018 2.78619480 29 5 20528 31.96800000 1636260270 1636260270 5.00000000
-0.49620205 -1.05019796 -0.18396693 100 6 20529 1.17600000 1636260272 1636260272 -9.00000000
-9.78650570 -20.70351219 2.81176949 55 7 20530 23.07200000 1636260274 1636260274 7.00000000
-0.51598406 -1.09107983 -0.14819312 100 8 20531 1.21600000 1636260277 1636260277 -7.00000000
-6.82697392 -14.43605328 2.52923250 40 9 20531 16.16800000 1636260279 1636260279 9.00000000
-0.51977611 -1.09860218 -0.10633001 100 10 20532 1.22000000 1636260281 1636260281 -5.00000000
-6.00390148 -12.68415833 2.72780538 78 11 20533 14.29600000 1636260284 1636260284 11.00000000
-2.44217730 -5.15714407 -0.29904765 39 12 20534 5.71400000 1636260286 1636260286 -3.00000000
-4.62978935 -9.77231312 2.49650669 66 13 20535 11.09800000 1636260288 1636260288 13.00000000
-2.46237516 -5.19510698 -0.10035133 36 14 20536 5.75000000 1636260291 1636260291 -1.00000000
-4.34313059 -9.16311550 2.71708226 76 15 20536 10.49800000 1636260293 1636260293 15.00000000
-0.47716787 -1.00310528 -0.29764190 100 0 20544 1.15000000 1636260314 1636260314 -15.00000000
-2.49545264 -5.24359655 0.10136358 38 1 20545 5.80800000 1636260316 1636260316 1.00000000
-0.48671886 -1.02226341 -0.26139313 100 2 20546 1.16200000 1636260318 1636260318 -13.00000000
-13.71660423 -28.79625130 1.67161047 11 3 20547 31.94000000 1636260321 1636260321 3.00000000
-0.48545805 -1.01915693 -0.21943034 85 4 20547 1.15000000 1636260323 1636260323 -11.00000000
-13.72074413 -28.79199982 2.79037833 29 5 20548 32.01600000 1636260325 1636260325 5.00000000
-0.50326532 -1.05559182 -0.18521841 100 6 20549 1.18400000 1636260327 1636260327 -9.00000000
-9.87751579 -20.70864296 2.81713176 55 7 20550 23.11600000 1636260330 1636260330 7.00000000
-0.52149934 -1.09285522 -0.14868060 100 8 20551 1.22000000 1636260332 1636260332 -7.00000000
-6.88753223 -14.43352795 2.53298688 40 9 20551 16.19200000 1636260334 1636260334 9.00000000
-0.52532452 -1.10037708 -0.10667863 56 10 20552 1.22400000 1636260337 1636260337 -5.00000000
-6.06337118 -12.69501114 2.73467445 91 11 20553 14.33200000 1636260339 1636260339 11.00000000
-2.45844197 -5.14498377 -0.29883832 45 12 20554 5.71000000 1636260341 1636260341 -3.00000000
-4.66387272 -9.75609303 2.49650669 66 13 20555 11.09800000 1636260344 1636260344 13.00000000
-2.48825955 -5.20271635 -0.10066548 29 14 20556 5.76800000 1636260346 1636260346 -1.00000000
-4.34174871 -9.07818794 2.69637680 73 15 20556 10.41800000 1636260348 1636260348 15.00000000
-0.47498751 -0.98915923 -0.29401845 100 0 20565 1.13600000 1636260369 1636260369 -15.00000000
-2.50686121 -5.21819258 0.10104943 24 1 20566 5.79000000 1636260371 1636260371 1.00000000
-0.49299487 -1.02574182 -0.26274282 95 2 20567 1.16800000 1636260374 1636260374 -13.00000000
-13.84455872 -28.79258347 1.67433190 11 3 20568 31.99200000 1636260376 1636260376 3.00000000
-0.49089170 -1.02090943 -0.22019358 83 4 20568 1.15400000 1636260378 1636260378 -11.00000000
-13.83999920 -28.77024460 2.79316735 29 5 20569 32.04800000 1636260380 1636260380 5.00000000
-0.50456101 -1.04840028 -0.18427980 99 6 20570 1.17800000 1636260383 1636260383 -9.00000000
-9.97057438 -20.70807266 2.82200646 52 7 20571 23.15600000 1636260385 1636260385 7.00000000
-0.52636284 -1.09272492 -0.14892434 100 8 20572 1.22200000 1636260387 1636260387 -7.00000000
-6.95405054 -14.43010902 2.53705406 36 9 20573 16.21800000 1636260390 1636260390 9.00000000
-0.53454381 -1.10921335 -0.10772450 31 10 20573 1.23600000 1636260392 1636260392 -5.00000000
-6.11582804 -12.68508148 2.73734593 81 11 20574 14.34600000 1636260394 1636260394 11.00000000
-2.49376893 -5.17011833 -0.30082709 21 12 20575 5.74800000 1636260397 1636260397 -3.00000000
-4.70298719 -9.74595356 2.49830651 64 13 20576 11.10600000 1636260399 1636260399 13.00000000
-2.50383401 -5.18635798 -0.10052586 22 14 20577 5.76000000 1636260401 1636260401 -1.00000000
-4.33467817 -8.97870731 2.67153025 76 15 20577 10.32200000 1636260403 1636260403 15.00000000
-0.47927976 -0.98923373 -0.29453608 97 0 20585 1.13800000 1636260424 1636260424 -15.00000000
-2.51808310 -5.19501495 0.10077020 13 1 20586 5.77400000 1636260427 1636260427 1.00000000
-0.49487180 -1.02050781 -0.26184303 90 2 20587 1.16400000 1636260429 1636260429 -13.00000000
-21.74478722 -44.82143402 2.61083150 45 3 20588 49.88600000 1636260431 1636260431 3.00000000
-0.49788010 -1.02625513 -0.22172005 90 4 20588 1.16200000 1636260433 1636260433 -11.00000000
-16.70596504 -34.41986465 3.34730339 42 5 20589 38.40600000 1636260436 1636260436 5.00000000
-0.50994319 -1.05018663 -0.18490554 92 6 20590 1.18200000 1636260438 1636260438 -9.00000000
-10.05407429 -20.69635391 2.82517505 46 7 20591 23.18200000 1636260440 1636260440 7.00000000
-0.53277707 -1.09623706 -0.14965555 100 8 20592 1.22800000 1636260443 1636260443 -7.00000000
-7.01819944 -14.43417168 2.54206014 36 9 20593 16.25000000 1636260445 1636260445 9.00000000
-6.16694069 -12.67778015 2.74039888 91 11 20594 14.36200000 1636260450 1636260450 11.00000000
-2.51966667 -5.17754507 -0.30176914 18 12 20595 5.76600000 1636260452 1636260452 -3.00000000
-4.74380255 -9.74349499 2.50190568 68 13 20596 11.12200000 1636260454 1636260454 13.00000000
-2.52104688 -5.17578840 -0.10049096 18 14 20597 5.75800000 1636260456 1636260456 -1.00000000
-4.33963108 -8.90544987 2.65444803 66 15 20598 10.25600000 1636260459 1636260459 15.00000000
-0.48340562 -0.98937470 -0.29505372 35 0 20604 1.14000000 1636260480 1636260480 -15.00000000
-13.07517529 -26.74881363 0.51969779 100 1 20605 29.77800000 1636260482 1636260482 1.00000000
-0.49568489 -1.01360929 -0.26049331 80 2 20606 1.15800000 1636260484 1636260484 -13.00000000
-21.92050934 -44.80469513 2.61407638 45 3 20607 49.94800000 1636260486 1636260486 3.00000000
-0.50732005 -1.03694308 -0.22439139 99 4 20607 1.17600000 1636260489 1636260489 -11.00000000
-16.85767746 -34.44122696 3.35479879 100 5 20608 38.49200000 1636260491 1636260491 5.00000000
-0.51689792 -1.05558610 -0.18615702 100 6 20609 1.19000000 1636260493 1636260493 -9.00000000
-10.13749695 -20.69320679 2.82931876 55 7 20610 23.21600000 1636260496 1636260496 7.00000000
-0.53116763 -1.08376920 -0.14819312 100 8 20611 1.21600000 1636260498 1636260498 -7.00000000
-7.07994080 -14.43919754 2.54706597 32 9 20612 16.28200000 1636260500 1636260500 9.00000000
-2.48410201 -5.06620598 -0.49365014 7 10 20612 5.66400000 1636260503 1636260503 -5.00000000
-6.21932316 -12.67841148 2.74497819 78 11 20613 14.38600000 1636260505 1636260505 11.00000000
-2.52450323 -5.14405918 -0.30030373 15 12 20614 5.73800000 1636260507 1636260507 -3.00000000
-4.77265167 -9.72071266 2.50010610 66 13 20615 11.11400000 1636260509 1636260509 13.00000000
-2.53114367 -5.15304136 -0.10021172 9 14 20616 5.74200000 1636260512 1636260512 -1.00000000
-4.33777666 -8.83108425 2.63633084 71 15 20616 10.18600000 1636260514 1636260514 15.00000000
-13.18704033 -26.74067116 0.52043074 100 1 20625 29.82000000 1636260537 1636260537 1.00000000
-0.50439328 -1.02235854 -0.26319274 73 2 20626 1.17000000 1636260539 1636260539 -13.00000000
-22.11124992 -44.79775238 2.61815858 46 3 20627 50.02600000 1636260542 1636260542 3.00000000
-0.51528132 -1.04396832 -0.22629946 94 4 20627 1.18600000 1636260544 1636260544 -11.00000000
-16.96721077 -34.36073685 3.35270715 74 5 20628 38.46800000 1636260546 1636260546 5.00000000
-0.52845371 -1.06971490 -0.18897283 100 6 20629 1.20800000 1636260549 1636260549 -9.00000000
-10.22901821 -20.69684410 2.83468103 57 7 20630 23.26000000 1636260551 1636260551 7.00000000
-0.52614897 -1.06411397 -0.14575574 100 8 20631 1.19600000 1636260553 1636260553 -7.00000000
-7.14168596 -14.43741322 2.55113316 20 9 20632 16.30800000 1636260556 1636260556 9.00000000
-2.51590538 -5.08607769 -0.49643910 10 10 20632 5.69600000 1636260558 1636260558 -5.00000000
-6.27747393 -12.68477726 2.75108409 78 11 20633 14.41800000 1636260560 1636260560 11.00000000
-2.53889918 -5.12805605 -0.29988503 12 12 20634 5.73000000 1636260562 1636260562 -3.00000000
-4.80309439 -9.69700909 2.49830651 62 13 20635 11.10600000 1636260565 1636260565 13.00000000
-6.61917686 -13.35765266 -0.26021537 9 14 20636 14.91000000 1636260567 1636260567 -1.00000000
-4.33598185 -8.75011158 2.61666059 71 15 20636 10.11000000 1636260569 1636260569 15.00000000
-0.86189741 -1.73324168 -0.51867336 5 0 20644 2.00400000 1636260590 1636260590 -15.00000000
-13.28564644 -26.70521927 0.52064019 22 1 20645 29.83200000 1636260592 1636260592 1.00000000
-0.51490533 -1.03454852 -0.26679194 100 2 20646 1.18600000 1636260595 1636260595 -13.00000000
-0.51717210 -1.03864837 -0.22553623 99 4 20647 1.18200000 1636260599 1636260599 -11.00000000
-17.09326744 -34.31378174 3.35392737 95 5 20648 38.48200000 1636260602 1636260602 5.00000000
-0.53130341 -1.06609571 -0.18865997 100 6 20649 1.20600000 1636260604 1636260604 -9.00000000
-10.32068729 -20.70009613 2.84004307 55 7 20650 23.30400000 1636260606 1636260606 7.00000000
-0.54137892 -1.08536375 -0.14892434 49 8 20651 1.22200000 1636260608 1636260608 -7.00000000
-8.32164764 -16.68335152 2.95285702 42 9 20651 18.87600000 1636260611 1636260611 9.00000000
-2.52474761 -5.05943680 -0.49469599 7 10 20652 5.67600000 1636260613 1636260613 -5.00000000
-6.33311367 -12.68562222 2.75604510 68 11 20653 14.44400000 1636260615 1636260615 11.00000000
-2.56213856 -5.12988329 -0.30051306 9 12 20654 5.74200000 1636260618 1636260618 -3.00000000
-4.84214020 -9.69064331 2.50100589 64 13 20655 11.11800000 1636260620 1636260620 13.00000000
-6.64788103 -13.29869270 -0.25951728 9 14 20656 14.87000000 1636260622 1636260622 -1.00000000
-4.33540201 -8.67271519 2.59802556 76 15 20656 10.03800000 1636260625 1636260625 15.00000000
-0.86794227 -1.73022258 -0.51867336 5 0 20664 2.00400000 1636260645 1636260645 -15.00000000
-0.51676470 -1.02926171 -0.26589215 83 2 20666 1.18200000 1636260650 1636260650 -13.00000000
-0.52431935 -1.04385424 -0.22706270 92 4 20667 1.19000000 1636260655 1636260655 -11.00000000
-17.19952202 -34.22720337 3.35131264 74 5 20668 38.45200000 1636260657 1636260657 5.00000000
-0.53768337 -1.06952929 -0.18959858 100 6 20669 1.21200000 1636260659 1636260659 -9.00000000
-10.40893650 -20.69586563 2.84443045 52 7 20670 23.34000000 1636260661 1636260661 7.00000000
-0.55497903 -1.10297334 -0.15160546 12 8 20671 1.24400000 1636260664 1636260664 -7.00000000
-8.39250946 -16.67214775 2.95629859 72 9 20672 18.89800000 1636260666 1636260666 9.00000000
-2.52089286 -5.00788164 -0.49051252 3 10 20672 5.62800000 1636260668 1636260668 -5.00000000
-6.38530350 -12.67922020 2.75947976 87 11 20673 14.46200000 1636260671 1636260671 11.00000000
-3.46520162 -6.87782049 -0.40361491 4 12 20674 7.71200000 1636260673 1636260673 -3.00000000
-4.87769175 -9.67716312 2.50190568 66 13 20675 11.12200000 1636260675 1636260675 13.00000000
-6.68885946 -13.26469326 -0.25930786 11 14 20676 14.85800000 1636260678 1636260678 -1.00000000
-4.32974482 -8.58260059 2.57576704 76 15 20677 9.95200000 1636260680 1636260680 15.00000000
-0.87310433 -1.72545862 -0.51815575 6 0 20684 2.00200000 1636260701 1636260701 -15.00000000
-13.53046513 -26.72778511 0.52290899 16 1 20685 29.96200000 1636260703 1636260703 1.00000000
-0.52211529 -1.03092861 -0.26679194 83 2 20686 1.18600000 1636260705 1636260705 -13.00000000
-0.53150922 -1.04902279 -0.22858918 94 4 20687 1.19800000 1636260710 1636260710 -11.00000000
-17.31258774 -34.15451813 3.35009241 74 5 20688 38.43800000 1636260712 1636260712 5.00000000
-0.54230684 -1.06940770 -0.18991144 87 6 20689 1.21400000 1636260714 1636260714 -9.00000000
-10.49638271 -20.68950081 2.84857392 46 7 20690 23.37400000 1636260717 1636260717 7.00000000
-8.45065498 -16.64274979 2.95629859 85 9 20692 18.89800000 1636260721 1636260721 9.00000000
-6.43485832 -12.66735554 2.76176929 74 11 20693 14.47400000 1636260726 1636260726 11.00000000
-3.48375940 -6.85499954 -0.40298685 4 12 20694 7.70000000 1636260728 1636260728 -3.00000000
-4.91497421 -9.66702557 2.50370526 66 13 20695 11.13000000 1636260731 1636260731 13.00000000
-6.72242880 -13.21631050 -0.25881919 9 14 20696 14.83000000 1636260733 1636260733 -1.00000000
-4.32840300 -8.50965118 2.55816746 65 15 20696 9.88400000 1636260735 1636260735 15.00000000
-0.88439149 -1.73272443 -0.52126157 6 0 20704 2.01400000 1636260756 1636260756 -15.00000000
-13.64823341 -26.72847748 0.52385145 11 1 20705 30.01600000 1636260758 1636260758 1.00000000
-0.52659720 -1.03083515 -0.26724187 52 2 20706 1.18800000 1636260760 1636260760 -13.00000000
-0.54052836 -1.05765021 -0.23087889 100 4 20707 1.21000000 1636260765 1636260765 -11.00000000
-17.44621468 -34.12226105 3.35288143 95 5 20708 38.47000000 1636260767 1636260767 5.00000000
-0.55413258 -1.08333623 -0.19272727 67 6 20709 1.23200000 1636260770 1636260770 -9.00000000
-10.58481598 -20.68454361 2.85296130 49 7 20710 23.41000000 1636260772 1636260772 7.00000000
-1.77755296 -3.47214866 -0.47894651 1 8 20711 3.93000000 1636260774 1636260774 -7.00000000
-8.50059319 -16.59732628 2.95348263 63 9 20712 18.88000000 1636260777 1636260777 9.00000000
-2.42137289 -4.72770739 -0.46471441 3 10 20712 5.33200000 1636260779 1636260779 -5.00000000
-6.48977947 -12.66578388 2.76634884 78 11 20713 14.49800000 1636260781 1636260781 11.00000000
-3.51313305 -6.85346174 -0.40361491 4 12 20714 7.71200000 1636260784 1636260784 -3.00000000
-4.94513130 -9.64287472 2.50190568 64 13 20715 11.12200000 1636260786 1636260786 13.00000000
-6.77125978 -13.19810200 -0.25892389 9 14 20716 14.83600000 1636260788 1636260788 -1.00000000
-4.33779860 -8.45495701 2.54626179 67 15 20716 9.83800000 1636260790 1636260790 15.00000000
-0.89101648 -1.73149991 -0.52177918 5 0 20723 2.01600000 1636260811 1636260811 -15.00000000
-13.76791382 -26.74352074 0.52503818 11 1 20724 30.08400000 1636260813 1636260813 1.00000000
-0.54403269 -1.05585194 -0.23087889 96 4 20726 1.21000000 1636260820 1636260820 -11.00000000
-0.56858671 -1.10256076 -0.19648169 22 6 20728 1.25600000 1636260825 1636260825 -9.00000000
-10.67155361 -20.68461227 2.85783601 52 7 20729 23.45000000 1636260827 1636260827 7.00000000
-1.78086305 -3.45035911 -0.47675288 1 8 20730 3.91200000 1636260830 1636260830 -7.00000000
-8.56628323 -16.59687042 2.95817566 85 9 20730 18.91000000 1636260832 1636260832 9.00000000
-2.43703723 -4.71965170 -0.46471441 3 10 20731 5.33200000 1636260834 1636260834 -5.00000000
-6.54255772 -12.66512489 2.77092814 78 11 20732 14.52200000 1636260837 1636260837 11.00000000
-3.53950858 -6.84887123 -0.40403357 4 12 20733 7.72000000 1636260839 1636260839 -3.00000000
-4.97529125 -9.62296104 2.50100589 64 13 20734 11.11800000 1636260841 1636260841 13.00000000
-6.79385853 -13.13472366 -0.25812110 11 14 20735 14.79000000 1636260843 1636260843 -1.00000000
-4.33621120 -8.37971210 2.52814436 65 15 20736 9.76800000 1636260846 1636260846 15.00000000
-0.89260542 -1.71980584 -0.51919103 5 0 20743 2.00600000 1636260866 1636260866 -15.00000000
-13.86026001 -26.69352531 0.52500331 5 1 20744 30.08200000 1636260869 1636260869 1.00000000
-1.02588058 -1.97490418 -0.51378822 4 2 20745 2.28400000 1636260871 1636260871 -13.00000000
-24.78576851 -47.71463394 2.81787252 12 3 20745 53.84200000 1636260873 1636260873 3.00000000
-0.54862028 -1.05568862 -0.23126051 78 4 20746 1.21200000 1636260876 1636260876 -11.00000000
-17.69737244 -34.03984070 3.35654187 100 5 20747 38.51200000 1636260878 1636260878 5.00000000
-10.76476669 -20.68773842 2.86344218 55 7 20749 23.49600000 1636260883 1636260883 7.00000000
-1.79931259 -3.45644712 -0.47845903 1 8 20750 3.92600000 1636260885 1636260885 -7.00000000
-8.61975670 -16.55134583 2.95567274 89 9 20751 18.89400000 1636260887 1636260887 9.00000000
-2.45349717 -4.71111631 -0.46471441 3 10 20751 5.33200000 1636260890 1636260890 -5.00000000
-6.60668468 -12.68051434 2.77932382 78 11 20752 14.56600000 1636260892 1636260892 11.00000000
-3.55785513 -6.82584763 -0.40340555 4 12 20753 7.70800000 1636260894 1636260894 -3.00000000
-5.01245546 -9.61244678 2.50280547 68 13 20754 11.12600000 1636260896 1636260896 13.00000000
-6.83689117 -13.10560989 -0.25801638 16 14 20755 14.78400000 1636260899 1636260899 -1.00000000
-4.33147001 -8.29944515 2.50847411 60 15 20756 9.69200000 1636260901 1636260901 15.00000000
-0.89442176 -1.70796585 -0.51660281 5 0 20764 1.99600000 1636260922 1636260922 -15.00000000
-13.99605179 -26.71516991 0.52643436 73 1 20765 30.16400000 1636260924 1636260924 1.00000000
-1.03582609 -1.97630906 -0.51513791 4 2 20766 2.29000000 1636260926 1636260926 -13.00000000
-24.79730034 -47.31212234 2.79945040 12 3 20766 53.49000000 1636260929 1636260929 3.00000000
-0.55977947 -1.06758058 -0.23431344 33 4 20767 1.22800000 1636260931 1636260931 -11.00000000
-17.82756996 -33.98533630 3.35758781 53 5 20768 38.52400000 1636260933 1636260933 5.00000000
-1.44299042 -2.74965787 -0.49182996 3 6 20769 3.14400000 1636260936 1636260936 -9.00000000
-10.85712814 -20.67978096 2.86782932 38 7 20770 23.53200000 1636260938 1636260938 7.00000000
-1.80919981 -3.44455695 -0.47772783 1 8 20771 3.92000000 1636260940 1636260940 -7.00000000
-8.68115330 -16.52815056 2.95692420 89 9 20771 18.90200000 1636260943 1636260943 9.00000000
-2.47074771 -4.70209217 -0.46471441 3 10 20772 5.33200000 1636260945 1636260945 -5.00000000
-6.66042471 -12.67011642 2.78237677 81 11 20773 14.58200000 1636260947 1636260947 11.00000000
-3.58656788 -6.81983232 -0.40382424 4 12 20774 7.71600000 1636260949 1636260949 -3.00000000
-5.04765320 -9.59401035 2.50280547 66 13 20775 11.12600000 1636260952 1636260952 13.00000000
-6.86625195 -13.04507256 -0.25731829 19 14 20776 14.74400000 1636260954 1636260954 -1.00000000
-4.33935738 -8.24077988 2.49553323 67 15 20777 9.64200000 1636260956 1636260956 15.00000000
-0.90398699 -1.71166635 -0.51867336 5 0 20784 2.00400000 1636260977 1636260977 -15.00000000
-14.13032341 -26.74394798 0.52797019 61 1 20785 30.25200000 1636260979 1636260979 1.00000000
-1.04089701 -1.96923554 -0.51423812 4 2 20786 2.28600000 1636260982 1636260982 -13.00000000
-24.92496681 -47.15464783 2.79526353 12 3 20786 53.41000000 1636260984 1636260984 3.00000000
-17.96751976 -33.96340179 3.36159706 74 5 20788 38.57000000 1636260989 1636260989 5.00000000
-1.45073175 -2.74111223 -0.49120423 2 6 20789 3.14000000 1636260991 1636260991 -9.00000000
-10.13133621 -19.13476562 2.65845776 20 7 20790 21.81400000 1636260993 1636260993 7.00000000
-1.82957518 -3.45400834 -0.47992146 1 8 20791 3.93800000 1636260996 1636260996 -7.00000000
-8.73971939 -16.49949265 2.95723724 89 9 20791 18.90400000 1636260998 1636260998 9.00000000
-2.46289039 -4.64766645 -0.46018231 3 10 20792 5.28000000 1636261000 1636261000 -5.00000000
-6.71564579 -12.66760445 2.78695607 71 11 20793 14.60600000 1636261002 1636261002 11.00000000
-3.58602047 -6.76139545 -0.40110278 4 12 20794 7.66400000 1636261005 1636261005 -3.00000000
-5.08841896 -9.59010410 2.50640464 68 13 20795 11.14200000 1636261007 1636261007 13.00000000
-6.92112160 -13.03868771 -0.25766733 11 14 20796 14.76400000 1636261009 1636261009 -1.00000000
-4.34816360 -8.18804646 2.48414516 69 15 20797 9.59800000 1636261012 1636261012 15.00000000
-0.91177255 -1.71191049 -0.51970863 5 0 20804 2.00800000 1636261032 1636261032 -15.00000000
-1.03859782 -1.94839334 -0.50973910 4 2 20806 2.26600000 1636261037 1636261037 -13.00000000
-24.99546432 -46.89110565 2.78479624 12 3 20806 53.21000000 1636261039 1636261039 3.00000000
-1.22219956 -2.29186392 -0.50488061 3 4 20807 2.64600000 1636261042 1636261042 -11.00000000
-18.08221436 -33.89344788 3.36089969 74 5 20808 38.56200000 1636261044 1636261044 5.00000000
-1.46773207 -2.74997306 -0.49370718 3 6 20809 3.15600000 1636261046 1636261046 -9.00000000
-11.04517937 -20.68578339 2.87928510 60 7 20810 23.62600000 1636261048 1636261048 7.00000000
-1.84068549 -3.44584990 -0.47967774 1 8 20811 3.93600000 1636261051 1636261051 -7.00000000
-8.80284405 -16.47933960 2.95911431 93 9 20811 18.91600000 1636261053 1636261053 9.00000000
-2.46970820 -4.62146902 -0.45843920 3 10 20812 5.26000000 1636261055 1636261055 -5.00000000
-6.77370739 -12.67005634 2.79268050 65 11 20813 14.63600000 1636261058 1636261058 11.00000000
-3.60583258 -6.74179220 -0.40068409 4 12 20814 7.65600000 1636261060 1636261060 -3.00000000
-5.12186337 -9.57228374 2.50640464 70 13 20815 11.14200000 1636261062 1636261062 13.00000000
-6.96470547 -13.01092339 -0.25759751 9 14 20816 14.76000000 1636261065 1636261065 -1.00000000
-4.37073374 -8.16506577 2.48155689 63 15 20816 9.58800000 1636261067 1636261067 15.00000000
-0.91500044 -1.70361173 -0.51815575 5 0 20824 2.00200000 1636261088 1636261088 -15.00000000
-27.24864960 -50.71220016 1.00487471 14 1 20825 57.57800000 1636261090 1636261090 1.00000000
-1.05000603 -1.95333850 -0.51198858 4 2 20826 2.27600000 1636261092 1636261092 -13.00000000
-1.22647285 -2.28066730 -0.50335413 3 4 20827 2.63800000 1636261097 1636261097 -11.00000000
-18.19474983 -33.81959534 3.35985398 42 5 20828 38.55000000 1636261099 1636261099 5.00000000
-1.47544992 -2.74135399 -0.49308142 3 6 20829 3.15200000 1636261101 1636261101 -9.00000000
-11.13143539 -20.67331886 2.88294125 55 7 20830 23.65600000 1636261104 1636261104 7.00000000
-1.84893692 -3.43241310 -0.47870278 1 8 20831 3.92800000 1636261106 1636261106 -7.00000000
-8.85469341 -16.43807602 2.95723724 93 9 20831 18.90400000 1636261108 1636261108 9.00000000
-2.50094795 -4.64088249 -0.46122819 3 10 20832 5.29200000 1636261111 1636261111 -5.00000000
-6.83000469 -12.66879940 2.79764152 74 11 20833 14.66200000 1636261113 1636261113 11.00000000
-3.64072108 -6.75025892 -0.40194014 4 12 20834 7.68000000 1636261115 1636261115 -3.00000000
-5.15154409 -9.54748631 2.50460505 59 13 20835 11.13400000 1636261118 1636261118 13.00000000
-6.98633242 -12.94254017 -0.25672489 9 14 20836 14.71000000 1636261120 1636261120 -1.00000000
-4.39512300 -8.13879299 2.47845125 65 15 20837 9.57600000 1636261122 1636261122 15.00000000
-0.92186159 -1.70210612 -0.51867336 5 0 20844 2.00400000 1636261143 1636261143 -15.00000000
-27.46837044 -50.69589615 1.00644541 14 1 20845 57.66800000 1636261145 1636261145 1.00000000
-1.05774665 -1.95137453 -0.51243848 4 2 20846 2.27800000 1636261148 1636261148 -13.00000000
-1.22881114 -2.26601720 -0.50106442 3 4 20847 2.62600000 1636261152 1636261152 -11.00000000
-18.31079102 -33.75237274 3.35950518 85 5 20848 38.54600000 1636261154 1636261154 5.00000000
-1.49066365 -2.74660397 -0.49495864 3 6 20849 3.16400000 1636261157 1636261157 -9.00000000
-11.22721100 -20.67794991 2.88903475 54 7 20850 23.70600000 1636261159 1636261159 7.00000000
-1.85427439 -3.41372776 -0.47699660 1 8 20851 3.91400000 1636261161 1636261161 -7.00000000
-8.91390514 -16.41053963 2.95786285 93 9 20851 18.90800000 1636261164 1636261164 9.00000000
-2.48098302 -4.56560135 -0.45460436 3 10 20852 5.21600000 1636261166 1636261166 -5.00000000
-6.88543749 -12.66557980 2.80222082 81 11 20853 14.68600000 1636261168 1636261168 11.00000000
-3.66235328 -6.73400021 -0.40173081 4 12 20854 7.67600000 1636261171 1636261171 -3.00000000
-5.19042778 -9.53971672 2.50730443 59 13 20855 11.14600000 1636261173 1636261173 13.00000000
-7.00183153 -12.86362743 -0.25564286 7 14 20856 14.64800000 1636261175 1636261175 -1.00000000
-4.42301178 -8.12586975 2.47896886 67 15 20856 9.57800000 1636261178 1636261178 15.00000000
-0.92224175 -1.68870485 -0.51556754 5 0 20864 1.99200000 1636261198 1636261198 -15.00000000
-27.69502068 -50.69095612 1.00826037 14 1 20865 57.77200000 1636261201 1636261201 1.00000000
-1.06548643 -1.94938040 -0.51288843 4 2 20866 2.28000000 1636261203 1636261203 -13.00000000
-1.24048114 -2.26860428 -0.50259089 3 4 20867 2.63400000 1636261207 1636261207 -11.00000000
-18.41511154 -33.66378021 3.35706496 42 5 20868 38.51800000 1636261210 1636261210 5.00000000
-1.49455214 -2.73098683 -0.49308142 3 6 20869 3.15200000 1636261212 1636261212 -9.00000000
-11.32601452 -20.68738937 2.89585924 51 7 20870 23.76200000 1636261214 1636261214 7.00000000
-1.87094724 -3.41593957 -0.47821531 3 8 20871 3.92400000 1636261217 1636261217 -7.00000000
-8.97209454 -16.37429428 2.95723724 89 9 20872 18.90400000 1636261219 1636261219 9.00000000
-2.52754164 -4.61282635 -0.46018231 3 10 20872 5.28000000 1636261221 1636261221 -5.00000000
-6.94281864 -12.66556931 2.80756354 78 11 20873 14.71400000 1636261224 1636261224 11.00000000
-3.68391633 -6.71767282 -0.40152144 4 12 20874 7.67200000 1636261226 1636261226 -3.00000000
-5.22275877 -9.51983261 2.50685453 34 13 20875 11.14400000 1636261228 1636261228 13.00000000
-7.03706980 -12.82157803 -0.25529379 7 14 20876 14.62800000 1636261231 1636261231 -1.00000000
-4.44811583 -8.10113716 2.47638059 63 15 20877 9.56800000 1636261233 1636261233 15.00000000
-0.93063134 -1.69071460 -0.51712048 5 0 20883 1.99800000 1636261254 1636261254 -15.00000000
-27.92566299 -50.71269989 1.01052928 14 1 20884 57.90200000 1636261256 1636261256 1.00000000
-1.07288527 -1.94754326 -0.51333833 4 2 20885 2.28200000 1636261258 1636261258 -13.00000000
-25.95236015 -47.09029007 2.81787252 12 3 20886 53.84200000 1636261260 1636261260 3.00000000
-1.24420679 -2.25760055 -0.50106442 3 4 20886 2.62600000 1636261263 1636261263 -11.00000000
-18.54011154 -33.62695694 3.35950518 63 5 20887 38.54600000 1636261265 1636261265 5.00000000
-1.50169206 -2.72255611 -0.49245569 3 6 20888 3.14800000 1636261267 1636261267 -9.00000000
-11.40606308 -20.67057228 2.89878416 48 7 20889 23.78600000 1636261270 1636261270 7.00000000
-1.88322401 -3.41145420 -0.47845903 3 8 20890 3.92600000 1636261272 1636261272 -7.00000000
-9.02921963 -16.35640144 2.95911431 93 9 20890 18.91600000 1636261274 1636261274 9.00000000
-2.54860377 -4.61488390 -0.46122819 3 10 20891 5.29200000 1636261277 1636261277 -5.00000000
-6.99617386 -12.66309738 2.81214309 78 11 20892 14.73800000 1636261279 1636261279 11.00000000
-3.72356343 -6.73688364 -0.40340555 4 12 20893 7.70800000 1636261281 1636261281 -3.00000000
-5.01572418 -9.07099533 2.39302921 13 13 20894 10.63800000 1636261284 1636261284 13.00000000
-7.06696606 -12.77542400 -0.25484005 9 14 20895 14.60200000 1636261286 1636261286 -1.00000000
-4.47728491 -8.09388542 2.47845125 63 15 20895 9.57600000 1636261288 1636261288 15.00000000
-0.93840230 -1.69083405 -0.51815575 5 0 20903 2.00200000 1636261309 1636261309 -15.00000000
-28.13551712 -50.67435074 1.01171601 14 1 20904 57.97000000 1636261311 1636261311 1.00000000
-1.07683814 -1.93867564 -0.51198858 4 2 20905 2.27600000 1636261313 1636261313 -13.00000000
-26.00404358 -46.79689789 2.80573058 12 3 20906 53.61000000 1636261316 1636261316 3.00000000
-1.26161575 -2.27040458 -0.50488061 3 4 20906 2.64600000 1636261318 1636261318 -11.00000000
-18.66318703 -33.57248306 3.36055112 53 5 20907 38.55800000 1636261320 1636261320 5.00000000
-1.50734603 -2.71039224 -0.49120423 2 6 20908 3.14000000 1636261323 1636261323 -9.00000000
-11.49165821 -20.65491867 2.90219665 54 7 20909 23.81400000 1636261325 1636261325 7.00000000
-1.89415526 -3.40312529 -0.47821531 3 8 20910 3.92400000 1636261327 1636261327 -7.00000000
-9.10256195 -16.34736061 2.96349454 89 9 20911 18.94400000 1636261330 1636261330 9.00000000
-2.55888152 -4.59551477 -0.46018231 3 10 20911 5.28000000 1636261332 1636261332 -5.00000000
-7.05562019 -12.66604137 2.81824875 81 11 20912 14.77000000 1636261334 1636261334 11.00000000
-3.72955632 -6.69244146 -0.40152144 4 12 20913 7.67200000 1636261336 1636261336 -3.00000000
-5.05020428 -9.05853844 2.39437914 16 13 20914 10.64400000 1636261339 1636261339 13.00000000
-7.09885502 -12.72797394 -0.25438628 9 14 20915 14.57600000 1636261341 1636261341 -1.00000000
-4.50692034 -8.07742119 2.47845125 63 15 20916 9.57600000 1636261343 1636261343 15.00000000
-0.95184553 -1.70103502 -0.52229685 5 0 20923 2.01800000 1636261364 1636261364 -15.00000000
-28.38256073 -50.70146561 1.01422918 14 1 20924 58.11400000 1636261366 1636261366 1.00000000
-1.08169448 -1.93150437 -0.51108879 4 2 20925 2.27200000 1636261369 1636261369 -13.00000000
-25.97199631 -46.35735703 2.78479624 12 3 20926 53.21000000 1636261371 1636261371 3.00000000
-1.26185656 -2.25228477 -0.50182766 3 4 20926 2.63000000 1636261373 1636261373 -11.00000000
-18.77928734 -33.50539398 3.36037683 42 5 20927 38.55600000 1636261376 1636261376 5.00000000
-1.51293337 -2.69822216 -0.48995274 2 6 20928 3.13200000 1636261378 1636261378 -9.00000000
-11.58699608 -20.65623093 2.90804625 51 7 20929 23.86200000 1636261380 1636261380 7.00000000
-1.89922261 -3.38437486 -0.47650912 3 8 20930 3.91000000 1636261383 1636261383 -7.00000000
-9.15865517 -16.32053185 2.96412015 89 9 20930 18.94800000 1636261385 1636261385 9.00000000
-2.55149889 -4.54485893 -0.45599884 3 10 20931 5.23200000 1636261387 1636261387 -5.00000000
