# .PCD v0.7 - Point Cloud Data file format
VERSION 0.7
FIELDS x y z intensity laser_id azimuth distance_m adjustedtime timestamp vertical_angle
SIZE 4 4 4 1 1 2 8 8 4 8
TYPE F F F U U U F U U F
COUNT 1 1 1 1 1 1 1 1 1 1
WIDTH 517
HEIGHT 1
VIEWPOINT 0 0 0 1 0 0 0
POINTS 517
DATA ascii
-10.02229214 -15.97070980 2.98633385 85 9 21211 19.09000000 1636462054 1636462054 9.00000000
-2.75428915 -4.38731050 -0.45320988 3 10 21212 5.20000000 1636462057 1636462057 -5.00000000
-7.86447191 -12.52247238 2.87434673 55 11 21213 15.06400000 1636462059 1636462059 11.00000000
-4.02270651 -6.40280962 -0.39628786 4 12 21214 7.57200000 1636462061 1636462061 -3.00000000
-6.55382729 -10.42747021 2.84338140 46 13 21215 12.64000000 1636462064 1636462064 13.00000000
-7.56478071 -12.03594780 -0.24813831 9 14 21215 14.21800000 1636462066 1636462066 -1.00000000
-4.93890762 -7.85500860 2.48621583 58 15 21216 9.60600000 1636462068 1636462068 15.00000000
-1.03384209 -1.64107811 -0.51970863 5 0 21221 2.00800000 1636462089 1636462089 -15.00000000
-1.18064559 -1.87265813 -0.51108879 4 2 21223 2.27200000 1636462094 1636462094 -13.00000000
-1.37724054 -2.18363857 -0.50182766 3 4 21224 2.63000000 1636462098 1636462098 -11.00000000
-13.06845951 -20.71225548 2.14263678 30 5 21225 24.58400000 1636462100 1636462100 5.00000000
-1.64799786 -2.61090875 -0.48901415 1 6 21226 3.12600000 1636462103 1636462103 -9.00000000
-10.33999443 -16.37523079 2.37791467 9 7 21227 19.51200000 1636462105 1636462105 7.00000000
-2.06093740 -3.26260138 -0.47382802 1 8 21228 3.88800000 1636462107 1636462107 -7.00000000
-10.07030582 -15.93580532 2.98570824 89 9 21229 19.08600000 1636462110 1636462110 9.00000000
-2.75954151 -4.36516333 -0.45181537 3 10 21230 5.18400000 1636462112 1636462112 -5.00000000
-7.90578842 -12.50572014 2.87587309 55 11 21230 15.07200000 1636462114 1636462114 11.00000000
-4.04809141 -6.40097380 -0.39691588 4 12 21231 7.58400000 1636462117 1636462117 -3.00000000
-6.58265352 -10.40468502 2.84248161 45 13 21232 12.63600000 1636462119 1636462119 13.00000000
-7.59079123 -11.99353695 -0.24775437 9 14 21233 14.19600000 1636462121 1636462121 -1.00000000
-4.96976089 -7.84924698 2.48932147 58 15 21234 9.61800000 1636462123 1636462123 15.00000000
-1.03674293 -1.63238561 -0.51815575 4 0 21242 2.00200000 1636462144 1636462144 -15.00000000
-1.19031036 -1.87345994 -0.51243848 4 2 21243 2.27800000 1636462149 1636462149 -13.00000000
-1.38102114 -2.17194915 -0.50030118 3 4 21245 2.62200000 1636462153 1636462153 -11.00000000
-13.16674232 -20.69952202 2.14629722 30 5 21246 24.62600000 1636462156 1636462156 5.00000000
-1.67028224 -2.62484980 -0.49276856 3 6 21247 3.15000000 1636462158 1636462158 -9.00000000
-10.35766029 -16.27707100 2.36889625 6 7 21247 19.43800000 1636462160 1636462160 7.00000000
-2.07551146 -3.26041126 -0.47455922 1 8 21248 3.89400000 1636462163 1636462163 -7.00000000
-10.12480927 -15.89889050 2.98539543 89 9 21249 19.08400000 1636462165 1636462165 9.00000000
-2.78118515 -4.36558628 -0.45286125 3 10 21250 5.19600000 1636462167 1636462167 -5.00000000
-7.96423292 -12.49652767 2.88045263 55 11 21251 15.09600000 1636462170 1636462170 11.00000000
-4.06937790 -6.38272572 -0.39670655 4 12 21252 7.58000000 1636462172 1636462172 -3.00000000
-6.62074423 -10.38048840 2.84248161 45 13 21253 12.63600000 1636462174 1636462174 13.00000000
-7.62293243 -11.95179272 -0.24744022 9 14 21253 14.17800000 1636462176 1636462176 -1.00000000
-4.99297333 -7.82533693 2.48725104 58 15 21254 9.61000000 1636462179 1636462179 15.00000000
-1.03751051 -1.62044013 -0.51556754 5 0 21263 1.99200000 1636462200 1636462200 -15.00000000
-9.49234772 -14.81996536 0.30719727 3 1 21264 17.60200000 1636462202 1636462202 1.00000000
-1.19539237 -1.86559403 -0.51153868 4 2 21265 2.27400000 1636462204 1636462204 -13.00000000
-1.39321029 -2.17348433 -0.50182766 3 4 21266 2.63000000 1636462209 1636462209 -11.00000000
-13.27586174 -20.70311546 2.15170097 30 5 21267 24.68800000 1636462211 1636462211 5.00000000
-1.67455852 -2.61039686 -0.49120423 2 6 21268 3.14000000 1636462213 1636462213 -9.00000000
-10.53801823 -16.42095375 2.39570761 6 7 21269 19.65800000 1636462216 1636462216 7.00000000
-2.08050823 -3.24072456 -0.47285306 1 8 21270 3.88000000 1636462218 1636462218 -7.00000000
-10.19538879 -15.87485600 2.98821115 85 9 21271 19.10200000 1636462220 1636462220 9.00000000
-2.78069592 -4.32805490 -0.45007226 3 10 21272 5.16400000 1636462223 1636462223 -5.00000000
-8.00679779 -12.46229839 2.87930775 48 11 21272 15.09000000 1636462225 1636462225 11.00000000
-4.10678291 -6.38960981 -0.39806730 4 12 21273 7.60600000 1636462227 1636462227 -3.00000000
-6.66296196 -10.36270905 2.84428120 46 13 21274 12.64400000 1636462229 1636462229 13.00000000
-7.67309523 -11.92916203 -0.24757984 9 14 21275 14.18600000 1636462232 1636462232 -1.00000000
-5.01671124 -7.79636049 2.48414516 56 15 21276 9.59800000 1636462234 1636462234 15.00000000
-1.04134750 -1.61338031 -0.51453227 4 0 21284 1.98800000 1636462255 1636462255 -15.00000000
-9.48979950 -14.70273495 0.30545202 3 1 21284 17.50200000 1636462257 1636462257 1.00000000
-1.20189726 -1.86141002 -0.51153868 4 2 21285 2.27400000 1636462259 1636462259 -13.00000000
-1.40116715 -2.16836333 -0.50182766 3 4 21287 2.63000000 1636462264 1636462264 -11.00000000
-13.37761211 -20.69447708 2.15588450 30 5 21288 24.73600000 1636462266 1636462266 5.00000000
-1.68626022 -2.60755920 -0.49182996 3 6 21289 3.14400000 1636462269 1636462269 -9.00000000
-10.62869072 -16.43574333 2.40326357 6 7 21289 19.72000000 1636462271 1636462271 7.00000000
-2.10474682 -3.25344324 -0.47577792 1 8 21290 3.90400000 1636462273 1636462273 -7.00000000
-10.25288677 -15.84248734 2.98883700 89 9 21291 19.10600000 1636462276 1636462276 9.00000000
-2.80661464 -4.33504725 -0.45181537 3 10 21292 5.18400000 1636462278 1636462278 -5.00000000
-8.05135345 -12.43122005 2.87892604 55 11 21293 15.08800000 1636462280 1636462280 11.00000000
-4.12039995 -6.35942936 -0.39712524 4 12 21294 7.58800000 1636462282 1636462282 -3.00000000
-6.70513821 -10.34475994 2.84608078 46 13 21295 12.65200000 1636462285 1636462285 13.00000000
-7.74187994 -11.94425678 -0.24845245 11 14 21295 14.23600000 1636462287 1636462287 -1.00000000
-5.05230331 -7.79176855 2.48828626 58 15 21296 9.61400000 1636462289 1636462289 15.00000000
-1.05511606 -1.62287521 -0.51867336 5 0 21303 2.00400000 1636462310 1636462310 -15.00000000
-9.53234196 -14.65610886 0.30517277 3 1 21304 17.48600000 1636462312 1636462312 1.00000000
-1.20307350 -1.84903610 -0.50928921 4 2 21305 2.26400000 1636462315 1636462315 -13.00000000
-1.41049206 -2.16699576 -0.50259089 3 4 21306 2.63400000 1636462319 1636462319 -11.00000000
-13.47116947 -20.68840218 2.15989351 30 5 21307 24.78200000 1636462322 1636462322 5.00000000
-1.69166338 -2.59698749 -0.49089134 2 6 21308 3.13800000 1636462324 1636462324 -9.00000000
-10.63072491 -16.31372261 2.39083266 9 7 21309 19.61800000 1636462326 1636462326 7.00000000
-2.11175442 -3.23942471 -0.47480297 1 8 21310 3.89600000 1636462328 1636462328 -7.00000000
-10.31615353 -15.82494831 2.99196553 89 9 21310 19.12600000 1636462331 1636462331 9.00000000
-2.82750487 -4.33572912 -0.45286125 3 10 21311 5.19600000 1636462333 1636462333 -5.00000000
-8.09145927 -12.40280819 2.87854457 48 11 21312 15.08600000 1636462335 1636462335 11.00000000
-4.13054991 -6.32900476 -0.39607853 4 12 21313 7.56800000 1636462338 1636462338 -3.00000000
-6.73727512 -10.31920433 2.84518099 47 13 21314 12.64800000 1636462340 1636462340 13.00000000
-7.77805853 -11.90878868 -0.24827793 11 14 21315 14.22600000 1636462342 1636462342 -1.00000000
-5.07494497 -7.77011919 2.48673344 60 15 21315 9.60800000 1636462345 1636462345 15.00000000
-1.06077445 -1.61918235 -0.51867336 4 0 21323 2.00400000 1636462365 1636462365 -15.00000000
-1.21379447 -1.85134423 -0.51108879 4 2 21325 2.27200000 1636462370 1636462370 -13.00000000
-9.66449451 -14.73519516 0.92352027 2 3 21326 17.64600000 1636462372 1636462372 3.00000000
-1.41804767 -2.16205907 -0.50259089 3 4 21326 2.63400000 1636462375 1636462375 -11.00000000
-13.58265114 -20.70122337 2.16616893 30 5 21327 24.85400000 1636462377 1636462377 5.00000000
-1.69746649 -2.58611250 -0.48995274 2 6 21328 3.13200000 1636462379 1636462379 -9.00000000
-10.63421631 -16.19520760 2.37888956 9 7 21329 19.52000000 1636462381 1636462381 7.00000000
-2.12195921 -3.23037434 -0.47455922 1 8 21330 3.89400000 1636462384 1636462384 -7.00000000
-10.37083149 -15.78207874 2.99102688 46 9 21331 19.12000000 1636462386 1636462386 9.00000000
-2.82949233 -4.30585241 -0.45076951 3 10 21331 5.17200000 1636462388 1636462388 -5.00000000
-8.14333153 -12.38761234 2.88159752 52 11 21332 15.10200000 1636462391 1636462391 11.00000000
-4.15481186 -6.31788540 -0.39628786 4 12 21333 7.57200000 1636462393 1636462393 -3.00000000
-6.76682854 -10.28585529 2.84248161 46 13 21334 12.63600000 1636462395 1636462395 13.00000000
-7.78660059 -11.83145332 -0.24723078 9 14 21335 14.16600000 1636462398 1636462398 -1.00000000
-5.10976362 -7.76114798 2.48983932 60 15 21336 9.62000000 1636462400 1636462400 15.00000000
-1.06294608 -1.61081851 -0.51712048 4 0 21342 1.99800000 1636462421 1636462421 -15.00000000
-1.21992707 -1.84730887 -0.51108879 4 2 21344 2.27200000 1636462425 1636462425 -13.00000000
-9.65680885 -14.62309456 0.91839135 2 3 21344 17.54800000 1636462428 1636462428 3.00000000
-1.42304516 -2.15406847 -0.50182766 3 4 21345 2.63000000 1636462430 1636462430 -11.00000000
-13.67868710 -20.69762230 2.17052650 22 5 21346 24.90400000 1636462432 1636462432 5.00000000
-1.71256948 -2.59035611 -0.49182996 3 6 21347 3.14400000 1636462434 1636462434 -9.00000000
-10.64077568 -16.08865738 2.36840892 9 7 21348 19.43400000 1636462437 1636462437 7.00000000
-2.13046932 -3.22000885 -0.47407174 1 8 21349 3.89000000 1636462439 1636462439 -7.00000000
-10.43074131 -15.75913143 2.99321699 76 9 21350 19.13400000 1636462441 1636462441 9.00000000
-2.83495808 -4.28315449 -0.44937500 3 10 21350 5.15600000 1636462444 1636462444 -5.00000000
-8.18870163 -12.36708832 2.88312387 48 11 21351 15.11000000 1636462446 1636462446 11.00000000
-4.17794609 -6.30740309 -0.39649719 4 12 21352 7.57600000 1636462448 1636462448 -3.00000000
-6.80520582 -10.26985741 2.84428120 44 13 21353 12.64400000 1636462451 1636462451 13.00000000
-7.81584835 -11.79056644 -0.24691665 9 14 21354 14.14800000 1636462453 1636462453 -1.00000000
-5.12985134 -7.73861599 2.48776865 65 15 21354 9.61200000 1636462455 1636462455 15.00000000
-1.06214452 -1.59744608 -0.51401460 4 0 21362 1.98600000 1636462476 1636462476 -15.00000000
-9.55650043 -14.36736393 0.30119362 3 1 21363 17.25800000 1636462478 1636462478 1.00000000
-1.23608387 -1.85764086 -0.51513791 4 2 21364 2.29000000 1636462480 1636462480 -13.00000000
-9.69341087 -14.56768131 0.91703063 5 3 21364 17.52200000 1636462483 1636462483 3.00000000
-1.42946768 -2.14745378 -0.50144607 4 4 21365 2.62800000 1636462485 1636462485 -11.00000000
-18.46514511 -27.72923660 2.91466236 29 5 21366 33.44200000 1636462487 1636462487 5.00000000
-1.72379148 -2.58765030 -0.49245569 3 6 21367 3.14800000 1636462490 1636462490 -9.00000000
-10.63852596 -15.96386623 2.35549068 6 7 21368 19.32800000 1636462492 1636462492 7.00000000
-2.14720178 -3.22081089 -0.47529045 1 8 21369 3.90000000 1636462494 1636462494 -7.00000000
-10.49774456 -15.74070358 2.99665856 80 9 21370 19.15600000 1636462497 1636462497 9.00000000
-2.84768081 -4.26991701 -0.44902638 3 10 21370 5.15200000 1636462499 1636462499 -5.00000000
-8.22964191 -12.33516216 2.88236070 45 11 21371 15.10600000 1636462501 1636462501 11.00000000
-4.19550228 -6.28613567 -0.39607853 4 12 21372 7.56800000 1636462504 1636462504 -3.00000000
-6.84317732 -10.24928188 2.84518099 44 13 21373 12.64800000 1636462506 1636462506 13.00000000
-7.84473991 -11.74491978 -0.24653269 9 14 21374 14.12600000 1636462508 1636462508 -1.00000000
-5.15039492 -7.71102333 2.48466277 63 15 21374 9.60000000 1636462510 1636462510 15.00000000
-1.07336998 -1.60156620 -0.51660281 5 0 21383 1.99600000 1636462531 1636462531 -15.00000000
-9.59350586 -14.30898762 0.30070496 11 1 21384 17.23000000 1636462533 1636462533 1.00000000
-1.23202932 -1.83691370 -0.51063889 4 2 21385 2.27000000 1636462536 1636462536 -13.00000000
-9.72256756 -14.49054909 0.91451848 8 3 21386 17.47400000 1636462538 1636462538 3.00000000
-1.43951666 -2.14546061 -0.50220925 4 4 21386 2.63200000 1636462540 1636462540 -11.00000000
-18.61440086 -27.73250580 2.92215776 29 5 21387 33.52800000 1636462543 1636462543 5.00000000
-1.71784747 -2.55835533 -0.48807552 2 6 21388 3.12000000 1636462545 1636462545 -9.00000000
-10.65268993 -15.85885239 2.34574103 6 7 21389 19.24800000 1636462547 1636462547 7.00000000
-2.16231370 -3.21786237 -0.47602165 3 8 21390 3.90600000 1636462550 1636462550 -7.00000000
-10.55813408 -15.71216106 2.99822307 85 9 21390 19.16600000 1636462552 1636462552 9.00000000
-2.86553478 -4.26275826 -0.44937500 3 10 21391 5.15600000 1636462554 1636462554 -5.00000000
-8.26931953 -12.29677105 2.88045263 52 11 21392 15.09600000 1636462557 1636462557 11.00000000
-9.63658428 -14.32454395 -0.90478402 56 12 21393 17.28800000 1636462559 1636462559 -3.00000000
-6.88069677 -10.22413158 2.84518099 43 13 21394 12.64800000 1636462561 1636462561 13.00000000
-7.88103390 -11.70613575 -0.24632326 9 14 21395 14.11400000 1636462563 1636462563 -1.00000000
-5.18212318 -7.69439554 2.48569822 60 15 21396 9.60400000 1636462566 1636462566 15.00000000
-1.08003509 -1.59941077 -0.51712048 5 0 21403 1.99800000 1636462586 1636462586 -15.00000000
-9.64899158 -14.28369808 0.30087948 22 1 21404 17.24000000 1636462589 1636462589 1.00000000
-1.23188698 -1.82291412 -0.50793946 4 2 21405 2.25800000 1636462591 1636462591 -13.00000000
-9.74596405 -14.42182159 0.91221571 8 3 21405 17.43000000 1636462593 1636462593 3.00000000
-1.44479787 -2.13716984 -0.50144607 4 4 21406 2.62800000 1636462596 1636462596 -11.00000000
-18.75127220 -27.72677422 2.92843294 29 5 21407 33.60000000 1636462598 1636462598 5.00000000
-1.74005020 -2.57197690 -0.49182996 3 6 21408 3.14400000 1636462600 1636462600 -9.00000000
-10.65568829 -15.74430466 2.33428550 6 7 21409 19.15400000 1636462603 1636462603 7.00000000
-2.15906501 -3.18892574 -0.47285306 3 8 21410 3.88000000 1636462605 1636462605 -7.00000000
-10.61675930 -15.67499352 2.99853587 76 9 21411 19.16800000 1636462607 1636462607 9.00000000
-2.88039708 -4.25272989 -0.44937500 3 10 21411 5.15600000 1636462610 1636462610 -5.00000000
-8.31439495 -12.27108097 2.88121581 52 11 21412 15.10000000 1636462612 1636462612 11.00000000
-6.91415644 -10.19682503 2.84428120 45 13 21414 12.64400000 1636462616 1636462616 13.00000000
-7.92409325 -11.68186474 -0.24639307 9 14 21415 14.11800000 1636462619 1636462619 -1.00000000
-5.21545839 -7.68585062 2.48880386 45 15 21416 9.61600000 1636462621 1636462621 15.00000000
-1.08669817 -1.59722817 -0.51763809 4 0 21423 2.00000000 1636462642 1636462642 -15.00000000
-9.70554352 -14.25984859 0.30108893 41 1 21424 17.25200000 1636462644 1636462644 1.00000000
-1.24372649 -1.82665694 -0.51018900 4 2 21425 2.26800000 1636462646 1636462646 -13.00000000
-9.77601242 -14.35799789 0.91033161 8 3 21425 17.39400000 1636462649 1636462649 3.00000000
-1.45114398 -2.13049102 -0.50106442 3 4 21426 2.62600000 1636462651 1636462651 -11.00000000
-18.90067291 -27.73853683 2.93662548 10 5 21427 33.69400000 1636462653 1636462653 5.00000000
-1.75013006 -2.56751943 -0.49214283 3 6 21428 3.14600000 1636462656 1636462656 -9.00000000
-10.67255688 -15.65125084 2.32599831 4 7 21429 19.08600000 1636462658 1636462658 7.00000000
-2.17913270 -3.19448900 -0.47480297 1 8 21430 3.89600000 1636462660 1636462660 -7.00000000
-10.66868114 -15.63970089 2.99853587 76 9 21430 19.16800000 1636462663 1636462663 9.00000000
-2.91768527 -4.27556372 -0.45286125 3 10 21431 5.19600000 1636462665 1636462665 -5.00000000
-8.35939217 -12.24522686 2.88197899 19 11 21432 15.10400000 1636462667 1636462667 11.00000000
-9.73072147 -14.24867249 -0.90426064 67 12 21433 17.27800000 1636462669 1636462669 -3.00000000
-6.94970798 -10.17262840 2.84428120 44 13 21434 12.64400000 1636462672 1636462672 13.00000000
-7.92645931 -11.59800053 -0.24520631 9 14 21435 14.05000000 1636462674 1636462674 -1.00000000
-5.93133736 -8.67548561 2.81595111 47 15 21436 10.88000000 1636462676 1636462676 15.00000000
-1.09008241 -1.59023833 -0.51660281 4 0 21443 1.99600000 1636462697 1636462697 -15.00000000
-9.75526047 -14.22588348 0.30108893 26 1 21444 17.25200000 1636462699 1636462699 1.00000000
-1.25560701 -1.83033931 -0.51243848 4 2 21445 2.27800000 1636462702 1636462702 -13.00000000
-9.83285141 -14.33366776 0.91095966 16 3 21445 17.40600000 1636462704 1636462704 3.00000000
-1.44857407 -2.11084390 -0.49762985 4 4 21446 2.60800000 1636462706 1636462706 -11.00000000
-19.04361534 -27.73973846 2.94377232 10 5 21447 33.77600000 1636462709 1636462709 5.00000000
-1.75572681 -2.55650973 -0.49120423 2 6 21448 3.14000000 1636462711 1636462711 -9.00000000
-12.87075138 -18.73406410 2.79080796 11 7 21449 22.90000000 1636462713 1636462713 7.00000000
-2.19364333 -3.19177079 -0.47553417 1 8 21450 3.90200000 1636462716 1636462716 -7.00000000
-10.72320843 -15.60236549 2.99853587 80 9 21450 19.16800000 1636462718 1636462718 9.00000000
-2.92581940 -4.25550222 -0.45181537 3 10 21451 5.18400000 1636462720 1636462720 -5.00000000
-8.41098595 -12.22891331 2.88503194 32 11 21452 15.12000000 1636462722 1636462722 11.00000000
-7.95101833 -11.54720306 -0.24471764 9 14 21455 14.02200000 1636462729 1636462729 -1.00000000
-5.96268034 -8.65631962 2.81646895 49 15 21456 10.88200000 1636462732 1636462732 15.00000000
-1.09452891 -1.58483398 -0.51608515 4 0 21463 1.99400000 1636462752 1636462752 -15.00000000
-9.81622505 -14.20819664 0.30143797 15 1 21464 17.27200000 1636462755 1636462755 1.00000000
-1.26309645 -1.82754838 -0.51288843 4 2 21465 2.28000000 1636462757 1636462757 -13.00000000
-1.46151602 -2.11384869 -0.49953794 3 4 21466 2.61800000 1636462762 1636462762 -11.00000000
-19.18226433 -27.73372269 2.95022178 10 5 21467 33.85000000 1636462764 1636462764 5.00000000
-1.76239204 -2.54711652 -0.49057847 2 6 21468 3.13600000 1636462766 1636462766 -9.00000000
-12.91008186 -18.65148163 2.78520203 38 7 21469 22.85400000 1636462768 1636462768 7.00000000
-2.20251107 -3.18083000 -0.47504669 1 8 21470 3.89800000 1636462771 1636462771 -7.00000000
-10.77760601 -15.56483936 2.99853587 85 9 21470 19.16800000 1636462773 1636462773 9.00000000
-2.93384886 -4.23543644 -0.45076951 3 10 21471 5.17200000 1636462775 1636462775 -5.00000000
-8.44691181 -12.18979645 2.88274240 48 11 21472 15.10800000 1636462778 1636462778 11.00000000
-7.98101902 -11.50459099 -0.24440350 9 14 21475 14.00400000 1636462785 1636462785 -1.00000000
-5.98474598 -8.62697506 2.81336308 49 15 21475 10.87000000 1636462787 1636462787 15.00000000
-1.09564090 -1.57466066 -0.51401460 4 0 21483 1.98600000 1636462808 1636462808 -15.00000000
-9.86461830 -14.17220402 0.30140305 11 1 21484 17.27000000 1636462810 1636462810 1.00000000
-1.26055944 -1.81033432 -0.50928921 4 2 21485 2.26400000 1636462812 1636462812 -13.00000000
-1.46664155 -2.10551238 -0.49877471 3 4 21486 2.61400000 1636462817 1636462817 -11.00000000
-1.76336491 -2.52960563 -0.48838839 2 6 21488 3.12200000 1636462821 1636462821 -9.00000000
-12.97056770 -18.59979057 2.78422713 44 7 21489 22.84600000 1636462824 1636462824 7.00000000
-2.20905781 -3.16661000 -0.47407174 3 8 21490 3.89000000 1636462826 1636462826 -7.00000000
-10.83639240 -15.53360367 2.99978733 80 9 21490 19.17600000 1636462828 1636462828 9.00000000
-2.94633508 -4.22190189 -0.45042089 3 10 21491 5.16800000 1636462831 1636462831 -5.00000000
-8.48603916 -12.15540791 2.88159752 45 11 21492 15.10200000 1636462833 1636462833 11.00000000
-4.31816196 -6.18303823 -0.39524114 4 12 21493 7.55200000 1636462835 1636462835 -3.00000000
-7.06254864 -10.10887909 2.84698057 44 13 21494 12.65600000 1636462838 1636462838 13.00000000
-8.02112865 -11.47666264 -0.24440350 9 14 21495 14.00400000 1636462840 1636462840 -1.00000000
-6.02075291 -8.61131573 2.81543350 49 15 21496 10.87800000 1636462842 1636462842 15.00000000
-1.10889304 -1.58189988 -0.51763809 4 0 21503 2.00000000 1636462863 1636462863 -15.00000000
-9.94158363 -14.17697716 0.30224079 3 1 21504 17.31800000 1636462865 1636462865 1.00000000
-1.26687109 -1.80592310 -0.50928921 4 2 21505 2.26400000 1636462868 1636462868 -13.00000000
-1.48300433 -2.11323619 -0.50182766 3 4 21506 2.63000000 1636462872 1636462872 -11.00000000
-20.07143974 -28.59057999 3.05620337 91 5 21507 35.06600000 1636462874 1636462874 5.00000000
-1.77672529 -2.52990127 -0.48963988 2 6 21508 3.13000000 1636462877 1636462877 -9.00000000
-13.02628422 -18.54140663 2.78227711 35 7 21509 22.83000000 1636462879 1636462879 7.00000000
-2.22466373 -3.16537619 -0.47504669 1 8 21510 3.89800000 1636462881 1636462881 -7.00000000
-10.88146210 -15.48275375 2.99728441 80 9 21510 19.16000000 1636462884 1636462884 9.00000000
-2.97480536 -4.23114967 -0.45251262 3 10 21511 5.19200000 1636462886 1636462886 -5.00000000
-8.52841759 -12.12571144 2.88159752 48 11 21512 15.10200000 1636462888 1636462888 11.00000000
-4.33282280 -6.15812683 -0.39461312 4 12 21513 7.54000000 1636462891 1636462891 -3.00000000
-7.10003567 -10.08735180 2.84788036 43 13 21514 12.66000000 1636462893 1636462893 13.00000000
-8.04847717 -11.43060780 -0.24401955 9 14 21515 13.98200000 1636462895 1636462895 -1.00000000
-6.04927588 -8.59130287 2.81543350 49 15 21515 10.87800000 1636462898 1636462898 15.00000000
-1.11775136 -1.58275354 -0.51919103 4 0 21523 2.00600000 1636462918 1636462918 -15.00000000
-10.04524040 -14.21895027 0.30388129 7 1 21524 17.41200000 1636462921 1636462921 1.00000000
-1.27541661 -1.80467272 -0.51018900 4 2 21525 2.26800000 1636462923 1636462923 -13.00000000
-10.05755901 -14.22584820 0.91305310 2 3 21526 17.44600000 1636462925 1636462925 3.00000000
-1.49150527 -2.10964966 -0.50220925 3 4 21526 2.63200000 1636462927 1636462927 -11.00000000
-20.22633934 -28.59842300 3.06457019 100 5 21527 35.16200000 1636462930 1636462930 5.00000000
-1.80265939 -2.54787254 -0.49433291 3 6 21528 3.16000000 1636462932 1636462932 -9.00000000
-13.10010147 -18.50878525 2.78422713 41 7 21529 22.84600000 1636462934 1636462934 7.00000000
-2.21849275 -3.13328981 -0.47139063 1 8 21530 3.86800000 1636462937 1636462937 -7.00000000
-10.96325493 -15.47823143 3.00416756 72 9 21531 19.20400000 1636462939 1636462939 9.00000000
-2.97113109 -4.19472647 -0.44972363 3 10 21531 5.16000000 1636462941 1636462941 -5.00000000
-6.37552404 -8.99781418 2.14354825 46 11 21532 11.23400000 1636462944 1636462944 11.00000000
-4.35891247 -6.14948273 -0.39503181 4 12 21533 7.54800000 1636462946 1636462946 -3.00000000
-6.36306906 -8.97359371 2.53969741 15 13 21534 11.29000000 1636462948 1636462948 13.00000000
-8.06750298 -11.37308502 -0.24339126 6 14 21535 13.94600000 1636462951 1636462951 -1.00000000
-6.08296013 -8.57222366 2.81646895 49 15 21536 10.88200000 1636462953 1636462953 15.00000000
-1.11878979 -1.57254565 -0.51712048 5 0 21543 1.99800000 1636462974 1636462974 -15.00000000
-10.08089828 -14.16424942 0.30346245 7 1 21544 17.38800000 1636462976 1636462976 1.00000000
-1.28170836 -1.80020976 -0.51018900 4 2 21545 2.26800000 1636462978 1636462978 -13.00000000
-10.11178970 -14.19716167 0.91347176 2 3 21546 17.45400000 1636462980 1636462980 3.00000000
-1.48519278 -2.08524132 -0.49762985 3 4 21546 2.60800000 1636462983 1636462983 -11.00000000
-1.80236971 -2.52869582 -0.49182996 3 6 21548 3.14400000 1636462987 1636462987 -9.00000000
-13.16232395 -18.45971298 2.78373957 33 7 21549 22.84200000 1636462990 1636462990 7.00000000
-2.24209666 -3.14330363 -0.47407174 1 8 21550 3.89000000 1636462992 1636462992 -7.00000000
-11.00763988 -15.43214130 3.00229025 76 9 21550 19.19200000 1636462994 1636462994 9.00000000
-2.99732804 -4.20054770 -0.45146674 3 10 21551 5.18000000 1636462997 1636462997 -5.00000000
-8.61514378 -12.06907272 2.88236070 45 11 21552 15.10600000 1636462999 1636462999 11.00000000
-4.38035154 -6.13422966 -0.39503181 4 12 21553 7.54800000 1636463001 1636463001 -3.00000000
-7.16122293 -10.02485371 2.84428120 43 13 21554 12.64400000 1636463004 1636463004 13.00000000
-7.91880417 -11.08128643 -0.23773669 6 14 21555 13.62200000 1636463006 1636463006 -1.00000000
-6.10686016 -8.54571819 2.81439829 49 15 21555 10.87400000 1636463008 1636463008 15.00000000
-1.11864519 -1.56077981 -0.51453227 4 0 21563 1.98800000 1636463029 1636463029 -15.00000000
-10.15474796 -14.16310215 0.30419543 15 1 21564 17.43000000 1636463031 1636463031 1.00000000
-1.29025602 -1.79889178 -0.51108879 4 2 21565 2.27200000 1636463033 1636463033 -13.00000000
-10.18922997 -14.20072460 0.91598392 2 3 21566 17.50200000 1636463036 1636463036 3.00000000
-1.50505233 -2.09759068 -0.50182766 3 4 21566 2.63000000 1636463038 1636463038 -11.00000000
-20.49288368 -28.55039978 3.07468033 40 5 21567 35.27800000 1636463040 1636463040 5.00000000
-1.81694639 -2.53041172 -0.49339432 1 6 21568 3.15400000 1636463043 1636463043 -9.00000000
-13.23131275 -18.42010307 2.78471446 35 7 21569 22.85000000 1636463045 1636463045 7.00000000
-2.24842167 -3.12900996 -0.47309679 1 8 21570 3.88200000 1636463047 1636463047 -7.00000000
-11.08026886 -15.41414833 3.00667048 76 9 21571 19.22000000 1636463050 1636463050 9.00000000
-2.99336553 -4.16417503 -0.44867778 3 10 21571 5.14800000 1636463052 1636463052 -5.00000000
-8.66409779 -12.04849052 2.88465047 42 11 21572 15.11800000 1636463054 1636463054 11.00000000
-4.39473915 -6.10917425 -0.39440376 4 12 21573 7.53600000 1636463056 1636463056 -3.00000000
-7.20072603 -10.00612164 2.84608078 45 13 21574 12.65200000 1636463059 1636463059 13.00000000
-7.89902067 -10.97243214 -0.23599143 9 14 21575 13.52200000 1636463061 1636463061 -1.00000000
-6.13249588 -8.51543999 2.81181002 49 15 21576 10.86400000 1636463063 1636463063 15.00000000
-1.12381470 -1.55706167 -0.51453227 4 0 21582 1.98800000 1636463084 1636463084 -15.00000000
-10.23443508 -14.17474556 0.30517277 15 1 21583 17.48600000 1636463086 1636463086 1.00000000
-1.29735529 -1.79618299 -0.51153868 4 2 21584 2.27400000 1636463089 1636463089 -13.00000000
-10.25498104 -14.19275951 0.91765863 2 3 21585 17.53400000 1636463091 1636463091 3.00000000
-1.50970030 -2.08940554 -0.50106442 3 4 21585 2.62600000 1636463093 1636463093 -11.00000000
-20.62479782 -28.53395653 3.08025837 20 5 21586 35.34200000 1636463096 1636463096 5.00000000
-1.80565059 -2.49715996 -0.48807552 2 6 21587 3.12000000 1636463098 1636463098 -9.00000000
-13.28417969 -18.36486626 2.78300834 33 7 21588 22.83600000 1636463100 1636463100 7.00000000
-2.26576781 -3.13118601 -0.47455922 1 8 21589 3.89400000 1636463103 1636463103 -7.00000000
-11.14485168 -15.40166759 3.01105070 63 9 21589 19.24800000 1636463105 1636463105 9.00000000
-3.01884079 -4.17036486 -0.45042089 3 10 21590 5.16800000 1636463107 1636463107 -5.00000000
-8.69364071 -12.00538254 2.88121581 35 11 21591 15.10000000 1636463109 1636463109 11.00000000
-4.41028690 -6.08809710 -0.39398509 4 12 21592 7.52800000 1636463112 1636463112 -3.00000000
-7.24072886 -9.99165630 2.84878016 44 13 21593 12.66400000 1636463114 1636463114 13.00000000
-7.90484715 -10.90408325 -0.23508391 9 14 21594 13.47000000 1636463116 1636463116 -1.00000000
-6.17169046 -8.51333714 2.81750417 35 15 21594 10.88600000 1636463119 1636463119 15.00000000
-1.13719547 -1.56406689 -0.51815575 4 0 21602 2.00200000 1636463139 1636463139 -15.00000000
-10.30031967 -14.16157436 0.30566144 45 1 21603 17.51400000 1636463142 1636463142 1.00000000
-1.29444492 -1.77903736 -0.50793946 4 2 21604 2.25800000 1636463144 1636463144 -13.00000000
-10.32561684 -14.18594265 0.91954273 2 3 21605 17.57000000 1636463146 1636463146 3.00000000
-1.51929522 -2.08729744 -0.50182766 3 4 21605 2.63000000 1636463149 1636463149 -11.00000000
-17.26455879 -23.71037292 2.56603932 9 5 21606 29.44200000 1636463151 1636463151 5.00000000
-1.81668234 -2.49403524 -0.48870125 2 6 21607 3.12400000 1636463153 1636463153 -9.00000000
-13.34002018 -18.30715370 2.78130221 30 7 21608 22.82200000 1636463156 1636463156 7.00000000
-2.27668405 -3.12325788 -0.47455922 1 8 21609 3.89400000 1636463158 1636463158 -7.00000000
-9.82435131 -13.47254848 2.64092660 32 9 21610 16.88200000 1636463160 1636463160 9.00000000
-3.02868414 -4.15336275 -0.44972363 3 10 21610 5.16000000 1636463162 1636463162 -5.00000000
-8.72855282 -11.96544647 2.87892604 9 11 21611 15.08800000 1636463165 1636463165 11.00000000
-4.44799423 -6.09525251 -0.39545047 4 12 21612 7.55600000 1636463167 1636463167 -3.00000000
-7.27096605 -9.96002483 2.84698057 43 13 21613 12.65600000 1636463169 1636463169 13.00000000
-7.90630150 -10.82636166 -0.23400186 11 14 21614 13.40800000 1636463172 1636463172 -1.00000000
-1.14264810 -1.56008780 -0.51815575 4 0 21622 2.00200000 1636463195 1636463195 -15.00000000
-1.30179906 -1.77607977 -0.50838935 4 2 21624 2.26000000 1636463199 1636463199 -13.00000000
-10.39396858 -14.17558384 0.92121750 2 3 21625 17.60200000 1636463202 1636463202 3.00000000
-1.52889383 -2.08514810 -0.50259089 3 4 21625 2.63400000 1636463204 1636463204 -11.00000000
-17.29301262 -23.57606316 2.55802107 9 5 21626 29.35000000 1636463206 1636463206 5.00000000
-1.83005154 -2.49404931 -0.48995274 2 6 21627 3.13200000 1636463209 1636463209 -9.00000000
-13.40971661 -18.26847839 2.78252077 33 7 21628 22.83200000 1636463211 1636463211 7.00000000
-2.28522253 -3.11209154 -0.47407174 1 8 21629 3.89000000 1636463213 1636463213 -7.00000000
-9.88651085 -13.46377850 2.64561963 60 9 21629 16.91200000 1636463215 1636463215 9.00000000
-3.04788160 -4.14918804 -0.45042089 3 10 21630 5.16800000 1636463218 1636463218 -5.00000000
-6.36379099 -8.66008377 2.08897686 3 11 21631 10.94800000 1636463220 1636463220 11.00000000
-4.45031595 -6.05394125 -0.39377573 4 12 21632 7.52400000 1636463222 1636463222 -3.00000000
-7.30799770 -9.93772316 2.84788036 44 13 21633 12.66000000 1636463225 1636463225 13.00000000
-7.89901590 -10.73748779 -0.23267548 22 14 21634 13.33200000 1636463227 1636463227 -1.00000000
-5.12054873 -6.96059227 2.31539512 6 15 21634 8.94600000 1636463229 1636463229 15.00000000
-1.14349914 -1.54987156 -0.51608515 4 0 21642 1.99400000 1636463250 1636463250 -15.00000000
-10.45830917 -14.16976643 0.30740669 11 1 21643 17.61400000 1636463252 1636463252 1.00000000
-1.31609333 -1.78249896 -0.51153868 4 2 21644 2.27400000 1636463255 1636463255 -13.00000000
-10.47423935 -14.18098640 0.92393899 2 3 21645 17.65400000 1636463257 1636463257 3.00000000
-1.52916455 -2.07032323 -0.50030118 3 4 21645 2.62200000 1636463259 1636463259 -11.00000000
-17.25088310 -23.34730148 2.53971839 27 5 21646 29.14000000 1636463262 1636463262 5.00000000
-1.84579122 -2.49717712 -0.49182996 3 6 21647 3.14400000 1636463264 1636463264 -9.00000000
-13.47340393 -18.22155952 2.78252077 33 7 21648 22.83200000 1636463266 1636463266 7.00000000
-2.28662777 -3.09132838 -0.47212183 1 8 21649 3.87400000 1636463268 1636463268 -7.00000000
-9.94049168 -13.43380356 2.64687109 76 9 21650 16.92000000 1636463271 1636463271 9.00000000
-3.04812503 -4.11930466 -0.44832915 3 10 21650 5.14400000 1636463273 1636463273 -5.00000000
-6.37178850 -8.60783577 2.08172607 12 11 21651 10.91000000 1636463275 1636463275 11.00000000
-4.48568439 -6.05763102 -0.39503181 4 12 21652 7.54800000 1636463278 1636463278 -3.00000000
-7.34264231 -9.91215324 2.84788036 46 13 21653 12.66000000 1636463280 1636463280 13.00000000
-7.89358711 -10.65200996 -0.23141891 24 14 21654 13.26000000 1636463282 1636463282 -1.00000000
-5.14947748 -6.94643354 2.31694818 9 15 21655 8.95200000 1636463285 1636463285 15.00000000
-1.14314044 -1.53811789 -0.51349699 4 0 21662 1.98400000 1636463305 1636463305 -15.00000000
-10.53753471 -14.17329216 0.30827931 11 1 21663 17.66400000 1636463308 1636463308 1.00000000
-1.32463336 -1.78102136 -0.51243848 4 2 21664 2.27800000 1636463310 1636463310 -13.00000000
-10.54275131 -14.16997623 0.92561370 2 3 21665 17.68600000 1636463312 1636463312 3.00000000
-1.53872585 -2.06812310 -0.50106442 3 4 21665 2.62600000 1636463315 1636463315 -11.00000000
-17.23829842 -23.16067886 2.52594781 9 5 21666 28.98200000 1636463317 1636463317 5.00000000
-1.84741855 -2.48121238 -0.48995274 2 6 21667 3.13200000 1636463319 1636463319 -9.00000000
-13.52032566 -18.15212822 2.77910852 16 7 21668 22.80400000 1636463321 1636463321 7.00000000
-2.31638169 -3.10879660 -0.47602165 1 8 21669 3.90600000 1636463324 1636463324 -7.00000000
-9.99560738 -13.41502285 2.64968705 80 9 21669 16.93800000 1636463326 1636463326 9.00000000
-3.07201123 -4.12141895 -0.44972363 3 10 21670 5.16000000 1636463328 1636463328 -5.00000000
-6.41001129 -8.59655857 2.08439755 25 11 21671 10.92400000 1636463331 1636463331 11.00000000
-4.49247169 -6.02272463 -0.39377573 4 12 21672 7.52400000 1636463333 1636463333 -3.00000000
-6.74087048 -9.03369617 2.60223389 8 13 21673 11.56800000 1636463335 1636463335 13.00000000
-7.90201330 -10.58593273 -0.23058119 11 14 21674 13.21200000 1636463338 1636463338 -1.00000000
-5.17941809 -6.93860769 2.32005382 9 15 21674 8.96400000 1636463340 1636463340 15.00000000
-1.15081799 -1.53721118 -0.51453227 4 0 21682 1.98800000 1636463361 1636463361 -15.00000000
-10.58934212 -14.13962460 0.30834910 15 1 21683 17.66800000 1636463363 1636463363 1.00000000
-1.32850540 -1.77326751 -0.51153868 4 2 21684 2.27400000 1636463365 1636463365 -13.00000000
-10.63766575 -14.19382095 0.92959124 2 3 21685 17.76200000 1636463368 1636463368 3.00000000
-1.54593551 -2.06273937 -0.50106442 3 4 21685 2.62600000 1636463370 1636463370 -11.00000000
-17.25091362 -23.00949860 2.51601195 27 5 21686 28.86800000 1636463372 1636463372 5.00000000
-1.84658647 -2.46210623 -0.48744980 2 6 21687 3.11600000 1636463374 1636463374 -9.00000000
-15.43494129 -20.57236290 3.15787840 34 7 21688 25.91200000 1636463377 1636463377 7.00000000
-2.31530309 -3.08481526 -0.47358426 1 8 21689 3.88600000 1636463379 1636463379 -7.00000000
-10.04948902 -13.38952923 2.65156412 80 9 21689 16.95000000 1636463381 1636463381 9.00000000
-3.07920122 -4.10111094 -0.44867778 3 10 21690 5.14800000 1636463384 1636463384 -5.00000000
-8.92542076 -11.88322449 2.88884830 42 11 21691 15.14000000 1636463386 1636463386 11.00000000
-4.49907064 -5.98784542 -0.39251968 3 12 21692 7.50000000 1636463388 1636463388 -3.00000000
-7.90286350 -10.51033592 -0.22953404 9 14 21694 13.15200000 1636463393 1636463393 -1.00000000
-5.22218275 -6.94519091 2.32833624 9 15 21694 8.99600000 1636463395 1636463395 15.00000000
-1.15850317 -1.53626966 -0.51556754 4 0 21702 1.99200000 1636463416 1636463416 -15.00000000
-10.66994572 -14.14408112 0.30925664 7 1 21703 17.72000000 1636463418 1636463418 1.00000000
-1.32412231 -1.75461972 -0.50748956 4 2 21704 2.25600000 1636463421 1636463421 -13.00000000
-10.71843433 -14.19804764 0.93231273 2 3 21705 17.81400000 1636463423 1636463423 3.00000000
-1.55076063 -2.05419660 -0.50030118 3 4 21705 2.62200000 1636463425 1636463425 -11.00000000
-17.26028633 -22.85533524 2.50572753 18 5 21706 28.75000000 1636463427 1636463427 5.00000000
-1.86112332 -2.46352625 -0.48901415 2 6 21707 3.12600000 1636463430 1636463430 -9.00000000
-15.52102089 -20.53736496 3.16080332 34 7 21708 25.93600000 1636463432 1636463432 7.00000000
-2.32126832 -3.07038069 -0.47260931 1 8 21709 3.87800000 1636463434 1636463434 -7.00000000
-10.11041164 -13.36836052 2.65469289 80 9 21710 16.97000000 1636463437 1636463437 9.00000000
-3.09349799 -4.09033775 -0.44867778 3 10 21710 5.14800000 1636463439 1636463439 -5.00000000
-8.96329308 -11.84729958 2.88770342 45 11 21711 15.13400000 1636463441 1636463441 11.00000000
-4.51512337 -5.96573400 -0.39210099 3 12 21712 7.49200000 1636463444 1636463444 -3.00000000
-7.45309544 -9.84404087 2.85057974 41 13 21713 12.67200000 1636463446 1636463446 13.00000000
-7.89603901 -10.42529869 -0.22827747 9 14 21714 13.08000000 1636463448 1636463448 -1.00000000
-5.25572538 -6.93923950 2.33247733 9 15 21714 9.01200000 1636463450 1636463450 15.00000000
-1.16970134 -1.53990817 -0.51815575 5 0 21722 2.00200000 1636463471 1636463471 -15.00000000
-10.77369595 -14.17839813 0.31082734 7 1 21723 17.81000000 1636463474 1636463474 1.00000000
-1.33967340 -1.76239824 -0.51108879 4 2 21724 2.27200000 1636463476 1636463476 -13.00000000
-10.78727245 -14.18598366 0.93398750 2 3 21725 17.84600000 1636463478 1636463478 3.00000000
-1.55554497 -2.04564548 -0.49953794 3 4 21725 2.61800000 1636463480 1636463480 -11.00000000
-21.14329147 -27.79477119 3.05533171 40 5 21726 35.05600000 1636463483 1636463483 5.00000000
-1.88286984 -2.47430658 -0.49245569 3 6 21727 3.14800000 1636463485 1636463485 -9.00000000
-15.60223389 -20.49569702 3.16275311 31 7 21728 25.95200000 1636463487 1636463487 7.00000000
-2.32475591 -3.05278349 -0.47114688 1 8 21729 3.86600000 1636463490 1636463490 -7.00000000
-10.15342331 -13.32827377 2.65375423 80 9 21730 16.96400000 1636463492 1636463492 9.00000000
-3.09809828 -4.06683540 -0.44728327 3 10 21730 5.13200000 1636463494 1636463494 -5.00000000
-9.00935364 -11.82218552 2.88922977 42 11 21731 15.14200000 1636463497 1636463497 11.00000000
-4.53592014 -5.94993687 -0.39210099 3 12 21732 7.49200000 1636463499 1636463499 -3.00000000
-7.48741245 -9.81796455 2.85057974 44 13 21733 12.67200000 1636463501 1636463501 13.00000000
-7.90691090 -10.36428642 -0.22754447 6 14 21734 13.03800000 1636463503 1636463503 -1.00000000
-5.29518795 -6.93835831 2.33868885 15 15 21735 9.03600000 1636463506 1636463506 15.00000000
-1.16685224 -1.52507579 -0.51453227 4 0 21742 1.98800000 1636463527 1636463527 -15.00000000
-1.34107828 -1.75152206 -0.50928921 4 2 21744 2.26400000 1636463531 1636463531 -13.00000000
-10.86830139 -14.18946838 0.93670893 2 3 21745 17.89800000 1636463533 1636463533 3.00000000
-1.56506371 -2.04332042 -0.50030118 3 4 21745 2.62200000 1636463536 1636463536 -11.00000000
-21.18565559 -27.64962959 3.04748774 81 5 21746 34.96600000 1636463538 1636463538 5.00000000
-1.88428509 -2.45831203 -0.49057847 2 6 21747 3.13600000 1636463540 1636463540 -9.00000000
-15.67368221 -20.44111061 3.16275311 31 7 21748 25.95200000 1636463543 1636463543 7.00000000
-2.33298159 -3.04149985 -0.47065940 1 8 21749 3.86200000 1636463545 1636463545 -7.00000000
-10.19748116 -13.28961563 2.65312862 76 9 21750 16.96000000 1636463547 1636463547 9.00000000
-3.11712694 -4.06231880 -0.44798052 3 10 21750 5.14000000 1636463550 1636463550 -5.00000000
-9.05654240 -11.79845142 2.89113784 45 11 21751 15.15200000 1636463552 1636463552 11.00000000
-4.55909443 -5.93723536 -0.39231032 3 12 21752 7.49600000 1636463554 1636463554 -3.00000000
-7.51926327 -9.78867817 2.84967995 46 13 21753 12.66800000 1636463556 1636463556 13.00000000
-7.93938541 -10.33186626 -0.22743976 6 14 21754 13.03200000 1636463559 1636463559 -1.00000000
-5.32758379 -6.93301535 2.34282994 18 15 21754 9.05200000 1636463561 1636463561 15.00000000
-1.17334795 -1.52252364 -0.51504987 4 0 21762 1.99000000 1636463582 1636463582 -15.00000000
-1.34956431 -1.74991643 -0.51018900 4 2 21764 2.26800000 1636463586 1636463586 -13.00000000
-10.97632599 -14.22734833 0.94173318 2 3 21765 17.99400000 1636463589 1636463589 3.00000000
-1.56738985 -2.03162718 -0.49877471 3 4 21765 2.61400000 1636463591 1636463591 -11.00000000
-21.23091507 -27.50926399 3.04016662 81 5 21766 34.88200000 1636463593 1636463593 5.00000000
-1.89526904 -2.45484710 -0.49120423 2 6 21767 3.14000000 1636463596 1636463596 -9.00000000
-15.76678085 -20.41455460 3.16714048 28 7 21768 25.98800000 1636463598 1636463598 7.00000000
-2.35814810 -3.05218792 -0.47358426 1 8 21769 3.88600000 1636463600 1636463600 -7.00000000
-10.25105667 -13.26331711 2.65500569 76 9 21770 16.97200000 1636463603 1636463603 9.00000000
-3.13128805 -4.05141306 -0.44798052 3 10 21770 5.14000000 1636463605 1636463605 -5.00000000
-9.09406948 -11.76210690 2.88999295 45 11 21771 15.14600000 1636463607 1636463607 11.00000000
-4.57734776 -5.91812515 -0.39210099 3 12 21772 7.49200000 1636463609 1636463609 -3.00000000
-7.55577135 -9.76545429 2.85057974 44 13 21773 12.67200000 1636463612 1636463612 13.00000000
-7.99131393 -10.32464695 -0.22789352 6 14 21774 13.05800000 1636463614 1636463614 -1.00000000
-5.35648203 -6.92048693 2.34490061 18 15 21774 9.06000000 1636463616 1636463616 15.00000000
-1.17983997 -1.51994467 -0.51556754 5 0 21782 1.99200000 1636463637 1636463637 -15.00000000
-11.00252342 -14.16904259 0.31313106 3 1 21783 17.94200000 1636463639 1636463639 1.00000000
-1.35805535 -1.74827278 -0.51108879 4 2 21784 2.27200000 1636463642 1636463642 -13.00000000
-11.05530071 -14.23188114 0.94445467 2 3 21784 18.04600000 1636463644 1636463644 3.00000000
-1.57929051 -2.03234458 -0.50030118 3 4 21785 2.62200000 1636463646 1636463646 -11.00000000
-21.31702805 -27.42240143 3.03877211 91 5 21786 34.86600000 1636463649 1636463649 5.00000000
-1.89048755 -2.43106318 -0.48776266 2 6 21787 3.11800000 1636463651 1636463651 -9.00000000
-15.84769535 -20.37192726 3.16909051 21 7 21788 26.00400000 1636463653 1636463653 7.00000000
-2.38097930 -3.05960417 -0.47602165 1 8 21789 3.90600000 1636463655 1636463655 -7.00000000
-10.30711460 -13.24483967 2.65813446 72 9 21789 16.99200000 1636463658 1636463658 9.00000000
-3.14541101 -4.04045820 -0.44798052 3 10 21790 5.14000000 1636463660 1636463660 -5.00000000
-9.13024616 -11.72409534 2.88846660 48 11 21791 15.13800000 1636463662 1636463662 11.00000000
-4.59306812 -5.89580917 -0.39168230 3 12 21792 7.48400000 1636463665 1636463665 -3.00000000
-7.59460497 -9.74516869 2.85237932 45 13 21793 12.68000000 1636463667 1636463667 13.00000000
-7.89575005 -10.12794304 -0.22415870 6 14 21794 12.84400000 1636463669 1636463669 -1.00000000
-5.39604759 -6.92155361 2.35162973 20 15 21794 9.08600000 1636463672 1636463672 15.00000000
-1.18751812 -1.51886082 -0.51660281 4 0 21802 1.99600000 1636463692 1636463692 -15.00000000
-1.35694468 -1.73431289 -0.50838935 4 2 21804 2.26000000 1636463697 1636463697 -13.00000000
-1.60089576 -2.04537153 -0.50488061 3 4 21805 2.64600000 1636463702 1636463702 -11.00000000
-1.91236079 -2.44155574 -0.49120423 2 6 21807 3.14000000 1636463706 1636463706 -9.00000000
-13.35007000 -17.03822136 2.65772653 7 7 21808 21.80800000 1636463708 1636463708 7.00000000
-2.36347890 -3.01534009 -0.47041565 1 8 21809 3.86000000 1636463711 1636463711 -7.00000000
-10.36290359 -13.21630001 2.66001153 72 9 21810 17.00400000 1636463713 1636463713 9.00000000
-3.15457821 -4.02318239 -0.44728327 3 10 21810 5.13200000 1636463715 1636463715 -5.00000000
-9.17353821 -11.69524288 2.88922977 45 11 21811 15.14200000 1636463718 1636463718 11.00000000
-4.58896208 -5.84831476 -0.38958886 3 12 21812 7.44400000 1636463720 1636463720 -3.00000000
-7.62616920 -9.71553326 2.85147953 42 13 21813 12.67600000 1636463722 1636463722 13.00000000
-7.95204973 -10.12705708 -0.22475208 2 14 21814 12.87800000 1636463725 1636463725 -1.00000000
-5.43450689 -6.91844082 2.35732388 20 15 21815 9.10800000 1636463727 1636463727 15.00000000
-1.19520319 -1.51774180 -0.51763809 4 0 21822 2.00000000 1636463748 1636463748 -15.00000000
-1.37022746 -1.73874927 -0.51108879 4 2 21824 2.27200000 1636463752 1636463752 -13.00000000
-4.35024834 -5.52024508 0.36834046 2 3 21824 7.03800000 1636463755 1636463755 3.00000000
-1.59100950 -2.01818585 -0.49953794 3 4 21825 2.61800000 1636463757 1636463757 -11.00000000
-1.90618992 -2.41625500 -0.48744980 2 6 21827 3.11600000 1636463761 1636463761 -9.00000000
-13.43036938 -17.01800728 2.66187024 2 7 21828 21.84200000 1636463764 1636463764 7.00000000
-2.37153006 -3.00395560 -0.46992818 1 8 21829 3.85600000 1636463766 1636463766 -7.00000000
-3.16860247 -4.01214647 -0.44728327 3 10 21830 5.13200000 1636463771 1636463771 -5.00000000
-4.56971931 -5.78211737 -0.38623935 3 12 21832 7.38000000 1636463775 1636463775 -3.00000000
-4.30499363 -5.44520283 1.60255134 45 13 21833 7.12400000 1636463778 1636463778 13.00000000
-4.32798100 -5.47231531 -0.12178289 17 14 21834 6.97800000 1636463780 1636463780 -1.00000000
-4.30577660 -5.44424009 1.85987365 36 15 21834 7.18600000 1636463782 1636463782 15.00000000
-1.20169425 -1.51507413 -0.51815575 5 0 21842 2.00200000 1636463803 1636463803 -15.00000000
-4.34154320 -5.47177601 0.12192251 14 1 21843 6.98600000 1636463805 1636463805 1.00000000
-1.37144232 -1.72785020 -0.50928921 4 2 21844 2.26400000 1636463807 1636463807 -13.00000000
-4.34093237 -5.46904564 0.36593300 10 3 21844 6.99200000 1636463810 1636463810 3.00000000
-1.60292780 -2.01876998 -0.50106442 3 4 21845 2.62600000 1636463812 1636463812 -11.00000000
-4.33473110 -5.45731974 0.60974157 13 5 21846 6.99600000 1636463814 1636463814 5.00000000
-1.92935932 -2.42814565 -0.49120423 2 6 21847 3.14000000 1636463817 1636463817 -9.00000000
-4.34545708 -5.46690416 0.85747272 7 7 21848 7.03600000 1636463819 1636463819 7.00000000
-2.38941407 -3.00498176 -0.47139063 1 8 21849 3.86800000 1636463821 1636463821 -7.00000000
-4.36830711 -5.49171448 -0.61392504 4 10 21850 7.04400000 1636463826 1636463826 -5.00000000
-4.36722231 -5.48641920 -0.36750308 7 12 21852 7.02200000 1636463831 1636463831 -3.00000000
-4.31790495 -5.42252016 1.60030174 79 13 21853 7.11400000 1636463833 1636463833 13.00000000
-4.33958101 -5.44778967 -0.12157346 6 14 21854 6.96600000 1636463835 1636463835 -1.00000000
-4.30790329 -5.40802240 1.85262668 58 15 21854 7.15800000 1636463837 1636463837 15.00000000
-1.19853520 -1.50030470 -0.51453227 4 0 21862 1.98800000 1636463858 1636463858 -15.00000000
-4.35437489 -5.44877720 0.12174799 5 1 21863 6.97600000 1636463860 1636463860 1.00000000
-1.38476634 -1.73218524 -0.51198858 4 2 21864 2.27600000 1636463863 1636463863 -13.00000000
-4.34722662 -5.43594074 0.36478162 7 3 21865 6.97000000 1636463865 1636463865 3.00000000
-1.60506022 -2.00702953 -0.49953794 3 4 21865 2.61800000 1636463867 1636463867 -11.00000000
-4.33881855 -5.42348576 0.60764986 10 5 21866 6.97200000 1636463870 1636463870 5.00000000
-1.93041766 -2.41214228 -0.48932701 2 6 21867 3.12800000 1636463872 1636463872 -9.00000000
-4.35086679 -5.43465614 0.85479158 10 7 21868 7.01400000 1636463874 1636463874 7.00000000
-2.42470694 -3.02761149 -0.47626540 1 8 21869 3.90800000 1636463877 1636463877 -7.00000000
-4.32928133 -5.40575981 1.09691846 55 9 21869 7.01200000 1636463879 1636463879 9.00000000
-3.18656921 -3.97748852 -0.44588879 3 10 21870 5.11600000 1636463881 1636463881 -5.00000000
-4.32546091 -5.39712715 1.34444022 59 11 21871 7.04600000 1636463884 1636463884 11.00000000
-4.37260437 -5.45400000 -0.36635169 10 12 21872 7.00000000 1636463886 1636463886 -3.00000000
-4.31486082 -5.38005114 1.59220362 78 13 21873 7.07800000 1636463888 1636463888 13.00000000
-4.34855986 -5.42013073 -0.12129422 10 14 21874 6.95000000 1636463890 1636463890 -1.00000000
-4.30351162 -5.36206436 1.84227395 67 15 21875 7.11800000 1636463893 1636463893 15.00000000
-1.20376492 -1.49611187 -0.51453227 4 0 21882 1.98800000 1636463913 1636463913 -15.00000000
-4.34453011 -5.39771557 0.12094518 8 1 21883 6.93000000 1636463916 1636463916 1.00000000
-1.39202654 -1.72885883 -0.51243848 4 2 21884 2.27800000 1636463918 1636463918 -13.00000000
-4.35771370 -5.41216087 0.36415359 7 3 21884 6.95800000 1636463920 1636463920 3.00000000
-1.61944544 -2.01058841 -0.50182766 3 4 21885 2.63000000 1636463923 1636463923 -11.00000000
-4.33647251 -5.38193321 0.60468656 13 5 21886 6.93800000 1636463925 1636463925 5.00000000
-1.94130516 -2.40846515 -0.48995274 2 6 21887 3.13200000 1636463927 1636463927 -9.00000000
-4.34862804 -5.39316511 0.85064805 10 7 21888 6.98000000 1636463930 1636463930 7.00000000
-4.41188431 -5.46966124 -0.86283493 2 8 21889 7.08000000 1636463932 1636463932 -7.00000000
-4.33417988 -5.37140799 1.09316409 55 9 21890 6.98800000 1636463934 1636463934 9.00000000
-3.19668031 -3.96168947 -0.44536585 3 10 21890 5.11000000 1636463937 1636463937 -5.00000000
-4.32331133 -5.35602522 1.33795273 62 11 21891 7.01200000 1636463939 1636463939 11.00000000
-4.36526632 -5.40607119 -0.36415359 10 12 21892 6.95800000 1636463941 1636463941 -3.00000000
-4.31891966 -5.34676504 1.58680475 72 13 21893 7.05400000 1636463943 1636463943 13.00000000
-4.35739851 -5.39247561 -0.12101499 14 14 21894 6.93400000 1636463946 1636463946 -1.00000000
