# .PCD v0.7 - Point Cloud Data file format
VERSION 0.7
FIELDS x y z intensity laser_id azimuth distance_m adjustedtime timestamp vertical_angle
SIZE 4 4 4 1 1 2 8 8 4 8
TYPE F F F U U U F U U F
COUNT 1 1 1 1 1 1 1 1 1 1
WIDTH 515
HEIGHT 1
VIEWPOINT 0 0 0 1 0 0 0
POINTS 515
DATA ascii
-0.18383871 -0.96007431 -0.26192486 10 0 19084 1.01200000 1636156302 1636156302 -15.00000000
-0.20263535 -1.05524576 0.05631349 18 3 19087 1.07600000 1636156309 1636156309 3.00000000
-0.19555479 -1.01645708 -0.16394332 23 6 19089 1.04800000 1636156316 1636156316 -9.00000000
-0.19499458 -1.01164162 -0.12650038 25 8 19091 1.03800000 1636156320 1636156320 -7.00000000
-3.45982337 -17.94973564 2.89528918 41 9 19091 18.50800000 1636156323 1636156323 9.00000000
-2.28674293 -11.84149265 2.34427929 9 11 19093 12.28600000 1636156327 1636156327 11.00000000
-2.27097845 -11.73785019 2.76014948 55 13 19095 12.27000000 1636156332 1636156332 13.00000000
-1.94370222 -10.03688622 2.73934078 49 15 19096 10.58400000 1636156337 1636156337 15.00000000
-0.18533918 -0.94994622 -0.25933668 10 0 19104 1.00200000 1636156357 1636156357 -15.00000000
-0.20746809 -1.06041229 0.05662750 7 3 19107 1.08200000 1636156364 1636156364 3.00000000
-0.19986163 -1.01964521 -0.16456905 23 6 19109 1.05200000 1636156371 1636156371 -9.00000000
-3.52673197 -17.94274902 2.89622760 49 9 19112 18.51400000 1636156378 1636156378 9.00000000
-2.32882142 -11.83729172 2.34504247 12 11 19113 12.29000000 1636156383 1636156383 11.00000000
-2.31269121 -11.73367596 2.76104927 55 13 19115 12.27400000 1636156387 1636156387 13.00000000
-1.97972775 -10.02590466 2.73830557 49 15 19117 10.58000000 1636156392 1636156392 15.00000000
-0.18865399 -0.94929349 -0.25933668 12 0 19124 1.00200000 1636156413 1636156413 -15.00000000
-0.20921670 -1.04988790 0.05610415 10 3 19127 1.07200000 1636156419 1636156419 3.00000000
-0.19337675 -0.97040015 -0.19233547 15 4 19127 1.00800000 1636156422 1636156422 -11.00000000
-0.20264618 -1.01506710 -0.16394332 23 6 19129 1.04800000 1636156426 1636156426 -9.00000000
-0.20516686 -1.02582800 -0.12845029 10 8 19131 1.05400000 1636156431 1636156431 -7.00000000
-3.58815002 -17.94063950 2.89779210 61 9 19131 18.52400000 1636156433 1636156433 9.00000000
-2.37244129 -11.84064007 2.34733224 12 11 19133 12.30200000 1636156438 1636156438 11.00000000
-2.35440230 -11.72935295 2.76194906 55 13 19135 12.27800000 1636156443 1636156443 13.00000000
-2.01296401 -10.01928425 2.73830557 52 15 19136 10.58000000 1636156447 1636156447 15.00000000
-0.19464865 -0.96188349 -0.26296014 12 0 19144 1.01600000 1636156468 1636156468 -15.00000000
-0.21248306 -1.04719388 0.05599947 10 3 19147 1.07000000 1636156475 1636156475 3.00000000
-0.20461424 -1.00661039 -0.16269185 26 6 19149 1.04000000 1636156482 1636156482 -9.00000000
-0.20795421 -1.02121520 -0.12796281 6 8 19151 1.05000000 1636156486 1636156486 -7.00000000
-3.66098261 -17.96220779 2.90342379 61 9 19152 18.56000000 1636156489 1636156489 9.00000000
-2.41336608 -11.83036327 2.34695053 12 11 19153 12.30000000 1636156493 1636156493 11.00000000
-2.39767218 -11.73251820 2.76464844 59 13 19155 12.29000000 1636156498 1636156498 13.00000000
-2.05044794 -10.01562405 2.73934078 49 15 19157 10.58400000 1636156502 1636156502 15.00000000
-0.19795014 -0.95923704 -0.26244250 10 0 19166 1.01400000 1636156523 1636156523 -15.00000000
-0.21731177 -1.05028200 0.05620882 10 3 19169 1.07400000 1636156530 1636156530 3.00000000
-0.20927966 -1.00968575 -0.16331758 21 6 19171 1.04400000 1636156537 1636156537 -9.00000000
-0.21025957 -1.01263463 -0.12698786 6 8 19173 1.04200000 1636156542 1636156542 -7.00000000
-3.73000550 -17.96414185 2.90592670 61 9 19173 18.57600000 1636156544 1636156544 9.00000000
-2.46077251 -11.83061981 2.34885883 12 11 19175 12.31000000 1636156548 1636156548 11.00000000
-2.44270396 -11.72322559 2.76464844 56 13 19177 12.29000000 1636156553 1636156553 13.00000000
-2.08950949 -10.01938915 2.74244666 49 15 19178 10.59600000 1636156558 1636156558 15.00000000
-0.20328248 -0.96799326 -0.26503071 12 0 19186 1.02400000 1636156578 1636156578 -15.00000000
-0.21891910 -1.03974497 0.05568546 8 3 19189 1.06400000 1636156585 1636156585 3.00000000
-0.21402586 -1.01474762 -0.16425619 23 6 19191 1.05000000 1636156592 1636156592 -9.00000000
-0.21338269 -1.00995231 -0.12674412 4 8 19193 1.04000000 1636156597 1636156597 -7.00000000
-3.79745722 -17.95808220 2.90717816 61 9 19194 18.58400000 1636156599 1636156599 9.00000000
-2.50408649 -11.83156109 2.35076690 12 11 19195 12.32000000 1636156604 1636156604 11.00000000
-2.48280239 -11.71081448 2.76374865 59 13 19197 12.28600000 1636156608 1636156608 13.00000000
-2.12862635 -10.02300167 2.74555254 49 15 19199 10.60800000 1636156613 1636156613 15.00000000
-0.20568474 -0.96353525 -0.26399544 12 0 19205 1.02000000 1636156634 1636156634 -15.00000000
-0.22236583 -1.03901327 0.05568546 5 3 19208 1.06400000 1636156641 1636156641 3.00000000
-0.21780378 -1.01596379 -0.16456905 21 6 19210 1.05200000 1636156648 1636156648 -9.00000000
-0.21089558 -0.98206735 -0.12333178 1 8 19212 1.01200000 1636156652 1636156652 -7.00000000
-3.85634375 -17.95765114 2.90905523 61 9 19212 18.59600000 1636156654 1636156654 9.00000000
-0.21268019 -0.98953623 -0.08855023 4 10 19213 1.01600000 1636156657 1636156657 -5.00000000
-2.54495907 -11.83086967 2.35229325 12 11 19214 12.32800000 1636156659 1636156659 11.00000000
-2.52244425 -11.70632744 2.76464844 57 13 19216 12.29000000 1636156664 1636156664 13.00000000
-2.15928960 -10.01248741 2.74451709 49 15 19217 10.60400000 1636156668 1636156668 15.00000000
-0.20781717 -0.95714784 -0.26244250 12 0 19225 1.01400000 1636156689 1636156689 -15.00000000
-0.22386733 -1.02847290 0.05516210 2 3 19228 1.05400000 1636156696 1636156696 3.00000000
-0.21798231 -0.99975711 -0.16206610 21 6 19230 1.03600000 1636156703 1636156703 -9.00000000
-0.22152291 -1.01429462 -0.12747534 1 8 19232 1.04600000 1636156707 1636156707 -7.00000000
-3.92551064 -17.95883369 2.91155815 66 9 19233 18.61200000 1636156710 1636156710 9.00000000
-0.22038761 -1.00825214 -0.09029335 4 10 19233 1.03600000 1636156712 1636156712 -5.00000000
-2.58959770 -11.83725739 2.35534620 12 11 19234 12.34400000 1636156714 1636156714 11.00000000
-2.56746292 -11.71648693 2.76914740 57 13 19236 12.31000000 1636156719 1636156719 13.00000000
-2.19348764 -9.99318504 2.74141121 49 15 19238 10.59200000 1636156724 1636156724 15.00000000
-0.21307081 -0.96588588 -0.26503071 15 0 19244 1.02400000 1636156744 1636156744 -15.00000000
-0.22555158 -1.01992428 0.05474341 2 3 19247 1.04600000 1636156751 1636156751 3.00000000
-0.22129641 -0.99902874 -0.16206610 21 6 19249 1.03600000 1636156758 1636156758 -9.00000000
-0.22488523 -1.01355445 -0.12747534 1 8 19251 1.04600000 1636156763 1636156763 -7.00000000
-3.98618937 -17.96569824 2.91468692 66 9 19251 18.63200000 1636156765 1636156765 9.00000000
-0.22200224 -0.99973571 -0.08959610 4 10 19252 1.02800000 1636156767 1636156767 -5.00000000
-2.62926316 -11.83052158 2.35572791 12 11 19253 12.34600000 1636156770 1636156770 11.00000000
-2.60799575 -11.71551704 2.77094698 59 13 19255 12.31800000 1636156774 1636156774 13.00000000
-2.22571135 -9.99001598 2.74244666 52 15 19256 10.59600000 1636156779 1636156779 15.00000000
-0.21686381 -0.96702129 -0.26554835 17 0 19264 1.02600000 1636156800 1636156800 -15.00000000
-0.22604391 -1.00549042 0.05401071 2 3 19267 1.03200000 1636156807 1636156807 3.00000000
-0.22781993 -1.01174009 -0.16425619 23 6 19269 1.05000000 1636156813 1636156813 -9.00000000
-0.24788372 -1.09994686 0.13844357 2 7 19270 1.13600000 1636156816 1636156816 7.00000000
-0.22623804 -1.00308108 -0.12625664 1 8 19271 1.03600000 1636156818 1636156818 -7.00000000
-4.05148458 -17.96323586 2.91656423 66 9 19271 18.64400000 1636156820 1636156820 9.00000000
-2.67140865 -11.82510185 2.35649109 12 11 19273 12.35000000 1636156825 1636156825 11.00000000
-2.64973497 -11.71014309 2.77184701 59 13 19275 12.32200000 1636156830 1636156830 13.00000000
-2.26142287 -9.98595428 2.74348187 49 15 19276 10.60000000 1636156834 1636156834 15.00000000
-0.22152597 -0.97190905 -0.26710126 17 0 19284 1.03200000 1636156855 1636156855 -15.00000000
-0.22910748 -1.00274813 0.05390603 2 3 19287 1.03000000 1636156862 1636156862 3.00000000
-0.23311284 -1.01864111 -0.16550766 23 6 19289 1.05800000 1636156869 1636156869 -9.00000000
-0.25438079 -1.11068475 0.13990600 2 7 19290 1.14800000 1636156871 1636156871 7.00000000
-0.22840755 -0.99648046 -0.12552543 3 8 19291 1.03000000 1636156873 1636156873 -7.00000000
-4.11862087 -17.95404243 2.91750288 76 9 19292 18.65000000 1636156876 1636156876 9.00000000
-2.71662331 -11.83292580 2.35992575 15 11 19293 12.36800000 1636156880 1636156880 11.00000000
-2.68797445 -11.68942738 2.76914740 59 13 19295 12.31000000 1636156885 1636156885 13.00000000
-2.29886603 -9.98929501 2.74658775 49 15 19296 10.61200000 1636156889 1636156889 15.00000000
-0.22317368 -0.96360171 -0.26503071 17 0 19304 1.02400000 1636156910 1636156910 -15.00000000
-0.23621963 -1.01750648 0.05474341 2 3 19307 1.04600000 1636156917 1636156917 3.00000000
-0.23487760 -1.01012492 -0.16425619 18 6 19309 1.05000000 1636156924 1636156924 -9.00000000
-0.25015762 -1.07498825 0.13551871 2 7 19310 1.11200000 1636156926 1636156926 7.00000000
-0.23098400 -0.99181044 -0.12503795 1 8 19311 1.02600000 1636156929 1636156929 -7.00000000
-4.17992210 -17.93378448 2.91656423 61 9 19312 18.64400000 1636156931 1636156931 9.00000000
-2.76103306 -11.83675480 2.36259699 18 11 19313 12.38200000 1636156936 1636156936 11.00000000
-2.72876191 -11.67997360 2.76914740 62 13 19315 12.31000000 1636156940 1636156940 13.00000000
-2.33458304 -9.97704029 2.74555254 49 15 19317 10.60800000 1636156945 1636156945 15.00000000
-0.22609346 -0.96093631 -0.26451308 17 0 19324 1.02200000 1636156966 1636156966 -15.00000000
-0.24343756 -1.03222716 0.05558079 2 3 19327 1.06200000 1636156972 1636156972 3.00000000
-0.24158086 -1.02275622 -0.16644627 23 6 19329 1.06400000 1636156979 1636156979 -9.00000000
-0.27126196 -1.14751887 0.14478078 2 7 19330 1.18800000 1636156982 1636156982 7.00000000
-0.24084276 -1.01804292 -0.12845029 1 8 19331 1.05400000 1636156984 1636156984 -7.00000000
-4.23567057 -17.89025116 2.91187119 57 9 19332 18.61400000 1636156986 1636156986 9.00000000
-2.80414486 -11.83468628 2.36412334 21 11 19333 12.39000000 1636156991 1636156991 11.00000000
-2.77401543 -11.68933773 2.77364659 62 13 19335 12.33000000 1636156995 1636156995 13.00000000
-2.36676240 -9.96548462 2.74451709 49 15 19336 10.60400000 1636157000 1636157000 15.00000000
-0.23124243 -0.96765703 -0.26658362 20 0 19344 1.03000000 1636157021 1636157021 -15.00000000
-0.24703923 -1.03137112 0.05558079 2 3 19347 1.06200000 1636157028 1636157028 3.00000000
-0.24238463 -1.01038146 -0.16456905 21 6 19349 1.05200000 1636157035 1636157035 -9.00000000
-0.24068494 -1.00175464 -0.12650038 1 8 19351 1.03800000 1636157039 1636157039 -7.00000000
-4.30686808 -17.91184998 2.91781569 68 9 19352 18.65200000 1636157042 1636157042 9.00000000
-2.84268284 -11.81337261 2.36183381 21 11 19353 12.37800000 1636157046 1636157046 11.00000000
-2.81571531 -11.68337250 2.77454638 60 13 19355 12.33400000 1636157051 1636157051 13.00000000
-2.40425158 -9.96843052 2.74762297 49 15 19356 10.61600000 1636157055 1636157055 15.00000000
-0.23780777 -0.97998554 -0.27020708 20 0 19364 1.04400000 1636157076 1636157076 -15.00000000
-0.25045800 -1.03054619 0.05558079 2 3 19366 1.06200000 1636157083 1636157083 3.00000000
-0.24778008 -1.01720631 -0.16582054 23 6 19369 1.06000000 1636157090 1636157090 -9.00000000
-0.24794410 -1.01633668 -0.12845029 1 8 19371 1.05400000 1636157094 1636157094 -7.00000000
-4.36905098 -17.90898323 2.91969275 76 9 19371 18.66400000 1636157097 1636157097 9.00000000
-2.88856149 -11.82244968 2.36564994 21 11 19373 12.39800000 1636157101 1636157101 11.00000000
-2.85648060 -11.67347240 2.77454638 60 13 19375 12.33400000 1636157106 1636157106 13.00000000
-2.44041181 -9.96560574 2.74917579 49 15 19376 10.62200000 1636157111 1636157111 15.00000000
-0.24215135 -0.98290098 -0.27124235 22 0 19384 1.04800000 1636157131 1636157131 -15.00000000
-0.25423348 -1.02962136 0.05558079 2 3 19387 1.06200000 1636157138 1636157138 3.00000000
-0.25227770 -1.02017033 -0.16644627 26 6 19389 1.06400000 1636157145 1636157145 -9.00000000
-0.24767259 -1.00004995 -0.12650038 1 8 19391 1.03800000 1636157150 1636157150 -7.00000000
-4.43418646 -17.89093208 2.91937995 76 9 19392 18.66200000 1636157152 1636157152 9.00000000
-0.24827890 -1.00174880 -0.09029335 4 10 19392 1.03600000 1636157154 1636157154 -5.00000000
-2.93312025 -11.82563305 2.36832118 25 11 19393 12.41200000 1636157157 1636157157 11.00000000
-2.89721131 -11.66343117 2.77454638 57 13 19395 12.33400000 1636157161 1636157161 13.00000000
-2.47971940 -9.96784306 2.75228167 49 15 19397 10.63400000 1636157166 1636157166 15.00000000
-0.24404635 -0.97446799 -0.26917180 22 0 19406 1.04000000 1636157187 1636157187 -15.00000000
-0.25800550 -1.02868259 0.05558079 2 3 19408 1.06200000 1636157194 1636157194 3.00000000
-0.25619301 -1.01919413 -0.16644627 23 6 19411 1.06400000 1636157200 1636157200 -9.00000000
-0.26895648 -1.06839275 -0.13527498 1 8 19413 1.11000000 1636157205 1636157205 -7.00000000
-4.49705887 -17.85078812 2.91562557 86 9 19414 18.63800000 1636157207 1636157207 9.00000000
-2.98282528 -11.83141708 2.37175584 21 11 19415 12.43000000 1636157212 1636157212 11.00000000
-2.94579053 -11.66733551 2.77814555 60 13 19417 12.35000000 1636157217 1636157217 13.00000000
-2.51529026 -9.95494175 2.75124645 49 15 19418 10.63000000 1636157221 1636157221 15.00000000
-0.24649467 -0.96986556 -0.26813653 22 0 19426 1.03600000 1636157242 1636157242 -15.00000000
-0.25004837 -0.98169464 -0.19691488 17 4 19429 1.03200000 1636157251 1636157251 -11.00000000
-0.25779608 -1.01063740 -0.16519479 23 6 19431 1.05600000 1636157256 1636157256 -9.00000000
-0.27268425 -1.06744742 -0.13527498 1 8 19433 1.11000000 1636157260 1636157260 -7.00000000
-4.51286316 -17.65316772 2.88590312 78 9 19434 18.44800000 1636157263 1636157263 9.00000000
-0.25166762 -0.98445946 -0.08889886 4 10 19434 1.02000000 1636157265 1636157265 -5.00000000
-3.02556610 -11.82663918 2.37290072 25 11 19435 12.43600000 1636157267 1636157267 11.00000000
-2.98843384 -11.66453266 2.77994514 60 13 19437 12.35800000 1636157272 1636157272 13.00000000
-2.54810500 -9.93861580 2.74917579 49 15 19438 10.62200000 1636157276 1636157276 15.00000000
-0.25180820 -0.97648185 -0.27020708 20 0 19446 1.04400000 1636157297 1636157297 -15.00000000
-0.26082736 -1.00781894 -0.16488193 26 6 19451 1.05400000 1636157311 1636157311 -9.00000000
-5.40997982 -20.88875771 2.64943957 2 7 19452 21.74000000 1636157313 1636157313 7.00000000
-0.25847945 -0.99731141 -0.12650038 1 8 19453 1.03800000 1636157316 1636157316 -7.00000000
-4.50695086 -17.38952065 2.84523010 78 9 19453 18.18800000 1636157318 1636157318 9.00000000
-3.06485748 -11.80840492 2.37137413 25 11 19455 12.42800000 1636157323 1636157323 11.00000000
-3.03207374 -11.66534710 2.78264451 60 13 19457 12.37000000 1636157327 1636157327 13.00000000
-2.58548808 -9.93294811 2.75021124 49 15 19459 10.62600000 1636157332 1636157332 15.00000000
-0.25717089 -0.98307276 -0.27227762 20 0 19466 1.05200000 1636157352 1636157352 -15.00000000
-0.26735333 -1.01836610 -0.16675913 26 6 19471 1.06600000 1636157366 1636157366 -9.00000000
-5.47933149 -20.85630608 2.64773345 7 7 19472 21.72600000 1636157369 1636157369 7.00000000
-0.28012973 -1.06551766 -0.13527498 1 8 19473 1.11000000 1636157371 1636157371 -7.00000000
-4.50732899 -17.13217735 2.80580854 78 9 19474 17.93600000 1636157373 1636157373 9.00000000
-3.11155629 -11.81851864 2.37557197 25 11 19475 12.45000000 1636157378 1636157378 11.00000000
-3.06979418 -11.64338589 2.77994514 62 13 19477 12.35800000 1636157382 1636157382 13.00000000
-2.62113118 -9.92759895 2.75124645 49 15 19479 10.63000000 1636157387 1636157387 15.00000000
-0.26240993 -0.98968387 -0.27434820 20 0 19485 1.06000000 1636157408 1636157408 -15.00000000
-0.27174476 -1.02129185 -0.16738488 26 6 19490 1.07000000 1636157422 1636157422 -9.00000000
-5.55561399 -20.86487770 2.65114570 10 7 19491 21.75400000 1636157424 1636157424 7.00000000
-0.28366157 -1.06458294 -0.13527498 1 8 19492 1.11000000 1636157426 1636157426 -7.00000000
-4.49399376 -16.86597443 2.76450992 78 9 19492 17.67200000 1636157429 1636157429 9.00000000
-3.15376759 -11.81951618 2.37786174 25 11 19494 12.46200000 1636157433 1636157433 11.00000000
-3.10838819 -11.63314247 2.77994514 62 13 19496 12.35800000 1636157438 1636157438 13.00000000
-2.65803266 -9.93378162 2.75538754 49 15 19498 10.64600000 1636157442 1636157442 15.00000000
-0.26435807 -0.98316509 -0.27279526 20 0 19505 1.05400000 1636157463 1636157463 -15.00000000
-0.27736646 -1.02796578 -0.16863635 25 6 19510 1.07800000 1636157477 1636157477 -9.00000000
-5.69775200 -21.10216331 2.68380666 47 7 19511 22.02200000 1636157479 1636157479 7.00000000
-0.28737593 -1.06358624 -0.13527498 1 8 19512 1.11000000 1636157482 1636157482 -7.00000000
-4.48688602 -16.60609055 2.72446275 82 9 19512 17.41600000 1636157484 1636157484 9.00000000
-3.19603157 -11.81222630 2.37862492 25 11 19514 12.46600000 1636157488 1636157488 11.00000000
-3.15203404 -11.63350677 2.78264451 59 13 19516 12.37000000 1636157493 1636157493 13.00000000
-2.69066834 -9.91698551 2.75331712 49 15 19518 10.63800000 1636157498 1636157498 15.00000000
-0.26710910 -0.98041910 -0.27227762 22 0 19524 1.05200000 1636157518 1636157518 -15.00000000
-0.28077379 -1.02704036 -0.16863635 27 6 19529 1.07800000 1636157532 1636157532 -9.00000000
-5.77450752 -21.10804367 2.68697524 47 7 19530 22.04800000 1636157534 1636157534 7.00000000
-0.28775644 -1.05113959 -0.13381253 1 8 19531 1.09800000 1636157537 1636157537 -7.00000000
-4.48038244 -16.36629677 2.68754411 76 9 19531 17.18000000 1636157539 1636157539 9.00000000
-3.23674202 -11.80724239 2.37976980 28 11 19533 12.47200000 1636157544 1636157544 11.00000000
-3.19162655 -11.62674809 2.78354430 60 13 19535 12.37400000 1636157548 1636157548 13.00000000
-2.72385693 -9.91593456 2.75538754 49 15 19536 10.64600000 1636157553 1636157553 15.00000000
-0.27155840 -0.98320502 -0.27331293 20 0 19544 1.05600000 1636157574 1636157574 -15.00000000
-0.28224686 -1.01843953 -0.16738488 28 6 19549 1.07000000 1636157587 1636157587 -9.00000000
-5.83648205 -21.04567528 2.68161297 36 7 19550 22.00400000 1636157590 1636157590 7.00000000
-0.29620129 -1.06734395 -0.13600619 1 8 19551 1.11600000 1636157592 1636157592 -7.00000000
-4.48254871 -16.15259933 2.65500569 80 9 19551 16.97200000 1636157594 1636157594 9.00000000
-3.27951407 -11.80154705 2.38091469 28 11 19553 12.47800000 1636157599 1636157599 11.00000000
-3.23637152 -11.63055611 2.78714347 60 13 19555 12.39000000 1636157604 1636157604 13.00000000
-2.75810838 -9.89844036 2.75331712 49 15 19557 10.63800000 1636157608 1636157608 15.00000000
-0.27655122 -0.98783207 -0.27486584 20 0 19564 1.06200000 1636157629 1636157629 -15.00000000
-0.28847119 -1.02695692 -0.16894922 32 6 19569 1.08000000 1636157643 1636157643 -9.00000000
-5.90990973 -21.02517319 2.68161297 36 7 19570 22.00400000 1636157645 1636157645 7.00000000
-0.30207521 -1.07394731 -0.13698114 3 8 19571 1.12400000 1636157647 1636157647 -7.00000000
-4.48648691 -15.95049953 2.62434459 80 9 19571 16.77600000 1636157650 1636157650 9.00000000
-3.32494736 -11.80514526 2.38396764 28 11 19573 12.49400000 1636157654 1636157654 11.00000000
-3.27589202 -11.61543655 2.78624368 62 13 19575 12.38600000 1636157659 1636157659 13.00000000
-2.79354095 -9.89853573 2.75590515 49 15 19576 10.64800000 1636157664 1636157664 15.00000000
-0.28316152 -0.99801171 -0.27797166 22 0 19584 1.07400000 1636157684 1636157684 -15.00000000
-0.29367670 -1.03164339 -0.16988783 30 6 19589 1.08600000 1636157698 1636157698 -9.00000000
-0.30908716 -1.08434057 -0.13844357 6 8 19591 1.13600000 1636157703 1636157703 -7.00000000
-4.50590611 -15.79717636 2.60181808 72 9 19592 16.63200000 1636157705 1636157705 9.00000000
-3.37044549 -11.80856991 2.38702059 31 11 19593 12.51000000 1636157710 1636157710 11.00000000
-3.31427550 -11.59643650 2.78444409 60 13 19595 12.37800000 1636157714 1636157714 13.00000000
-2.83139682 -9.89380264 2.75745821 49 15 19597 10.65400000 1636157719 1636157719 15.00000000
-0.28450835 -0.98959059 -0.27590111 25 0 19604 1.06600000 1636157740 1636157740 -15.00000000
-0.30056083 -1.04199994 -0.17176504 30 6 19609 1.09800000 1636157753 1636157753 -9.00000000
-5.74827051 -19.91535187 2.54511929 2 7 19610 20.88400000 1636157756 1636157756 7.00000000
-0.31507364 -1.09088361 -0.13941853 10 8 19611 1.14400000 1636157758 1636157758 -7.00000000
-4.54730415 -15.74419117 2.59556055 76 9 19611 16.59200000 1636157760 1636157760 9.00000000
-3.41437149 -11.80616283 2.38892865 28 11 19613 12.52000000 1636157765 1636157765 11.00000000
-3.35798669 -11.59602737 2.78714347 60 13 19615 12.39000000 1636157770 1636157770 13.00000000
-2.86096430 -9.87322617 2.75435233 49 15 19616 10.64200000 1636157774 1636157774 15.00000000
-0.28742069 -0.98673671 -0.27538347 25 0 19624 1.06400000 1636157795 1636157795 -15.00000000
-0.30308807 -1.03715229 -0.17113930 32 6 19629 1.09400000 1636157809 1636157809 -9.00000000
-5.82611036 -19.92374420 2.54877543 7 7 19630 20.91400000 1636157811 1636157811 7.00000000
-0.31832215 -1.08787191 -0.13917479 22 8 19631 1.14200000 1636157813 1636157813 -7.00000000
-4.60608912 -15.73120975 2.59618640 80 9 19632 16.59600000 1636157816 1636157816 9.00000000
-3.45832205 -11.80359268 2.39083672 31 11 19633 12.53000000 1636157820 1636157820 11.00000000
-3.40173531 -11.59545517 2.78984308 62 13 19635 12.40200000 1636157825 1636157825 13.00000000
-2.89822102 -9.86638069 2.75538754 49 15 19637 10.64600000 1636157829 1636157829 15.00000000
-0.29359695 -0.99499178 -0.27797166 25 0 19644 1.07400000 1636157850 1636157850 -15.00000000
-10.41385269 -35.20169449 3.21168923 31 5 19648 36.85000000 1636157862 1636157862 5.00000000
-0.30782798 -1.03987634 -0.17176504 30 6 19649 1.09800000 1636157864 1636157864 -9.00000000
-5.90125990 -19.92231941 2.55121279 10 7 19650 20.93400000 1636157866 1636157866 7.00000000
-0.32888713 -1.10959315 -0.14209965 52 8 19651 1.16600000 1636157869 1636157869 -7.00000000
-4.65935326 -15.71963692 2.59681201 72 9 19651 16.60000000 1636157871 1636157871 9.00000000
-3.49838591 -11.78768539 2.39007354 34 11 19653 12.52600000 1636157875 1636157875 11.00000000
-3.44441080 -11.59098244 2.79164267 62 13 19655 12.41000000 1636157880 1636157880 13.00000000
-2.93092322 -9.85671616 2.75538754 52 15 19656 10.64600000 1636157885 1636157885 15.00000000
-0.30038753 -1.00506651 -0.28107747 23 0 19664 1.08600000 1636157905 1636157905 -15.00000000
-0.32828984 -1.09633231 0.05997701 2 3 19667 1.14600000 1636157912 1636157912 3.00000000
-10.56068420 -35.24528885 3.21901011 51 5 19668 36.93400000 1636157917 1636157917 5.00000000
-0.30975401 -1.03311896 -0.17082644 35 6 19669 1.09200000 1636157919 1636157919 -9.00000000
-5.97076559 -19.90159798 2.55121279 10 7 19670 20.93400000 1636157922 1636157922 7.00000000
-0.32705063 -1.08942568 -0.13966227 100 8 19671 1.14600000 1636157924 1636157924 -7.00000000
-4.71580076 -15.69867039 2.59618640 76 9 19672 16.59600000 1636157926 1636157926 9.00000000
-3.54403257 -11.79044247 2.39312649 34 11 19673 12.54200000 1636157931 1636157931 11.00000000
-3.48484993 -11.57888794 2.79164267 62 13 19675 12.41000000 1636157935 1636157935 13.00000000
-2.96925998 -9.85330582 2.75745821 49 15 19677 10.65400000 1636157940 1636157940 15.00000000
-0.30462927 -1.00580776 -0.28159511 23 0 19685 1.08800000 1636157961 1636157961 -15.00000000
-0.32650650 -1.07600963 0.05893029 2 3 19688 1.12600000 1636157968 1636157968 3.00000000
-0.30612576 -1.00884449 -0.20492886 20 4 19688 1.07400000 1636157970 1636157970 -11.00000000
-10.69268799 -35.21587753 3.21988177 31 5 19689 36.94400000 1636157972 1636157972 5.00000000
-0.31583548 -1.03953695 -0.17207791 37 6 19690 1.10000000 1636157975 1636157975 -9.00000000
-6.05175209 -19.90616989 2.55462527 10 7 19691 20.96200000 1636157977 1636157977 7.00000000
-0.32988593 -1.08442140 -0.13917479 100 8 19692 1.14200000 1636157979 1636157979 -7.00000000
-4.76827097 -15.67455387 2.59493494 80 9 19692 16.58800000 1636157981 1636157981 9.00000000
-3.59122705 -11.79052067 2.39579773 34 11 19694 12.55600000 1636157986 1636157986 11.00000000
-3.52612829 -11.56231022 2.79074287 60 13 19696 12.40600000 1636157991 1636157991 13.00000000
-3.00758314 -9.85581493 2.76108146 54 15 19697 10.66800000 1636157995 1636157995 15.00000000
-0.30813831 -1.00473821 -0.28159511 21 0 19705 1.08800000 1636158016 1636158016 -15.00000000
-0.33143368 -1.07868171 0.05913963 2 3 19708 1.13000000 1636158023 1636158023 3.00000000
-0.31022206 -1.00964642 -0.20531048 20 4 19708 1.07600000 1636158025 1636158025 -11.00000000
-10.84482479 -35.27355957 3.22859740 83 5 19709 37.04400000 1636158028 1636158028 5.00000000
-0.32178557 -1.04598033 -0.17332938 47 6 19710 1.10800000 1636158030 1636158030 -9.00000000
-6.12587309 -19.90010262 2.55657506 20 7 19711 20.97800000 1636158032 1636158032 7.00000000
-0.33133182 -1.07567465 -0.13819984 100 8 19712 1.13400000 1636158034 1636158034 -7.00000000
-4.82801628 -15.66452312 2.59618640 76 9 19713 16.59600000 1636158037 1636158037 9.00000000
-3.63872623 -11.79854965 2.39999557 34 11 19714 12.57800000 1636158041 1636158041 11.00000000
-3.56876659 -11.55737877 2.79254246 55 13 19716 12.41400000 1636158046 1636158046 13.00000000
-3.04368639 -9.84472561 2.76108146 59 15 19718 10.66800000 1636158051 1636158051 15.00000000
-0.31146845 -1.00371087 -0.28159511 21 0 19724 1.08800000 1636158071 1636158071 -15.00000000
-0.35872635 -1.15386534 0.06332651 2 3 19727 1.21000000 1636158078 1636158078 3.00000000
-0.31764835 -1.02173531 -0.20798181 19 4 19727 1.09000000 1636158081 1636158081 -11.00000000
-10.97357273 -35.27545166 3.23208356 93 5 19728 37.08400000 1636158083 1636158083 5.00000000
-0.32349113 -1.03924918 -0.17239077 62 6 19729 1.10200000 1636158085 1636158085 -9.00000000
-6.19891453 -19.90242195 2.55949998 17 7 19730 21.00200000 1636158087 1636158087 7.00000000
-0.33430639 -1.07267487 -0.13795610 100 8 19731 1.13200000 1636158090 1636158090 -7.00000000
-4.87720394 -15.64927864 2.59618640 80 9 19731 16.59600000 1636158092 1636158092 9.00000000
-3.68134046 -11.79766369 2.40228534 34 11 19733 12.59000000 1636158097 1636158097 11.00000000
-3.60939717 -11.55292130 2.79434204 60 13 19735 12.42200000 1636158101 1636158101 13.00000000
-3.07459950 -9.83511543 2.76108146 61 15 19736 10.66800000 1636158106 1636158106 15.00000000
-0.31960207 -1.01736200 -0.28573623 19 0 19744 1.10400000 1636158127 1636158127 -15.00000000
-0.35795519 -1.13736498 0.06248913 2 3 19747 1.19400000 1636158134 1636158134 3.00000000
-0.32003418 -1.01687491 -0.20721857 19 4 19747 1.08600000 1636158136 1636158136 -11.00000000
-11.10801125 -35.27303696 3.23539543 41 5 19748 37.12200000 1636158138 1636158138 5.00000000
-0.32414842 -1.02869344 -0.17082644 87 6 19749 1.09200000 1636158140 1636158140 -9.00000000
-6.27551222 -19.90338135 2.56242490 22 7 19750 21.02600000 1636158143 1636158143 7.00000000
-0.33984047 -1.07718074 -0.13868731 100 8 19751 1.13800000 1636158145 1636158145 -7.00000000
-4.93417788 -15.63969421 2.59743786 76 9 19751 16.60400000 1636158147 1636158147 9.00000000
-3.72545624 -11.79410172 2.40419340 34 11 19753 12.60000000 1636158152 1636158152 11.00000000
-3.65322804 -11.55140018 2.79704142 57 13 19755 12.43400000 1636158157 1636158157 13.00000000
-3.11124301 -9.83168983 2.76315212 57 15 19756 10.67600000 1636158161 1636158161 15.00000000
-0.32373682 -1.01808119 -0.28625387 19 0 19764 1.10600000 1636158182 1636158182 -15.00000000
-0.37526035 -1.17797530 0.06479191 9 3 19767 1.23800000 1636158189 1636158189 3.00000000
-0.33013684 -1.03632855 -0.21141636 23 4 19767 1.10800000 1636158191 1636158191 -11.00000000
-0.32773724 -1.02755570 -0.17082644 95 6 19769 1.09200000 1636158196 1636158196 -9.00000000
-6.34796715 -19.89081001 2.56364346 22 7 19770 21.03600000 1636158198 1636158198 7.00000000
-0.34178689 -1.07031488 -0.13795610 100 8 19771 1.13200000 1636158200 1636158200 -7.00000000
-4.99627686 -15.63655758 2.59994078 76 9 19772 16.62000000 1636158203 1636158203 9.00000000
-3.76959205 -11.79037571 2.40610147 34 11 19773 12.61000000 1636158207 1636158207 11.00000000
-3.69293356 -11.53672123 2.79659152 54 13 19775 12.43200000 1636158212 1636158212 13.00000000
-3.14790010 -9.82812881 2.76522279 61 15 19776 10.68400000 1636158216 1636158216 15.00000000
-0.33083966 -1.02797866 -0.28935969 19 0 19784 1.11800000 1636158237 1636158237 -15.00000000
-0.37324122 -1.15764916 0.06374519 30 3 19787 1.21800000 1636158244 1636158244 3.00000000
-0.32592055 -1.01087880 -0.20645534 23 4 19787 1.08200000 1636158246 1636158246 -11.00000000
-4.27280998 -13.24467945 1.21756577 4 5 19788 13.97000000 1636158249 1636158249 5.00000000
-0.33556980 -1.03956437 -0.17301652 100 6 19789 1.10600000 1636158251 1636158251 -9.00000000
-6.42346191 -19.88742065 2.56608081 25 7 19790 21.05600000 1636158253 1636158253 7.00000000
-0.34368950 -1.06344855 -0.13722488 91 8 19791 1.12600000 1636158256 1636158256 -7.00000000
-5.04839706 -15.61150360 2.59868932 76 9 19792 16.61200000 1636158258 1636158258 9.00000000
-3.81616473 -11.79395676 2.40953588 34 11 19793 12.62800000 1636158263 1636158263 11.00000000
-3.73378229 -11.52561474 2.79704142 57 13 19795 12.43400000 1636158267 1636158267 13.00000000
-3.18747711 -9.82755089 2.76832843 54 15 19797 10.69600000 1636158272 1636158272 15.00000000
-0.33801550 -1.03783882 -0.29246551 16 0 19804 1.13000000 1636158293 1636158293 -15.00000000
-0.38223594 -1.17152929 0.06458257 52 3 19807 1.23400000 1636158299 1636158299 3.00000000
-0.33127406 -1.01533425 -0.20760019 23 4 19807 1.08800000 1636158302 1636158302 -11.00000000
-4.25347376 -13.02891827 1.19908869 13 5 19808 13.75800000 1636158304 1636158304 5.00000000
-0.34165001 -1.04589772 -0.17426799 100 6 19809 1.11400000 1636158306 1636158306 -9.00000000
-6.49839306 -19.88185883 2.56827450 22 7 19810 21.07400000 1636158309 1636158309 7.00000000
-0.34739953 -1.06224239 -0.13722488 91 8 19811 1.12600000 1636158311 1636158311 -7.00000000
-5.10347462 -15.59566402 2.59900212 48 9 19812 16.61400000 1636158313 1636158313 9.00000000
-3.86464119 -11.80295277 2.41411543 34 11 19813 12.65200000 1636158318 1636158318 11.00000000
-3.77763391 -11.52362156 2.79974079 56 13 19815 12.44600000 1636158322 1636158322 13.00000000
-3.21764040 -9.80958462 2.76625800 54 15 19816 10.68800000 1636158327 1636158327 15.00000000
-0.34405485 -1.04399180 -0.29453608 19 0 19824 1.13800000 1636158348 1636158348 -15.00000000
-0.39070594 -1.18346393 0.06531528 52 3 19827 1.24800000 1636158355 1636158355 3.00000000
-0.33727810 -1.02162886 -0.20912667 23 4 19827 1.09600000 1636158357 1636158357 -11.00000000
-4.30080175 -13.01966667 1.19961166 39 5 19828 13.76400000 1636158359 1636158359 5.00000000
-0.34281909 -1.03719640 -0.17301652 100 6 19829 1.10600000 1636158362 1636158362 -9.00000000
-4.46784306 -13.50951004 1.74711895 33 7 19830 14.33600000 1636158364 1636158364 7.00000000
-0.35235262 -1.06479239 -0.13771236 88 8 19831 1.13000000 1636158366 1636158366 -7.00000000
-4.45066833 -13.44183731 2.24264455 54 9 19832 14.33600000 1636158369 1636158369 9.00000000
-3.90766978 -11.79498196 2.41526031 31 11 19833 12.65800000 1636158373 1636158373 11.00000000
-3.82028985 -11.51776314 2.80154037 56 13 19835 12.45400000 1636158378 1636158378 13.00000000
-3.25003719 -9.79279232 2.76470494 52 15 19836 10.68200000 1636158382 1636158382 15.00000000
-0.34995794 -1.05017614 -0.29660663 19 0 19843 1.14600000 1636158403 1636158403 -15.00000000
-0.39505407 -1.18412519 0.06541994 28 3 19845 1.25000000 1636158410 1636158410 3.00000000
-0.34439400 -1.03167820 -0.21141636 33 4 19846 1.10800000 1636158412 1636158412 -11.00000000
-4.34458447 -13.00722313 1.19978595 39 5 19847 13.76600000 1636158415 1636158415 5.00000000
-0.34500441 -1.03230679 -0.17239077 100 6 19848 1.10200000 1636158417 1636158417 -9.00000000
-4.46603107 -13.35530567 1.72908223 37 7 19849 14.18800000 1636158419 1636158419 7.00000000
-0.35714141 -1.06738317 -0.13819984 88 8 19850 1.13400000 1636158421 1636158421 -7.00000000
-4.44398499 -13.28167152 2.21824074 54 9 19850 14.18000000 1636158424 1636158424 9.00000000
-3.94738555 -11.78382015 2.41564178 34 11 19852 12.66000000 1636158428 1636158428 11.00000000
-3.85970235 -11.50872707 2.80244017 55 13 19854 12.45800000 1636158433 1636158433 13.00000000
-3.28556633 -9.79111862 2.76729321 59 15 19855 10.69200000 1636158438 1636158438 15.00000000
-0.35917586 -1.06542385 -0.30126536 18 0 19863 1.16400000 1636158458 1636158458 -15.00000000
-0.34799314 -1.03046978 -0.21141636 64 4 19866 1.10800000 1636158468 1636158468 -11.00000000
-4.39825296 -13.01651669 1.20205200 43 5 19867 13.79200000 1636158470 1636158470 5.00000000
-0.35113642 -1.03858149 -0.17364226 100 6 19868 1.11000000 1636158472 1636158472 -9.00000000
-4.45918846 -13.18168068 1.70860815 41 7 19869 14.02000000 1636158474 1636158474 7.00000000
-0.35895577 -1.06048906 -0.13746862 88 8 19870 1.12800000 1636158477 1636158477 -7.00000000
-4.44574451 -13.12684155 2.19508839 58 9 19871 14.03200000 1636158479 1636158479 9.00000000
-3.99290538 -11.78298569 2.41831326 31 11 19872 12.67400000 1636158484 1636158484 11.00000000
-3.90110397 -11.49887466 2.80333996 55 13 19874 12.46200000 1636158488 1636158488 13.00000000
-3.32391548 -9.78632736 2.76936388 61 15 19876 10.70000000 1636158493 1636158493 15.00000000
-0.37099856 -1.08793354 -0.30799466 20 0 19883 1.19000000 1636158514 1636158514 -15.00000000
-4.47643089 -13.11191082 0.72610903 7 3 19885 13.87400000 1636158521 1636158521 3.00000000
-0.34587631 -1.01252806 -0.20798181 42 4 19886 1.09000000 1636158523 1636158523 -11.00000000
-4.45461655 -13.03313446 1.20501530 56 5 19887 13.82600000 1636158525 1636158525 5.00000000
-0.35923406 -1.05043316 -0.17583235 100 6 19888 1.12400000 1636158527 1636158527 -9.00000000
-4.45890141 -13.03080559 1.69105899 46 7 19889 13.87600000 1636158530 1636158530 7.00000000
-0.36136937 -1.05547357 -0.13698114 88 8 19890 1.12400000 1636158532 1636158532 -7.00000000
-4.43968344 -12.95987320 2.16974592 59 9 19891 13.87000000 1636158534 1636158534 9.00000000
-4.04037714 -11.78754807 2.42212939 31 11 19892 12.69400000 1636158539 1636158539 11.00000000
-3.93868852 -11.47781467 2.80154037 56 13 19894 12.45400000 1636158544 1636158544 13.00000000
-3.36011410 -9.78621387 2.77246952 59 15 19895 10.71200000 1636158548 1636158548 15.00000000
-0.37479389 -1.08663189 -0.30799466 22 0 19903 1.19000000 1636158569 1636158569 -15.00000000
-4.48436308 -12.98670864 0.72003806 7 3 19905 13.75800000 1636158576 1636158576 3.00000000
-0.35069081 -1.01502585 -0.20874505 26 4 19906 1.09400000 1636158578 1636158578 -11.00000000
-4.46753597 -12.92335320 1.19629967 48 5 19907 13.72600000 1636158580 1636158580 5.00000000
-0.36419001 -1.05290651 -0.17645808 100 6 19908 1.12800000 1636158583 1636158583 -9.00000000
-4.45761538 -12.88009548 1.67350984 37 7 19909 13.73200000 1636158585 1636158585 7.00000000
-0.36700013 -1.05983305 -0.13771236 94 8 19910 1.13000000 1636158587 1636158587 -7.00000000
-4.44673920 -12.83417225 2.15128684 31 9 19911 13.75200000 1636158590 1636158590 9.00000000
-4.08599997 -11.78635693 2.42480063 28 11 19912 12.70800000 1636158594 1636158594 11.00000000
-3.98000765 -11.46767807 2.80244017 56 13 19914 12.45800000 1636158599 1636158599 13.00000000
-3.39171886 -9.76712608 2.77039909 59 15 19915 10.70400000 1636158603 1636158603 15.00000000
-0.37540329 -1.07619667 -0.30540648 22 0 19923 1.18000000 1636158624 1636158624 -15.00000000
-4.47790909 -12.81557655 0.71145499 7 3 19926 13.59400000 1636158631 1636158631 3.00000000
-0.36006010 -1.03047585 -0.21217960 35 4 19926 1.11200000 1636158633 1636158633 -11.00000000
-4.47974300 -12.81364250 1.18758416 17 5 19927 13.62600000 1636158636 1636158636 5.00000000
-0.36525416 -1.04417050 -0.17520660 100 6 19928 1.12000000 1636158638 1636158638 -9.00000000
-4.48615408 -12.81761551 1.66741633 16 7 19929 13.68200000 1636158640 1636158640 7.00000000
-0.37069738 -1.05854559 -0.13771236 94 8 19930 1.13000000 1636158643 1636158643 -7.00000000
-4.47882843 -12.78952599 2.14628077 28 9 19930 13.72000000 1636158645 1636158645 9.00000000
-0.37751621 -1.07741427 -0.09988048 77 10 19931 1.14600000 1636158647 1636158647 -5.00000000
-4.13166380 -11.78499126 2.42747211 31 11 19932 12.72200000 1636158650 1636158650 11.00000000
-4.02388525 -11.46474743 2.80513954 55 13 19934 12.47000000 1636158654 1636158654 13.00000000
-3.42749453 -9.75462914 2.77039909 66 15 19936 10.70400000 1636158659 1636158659 15.00000000
-0.38365608 -1.08763254 -0.30902994 22 0 19943 1.19400000 1636158679 1636158679 -15.00000000
-4.52902842 -12.82513905 0.71281570 27 3 19945 13.62000000 1636158686 1636158686 3.00000000
-0.36365491 -1.02921271 -0.21217960 42 4 19946 1.11200000 1636158689 1636158689 -11.00000000
-4.52842808 -12.80919743 1.18862998 17 5 19947 13.63800000 1636158691 1636158691 5.00000000
-0.36626181 -1.03543997 -0.17395513 100 6 19948 1.11200000 1636158693 1636158693 -9.00000000
-4.53086853 -12.80187798 1.66741633 18 7 19949 13.68200000 1636158696 1636158696 7.00000000
-0.37439016 -1.05724514 -0.13771236 100 8 19950 1.13000000 1636158698 1636158698 -7.00000000
-4.53095198 -12.78792000 2.14878392 24 9 19951 13.73600000 1636158700 1636158700 9.00000000
-0.38260558 -1.07984591 -0.10022911 75 10 19951 1.15000000 1636158703 1636158703 -5.00000000
-4.17474413 -11.77604866 2.42861700 28 11 19952 12.72800000 1636158705 1636158705 11.00000000
-4.06387997 -11.45063210 2.80513954 55 13 19954 12.47000000 1636158709 1636158709 13.00000000
-3.46281719 -9.74624634 2.77143431 64 15 19956 10.70800000 1636158714 1636158714 15.00000000
-0.39673027 -1.11169147 -0.31627688 22 0 19964 1.22200000 1636158735 1636158735 -15.00000000
-0.40817389 -1.14312780 0.02118722 100 1 19965 1.21400000 1636158737 1636158737 1.00000000
-4.57869244 -12.81597710 0.71323442 20 3 19966 13.62800000 1636158742 1636158742 3.00000000
-0.36742473 -1.02787304 -0.21217960 52 4 19967 1.11200000 1636158744 1636158744 -11.00000000
-4.58272648 -12.81315041 1.19054747 17 5 19968 13.66000000 1636158746 1636158746 5.00000000
-0.37005442 -1.03409064 -0.17395513 100 6 19969 1.11200000 1636158749 1636158749 -9.00000000
-4.58244324 -12.79826736 1.66912258 16 7 19970 13.69600000 1636158751 1636158751 7.00000000
-0.37759313 -1.05399704 -0.13746862 100 8 19971 1.12800000 1636158753 1636158753 -7.00000000
-4.58488941 -12.79806137 2.15316391 24 9 19971 13.76400000 1636158756 1636158756 9.00000000
-0.38790542 -1.08218741 -0.10057773 71 10 19972 1.15400000 1636158758 1636158758 -5.00000000
-4.22119141 -11.76990795 2.43052506 28 11 19973 12.73800000 1636158760 1636158760 11.00000000
-4.10648012 -11.43749428 2.80558944 54 13 19975 12.47200000 1636158765 1636158765 13.00000000
-3.49982262 -9.73712444 2.77246952 61 15 19977 10.71200000 1636158769 1636158769 15.00000000
-0.40913197 -1.13392329 -0.32300618 21 0 19984 1.24800000 1636158790 1636158790 -15.00000000
-0.41284069 -1.14357698 0.02122213 100 1 19985 1.21600000 1636158792 1636158792 1.00000000
-4.62543583 -12.80555153 0.71354842 20 3 19986 13.63400000 1636158797 1636158797 3.00000000
-0.36900860 -1.02104509 -0.21103474 76 4 19987 1.10600000 1636158799 1636158799 -11.00000000
-4.63352251 -12.81393814 1.19211626 17 5 19988 13.67800000 1636158802 1636158802 5.00000000
-0.37500593 -1.03650761 -0.17458086 100 6 19989 1.11600000 1636158804 1636158804 -9.00000000
-4.63452244 -12.80272675 1.67180359 18 7 19990 13.71800000 1636158806 1636158806 7.00000000
-0.37721390 -1.04147398 -0.13600619 100 8 19991 1.11600000 1636158809 1636158809 -7.00000000
-4.63357115 -12.79312229 2.15504122 24 9 19991 13.77600000 1636158811 1636158811 9.00000000
-0.39507470 -1.09019268 -0.10144928 71 10 19992 1.16400000 1636158813 1636158813 -5.00000000
-4.27697325 -11.79570675 2.43892050 31 11 19993 12.78200000 1636158815 1636158815 11.00000000
-0.41685587 -1.14904463 -0.06405921 76 12 19994 1.22400000 1636158818 1636158818 -3.00000000
-4.14704418 -11.42492199 2.80603933 56 13 19995 12.47400000 1636158820 1636158820 13.00000000
-3.53576946 -9.73029613 2.77402258 71 15 19997 10.71800000 1636158825 1636158825 15.00000000
-0.41355163 -1.13437533 -0.32352382 21 0 20003 1.25000000 1636158845 1636158845 -15.00000000
-0.42005691 -1.15159476 0.02139665 78 1 20004 1.22600000 1636158848 1636158848 1.00000000
-4.67266846 -12.80327606 0.71428114 12 3 20005 13.64800000 1636158852 1636158852 3.00000000
-0.36835206 -1.00875080 -0.20874505 87 4 20006 1.09400000 1636158855 1636158855 -11.00000000
-4.68009186 -12.80973053 1.19316208 17 5 20007 13.69000000 1636158857 1636158857 5.00000000
-0.37979746 -1.03896892 -0.17520660 100 6 20008 1.12000000 1636158859 1636158859 -9.00000000
-4.68445253 -12.80779457 1.67448473 18 7 20009 13.74000000 1636158861 1636158861 7.00000000
-0.37930110 -1.03648901 -0.13551871 100 8 20010 1.11200000 1636158864 1636158864 -7.00000000
-4.67868471 -12.78510761 2.15629268 24 9 20010 13.78400000 1636158866 1636158866 9.00000000
-0.39594761 -1.08139288 -0.10075204 71 10 20011 1.15600000 1636158868 1636158868 -5.00000000
-4.34307909 -11.85519695 2.45418525 37 11 20012 12.86200000 1636158871 1636158871 11.00000000
-0.41997659 -1.14578068 -0.06395454 69 12 20013 1.22200000 1636158873 1636158873 -3.00000000
-4.18557882 -11.41293621 2.80648947 54 13 20014 12.47600000 1636158875 1636158875 13.00000000
-3.56432414 -9.71369934 2.77246952 64 15 20015 10.71200000 1636158880 1636158880 15.00000000
-0.41550478 -1.12748682 -0.32197088 17 0 20023 1.24400000 1636158901 1636158901 -15.00000000
-0.42130694 -1.14261651 0.02125703 38 1 20024 1.21800000 1636158903 1636158903 1.00000000
-4.72770119 -12.81499481 0.71585119 12 3 20025 13.67800000 1636158908 1636158908 3.00000000
-0.37459034 -1.01482606 -0.21027151 95 4 20026 1.10200000 1636158910 1636158910 -11.00000000
-4.72546816 -12.79518509 1.19333649 17 5 20027 13.69200000 1636158912 1636158912 5.00000000
-0.38068309 -1.03022516 -0.17395513 100 6 20028 1.11200000 1636158914 1636158914 -9.00000000
-4.73463869 -12.80626011 1.67643464 18 7 20029 13.75600000 1636158917 1636158917 7.00000000
-0.38704899 -1.04632938 -0.13698114 100 8 20030 1.12400000 1636158919 1636158919 -7.00000000
-4.73082352 -12.78907681 2.15973425 24 9 20030 13.80600000 1636158921 1636158921 9.00000000
-0.39833686 -1.07626712 -0.10040341 71 10 20031 1.15200000 1636158924 1636158924 -5.00000000
-4.42670441 -11.95411110 2.47784567 34 11 20032 12.98600000 1636158926 1636158926 11.00000000
-0.42189187 -1.13868928 -0.06364052 100 12 20033 1.21600000 1636158928 1636158928 -3.00000000
-4.23013353 -11.41104698 2.80963874 62 13 20034 12.49000000 1636158931 1636158931 13.00000000
-3.59855843 -9.69694805 2.77143431 68 15 20036 10.70800000 1636158935 1636158935 15.00000000
-0.42887864 -1.15137434 -0.32921782 14 0 20043 1.27200000 1636158956 1636158956 -15.00000000
-4.78017998 -12.82610226 0.23892345 10 1 20044 13.69000000 1636158958 1636158958 1.00000000
-4.78162003 -12.81629276 0.71689790 12 3 20046 13.69800000 1636158963 1636158963 3.00000000
-0.37950298 -1.01719117 -0.21103474 95 4 20046 1.10600000 1636158965 1636158965 -11.00000000
-4.77846384 -12.80101109 1.19542813 17 5 20047 13.71600000 1636158967 1636158967 5.00000000
-0.38358581 -1.02703953 -0.17364226 100 6 20048 1.11000000 1636158970 1636158970 -9.00000000
-4.78348112 -12.80081177 1.67789710 16 7 20049 13.76800000 1636158972 1636158972 7.00000000
-0.39347979 -1.05240953 -0.13795610 100 8 20050 1.13200000 1636158974 1636158974 -7.00000000
-4.78097105 -12.78728771 2.16223717 24 9 20050 13.82200000 1636158977 1636158977 9.00000000
-0.40627974 -1.08606672 -0.10144928 67 10 20051 1.16400000 1636158979 1636158979 -5.00000000
-4.50212622 -12.02868176 2.49654484 56 11 20052 13.08400000 1636158981 1636158981 11.00000000
-0.42586407 -1.13720965 -0.06364052 100 12 20053 1.21600000 1636158984 1636158984 -3.00000000
-4.27404213 -11.40716076 2.81233811 57 13 20054 12.50200000 1636158986 1636158986 13.00000000
-3.63408542 -9.69400597 2.77402258 71 15 20055 10.71800000 1636158991 1636158991 15.00000000
-0.43561769 -1.15710211 -0.33128837 14 0 20063 1.28000000 1636159011 1636159011 -15.00000000
-4.82210302 -12.80185223 0.23878382 14 1 20064 13.68200000 1636159014 1636159014 1.00000000
-4.83337498 -12.81821251 0.71794462 25 3 20066 13.71800000 1636159018 1636159018 3.00000000
-0.38582206 -1.02320826 -0.21256122 95 4 20066 1.11400000 1636159020 1636159020 -11.00000000
-4.83015156 -12.80289459 1.19717133 17 5 20067 13.73600000 1636159023 1636159023 5.00000000
-0.38647088 -1.02384627 -0.17332938 100 6 20068 1.10800000 1636159025 1636159025 -9.00000000
-4.83164215 -12.79332161 1.67911577 16 7 20069 13.77800000 1636159027 1636159027 7.00000000
-0.39294091 -1.03988791 -0.13649367 100 8 20070 1.12000000 1636159030 1636159030 -7.00000000
-4.83688784 -12.79369926 2.16630459 24 9 20071 13.84800000 1636159032 1636159032 9.00000000
-0.41006836 -1.08464181 -0.10144928 67 10 20071 1.16400000 1636159034 1636159034 -5.00000000
-4.56145191 -12.05879974 2.50608540 56 11 20072 13.13400000 1636159037 1636159037 11.00000000
-0.42629626 -1.12637639 -0.06311716 100 12 20073 1.20600000 1636159039 1636159039 -3.00000000
-4.31245422 -11.38852787 2.81143832 59 13 20074 12.49800000 1636159041 1636159041 13.00000000
-3.67164564 -9.68603992 2.77557540 66 15 20076 10.72400000 1636159046 1636159046 15.00000000
-0.45085213 -1.18438518 -0.33957058 14 0 20084 1.31200000 1636159067 1636159067 -15.00000000
-4.88109112 -12.81586170 0.23937720 17 1 20085 13.71600000 1636159069 1636159069 1.00000000
-4.88032341 -12.80041122 0.71794462 27 3 20087 13.71800000 1636159073 1636159073 3.00000000
-0.39026910 -1.02362168 -0.21294284 100 4 20087 1.11600000 1636159076 1636159076 -11.00000000
-4.88769579 -12.81302834 1.19978595 70 5 20088 13.76600000 1636159078 1636159078 5.00000000
-0.39303836 -1.02980506 -0.17458086 100 6 20089 1.11600000 1636159080 1636159080 -9.00000000
-4.88416481 -12.79036331 1.68106568 16 7 20090 13.79400000 1636159083 1636159083 7.00000000
-0.39533269 -1.03473198 -0.13600619 100 8 20091 1.11600000 1636159085 1636159085 -7.00000000
-4.88433695 -12.78411865 2.16755605 24 9 20091 13.85600000 1636159087 1636159087 9.00000000
-0.41688666 -1.09057581 -0.10214653 63 10 20092 1.17200000 1636159090 1636159090 -5.00000000
-4.61613846 -12.06950569 2.51180959 59 11 20093 13.16400000 1636159092 1636159092 11.00000000
-0.43042180 -1.12480628 -0.06311716 100 12 20094 1.20600000 1636159094 1636159094 -3.00000000
-4.35277271 -11.36900520 2.81053853 60 13 20095 12.49400000 1636159097 1636159097 13.00000000
-3.70888925 -9.68218517 2.77816367 71 15 20096 10.73400000 1636159101 1636159101 15.00000000
-0.45498365 -1.18280411 -0.33957058 18 0 20104 1.31200000 1636159122 1636159122 -15.00000000
-4.93154287 -12.81367493 0.23965645 21 1 20105 13.73200000 1636159124 1636159124 1.00000000
-0.41035870 -1.06568396 -0.26364264 33 2 20106 1.17200000 1636159126 1636159126 -13.00000000
-4.93071985 -12.79820728 0.71878201 22 3 20107 13.73400000 1636159129 1636159129 3.00000000
-0.39172241 -1.01675713 -0.21179798 100 4 20107 1.11000000 1636159131 1636159131 -11.00000000
-4.93454170 -12.80146599 1.20030892 43 5 20108 13.77200000 1636159133 1636159133 5.00000000
-0.40089551 -1.03948510 -0.17645808 100 6 20109 1.12800000 1636159136 1636159136 -9.00000000
-4.94021559 -12.80286789 1.68496549 16 7 20110 13.82600000 1636159138 1636159138 7.00000000
-0.40323186 -1.04445696 -0.13746862 100 8 20111 1.12800000 1636159140 1636159140 -7.00000000
-4.93400717 -12.77350140 2.16880751 24 9 20112 13.86400000 1636159143 1636159143 9.00000000
-0.42284465 -1.09468961 -0.10266946 71 10 20112 1.17800000 1636159145 1636159145 -5.00000000
-4.67027235 -12.08445072 2.51829720 62 11 20113 13.19800000 1636159147 1636159147 11.00000000
-0.43578610 -1.12702274 -0.06332651 100 12 20114 1.21000000 1636159149 1636159149 -3.00000000
