# .PCD v0.7 - Point Cloud Data file format
VERSION 0.7
FIELDS x y z intensity laser_id azimuth distance_m adjustedtime timestamp vertical_angle
SIZE 4 4 4 1 1 2 8 8 4 8
TYPE F F F U U U F U U F
COUNT 1 1 1 1 1 1 1 1 1 1
WIDTH 527
HEIGHT 1
VIEWPOINT 0 0 0 1 0 0 0
POINTS 527
DATA ascii
2.37846231 -0.90016943 -0.58712226 3 2 11073 2.61000000 1635833985 1635833985 -13.00000000
8.05595398 -3.05052018 0.45144996 10 3 11074 8.62600000 1635833988 1635833988 3.00000000
2.83666587 -1.07415044 -0.58959979 4 4 11074 3.09000000 1635833990 1635833990 -11.00000000
8.06186485 -3.05436754 0.75424582 72 5 11075 8.65400000 1635833992 1635833992 5.00000000
3.51507330 -1.33244383 -0.59538954 8 6 11076 3.80600000 1635833995 1635833995 -9.00000000
8.06468582 -3.05865550 1.05904460 85 7 11077 8.69000000 1635833997 1635833997 7.00000000
4.64547110 -1.76279354 -0.61007792 4 8 11078 5.00600000 1635833999 1635833999 -7.00000000
7.09300995 -2.69296527 -0.66377813 12 10 11079 7.61600000 1635834004 1635834004 -5.00000000
9.47382164 -3.59876728 1.96991205 37 11 11080 10.32400000 1635834006 1635834006 11.00000000
8.05035400 -3.05965066 -0.45134529 17 12 11081 8.62400000 1635834008 1635834008 -3.00000000
8.14024162 -3.09543967 2.01061249 3 13 11082 8.93800000 1635834011 1635834011 13.00000000
8.03667641 -3.05766320 -0.15009069 14 14 11083 8.60000000 1635834013 1635834013 -1.00000000
8.10653877 -3.08586287 2.32419491 45 15 11084 8.98000000 1635834015 1635834015 15.00000000
2.01576519 -0.77014899 -0.57820177 4 0 11091 2.23400000 1635834036 1635834036 -15.00000000
8.04680634 -3.07599545 0.15036993 12 1 11092 8.61600000 1635834038 1635834038 1.00000000
2.38440633 -0.91194707 -0.58937174 4 2 11093 2.62000000 1635834041 1635834041 -13.00000000
8.06391048 -3.08576012 0.45249668 13 3 11094 8.64600000 1635834043 1635834043 3.00000000
2.82556462 -1.08123910 -0.58807331 4 4 11094 3.08200000 1635834045 1635834045 -11.00000000
8.05115414 -3.08248997 0.75424582 72 5 11095 8.65400000 1635834048 1635834048 5.00000000
3.50671148 -1.34329236 -0.59476382 8 6 11096 3.80200000 1635834050 1635834050 -9.00000000
8.06878853 -3.09247136 1.06099451 87 7 11097 8.70600000 1635834052 1635834052 7.00000000
4.65041018 -1.78326297 -0.61154038 4 8 11098 5.01800000 1635834055 1635834055 -7.00000000
6.99799824 -2.68487859 -0.65575981 12 10 11099 7.52400000 1635834059 1635834059 -5.00000000
9.47219944 -3.63603663 1.97220182 46 11 11100 10.33600000 1635834061 1635834061 11.00000000
8.04521847 -3.08988118 -0.45165929 12 12 11101 8.63000000 1635834064 1635834064 -3.00000000
8.14939690 -3.13152456 2.01556134 3 13 11102 8.96000000 1635834066 1635834066 13.00000000
8.03715324 -3.09000349 -0.15030013 14 14 11103 8.61200000 1635834068 1635834068 -1.00000000
8.09626102 -3.11272812 2.32419491 47 15 11103 8.98000000 1635834071 1635834071 15.00000000
2.02027345 -0.77996373 -0.58027232 4 0 11111 2.24200000 1635834091 1635834091 -15.00000000
8.04161644 -3.10622692 0.15047465 12 1 11112 8.62200000 1635834094 1635834094 1.00000000
2.37757301 -0.91885966 -0.58847195 4 2 11113 2.61600000 1635834096 1635834096 -13.00000000
8.07171822 -3.12109280 0.45354339 10 3 11114 8.66600000 1635834098 1635834098 3.00000000
2.82543540 -1.09251165 -0.58883655 4 4 11114 3.08600000 1635834101 1635834101 -11.00000000
8.05892754 -3.11776376 0.75598890 75 5 11115 8.67400000 1635834103 1635834103 5.00000000
3.50200129 -1.35552478 -0.59476382 8 6 11116 3.80200000 1635834105 1635834105 -9.00000000
8.06534863 -3.12348533 1.06196940 87 7 11117 8.71400000 1635834108 1635834108 7.00000000
4.64230633 -1.79876792 -0.61129665 4 8 11118 5.01600000 1635834110 1635834110 -7.00000000
9.37299824 -3.63366461 1.59219003 14 9 11119 10.17800000 1635834112 1635834112 9.00000000
6.63190985 -2.57101679 -0.62229198 4 10 11119 7.14000000 1635834114 1635834114 -5.00000000
8.03996944 -3.12011313 -0.45197332 12 12 11121 8.63600000 1635834119 1635834119 -3.00000000
8.16021538 -3.16841626 2.02096033 3 13 11122 8.98400000 1635834121 1635834121 13.00000000
8.03936577 -3.12310839 -0.15054446 12 14 11123 8.62600000 1635834124 1635834124 -1.00000000
8.10100365 -3.14868045 2.32885385 47 15 11124 8.99800000 1635834126 1635834126 15.00000000
2.01020265 -0.78455371 -0.57820177 4 0 11132 2.23400000 1635834147 1635834147 -15.00000000
8.03576565 -3.13786221 0.15057936 12 1 11133 8.62800000 1635834149 1635834149 1.00000000
2.36329865 -0.92331278 -0.58577257 4 2 11134 2.60400000 1635834151 1635834151 -13.00000000
8.05650425 -3.14920187 0.45333406 13 3 11135 8.66200000 1635834154 1635834154 3.00000000
2.81775522 -1.10143054 -0.58807331 4 4 11135 3.08200000 1635834156 1635834156 -11.00000000
8.06229019 -3.15308571 0.75738341 75 5 11136 8.69000000 1635834158 1635834158 5.00000000
3.49333024 -1.36691153 -0.59413809 8 6 11137 3.79800000 1635834161 1635834161 -9.00000000
8.06124115 -3.15592003 1.06294441 90 7 11138 8.72200000 1635834163 1635834163 7.00000000
4.60980511 -1.80563486 -0.60788429 4 8 11139 4.98800000 1635834165 1635834165 -7.00000000
9.40072250 -3.68221021 1.59907305 17 9 11139 10.22200000 1635834167 1635834167 9.00000000
6.57421112 -2.57640529 -0.61775988 4 10 11140 7.08800000 1635834170 1635834170 -5.00000000
9.45324898 -3.70659113 1.97372830 25 11 11141 10.34400000 1635834172 1635834172 11.00000000
8.02476120 -3.14810133 -0.45176399 12 12 11142 8.63200000 1635834174 1635834174 -3.00000000
8.14673328 -3.19759178 2.02051044 3 13 11143 8.98200000 1635834177 1635834177 13.00000000
8.04647827 -3.15986252 -0.15089351 14 14 11144 8.64600000 1635834179 1635834179 -1.00000000
8.10075188 -3.18117571 2.33195949 47 15 11144 9.01000000 1635834181 1635834181 15.00000000
2.03620648 -0.80290425 -0.58648396 4 0 11152 2.26600000 1635834202 1635834202 -15.00000000
8.03592491 -3.17029643 0.15078880 12 1 11153 8.64000000 1635834204 1635834204 1.00000000
2.36006117 -0.93155664 -0.58577257 4 2 11154 2.60400000 1635834207 1635834207 -13.00000000
8.05289268 -3.18023968 0.45375273 13 3 11155 8.67000000 1635834209 1635834209 3.00000000
2.79928517 -1.10549057 -0.58502036 4 4 11155 3.06600000 1635834211 1635834211 -11.00000000
8.06605816 -3.18706632 0.75877792 71 5 11156 8.70600000 1635834214 1635834214 5.00000000
3.48486352 -1.37764478 -0.59351236 8 6 11157 3.79400000 1635834216 1635834216 -9.00000000
8.06494331 -3.18988085 1.06489432 85 7 11158 8.73800000 1635834218 1635834218 7.00000000
4.63854504 -1.83559334 -0.61251533 4 8 11159 5.02600000 1635834220 1635834220 -7.00000000
9.39083672 -3.71809506 1.59969878 69 9 11160 10.22600000 1635834223 1635834223 9.00000000
6.53553820 -2.58760262 -0.61497092 8 10 11160 7.05600000 1635834225 1635834225 -5.00000000
9.46580696 -3.74968910 1.97907090 40 11 11161 10.37200000 1635834227 1635834227 11.00000000
8.02857685 -3.18198085 -0.45260134 12 12 11162 8.64800000 1635834230 1635834230 -3.00000000
8.13371086 -3.22529125 2.02006054 3 13 11163 8.98000000 1635834232 1635834232 13.00000000
8.03911686 -3.18940544 -0.15096332 12 14 11164 8.65000000 1635834234 1635834234 -1.00000000
8.11597157 -3.22153616 2.33972406 45 15 11165 9.04000000 1635834237 1635834237 15.00000000
2.02621269 -0.80714738 -0.58441341 4 0 11172 2.25800000 1635834257 1635834257 -15.00000000
8.04710007 -3.20721197 0.15120766 12 1 11173 8.66400000 1635834260 1635834260 1.00000000
2.36403561 -0.94267631 -0.58757216 4 2 11174 2.61200000 1635834262 1635834262 -13.00000000
8.05843830 -3.21499085 0.45469478 10 3 11175 8.68800000 1635834264 1635834264 3.00000000
2.80270314 -1.11816525 -0.58654684 4 4 11175 3.07400000 1635834267 1635834267 -11.00000000
8.05673504 -3.21594143 0.75895220 67 5 11176 8.70800000 1635834269 1635834269 5.00000000
3.49104047 -1.39419663 -0.59538954 8 6 11177 3.80600000 1635834271 1635834271 -9.00000000
8.07219315 -3.22537875 1.06733167 85 7 11178 8.75800000 1635834273 1635834273 7.00000000
4.59524393 -1.83703613 -0.60764056 4 8 11179 4.98600000 1635834276 1635834276 -7.00000000
9.37845516 -3.74921584 1.59969878 60 9 11179 10.22600000 1635834278 1635834278 9.00000000
6.51906633 -2.60744047 -0.61427367 8 10 11180 7.04800000 1635834280 1635834280 -5.00000000
9.48729229 -3.79656696 1.98632169 56 11 11181 10.41000000 1635834283 1635834283 11.00000000
8.02854633 -3.21444058 -0.45322937 12 12 11182 8.66000000 1635834285 1635834285 -3.00000000
8.13687515 -3.25946093 2.02365971 3 13 11183 8.99600000 1635834287 1635834287 13.00000000
8.02979088 -3.21819186 -0.15099822 12 14 11184 8.65200000 1635834290 1635834290 -1.00000000
8.10165787 -3.24699450 2.33868885 45 15 11184 9.03600000 1635834292 1635834292 15.00000000
2.00187659 -0.80556107 -0.57820177 4 0 11192 2.23400000 1635834313 1635834313 -15.00000000
8.03956604 -3.23677564 0.15127745 12 1 11193 8.66800000 1635834315 1635834315 1.00000000
2.36073065 -0.95092261 -0.58757216 4 2 11194 2.61200000 1635834317 1635834317 -13.00000000
8.05828190 -3.24758005 0.45532283 10 3 11195 8.70000000 1635834320 1635834320 3.00000000
2.79149938 -1.12500620 -0.58502036 4 4 11195 3.06600000 1635834322 1635834322 -11.00000000
8.04361248 -3.24329996 0.75877792 71 5 11196 8.70600000 1635834324 1635834324 5.00000000
3.47516084 -1.40193999 -0.59351236 8 6 11197 3.79400000 1635834326 1635834326 -9.00000000
8.07192993 -3.25799417 1.06879413 83 7 11198 8.77000000 1635834329 1635834329 7.00000000
4.59984779 -1.85752523 -0.60910296 4 8 11199 4.99800000 1635834331 1635834331 -7.00000000
9.37996387 -3.78784728 1.60220182 60 9 11199 10.24200000 1635834333 1635834333 9.00000000
6.50992489 -2.63018036 -0.61427367 8 10 11200 7.04800000 1635834336 1635834336 -5.00000000
9.47398186 -3.82966065 1.98632169 56 11 11201 10.41000000 1635834338 1635834338 11.00000000
8.03579235 -3.24993420 -0.45427611 12 12 11202 8.68000000 1635834340 1635834340 -3.00000000
13.07875538 -5.29212761 3.25729132 6 13 11203 14.48000000 1635834343 1635834343 13.00000000
8.03519058 -3.25295496 -0.15131237 14 14 11204 8.67000000 1635834345 1635834345 -1.00000000
8.09743690 -3.27815461 2.34075952 45 15 11204 9.04400000 1635834347 1635834347 15.00000000
2.00263190 -0.81399888 -0.57923704 4 0 11212 2.23800000 1635834368 1635834368 -15.00000000
8.02266121 -3.26255941 0.15117274 12 1 11213 8.66200000 1635834370 1635834370 1.00000000
2.35920191 -0.95989174 -0.58802205 4 2 11214 2.61400000 1635834373 1635834373 -13.00000000
8.05984592 -3.28096008 0.45605552 10 3 11215 8.71400000 1635834375 1635834375 3.00000000
2.80210209 -1.14066517 -0.58807331 4 4 11215 3.08200000 1635834377 1635834377 -11.00000000
8.04884911 -3.27812123 0.76034671 71 5 11216 8.72400000 1635834379 1635834379 5.00000000
3.46292877 -1.41108036 -0.59226090 8 6 11217 3.78600000 1635834382 1635834382 -9.00000000
8.06786060 -3.28914833 1.06976914 85 7 11218 8.77800000 1635834384 1635834384 7.00000000
4.59517384 -1.87432015 -0.60934669 4 8 11219 5.00000000 1635834386 1635834386 -7.00000000
9.38613605 -3.83041120 1.60564339 60 9 11220 10.26400000 1635834389 1635834389 9.00000000
6.51915121 -2.66041636 -0.61601681 8 10 11220 7.06800000 1635834391 1635834391 -5.00000000
9.48600197 -3.87309718 1.99166429 53 11 11221 10.43800000 1635834393 1635834393 11.00000000
8.02439880 -3.27796459 -0.45427611 12 12 11222 8.68000000 1635834396 1635834396 -3.00000000
13.09267235 -5.35101938 3.26538944 16 13 11223 14.51600000 1635834398 1635834398 13.00000000
8.03304100 -3.28476739 -0.15148689 14 14 11224 8.68000000 1635834400 1635834400 -1.00000000
8.09667301 -3.31078696 2.34386516 45 15 11224 9.05600000 1635834402 1635834402 15.00000000
2.00513959 -0.82318544 -0.58078992 4 0 11232 2.24400000 1635834423 1635834423 -15.00000000
8.03157139 -3.29890108 0.15155670 12 1 11233 8.68400000 1635834426 1635834426 1.00000000
2.34321952 -0.96293598 -0.58487272 4 2 11234 2.60000000 1635834428 1635834428 -13.00000000
8.05388546 -3.31135273 0.45636955 13 3 11235 8.72000000 1635834430 1635834430 3.00000000
2.79447198 -1.14894629 -0.58731008 4 4 11235 3.07800000 1635834432 1635834432 -11.00000000
8.05762577 -3.31453466 0.76226413 75 5 11236 8.74600000 1635834435 1635834435 5.00000000
3.46346211 -1.42541504 -0.59319949 8 6 11237 3.79200000 1635834437 1635834437 -9.00000000
8.06183720 -3.31955791 1.07050025 78 7 11238 8.78400000 1635834439 1635834439 7.00000000
4.58309650 -1.88808048 -0.60861552 4 8 11239 4.99400000 1635834442 1635834442 -7.00000000
9.39097214 -3.87067914 1.60877204 63 9 11240 10.28400000 1635834444 1635834444 9.00000000
6.53561354 -2.69378567 -0.61845714 16 10 11240 7.09600000 1635834446 1635834446 -5.00000000
9.48512936 -3.91142511 1.99433565 50 11 11241 10.45200000 1635834449 1635834449 11.00000000
8.01660061 -3.30747843 -0.45448545 12 12 11242 8.68400000 1635834451 1635834451 -3.00000000
13.07571602 -5.39743233 3.26583934 33 13 11243 14.51800000 1635834453 1635834453 13.00000000
8.04370594 -3.32194781 -0.15190575 14 14 11244 8.70400000 1635834455 1635834455 -1.00000000
8.09698296 -3.34560466 2.34748864 45 15 11245 9.07000000 1635834458 1635834458 15.00000000
2.00760746 -0.83239943 -0.58234286 4 0 11252 2.25000000 1635834479 1635834479 -15.00000000
8.03478336 -3.33304620 0.15183593 12 1 11253 8.70000000 1635834481 1635834481 1.00000000
2.34344387 -0.97260350 -0.58577257 4 2 11254 2.60400000 1635834483 1635834483 -13.00000000
8.04227734 -3.33944583 0.45636955 13 3 11255 8.72000000 1635834485 1635834485 3.00000000
2.78500485 -1.15643513 -0.58616525 5 4 11255 3.07200000 1635834488 1635834488 -11.00000000
8.05888653 -3.34799147 0.76348430 75 5 11256 8.76000000 1635834490 1635834490 5.00000000
3.44934511 -1.43370521 -0.59163517 6 6 11257 3.78200000 1635834492 1635834492 -9.00000000
8.05386639 -3.34920311 1.07098782 76 7 11258 8.78800000 1635834495 1635834495 7.00000000
4.55448484 -1.89491642 -0.60569066 2 8 11259 4.97000000 1635834497 1635834497 -7.00000000
9.38834572 -3.90799093 1.61064923 60 9 11260 10.29600000 1635834499 1635834499 9.00000000
6.53352833 -2.71964526 -0.61915439 28 10 11260 7.10400000 1635834502 1635834502 -5.00000000
9.49679184 -3.95507765 1.99967825 50 11 11261 10.48000000 1635834504 1635834504 11.00000000
8.02713013 -3.34465957 -0.45574149 12 12 11262 8.70800000 1635834506 1635834506 -3.00000000
12.97585392 -5.40929985 3.24559379 30 13 11263 14.42800000 1635834508 1635834508 13.00000000
8.03390694 -3.35077500 -0.15194064 12 14 11264 8.70600000 1635834511 1635834511 -1.00000000
8.10189056 -3.37912965 2.35214758 45 15 11264 9.08800000 1635834513 1635834513 15.00000000
1.99756193 -0.83641768 -0.58027232 4 0 11272 2.24200000 1635834534 1635834534 -15.00000000
8.04154396 -3.36879921 0.15218498 12 1 11273 8.72000000 1635834536 1635834536 1.00000000
2.34722352 -0.98379087 -0.58757216 4 2 11274 2.61200000 1635834538 1635834538 -13.00000000
8.04899025 -3.37522173 0.45741627 10 3 11275 8.74000000 1635834541 1635834541 3.00000000
2.77914071 -1.16539037 -0.58578360 5 4 11275 3.07000000 1635834543 1635834543 -11.00000000
8.05449963 -3.37918496 0.76418155 78 5 11276 8.76800000 1635834545 1635834545 5.00000000
3.46253371 -1.45338225 -0.59476382 6 6 11277 3.80200000 1635834548 1635834548 -9.00000000
8.06591988 -3.38728786 1.07415640 83 7 11278 8.81400000 1635834550 1635834550 7.00000000
4.53686190 -1.90618932 -0.60422820 2 8 11279 4.95800000 1635834552 1635834552 -7.00000000
9.38557339 -3.94533157 1.61252642 60 9 11280 10.30800000 1635834555 1635834555 9.00000000
6.51848507 -2.74011874 -0.61863148 33 10 11280 7.09800000 1635834557 1635834557 -5.00000000
9.50464439 -3.99733686 2.00425768 46 11 11281 10.50400000 1635834559 1635834559 11.00000000
8.02645111 -3.37730694 -0.45636955 12 12 11282 8.72000000 1635834561 1635834561 -3.00000000
12.84194374 -5.40616989 3.21679997 31 13 11283 14.30000000 1635834564 1635834564 13.00000000
8.02216148 -3.37879825 -0.15194064 12 14 11284 8.70600000 1635834566 1635834566 -1.00000000
8.09716702 -3.41038942 2.35421801 47 15 11284 9.09600000 1635834568 1635834568 15.00000000
1.98054159 -0.83702087 -0.57613117 4 0 11291 2.22600000 1635834589 1635834589 -15.00000000
8.03401184 -3.39700484 0.15225479 12 1 11292 8.72400000 1635834591 1635834591 1.00000000
2.34753776 -0.99308759 -0.58847195 4 2 11293 2.61600000 1635834594 1635834594 -13.00000000
8.05122375 -3.40593886 0.45814896 10 3 11293 8.75400000 1635834596 1635834596 3.00000000
2.77345276 -1.17383468 -0.58540201 5 4 11294 3.06800000 1635834598 1635834598 -11.00000000
8.04508400 -3.40665293 0.76435584 82 5 11295 8.77000000 1635834601 1635834601 5.00000000
3.43950629 -1.45715082 -0.59163517 6 6 11296 3.78200000 1635834603 1635834603 -9.00000000
8.06560898 -3.41866493 1.07561886 83 7 11297 8.82600000 1635834605 1635834605 7.00000000
4.56158400 -1.93439865 -0.60837173 4 8 11298 4.99200000 1635834607 1635834607 -7.00000000
9.38768101 -3.98096728 1.61502945 60 9 11298 10.32400000 1635834610 1635834610 9.00000000
6.50936270 -2.76171994 -0.61863148 16 10 11299 7.09800000 1635834612 1635834612 -5.00000000
9.52025127 -4.04110718 2.01036358 46 11 11300 10.53600000 1635834614 1635834614 11.00000000
8.03726768 -3.41327357 -0.45762560 12 12 11301 8.74400000 1635834617 1635834617 -3.00000000
12.72709370 -5.40757465 3.19250536 34 13 11302 14.19200000 1635834619 1635834619 13.00000000
8.02747536 -3.41242290 -0.15225479 10 14 11303 8.72400000 1635834621 1635834621 -1.00000000
8.08581352 -3.43722177 2.35421801 45 15 11303 9.09600000 1635834624 1635834624 15.00000000
1.98826873 -0.84847867 -0.57923704 4 0 11311 2.23800000 1635834644 1635834644 -15.00000000
8.02578354 -3.42659855 0.15232460 12 1 11312 8.72800000 1635834647 1635834647 1.00000000
2.34226489 -1.00051045 -0.58802205 4 2 11313 2.61400000 1635834649 1635834649 -13.00000000
8.06256104 -3.44562864 0.45950970 10 3 11314 8.78000000 1635834651 1635834651 3.00000000
2.77475429 -1.18582332 -0.58654684 5 4 11314 3.07400000 1635834654 1635834654 -11.00000000
8.04779911 -3.44098115 0.76575035 82 5 11315 8.78600000 1635834656 1635834656 5.00000000
3.43621516 -1.46992493 -0.59194803 6 6 11316 3.78400000 1635834658 1635834658 -9.00000000
8.05180168 -3.44601727 1.07537508 80 7 11317 8.82400000 1635834660 1635834660 7.00000000
4.55845356 -1.95187259 -0.60885924 6 8 11318 4.99600000 1635834663 1635834663 -7.00000000
9.40026379 -4.02701616 1.61972249 60 9 11319 10.35400000 1635834665 1635834665 9.00000000
6.51982832 -2.79305506 -0.62054890 12 10 11319 7.12000000 1635834667 1635834667 -5.00000000
9.52052307 -4.08050156 2.01341653 43 11 11320 10.55200000 1635834670 1635834670 11.00000000
8.04366112 -3.44917917 -0.45867231 12 12 11321 8.76400000 1635834672 1635834672 -3.00000000
12.59710503 -5.40433168 3.16461134 32 13 11322 14.06800000 1635834674 1635834674 13.00000000
8.03756618 -3.44988799 -0.15267365 12 14 11323 8.74800000 1635834677 1635834677 -1.00000000
8.09446239 -3.47598195 2.36042976 45 15 11324 9.12000000 1635834679 1635834679 15.00000000
1.97819817 -0.85235608 -0.57716650 4 0 11331 2.23000000 1635834700 1635834700 -15.00000000
8.02479172 -3.45934248 0.15253404 12 1 11332 8.74000000 1635834702 1635834702 1.00000000
2.31907463 -1.00019121 -0.58307314 4 2 11333 2.59200000 1635834704 1635834704 -13.00000000
8.05109119 -3.47234607 0.45950970 15 3 11333 8.78000000 1635834707 1635834707 3.00000000
2.77420330 -1.19705737 -0.58731008 5 4 11334 3.07800000 1635834709 1635834709 -11.00000000
8.05768967 -3.47852826 0.76784211 82 5 11335 8.81000000 1635834711 1635834711 5.00000000
3.42743635 -1.48034406 -0.59132230 6 6 11336 3.78000000 1635834713 1635834713 -9.00000000
8.04701233 -3.47725201 1.07635009 76 7 11337 8.83200000 1635834716 1635834716 7.00000000
4.52610302 -1.95674431 -0.60544688 6 8 11338 4.96800000 1635834718 1635834718 -7.00000000
9.41697121 -4.07313633 1.62504125 54 9 11339 10.38800000 1635834720 1635834720 9.00000000
6.52101088 -2.82054234 -0.62159479 12 10 11339 7.13200000 1635834723 1635834723 -5.00000000
9.53865433 -4.12774420 2.02028561 34 11 11340 10.58800000 1635834725 1635834725 11.00000000
8.01324368 -3.46930051 -0.45762560 12 12 11341 8.74400000 1635834727 1635834727 -3.00000000
12.46729565 -5.40024805 3.13671756 36 13 11342 13.94400000 1635834730 1635834730 13.00000000
8.04015350 -3.48428440 -0.15295289 14 14 11343 8.76400000 1635834732 1635834732 -1.00000000
8.09529877 -3.50818229 2.36405325 47 15 11343 9.13400000 1635834734 1635834734 15.00000000
1.98583972 -0.86387986 -0.58027232 4 0 11351 2.24200000 1635834755 1635834755 -15.00000000
8.02916908 -3.49451542 0.15284817 12 1 11352 8.75800000 1635834757 1635834757 1.00000000
2.32628942 -1.01294816 -0.58577257 4 2 11353 2.60400000 1635834759 1635834759 -13.00000000
8.03892136 -3.50042844 0.45950970 18 3 11353 8.78000000 1635834762 1635834762 3.00000000
2.75920868 -1.20202923 -0.58502036 5 4 11354 3.06600000 1635834764 1635834764 -11.00000000
8.05645657 -3.51141000 0.76888794 82 5 11355 8.82200000 1635834766 1635834766 5.00000000
3.42949080 -1.49545741 -0.59257376 4 6 11356 3.78800000 1635834769 1635834769 -9.00000000
8.04574299 -3.51008296 1.07781243 76 7 11357 8.84400000 1635834771 1635834771 7.00000000
4.51196814 -1.96935499 -0.60447192 6 8 11358 4.96000000 1635834773 1635834773 -7.00000000
9.41355801 -4.11072588 1.62691844 54 9 11359 10.40000000 1635834776 1635834776 9.00000000
6.51477766 -2.84488225 -0.62194335 28 10 11359 7.13600000 1635834778 1635834778 -5.00000000
9.58175659 -4.18616676 2.03249741 21 11 11360 10.65200000 1635834780 1635834780 11.00000000
8.03219604 -3.51084948 -0.45940503 8 12 11361 8.77800000 1635834783 1635834783 -3.00000000
12.33766937 -5.39532471 3.10882354 34 13 11362 13.82000000 1635834785 1635834785 13.00000000
8.02610970 -3.51152682 -0.15291798 14 14 11363 8.76200000 1635834787 1635834787 -1.00000000
8.10247231 -3.54493642 2.36974716 47 15 11363 9.15600000 1635834789 1635834789 15.00000000
1.97603977 -0.86700952 -0.57820177 4 0 11369 2.23400000 1635834810 1635834810 -15.00000000
8.03829288 -3.52856398 0.15323213 12 1 11370 8.78000000 1635834812 1635834812 1.00000000
2.31774306 -1.01790059 -0.58442283 3 2 11371 2.59800000 1635834815 1635834815 -13.00000000
8.04372597 -3.53429818 0.46045175 10 3 11372 8.79800000 1635834817 1635834817 3.00000000
2.74283695 -1.20516336 -0.58234906 5 4 11372 3.05200000 1635834819 1635834819 -11.00000000
8.05450535 -3.54071164 0.76975954 78 5 11373 8.83200000 1635834822 1635834822 5.00000000
3.41392660 -1.50145245 -0.59069651 4 6 11374 3.77600000 1635834824 1635834824 -9.00000000
8.06374741 -3.54813385 1.08171225 99 7 11375 8.87600000 1635834826 1635834826 7.00000000
4.51484299 -1.98751903 -0.60569066 4 8 11376 4.97000000 1635834829 1635834829 -7.00000000
9.41216755 -4.14341354 1.62879562 51 9 11376 10.41200000 1635834831 1635834831 9.00000000
6.51492500 -2.86935043 -0.62281495 33 10 11377 7.14600000 1635834833 1635834833 -5.00000000
12.26881027 -5.40607548 2.60606933 28 11 11378 13.65800000 1635834836 1635834836 11.00000000
6.43115616 -2.83513713 -0.36834046 7 12 11379 7.03800000 1635834838 1635834838 -3.00000000
12.21546078 -5.38766003 3.08227944 37 13 11380 13.70200000 1635834840 1635834840 13.00000000
8.02601528 -3.54156804 -0.15312742 14 14 11381 8.77400000 1635834842 1635834842 -1.00000000
8.09950924 -3.57568693 2.37233543 47 15 11382 9.16600000 1635834845 1635834845 15.00000000
1.96946859 -0.87233716 -0.57716650 4 0 11389 2.23000000 1635834865 1635834865 -15.00000000
8.04055309 -3.56308270 0.15351136 12 1 11390 8.79600000 1635834868 1635834868 1.00000000
2.32842779 -1.03230333 -0.58802205 3 2 11391 2.61400000 1635834870 1635834870 -13.00000000
8.05204582 -3.56985712 0.46160313 18 3 11391 8.82000000 1635834872 1635834872 3.00000000
2.74399734 -1.21711838 -0.58349389 5 4 11392 3.05800000 1635834875 1635834875 -11.00000000
3.41227555 -1.51496327 -0.59132230 6 6 11394 3.78000000 1635834879 1635834879 -9.00000000
8.06401253 -3.58190060 1.08341849 87 7 11395 8.89000000 1635834882 1635834882 7.00000000
4.48973751 -1.99520528 -0.60325325 4 8 11396 4.95000000 1635834884 1635834884 -7.00000000
9.42399311 -4.18992090 1.63348866 57 9 11397 10.44200000 1635834886 1635834886 9.00000000
6.50851059 -2.89369321 -0.62316358 33 10 11397 7.15000000 1635834889 1635834889 -5.00000000
12.14223766 -5.40099430 2.58317208 34 11 11398 13.53800000 1635834891 1635834891 11.00000000
6.39932346 -2.84782434 -0.36708438 37 12 11399 7.01400000 1635834893 1635834893 -3.00000000
12.10934639 -5.39142847 3.06023407 36 13 11400 13.60400000 1635834895 1635834895 13.00000000
8.02456379 -3.57444453 -0.15333684 12 14 11401 8.78600000 1635834898 1635834898 -1.00000000
8.09050751 -3.60551047 2.37337065 47 15 11402 9.17000000 1635834900 1635834900 15.00000000
1.97331202 -0.88270509 -0.57923704 4 0 11410 2.23800000 1635834921 1635834921 -15.00000000
8.03108978 -3.59416246 0.15358117 12 1 11411 8.80000000 1635834923 1635834923 1.00000000
2.30684257 -1.03286707 -0.58352304 3 2 11412 2.59400000 1635834925 1635834925 -13.00000000
2.74489307 -1.22957528 -0.58463877 5 4 11413 3.06400000 1635834930 1635834930 -11.00000000
3.41030502 -1.52907610 -0.59194803 4 6 11415 3.78400000 1635834935 1635834935 -9.00000000
8.05445194 -3.61305761 1.08390594 83 7 11416 8.89400000 1635834937 1635834937 7.00000000
4.49326086 -2.01652431 -0.60471570 4 8 11417 4.96200000 1635834939 1635834939 -7.00000000
9.43454075 -4.23411465 1.63786888 69 9 11417 10.47000000 1635834942 1635834942 9.00000000
6.50513124 -2.92079282 -0.62386084 16 10 11418 7.15800000 1635834944 1635834944 -5.00000000
12.01311684 -5.39638901 2.55989337 34 11 11419 13.41600000 1635834946 1635834946 11.00000000
6.38337755 -2.86880374 -0.36677039 26 12 11420 7.00800000 1635834948 1635834948 -3.00000000
11.98997402 -5.39102316 3.03503966 30 13 11421 13.49200000 1635834951 1635834951 13.00000000
8.02782249 -3.61121511 -0.15365098 14 14 11422 8.80400000 1635834953 1635834953 -1.00000000
8.08957005 -3.64068913 2.37699413 47 15 11423 9.18400000 1635834955 1635834955 15.00000000
1.96669734 -0.88799793 -0.57820177 4 0 11430 2.23400000 1635834976 1635834976 -15.00000000
8.02031803 -3.62299752 0.15361609 12 1 11431 8.80200000 1635834978 1635834978 1.00000000
2.30322313 -1.04091311 -0.58352304 3 2 11432 2.59400000 1635834981 1635834981 -13.00000000
6.28453398 -2.84021735 0.36143211 7 3 11432 6.90600000 1635834983 1635834983 3.00000000
2.74952888 -1.24319339 -0.58654684 5 4 11433 3.07400000 1635834985 1635834985 -11.00000000
3.39054942 -1.53445518 -0.58944505 4 6 11435 3.76800000 1635834990 1635834990 -9.00000000
8.04902458 -3.64442611 1.08488095 85 7 11436 8.90200000 1635834992 1635834992 7.00000000
4.46811247 -2.02400541 -0.60227829 4 8 11437 4.94200000 1635834995 1635834995 -7.00000000
9.44849300 -4.28006268 1.64287472 69 9 11437 10.50200000 1635834997 1635834997 9.00000000
6.28620291 -2.84890270 -0.60381496 8 10 11438 6.92800000 1635834999 1635834999 -5.00000000
11.90301704 -5.39694309 2.54043102 34 11 11439 13.31400000 1635835001 1635835001 11.00000000
6.28420019 -2.85063958 -0.36164147 7 12 11440 6.91000000 1635835004 1635835004 -3.00000000
11.87880611 -5.39096546 3.01164460 22 13 11441 13.38800000 1635835006 1635835006 13.00000000
8.03519726 -3.64830947 -0.15403494 12 14 11442 8.82600000 1635835008 1635835008 -1.00000000
8.10143661 -3.68009043 2.38424110 45 15 11443 9.21200000 1635835011 1635835011 15.00000000
1.97413313 -0.89966428 -0.58130759 4 0 11450 2.24600000 1635835031 1635835031 -15.00000000
8.03127575 -3.66175604 0.15406984 12 1 11451 8.82800000 1635835034 1635835034 1.00000000
2.29957557 -1.04894650 -0.58352304 3 2 11452 2.59400000 1635835036 1635835036 -13.00000000
6.27639866 -2.86296606 0.36153677 17 3 11452 6.90800000 1635835038 1635835038 3.00000000
2.73088408 -1.24626279 -0.58349389 5 4 11453 3.05800000 1635835041 1635835041 -11.00000000
3.38876605 -1.54792261 -0.59007078 4 6 11455 3.77200000 1635835045 1635835045 -9.00000000
8.05069828 -3.67910099 1.08683085 87 7 11456 8.91800000 1635835047 1635835047 7.00000000
4.45379829 -2.03628802 -0.60130334 4 8 11457 4.93400000 1635835050 1635835050 -7.00000000
9.44966412 -4.32041073 1.64569056 60 9 11457 10.52000000 1635835052 1635835052 9.00000000
6.21099377 -2.84099293 -0.59753978 8 10 11458 6.85600000 1635835054 1635835054 -5.00000000
11.79663086 -5.39842892 2.52173162 34 11 11459 13.21600000 1635835057 1635835057 11.00000000
6.20883608 -2.84262705 -0.35787326 7 12 11460 6.83800000 1635835059 1635835059 -3.00000000
8.49009800 -3.88886285 2.15593100 28 13 11461 9.58400000 1635835061 1635835061 13.00000000
8.03332043 -3.68133378 -0.15424436 8 14 11462 8.83800000 1635835064 1635835064 -1.00000000
8.11026287 -3.71659327 2.39045262 45 15 11462 9.23600000 1635835066 1635835066 15.00000000
1.95693982 -0.90009177 -0.57716650 4 0 11470 2.23000000 1635835087 1635835087 -15.00000000
8.03661060 -3.69812751 0.15441889 12 1 11471 8.84800000 1635835089 1635835089 1.00000000
2.30652118 -1.06185675 -0.58622247 3 2 11472 2.60600000 1635835091 1635835091 -13.00000000
6.19198322 -2.85061312 0.35724524 32 3 11472 6.82600000 1635835094 1635835094 3.00000000
2.72651720 -1.25578785 -0.58349389 6 4 11473 3.05800000 1635835096 1635835096 -11.00000000
6.11075020 -2.81580138 0.58864987 3 5 11474 6.75400000 1635835098 1635835098 5.00000000
3.37975430 -1.55808818 -0.58944505 4 6 11475 3.76800000 1635835100 1635835100 -9.00000000
8.05943775 -3.71715736 1.08975565 87 7 11476 8.94200000 1635835103 1635835103 7.00000000
4.46468782 -2.06013942 -0.60374075 6 8 11477 4.95400000 1635835105 1635835105 -7.00000000
9.44708157 -4.35916328 1.64788067 40 9 11477 10.53400000 1635835107 1635835107 9.00000000
6.17209578 -2.84929466 -0.59475076 12 10 11478 6.82400000 1635835110 1635835110 -5.00000000
6.18799686 -2.85925603 -0.35724524 14 12 11480 6.82600000 1635835114 1635835114 -3.00000000
8.47824001 -3.91929293 2.15638089 38 13 11481 9.58600000 1635835117 1635835117 13.00000000
8.01679134 -3.70767403 -0.15417455 8 14 11482 8.83400000 1635835119 1635835119 -1.00000000
8.10710621 -3.75116134 2.39355850 45 15 11483 9.24800000 1635835121 1635835121 15.00000000
1.95028150 -0.90529054 -0.57613117 4 0 11490 2.22600000 1635835142 1635835142 -15.00000000
6.03950357 -2.80472565 0.11623303 11 1 11491 6.66000000 1635835144 1635835144 1.00000000
2.29926586 -1.06825936 -0.58532262 3 2 11492 2.60200000 1635835147 1635835147 -13.00000000
6.14527035 -2.85645151 0.35515180 60 3 11493 6.78600000 1635835149 1635835149 3.00000000
2.72389746 -1.26612496 -0.58387554 5 4 11493 3.06000000 1635835151 1635835151 -11.00000000
6.09004450 -2.83207393 0.58760405 10 5 11494 6.74200000 1635835153 1635835153 5.00000000
3.38145924 -1.57320929 -0.59069651 4 6 11495 3.77600000 1635835156 1635835156 -9.00000000
8.06800938 -3.75531960 1.09268057 90 7 11496 8.96600000 1635835158 1635835158 7.00000000
4.47186613 -2.08241534 -0.60569066 6 8 11497 4.97000000 1635835160 1635835160 -7.00000000
6.12238026 -2.85231137 -0.59091592 12 10 11498 6.78000000 1635835165 1635835165 -5.00000000
11.55045891 -5.38361311 2.47708249 18 11 11499 12.98200000 1635835167 1635835167 11.00000000
6.16892815 -2.87661839 -0.35672188 14 12 11500 6.81600000 1635835170 1635835170 -3.00000000
8.46274185 -3.94803977 2.15593100 44 13 11501 9.58400000 1635835172 1635835172 13.00000000
5.99605513 -2.79855490 -0.11550003 9 14 11502 6.61800000 1635835174 1635835174 -1.00000000
8.08761978 -3.77475667 2.39148808 45 15 11502 9.24000000 1635835177 1635835177 15.00000000
1.94710958 -0.91209275 -0.57613117 4 0 11510 2.22600000 1635835197 1635835197 -15.00000000
5.99527311 -2.80966711 0.11556984 40 1 11511 6.62200000 1635835200 1635835200 1.00000000
2.29905176 -1.07793331 -0.58622247 3 2 11512 2.60600000 1635835202 1635835202 -13.00000000
6.14611149 -2.88297415 0.35577983 85 3 11513 6.79800000 1635835204 1635835204 3.00000000
2.71946120 -1.27562547 -0.58387554 5 4 11513 3.06000000 1635835206 1635835206 -11.00000000
6.09455109 -2.86008644 0.58899850 13 5 11514 6.75800000 1635835209 1635835209 5.00000000
3.36164212 -1.57828701 -0.58819360 4 6 11515 3.76000000 1635835211 1635835211 -9.00000000
8.06024265 -3.78599119 1.09341180 80 7 11516 8.97200000 1635835213 1635835213 7.00000000
4.44301033 -2.08788133 -0.60276580 4 8 11517 4.94600000 1635835216 1635835216 -7.00000000
9.50145435 -4.46699429 1.66289842 17 9 11518 10.63000000 1635835218 1635835218 9.00000000
6.09796190 -2.86688352 -0.58952147 12 10 11518 6.76400000 1635835220 1635835220 -5.00000000
11.45520401 -5.38796806 2.46067286 31 11 11519 12.89600000 1635835223 1635835223 11.00000000
6.06126165 -2.85221338 -0.35106960 14 12 11520 6.70800000 1635835225 1635835225 -3.00000000
8.46301460 -3.98419642 2.15953016 44 13 11521 9.60000000 1635835227 1635835227 13.00000000
5.92474079 -2.79049778 -0.11431326 24 14 11522 6.55000000 1635835230 1635835230 -1.00000000
8.09819603 -3.81590223 2.39873481 45 15 11523 9.26800000 1635835232 1635835232 15.00000000
1.94931436 -0.92102045 -0.57768410 4 0 11529 2.23200000 1635835253 1635835253 -15.00000000
6.00219393 -2.83722401 0.11588398 66 1 11530 6.64000000 1635835255 1635835255 1.00000000
2.27784777 -1.07722020 -0.58172345 3 2 11531 2.58600000 1635835257 1635835257 -13.00000000
2.71876550 -1.28631580 -0.58463877 5 4 11532 3.06400000 1635835262 1635835262 -11.00000000
6.02920723 -2.85385633 0.58359486 40 5 11533 6.69600000 1635835264 1635835264 5.00000000
3.35281920 -1.58773506 -0.58756787 4 6 11534 3.75600000 1635835266 1635835266 -9.00000000
8.04046726 -3.80929947 1.09243679 42 7 11535 8.96400000 1635835269 1635835269 7.00000000
4.41633034 -2.09325075 -0.60008466 6 8 11536 4.92400000 1635835271 1635835271 -7.00000000
11.38663387 -5.39703274 1.99579096 13 9 11536 12.75800000 1635835273 1635835273 9.00000000
6.07942009 -2.88282108 -0.58864987 4 10 11537 6.75400000 1635835276 1635835276 -5.00000000
11.34858513 -5.38385105 2.44159198 34 11 11538 12.79600000 1635835278 1635835278 11.00000000
6.00305271 -2.84917521 -0.34824345 7 12 11539 6.65400000 1635835280 1635835280 -3.00000000
8.44271374 -4.00889540 2.15773058 45 13 11540 9.59200000 1635835283 1635835283 13.00000000
5.89197350 -2.79897499 -0.11385950 40 14 11541 6.52400000 1635835285 1635835285 -1.00000000
8.09140301 -3.84381151 2.40028787 42 15 11541 9.27400000 1635835287 1635835287 15.00000000
1.94783127 -0.92865062 -0.57820177 4 0 11549 2.23400000 1635835308 1635835308 -15.00000000
6.01571703 -2.86934996 0.11633774 100 1 11550 6.66600000 1635835310 1635835310 1.00000000
2.27935004 -1.08768260 -0.58307314 4 2 11551 2.59200000 1635835312 1635835312 -13.00000000
8.04229259 -3.83942342 0.46704608 7 3 11552 8.92400000 1635835315 1635835315 3.00000000
2.70717192 -1.29241490 -0.58311230 5 4 11552 3.05600000 1635835317 1635835317 -11.00000000
5.99943209 -2.86543918 0.58167744 67 5 11553 6.67400000 1635835319 1635835319 5.00000000
3.35795069 -1.60453892 -0.58944505 4 6 11554 3.76800000 1635835322 1635835322 -9.00000000
4.40899658 -2.10865402 -0.60008466 6 8 11556 4.92400000 1635835326 1635835326 -7.00000000
11.27411652 -5.39439535 1.97952175 13 9 11557 12.65400000 1635835329 1635835329 9.00000000
6.07830667 -2.90832424 -0.58952147 4 10 11557 6.76400000 1635835331 1635835331 -5.00000000
11.24826527 -5.38443899 2.42403746 34 11 11558 12.70400000 1635835333 1635835333 11.00000000
5.91921568 -2.83474278 -0.34395191 3 12 11559 6.57200000 1635835335 1635835335 -3.00000000
8.41812420 -4.03328943 2.15503120 47 13 11560 9.58000000 1635835338 1635835338 13.00000000
5.86774158 -2.81260991 -0.11358026 65 14 11561 6.50800000 1635835340 1635835340 -1.00000000
8.09642220 -3.88263083 2.40598178 45 15 11562 9.29600000 1635835342 1635835342 15.00000000
1.94125903 -0.93343043 -0.57716650 4 0 11568 2.23000000 1635835363 1635835363 -15.00000000
5.99535656 -2.88408160 0.11612831 63 1 11569 6.65400000 1635835365 1635835365 1.00000000
2.28626633 -1.10030568 -0.58577257 4 2 11570 2.60400000 1635835368 1635835368 -13.00000000
8.04751205 -3.87473583 0.46809280 7 3 11571 8.94400000 1635835370 1635835370 3.00000000
2.69579554 -1.29797840 -0.58158582 5 4 11571 3.04800000 1635835372 1635835372 -11.00000000
5.99169207 -2.88618302 0.58185172 60 5 11572 6.67600000 1635835375 1635835375 5.00000000
3.37040663 -1.62424123 -0.59257376 4 6 11573 3.78800000 1635835377 1635835377 -9.00000000
5.94907379 -2.86821294 0.81091863 23 7 11574 6.65400000 1635835379 1635835379 7.00000000
4.39482832 -2.11981344 -0.59910971 6 8 11575 4.91600000 1635835382 1635835382 -7.00000000
11.16815281 -5.38687754 1.96387827 13 9 11575 12.55400000 1635835384 1635835384 9.00000000
6.09375000 -2.94058728 -0.59196180 4 10 11576 6.79200000 1635835386 1635835386 -5.00000000
11.15432453 -5.38500738 2.40762782 34 11 11577 12.61800000 1635835388 1635835388 11.00000000
5.86661959 -2.83350873 -0.34143978 3 12 11578 6.52400000 1635835391 1635835391 -3.00000000
8.40119362 -4.05948687 2.15413141 47 13 11579 9.57600000 1635835393 1635835393 13.00000000
5.85658169 -2.83118224 -0.11354536 27 14 11580 6.50600000 1635835395 1635835395 -1.00000000
8.09809875 -3.91477370 2.41012287 47 15 11580 9.31200000 1635835398 1635835398 15.00000000
1.92929840 -0.93598485 -0.57457829 4 0 11588 2.22000000 1635835418 1635835418 -15.00000000
5.95466995 -2.89014816 0.11553493 43 1 11589 6.62000000 1635835421 1635835421 1.00000000
2.27715254 -1.10572588 -0.58442283 3 2 11590 2.59800000 1635835423 1635835423 -13.00000000
8.05190277 -3.91153049 0.46913952 7 3 11591 8.96400000 1635835425 1635835425 3.00000000
2.69831204 -1.31081200 -0.58311230 5 4 11591 3.05600000 1635835428 1635835428 -11.00000000
8.02979755 -3.90252447 0.78108978 33 5 11592 8.96200000 1635835430 1635835430 5.00000000
3.34162188 -1.62476707 -0.58850646 6 6 11593 3.76200000 1635835432 1635835432 -9.00000000
5.88368797 -2.86204314 0.80336273 39 7 11594 6.59200000 1635835435 1635835435 7.00000000
4.39097166 -2.13687873 -0.59959716 6 8 11595 4.92000000 1635835437 1635835437 -7.00000000
6.06911755 -2.95486331 -0.59056729 4 10 11596 6.77600000 1635835441 1635835441 -5.00000000
11.04014874 -5.37748623 2.38702059 34 11 11597 12.51000000 1635835444 1635835444 11.00000000
5.81360245 -2.83297181 -0.33892766 3 12 11598 6.47600000 1635835446 1635835446 -3.00000000
8.39397907 -4.09220362 2.15593100 47 13 11599 9.58400000 1635835448 1635835448 13.00000000
8.08890438 -3.94696999 2.41167593 47 15 11601 9.31800000 1635835453 1635835453 15.00000000
1.93990064 -0.94950801 -0.57871938 4 0 11608 2.23600000 1635835474 1635835474 -15.00000000
5.91581011 -2.89684534 0.11497645 66 1 11609 6.58800000 1635835476 1635835476 1.00000000
2.26277900 -1.10852396 -0.58172345 3 2 11610 2.58600000 1635835478 1635835478 -13.00000000
8.04896069 -3.94488692 0.46976754 7 3 11611 8.97600000 1635835481 1635835481 3.00000000
2.69372010 -1.32022285 -0.58311230 5 4 11611 3.05600000 1635835483 1635835483 -11.00000000
8.05906010 -3.95158172 0.78527325 45 5 11612 9.01000000 1635835485 1635835485 5.00000000
3.33060956 -1.63381171 -0.58756787 6 6 11613 3.75600000 1635835488 1635835488 -9.00000000
5.86296940 -2.87731624 0.80190027 89 7 11614 6.58000000 1635835490 1635835490 7.00000000
4.39061356 -2.15569258 -0.60057211 6 8 11615 4.92800000 1635835492 1635835492 -7.00000000
5.87810373 -2.88601685 1.03716052 7 9 11615 6.63000000 1635835494 1635835494 9.00000000
6.44146299 -3.16400886 -0.62786996 4 10 11616 7.20400000 1635835497 1635835497 -5.00000000
5.77858496 -2.84091139 -0.33746225 3 12 11618 6.44800000 1635835501 1635835501 -3.00000000
8.38663864 -4.12491941 2.15773058 45 13 11619 9.59200000 1635835504 1635835504 13.00000000
5.94253445 -2.92408943 -0.11560474 2 14 11620 6.62400000 1635835506 1635835506 -1.00000000
8.08963776 -3.98059535 2.41581702 47 15 11620 9.33400000 1635835508 1635835508 15.00000000
1.92618132 -0.95114166 -0.57561356 4 0 11628 2.22400000 1635835529 1635835529 -15.00000000
5.89311218 -2.91127777 0.11473212 66 1 11629 6.57400000 1635835531 1635835531 1.00000000
2.26238966 -1.11814260 -0.58262324 3 2 11630 2.59000000 1635835534 1635835534 -13.00000000
8.03693104 -3.97384429 0.46987221 7 3 11631 8.97800000 1635835536 1635835536 3.00000000
2.68909526 -1.32961762 -0.58311230 5 4 11631 3.05600000 1635835538 1635835538 -11.00000000
8.04343128 -3.97880554 0.78509891 37 5 11632 9.00800000 1635835541 1635835541 5.00000000
3.32134509 -1.64367545 -0.58694214 6 6 11633 3.75200000 1635835543 1635835543 -9.00000000
5.84933186 -2.89600277 0.80141282 28 7 11634 6.57600000 1635835545 1635835545 7.00000000
4.37238884 -2.16571903 -0.59910971 6 8 11635 4.91600000 1635835547 1635835547 -7.00000000
5.80730724 -2.87772083 1.02652299 20 9 11636 6.56200000 1635835550 1635835550 9.00000000
6.48750639 -3.21478295 -0.63344795 8 10 11636 7.26800000 1635835552 1635835552 -5.00000000
10.80533314 -5.35676432 2.34427929 12 11 11637 12.28600000 1635835554 1635835554 11.00000000
5.73284769 -2.84331656 -0.33536881 3 12 11638 6.40800000 1635835557 1635835557 -3.00000000
8.37567997 -4.15590191 2.15863037 47 13 11639 9.59600000 1635835559 1635835559 13.00000000
5.96632290 -2.96170831 -0.11626793 2 14 11640 6.66200000 1635835561 1635835561 -1.00000000
8.09229660 -4.01881123 2.42099333 47 15 11641 9.35400000 1635835564 1635835564 15.00000000
1.93478549 -0.96422690 -0.57923704 4 0 11649 2.23800000 1635835584 1635835584 -15.00000000
5.89492941 -2.93910360 0.11497645 69 1 11650 6.58800000 1635835587 1635835587 1.00000000
2.25130105 -1.12294793 -0.58082360 4 2 11651 2.58200000 1635835589 1635835589 -13.00000000
8.02409935 -4.00416613 0.46997687 7 3 11652 8.98000000 1635835591 1635835591 3.00000000
2.68420386 -1.33946478 -0.58311230 5 4 11652 3.05600000 1635835594 1635835594 -11.00000000
8.04662037 -4.01715899 0.78684205 37 5 11653 9.02800000 1635835596 1635835596 5.00000000
3.32236743 -1.65936828 -0.58819360 6 6 11654 3.76000000 1635835598 1635835598 -9.00000000
8.05304337 -4.02387762 1.10535491 38 7 11655 9.07000000 1635835600 1635835600 7.00000000
4.35731936 -2.17817950 -0.59813476 6 8 11656 4.90800000 1635835603 1635835603 -7.00000000
5.74598646 -2.87235999 1.01744974 32 9 11656 6.50400000 1635835605 1635835605 9.00000000
6.47924376 -3.24032164 -0.63379657 12 10 11657 7.27200000 1635835607 1635835607 -5.00000000
10.73471069 -5.37085629 2.33321238 34 11 11658 12.22800000 1635835610 1635835610 11.00000000
5.66880751 -2.83749008 -0.33222866 3 12 11659 6.34800000 1635835612 1635835612 -3.00000000
8.35690689 -4.18482685 2.15773058 46 13 11660 9.59200000 1635835614 1635835614 13.00000000
5.96079111 -2.98624325 -0.11637264 4 14 11661 6.66800000 1635835617 1635835617 -1.00000000
8.10239983 -4.05914879 2.42824030 47 15 11661 9.38200000 1635835619 1635835619 15.00000000
1.92105186 -0.96576840 -0.57613117 4 0 11669 2.22600000 1635835640 1635835640 -15.00000000
5.90071249 -2.96774912 0.11529060 63 1 11670 6.60600000 1635835642 1635835642 1.00000000
2.26303458 -1.13868272 -0.58487272 4 2 11671 2.60000000 1635835644 1635835644 -13.00000000
8.03148174 -4.04292774 0.47123295 7 3 11672 9.00400000 1635835647 1635835647 3.00000000
2.67249751 -1.34529519 -0.58158582 5 4 11672 3.04800000 1635835649 1635835649 -11.00000000
8.03610802 -4.04701471 0.78719068 37 5 11673 9.03200000 1635835651 1635835651 5.00000000
3.32184720 -1.67362189 -0.58913219 6 6 11674 3.76600000 1635835653 1635835653 -9.00000000
8.04781151 -4.05643082 1.10657358 40 7 11675 9.08000000 1635835656 1635835656 7.00000000
4.34968948 -2.19337606 -0.59813476 6 8 11676 4.90800000 1635835658 1635835658 -7.00000000
5.72181463 -2.88528442 1.01494682 82 9 11676 6.48800000 1635835660 1635835660 9.00000000
6.46789360 -3.26291847 -0.63379657 12 10 11677 7.27200000 1635835663 1635835663 -5.00000000
10.36886597 -5.23314905 2.25765204 9 11 11678 11.83200000 1635835665 1635835665 11.00000000
5.65886831 -2.85726047 -0.33222866 3 12 11679 6.34800000 1635835667 1635835667 -3.00000000
8.34572697 -4.21572971 2.15863037 47 13 11680 9.59600000 1635835670 1635835670 13.00000000
5.94854641 -3.00613022 -0.11633774 2 14 11681 6.66600000 1635835672 1635835672 -1.00000000
8.09852695 -4.09263468 2.43134618 47 15 11681 9.39400000 1635835674 1635835674 15.00000000
1.91266930 -0.96951318 -0.57457829 4 0 11688 2.22000000 1635835695 1635835695 -15.00000000
5.88370466 -2.98368263 0.11515098 66 1 11689 6.59800000 1635835697 1635835697 1.00000000
2.25750828 -1.14529932 -0.58442283 3 2 11690 2.59800000 1635835700 1635835700 -13.00000000
8.02337360 -4.07225037 0.47154698 7 3 11691 9.01000000 1635835702 1635835702 3.00000000
2.66977239 -1.35503876 -0.58196741 5 4 11691 3.05000000 1635835704 1635835704 -11.00000000
8.04040813 -4.08266163 0.78893375 37 5 11692 9.05200000 1635835706 1635835706 5.00000000
3.30923438 -1.68104970 -0.58788073 6 6 11693 3.75800000 1635835709 1635835709 -9.00000000
8.05378151 -4.09298897 1.10925472 42 7 11694 9.10200000 1635835711 1635835711 7.00000000
4.34062290 -2.20688844 -0.59789097 6 8 11695 4.90600000 1635835713 1635835713 -7.00000000
6.45703793 -3.28434896 -0.63379657 12 10 11696 7.27200000 1635835718 1635835718 -5.00000000
10.23597240 -5.20873928 2.23246527 9 11 11697 11.70000000 1635835720 1635835720 11.00000000
5.64936209 -2.87601018 -0.33222866 3 12 11698 6.34800000 1635835723 1635835723 -3.00000000
8.34212017 -4.24868870 2.16132975 48 13 11699 9.60800000 1635835725 1635835725 13.00000000
5.96348906 -3.03854966 -0.11682641 2 14 11700 6.69400000 1635835727 1635835727 -1.00000000
8.09007454 -4.12209892 2.43289900 47 15 11700 9.40000000 1635835729 1635835729 15.00000000
1.90755343 -0.97530431 -0.57406062 4 0 11708 2.21800000 1635835750 1635835750 -15.00000000
5.88393593 -3.00966644 0.11536041 66 1 11709 6.61000000 1635835753 1635835753 1.00000000
2.24655747 -1.14962149 -0.58262324 3 2 11710 2.59000000 1635835755 1635835755 -13.00000000
8.03577709 -4.11388493 0.47311705 7 3 11711 9.04000000 1635835757 1635835757 3.00000000
2.67026877 -1.36703372 -0.58311230 5 4 11711 3.05600000 1635835759 1635835759 -11.00000000
8.04384136 -4.11978531 0.79067689 37 5 11712 9.07200000 1635835762 1635835762 5.00000000
3.28224993 -1.68178129 -0.58412629 6 6 11713 3.73400000 1635835764 1635835764 -9.00000000
8.05887699 -4.13103771 1.11193585 38 7 11714 9.12400000 1635835766 1635835766 7.00000000
4.33642530 -2.22383833 -0.59837848 4 8 11715 4.91000000 1635835769 1635835769 -7.00000000
6.01262045 -3.08476281 1.07032466 10 9 11716 6.84200000 1635835771 1635835771 9.00000000
6.45085192 -3.30959654 -0.63431948 12 10 11716 7.27800000 1635835773 1635835773 -5.00000000
10.15135670 -5.21037149 2.21796370 6 11 11717 11.62400000 1635835776 1635835776 11.00000000
5.58243370 -2.86651850 -0.32887915 3 12 11718 6.28400000 1635835778 1635835778 -3.00000000
8.33070469 -4.27956295 2.16222954 48 13 11719 9.61200000 1635835780 1635835780 13.00000000
6.03643894 -3.10230827 -0.11846694 4 14 11720 6.78800000 1635835782 1635835782 -1.00000000
8.09381008 -4.16143942 2.43859315 47 15 11721 9.42200000 1635835785 1635835785 15.00000000
1.90928829 -0.98461330 -0.57561356 4 0 11728 2.22400000 1635835806 1635835806 -15.00000000
5.88405704 -3.03568792 0.11556984 66 1 11729 6.62200000 1635835808 1635835808 1.00000000
2.23560405 -1.15388131 -0.58082360 3 2 11730 2.58200000 1635835810 1635835810 -13.00000000
8.03556538 -4.14924049 0.47395441 7 3 11731 9.05600000 1635835812 1635835812 3.00000000
2.66199183 -1.37454486 -0.58234906 5 4 11731 3.05200000 1635835815 1635835815 -11.00000000
8.04711342 -4.15698290 0.79242003 37 5 11732 9.09200000 1635835817 1635835817 5.00000000
3.29390812 -1.70229745 -0.58725500 6 6 11733 3.75400000 1635835819 1635835819 -9.00000000
8.04088116 -4.15732002 1.11144841 35 7 11734 9.12000000 1635835822 1635835822 7.00000000
4.31805706 -2.23348975 -0.59691602 4 8 11735 4.89800000 1635835824 1635835824 -7.00000000
6.03339529 -3.12207317 1.07595623 15 9 11736 6.87800000 1635835826 1635835826 9.00000000
6.43749046 -3.33117843 -0.63414520 12 10 11736 7.27600000 1635835829 1635835829 -5.00000000
5.45179462 -2.82352805 -0.32176146 3 12 11738 6.14800000 1635835833 1635835833 -3.00000000
8.31571579 -4.30861664 2.16222954 48 13 11739 9.61200000 1635835835 1635835835 13.00000000
6.18002939 -3.20342302 -0.12150365 2 14 11740 6.96200000 1635835838 1635835838 -1.00000000
8.09540272 -4.19625807 2.44325185 47 15 11740 9.44000000 1635835840 1635835840 15.00000000
1.90583968 -0.99127197 -0.57561356 4 0 11748 2.22400000 1635835861 1635835861 -15.00000000
5.86100721 -3.04974723 0.11532550 11 1 11749 6.60800000 1635835863 1635835863 1.00000000
