# .PCD v0.7 - Point Cloud Data file format
VERSION 0.7
FIELDS x y z intensity laser_id azimuth distance_m adjustedtime timestamp vertical_angle
SIZE 4 4 4 1 1 2 8 8 4 8
TYPE F F F U U U F U U F
COUNT 1 1 1 1 1 1 1 1 1 1
WIDTH 533
HEIGHT 1
VIEWPOINT 0 0 0 1 0 0 0
POINTS 533
DATA ascii
-1.62746644 1.28068972 -0.55490804 4 0 30820 2.14400000 888890453 888890453 -15.00000000
-64.43731689 50.72537994 1.43144643 70 1 30821 82.02000000 888890455 888890455 1.00000000
-1.89079750 1.48897994 -0.55562907 3 2 30822 2.47000000 888890457 888890457 -13.00000000
-39.00539780 30.71627426 2.60193443 45 3 30822 49.71600000 888890460 888890460 3.00000000
-2.22539616 1.75310159 -0.55067474 3 4 30823 2.88600000 888890462 888890462 -11.00000000
-20.75177193 16.35350609 2.31154466 8 5 30824 26.52200000 888890464 888890464 5.00000000
-2.71166682 2.13770556 -0.54689491 1 6 30825 3.49600000 888890467 888890467 -9.00000000
-17.25961876 13.61127186 2.69891858 55 7 30826 22.14600000 888890469 888890469 7.00000000
-3.43181157 2.70736504 -0.53671259 2 8 30827 4.40400000 888890471 888890471 -7.00000000
-11.82530403 9.33236217 2.38593841 67 9 30828 15.25200000 888890474 888890474 9.00000000
-4.71705723 3.72263455 -0.52572346 3 10 30828 6.03200000 888890476 888890476 -5.00000000
-10.60004330 8.36840630 2.62515020 56 11 30829 13.75800000 888890478 888890478 11.00000000
-7.48120832 5.90830231 -0.49959904 4 12 30830 9.54600000 888890481 888890481 -3.00000000
-8.90556240 7.03571320 2.62022996 51 13 30831 11.64800000 888890483 888890483 13.00000000
-18.62104797 14.71657467 -0.41428521 3 14 30832 23.73800000 888890485 888890485 -1.00000000
-7.64798737 6.04435253 2.61200190 47 15 30832 10.09200000 888890487 888890487 15.00000000
-1.62601399 1.28876281 -0.55594331 4 0 30840 2.14800000 888890508 888890508 -15.00000000
-64.47138977 51.11771774 1.43615854 71 1 30841 82.29000000 888890510 888890510 1.00000000
-1.87948132 1.49072695 -0.55382949 3 2 30842 2.46200000 888890513 888890513 -13.00000000
-38.76738739 30.75971794 2.59356070 45 3 30843 49.55600000 888890515 888890515 3.00000000
-2.22541499 1.76574016 -0.55220121 3 4 30843 2.89400000 888890517 888890517 -11.00000000
-21.61373138 17.15541458 2.41421413 25 5 30844 27.70000000 888890520 888890520 5.00000000
-2.70109415 2.14470148 -0.54626918 1 6 30845 3.49200000 888890522 888890522 -9.00000000
-17.19023895 13.65415096 2.69550610 55 7 30846 22.11800000 888890524 888890524 7.00000000
-3.45808673 2.74773121 -0.54231858 2 8 30847 4.45000000 888890527 888890527 -7.00000000
-11.75717354 9.34203148 2.37842965 60 9 30847 15.20400000 888890529 888890529 9.00000000
-4.73210859 3.76139307 -0.52886105 3 10 30848 6.06800000 888890531 888890531 -5.00000000
-10.56154823 8.39802551 2.62286043 56 11 30849 13.74600000 888890534 888890534 11.00000000
-7.47304344 5.94432735 -0.50043643 8 12 30850 9.56200000 888890536 888890536 -3.00000000
-8.87179947 7.05947638 2.61753058 53 13 30851 11.63600000 888890538 888890538 13.00000000
-18.66969490 14.86118984 -0.41651914 3 14 30852 23.86600000 888890540 888890540 -1.00000000
-7.62578249 6.07234335 2.61200190 45 15 30853 10.09200000 888890543 888890543 15.00000000
-1.62150550 1.29443085 -0.55594331 4 0 30860 2.14800000 888890563 888890563 -15.00000000
-64.50976562 51.51590347 1.44101024 73 1 30861 82.56800000 888890566 888890566 1.00000000
-1.87122107 1.49484587 -0.55292970 3 2 30862 2.45800000 888890568 888890568 -13.00000000
-38.53097153 30.78089905 2.58455896 45 3 30862 49.38400000 888890570 888890570 3.00000000
-2.22230506 1.77594876 -0.55296445 3 4 30863 2.89800000 888890573 888890573 -11.00000000
-21.51792145 17.20214081 2.41020489 34 5 30864 27.65400000 888890575 888890575 5.00000000
-2.70130491 2.16028571 -0.54783350 1 6 30865 3.50200000 888890577 888890577 -9.00000000
-17.13317299 13.70663166 2.69404364 55 7 30866 22.10600000 888890580 888890580 7.00000000
-3.43452525 2.74862242 -0.54012495 2 8 30867 4.43200000 888890582 888890582 -7.00000000
-11.68892860 9.35790062 2.37154651 67 9 30868 15.16000000 888890584 888890584 9.00000000
-4.71117353 3.77166224 -0.52798951 3 10 30868 6.05800000 888890587 888890587 -5.00000000
-10.52603912 8.42993164 2.62133408 56 11 30869 13.73800000 888890589 888890589 11.00000000
-7.46783590 5.98286438 -0.50148314 8 12 30870 9.58200000 888890591 888890591 -3.00000000
-8.85318565 7.09527636 2.61933017 60 13 30871 11.64400000 888890593 888890593 13.00000000
-18.60678482 14.91751194 -0.41627479 3 14 30872 23.85200000 888890596 888890596 -1.00000000
-7.60755348 6.10134268 2.61303711 45 15 30873 10.09600000 888890598 888890598 15.00000000
-1.62299943 1.30492508 -0.55801386 4 0 30880 2.15600000 888890619 888890619 -15.00000000
-64.53523254 51.90620804 1.44561768 50 1 30881 82.83200000 888890621 888890621 1.00000000
-1.86902833 1.50381184 -0.55382949 3 2 30882 2.46200000 888890623 888890623 -13.00000000
-38.28324127 30.80252647 2.57513833 45 3 30882 49.20400000 888890626 888890626 3.00000000
-2.21609235 1.78369522 -0.55296445 3 4 30883 2.89800000 888890628 888890628 -11.00000000
-21.40808487 17.23716354 2.40462685 34 5 30884 27.59000000 888890630 888890630 5.00000000
-2.69220924 2.16846275 -0.54752064 1 6 30885 3.50000000 888890633 888890633 -9.00000000
-17.08213234 13.76386356 2.69355631 52 7 30886 22.10200000 888890635 888890635 7.00000000
-3.40945458 2.74813676 -0.53768754 2 8 30887 4.41200000 888890637 888890637 -7.00000000
-11.62707329 9.37181759 2.36528921 63 9 30887 15.12000000 888890640 888890640 9.00000000
-4.69953012 3.78933501 -0.52816379 3 10 30888 6.06000000 888890642 888890642 -5.00000000
-10.49349308 8.46415806 2.62057066 56 11 30889 13.73400000 888890644 888890644 11.00000000
-7.43913412 6.00262451 -0.50095975 8 12 30890 9.57200000 888890646 888890646 -3.00000000
-8.81320095 7.11389685 2.61483097 56 13 30891 11.62400000 888890649 888890649 13.00000000
-18.66350555 15.07031059 -0.41871813 3 14 30892 23.99200000 888890651 888890651 -1.00000000
-7.58921528 6.13028860 2.61407232 45 15 30893 10.10000000 888890653 888890653 15.00000000
-1.61242914 1.30571938 -0.55594331 4 0 30900 2.14800000 888890674 888890674 -15.00000000
-1.86982381 1.51523447 -0.55562907 3 2 30902 2.47000000 888890679 888890679 -13.00000000
-38.06066132 30.84292030 2.56739259 45 3 30902 49.05600000 888890681 888890681 3.00000000
-2.19460177 1.77905691 -0.54914826 3 4 30903 2.87800000 888890683 888890683 -11.00000000
-21.28124237 17.25782394 2.39713144 25 5 30904 27.50400000 888890686 888890686 5.00000000
-2.69382787 2.18531394 -0.54939783 1 6 30905 3.51200000 888890688 888890688 -9.00000000
-17.02781677 13.81840420 2.69258118 57 7 30906 22.09400000 888890690 888890690 7.00000000
-3.42912340 2.78379297 -0.54231858 2 8 30907 4.45000000 888890693 888890693 -7.00000000
-11.55748177 9.38246632 2.35778022 60 9 30907 15.07200000 888890695 888890695 9.00000000
-4.69246054 3.81074047 -0.52886105 3 10 30908 6.06800000 888890697 888890697 -5.00000000
-10.46083641 8.49825954 2.61980748 53 11 30909 13.73000000 888890699 888890699 11.00000000
-7.42743587 6.03611326 -0.50158781 4 12 30910 9.58400000 888890702 888890702 -3.00000000
-8.78831482 7.14461708 2.61483097 55 13 30911 11.62400000 888890704 888890704 13.00000000
-18.66663933 15.18078804 -0.41997471 3 14 30912 24.06400000 888890706 888890706 -1.00000000
-7.56627178 6.15552330 2.61355472 42 15 30913 10.09800000 888890709 888890709 15.00000000
-1.60809040 1.31105924 -0.55594331 4 0 30919 2.14800000 888890729 888890729 -15.00000000
-1.86780870 1.52389050 -0.55652893 3 2 30921 2.47400000 888890734 888890734 -13.00000000
-36.87179565 30.08262062 2.49391294 10 3 30921 47.65200000 888890736 888890736 3.00000000
-2.20085788 1.79625559 -0.55220121 3 4 30922 2.89400000 888890739 888890739 -11.00000000
-22.54653168 18.40816879 2.54651642 73 5 30923 29.21800000 888890741 888890741 5.00000000
-2.67891669 2.18798709 -0.54783350 1 6 30924 3.50200000 888890743 888890743 -9.00000000
-16.97728920 13.87102604 2.69184995 49 7 30925 22.08800000 888890745 888890745 7.00000000
-3.43370628 2.80645537 -0.54451221 2 8 30926 4.46800000 888890748 888890748 -7.00000000
-11.51559830 9.41199017 2.35559011 56 9 30926 15.05800000 888890750 888890750 9.00000000
-4.68905258 3.83384705 -0.52990693 3 10 30927 6.08000000 888890752 888890752 -5.00000000
-10.43259716 8.53290272 2.61980748 56 11 30928 13.73000000 888890755 888890755 11.00000000
-7.44293118 6.08979988 -0.50399524 8 12 30929 9.63000000 888890757 888890757 -3.00000000
-8.73742962 7.15150356 2.60673285 18 13 30930 11.58800000 888890759 888890759 13.00000000
-18.73223686 15.33761787 -0.42259258 3 14 30931 24.21400000 888890762 888890762 -1.00000000
-7.53942251 6.17314386 2.61096644 42 15 30931 10.08800000 888890764 888890764 15.00000000
-1.60649014 1.31911647 -0.55697858 4 0 30939 2.15200000 888890785 888890785 -15.00000000
-1.85946667 1.52792668 -0.55562907 3 2 30941 2.47000000 888890789 888890789 -13.00000000
-36.70483780 30.16042519 2.48972607 10 3 30941 47.57200000 888890792 888890792 3.00000000
-2.18850780 1.79894042 -0.55067474 3 4 30942 2.88600000 888890794 888890794 -11.00000000
-22.55754471 18.54876518 2.55505776 73 5 30943 29.31600000 888890796 888890796 5.00000000
-2.66973734 2.19607019 -0.54752064 1 6 30944 3.50000000 888890798 888890798 -9.00000000
-16.91497040 13.91885185 2.68965650 55 7 30945 22.07000000 888890801 888890801 7.00000000
-3.39630175 2.79571509 -0.54012495 2 8 30946 4.43200000 888890803 888890803 -7.00000000
-11.47657299 9.44710827 2.35433865 60 9 30946 15.05000000 888890805 888890805 9.00000000
-4.69102192 3.86285663 -0.53165001 3 10 30947 6.10000000 888890808 888890808 -5.00000000
-10.38153362 8.55179119 2.61446476 53 11 30948 13.70200000 888890810 888890810 11.00000000
-7.43087673 6.12336397 -0.50462329 8 12 30949 9.64200000 888890812 888890812 -3.00000000
-7.49592352 6.17916250 2.24276209 17 13 30950 9.97000000 888890815 888890815 13.00000000
-18.70635414 15.42581272 -0.42322084 3 14 30951 24.25000000 888890817 888890817 -1.00000000
-7.51823664 6.20196486 2.61148405 42 15 30952 10.09000000 888890819 888890819 15.00000000
-1.60462165 1.32745850 -0.55801386 4 0 30960 2.15600000 888890840 888890840 -15.00000000
-1.84784961 1.52976096 -0.55382949 3 2 30962 2.46200000 888890845 888890845 -13.00000000
-36.57337952 30.28839874 2.48867941 10 3 30963 47.55200000 888890847 888890847 3.00000000
-2.18794799 1.81195843 -0.55220121 2 4 30963 2.89400000 888890849 888890849 -11.00000000
-22.58146477 18.70758247 2.56551647 92 5 30964 29.43600000 888890851 888890851 5.00000000
-2.66167045 2.20584035 -0.54752064 1 6 30965 3.50000000 888890854 888890854 -9.00000000
-16.84856033 13.96808529 2.68721890 52 7 30966 22.05000000 888890856 888890856 7.00000000
-3.40742397 2.82588553 -0.54353726 2 8 30967 4.46000000 888890858 888890858 -7.00000000
-11.43426800 9.48280334 2.35277438 56 9 30967 15.04000000 888890861 888890861 9.00000000
-4.67069864 3.87493563 -0.53095281 3 10 30968 6.09200000 888890863 888890863 -5.00000000
-10.35163116 8.59103775 2.61484647 46 11 30969 13.70400000 888890865 888890865 11.00000000
-7.42221403 6.16204071 -0.50556535 8 12 30970 9.66000000 888890868 888890868 -3.00000000
-7.43724585 6.17671347 2.23196435 17 13 30971 9.92200000 888890870 888890870 13.00000000
-18.72813416 15.55944347 -0.42500100 3 14 30972 24.35200000 888890872 888890872 -1.00000000
-7.50099993 6.23187447 2.61303711 42 15 30972 10.09600000 888890875 888890875 15.00000000
-1.60294652 1.33552480 -0.55904913 4 0 30980 2.16000000 888890895 888890895 -15.00000000
-1.83950508 1.53370595 -0.55292970 3 2 30982 2.45800000 888890900 888890900 -13.00000000
-37.14076233 30.97747803 2.53463030 44 3 30983 48.43000000 888890902 888890902 3.00000000
-2.17557907 1.81455481 -0.55067474 3 4 30983 2.88600000 888890904 888890904 -11.00000000
-22.58945847 18.84756088 2.57388330 83 5 30984 29.53200000 888890907 888890907 5.00000000
-2.67670250 2.23410463 -0.55221367 1 6 30985 3.53000000 888890909 888890909 -9.00000000
-16.78750801 14.01663399 2.68526912 55 7 30986 22.03400000 888890911 888890911 7.00000000
-3.38839769 2.83012700 -0.54207486 2 8 30987 4.44800000 888890914 888890914 -7.00000000
-11.38730812 9.51451588 2.35027146 56 9 30988 15.02400000 888890916 888890916 9.00000000
-4.68007851 3.91037798 -0.53356743 3 10 30988 6.12200000 888890918 888890918 -5.00000000
-10.34116173 8.64348698 2.61980748 12 11 30989 13.73000000 888890921 888890921 11.00000000
-7.41751337 6.20200396 -0.50671673 8 12 30990 9.68200000 888890923 888890923 -3.00000000
-7.38873386 6.18013191 2.22386622 20 13 30991 9.88600000 888890925 888890925 13.00000000
-18.76572609 15.70171642 -0.42709529 3 14 30992 24.47200000 888890928 888890928 -1.00000000
-7.47958994 6.26056480 2.61355472 42 15 30993 10.09800000 888890930 888890930 15.00000000
-1.59258854 1.33586693 -0.55697858 4 0 30999 2.15200000 888890951 888890951 -15.00000000
-1.84336460 1.54731488 -0.55562907 3 2 31001 2.47000000 888890955 888890955 -13.00000000
-36.91394043 30.99643898 2.52615190 44 3 31002 48.26800000 888890957 888890957 3.00000000
-2.17255688 1.82428432 -0.55143797 3 4 31002 2.89000000 888890960 888890960 -11.00000000
-22.60768890 18.99028397 2.58312201 100 5 31003 29.63800000 888890962 888890962 5.00000000
-2.66171765 2.23661470 -0.55064934 1 6 31004 3.52000000 888890964 888890964 -9.00000000
-16.74701309 14.07733631 2.68624401 52 7 31005 22.04200000 888890967 888890967 7.00000000
-3.39114881 2.85156846 -0.54402477 2 8 31006 4.46400000 888890969 888890969 -7.00000000
-11.34526634 9.54007244 2.34776855 56 9 31006 15.00800000 888890971 888890971 9.00000000
-4.67318439 3.93100643 -0.53426468 3 10 31007 6.13000000 888890974 888890974 -5.00000000
-7.42593765 6.25100517 -0.50870550 8 12 31009 9.72000000 888890978 888890978 -3.00000000
-7.35031128 6.18953705 2.21846724 22 13 31010 9.86200000 888890981 888890981 13.00000000
-18.77931786 15.81925678 -0.42859620 3 14 31011 24.55800000 888890983 888890983 -1.00000000
-7.45249701 6.27780867 2.61096644 45 15 31011 10.08800000 888890985 888890985 15.00000000
-1.58791590 1.34141791 -0.55697858 4 0 31019 2.15200000 888891006 888891006 -15.00000000
-1.83795226 1.55374002 -0.55562907 3 2 31021 2.47000000 888891010 888891010 -13.00000000
-36.69571686 31.03224754 2.51861548 44 3 31022 48.12400000 888891013 888891013 3.00000000
-2.17217183 1.83692765 -0.55296445 3 4 31022 2.89800000 888891015 888891015 -11.00000000
-2.64333892 2.23695970 -0.54845923 1 6 31024 3.50600000 888891020 888891020 -9.00000000
-16.68868256 14.12801266 2.68478155 52 7 31025 22.03000000 888891022 888891022 7.00000000
-3.35693645 2.84286237 -0.54012495 2 8 31026 4.43200000 888891024 888891024 -7.00000000
-11.30419540 9.57648373 2.34651709 56 9 31027 15.00000000 888891027 888891027 9.00000000
-4.65639353 3.94471908 -0.53391606 3 10 31027 6.12600000 888891029 888891029 -5.00000000
-8.97305107 7.60431719 2.28627348 3 11 31028 11.98200000 888891031 888891031 11.00000000
-7.41930723 6.28980398 -0.50975221 8 12 31029 9.74000000 888891033 888891033 -3.00000000
-7.31379890 6.20255232 2.21396828 26 13 31030 9.84200000 888891036 888891036 13.00000000
-18.78802872 15.93904591 -0.43006220 3 14 31031 24.64200000 888891038 888891038 -1.00000000
-7.42354631 6.30008125 2.60889602 45 15 31032 10.08000000 888891040 888891040 15.00000000
-1.58593094 1.34973311 -0.55801386 4 0 31040 2.15600000 888891061 888891061 -15.00000000
-1.82927787 1.55793893 -0.55472928 3 2 31042 2.46600000 888891066 888891066 -13.00000000
-36.50723648 31.10306740 2.51348662 44 3 31043 48.02600000 888891068 888891068 3.00000000
-2.16243577 1.84233034 -0.55220121 3 4 31043 2.89400000 888891070 888891070 -11.00000000
-22.63650513 19.29244232 2.60212183 84 5 31044 29.85600000 888891073 888891073 5.00000000
-2.64414144 2.25432253 -0.55033642 1 6 31045 3.51800000 888891075 888891075 -9.00000000
-16.63678932 14.18908501 2.68478155 49 7 31046 22.03000000 888891077 888891077 7.00000000
-3.37971759 2.88349247 -0.54548717 2 8 31047 4.47600000 888891080 888891080 -7.00000000
-11.26168156 9.60819149 2.34463978 60 9 31047 14.98800000 888891082 888891082 9.00000000
-4.64190388 3.96175909 -0.53391606 3 10 31048 6.12600000 888891084 888891084 -5.00000000
-10.19334507 8.70286274 2.60530591 25 11 31049 13.65400000 888891086 888891086 11.00000000
-7.39772272 6.31825209 -0.50985688 8 12 31050 9.74200000 888891089 888891089 -3.00000000
-7.27175522 6.21286106 2.20811963 28 13 31051 9.81600000 888891091 888891091 13.00000000
-18.81308937 16.07925797 -0.43198195 3 14 31052 24.75200000 888891093 888891093 -1.00000000
-7.40150976 6.32595587 2.60889602 45 15 31052 10.08000000 888891096 888891096 15.00000000
-1.58707714 1.36028957 -0.56008440 4 0 31060 2.16400000 888891116 888891116 -15.00000000
-1.82087016 1.56177735 -0.55382949 3 2 31062 2.46200000 888891121 888891121 -13.00000000
-35.26615524 30.25879478 2.43529677 10 3 31063 46.53200000 888891123 888891123 3.00000000
-2.15599179 1.84986746 -0.55220121 3 4 31063 2.89400000 888891126 888891126 -11.00000000
-22.64008141 19.43233109 2.61031461 84 5 31064 29.95000000 888891128 888891128 5.00000000
-2.64075255 2.26739907 -0.55127507 1 6 31065 3.52400000 888891130 888891130 -9.00000000
-16.57661629 14.23801708 2.68307543 49 7 31066 22.01600000 888891133 888891133 7.00000000
-3.38167691 2.90562177 -0.54743707 2 8 31067 4.49200000 888891135 888891135 -7.00000000
-11.22189617 9.64554024 2.34370112 60 9 31068 14.98200000 888891137 888891137 9.00000000
-4.65222216 3.99871755 -0.53670508 3 10 31068 6.15800000 888891139 888891139 -5.00000000
-10.16885853 8.74351120 2.60683250 46 11 31069 13.66200000 888891142 888891142 11.00000000
-7.38622236 6.35315323 -0.51058960 8 12 31070 9.75600000 888891144 888891144 -3.00000000
-7.21457148 6.20770168 2.19732189 20 13 31071 9.76800000 888891146 888891146 13.00000000
-18.85536194 16.22962379 -0.43425077 3 14 31072 24.88200000 888891149 888891149 -1.00000000
-7.38120174 6.35556221 2.60993123 47 15 31073 10.08400000 888891151 888891151 15.00000000
-1.57939434 1.36329663 -0.55904913 4 0 31080 2.16000000 888891172 888891172 -15.00000000
-1.81835699 1.57067156 -0.55472928 4 2 31082 2.46600000 888891176 888891176 -13.00000000
-35.04848480 30.28507996 2.42755103 10 3 31083 46.38400000 888891179 888891179 3.00000000
-2.15249228 1.85994923 -0.55296445 3 4 31083 2.89800000 888891181 888891181 -11.00000000
-22.67310333 19.59853554 2.62199330 95 5 31084 30.08400000 888891183 888891183 5.00000000
-2.63879848 2.28177142 -0.55252653 1 6 31085 3.53200000 888891186 888891186 -9.00000000
-16.54933548 14.31527424 2.68673158 28 7 31086 22.04600000 888891188 888891188 7.00000000
-3.33248472 2.88363600 -0.54109991 2 8 31087 4.44000000 888891190 888891190 -7.00000000
-11.17192268 9.66718960 2.33994675 63 9 31087 14.95800000 888891192 888891192 9.00000000
-4.65631247 4.03058004 -0.53879678 3 10 31088 6.18200000 888891195 888891195 -5.00000000
-10.14421272 8.78409386 2.60835886 50 11 31089 13.67000000 888891197 888891197 11.00000000
-7.39721251 6.40766621 -0.51289237 8 12 31090 9.80000000 888891199 888891199 -3.00000000
-7.17518568 6.21753311 2.19192314 12 13 31091 9.74400000 888891202 888891202 13.00000000
-18.79406166 16.29141235 -0.43414608 3 14 31092 24.87600000 888891204 888891204 -1.00000000
-7.27833939 6.30914354 2.58094358 45 15 31092 9.97200000 888891206 888891206 15.00000000
-1.57462585 1.36880147 -0.55904913 4 0 31100 2.16000000 888891227 888891227 -15.00000000
-1.81286323 1.57700932 -0.55472928 3 2 31102 2.46600000 888891232 888891232 -13.00000000
-34.81298447 30.29448318 2.41854930 10 3 31103 46.21200000 888891234 888891234 3.00000000
-2.13710070 1.85971880 -0.55067474 3 4 31103 2.88600000 888891236 888891236 -11.00000000
-22.68570137 19.74820137 2.63140607 95 5 31104 30.19200000 888891239 888891239 5.00000000
-2.63528681 2.29486036 -0.55346513 1 6 31105 3.53800000 888891241 888891241 -9.00000000
-14.57287979 12.69482803 2.37303996 56 7 31106 19.47200000 888891243 888891243 7.00000000
-3.34484720 2.91481352 -0.54475594 2 8 31107 4.47000000 888891245 888891245 -7.00000000
-11.11854744 9.69249439 2.33619237 67 9 31108 14.93400000 888891248 888891248 9.00000000
-4.61968708 4.02717066 -0.53618211 3 10 31108 6.15200000 888891250 888891250 -5.00000000
-10.11644840 8.82203102 2.60912228 53 11 31109 13.67400000 888891252 888891252 11.00000000
-7.38383102 6.44132614 -0.51352042 8 12 31110 9.81200000 888891255 888891255 -3.00000000
-6.93907070 6.05546999 2.12623739 54 13 31111 9.45200000 888891257 888891257 13.00000000
-18.81240082 16.42267036 -0.43589130 3 14 31112 24.97600000 888891259 888891259 -1.00000000
-7.32501125 6.39677191 2.60579014 47 15 31113 10.06800000 888891262 888891262 15.00000000
-1.56426299 1.36892664 -0.55697858 4 0 31119 2.15200000 888891282 888891282 -15.00000000
-1.81348789 1.58814776 -0.55652893 4 2 31121 2.47400000 888891287 888891287 -13.00000000
-34.61167908 30.32158089 2.41153622 10 3 31122 46.07800000 888891289 888891289 3.00000000
-2.13978219 1.87455750 -0.55296445 3 4 31122 2.89800000 888891292 888891292 -11.00000000
-22.70100403 19.89423180 2.64081907 95 5 31123 30.30000000 888891294 888891294 5.00000000
-2.62023520 2.29707575 -0.55190080 1 6 31124 3.52800000 888891296 888891296 -9.00000000
-14.52174664 12.73523045 2.37157750 58 7 31125 19.46000000 888891298 888891298 7.00000000
-3.35157776 2.94028974 -0.54743707 2 8 31126 4.49200000 888891301 888891301 -7.00000000
-11.08210373 9.72216606 2.33494091 63 9 31126 14.92600000 888891303 888891303 9.00000000
-4.61379433 4.04903936 -0.53705370 7 10 31127 6.16200000 888891305 888891305 -5.00000000
-10.08123589 8.85034943 2.60759568 53 11 31128 13.66600000 888891308 888891308 11.00000000
-7.36843300 6.47104836 -0.51393908 8 12 31129 9.82000000 888891310 888891310 -3.00000000
-8.47813129 7.44822073 2.60538316 36 13 31130 11.58200000 888891312 888891312 13.00000000
-18.87950516 16.59189034 -0.43871859 3 14 31131 25.13800000 888891315 888891315 -1.00000000
-7.04513073 6.19147778 2.51313281 40 15 31131 9.71000000 888891317 888891317 15.00000000
-1.55657637 1.37182391 -0.55594331 4 0 31139 2.14800000 888891338 888891338 -15.00000000
-1.80501008 1.59189045 -0.55562907 3 2 31141 2.47000000 888891342 888891342 -13.00000000
-34.39479446 30.34443474 2.40379047 10 3 31142 45.93000000 888891345 888891345 3.00000000
-2.13322592 1.88201535 -0.55296445 3 4 31142 2.89800000 888891347 888891347 -11.00000000
-22.71955872 20.05113602 2.65110350 100 5 31143 30.41800000 888891349 888891349 5.00000000
-2.61516261 2.30882287 -0.55252653 1 6 31144 3.53200000 888891351 888891351 -9.00000000
-14.44298267 12.75561905 2.36597133 47 7 31145 19.41400000 888891354 888891354 7.00000000
-3.35021973 2.95985699 -0.54889953 4 8 31146 4.50400000 888891356 888891356 -7.00000000
-11.04513836 9.75817490 2.33431506 67 9 31146 14.92200000 888891358 888891358 9.00000000
-4.61008310 4.07435560 -0.53827387 7 10 31147 6.17600000 888891361 888891361 -5.00000000
-10.04145622 8.87768269 2.60530591 53 11 31148 13.65400000 888891363 888891363 11.00000000
-7.35178423 6.50202179 -0.51435781 8 12 31149 9.82800000 888891365 888891365 -3.00000000
-8.44624233 7.47260427 2.60358357 51 13 31150 11.57400000 888891368 888891368 13.00000000
-18.90383339 16.73058319 -0.44063836 6 14 31151 25.24800000 888891370 888891370 -1.00000000
-7.28387213 6.44649267 2.60630774 47 15 31151 10.07000000 888891372 888891372 15.00000000
-1.55779910 1.38210666 -0.55801386 4 0 31158 2.15600000 888891393 888891393 -15.00000000
-1.79389215 1.59269202 -0.55382949 3 2 31160 2.46200000 888891398 888891398 -13.00000000
-34.18347549 30.36017990 2.39604473 10 3 31161 45.78200000 888891400 888891400 3.00000000
-2.12697315 1.88907909 -0.55296445 3 4 31161 2.89800000 888891402 888891402 -11.00000000
-22.73485947 20.19915009 2.66069055 95 5 31162 30.52800000 888891404 888891404 5.00000000
-2.60601544 2.31616998 -0.55221367 1 6 31163 3.53000000 888891407 888891407 -9.00000000
-14.38280201 12.78761578 2.36304665 47 7 31164 19.39000000 888891409 888891409 7.00000000
-3.33000302 2.96171570 -0.54719335 2 8 31165 4.49000000 888891411 888891411 -7.00000000
-11.00658131 9.79273129 2.33337641 67 9 31166 14.91600000 888891414 888891414 9.00000000
-4.60845470 4.10021544 -0.53966838 7 10 31166 6.19200000 888891416 888891416 -5.00000000
-10.00609493 8.90571213 2.60377955 53 11 31167 13.64600000 888891418 888891418 11.00000000
-7.33614922 6.53167820 -0.51477647 8 12 31168 9.83600000 888891421 888891421 -3.00000000
-8.41268444 7.49279547 2.60088420 57 13 31169 11.56200000 888891423 888891423 13.00000000
-18.88408279 16.82510376 -0.44147608 3 14 31170 25.29600000 888891425 888891425 -1.00000000
-7.26389742 6.47189617 2.60682535 47 15 31170 10.07200000 888891427 888891427 15.00000000
-1.56160867 1.39525878 -0.56111968 4 0 31178 2.16800000 888891448 888891448 -15.00000000
-1.79703820 1.60673749 -0.55652893 3 2 31180 2.47400000 888891453 888891453 -13.00000000
-33.97308350 30.38611221 2.38871765 10 3 31181 45.64200000 888891455 888891455 3.00000000
-2.12036610 1.89649212 -0.55296445 2 4 31181 2.89800000 888891457 888891457 -11.00000000
-22.75033188 20.35544014 2.67080069 95 5 31182 30.64400000 888891460 888891460 5.00000000
-2.60821795 2.33447456 -0.55440372 1 6 31183 3.54400000 888891462 888891462 -9.00000000
-14.33659840 12.83641911 2.36280274 51 7 31184 19.38800000 888891464 888891464 7.00000000
-3.32112312 2.97464585 -0.54743707 2 8 31185 4.49200000 888891467 888891467 -7.00000000
-10.96644592 9.82581902 2.33212495 63 9 31186 14.90800000 888891469 888891469 9.00000000
-4.58817863 4.11095905 -0.53897113 7 10 31186 6.18400000 888891471 888891471 -5.00000000
-9.98079586 8.94582653 2.60530591 53 11 31187 13.65400000 888891474 888891474 11.00000000
-7.33114910 6.57324600 -0.51603252 8 12 31188 9.86000000 888891476 888891476 -3.00000000
-8.37342262 7.51040459 2.59683490 56 13 31189 11.54400000 888891478 888891478 13.00000000
-18.86691284 16.92831230 -0.44245341 3 14 31190 25.35200000 888891480 888891480 -1.00000000
-7.23868990 6.49718618 2.60630774 45 15 31191 10.07000000 888891483 888891483 15.00000000
-1.55385661 1.39811695 -0.56008440 4 0 31198 2.16400000 888891504 888891504 -15.00000000
-1.79865956 1.61952043 -0.55877841 4 2 31200 2.48400000 888891508 888891508 -13.00000000
-33.76886368 30.41629410 2.38180947 10 3 31201 45.51000000 888891510 888891510 3.00000000
-2.11081553 1.90125406 -0.55220121 3 4 31201 2.89400000 888891513 888891513 -11.00000000
-22.71022415 20.46273613 2.67446113 85 5 31202 30.68600000 888891515 888891515 5.00000000
-2.60445523 2.34753227 -0.55534238 1 6 31203 3.55000000 888891517 888891517 -9.00000000
-14.30202293 12.89569092 2.36450911 47 7 31204 19.40200000 888891520 888891520 7.00000000
-3.31071925 2.98622060 -0.54743707 2 8 31205 4.49200000 888891522 888891522 -7.00000000
-10.92034817 9.85345268 2.32962203 67 9 31206 14.89200000 888891524 888891524 9.00000000
-4.58859301 4.14029694 -0.54071420 7 10 31206 6.20400000 888891527 888891527 -5.00000000
-9.94659328 8.97798061 2.60454273 56 11 31207 13.65000000 888891529 888891529 11.00000000
-7.31853628 6.60816622 -0.51676524 8 12 31208 9.87400000 888891531 888891531 -3.00000000
-8.35293961 7.54481268 2.59863448 56 13 31209 11.55200000 888891533 888891533 13.00000000
-18.85518646 17.03696823 -0.44357038 3 14 31210 25.41600000 888891536 888891536 -1.00000000
-7.21280479 6.51726913 2.60475492 47 15 31210 10.06400000 888891538 888891538 15.00000000
-1.54037738 1.39574945 -0.55697858 4 0 31218 2.15200000 888891559 888891559 -15.00000000
-1.79588270 1.62840700 -0.55967820 4 2 31220 2.48800000 888891563 888891563 -13.00000000
-33.54857635 30.43066216 2.37374973 10 3 31221 45.35600000 888891566 888891566 3.00000000
-2.10707450 1.91124868 -0.55296445 3 4 31221 2.89800000 888891568 888891568 -11.00000000
-22.62537766 20.52983475 2.67289233 66 5 31222 30.66800000 888891570 888891570 5.00000000
-2.59039426 2.35129857 -0.55409086 1 6 31223 3.54200000 888891573 888891573 -9.00000000
-14.25839138 12.94686985 2.36475277 51 7 31224 19.40400000 888891575 888891575 7.00000000
-3.31496930 3.01110625 -0.54987448 2 8 31225 4.51200000 888891577 888891577 -7.00000000
-10.88296318 9.88885403 2.32899642 60 9 31226 14.88800000 888891580 888891580 9.00000000
-4.59033298 4.17102718 -0.54263163 7 10 31226 6.22600000 888891582 888891582 -5.00000000
-9.92245770 9.01924896 2.60645080 46 11 31227 13.66000000 888891584 888891584 11.00000000
-7.30576849 6.64307785 -0.51749796 4 12 31228 9.88800000 888891586 888891586 -3.00000000
-8.32366943 7.57130146 2.59773469 55 13 31229 11.54800000 888891589 888891589 13.00000000
-18.84145164 17.14440155 -0.44465241 3 14 31230 25.47800000 888891591 888891591 -1.00000000
-7.18429565 6.53720617 2.60268426 47 15 31230 10.05600000 888891593 888891593 15.00000000
-1.54405808 1.40893078 -0.56008440 4 0 31238 2.16400000 888891614 888891614 -15.00000000
-1.78443134 1.62940979 -0.55787861 4 2 31240 2.48000000 888891619 888891619 -13.00000000
-33.34718704 30.45016670 2.36663198 10 3 31240 45.22000000 888891621 888891621 3.00000000
-2.10618830 1.92388844 -0.55449092 3 4 31241 2.90600000 888891623 888891623 -11.00000000
-22.53445625 20.59121513 2.67062616 57 5 31242 30.64200000 888891626 888891626 5.00000000
-2.57633877 2.35499549 -0.55283940 1 6 31243 3.53400000 888891628 888891628 -9.00000000
-14.20432186 12.98852444 2.36329031 51 7 31244 19.39200000 888891630 888891630 7.00000000
-3.30736780 3.02533889 -0.55036193 2 8 31245 4.51600000 888891632 888891632 -7.00000000
-10.84282207 9.91822338 2.32743192 63 9 31245 14.87800000 888891635 888891635 9.00000000
-4.57427549 4.18568039 -0.54245734 7 10 31246 6.22400000 888891637 888891637 -5.00000000
-7.28695440 6.67258549 -0.51781195 4 12 31248 9.89400000 888891642 888891642 -3.00000000
-6.94210672 6.35904026 2.17347717 29 13 31249 9.66200000 888891644 888891644 13.00000000
-18.92302704 17.33975983 -0.44800326 3 14 31250 25.67000000 888891646 888891646 -1.00000000
-7.02327490 6.43564558 2.55247331 47 15 31250 9.86200000 888891649 888891649 15.00000000
-1.53913069 1.41431201 -0.56008440 4 0 31258 2.16400000 888891669 888891669 -15.00000000
-41.98290253 38.59173584 0.99538052 14 1 31259 57.03400000 888891672 888891672 1.00000000
-1.77873278 1.63562870 -0.55787861 4 2 31260 2.48000000 888891674 888891674 -13.00000000
-33.15304184 30.49646378 2.36077023 10 3 31261 45.10800000 888891676 888891676 3.00000000
-2.10523939 1.93654513 -0.55601740 3 4 31261 2.91400000 888891679 888891679 -11.00000000
-22.45071411 20.65895844 2.66923189 76 5 31262 30.62600000 888891681 888891681 5.00000000
-2.56374240 2.35996056 -0.55190080 1 6 31263 3.52800000 888891683 888891683 -9.00000000
-14.15451622 13.03399372 2.36255908 47 7 31264 19.38600000 888891685 888891685 7.00000000
-3.29678726 3.03686523 -0.55036193 2 8 31265 4.51600000 888891688 888891688 -7.00000000
-10.80930328 9.96057415 2.32805777 63 9 31266 14.88200000 888891690 888891690 9.00000000
-4.56549788 4.20702267 -0.54315460 3 10 31266 6.23200000 888891692 888891692 -5.00000000
-6.96065950 6.41636658 1.84016192 15 11 31267 9.64400000 888891695 888891695 11.00000000
-7.27389669 6.70745897 -0.51854467 4 12 31268 9.90800000 888891697 888891697 -3.00000000
-8.26488018 7.62394142 2.59593511 58 13 31269 11.54000000 888891699 888891699 13.00000000
-18.89177704 17.43282890 -0.44870138 3 14 31270 25.71000000 888891702 888891702 -1.00000000
-7.13733292 6.58844805 2.60268426 47 15 31271 10.05600000 888891704 888891704 15.00000000
-1.53134859 1.41705179 -0.55904913 4 0 31278 2.16000000 888891725 888891725 -15.00000000
-41.71879959 38.61850739 0.99230891 14 1 31279 56.85800000 888891727 888891727 1.00000000
-1.77301252 1.64182758 -0.55787861 4 2 31280 2.48000000 888891729 888891729 -13.00000000
-39.45573807 36.53641510 2.81818652 12 3 31280 53.84800000 888891732 888891732 3.00000000
-2.08982539 1.93587708 -0.55372769 3 4 31281 2.90200000 888891734 888891734 -11.00000000
-22.37700272 20.73584557 2.66905737 76 5 31282 30.62400000 888891736 888891736 5.00000000
-2.55983520 2.37292409 -0.55283940 1 6 31283 3.53400000 888891738 888891738 -9.00000000
-14.11475468 13.08872223 2.36353397 47 7 31284 19.39400000 888891741 888891741 7.00000000
-3.28471136 3.04700470 -0.55011821 4 8 31285 4.51400000 888891743 888891743 -7.00000000
-10.76143646 9.98615265 2.32524180 60 9 31286 14.86400000 888891745 888891745 9.00000000
-4.56100798 4.23241997 -0.54437476 7 10 31286 6.24600000 888891748 888891748 -5.00000000
-6.96987486 6.47000980 1.84855759 21 11 31287 9.68800000 888891750 888891750 11.00000000
-7.27824640 6.75863075 -0.52053344 4 12 31288 9.94600000 888891752 888891752 -3.00000000
-8.22965050 7.64478683 2.59323573 55 13 31289 11.52800000 888891755 888891755 13.00000000
-18.89526367 17.55856323 -0.45023718 3 14 31290 25.79800000 888891757 888891757 -1.00000000
-7.11686087 6.61339521 2.60320187 47 15 31290 10.05800000 888891759 888891759 15.00000000
-1.52921951 1.42502260 -0.56008440 4 0 31298 2.16400000 888891780 888891780 -15.00000000
-41.49597931 38.68208694 0.99021465 14 1 31299 56.73800000 888891782 888891782 1.00000000
-1.77867246 1.65863883 -0.56147784 4 2 31300 2.49600000 888891784 888891784 -13.00000000
-39.23155594 36.58401871 2.81127834 12 3 31300 53.71600000 888891787 888891787 3.00000000
-2.08879757 1.94851685 -0.55525416 3 4 31301 2.91000000 888891789 888891789 -11.00000000
-22.28263474 20.79343987 2.66644287 66 5 31302 30.59400000 888891791 888891791 5.00000000
-2.55875635 2.38858485 -0.55440372 3 6 31303 3.54400000 888891794 888891794 -9.00000000
-14.07478428 13.14333153 2.36450911 45 7 31304 19.40200000 888891796 888891796 7.00000000
-3.28130841 3.06522751 -0.55133688 2 8 31305 4.52400000 888891798 888891798 -7.00000000
-10.71208000 10.01016903 2.32211328 56 9 31306 14.84400000 888891801 888891801 9.00000000
-4.56221914 4.26327896 -0.54629219 3 10 31306 6.26800000 888891803 888891803 -5.00000000
-6.97879982 6.52379513 1.85695314 6 11 31307 9.73200000 888891805 888891805 11.00000000
-7.30712652 6.83310556 -0.52430159 4 12 31308 10.01800000 888891808 888891808 -3.00000000
-8.19864559 7.66947317 2.59188604 54 13 31309 11.52200000 888891810 888891810 13.00000000
-18.93314362 17.71732330 -0.45261070 3 14 31310 25.93400000 888891812 888891812 -1.00000000
-7.08808994 6.63291740 2.60113144 47 15 31310 10.05000000 888891814 888891814 15.00000000
-1.51296616 1.41977620 -0.55594331 4 0 31318 2.14800000 888891835 888891835 -15.00000000
-1.76718962 1.65950155 -0.55967820 4 2 31320 2.48800000 888891840 888891840 -13.00000000
-38.94290161 36.58261108 2.80018306 12 3 31321 53.50400000 888891842 888891842 3.00000000
-2.07912135 1.95310783 -0.55449092 3 4 31321 2.90600000 888891844 888891844 -11.00000000
-22.18813705 20.85062790 2.66382813 66 5 31322 30.56400000 888891847 888891847 5.00000000
-2.55040312 2.39750218 -0.55440372 3 6 31323 3.54400000 888891849 888891849 -9.00000000
-14.02014256 13.18422222 2.36304665 45 7 31324 19.39000000 888891851 888891851 7.00000000
-3.27058864 3.07666254 -0.55133688 2 8 31325 4.52400000 888891854 888891854 -7.00000000
-10.68170357 10.04834270 2.32273889 52 9 31325 14.84800000 888891856 888891856 9.00000000
-4.53715277 4.26961994 -0.54507202 3 10 31326 6.25400000 888891858 888891858 -5.00000000
-9.72208309 9.15202141 2.59538388 12 11 31327 13.60200000 888891861 888891861 11.00000000
-7.28032207 6.85583210 -0.52409226 4 12 31328 10.01400000 888891863 888891863 -3.00000000
-8.17466068 7.70071745 2.59278584 54 13 31329 11.52600000 888891865 888891865 13.00000000
-18.91193390 17.82170486 -0.45358804 3 14 31330 25.99000000 888891867 888891867 -1.00000000
-7.05951452 6.65487671 2.59957838 47 15 31331 10.04400000 888891870 888891870 15.00000000
-1.51923370 1.43566370 -0.56008440 4 0 31338 2.16400000 888891890 888891890 -15.00000000
-1.76138604 1.66566002 -0.55967820 4 2 31340 2.48800000 888891895 888891895 -13.00000000
-38.81121826 36.70194244 2.79945040 12 3 31340 53.49000000 888891897 888891897 3.00000000
-2.07799602 1.96575010 -0.55601740 3 4 31341 2.91400000 888891900 888891900 -11.00000000
-22.12390327 20.93616867 2.66487408 76 5 31342 30.57600000 888891902 888891902 5.00000000
-2.53484607 2.39960003 -0.55283940 3 6 31343 3.53400000 888891904 888891904 -9.00000000
-13.96250534 13.22216129 2.36109662 45 7 31344 19.37400000 888891907 888891907 7.00000000
-3.27135825 3.09898186 -0.55328679 2 8 31345 4.54000000 888891909 888891909 -7.00000000
-10.64767075 10.09014320 2.32336473 56 9 31346 14.85200000 888891911 888891911 9.00000000
-4.52655983 4.28954315 -0.54559493 3 10 31346 6.26000000 888891914 888891914 -5.00000000
-9.68722725 9.18320084 2.59462070 37 11 31347 13.59800000 888891916 888891916 11.00000000
-7.24185419 6.86746025 -0.52304554 4 12 31348 9.99400000 888891918 888891918 -3.00000000
-8.15338612 7.73457050 2.59458542 54 13 31349 11.53400000 888891920 888891920 13.00000000
-18.89892578 17.93441200 -0.45477480 3 14 31350 26.05800000 888891923 888891923 -1.00000000
-7.03624153 6.67947817 2.59957838 47 15 31351 10.04400000 888891925 888891925 15.00000000
-1.51981091 1.44628513 -0.56215495 4 0 31358 2.17200000 888891946 888891946 -15.00000000
-1.74568260 1.66239107 -0.55652893 4 2 31360 2.47400000 888891950 888891950 -13.00000000
-33.01458740 31.43936539 2.38924098 10 3 31360 45.65200000 888891953 888891953 3.00000000
-2.07112145 1.97299170 -0.55601740 3 4 31361 2.91400000 888891955 888891955 -11.00000000
-22.06511116 21.02701187 2.66661716 66 5 31362 30.59600000 888891957 888891957 5.00000000
-2.54504180 2.42615271 -0.55690670 1 6 31363 3.56000000 888891960 888891960 -9.00000000
-13.90764618 13.26259899 2.35963416 47 7 31364 19.36200000 888891962 888891962 7.00000000
-3.25908446 3.10901189 -0.55304307 2 8 31365 4.53800000 888891964 888891964 -7.00000000
-10.60557556 10.11721611 2.32148743 56 9 31365 14.84000000 888891967 888891967 9.00000000
-4.52164888 4.31494617 -0.54681516 7 10 31366 6.27400000 888891969 888891969 -5.00000000
-9.64943314 9.21153641 2.59309435 43 11 31367 13.59000000 888891971 888891971 11.00000000
-7.24961567 6.92304325 -0.52534831 4 12 31368 10.03800000 888891973 888891973 -3.00000000
-8.12211037 7.75894547 2.59323573 56 13 31369 11.52800000 888891976 888891976 13.00000000
-18.89982033 18.06105995 -0.45631063 3 14 31370 26.14600000 888891978 888891978 -1.00000000
-7.00869370 6.69999409 2.59802556 47 15 31371 10.03800000 888891980 888891980 15.00000000
-1.51335835 1.45024478 -0.56163734 4 0 31378 2.17000000 888892001 888892001 -15.00000000
-1.74268210 1.67117214 -0.55742872 4 2 31380 2.47800000 888892006 888892006 -13.00000000
-32.83256531 31.48529625 2.38400745 10 3 31380 45.55200000 888892008 888892008 3.00000000
-2.06705546 1.98292744 -0.55678064 2 4 31381 2.91800000 888892010 888892010 -11.00000000
-21.93407631 21.04872513 2.65964460 66 5 31382 30.51600000 888892013 888892013 5.00000000
-2.54083252 2.43912578 -0.55784529 1 6 31383 3.56600000 888892015 888892015 -9.00000000
-13.85840321 13.30831528 2.35914683 45 7 31384 19.35800000 888892017 888892017 7.00000000
-3.24105430 3.11349320 -0.55182439 2 8 31385 4.52800000 888892020 888892020 -7.00000000
-10.56449699 10.14870071 2.32023597 56 9 31385 14.83200000 888892022 888892022 9.00000000
-4.51086903 4.33484507 -0.54733807 7 10 31386 6.28000000 888892024 888892024 -5.00000000
-9.62005043 9.24788475 2.59385753 53 11 31387 13.59400000 888892026 888892026 11.00000000
-7.21676779 6.94000053 -0.52472031 4 12 31388 10.02600000 888892029 888892029 -3.00000000
-8.08795547 7.78049469 2.59098625 52 13 31389 11.51800000 888892031 888892031 13.00000000
-18.94040298 18.22675705 -0.45882377 3 14 31390 26.29000000 888892033 888892033 -1.00000000
-6.99361420 6.73245668 2.60113144 47 15 31391 10.05000000 888892036 888892036 15.00000000
-1.50133622 1.44881105 -0.55904913 4 0 31398 2.16000000 888892056 888892056 -15.00000000
-1.74665070 1.68672097 -0.56057805 4 2 31400 2.49200000 888892061 888892061 -13.00000000
-32.59890366 31.48039436 2.37500572 10 3 31400 45.38000000 888892063 888892063 3.00000000
-2.05164909 1.98194659 -0.55449092 3 4 31401 2.90600000 888892066 888892066 -11.00000000
-21.84614182 21.11131668 2.65790153 57 5 31402 30.49600000 888892068 888892068 5.00000000
-2.53514338 2.45072603 -0.55847102 3 6 31403 3.57000000 888892070 888892070 -9.00000000
-13.83469582 13.37868881 2.36304665 49 7 31404 19.39000000 888892072 888892072 7.00000000
-3.24871421 3.14273047 -0.55499297 2 8 31405 4.55400000 888892075 888892075 -7.00000000
-10.52332783 10.18002224 2.31898451 56 9 31405 14.82400000 888892077 888892077 9.00000000
-4.49284649 4.34779310 -0.54698944 7 10 31406 6.27600000 888892079 888892079 -5.00000000
-9.59617424 9.28960133 2.59614730 56 11 31407 13.60600000 888892082 888892082 11.00000000
-7.24128103 7.01238966 -0.52827913 4 12 31408 10.09400000 888892084 888892084 -3.00000000
-8.06634521 7.81410313 2.59278584 59 13 31409 11.52600000 888892086 888892086 13.00000000
-18.93697929 18.35120964 -0.46028978 3 14 31410 26.37400000 888892089 888892089 -1.00000000
-6.96153879 6.74620056 2.59750795 47 15 31410 10.03600000 888892091 888892091 15.00000000
-1.49626982 1.45404291 -0.55904913 4 0 31418 2.16000000 888892112 888892112 -15.00000000
-1.75192893 1.70367634 -0.56417722 4 2 31420 2.50800000 888892116 888892116 -13.00000000
-32.39717865 31.50487900 2.36830664 10 3 31420 45.25200000 888892119 888892119 3.00000000
-2.05316162 1.99730980 -0.55678064 3 4 31421 2.91800000 888892121 888892121 -11.00000000
-21.72805214 21.14436913 2.65249777 38 5 31422 30.43400000 888892123 888892123 5.00000000
-2.53223515 2.46507215 -0.55972254 1 6 31423 3.57800000 888892125 888892125 -9.00000000
-13.84337521 13.48091125 2.37255239 67 7 31424 19.46800000 888892128 888892128 7.00000000
-3.23914623 3.15543652 -0.55523676 2 8 31425 4.55600000 888892130 888892130 -7.00000000
-10.47640896 10.20566654 2.31648159 56 9 31425 14.80800000 888892132 888892132 9.00000000
-4.46908140 4.35510683 -0.54594356 7 10 31426 6.26400000 888892135 888892135 -5.00000000
-9.54681969 9.30659676 2.59156775 53 11 31427 13.58200000 888892137 888892137 11.00000000
-7.24821711 7.06830072 -0.53058195 4 12 31428 10.13800000 888892139 888892139 -3.00000000
-8.04041481 7.84357309 2.59323573 55 13 31429 11.52800000 888892142 888892142 13.00000000
-18.87280464 18.41720009 -0.46028978 3 14 31430 26.37400000 888892144 888892144 -1.00000000
-6.93814850 6.77302027 2.59802556 47 15 31431 10.03800000 888892146 888892146 15.00000000
-1.49031317 1.45738566 -0.55853152 4 0 31436 2.15800000 888892167 888892167 -15.00000000
-1.73403275 1.69690502 -0.56012815 4 2 31438 2.49000000 888892172 888892172 -13.00000000
-32.25399017 31.57441521 2.36548066 30 3 31439 45.19800000 888892174 888892174 3.00000000
-2.05248857 2.00924373 -0.55830711 3 4 31439 2.92600000 888892176 888892176 -11.00000000
-21.62023544 21.17210007 2.64744282 76 5 31440 30.37600000 888892178 888892178 5.00000000
-2.52024508 2.46886802 -0.55878389 1 6 31441 3.57200000 888892181 888892181 -9.00000000
-13.82931232 13.55212307 2.37742710 51 7 31442 19.50800000 888892183 888892183 7.00000000
-3.24055767 3.17671418 -0.55718666 2 8 31443 4.57200000 888892185 888892185 -7.00000000
-10.43865299 10.23299694 2.31523013 60 9 31443 14.80000000 888892188 888892188 9.00000000
-4.46960258 4.38307524 -0.54768670 7 10 31444 6.28400000 888892190 888892190 -5.00000000
-9.50912571 9.32829380 2.58927798 59 11 31445 13.57000000 888892192 888892192 11.00000000
-7.23167753 7.09663248 -0.53100061 4 12 31446 10.14600000 888892195 888892195 -3.00000000
-8.01851559 7.87152433 2.59413552 57 13 31447 11.53200000 888892197 888892197 13.00000000
-18.87763023 18.53804779 -0.46182558 3 14 31448 26.46200000 888892199 888892199 -1.00000000
-6.92077875 6.79628325 2.59906077 47 15 31448 10.04200000 888892202 888892202 15.00000000
-1.49347579 1.47071195 -0.56163734 4 0 31456 2.17000000 888892222 888892222 -15.00000000
-1.72948694 1.70431542 -0.56057805 4 2 31458 2.49200000 888892227 888892227 -13.00000000
-32.22465515 31.76673317 2.37144685 62 3 31459 45.31200000 888892229 888892229 3.00000000
-2.03707361 2.00812626 -0.55601740 3 4 31459 2.91400000 888892231 888892231 -11.00000000
-21.50364113 21.20547104 2.64221358 38 5 31460 30.31600000 888892234 888892234 5.00000000
-2.50879908 2.47487593 -0.55815816 1 6 31461 3.56800000 888892236 888892236 -9.00000000
-13.83843994 13.65608692 2.38717675 51 7 31462 19.58800000 888892238 888892238 7.00000000
-3.21390939 3.17266607 -0.55450553 4 8 31463 4.55000000 888892241 888892241 -7.00000000
-10.40951061 10.27951622 2.31710720 52 9 31464 14.81200000 888892243 888892243 9.00000000
-4.46136379 4.40565014 -0.54855824 7 10 31464 6.29400000 888892245 888892245 -5.00000000
-9.47091961 9.35591125 2.58775163 56 11 31465 13.56200000 888892248 888892248 11.00000000
-7.18129015 7.09656286 -0.52911651 4 12 31466 10.11000000 888892250 888892250 -3.00000000
-7.98406029 7.89261627 2.59188604 54 13 31467 11.52200000 888892252 888892252 13.00000000
-18.87821198 18.66851044 -0.46343121 3 14 31468 26.55400000 888892255 888892255 -1.00000000
-6.89582253 6.82160378 2.59906077 47 15 31469 10.04200000 888892257 888892257 15.00000000
-1.49793506 1.48543823 -0.56526077 4 0 31476 2.18400000 888892278 888892278 -15.00000000
-29.92649460 29.68718910 0.73579347 31 1 31477 42.16000000 888892280 888892280 1.00000000
-1.72906029 1.71583271 -0.56237763 4 2 31478 2.50000000 888892282 888892282 -13.00000000
-32.24539185 32.00988388 2.38118124 62 3 31479 45.49800000 888892284 888892284 3.00000000
-2.03283834 2.01799107 -0.55678064 3 4 31479 2.91800000 888892287 888892287 -11.00000000
-21.40969658 21.26074791 2.63977313 38 5 31480 30.28800000 888892289 888892289 5.00000000
-2.50014496 2.48361802 -0.55815816 1 6 31481 3.56800000 888892291 888892291 -9.00000000
-13.84419441 13.75748062 2.39643884 51 7 31482 19.66400000 888892294 888892294 7.00000000
-3.20281506 3.18386531 -0.55450553 2 8 31483 4.55000000 888892296 888892296 -7.00000000
-10.36695957 10.30562305 2.31523013 60 9 31483 14.80000000 888892298 888892298 9.00000000
-4.47986412 4.45491362 -0.55274171 15 10 31484 6.34200000 888892301 888892301 -5.00000000
-9.44377041 9.39445210 2.58927798 59 11 31485 13.57000000 888892303 888892303 11.00000000
-7.19611502 7.16103411 -0.53204733 4 12 31486 10.16600000 888892305 888892305 -3.00000000
-7.95093679 7.91493845 2.59008646 53 13 31487 11.51400000 888892308 888892308 13.00000000
-18.94895935 18.86975288 -0.46678206 3 14 31488 26.74600000 888892310 888892310 -1.00000000
-6.87590122 6.84715986 2.60009623 47 15 31488 10.04600000 888892312 888892312 15.00000000
-1.47907102 1.47700727 -0.56008440 4 0 31496 2.16400000 888892333 888892333 -15.00000000
-1.72581720 1.72461283 -0.56327742 4 2 31498 2.50400000 888892337 888892337 -13.00000000
-32.26906204 32.25780106 2.39122987 41 3 31499 45.69000000 888892340 888892340 3.00000000
-2.02578163 2.02507472 -0.55678064 3 4 31499 2.91800000 888892342 888892342 -11.00000000
-21.32408142 21.32408142 2.63837862 76 5 31500 30.27200000 888892344 888892344 5.00000000
-2.50542593 2.50630045 -0.56128687 1 6 31501 3.58800000 888892347 888892347 -9.00000000
-13.86905289 13.87873840 2.40911317 15 7 31502 19.76800000 888892349 888892349 7.00000000
-3.19589067 3.19923925 -0.55523676 2 8 31503 4.55600000 888892351 888892351 -7.00000000
-10.30957603 10.32398129 2.31084991 56 9 31504 14.77200000 888892354 888892354 9.00000000
-4.45020819 4.45642614 -0.55099863 7 10 31504 6.32200000 888892356 888892356 -5.00000000
-9.41646862 9.43291759 2.59080458 56 11 31505 13.57800000 888892358 888892358 11.00000000
-7.15273428 7.16773081 -0.53068662 4 12 31506 10.14000000 888892360 888892360 -3.00000000
-7.92601299 7.94540358 2.59098625 51 13 31507 11.51800000 888892363 888892363 13.00000000
-18.86320877 18.91595840 -0.46629339 3 14 31508 26.71800000 888892365 888892365 -1.00000000
-6.84530354 6.86684275 2.59802556 47 15 31509 10.03800000 888892367 888892367 15.00000000
-1.46683776 1.47556806 -0.55749625 4 0 31517 2.15400000 888892388 888892388 -15.00000000
-24.11738396 24.26939583 0.59722137 22 1 31518 34.22000000 888892390 888892390 1.00000000
-1.72223139 1.73369169 -0.56417722 4 2 31519 2.50800000 888892393 888892393 -13.00000000
