# .PCD v0.7 - Point Cloud Data file format
VERSION 0.7
FIELDS x y z intensity laser_id azimuth distance_m adjustedtime timestamp vertical_angle
SIZE 4 4 4 1 1 2 8 8 4 8
TYPE F F F U U U F U U F
COUNT 1 1 1 1 1 1 1 1 1 1
WIDTH 551
HEIGHT 1
VIEWPOINT 0 0 0 1 0 0 0
POINTS 551
DATA ascii
3.24450326 3.00444293 0.23174362 7 3 4720 4.42800000 888317979 888317979 3.00000000
2.40275121 2.22497201 -0.63653880 6 4 4720 3.33600000 888317982 888317982 -11.00000000
3.25319886 3.01144075 0.38784304 7 5 4721 4.45000000 888317984 888317984 5.00000000
3.00411248 2.77989149 -0.64826441 9 6 4722 4.14400000 888317986 888317986 -9.00000000
3.24524570 3.00197577 0.54280603 7 7 4723 4.45400000 888317988 888317988 7.00000000
3.24139714 2.99736595 -0.54207486 8 8 4724 4.44800000 888317991 888317991 -7.00000000
3.25598979 3.01085997 0.70239073 8 9 4724 4.49000000 888317993 888317993 9.00000000
3.24798512 3.00240660 -0.38697150 10 10 4725 4.44000000 888317995 888317995 -5.00000000
3.26300716 3.01523685 0.86360151 9 11 4726 4.52600000 888317998 888317998 11.00000000
3.24230313 2.99505591 -0.23132493 8 12 4727 4.42000000 888318000 888318000 -3.00000000
3.26856232 3.01825571 1.02712655 8 13 4728 4.56600000 888318002 888318002 13.00000000
3.26052904 3.00978327 -0.07745378 7 14 4729 4.43800000 888318005 888318005 -1.00000000
3.26914835 3.01773977 1.19212055 8 15 4729 4.60600000 888318007 888318007 15.00000000
1.69282246 1.55826676 -0.61650699 4 0 4737 2.38200000 888318028 888318028 -15.00000000
3.26525259 3.00465798 0.07745378 7 1 4738 4.43800000 888318030 888318030 1.00000000
1.99358201 1.83383489 -0.62536395 3 2 4739 2.78000000 888318032 888318032 -13.00000000
3.26085162 2.99850678 0.23216230 7 3 4740 4.43600000 888318035 888318035 3.00000000
2.40761304 2.21391368 -0.63577557 5 4 4740 3.33200000 888318037 888318037 -11.00000000
3.27689242 3.01220155 0.38941187 8 5 4741 4.46800000 888318039 888318039 5.00000000
3.01088881 2.76671505 -0.64763868 6 6 4742 4.14000000 888318041 888318041 -9.00000000
3.27763367 3.01077294 0.54646212 7 7 4743 4.48400000 888318044 888318044 7.00000000
3.26353741 2.99677444 -0.54402477 8 8 4744 4.46400000 888318046 888318046 -7.00000000
3.28102970 3.01283693 0.70551944 8 9 4744 4.51000000 888318048 888318048 9.00000000
3.27605891 3.00721860 -0.38906324 10 10 4745 4.46400000 888318051 888318051 -5.00000000
3.29087090 3.01975679 0.86818093 9 11 4746 4.55000000 888318053 888318053 11.00000000
3.26745629 2.99722099 -0.23237164 8 12 4747 4.44000000 888318055 888318055 -3.00000000
3.28769588 3.01473022 1.02982593 9 13 4748 4.57800000 888318058 888318058 13.00000000
3.27691150 3.00378847 -0.07759340 7 14 4749 4.44600000 888318060 888318060 -1.00000000
3.29959941 3.02458549 1.19936740 8 15 4749 4.63400000 888318062 888318062 15.00000000
1.69798064 1.55264449 -0.61650699 4 0 4756 2.38200000 888318083 888318083 -15.00000000
3.29438639 3.01135278 0.07790754 8 1 4757 4.46400000 888318085 888318085 1.00000000
2.00252962 1.82984293 -0.62626374 3 2 4758 2.78400000 888318088 888318088 -13.00000000
3.29732084 3.01192331 0.23404640 7 3 4759 4.47200000 888318090 888318090 3.00000000
2.40624404 2.19797301 -0.63348585 5 4 4759 3.32000000 888318092 888318092 -11.00000000
3.30010486 3.01340985 0.39098066 8 5 4760 4.48600000 888318094 888318094 5.00000000
3.04047251 2.77535987 -0.65201885 6 6 4761 4.16800000 888318097 888318097 -9.00000000
3.30666256 3.01728177 0.54963076 8 7 4762 4.51000000 888318099 888318099 7.00000000
3.28372335 2.99530005 -0.54573095 8 8 4763 4.47800000 888318101 888318101 -7.00000000
3.29590559 3.00535846 0.70645803 8 9 4764 4.51600000 888318104 888318104 9.00000000
3.28895760 2.99902320 -0.38941187 10 10 4764 4.46800000 888318106 888318106 -5.00000000
3.32263064 3.02866578 0.87390518 9 11 4765 4.58000000 888318108 888318108 11.00000000
3.29804564 3.00520205 -0.23383705 8 12 4766 4.46800000 888318111 888318111 -3.00000000
3.32216620 3.02611995 1.03747427 9 13 4767 4.61200000 888318113 888318113 13.00000000
3.29720449 3.00232983 -0.07783774 7 14 4768 4.46000000 888318115 888318115 -1.00000000
3.32818055 3.03053546 1.20609677 8 15 4768 4.66000000 888318117 888318117 15.00000000
1.69480872 1.53891599 -0.61340111 4 0 4776 2.37000000 888318138 888318138 -15.00000000
3.30931973 3.00386691 0.07801226 8 1 4777 4.47000000 888318141 888318141 1.00000000
2.00890470 1.82284164 -0.62626374 3 2 4778 2.78400000 888318143 888318143 -13.00000000
3.31669044 3.00844622 0.23467442 7 3 4779 4.48400000 888318145 888318145 3.00000000
2.41971827 2.19483638 -0.63501233 6 4 4779 3.32800000 888318147 888318147 -11.00000000
3.32536316 3.01525521 0.39272377 8 5 4780 4.50600000 888318150 888318150 5.00000000
3.04282379 2.75809646 -0.65045452 9 6 4781 4.15800000 888318152 888318152 -9.00000000
3.34071112 3.02704763 0.55353057 8 7 4782 4.54200000 888318154 888318154 7.00000000
3.31475663 3.00247669 -0.54914325 8 8 4783 4.50600000 888318157 888318157 -7.00000000
3.33126903 3.01637530 0.71177679 8 9 4784 4.55000000 888318159 888318159 9.00000000
3.30826759 2.99554801 -0.39045772 10 10 4784 4.48000000 888318161 888318161 -5.00000000
3.34482670 3.02758908 0.87695813 9 11 4785 4.59600000 888318164 888318164 11.00000000
3.32628727 3.00975204 -0.23509312 8 12 4786 4.49200000 888318166 888318166 -3.00000000
3.34860682 3.02888465 1.04242313 9 13 4787 4.63400000 888318168 888318168 13.00000000
3.32991338 3.01091957 -0.07836130 7 14 4788 4.49000000 888318170 888318170 -1.00000000
3.34786463 3.02608919 1.20920253 8 15 4789 4.67200000 888318173 888318173 15.00000000
1.70277166 1.53587520 -0.61443639 4 0 4795 2.37400000 888318194 888318194 -15.00000000
3.32668853 2.99957180 0.07818678 8 1 4796 4.48000000 888318196 888318196 1.00000000
2.01783347 1.81877935 -0.62716353 3 2 4797 2.78800000 888318198 888318198 -13.00000000
3.35632420 3.02416992 0.23676787 7 3 4798 4.52400000 888318200 888318200 3.00000000
2.42552495 2.18548608 -0.63463074 5 4 4798 3.32600000 888318203 888318203 -11.00000000
3.35310864 3.02021241 0.39481550 8 5 4799 4.53000000 888318205 888318205 5.00000000
3.03727341 2.73477316 -0.64732581 9 6 4800 4.13800000 888318207 888318207 -9.00000000
3.35515714 3.01993680 0.55426174 8 7 4801 4.54800000 888318210 888318210 7.00000000
3.35125709 3.01536798 -0.55353057 8 8 4802 4.54200000 888318212 888318212 -7.00000000
3.35300303 3.01587987 0.71427977 8 9 4803 4.56600000 888318214 888318214 9.00000000
3.33447766 2.99921727 -0.39237514 10 10 4803 4.50200000 888318217 888318217 -5.00000000
3.36944699 3.02960706 0.88077432 9 11 4804 4.61600000 888318219 888318219 11.00000000
3.34367681 3.00538087 -0.23561648 8 12 4805 4.50200000 888318221 888318221 -3.00000000
3.38327503 3.03990531 1.05007148 9 13 4806 4.66800000 888318223 888318223 13.00000000
3.35178113 3.01055050 -0.07864054 7 14 4807 4.50600000 888318226 888318226 -1.00000000
3.38322473 3.03879309 1.21852005 8 15 4807 4.70800000 888318228 888318228 15.00000000
1.71675658 1.53765547 -0.61754227 4 0 4815 2.38600000 888318249 888318249 -15.00000000
3.36246514 3.01061749 0.07878016 8 1 4816 4.51400000 888318251 888318251 1.00000000
2.00674510 1.79612875 -0.62176472 3 2 4817 2.76400000 888318253 888318253 -13.00000000
3.38323307 3.02708507 0.23791926 7 3 4818 4.54600000 888318256 888318256 3.00000000
2.43752813 2.18093324 -0.63577557 6 4 4818 3.33200000 888318258 888318258 -11.00000000
3.38442135 3.02708507 0.39725587 8 5 4819 4.55800000 888318260 888318260 5.00000000
3.05858159 2.73468757 -0.64982879 9 6 4820 4.15400000 888318263 888318263 -9.00000000
3.37603879 3.01746678 0.55596793 8 7 4821 4.56200000 888318265 888318265 7.00000000
3.37064409 3.01158714 -0.55499297 8 8 4822 4.55400000 888318267 888318267 -7.00000000
3.39592218 3.03310680 0.72116286 8 9 4823 4.61000000 888318270 888318270 9.00000000
3.37167406 3.01144934 -0.39551276 10 10 4823 4.53800000 888318272 888318272 -5.00000000
3.39025307 3.02697992 0.88344562 9 11 4824 4.63000000 888318274 888318274 11.00000000
3.37202811 3.00965023 -0.23687254 8 12 4825 4.52600000 888318276 888318276 -3.00000000
3.40840673 3.04105067 1.05457056 8 13 4826 4.68800000 888318279 888318279 13.00000000
3.38465476 3.01879787 -0.07916412 7 14 4827 4.53600000 888318281 888318281 -1.00000000
3.41255379 3.04368138 1.22524941 8 15 4827 4.73400000 888318283 888318283 15.00000000
1.71976018 1.52848554 -0.61650699 4 0 4837 2.38200000 888318304 888318304 -15.00000000
3.39492893 3.01627874 0.07926883 8 1 4838 4.54200000 888318306 888318306 1.00000000
2.02819729 1.80135095 -0.62626374 3 2 4839 2.78400000 888318309 888318309 -13.00000000
7.40833616 6.57974100 0.51927733 31 3 4839 9.92200000 888318311 888318311 3.00000000
2.43560743 2.16243362 -0.63310426 8 4 4840 3.31800000 888318313 888318313 -11.00000000
7.44173813 6.60476208 0.87051153 40 5 4841 9.98800000 888318316 888318316 5.00000000
3.06314898 2.71767950 -0.64857727 9 6 4842 4.14600000 888318318 888318318 -9.00000000
3.40987706 3.02423930 0.55962402 8 7 4843 4.59200000 888318320 888318320 7.00000000
3.38812447 3.00389028 -0.55596793 8 8 4844 4.56200000 888318322 888318322 -7.00000000
17.03212547 15.10057735 3.60518861 22 9 4844 23.04600000 888318325 888318325 9.00000000
3.41154242 3.02358937 -0.39882469 10 10 4845 4.57600000 888318327 888318327 -5.00000000
7.73388386 6.85199404 2.00845551 37 11 4846 10.52600000 888318329 888318329 11.00000000
3.39402556 3.00594974 -0.23760524 6 12 4847 4.54000000 888318332 888318332 -3.00000000
3.40617704 3.01565123 -0.07940845 5 14 4848 4.55000000 888318336 888318336 -1.00000000
5.61444044 4.96898460 2.00895333 9 15 4849 7.76200000 888318339 888318339 15.00000000
1.72798193 1.52502978 -0.61754227 4 0 4857 2.38600000 888318359 888318359 -15.00000000
7.41554308 6.54458427 0.17263921 13 1 4857 9.89200000 888318362 888318362 1.00000000
2.03415966 1.79461527 -0.62626374 3 2 4858 2.78400000 888318364 888318364 -13.00000000
7.42526674 6.54855680 0.51885867 91 3 4859 9.91400000 888318366 888318366 3.00000000
2.44461370 2.15521693 -0.63348585 11 4 4860 3.32000000 888318369 888318369 -11.00000000
7.43784237 6.55503368 0.86737394 81 5 4861 9.95200000 888318371 888318371 5.00000000
3.07066226 2.70620060 -0.64826441 6 6 4861 4.14400000 888318373 888318373 -9.00000000
19.73435783 17.38593674 3.22929382 35 7 4862 26.49800000 888318375 888318375 7.00000000
4.15782785 3.66175079 -0.68027467 4 8 4863 5.58200000 888318378 888318378 -7.00000000
17.08028412 15.03711700 3.60425019 55 9 4864 23.04000000 888318380 888318380 9.00000000
6.41190529 5.64291811 -0.74727333 13 10 4865 8.57400000 888318382 888318382 -5.00000000
7.76245880 6.83149815 2.00998187 43 11 4865 10.53400000 888318385 888318385 11.00000000
7.40627003 6.51573372 -0.51697457 12 12 4866 9.87800000 888318387 888318387 -3.00000000
7.47037601 6.56981897 2.29675031 60 13 4867 10.21000000 888318389 888318389 13.00000000
7.41007185 6.51449156 -0.17222035 14 14 4868 9.86800000 888318392 888318392 -1.00000000
5.66802883 4.98123837 2.02189445 2 15 4869 7.81200000 888318394 888318394 15.00000000
1.71850300 1.50655615 -0.61236584 4 0 4876 2.36600000 888318415 888318415 -15.00000000
7.41728783 6.50020790 0.17215054 13 1 4877 9.86400000 888318417 888318417 1.00000000
2.04920650 1.79520857 -0.62896317 3 2 4878 2.79600000 888318419 888318419 -13.00000000
7.43943024 6.51731730 0.51833528 89 3 4878 9.90400000 888318422 888318422 3.00000000
2.44288540 2.13933778 -0.63119614 8 4 4879 3.30800000 888318424 888318424 -11.00000000
7.42805767 6.50277281 0.86371338 77 5 4880 9.91000000 888318426 888318426 5.00000000
3.07711697 2.69286370 -0.64763868 6 6 4881 4.14000000 888318428 888318428 -9.00000000
19.76205635 17.28819084 3.22393155 16 7 4882 26.45400000 888318431 888318431 7.00000000
4.14667559 3.62630653 -0.67637485 6 8 4883 5.55000000 888318433 888318433 -7.00000000
17.14789963 14.99599838 3.60800457 27 9 4883 23.06400000 888318435 888318435 9.00000000
6.41258240 5.60588884 -0.74518162 13 10 4884 8.55000000 888318438 888318438 -5.00000000
7.78330088 6.80177641 2.00921869 40 11 4885 10.53000000 888318440 888318440 11.00000000
7.41693592 6.47932959 -0.51613718 12 12 4886 9.86200000 888318442 888318442 -3.00000000
7.49766684 6.54754782 2.29809999 75 13 4887 10.21600000 888318445 888318445 13.00000000
7.41807795 6.47804499 -0.17190620 12 14 4887 9.85000000 888318447 888318447 -1.00000000
6.63921213 5.79583645 2.36146498 40 15 4888 9.12400000 888318449 888318449 15.00000000
1.72957981 1.50562203 -0.61443639 4 0 4896 2.37400000 888318470 888318470 -15.00000000
7.41165352 6.45194197 0.17152224 13 1 4896 9.82800000 888318472 888318472 1.00000000
2.04044771 1.77561069 -0.62446415 3 2 4897 2.77600000 888318474 888318474 -13.00000000
7.44405174 6.47557878 0.51707923 100 3 4898 9.88000000 888318477 888318477 3.00000000
2.45626402 2.13595057 -0.63272262 11 4 4899 3.31600000 888318479 888318479 -11.00000000
7.43717813 6.46504068 0.86214459 77 5 4900 9.89200000 888318481 888318481 5.00000000
3.08453918 2.68134880 -0.64732581 6 6 4900 4.13800000 888318484 888318484 -9.00000000
19.80429268 17.20954132 3.22149420 9 7 4901 26.43400000 888318486 888318486 7.00000000
4.17816019 3.62945938 -0.67954344 6 8 4902 5.57600000 888318488 888318488 -7.00000000
15.90401459 13.81053543 3.33612132 9 9 4903 21.32600000 888318491 888318491 9.00000000
6.43812990 5.58869457 -0.74587888 13 10 4904 8.55800000 888318493 888318493 -5.00000000
7.78950548 6.76177216 2.00502086 40 11 4904 10.50800000 888318495 888318495 11.00000000
7.42027950 6.43899059 -0.51488113 12 12 4905 9.83800000 888318498 888318498 -3.00000000
7.49872923 6.50477171 2.29180145 75 13 4906 10.18800000 888318500 888318500 13.00000000
7.42251587 6.43639088 -0.17148735 12 14 4907 9.82600000 888318502 888318502 -1.00000000
6.65794325 5.77136040 2.36094737 42 15 4908 9.12200000 888318504 888318504 15.00000000
1.74040830 1.50493252 -0.61650699 4 0 4915 2.38200000 888318525 888318525 -15.00000000
7.42354012 6.41687727 0.17127791 13 1 4916 9.81400000 888318527 888318527 1.00000000
2.04958248 1.77102566 -0.62536395 3 2 4917 2.78000000 888318530 888318530 -13.00000000
7.44432735 6.43257618 0.51561385 100 3 4917 9.85200000 888318532 888318532 3.00000000
2.46630502 2.13036036 -0.63348585 6 4 4918 3.32000000 888318534 888318534 -11.00000000
7.44500446 6.42862320 0.86057580 81 5 4919 9.87400000 888318537 888318537 5.00000000
3.09387994 2.67056561 -0.64732581 6 6 4920 4.13800000 888318539 888318539 -9.00000000
19.84620857 17.12474442 3.21856928 3 7 4921 26.41000000 888318541 888318541 7.00000000
4.18566418 3.61169362 -0.67881227 6 8 4921 5.57000000 888318544 888318544 -7.00000000
16.00955582 13.80932903 3.34863615 4 9 4922 21.40600000 888318546 888318546 9.00000000
6.44455624 5.55690575 -0.74448436 13 10 4923 8.54200000 888318548 888318548 -5.00000000
7.81454802 6.73582220 2.00540257 37 11 4924 10.51000000 888318551 888318551 11.00000000
7.42304087 6.39610100 -0.51352042 12 12 4925 9.81200000 888318553 888318553 -3.00000000
7.49776506 6.45820761 2.28460288 80 13 4926 10.15600000 888318555 888318555 13.00000000
7.43775845 6.40652132 -0.17134772 12 14 4926 9.81800000 888318557 888318557 -1.00000000
6.68143702 5.75303173 2.36250019 42 15 4927 9.12800000 888318560 888318560 15.00000000
1.74858236 1.50136518 -0.61754227 4 0 4935 2.38600000 888318580 888318580 -15.00000000
7.42960644 6.37919807 0.17092887 13 1 4935 9.79400000 888318583 888318583 1.00000000
2.05248666 1.76168084 -0.62446415 3 2 4936 2.77600000 888318585 888318585 -13.00000000
7.43187284 6.37663841 0.51320636 94 3 4937 9.80600000 888318587 888318587 3.00000000
2.46627545 2.11534739 -0.63157779 5 4 4938 3.31000000 888318590 888318590 -11.00000000
7.45378637 6.39092445 0.85900700 81 5 4939 9.85600000 888318592 888318592 5.00000000
3.10271883 2.66029119 -0.64732581 6 6 4939 4.13800000 888318594 888318594 -9.00000000
7.52104568 6.44631577 1.21625602 2 7 4940 9.98000000 888318597 888318597 7.00000000
4.20126057 3.59964418 -0.67929971 6 8 4941 5.57400000 888318599 888318599 -7.00000000
17.31040955 14.82633686 3.60988164 55 9 4942 23.07600000 888318601 888318601 9.00000000
6.48510218 5.55251741 -0.74692470 13 10 4943 8.57000000 888318604 888318604 -5.00000000
7.83833313 6.71114826 2.00578427 37 11 4943 10.51200000 888318606 888318606 11.00000000
7.42296696 6.35326815 -0.51205498 17 12 4944 9.78400000 888318608 888318608 -3.00000000
7.49100590 6.40923786 2.27605486 69 13 4945 10.11800000 888318610 888318610 13.00000000
7.42968273 6.35452414 -0.17064963 16 14 4946 9.77800000 888318613 888318613 -1.00000000
6.69560480 5.72465277 2.36042976 42 15 4947 9.12000000 888318615 888318615 15.00000000
1.74525154 1.48742759 -0.61443639 4 0 4956 2.37400000 888318636 888318636 -15.00000000
7.44339085 6.34154558 0.17068453 13 1 4957 9.78000000 888318638 888318638 1.00000000
2.06517029 1.75884104 -0.62626374 3 2 4958 2.78400000 888318640 888318640 -13.00000000
7.43998909 6.33640671 0.51215965 97 3 4958 9.78600000 888318643 888318643 3.00000000
2.47401190 2.10629392 -0.63157779 5 4 4959 3.31000000 888318645 888318645 -11.00000000
7.46046972 6.34935760 0.85708958 89 5 4960 9.83400000 888318647 888318647 5.00000000
3.12645173 2.65987825 -0.65014166 6 6 4961 4.15600000 888318650 888318650 -9.00000000
7.54120588 6.41353178 1.21552479 4 7 4962 9.97400000 888318652 888318652 7.00000000
4.21505117 3.58348584 -0.67929971 4 8 4963 5.57400000 888318654 888318654 -7.00000000
17.35259438 14.75255585 3.60737872 44 9 4963 23.06000000 888318657 888318657 9.00000000
6.50996447 5.53258181 -0.74744767 13 10 4964 8.57600000 888318659 888318659 -5.00000000
7.85057831 6.66956139 2.00234962 34 11 4965 10.49400000 888318661 888318661 11.00000000
7.43208361 6.31179047 -0.51100826 17 12 4966 9.76400000 888318663 888318663 -3.00000000
7.50664711 6.37285995 2.27335525 74 13 4967 10.10600000 888318666 888318666 13.00000000
7.43310547 6.31042624 -0.17019586 16 14 4967 9.75200000 888318668 888318668 -1.00000000
6.71948767 5.70257378 2.36146498 40 15 4968 9.12400000 888318670 888318670 15.00000000
1.75338233 1.48382246 -0.61547166 4 0 4976 2.37800000 888318691 888318691 -15.00000000
7.43690300 6.29357529 0.17005625 16 1 4976 9.74400000 888318693 888318693 1.00000000
2.07991815 1.75953460 -0.62896317 3 2 4977 2.79600000 888318696 888318696 -13.00000000
7.45291185 6.30265951 0.51153165 94 3 4978 9.77400000 888318698 888318698 3.00000000
2.48434782 2.10018015 -0.63234103 5 4 4979 3.31400000 888318700 888318700 -11.00000000
7.45519590 6.30012894 0.85395199 89 5 4980 9.79800000 888318703 888318703 5.00000000
3.12016702 2.63674569 -0.64701295 4 6 4980 4.13600000 888318705 888318705 -9.00000000
7.53513670 6.36543036 1.21113753 4 7 4981 9.93800000 888318707 888318707 7.00000000
4.22691107 3.56948853 -0.67929971 4 8 4982 5.57400000 888318710 888318710 -7.00000000
17.41002274 14.69699097 3.60863018 55 9 4983 23.06800000 888318712 888318712 9.00000000
6.51553297 5.49825954 -0.74587888 13 10 4984 8.55800000 888318714 888318714 -5.00000000
7.86515045 6.63716078 2.00044155 34 11 4984 10.48400000 888318716 888318716 11.00000000
7.44686699 6.28195906 -0.51058960 17 12 4985 9.75600000 888318719 888318719 -3.00000000
7.51433086 6.33662558 2.26930618 70 13 4986 10.08800000 888318721 888318721 13.00000000
7.44132757 6.27284145 -0.16988173 16 14 4987 9.73400000 888318723 888318723 -1.00000000
6.73344326 5.67410421 2.35939431 40 15 4988 9.11600000 888318726 888318726 15.00000000
1.75533557 1.47551370 -0.61443639 4 0 4995 2.37400000 888318746 888318746 -15.00000000
7.44198608 6.25342655 0.16967230 16 1 4996 9.72200000 888318749 888318749 1.00000000
2.07709432 1.74474323 -0.62626374 3 2 4997 2.78400000 888318751 888318751 -13.00000000
7.46306610 6.26891804 0.51079893 91 3 4997 9.76000000 888318753 888318753 3.00000000
2.49430561 2.09445500 -0.63310426 5 4 4998 3.31800000 888318756 888318756 -11.00000000
7.44857836 6.25231504 0.85081434 69 5 4999 9.76200000 888318758 888318758 5.00000000
3.12935209 2.62583804 -0.64701295 4 6 5000 4.13600000 888318760 888318760 -9.00000000
7.53601789 6.32122898 1.20772517 2 7 5001 9.91000000 888318762 888318762 7.00000000
4.23934555 3.55471206 -0.67929971 4 8 5002 5.57400000 888318765 888318765 -7.00000000
17.46623230 14.64552212 3.61019468 27 9 5002 23.07800000 888318767 888318767 9.00000000
6.53678370 5.47918272 -0.74622744 13 10 5003 8.56200000 888318769 888318769 -5.00000000
7.88225126 6.60462189 1.99891508 34 11 5004 10.47600000 888318772 888318772 11.00000000
7.44272089 6.23412418 -0.50881016 17 12 5005 9.72200000 888318774 888318774 -3.00000000
7.52445126 6.30034828 2.26570702 68 13 5006 10.07200000 888318776 888318776 13.00000000
7.44062328 6.23015785 -0.16939306 14 14 5006 9.70600000 888318779 888318779 -1.00000000
6.75518513 5.65422392 2.36042976 40 15 5007 9.12000000 888318781 888318781 15.00000000
1.76318479 1.47216105 -0.61547166 4 0 5014 2.37800000 888318802 888318802 -15.00000000
7.44886494 6.21718121 0.16935815 13 1 5015 9.70400000 888318804 888318804 1.00000000
2.07089829 1.72785807 -0.62266451 3 2 5016 2.76800000 888318806 888318806 -13.00000000
7.47263288 6.23259449 0.50996155 89 3 5017 9.74400000 888318809 888318809 3.00000000
2.49556994 2.08070660 -0.63157779 5 4 5018 3.31000000 888318811 888318811 -11.00000000
7.46423531 6.22117376 0.85011709 81 5 5019 9.75400000 888318813 888318813 5.00000000
3.14714694 2.62303472 -0.64889014 4 6 5019 4.14800000 888318815 888318815 -9.00000000
7.53101158 6.27460241 1.20358169 2 7 5020 9.87600000 888318818 888318818 7.00000000
4.24195814 3.53301191 -0.67783731 4 8 5021 5.56200000 888318820 888318820 -7.00000000
17.50358582 14.57308865 3.60737872 27 9 5022 23.06000000 888318822 888318822 9.00000000
6.55893278 5.45888090 -0.74657607 13 10 5023 8.56600000 888318825 888318825 -5.00000000
7.90561819 6.57970333 1.99929667 31 11 5023 10.47800000 888318827 888318827 11.00000000
7.43418121 6.18513870 -0.50682139 17 12 5024 9.68400000 888318829 888318829 -3.00000000
7.52132988 6.25542402 2.25850868 72 13 5025 10.04000000 888318832 888318832 13.00000000
7.45309925 6.19647694 -0.16918363 16 14 5026 9.69400000 888318834 888318834 -1.00000000
6.77488089 5.63060951 2.36042976 42 15 5027 9.12000000 888318836 888318836 15.00000000
1.77723622 1.47339523 -0.61857754 4 0 5034 2.39000000 888318857 888318857 -15.00000000
7.45050573 6.17455387 0.16890439 13 1 5035 9.67800000 888318859 888318859 1.00000000
2.07991815 1.72310519 -0.62356430 3 2 5036 2.77200000 888318862 888318862 -13.00000000
7.46711349 6.18611908 0.50818211 94 3 5036 9.71000000 888318864 888318864 3.00000000
2.50548005 2.07492399 -0.63234103 5 4 5037 3.31400000 888318866 888318866 -11.00000000
7.47101212 6.18495274 0.84854829 77 5 5038 9.73600000 888318868 888318868 5.00000000
3.15932751 2.61455202 -0.64951593 6 6 5039 4.15200000 888318871 888318871 -9.00000000
7.54369068 6.24068356 1.20211923 2 7 5040 9.86400000 888318873 888318873 7.00000000
4.24661589 3.51185775 -0.67661858 4 8 5041 5.55200000 888318875 888318875 -7.00000000
16.20764732 13.40336800 3.33111548 14 9 5041 21.29400000 888318878 888318878 9.00000000
6.59235477 5.44979525 -0.74831921 13 10 5042 8.58600000 888318880 888318880 -5.00000000
14.77198982 12.20743084 3.72497320 30 11 5043 19.52200000 888318882 888318882 11.00000000
7.44956684 6.15406275 -0.50640273 12 12 5044 9.67600000 888318885 888318885 -3.00000000
7.52508831 6.21424150 2.25310969 75 13 5045 10.01600000 888318887 888318887 13.00000000
7.45664549 6.15772104 -0.16879967 14 14 5045 9.67200000 888318889 888318889 -1.00000000
6.79649496 5.61057186 2.36146498 42 15 5046 9.12400000 888318892 888318892 15.00000000
1.77640235 1.46227145 -0.61650699 4 0 5054 2.38200000 888318912 888318912 -15.00000000
7.45704556 6.13837528 0.16859025 13 1 5054 9.66000000 888318915 888318915 1.00000000
2.08863044 1.71867502 -0.62446415 3 2 5055 2.77600000 888318917 888318917 -13.00000000
7.47477913 6.14859724 0.50724012 100 3 5056 9.69200000 888318919 888318919 3.00000000
2.51270771 2.06616569 -0.63234103 5 4 5057 3.31400000 888318921 888318921 -11.00000000
7.47716475 6.14618444 0.84680521 77 5 5058 9.71600000 888318924 888318924 5.00000000
3.15272045 2.59151721 -0.64638722 4 6 5058 4.13200000 888318926 888318926 -9.00000000
7.56434441 6.21563387 1.20211923 2 7 5059 9.86400000 888318928 888318928 7.00000000
4.25977230 3.49901628 -0.67686236 4 8 5060 5.55400000 888318931 888318931 -7.00000000
16.21464157 13.31411839 3.32298088 14 9 5061 21.24200000 888318933 888318933 9.00000000
6.05692816 4.97167730 -0.68556708 4 10 5062 7.86600000 888318935 888318935 -5.00000000
14.80935478 12.15588665 3.72421002 45 11 5062 19.51800000 888318938 888318938 11.00000000
7.45912552 6.12045670 -0.50567001 17 12 5063 9.66200000 888318940 888318940 -3.00000000
7.52908039 6.17565870 2.24816084 81 13 5064 9.99400000 888318942 888318942 13.00000000
7.46572399 6.12151146 -0.16852044 14 14 5065 9.65600000 888318945 888318945 -1.00000000
6.81304979 5.58436394 2.36042976 42 15 5066 9.12000000 888318947 888318947 15.00000000
1.78025389 1.45452845 -0.61598933 4 0 5075 2.38000000 888318968 888318968 -15.00000000
7.46197462 6.09451771 0.16817139 13 1 5076 9.63600000 888318970 888318970 1.00000000
2.10125232 1.71557236 -0.62626374 3 2 5077 2.78400000 888318972 888318972 -13.00000000
7.48488808 6.11105442 0.50640273 100 3 5077 9.67600000 888318974 888318974 3.00000000
2.51722169 2.05445957 -0.63157779 5 4 5078 3.31000000 888318977 888318977 -11.00000000
7.47802877 6.10110474 0.84436482 81 5 5079 9.68800000 888318979 888318979 5.00000000
3.16570950 2.58188963 -0.64701295 4 6 5080 4.13600000 888318981 888318981 -9.00000000
21.91979790 17.87098122 3.47254515 14 7 5081 28.49400000 888318984 888318984 7.00000000
4.29471874 3.50019145 -0.68027467 4 8 5082 5.58200000 888318986 888318986 -7.00000000
16.33683205 13.31450176 3.33799863 14 9 5082 21.33800000 888318988 888318988 9.00000000
6.07202053 4.94692707 -0.68521845 12 10 5083 7.86200000 888318991 888318991 -5.00000000
14.84526539 12.09025478 3.72153854 26 11 5084 19.50400000 888318993 888318993 11.00000000
7.47018003 6.08168268 -0.50483263 17 12 5085 9.64600000 888318995 888318995 -3.00000000
7.53006554 6.12825251 2.24141240 78 13 5086 9.96400000 888318998 888318998 13.00000000
7.46484566 6.07517385 -0.16799687 16 14 5086 9.62600000 888319000 888319000 -1.00000000
6.82747746 5.55447912 2.35835910 42 15 5087 9.11200000 888319002 888319002 15.00000000
1.78382003 1.44708836 -0.61547166 4 0 5095 2.37800000 888319023 888319023 -15.00000000
7.45729685 6.04958248 0.16761291 13 1 5095 9.60400000 888319025 888319025 1.00000000
2.09784818 1.70123029 -0.62356430 3 2 5096 2.77200000 888319027 888319027 -13.00000000
7.48755598 6.06979704 0.50514662 100 3 5097 9.65200000 888319030 888319030 3.00000000
2.52437782 2.04566026 -0.63157779 5 4 5098 3.31000000 888319032 888319032 -11.00000000
7.48534632 6.06367731 0.84279603 89 5 5099 9.67000000 888319034 888319034 5.00000000
3.17732382 2.57386446 -0.64763868 4 6 5099 4.14000000 888319037 888319037 -9.00000000
7.57006073 6.13011408 1.19602573 2 7 5100 9.81400000 888319039 888319039 7.00000000
4.30321646 3.48343253 -0.67978722 4 8 5101 5.57800000 888319041 888319041 -7.00000000
7.57199335 6.12730455 1.54275668 2 9 5102 9.86200000 888319044 888319044 9.00000000
6.08305502 4.92068958 -0.68452120 12 10 5103 7.85400000 888319046 888319046 -5.00000000
7.46856403 6.03929567 -0.50336725 17 12 5104 9.61800000 888319050 888319050 -3.00000000
7.54125309 6.09589767 2.23871279 75 13 5105 9.95200000 888319053 888319053 13.00000000
7.47511864 6.04028177 -0.16775253 16 14 5106 9.61200000 888319055 888319055 -1.00000000
6.84832764 5.53182650 2.35887671 38 15 5107 9.11400000 888319057 888319057 15.00000000
1.79286969 1.44511414 -0.61702460 4 0 5113 2.38400000 888319078 888319078 -15.00000000
7.46797419 6.01729202 0.16740349 13 1 5114 9.59200000 888319080 888319080 1.00000000
2.10651350 1.69670904 -0.62446415 3 2 5115 2.77600000 888319083 888319083 -13.00000000
7.47547865 6.02118731 0.50305319 99 3 5115 9.61200000 888319085 888319085 3.00000000
2.53996706 2.04510713 -0.63386750 5 4 5116 3.32200000 888319087 888319087 -11.00000000
7.48107767 6.02139282 0.84018135 77 5 5117 9.64000000 888319090 888319090 5.00000000
3.19815397 2.57322025 -0.65014166 4 6 5118 4.15600000 888319092 888319092 -9.00000000
22.01463699 17.70654869 3.46888900 10 7 5119 28.46400000 888319094 888319094 7.00000000
4.29617929 3.45421696 -0.67686236 4 8 5120 5.55400000 888319097 888319097 -7.00000000
16.48019791 13.25041962 3.34926200 4 9 5120 21.41000000 888319099 888319099 9.00000000
6.07208347 4.88033581 -0.68155789 17 10 5121 7.82000000 888319101 888319101 -5.00000000
7.57122517 6.08307123 1.88786423 3 11 5122 9.89400000 888319103 888319103 11.00000000
7.45117760 5.98447990 -0.50085509 12 12 5123 9.57000000 888319106 888319106 -3.00000000
7.54319143 6.05621624 2.23331404 75 13 5124 9.92800000 888319108 888319108 13.00000000
7.46910906 5.99673748 -0.16719405 14 14 5124 9.58000000 888319110 888319110 -1.00000000
1.80091977 1.44126129 -0.61805987 4 0 5133 2.38800000 888319133 888319133 -15.00000000
7.47539663 5.98249865 0.16712424 13 1 5133 9.57600000 888319136 888319136 1.00000000
2.10908484 1.68727958 -0.62356430 3 2 5134 2.77200000 888319138 888319138 -13.00000000
7.47773314 5.98008776 0.50179714 91 3 5135 9.58800000 888319140 888319140 3.00000000
2.54095650 2.03132486 -0.63234103 5 4 5136 3.31400000 888319143 888319143 -11.00000000
7.48493004 5.98156023 0.83826393 77 5 5137 9.61800000 888319145 888319145 5.00000000
3.20358324 2.56013441 -0.64951593 4 6 5137 4.15200000 888319147 888319147 -9.00000000
22.07478333 17.63468742 3.46913266 10 7 5138 28.46600000 888319150 888319150 7.00000000
4.30761051 3.43995142 -0.67686236 6 8 5139 5.55400000 888319152 888319152 -7.00000000
16.55876923 13.21869278 3.35583210 4 9 5140 21.45200000 888319154 888319154 9.00000000
7.58828640 6.05548143 1.88710093 3 11 5141 9.89000000 888319159 888319159 11.00000000
7.46473646 5.95475578 -0.50043643 17 12 5142 9.56200000 888319161 888319161 -3.00000000
7.53885555 6.01172876 2.22611570 72 13 5143 9.89600000 888319163 888319163 13.00000000
7.47435904 5.95816374 -0.16684501 14 14 5144 9.56000000 888319166 888319166 -1.00000000
6.89997339 5.49832487 2.36405325 42 15 5145 9.13400000 888319168 888319168 15.00000000
1.80316472 1.43224776 -0.61702460 4 0 5154 2.38400000 888319189 888319189 -15.00000000
7.48421812 5.94255972 0.16681010 13 1 5155 9.55800000 888319191 888319191 1.00000000
2.11860085 1.68159187 -0.62446415 3 2 5156 2.77600000 888319193 888319193 -13.00000000
7.48395729 5.94022322 0.50075042 91 3 5156 9.56800000 888319196 888319196 3.00000000
2.53608108 2.01223588 -0.62928808 5 4 5157 3.29800000 888319198 888319198 -11.00000000
7.50368118 5.95161009 0.83791530 85 5 5158 9.61400000 888319200 888319200 5.00000000
3.21648550 2.55026913 -0.65014166 4 6 5159 4.15600000 888319203 888319203 -9.00000000
7.59183502 6.01721430 1.18944478 11 7 5160 9.76000000 888319205 888319205 7.00000000
4.32856655 3.42954993 -0.67808104 6 8 5161 5.56400000 888319207 888319207 -7.00000000
7.58049583 6.00607300 1.53180623 2 9 5161 9.79200000 888319209 888319209 9.00000000
7.61148214 6.02629995 1.88710093 3 11 5163 9.89000000 888319214 888319214 11.00000000
7.48128176 5.92109156 -0.50001770 17 12 5164 9.55400000 888319216 888319216 -3.00000000
7.55271339 5.97548294 2.22341633 66 13 5165 9.88400000 888319219 888319219 13.00000000
7.47105503 5.91087723 -0.16628653 14 14 5165 9.52800000 888319221 888319221 -1.00000000
6.91098785 5.46580791 2.36094737 42 15 5166 9.12200000 888319223 888319223 15.00000000
1.79905176 1.41876721 -0.61391878 4 0 5174 2.37200000 888319244 888319244 -15.00000000
7.47719049 5.89665794 0.16621672 13 1 5174 9.52400000 888319246 888319246 1.00000000
2.13334775 1.68179584 -0.62716353 3 2 5175 2.78800000 888319249 888319249 -13.00000000
7.49994087 5.91035461 0.50043643 84 3 5176 9.56200000 888319251 888319251 3.00000000
2.54925847 2.00823069 -0.63081455 5 4 5177 3.30600000 888319253 888319253 -11.00000000
7.49780035 5.90442610 0.83495200 81 5 5178 9.58000000 888319256 888319256 5.00000000
3.21561313 2.53225613 -0.64826441 4 6 5178 4.14400000 888319258 888319258 -9.00000000
22.20664787 17.48118591 3.47010779 42 7 5179 28.47400000 888319260 888319260 7.00000000
4.35239553 3.42499781 -0.68003094 6 8 5180 5.58000000 888319262 888319262 -7.00000000
16.72125053 13.15360069 3.36959839 19 9 5181 21.54000000 888319265 888319265 9.00000000
7.60981846 5.98403645 1.88175833 3 11 5182 9.86200000 888319269 888319269 11.00000000
7.48203325 5.88143826 -0.49876165 17 12 5183 9.53000000 888319272 888319272 -3.00000000
7.56022930 5.94077206 2.21981692 68 13 5184 9.86800000 888319274 888319274 13.00000000
7.48377943 5.87858582 -0.16611201 16 14 5185 9.51800000 888319276 888319276 -1.00000000
6.92242813 5.43568516 2.35835910 40 15 5186 9.11200000 888319279 888319279 15.00000000
1.80526757 1.41398478 -0.61443639 4 0 5193 2.37400000 888319299 888319299 -15.00000000
7.48198318 5.85819387 0.16586767 16 1 5194 9.50400000 888319302 888319302 1.00000000
2.12999797 1.66713214 -0.62446415 3 2 5195 2.77600000 888319304 888319304 -13.00000000
7.51006269 5.87806559 0.49980837 65 3 5195 9.55000000 888319306 888319306 3.00000000
2.55899644 2.00218558 -0.63157779 5 4 5196 3.31000000 888319309 888319309 -11.00000000
7.50949192 5.87339258 0.83408046 81 5 5197 9.57000000 888319311 888319311 5.00000000
3.21509576 2.51371574 -0.64638722 4 6 5198 4.13200000 888319313 888319313 -9.00000000
22.22217560 17.36811256 3.46303916 56 7 5199 28.41600000 888319315 888319315 7.00000000
4.36432457 3.40978408 -0.68003094 6 8 5200 5.58000000 888319318 888319318 -7.00000000
16.77100372 13.10294342 3.37084985 48 9 5200 21.54800000 888319320 888319320 9.00000000
7.61828041 5.94777155 1.87870538 3 11 5202 9.84600000 888319325 888319325 11.00000000
7.48519802 5.84176874 -0.49761027 17 12 5203 9.50800000 888319327 888319327 -3.00000000
7.57170153 5.90715361 2.21711755 72 13 5204 9.85600000 888319329 888319329 13.00000000
7.48746634 5.84143639 -0.16576296 16 14 5204 9.49800000 888319332 888319332 -1.00000000
6.94346237 5.41507578 2.35939431 40 15 5205 9.11600000 888319334 888319334 15.00000000
1.81629229 1.41241825 -0.61650699 4 0 5213 2.38200000 888319355 888319355 -15.00000000
7.48400402 5.81984711 0.16548371 13 1 5213 9.48200000 888319357 888319357 1.00000000
2.13243747 1.65766764 -0.62356430 3 2 5214 2.77200000 888319359 888319359 -13.00000000
7.50372458 5.83098078 0.49802896 63 3 5215 9.51600000 888319362 888319362 3.00000000
2.56907058 1.99564958 -0.63234103 5 4 5216 3.31400000 888319364 888319364 -11.00000000
7.50949049 5.83125830 0.83181441 81 5 5217 9.54400000 888319366 888319366 5.00000000
3.23277521 2.51030970 -0.64826441 4 6 5217 4.14400000 888319368 888319368 -9.00000000
22.25455856 17.27485085 3.45913935 42 7 5218 28.38400000 888319371 888319371 7.00000000
4.36933470 3.39042497 -0.67905599 6 8 5219 5.57200000 888319373 888319373 -7.00000000
16.82600403 13.05158615 3.37272716 48 9 5220 21.56000000 888319375 888319375 9.00000000
6.10122442 4.73088980 -0.67545700 25 10 5221 7.75000000 888319378 888319378 -5.00000000
7.62244701 5.91044569 1.87488914 3 11 5221 9.82600000 888319380 888319380 11.00000000
7.48716450 5.80345535 -0.49645889 17 12 5222 9.48600000 888319382 888319382 -3.00000000
7.56660175 5.86291504 2.20991921 75 13 5223 9.82400000 888319385 888319385 13.00000000
7.49990654 5.80914211 -0.16558844 16 14 5224 9.48800000 888319387 888319387 -1.00000000
6.96537685 5.39317131 2.36042976 40 15 5225 9.12000000 888319389 888319389 15.00000000
1.82145691 1.40575171 -0.61650699 4 0 5234 2.38200000 888319410 888319410 -15.00000000
7.49996233 5.78618193 0.16534410 19 1 5235 9.47400000 888319412 888319412 1.00000000
2.14650249 1.65541792 -0.62581384 4 2 5236 2.78200000 888319415 888319415 -13.00000000
7.51081181 5.79246187 0.49708691 49 3 5236 9.49800000 888319417 888319417 3.00000000
2.57170320 1.98262405 -0.63119614 5 4 5237 3.30800000 888319419 888319419 -11.00000000
7.52450037 5.79883051 0.83111715 81 5 5238 9.53600000 888319421 888319421 5.00000000
3.24239016 2.49787807 -0.64826441 4 6 5239 4.14400000 888319424 888319424 -9.00000000
22.32386971 17.19169426 3.45962691 38 7 5240 28.38800000 888319426 888319426 7.00000000
4.38232088 3.37362289 -0.67905599 6 8 5241 5.57200000 888319428 888319428 -7.00000000
16.87685776 12.99223804 3.37335277 48 9 5241 21.56400000 888319431 888319431 9.00000000
6.10747051 4.69998980 -0.67423683 42 10 5242 7.73600000 888319433 888319433 -5.00000000
15.18746853 11.68326187 3.72459149 11 11 5243 19.52000000 888319435 888319435 11.00000000
7.49672699 5.76492357 -0.49562150 17 12 5244 9.47000000 888319438 888319438 -3.00000000
7.56742764 5.81719065 2.20362043 78 13 5245 9.79600000 888319440 888319440 13.00000000
7.49895191 5.76455212 -0.16509977 14 14 5245 9.46000000 888319442 888319442 -1.00000000
6.98816061 5.36995983 2.36146498 42 15 5246 9.12400000 888319444 888319444 15.00000000
1.82021892 1.39468527 -0.61443639 4 0 5254 2.37400000 888319465 888319465 -15.00000000
7.50641012 5.75154972 0.16506486 16 1 5254 9.45800000 888319468 888319468 1.00000000
2.14424467 1.64236593 -0.62356430 3 2 5255 2.77200000 888319470 888319470 -13.00000000
7.50561285 5.74678183 0.49541217 39 3 5256 9.46600000 888319472 888319472 3.00000000
2.57081318 1.96766877 -0.62928808 5 4 5257 3.29800000 888319474 888319474 -11.00000000
7.52254295 5.75558043 0.82867682 81 5 5258 9.50800000 888319477 888319477 5.00000000
3.26006866 2.49431443 -0.65014166 4 6 5258 4.15600000 888319479 888319479 -9.00000000
22.39810181 17.13083649 3.46230793 31 7 5259 28.41000000 888319481 888319481 7.00000000
4.40767670 3.36992335 -0.68124962 4 8 5260 5.59000000 888319484 888319484 -7.00000000
16.92210579 12.93324757 3.37335277 48 9 5261 21.56400000 888319486 888319486 9.00000000
15.21988773 11.62806702 3.72306514 22 11 5262 19.51200000 888319491 888319491 11.00000000
7.50786638 5.73397064 -0.49509814 17 12 5263 9.46000000 888319493 888319493 -3.00000000
7.57118750 5.78023911 2.19912148 80 13 5264 9.77600000 888319495 888319495 13.00000000
7.50313187 5.72620916 -0.16475071 14 14 5265 9.44000000 888319497 888319497 -1.00000000
7.00379086 5.34319019 2.36042976 42 15 5266 9.12000000 888319500 888319500 15.00000000
1.82790852 1.39098120 -0.61547166 4 0 5273 2.37800000 888319521 888319521 -15.00000000
7.50256777 5.70715189 0.16454129 13 1 5274 9.42800000 888319523 888319523 1.00000000
2.15306711 1.63723028 -0.62446415 3 2 5275 2.77600000 888319525 888319525 -13.00000000
7.52144909 5.71944284 0.49520281 26 3 5275 9.46200000 888319527 888319527 3.00000000
2.58044982 1.96150899 -0.63005131 5 4 5276 3.30200000 888319530 888319530 -11.00000000
7.52731037 5.71975422 0.82710803 85 5 5277 9.49000000 888319532 888319532 5.00000000
3.27819371 2.49008846 -0.65201885 4 6 5278 4.16800000 888319534 888319534 -9.00000000
22.46724892 17.05975151 3.46377039 14 7 5279 28.42200000 888319537 888319537 7.00000000
4.41308832 3.34971642 -0.68027467 4 8 5280 5.58200000 888319539 888319539 -7.00000000
16.96804810 12.87944984 3.37397861 48 9 5280 21.56800000 888319541 888319541 9.00000000
15.24005032 11.55944538 3.71810412 37 11 5282 19.48600000 888319546 888319546 11.00000000
7.52306128 5.70410824 -0.49478412 17 12 5283 9.45400000 888319548 888319548 -3.00000000
7.57578754 5.74200392 2.19462252 78 13 5284 9.75600000 888319550 888319550 13.00000000
7.50773621 5.69042540 -0.16443658 16 14 5284 9.42200000 888319553 888319553 -1.00000000
7.01223230 5.31293535 2.35732388 42 15 5285 9.10800000 888319555 888319555 15.00000000
1.83275282 1.38459218 -0.61547166 4 0 5293 2.37800000 888319576 888319576 -15.00000000
7.49911451 5.66536570 0.16405262 13 1 5293 9.40000000 888319578 888319578 1.00000000
2.16159463 1.63243020 -0.62536395 3 2 5294 2.78000000 888319580 888319580 -13.00000000
7.52542734 5.68111944 0.49415609 23 3 5295 9.44200000 888319583 888319583 3.00000000
2.59511662 1.95840263 -0.63195938 4 4 5296 3.31200000 888319585 888319585 -11.00000000
7.53291512 5.68264532 0.82553917 89 5 5297 9.47200000 888319587 888319587 5.00000000
3.27697134 2.47206616 -0.65014166 4 6 5297 4.15600000 888319590 888319590 -9.00000000
7.53642797 5.68323183 1.15897751 20 7 5298 9.51000000 888319592 888319592 7.00000000
4.43368340 3.34223342 -0.68173712 4 8 5299 5.59400000 888319594 888319594 -7.00000000
17.01921272 12.82489681 3.37523007 48 9 5300 21.57600000 888319597 888319597 9.00000000
6.11575842 4.60688114 -0.66987902 146 10 5301 7.68600000 888319599 888319599 -5.00000000
15.26732159 11.50057507 3.71543264 41 11 5301 19.47200000 888319601 888319601 11.00000000
7.50683451 5.65269852 -0.49248135 17 12 5302 9.41000000 888319603 888319603 -3.00000000
7.57921743 5.70513058 2.19012356 78 13 5303 9.73600000 888319606 888319606 13.00000000
7.51477098 5.65456486 -0.16415733 18 14 5304 9.40600000 888319608 888319608 -1.00000000
7.03691053 5.29307079 2.35939431 42 15 5305 9.11600000 888319610 888319610 15.00000000
1.83448386 1.37586808 -0.61443639 4 0 5313 2.37400000 888319631 888319631 -15.00000000
7.51022911 5.63064480 0.16384318 13 1 5314 9.38800000 888319633 888319633 1.00000000
2.16132569 1.61982179 -0.62356430 3 2 5315 2.77200000 888319636 888319636 -13.00000000
7.52443552 5.63924456 0.49279538 21 3 5315 9.41600000 888319638 888319638 3.00000000
2.59879446 1.94697785 -0.63119614 4 4 5316 3.30800000 888319640 888319640 -11.00000000
7.53197384 5.64078951 0.82327312 81 5 5317 9.44600000 888319643 888319643 5.00000000
3.27968454 2.45530343 -0.64889014 4 6 5318 4.14800000 888319645 888319645 -9.00000000
7.54449320 5.64605570 1.15702760 40 7 5319 9.49400000 888319647 888319647 7.00000000
4.43636608 3.31882596 -0.68027467 4 8 5320 5.58200000 888319649 888319649 -7.00000000
17.07653046 12.77487755 3.37773299 48 9 5320 21.59200000 888319652 888319652 9.00000000
15.30779839 11.44336510 3.71505117 41 11 5322 19.47000000 888319656 888319656 11.00000000
7.50670385 5.60960388 -0.49112061 25 12 5323 9.38400000 888319659 888319659 -3.00000000
7.58290339 5.66448450 2.18517447 71 13 5324 9.71400000 888319661 888319661 13.00000000
7.52102518 5.61621571 -0.16384318 18 14 5325 9.38800000 888319663 888319663 -1.00000000
7.05534410 5.26847553 2.35939431 45 15 5325 9.11600000 888319666 888319666 15.00000000
1.84857249 1.37637842 -0.61754227 4 0 5333 2.38600000 888319686 888319686 -15.00000000
7.51860857 5.59603739 0.16359887 13 1 5334 9.37400000 888319689 888319689 1.00000000
2.16071296 1.60761452 -0.62176472 3 2 5335 2.76400000 888319691 888319691 -13.00000000
7.53063011 5.60090113 0.49185333 18 3 5336 9.39800000 888319693 888319693 3.00000000
2.59927368 1.93320787 -0.62966967 4 4 5336 3.30000000 888319696 888319696 -11.00000000
7.53083229 5.59900999 0.82100707 81 5 5337 9.42000000 888319698 888319698 5.00000000
3.28506422 2.44148374 -0.64826441 4 6 5338 4.14400000 888319700 888319700 -9.00000000
7.54981422 5.60903168 1.15483391 67 7 5339 9.47600000 888319702 888319702 7.00000000
4.45111132 3.30568695 -0.68076217 4 8 5340 5.58600000 888319705 888319705 -7.00000000
17.12958336 12.71691227 3.37898445 48 9 5341 21.60000000 888319707 888319707 9.00000000
15.35710907 11.39688110 3.71734095 41 11 5342 19.48200000 888319712 888319712 11.00000000
7.51982307 5.57860661 -0.49070191 21 12 5343 9.37600000 888319714 888319714 -3.00000000
7.58384657 5.62405109 2.17977571 74 13 5344 9.69000000 888319716 888319716 13.00000000
7.52291298 5.57682896 -0.16345924 16 14 5345 9.36600000 888319719 888319719 -1.00000000
7.07771111 5.24488115 2.36042976 40 15 5346 9.12000000 888319721 888319721 15.00000000
1.85025859 1.36762071 -0.61650699 4 0 5353 2.38200000 888319742 888319742 -15.00000000
7.52683878 5.56143999 0.16335453 13 1 5354 9.36000000 888319744 888319744 1.00000000
2.16944647 1.60237801 -0.62266451 3 2 5355 2.76800000 888319746 888319746 -13.00000000
7.53952265 5.56877804 0.49122527 10 3 5355 9.38600000 888319749 888319749 3.00000000
2.60284710 1.92179072 -0.62890643 4 4 5356 3.29600000 888319751 888319751 -11.00000000
7.53590298 5.56203985 0.81943828 81 5 5357 9.40200000 888319753 888319753 5.00000000
3.30151439 2.43586564 -0.64982879 6 6 5358 4.15400000 888319755 888319755 -9.00000000
7.55337191 5.57086086 1.15239656 81 7 5359 9.45600000 888319758 888319758 7.00000000
4.46901417 3.29484153 -0.68173712 4 8 5360 5.59400000 888319760 888319760 -7.00000000
17.22634506 12.69571590 3.38930917 55 9 5361 21.66600000 888319762 888319762 9.00000000
6.13158798 4.51894522 -0.66639280 12 10 5361 7.64600000 888319765 888319765 -5.00000000
15.40312099 11.34786320 3.71886730 41 11 5362 19.49000000 888319767 888319767 11.00000000
7.52960062 5.54521751 -0.49007389 25 12 5363 9.36400000 888319769 888319769 -3.00000000
7.58930779 5.58714628 2.17572665 68 13 5364 9.67200000 888319772 888319772 13.00000000
7.51495409 5.53038549 -0.16286586 14 14 5365 9.33200000 888319774 888319774 -1.00000000
7.09195280 5.21909189 2.35939431 40 15 5365 9.11600000 888319776 888319776 15.00000000
1.84879112 1.35658228 -0.61443639 4 0 5373 2.37400000 888319797 888319797 -15.00000000
7.53008175 5.52330542 0.16300547 19 1 5374 9.34000000 888319799 888319799 1.00000000
2.18917060 1.60516620 -0.62671363 4 2 5375 2.78600000 888319801 888319801 -13.00000000
7.53958750 5.52825403 0.48996922 10 3 5375 9.36200000 888319804 888319804 3.00000000
2.61112309 1.91385400 -0.62928808 5 4 5376 3.29800000 888319806 888319806 -11.00000000
7.53437948 5.52039242 0.81717223 81 5 5377 9.37600000 888319808 888319808 5.00000000
3.30840325 2.42315912 -0.64951593 6 6 5378 4.15200000 888319811 888319811 -9.00000000
7.55675459 5.53273392 1.14995909 85 7 5379 9.43600000 888319813 888319813 7.00000000
4.47087717 3.27218723 -0.68027467 4 8 5380 5.58200000 888319815 888319815 -7.00000000
17.37577629 12.71248913 3.40995836 55 9 5381 21.79800000 888319818 888319818 9.00000000
6.11677313 4.47516203 -0.66308087 17 10 5381 7.60800000 888319820 888319820 -5.00000000
15.42837620 11.28359604 3.71543264 41 11 5382 19.47200000 888319822 888319822 11.00000000
7.52956343 5.50475550 -0.48881784 17 12 5383 9.34000000 888319825 888319825 -3.00000000
7.60247087 5.55602121 2.17392707 70 13 5384 9.66400000 888319827 888319827 13.00000000
7.52290964 5.49586248 -0.16262153 16 14 5385 9.31800000 888319829 888319829 -1.00000000
7.10076809 5.18746662 2.35628867 42 15 5385 9.10400000 888319831 888319831 15.00000000
1.85304379 1.35076737 -0.61443639 4 0 5391 2.37400000 888319852 888319852 -15.00000000
7.52315426 5.48195696 0.16248190 15 1 5392 9.31000000 888319854 888319854 1.00000000
2.19262719 1.59713340 -0.62626374 4 2 5393 2.78400000 888319857 888319857 -13.00000000
7.54496145 5.49381638 0.48913184 13 3 5394 9.34600000 888319859 888319859 3.00000000
2.62664533 1.91257524 -0.63157779 5 4 5394 3.31000000 888319861 888319861 -11.00000000
7.54040909 5.48848772 0.81595206 77 5 5395 9.36200000 888319864 888319864 5.00000000
3.30961037 2.40810466 -0.64826441 6 6 5396 4.14400000 888319866 888319866 -9.00000000
7.56125641 5.49962521 1.14800918 85 7 5397 9.42000000 888319868 888319868 7.00000000
4.50200701 3.27330136 -0.68344325 6 8 5398 5.60800000 888319871 888319871 -7.00000000
17.51567268 12.73522472 3.42998219 40 9 5398 21.92600000 888319873 888319873 9.00000000
15.45421886 11.22814751 3.71314311 41 11 5400 19.46000000 888319878 888319878 11.00000000
7.53550768 5.47285748 -0.48808512 17 12 5401 9.32600000 888319880 888319880 -3.00000000
7.61042643 5.52524042 2.17122769 70 13 5402 9.65200000 888319882 888319882 13.00000000
7.53528309 5.46867800 -0.16251680 14 14 5403 9.31200000 888319884 888319884 -1.00000000
7.11793137 5.16389132 2.35628867 42 15 5404 9.10400000 888319887 888319887 15.00000000
1.85774755 1.34429085 -0.61443639 4 0 5411 2.37400000 888319907 888319907 -15.00000000
7.52928209 5.44628668 0.16220267 12 1 5412 9.29400000 888319910 888319910 1.00000000
2.19976807 1.59061193 -0.62671363 4 2 5413 2.78600000 888319912 888319912 -13.00000000
7.55666447 5.46408510 0.48871315 13 3 5413 9.33800000 888319914 888319914 3.00000000
2.63171434 1.90224481 -0.63119614 5 4 5414 3.30800000 888319917 888319917 -11.00000000
7.55306149 5.45746613 0.81525481 77 5 5415 9.35400000 888319919 888319919 5.00000000
