# .PCD v0.7 - Point Cloud Data file format
VERSION 0.7
FIELDS x y z intensity laser_id azimuth distance_m adjustedtime timestamp vertical_angle
SIZE 4 4 4 1 1 2 8 8 4 8
TYPE F F F U U U F U U F
COUNT 1 1 1 1 1 1 1 1 1 1
WIDTH 528
HEIGHT 1
VIEWPOINT 0 0 0 1 0 0 0
POINTS 528
DATA ascii
-3.70655799 -8.45981693 2.47482777 60 15 20366 9.56200000 888661507 888661507 15.00000000
-0.77851599 -1.77015018 -0.51815575 5 0 20374 2.00200000 888661527 888661527 -15.00000000
-7.27008152 -16.52251625 0.31508574 3 1 20375 18.05400000 888661530 888661530 1.00000000
-0.89822298 -2.04040098 -0.51468801 4 2 20376 2.28800000 888661532 888661532 -13.00000000
-9.80604076 -22.26483727 1.27500856 3 3 20377 24.36200000 888661534 888661534 3.00000000
-1.04296160 -2.36806798 -0.50297248 3 4 20377 2.63600000 888661537 888661537 -11.00000000
-9.81171608 -22.26718712 2.12886620 30 5 20378 24.42600000 888661539 888661539 5.00000000
-1.25741112 -2.85228086 -0.49370718 3 6 20379 3.15600000 888661541 888661541 -9.00000000
-7.91141319 -17.93757439 2.40716338 18 7 20380 19.75200000 888661544 888661544 7.00000000
-1.57553601 -3.57053041 -0.47919026 3 8 20381 3.93200000 888661546 888661546 -7.00000000
-7.53667307 -17.07178307 2.95567274 85 9 20382 18.89400000 888661548 888661548 9.00000000
-2.13153291 -4.82826662 -0.46175113 3 10 20382 5.29800000 888661550 888661550 -5.00000000
-5.94029331 -13.44937134 2.85793710 61 11 20383 14.97800000 888661553 888661553 11.00000000
-3.11118031 -7.04067373 -0.40340555 4 12 20384 7.70800000 888661555 888661555 -3.00000000
-4.95942402 -11.21799564 2.83168387 62 13 20385 12.58800000 888661557 888661557 13.00000000
-5.95014477 -13.45261288 -0.25675979 9 14 20386 14.71200000 888661560 888661560 -1.00000000
-3.73363113 -8.43734169 2.47223949 72 15 20387 9.55200000 888661562 888661562 15.00000000
-0.78829968 -1.77638769 -0.52074391 5 0 20393 2.01200000 888661583 888661583 -15.00000000
-7.27939177 -16.39596748 0.31313106 3 1 20394 17.94200000 888661585 888661585 1.00000000
-0.90181994 -2.03028727 -0.51288843 4 2 20395 2.28000000 888661587 888661587 -13.00000000
-1.05878139 -2.38253713 -0.50678867 3 4 20396 2.65600000 888661592 888661592 -11.00000000
-9.90411949 -22.27640152 2.13287544 30 5 20397 24.47200000 888661594 888661594 5.00000000
-1.26525712 -2.84448576 -0.49308142 3 6 20398 3.15200000 888661597 888661597 -9.00000000
-7.92081308 -17.79879761 2.39205146 18 7 20399 19.62800000 888661599 888661599 7.00000000
-1.59221208 -3.57616687 -0.48065269 3 8 20400 3.94400000 888661601 888661601 -7.00000000
-7.60392714 -17.07870102 2.96099162 46 9 20400 18.92800000 888661603 888661603 9.00000000
-2.12807560 -4.77749157 -0.45756766 3 10 20401 5.25000000 888661606 888661606 -5.00000000
-5.98326206 -13.42601204 2.85717392 65 11 20402 14.97400000 888661608 888661608 11.00000000
-3.13451099 -7.03031778 -0.40340555 4 12 20403 7.70800000 888661610 888661610 -3.00000000
-4.99818468 -11.20504761 2.83258367 60 13 20404 12.59200000 888661613 888661613 13.00000000
-5.98901796 -13.42002487 -0.25651547 9 14 20405 14.69800000 888661615 888661615 -1.00000000
-3.76169395 -8.42909908 2.47327471 69 15 20405 9.55600000 888661617 888661617 15.00000000
-0.79607517 -1.77715135 -0.52177918 6 0 20413 2.01600000 888661638 888661638 -15.00000000
-0.90650964 -2.02179241 -0.51153868 4 2 20415 2.27400000 888661643 888661643 -13.00000000
-1.06548452 -2.37524414 -0.50602543 3 4 20416 2.65200000 888661647 888661647 -11.00000000
-10.01363373 -22.31258392 2.13967347 30 5 20417 24.55000000 888661650 888661650 5.00000000
-1.27841496 -2.84726000 -0.49433291 3 6 20418 3.16000000 888661652 888661652 -9.00000000
-7.94141006 -17.67868996 2.37962079 20 7 20419 19.52600000 888661654 888661654 7.00000000
-1.59654820 -3.55248094 -0.47821531 3 8 20420 3.92400000 888661656 888661656 -7.00000000
-7.67376328 -17.06693077 2.96380734 89 9 20421 18.94600000 888661659 888661659 9.00000000
-2.13166642 -4.74095964 -0.45477867 3 10 20421 5.21800000 888661661 888661661 -5.00000000
-6.03170204 -13.40862560 2.85793710 61 11 20422 14.97800000 888661663 888661663 11.00000000
-3.15985203 -7.02115488 -0.40351021 4 12 20423 7.71000000 888661666 888661666 -3.00000000
-5.03406668 -11.18042469 2.83078408 62 13 20424 12.58400000 888661668 888661668 13.00000000
-6.01940012 -13.36257267 -0.25581738 14 14 20425 14.65800000 888661670 888661670 -1.00000000
-3.79573774 -8.42230034 2.47534537 69 15 20426 9.56400000 888661673 888661673 15.00000000
-0.80306965 -1.77612197 -0.52229685 5 0 20433 2.01800000 888661693 888661693 -15.00000000
-7.31950283 -16.18077278 0.30998963 3 1 20434 17.76200000 888661696 888661696 1.00000000
-0.91436499 -2.02039123 -0.51198858 4 2 20435 2.27600000 888661698 888661698 -13.00000000
-7.36483049 -16.26585388 0.93576688 2 3 20436 17.88000000 888661700 888661700 3.00000000
-1.07053006 -2.36435652 -0.50449896 3 4 20436 2.64400000 888661703 888661703 -11.00000000
-10.10954475 -22.31742096 2.14350843 30 5 20437 24.59400000 888661705 888661705 5.00000000
-1.28834605 -2.84278035 -0.49433291 3 6 20438 3.16000000 888661707 888661707 -9.00000000
-7.96208525 -17.56046486 2.36743379 13 7 20439 19.42600000 888661709 888661709 7.00000000
-1.60401869 -3.53603935 -0.47675288 1 8 20440 3.91200000 888661712 888661712 -7.00000000
-7.72705317 -17.03419304 2.96255589 89 9 20440 18.93800000 888661714 888661714 9.00000000
-2.17290401 -4.78791857 -0.46000800 3 10 20441 5.27800000 888661716 888661716 -5.00000000
-6.08252859 -13.39642811 2.85984516 61 11 20442 14.98800000 888661719 888661719 11.00000000
-3.18186307 -7.00462675 -0.40319622 4 12 20443 7.70400000 888661721 888661721 -3.00000000
-5.07145071 -11.15923595 2.82988429 59 13 20444 12.58000000 888661723 888661723 13.00000000
-6.07097340 -13.35240173 -0.25602680 14 14 20445 14.67000000 888661726 888661726 -1.00000000
-3.82764435 -8.41845989 2.47793365 65 15 20445 9.57400000 888661728 888661728 15.00000000
-0.80605638 -1.76627791 -0.52022630 5 0 20453 2.01000000 888661749 888661749 -15.00000000
-7.32610798 -16.04598045 0.30789536 3 1 20454 17.64200000 888661751 888661751 1.00000000
-0.92384094 -2.02250481 -0.51333833 4 2 20455 2.28200000 888661753 888661753 -13.00000000
-7.39001846 -16.17101860 0.93178934 2 3 20456 17.80400000 888661756 888661756 3.00000000
-1.07714462 -2.35703421 -0.50373572 3 4 20456 2.64000000 888661758 888661758 -11.00000000
-10.20726871 -22.32548523 2.14769173 30 5 20457 24.64200000 888661760 888661760 5.00000000
-1.30072641 -2.84365487 -0.49527150 1 6 20458 3.16600000 888661762 888661762 -9.00000000
-7.98203182 -17.44231224 2.35524702 9 7 20459 19.32600000 888661765 888661765 7.00000000
-1.62792087 -3.55568767 -0.48016521 3 8 20460 3.94000000 888661767 888661767 -7.00000000
-7.78482151 -17.00352478 2.96193027 89 9 20460 18.93400000 888661769 888661769 9.00000000
-2.16969061 -4.73683071 -0.45582452 3 10 20461 5.23000000 888661772 888661772 -5.00000000
-6.13334322 -13.38403797 2.86175323 58 11 20462 14.99800000 888661774 888661774 11.00000000
-3.20213246 -6.98439980 -0.40267286 4 12 20463 7.69400000 888661776 888661776 -3.00000000
-5.11037254 -11.14146519 2.82988429 62 13 20464 12.58000000 888661779 888661779 13.00000000
-6.10169888 -13.29659653 -0.25536361 14 14 20465 14.63200000 888661781 888661781 -1.00000000
-3.85217261 -8.39451218 2.47482777 60 15 20465 9.56200000 888661783 888661783 15.00000000
-0.80929077 -1.75629354 -0.51815575 5 0 20474 2.00200000 888661804 888661804 -15.00000000
-7.34468508 -15.93185329 0.30621994 3 1 20475 17.54600000 888661806 888661806 1.00000000
-0.92961526 -2.01556611 -0.51243848 4 2 20476 2.27800000 888661809 888661809 -13.00000000
-7.40405083 -16.04589462 0.92613709 2 3 20477 17.69600000 888661811 888661811 3.00000000
-1.08577633 -2.35307026 -0.50373572 3 4 20477 2.64000000 888661813 888661813 -11.00000000
-10.31157398 -22.33676338 2.15239811 30 5 20478 24.69600000 888661815 888661815 5.00000000
-1.31693792 -2.85142183 -0.49746159 3 6 20479 3.18000000 888661818 888661818 -9.00000000
-8.01593208 -17.34806633 2.34647226 6 7 20480 19.25400000 888661820 888661820 7.00000000
-1.63594449 -3.53888583 -0.47870278 3 8 20481 3.92800000 888661822 888661822 -7.00000000
-7.85751581 -16.98964500 2.96474600 89 9 20482 18.95200000 888661825 888661825 9.00000000
-2.18034673 -4.71437979 -0.45443004 3 10 20482 5.21400000 888661827 888661827 -5.00000000
-6.18400574 -13.36503220 2.86251664 58 11 20483 15.00200000 888661829 888661829 11.00000000
-3.21764183 -6.95086670 -0.40141678 4 12 20484 7.67000000 888661832 888661832 -3.00000000
-5.15281153 -11.12619686 2.83078408 59 13 20485 12.58400000 888661834 888661834 13.00000000
-6.11928701 -13.20701122 -0.25407213 11 14 20486 14.55800000 888661836 888661836 -1.00000000
-3.88210201 -8.37858391 2.47431016 69 15 20486 9.56000000 888661838 888661838 15.00000000
-0.81378722 -1.74995446 -0.51712048 5 0 20494 1.99800000 888661859 888661859 -15.00000000
-7.36145067 -15.82271671 0.30461431 3 1 20495 17.45400000 888661862 888661862 1.00000000
-0.93746758 -2.01407552 -0.51288843 4 2 20496 2.28000000 888661864 888661864 -13.00000000
-7.43978119 -15.97649765 0.92362493 2 3 20497 17.64800000 888661866 888661866 3.00000000
-1.09398353 -2.34926581 -0.50373572 3 4 20497 2.64000000 888661868 888661868 -11.00000000
-10.40799141 -22.34036636 2.15623307 30 5 20498 24.74000000 888661871 888661871 5.00000000
-1.31519997 -2.82174134 -0.49308142 3 6 20499 3.15200000 888661873 888661873 -9.00000000
-8.17123890 -17.52327919 2.37401485 6 7 20500 19.48000000 888661875 888661875 7.00000000
-1.64241278 -3.52056122 -0.47699660 3 8 20501 3.91400000 888661878 888661878 -7.00000000
-7.92095041 -16.97106361 2.96631026 89 9 20502 18.96200000 888661880 888661880 9.00000000
-2.20016026 -4.71396208 -0.45512730 3 10 20502 5.22200000 888661882 888661882 -5.00000000
-6.23228216 -13.34692192 2.86327982 58 11 20503 15.00600000 888661885 888661885 11.00000000
-7.41956377 -15.88234806 -0.91870540 5 12 20504 17.55400000 888661887 888661887 -3.00000000
-5.19656849 -11.11873436 2.83348346 62 13 20505 12.59600000 888661889 888661889 13.00000000
-6.14078760 -13.13303757 -0.25305989 9 14 20506 14.50000000 888661891 888661891 -1.00000000
-3.91605926 -8.37129879 2.47638059 67 15 20507 9.56800000 888661894 888661894 15.00000000
-0.82696950 -1.76298726 -0.52177918 5 0 20513 2.01600000 888661915 888661915 -15.00000000
-0.93917215 -2.00037169 -0.51018900 4 2 20515 2.26800000 888661919 888661919 -13.00000000
-1.10176790 -2.34562516 -0.50373572 3 4 20516 2.64000000 888661924 888661924 -11.00000000
-10.50574398 -22.35622025 2.16111374 30 5 20517 24.79600000 888661926 888661926 5.00000000
-1.32118821 -2.81021380 -0.49182996 3 6 20518 3.14400000 888661928 888661928 -9.00000000
-8.25296021 -17.54638290 2.38083959 9 7 20519 19.53600000 888661931 888661931 7.00000000
-1.66422081 -3.53664923 -0.47992146 3 8 20520 3.93800000 888661933 888661933 -7.00000000
-7.98391581 -16.95900154 2.96881318 89 9 20521 18.97800000 888661935 888661935 9.00000000
-2.22426653 -4.72466612 -0.45687041 3 10 20521 5.24200000 888661938 888661938 -5.00000000
-6.27483463 -13.32262897 2.86251664 58 11 20522 15.00200000 888661940 888661940 11.00000000
-3.26487994 -6.92880392 -0.40141678 4 12 20523 7.67000000 888661942 888661942 -3.00000000
-5.23174906 -11.09791565 2.83258367 60 13 20524 12.59200000 888661944 888661944 13.00000000
-6.16383266 -13.06919479 -0.25222218 9 14 20525 14.45200000 888661947 888661947 -1.00000000
-3.94233894 -8.35895443 2.47638059 69 15 20525 9.56800000 888661949 888661949 15.00000000
-0.83477145 -1.76358211 -0.52281445 5 0 20533 2.02000000 888661970 888661970 -15.00000000
-0.94781774 -2.00060344 -0.51108879 4 2 20535 2.27200000 888661974 888661974 -13.00000000
-7.51756096 -15.86051464 0.91985679 5 3 20536 17.57600000 888661977 888661977 3.00000000
-1.10994899 -2.34176517 -0.50373572 3 4 20536 2.64000000 888661979 888661979 -11.00000000
-10.60505962 -22.36441803 2.16547155 30 5 20537 24.84600000 888661981 888661981 5.00000000
-1.33776319 -2.81986260 -0.49433291 3 6 20538 3.16000000 888661984 888661984 -9.00000000
-8.26734447 -17.41883278 2.36743379 9 7 20539 19.42600000 888661986 888661986 7.00000000
-1.66378379 -3.50392056 -0.47626540 3 8 20540 3.90800000 888661988 888661988 -7.00000000
-8.04391289 -16.93281364 2.96912622 80 9 20541 18.98000000 888661991 888661991 9.00000000
-2.23390579 -4.70247602 -0.45547593 3 10 20541 5.22600000 888661993 888661993 -5.00000000
-6.32298660 -13.30419159 2.86327982 58 11 20542 15.00600000 888661995 888661995 11.00000000
-3.28390026 -6.90654278 -0.40078875 4 12 20543 7.65800000 888661997 888661997 -3.00000000
-5.26710796 -11.07254696 2.83078408 60 13 20544 12.58400000 888662000 888662000 13.00000000
-6.16387129 -12.95190048 -0.25037223 7 14 20545 14.34600000 888662002 888662002 -1.00000000
-3.97813439 -8.35909748 2.48052168 67 15 20545 9.58400000 888662004 888662004 15.00000000
-0.83426166 -1.74671161 -0.51867336 5 0 20553 2.00400000 888662025 888662025 -15.00000000
-0.95647633 -2.00079894 -0.51198858 4 2 20555 2.27600000 888662030 888662030 -13.00000000
-7.54771852 -15.78864765 0.91713530 2 3 20555 17.52400000 888662032 888662032 3.00000000
-1.11303413 -2.32724953 -0.50144607 3 4 20556 2.62800000 888662034 888662034 -11.00000000
-14.81594276 -30.96485519 3.00321269 30 5 20557 34.45800000 888662037 888662037 5.00000000
-1.34759820 -2.81517577 -0.49433291 3 6 20558 3.16000000 888662039 888662039 -9.00000000
-8.29122829 -17.31288338 2.35695314 9 7 20559 19.34000000 888662041 888662041 7.00000000
-1.67772007 -3.50167179 -0.47675288 3 8 20560 3.91200000 888662043 888662043 -7.00000000
-8.10428715 -16.91495323 2.97069049 85 9 20560 18.99000000 888662046 888662046 9.00000000
-2.25202918 -4.69824314 -0.45582452 3 10 20561 5.23000000 888662048 888662048 -5.00000000
-6.37787724 -13.29974079 2.86709595 58 11 20562 15.02600000 888662050 888662050 11.00000000
-3.31576395 -6.91124439 -0.40173081 4 12 20563 7.67600000 888662053 888662053 -3.00000000
-5.30572605 -11.05409336 2.83078408 60 13 20564 12.58400000 888662055 888662055 13.00000000
-6.17788219 -12.86541080 -0.24911565 7 14 20565 14.27400000 888662057 888662057 -1.00000000
-4.00310755 -8.33645344 2.47793365 76 15 20565 9.57400000 888662060 888662060 15.00000000
-0.84203106 -1.74726951 -0.51970863 5 0 20573 2.00800000 888662080 888662080 -15.00000000
-7.48251200 -15.51977444 0.30073985 7 1 20574 17.23200000 888662083 888662083 1.00000000
-0.96853429 -2.00797939 -0.51468801 4 2 20575 2.28800000 888662085 888662085 -13.00000000
-7.58557177 -15.71950531 0.91472787 8 3 20576 17.47800000 888662087 888662087 3.00000000
-1.12285745 -2.32688642 -0.50220925 3 4 20576 2.63200000 888662090 888662090 -11.00000000
-14.94559574 -30.95780563 3.00757027 80 5 20577 34.50800000 888662092 888662092 5.00000000
-1.35398018 -2.80333948 -0.49308142 3 6 20578 3.15200000 888662094 888662094 -9.00000000
-8.31274605 -17.20340347 2.34598494 9 7 20579 19.25000000 888662096 888662096 7.00000000
-1.68561304 -3.48685813 -0.47553417 1 8 20580 3.90200000 888662099 888662099 -7.00000000
-8.16794968 -16.88869286 2.97131634 89 9 20581 18.99400000 888662101 888662101 9.00000000
-2.26321077 -4.67959166 -0.45477867 3 10 20581 5.21800000 888662103 888662103 -5.00000000
-6.41913271 -13.26679325 2.86480618 55 11 20582 15.01400000 888662106 888662106 11.00000000
-7.51426888 -15.52326393 -0.90384197 10 12 20583 17.27000000 888662108 888662108 -3.00000000
-5.34937620 -11.04602909 2.83348346 59 13 20584 12.59600000 888662110 888662110 13.00000000
-6.19136477 -12.77898121 -0.24785908 9 14 20585 14.20200000 888662113 888662113 -1.00000000
-4.02857971 -8.31129456 2.47482777 65 15 20586 9.56200000 888662115 888662115 15.00000000
-0.84981453 -1.74779439 -0.52074391 5 0 20593 2.01200000 888662136 888662136 -15.00000000
-7.52526903 -15.47018433 0.30028611 15 1 20594 17.20600000 888662138 888662138 1.00000000
-0.97042114 -1.99407279 -0.51198858 4 2 20595 2.27600000 888662140 888662140 -13.00000000
-7.61580849 -15.64936733 0.91211104 5 3 20595 17.42800000 888662143 888662143 3.00000000
-1.12753534 -2.31589222 -0.50068283 3 4 20596 2.62400000 888662145 888662145 -11.00000000
-15.09021091 -30.98067856 3.01489139 100 5 20597 34.59200000 888662147 888662147 5.00000000
-1.35596955 -2.78261423 -0.49026561 1 6 20598 3.13400000 888662149 888662149 -9.00000000
-8.32577229 -17.07792854 2.33282304 8 7 20599 19.14200000 888662152 888662152 7.00000000
-1.69168282 -3.46846366 -0.47382802 1 8 20600 3.88800000 888662154 888662154 -7.00000000
-8.23898029 -16.88493156 2.97569633 85 9 20601 19.02200000 888662156 888662156 9.00000000
-2.27778435 -4.66808176 -0.45443004 3 10 20601 5.21400000 888662159 888662159 -5.00000000
-6.46540356 -13.24430561 2.86480618 58 11 20602 15.01400000 888662161 888662161 11.00000000
-5.38961220 -11.03079128 2.83438325 59 13 20604 12.60000000 888662166 888662166 13.00000000
-6.24471569 -12.77525711 -0.24820812 7 14 20605 14.22200000 888662168 888662168 -1.00000000
-4.05696726 -8.29962540 2.47534537 74 15 20605 9.56400000 888662170 888662170 15.00000000
-0.85505950 -1.74308288 -0.52022630 5 0 20613 2.01000000 888662191 888662191 -15.00000000
-7.58186722 -15.44920731 0.30039081 41 1 20614 17.21200000 888662193 888662193 1.00000000
-0.97651696 -1.98892403 -0.51153868 4 2 20615 2.27400000 888662195 888662195 -13.00000000
-7.65454435 -15.59041691 0.91022694 8 3 20615 17.39200000 888662198 888662198 3.00000000
-1.14426804 -2.32956386 -0.50449896 3 4 20616 2.64400000 888662200 888662200 -11.00000000
-15.23692513 -31.00649261 3.02256107 100 5 20617 34.68000000 888662202 888662202 5.00000000
-1.37003195 -2.78672767 -0.49182996 3 6 20618 3.14400000 888662205 888662205 -9.00000000
-8.34853745 -16.97394753 2.32258606 6 7 20619 19.05800000 888662207 888662207 7.00000000
-1.71780252 -3.49103570 -0.47772783 1 8 20620 3.92000000 888662209 888662209 -7.00000000
-8.28739929 -16.83480263 2.97194195 85 9 20621 18.99800000 888662212 888662212 9.00000000
-2.28702545 -4.64580202 -0.45303556 3 10 20621 5.19800000 888662214 888662214 -5.00000000
-6.51332998 -13.22517967 2.86556959 58 11 20622 15.01800000 888662216 888662216 11.00000000
-5.42119122 -10.99792671 2.83078408 60 13 20624 12.58400000 888662221 888662221 13.00000000
-6.30253839 -12.78028393 -0.24873170 9 14 20625 14.25200000 888662223 888662223 -1.00000000
-4.08847713 -8.29061127 2.47689819 33 15 20625 9.57000000 888662225 888662225 15.00000000
-0.86113876 -1.74008751 -0.52022630 5 0 20633 2.01000000 888662246 888662246 -15.00000000
-7.63486147 -15.42085552 0.30035591 45 1 20634 17.21000000 888662248 888662248 1.00000000
-0.98777843 -1.99423456 -0.51378822 4 2 20635 2.28400000 888662251 888662251 -13.00000000
-7.69833231 -15.53541279 0.90865690 8 3 20636 17.36200000 888662253 888662253 3.00000000
-1.14367568 -2.30796409 -0.50068283 3 4 20636 2.62400000 888662255 888662255 -11.00000000
-15.37957859 -31.02273560 3.02935934 100 5 20637 34.75800000 888662258 888662258 5.00000000
-1.37887347 -2.78015876 -0.49151710 1 6 20638 3.14200000 888662260 888662260 -9.00000000
-8.38038445 -16.88957596 2.31503010 6 7 20639 18.99600000 888662262 888662262 7.00000000
-1.72997808 -3.48501825 -0.47772783 1 8 20640 3.92000000 888662265 888662265 -7.00000000
-8.35811138 -16.83730698 2.97726083 80 9 20640 19.03200000 888662267 888662267 9.00000000
-2.31031775 -4.65206623 -0.45443004 3 10 20641 5.21400000 888662269 888662269 -5.00000000
-5.00629044 -10.07627392 2.18705273 53 11 20642 11.46200000 888662272 888662272 11.00000000
-7.66841221 -15.42762852 -0.90289992 97 12 20643 17.25200000 888662274 888662274 -3.00000000
-4.86604357 -9.78542233 2.52305102 17 13 20644 11.21600000 888662276 888662276 13.00000000
-6.40322542 -12.87099934 -0.25093070 9 14 20645 14.37800000 888662278 888662278 -1.00000000
-4.66284943 -9.36860275 2.80404544 52 15 20646 10.83400000 888662281 888662281 15.00000000
-0.86548179 -1.73361409 -0.51919103 5 0 20653 2.00600000 888662301 888662301 -15.00000000
-7.69936609 -15.41557789 0.30077478 26 1 20654 17.23400000 888662304 888662304 1.00000000
-0.99037838 -1.98205829 -0.51153868 4 2 20655 2.27400000 888662306 888662306 -13.00000000
-7.75070000 -15.51158619 0.90876156 2 3 20655 17.36400000 888662308 888662308 3.00000000
-1.15172505 -2.30395794 -0.50068283 3 4 20656 2.62400000 888662311 888662311 -11.00000000
-15.51807499 -31.02944946 3.03528595 100 5 20657 34.82600000 888662313 888662313 5.00000000
-1.39564061 -2.78946161 -0.49402004 1 6 20658 3.15800000 888662315 888662315 -9.00000000
-8.40197086 -16.78566551 2.30479312 6 7 20659 18.91200000 888662318 888662318 7.00000000
-1.74391019 -3.48250818 -0.47821531 1 8 20660 3.92400000 888662320 888662320 -7.00000000
-8.41799831 -16.80302811 2.97663498 80 9 20661 19.02800000 888662322 888662322 9.00000000
-2.32118797 -4.63328552 -0.45338416 3 10 20661 5.20200000 888662325 888662325 -5.00000000
-6.61253738 -13.19342709 2.86862254 55 11 20662 15.03400000 888662327 888662327 11.00000000
-5.49696493 -10.95807076 2.83033419 43 13 20664 12.58200000 888662331 888662331 13.00000000
-6.45529032 -12.86286736 -0.25120994 9 14 20665 14.39400000 888662334 888662334 -1.00000000
-4.70072460 -9.36262798 2.80715132 59 15 20666 10.84600000 888662336 888662336 15.00000000
-0.86631441 -1.72023010 -0.51608515 5 0 20673 1.99400000 888662357 888662357 -15.00000000
-7.75312948 -15.38860893 0.30077478 15 1 20674 17.23400000 888662359 888662359 1.00000000
-1.00167668 -1.98729002 -0.51378822 4 2 20675 2.28400000 888662361 888662361 -13.00000000
-7.80839443 -15.49157047 0.90918022 2 3 20675 17.37200000 888662364 888662364 3.00000000
-1.16418016 -2.30868864 -0.50259089 3 4 20676 2.63400000 888662366 888662366 -11.00000000
-15.66308594 -31.04802322 3.04243279 100 5 20677 34.90800000 888662368 888662368 5.00000000
-1.40091896 -2.77575541 -0.49245569 3 6 20678 3.14800000 888662371 888662371 -9.00000000
-10.15154171 -20.10535431 2.76545906 15 7 20679 22.69200000 888662373 888662373 7.00000000
-1.74889553 -3.46222472 -0.47626540 1 8 20680 3.90800000 888662375 888662375 -7.00000000
-8.47723484 -16.78207207 2.97788644 80 9 20680 19.03600000 888662378 888662378 9.00000000
-2.33554983 -4.62159824 -0.45303556 3 10 20681 5.19800000 888662380 888662380 -5.00000000
-6.65677881 -13.16676044 2.86785913 58 11 20682 15.03000000 888662382 888662382 11.00000000
-5.54222107 -10.95272636 2.83393335 57 13 20684 12.59800000 888662387 888662387 13.00000000
-6.49202204 -12.82419872 -0.25089580 9 14 20685 14.37600000 888662389 888662389 -1.00000000
-4.72988605 -9.33926868 2.80508089 68 15 20686 10.83800000 888662391 888662391 15.00000000
-0.87756348 -1.72752976 -0.51919103 5 0 20693 2.00600000 888662412 888662412 -15.00000000
-7.81585836 -15.37927818 0.30112383 11 1 20694 17.25400000 888662414 888662414 1.00000000
-1.00772429 -1.98204434 -0.51333833 4 2 20695 2.28200000 888662417 888662417 -13.00000000
-1.17223191 -2.30461073 -0.50259089 3 4 20696 2.63400000 888662421 888662421 -11.00000000
-15.80028343 -31.04998398 3.04801059 100 5 20697 34.97200000 888662424 888662424 5.00000000
-1.40611863 -2.76204634 -0.49089134 2 6 20698 3.13800000 888662426 888662426 -9.00000000
-10.20724583 -20.04149437 2.76155925 42 7 20699 22.66000000 888662428 888662428 7.00000000
-1.75916791 -3.45256138 -0.47577792 3 8 20700 3.90400000 888662431 888662431 -7.00000000
-8.52858925 -16.73829842 2.97538352 85 9 20700 19.02000000 888662433 888662433 9.00000000
-2.36071634 -4.63116837 -0.45477867 3 10 20701 5.21800000 888662435 888662435 -5.00000000
-6.70269918 -13.14344311 2.86785913 58 11 20702 15.03000000 888662437 888662437 11.00000000
-3.46456981 -6.79080868 -0.39953268 4 12 20703 7.63400000 888662440 888662440 -3.00000000
-5.59016466 -10.95240688 2.83888221 57 13 20704 12.62000000 888662442 888662442 13.00000000
-6.52492523 -12.77830696 -0.25044203 9 14 20705 14.35000000 888662444 888662444 -1.00000000
-4.76421499 -9.32614231 2.80611610 64 15 20706 10.84200000 888662447 888662447 15.00000000
-0.88474703 -1.72820354 -0.52022630 5 0 20711 2.01000000 888662467 888662467 -15.00000000
-7.89695168 -15.41872215 0.30238038 3 1 20712 17.32600000 888662470 888662470 1.00000000
-1.00861418 -1.96846271 -0.51063889 4 2 20713 2.27000000 888662472 888662472 -13.00000000
-1.18663085 -2.31489348 -0.50564384 3 4 20714 2.65000000 888662477 888662477 -11.00000000
-15.93957329 -31.08174324 3.05602908 100 5 20715 35.06400000 888662479 888662479 5.00000000
-1.41388726 -2.75585771 -0.49057847 2 6 20716 3.13600000 888662481 888662481 -9.00000000
-10.25928020 -19.98813629 2.75863457 42 7 20717 22.63600000 888662483 888662483 7.00000000
-1.76184487 -3.43112469 -0.47358426 1 8 20718 3.88600000 888662486 888662486 -7.00000000
-8.59376431 -16.73602486 2.97976375 80 9 20718 19.04800000 888662488 888662488 9.00000000
-2.36979151 -4.61309576 -0.45373279 3 10 20719 5.20600000 888662490 888662490 -5.00000000
-6.74754667 -13.12930584 2.86938572 55 11 20720 15.03800000 888662493 888662493 11.00000000
-3.48040724 -6.76923370 -0.39890465 4 12 20721 7.62200000 888662495 888662495 -3.00000000
-5.03089237 -9.78065872 2.53924751 37 13 20722 11.28800000 888662497 888662497 13.00000000
-6.55405712 -12.73640823 -0.25002319 9 14 20723 14.32600000 888662500 888662500 -1.00000000
-4.79540110 -9.31883621 2.80818653 66 15 20723 10.85000000 888662502 888662502 15.00000000
-0.89254689 -1.72853768 -0.52126157 4 0 20731 2.01400000 888662523 888662523 -15.00000000
-7.97734070 -15.44258595 0.30339262 7 1 20732 17.38400000 888662525 888662525 1.00000000
-1.01547921 -1.96492994 -0.51063889 4 2 20733 2.27000000 888662527 888662527 -13.00000000
-7.98315096 -15.44722080 0.91127366 2 3 20733 17.41200000 888662530 888662530 3.00000000
-1.18568742 -2.29329777 -0.50182766 3 4 20734 2.63000000 888662532 888662532 -11.00000000
-16.08550072 -31.09847069 3.06317568 100 5 20735 35.14600000 888662534 888662534 5.00000000
-1.43166900 -2.76669526 -0.49339432 1 6 20736 3.15400000 888662536 888662536 -9.00000000
-10.32990170 -19.95396614 2.75887823 39 7 20737 22.63800000 888662539 888662539 7.00000000
-1.77107215 -3.41966558 -0.47285306 1 8 20738 3.88000000 888662541 888662541 -7.00000000
-8.66121674 -16.72346497 2.98289227 72 9 20738 19.06800000 888662543 888662543 9.00000000
-2.38404655 -4.60125732 -0.45338416 3 10 20739 5.20200000 888662546 888662546 -5.00000000
-6.80598450 -13.13007545 2.87472844 35 11 20740 15.06600000 888662548 888662548 11.00000000
-3.50401497 -6.75704336 -0.39890465 4 12 20741 7.62200000 888662550 888662550 -3.00000000
-5.65460348 -10.89952183 2.83483315 51 13 20742 12.60200000 888662553 888662553 13.00000000
-6.57820940 -12.67440510 -0.24925527 9 14 20743 14.28200000 888662555 888662555 -1.00000000
-4.83308506 -9.30805588 2.81025720 68 15 20744 10.85800000 888662557 888662557 15.00000000
-0.89649862 -1.71995842 -0.51970863 4 0 20753 2.00800000 888662578 888662578 -15.00000000
-8.02917957 -15.39765644 0.30311340 11 1 20754 17.36800000 888662580 888662580 1.00000000
-1.03022718 -1.97483850 -0.51423812 4 2 20755 2.28600000 888662583 888662583 -13.00000000
-8.05710888 -15.43806839 0.91263443 2 3 20756 17.43800000 888662585 888662585 3.00000000
-1.19539273 -2.29046845 -0.50220925 3 4 20756 2.63200000 888662587 888662587 -11.00000000
-1.43679428 -2.75067210 -0.49151710 1 6 20758 3.14200000 888662592 888662592 -9.00000000
-10.40828228 -19.91767311 2.75936556 42 7 20759 22.64200000 888662594 888662594 7.00000000
-1.78602898 -3.41635847 -0.47334054 1 8 20760 3.88400000 888662596 888662596 -7.00000000
-8.74733067 -16.73209953 2.99040127 38 9 20760 19.11600000 888662599 888662599 9.00000000
-2.41647053 -4.62031746 -0.45617315 3 10 20761 5.23400000 888662601 888662601 -5.00000000
-6.84451771 -13.08123112 2.86976719 55 11 20762 15.04000000 888662603 888662603 11.00000000
-3.53549170 -6.75415611 -0.39953268 4 12 20763 7.63400000 888662606 888662606 -3.00000000
-5.69641304 -10.87772942 2.83483315 55 13 20764 12.60200000 888662608 888662608 13.00000000
-6.27511644 -11.97772026 -0.23602635 6 14 20765 13.52400000 888662610 888662610 -1.00000000
-4.86447906 -9.28514576 2.80870438 73 15 20765 10.85200000 888662613 888662613 15.00000000
-0.89710355 -1.70655870 -0.51660281 4 0 20773 1.99600000 888662633 888662633 -15.00000000
-8.10335636 -15.40847206 0.30388129 11 1 20774 17.41200000 888662636 888662636 1.00000000
-1.03711438 -1.97123027 -0.51423812 4 2 20775 2.28600000 888662638 888662638 -13.00000000
-8.13885593 -15.46287060 0.91577458 2 3 20776 17.49800000 888662640 888662640 3.00000000
-1.19972289 -2.27933264 -0.50068283 3 4 20776 2.62400000 888662642 888662642 -11.00000000
-16.38358116 -31.11370468 3.07642341 60 5 20777 35.29800000 888662645 888662645 5.00000000
-1.44914925 -2.75088310 -0.49245569 3 6 20778 3.14800000 888662647 888662647 -9.00000000
-10.48329735 -19.89175797 2.76082802 36 7 20779 22.65400000 888662649 888662649 7.00000000
-1.81090498 -3.43468690 -0.47675288 1 8 20780 3.91200000 888662652 888662652 -7.00000000
-7.72941113 -14.65393257 2.62403178 56 9 20781 16.77400000 888662654 888662654 9.00000000
-2.42328835 -4.59423161 -0.45443004 3 10 20781 5.21400000 888662656 888662656 -5.00000000
-6.89471912 -13.06594181 2.87167549 52 11 20782 15.05000000 888662659 888662659 11.00000000
-3.55345225 -6.73117638 -0.39890465 4 12 20783 7.62200000 888662661 888662661 -3.00000000
-5.74253893 -10.87328815 2.83888221 57 13 20784 12.62000000 888662663 888662663 13.00000000
-6.30380964 -11.93099022 -0.23553768 9 14 20785 13.49600000 888662666 888662666 -1.00000000
-4.89847803 -9.26725388 2.80870438 52 15 20786 10.85200000 888662668 888662668 15.00000000
-0.90547144 -1.70869541 -0.51815575 5 0 20792 2.00200000 888662689 888662689 -15.00000000
-8.19843006 -15.46455383 0.30552182 45 1 20793 17.50600000 888662691 888662691 1.00000000
-1.04181945 -1.96433711 -0.51333833 4 2 20794 2.28200000 888662693 888662693 -13.00000000
-8.20225811 -15.45873260 0.91713530 2 3 20795 17.52400000 888662695 888662695 3.00000000
-1.21463633 -2.28921580 -0.50373572 3 4 20795 2.64000000 888662698 888662698 -11.00000000
-16.52777100 -31.13663673 3.08409309 40 5 20796 35.38600000 888662700 888662700 5.00000000
-1.46011639 -2.74955177 -0.49308142 3 6 20797 3.15200000 888662702 888662702 -9.00000000
-10.54920292 -19.85688400 2.76082802 39 7 20798 22.65400000 888662705 888662705 7.00000000
-1.82601142 -3.43567443 -0.47772783 1 8 20799 3.92000000 888662707 888662707 -7.00000000
-7.78375340 -14.64527607 2.62684751 72 9 20799 16.79200000 888662709 888662709 9.00000000
-2.42915630 -4.56857872 -0.45268694 3 10 20800 5.19400000 888662712 888662712 -5.00000000
-6.93616533 -13.03953934 2.87091208 55 11 20801 15.04600000 888662714 888662714 11.00000000
-3.59264302 -6.75109243 -0.40078875 4 12 20802 7.65800000 888662716 888662716 -3.00000000
-5.78589106 -10.86794662 2.84248161 59 13 20803 12.63600000 888662719 888662719 13.00000000
-6.31419849 -11.85530567 -0.23445563 9 14 20804 13.43400000 888662721 888662721 -1.00000000
-4.93301678 -9.26204967 2.81181002 11 15 20804 10.86400000 888662723 888662723 15.00000000
-0.91416198 -1.71063578 -0.51970863 4 0 20812 2.00800000 888662744 888662744 -15.00000000
-8.25424671 -15.43936920 0.30559164 18 1 20813 17.51000000 888662746 888662746 1.00000000
-1.04315543 -1.95037806 -0.51063889 4 2 20814 2.27000000 888662748 888662748 -13.00000000
-8.27124500 -15.45818329 0.91881007 2 3 20815 17.55600000 888662751 888662751 3.00000000
-1.22076726 -2.28149986 -0.50297248 3 4 20815 2.63600000 888662753 888662753 -11.00000000
-16.67396927 -31.14901733 3.09106565 40 5 20816 35.46600000 888662755 888662755 5.00000000
-1.46131229 -2.72876573 -0.49026561 2 6 20817 3.13400000 888662758 888662758 -9.00000000
-10.61282825 -19.80944061 2.75936556 36 7 20818 22.64200000 888662760 888662760 7.00000000
-1.82955325 -3.41353273 -0.47553417 1 8 20819 3.90200000 888662762 888662762 -7.00000000
-7.84577990 -14.63231754 2.62966347 84 9 20820 16.81000000 888662765 888662765 9.00000000
-2.45638680 -4.58114243 -0.45477867 3 10 20820 5.21800000 888662767 888662767 -5.00000000
-6.97792768 -13.00832748 2.86938572 19 11 20821 15.03800000 888662769 888662769 11.00000000
-3.60107589 -6.71035290 -0.39911401 4 12 20822 7.62600000 888662771 888662771 -3.00000000
-5.82010460 -10.84081554 2.84068203 55 13 20823 12.62800000 888662774 888662774 13.00000000
-6.32431841 -11.77505779 -0.23330377 20 14 20824 13.36800000 888662776 888662776 -1.00000000
-4.08637953 -7.60512161 2.31332469 6 15 20825 8.93800000 888662778 888662778 15.00000000
-0.92012763 -1.70743430 -0.51970863 5 0 20832 2.00800000 888662799 888662799 -15.00000000
-8.39444542 -15.57063961 0.30876797 7 1 20833 17.69200000 888662801 888662801 1.00000000
-1.05180728 -1.95015526 -0.51153868 4 2 20834 2.27400000 888662804 888662804 -13.00000000
-8.33084393 -15.43976307 0.91943806 2 3 20835 17.56800000 888662806 888662806 3.00000000
-1.22499478 -2.27031350 -0.50144607 3 4 20835 2.62800000 888662808 888662808 -11.00000000
-16.80247116 -31.12744331 3.09472609 10 5 20836 35.50800000 888662811 888662811 5.00000000
-1.47458303 -2.73060060 -0.49151710 2 6 20837 3.14200000 888662813 888662813 -9.00000000
-10.68285465 -19.77402115 2.75960946 36 7 20838 22.64400000 888662815 888662815 7.00000000
-1.83862603 -3.40188670 -0.47480297 1 8 20839 3.89600000 888662818 888662818 -7.00000000
-7.89801598 -14.61317062 2.63091493 80 9 20839 16.81800000 888662820 888662820 9.00000000
-2.48373461 -4.59357119 -0.45687041 3 10 20840 5.24200000 888662822 888662822 -5.00000000
-3.60926867 -6.66963720 -0.39743924 4 12 20842 7.59400000 888662827 888662827 -3.00000000
-5.85605526 -10.81700611 2.83978200 56 13 20843 12.62400000 888662829 888662829 13.00000000
-6.33586025 -11.69840050 -0.23222172 27 14 20844 13.30600000 888662831 888662831 -1.00000000
-4.11525631 -7.59832382 2.31539512 9 15 20844 8.94600000 888662834 888662834 15.00000000
-0.92147011 -1.69572496 -0.51712048 4 0 20852 1.99800000 888662854 888662854 -15.00000000
-8.40385628 -15.45866966 0.30712745 15 1 20853 17.59800000 888662857 888662857 1.00000000
-1.06047034 -1.94989574 -0.51243848 4 2 20854 2.27800000 888662859 888662859 -13.00000000
-8.41046047 -15.45795822 0.92226422 2 3 20855 17.62200000 888662861 888662861 3.00000000
-1.23478878 -2.26947284 -0.50220925 3 4 20855 2.63200000 888662864 888662864 -11.00000000
-13.84200764 -25.43026352 2.53309441 9 5 20856 29.06400000 888662866 888662866 5.00000000
-1.48882914 -2.73411083 -0.49308142 3 6 20857 3.15200000 888662868 888662868 -9.00000000
-10.75941086 -19.75055695 2.76155925 39 7 20858 22.66000000 888662871 888662871 7.00000000
-1.84478998 -3.38498974 -0.47334054 1 8 20859 3.88400000 888662873 888662873 -7.00000000
-7.95341396 -14.58759308 2.63154054 80 9 20860 16.82200000 888662875 888662875 9.00000000
-2.47686434 -4.54289055 -0.45268694 3 10 20860 5.19400000 888662877 888662877 -5.00000000
-5.11693573 -9.38122749 2.07714677 21 11 20861 10.88600000 888662880 888662880 11.00000000
-3.65166163 -6.69206238 -0.39953268 4 12 20862 7.63400000 888662882 888662882 -3.00000000
-6.33735991 -11.60425663 -0.23079063 24 14 20864 13.22400000 888662887 888662887 -1.00000000
-4.14493036 -7.58658028 2.31643057 9 15 20865 8.95000000 888662889 888662889 15.00000000
-0.92523223 -1.68927121 -0.51608515 4 0 20871 1.99400000 888662910 888662910 -15.00000000
-8.46756458 -15.45351505 0.30758122 15 1 20872 17.62400000 888662912 888662912 1.00000000
-1.06880403 -1.94978607 -0.51333833 4 2 20873 2.28200000 888662914 888662914 -13.00000000
-8.48568439 -15.47376347 0.92488104 2 3 20874 17.67200000 888662917 888662917 3.00000000
-1.24608374 -2.27225113 -0.50373572 3 4 20874 2.64000000 888662919 888662919 -11.00000000
-13.85342979 -25.25146675 2.51984692 9 5 20875 28.91200000 888662921 888662921 5.00000000
-1.49408579 -2.72223186 -0.49182996 3 6 20876 3.14400000 888662924 888662924 -9.00000000
-10.82484722 -19.71476746 2.76155925 34 7 20877 22.66000000 888662926 888662926 7.00000000
-1.87703061 -3.41713095 -0.47870278 1 8 20878 3.92800000 888662928 888662928 -7.00000000
-8.00300694 -14.56946087 2.63279200 80 9 20878 16.83000000 888662930 888662930 9.00000000
-2.49191546 -4.53465176 -0.45268694 3 10 20879 5.19400000 888662933 888662933 -5.00000000
-7.12853241 -12.96675205 2.87625480 35 11 20880 15.07400000 888662935 888662935 11.00000000
-3.66228342 -6.65891552 -0.39827663 4 12 20881 7.61000000 888662937 888662937 -3.00000000
-5.92579031 -10.77006626 2.83798242 45 13 20882 12.61600000 888662940 888662940 13.00000000
-6.34977055 -11.53587818 -0.22984819 13 14 20883 13.17000000 888662942 888662942 -1.00000000
-4.17433357 -7.58367586 2.31953621 9 15 20883 8.96200000 888662944 888662944 15.00000000
-0.93392503 -1.69110465 -0.51763809 5 0 20891 2.00000000 888662965 888662965 -15.00000000
-8.53402710 -15.44661713 0.30803499 11 1 20892 17.65000000 888662967 888662967 1.00000000
-1.07371819 -1.94263232 -0.51243848 4 2 20893 2.27800000 888662970 888662970 -13.00000000
-8.57057285 -15.49997997 0.92823052 2 3 20894 17.73600000 888662972 888662972 3.00000000
-1.25400782 -2.26788759 -0.50373572 3 4 20894 2.64000000 888662974 888662974 -11.00000000
-13.88362503 -25.09835052 2.50938821 9 5 20895 28.79200000 888662977 888662977 5.00000000
-1.50166607 -2.71354342 -0.49120423 2 6 20896 3.14000000 888662979 888662979 -9.00000000
-10.87244606 -19.63865471 2.75619698 18 7 20897 22.61600000 888662981 888662981 7.00000000
-1.87740576 -3.38971949 -0.47577792 1 8 20898 3.90400000 888662983 888662983 -7.00000000
-8.06497002 -14.55558109 2.63560796 84 9 20899 16.84800000 888662986 888662986 9.00000000
-2.51352286 -4.53638220 -0.45373279 3 10 20899 5.20600000 888662988 888662988 -5.00000000
-7.16708851 -12.92977047 2.87358356 55 11 20900 15.06000000 888662990 888662990 11.00000000
-3.68356776 -6.64259768 -0.39806730 4 12 20901 7.60600000 888662993 888662993 -3.00000000
-5.96996641 -10.76124382 2.84113193 43 13 20902 12.63000000 888662995 888662995 13.00000000
-6.37059212 -11.47867393 -0.22915010 22 14 20903 13.13000000 888662997 888662997 -1.00000000
-4.21335411 -7.58859301 2.32574797 11 15 20904 8.98600000 888663000 888663000 15.00000000
-0.94293731 -1.69273329 -0.51919103 4 0 20912 2.00600000 888663020 888663020 -15.00000000
-8.62660217 -15.47986507 0.30932644 7 1 20913 17.72400000 888663023 888663023 1.00000000
-1.07703531 -1.93187547 -0.51063889 4 2 20914 2.27000000 888663025 888663025 -13.00000000
-8.65845680 -15.52428055 0.93158001 2 3 20915 17.80000000 888663027 888663027 3.00000000
-1.26039910 -2.25984716 -0.50297248 3 4 20915 2.63600000 888663030 888663030 -11.00000000
-13.90077019 -24.91332626 2.49596620 26 5 20916 28.63800000 888663032 888663032 5.00000000
-1.50967598 -2.70457149 -0.49057847 2 6 20917 3.13600000 888663034 888663034 -9.00000000
-12.47063828 -22.33188057 3.14057302 31 7 20918 25.77000000 888663036 888663036 7.00000000
-1.89175344 -3.38628173 -0.47626540 1 8 20919 3.90800000 888663039 888663039 -7.00000000
-8.12054634 -14.53596306 2.63717222 84 9 20919 16.85800000 888663041 888663041 9.00000000
-2.52624464 -4.52018261 -0.45303556 3 10 20920 5.19800000 888663043 888663043 -5.00000000
-7.22113705 -12.91541004 2.87625480 52 11 20921 15.07400000 888663046 888663046 11.00000000
-3.70008945 -6.61510754 -0.39722991 4 12 20922 7.59000000 888663048 888663048 -3.00000000
-6.01412630 -10.74779320 2.84338140 53 13 20923 12.64000000 888663050 888663050 13.00000000
-6.37452555 -11.38719654 -0.22778881 15 14 20924 13.05200000 888663053 888663053 -1.00000000
-4.25019741 -7.59238195 2.33144188 13 15 20924 9.00800000 888663055 888663055 15.00000000
-0.94884032 -1.68943143 -0.51919103 4 0 20932 2.00600000 888663076 888663076 -15.00000000
-8.71682644 -15.51416302 0.31061792 3 1 20933 17.79800000 888663078 888663078 1.00000000
-1.08759177 -1.93489921 -0.51243848 4 2 20934 2.27800000 888663080 888663080 -13.00000000
-8.75175190 -15.56359768 0.93576688 2 3 20935 17.88000000 888663083 888663083 3.00000000
-1.26827967 -2.25543380 -0.50297248 3 4 20935 2.63600000 888663085 888663085 -11.00000000
-13.94271374 -24.78477287 2.48794794 26 5 20936 28.54600000 888663087 888663087 5.00000000
-1.52298284 -2.70617127 -0.49182996 3 6 20937 3.14400000 888663089 888663089 -9.00000000
-12.56020164 -22.30897141 3.14349794 28 7 20938 25.79400000 888663092 888663092 7.00000000
-1.89382029 -3.36236167 -0.47382802 1 8 20939 3.88800000 888663094 888663094 -7.00000000
-8.17511463 -14.51441288 2.63842368 80 9 20939 16.86600000 888663096 888663096 9.00000000
-2.53418303 -4.49745035 -0.45164105 3 10 20940 5.18200000 888663099 888663099 -5.00000000
-7.27196074 -12.90038586 2.87854457 52 11 20941 15.08600000 888663101 888663101 11.00000000
-3.71530938 -6.58823395 -0.39639252 4 12 20942 7.57400000 888663103 888663103 -3.00000000
-6.05352163 -10.73012924 2.84428120 56 13 20943 12.64400000 888663106 888663106 13.00000000
-6.38868093 -11.31959724 -0.22688128 9 14 20944 13.00000000 888663108 888663108 -1.00000000
-4.28711891 -7.59600592 2.33713603 20 15 20944 9.03000000 888663110 888663110 15.00000000
-0.94938672 -1.67803526 -0.51660281 4 0 20950 1.99600000 888663131 888663131 -15.00000000
-8.77340317 -15.50062370 0.31089717 3 1 20951 17.81400000 888663133 888663133 1.00000000
-1.09366500 -1.93147290 -0.51243848 4 2 20952 2.27800000 888663136 888663136 -13.00000000
-8.80060291 -15.53602695 0.93576688 2 3 20953 17.88000000 888663138 888663138 3.00000000
-1.26761794 -2.23777246 -0.49991956 3 4 20953 2.62000000 888663140 888663140 -11.00000000
-13.95076466 -24.61777687 2.47557163 26 5 20954 28.40400000 888663142 888663142 5.00000000
-1.53342545 -2.70481014 -0.49245569 3 6 20955 3.14800000 888663145 888663145 -9.00000000
-10.60206413 -18.69338226 2.63871503 10 7 20956 21.65200000 888663147 888663147 7.00000000
-1.90633333 -3.35984850 -0.47431549 1 8 20957 3.89200000 888663149 888663149 -7.00000000
-8.22125053 -14.48378754 2.63779783 80 9 20958 16.86200000 888663152 888663152 9.00000000
-2.54043150 -4.47560501 -0.45024657 3 10 20958 5.16600000 888663154 888663154 -5.00000000
-7.31633043 -12.88430595 2.88007092 52 11 20959 15.09400000 888663156 888663156 11.00000000
-3.72809649 -6.56263638 -0.39555517 4 12 20960 7.55800000 888663159 888663159 -3.00000000
-6.08720112 -10.71105862 2.84428120 55 13 20961 12.64400000 888663161 888663161 13.00000000
-6.43014097 -11.30990124 -0.22709072 6 14 20962 13.01200000 888663163 888663163 -1.00000000
-4.31573534 -7.59089708 2.33972406 22 15 20962 9.04000000 888663165 888663165 15.00000000
-0.95332402 -1.67135501 -0.51556754 4 0 20970 1.99200000 888663186 888663186 -15.00000000
-8.84331417 -15.49769402 0.31145564 3 1 20971 17.84600000 888663189 888663189 1.00000000
-1.10233271 -1.93102837 -0.51333833 4 2 20972 2.28200000 888663191 888663191 -13.00000000
-8.86666584 -15.52602482 0.93702298 2 3 20973 17.90400000 888663193 888663193 3.00000000
-1.27736866 -2.23674369 -0.50068283 3 4 20973 2.62400000 888663195 888663195 -11.00000000
-17.07283783 -29.88337517 3.01105666 100 5 20974 34.54800000 888663198 888663198 5.00000000
-1.54089725 -2.69601107 -0.49182996 3 6 20975 3.14400000 888663200 888663200 -9.00000000
-10.69976711 -18.71312904 2.64675832 20 7 20976 21.71800000 888663202 888663202 7.00000000
-1.91804981 -3.35317373 -0.47431549 1 8 20977 3.89200000 888663205 888663205 -7.00000000
-8.28058815 -14.47043228 2.64061379 84 9 20978 16.88000000 888663207 888663207 9.00000000
-2.56395531 -4.48054409 -0.45164105 3 10 20978 5.18200000 888663209 888663209 -5.00000000
-7.35930967 -12.85528088 2.87930775 55 11 20979 15.09000000 888663212 888663212 11.00000000
-3.75098157 -6.54958296 -0.39555517 4 12 20980 7.55800000 888663214 888663214 -3.00000000
-6.12649012 -10.69312668 2.84518099 57 13 20981 12.64800000 888663216 888663216 13.00000000
-6.48549128 -11.31514549 -0.22764920 6 14 20982 13.04400000 888663218 888663218 -1.00000000
-4.35025501 -7.58675957 2.34334755 22 15 20983 9.05400000 888663221 888663221 15.00000000
-0.96329665 -1.67454779 -0.51763809 4 0 20991 2.00000000 888663242 888663242 -15.00000000
-1.10745823 -1.92359746 -0.51243848 4 2 20993 2.27800000 888663246 888663246 -13.00000000
-8.99129581 -15.61111164 0.94414067 2 3 20994 18.04000000 888663248 888663248 3.00000000
-1.28947759 -2.23885179 -0.50220925 3 4 20994 2.63200000 888663251 888663251 -11.00000000
-17.15837860 -29.77916718 3.00687313 90 5 20995 34.50000000 888663253 888663253 5.00000000
-1.53893030 -2.66980815 -0.48807552 2 6 20996 3.12000000 888663255 888663255 -9.00000000
-10.78613186 -18.70474052 2.65114570 25 7 20997 21.75400000 888663258 888663258 7.00000000
-1.94223022 -3.36675501 -0.47724035 1 8 20998 3.91600000 888663260 888663260 -7.00000000
-8.34146881 -14.45367241 2.64311671 84 9 20999 16.89600000 888663262 888663262 9.00000000
-2.57239294 -4.45731163 -0.45024657 3 10 20999 5.16600000 888663265 888663265 -5.00000000
-7.40245056 -12.82142067 2.87778115 52 11 21000 15.08200000 888663267 888663267 11.00000000
-3.78195429 -6.54789734 -0.39628786 4 12 21001 7.57200000 888663269 888663269 -3.00000000
-6.17246628 -10.68241215 2.84833026 51 13 21002 12.66200000 888663271 888663271 13.00000000
-6.40983152 -11.08874130 -0.22356533 9 14 21003 12.81000000 888663274 888663274 -1.00000000
-4.38831282 -7.59159851 2.34955931 22 15 21003 9.07800000 888663276 888663276 15.00000000
-0.97495085 -1.68120217 -0.52074391 5 0 21011 2.01200000 888663297 888663297 -15.00000000
-1.11025333 -1.91297817 -0.51063889 4 2 21013 2.27000000 888663301 888663301 -13.00000000
-1.29728472 -2.23433709 -0.50220925 3 4 21014 2.63200000 888663306 888663306 -11.00000000
-1.55419505 -2.67466784 -0.48995274 2 6 21016 3.13200000 888663311 888663311 -9.00000000
-10.87430382 -18.70644760 2.65675163 22 7 21017 21.80000000 888663313 888663313 7.00000000
-1.93500972 -3.32735062 -0.47260931 1 8 21018 3.87800000 888663315 888663315 -7.00000000
-8.39783096 -14.43471241 2.64499402 84 9 21019 16.90800000 888663318 888663318 9.00000000
-2.60597062 -4.47930384 -0.45338416 3 10 21019 5.20200000 888663320 888663320 -5.00000000
-7.45012331 -12.80059338 2.87892604 52 11 21020 15.08800000 888663322 888663322 11.00000000
-3.79574299 -6.51912212 -0.39534581 4 12 21021 7.55400000 888663324 888663324 -3.00000000
-6.20187044 -10.64732933 2.84473109 46 13 21022 12.64600000 888663327 888663327 13.00000000
-6.43641758 -11.04556561 -0.22314647 2 14 21023 12.78600000 888663329 888663329 -1.00000000
-4.43034792 -7.60294008 2.35784149 18 15 21023 9.11000000 888663331 888663331 15.00000000
-0.97818047 -1.67261457 -0.51919103 4 0 21032 2.00600000 888663352 888663352 -15.00000000
-1.11528850 -1.90553236 -0.50973910 4 2 21034 2.26600000 888663357 888663357 -13.00000000
-3.52808213 -6.02551174 0.36593300 2 3 21035 6.99200000 888663359 888663359 3.00000000
-1.30348134 -2.22617888 -0.50144607 3 4 21035 2.62800000 888663361 888663361 -11.00000000
-3.50542378 -5.98441887 0.60677826 3 5 21036 6.96200000 888663364 888663364 5.00000000
-1.55599809 -2.65531898 -0.48744980 2 6 21037 3.11600000 888663366 888663366 -9.00000000
-1.93815398 -3.30482507 -0.47041565 1 8 21039 3.86000000 888663370 888663370 -7.00000000
-2.60903144 -4.44520855 -0.45094383 3 10 21041 5.17400000 888663375 888663375 -5.00000000
-3.51595306 -5.99040127 1.35016441 40 11 21041 7.07600000 888663377 888663377 11.00000000
-3.76904726 -6.41905069 -0.39011222 3 12 21042 7.45400000 888663380 888663380 -3.00000000
-3.50782728 -5.97178078 1.59895205 75 13 21043 7.10800000 888663382 888663382 13.00000000
-3.52868748 -6.00489330 -0.12157346 19 14 21044 6.96600000 888663384 888663384 -1.00000000
-3.50788546 -5.96710920 1.85469723 40 15 21045 7.16600000 888663387 888663387 15.00000000
-0.98037887 -1.66236210 -0.51712048 4 0 21053 1.99800000 888663407 888663407 -15.00000000
-3.53202057 -5.98900795 0.12136403 14 1 21053 6.95400000 888663410 888663410 1.00000000
-1.12490392 -1.90666282 -0.51108879 4 2 21054 2.27200000 888663412 888663412 -13.00000000
-3.53285074 -5.98563957 0.36425826 10 3 21055 6.96000000 888663414 888663414 3.00000000
-1.31163192 -2.22138643 -0.50144607 3 4 21056 2.62800000 888663417 888663417 -11.00000000
-3.53645420 -5.98696947 0.60834706 13 5 21057 6.98000000 888663419 888663419 5.00000000
