# .PCD v0.7 - Point Cloud Data file format
VERSION 0.7
FIELDS x y z intensity laser_id azimuth distance_m adjustedtime timestamp vertical_angle
SIZE 4 4 4 1 1 2 8 8 4 8
TYPE F F F U U U F U U F
COUNT 1 1 1 1 1 1 1 1 1 1
WIDTH 537
HEIGHT 1
VIEWPOINT 0 0 0 1 0 0 0
POINTS 537
DATA ascii
-4.18885899 0.14481422 -0.07316048 29 14 27198 4.19200000 888980396 888980396 -1.00000000
-10.27318287 0.35695228 2.75435233 45 15 27199 10.64200000 888980399 888980399 15.00000000
-1.95377040 0.07027572 -0.52384973 4 0 27206 2.02400000 888980420 888980420 -15.00000000
-4.20661211 0.15204397 0.07347463 7 1 27207 4.21000000 888980422 888980422 1.00000000
-2.22009993 0.08063138 -0.51288843 4 2 27208 2.28000000 888980424 888980424 -13.00000000
-4.41699409 0.16119188 0.23163894 15 3 27209 4.42600000 888980426 888980426 3.00000000
-2.61527705 0.09544080 -0.50869679 3 4 27209 2.66600000 888980429 888980429 -11.00000000
-4.82232618 0.17682667 0.42218241 9 5 27210 4.84400000 888980431 888980431 5.00000000
-3.13871932 0.11564016 -0.49746159 3 6 27211 3.18000000 888980433 888980433 -9.00000000
-3.92379951 0.14593650 -0.48211512 5 8 27213 3.95600000 888980438 888980438 -7.00000000
-16.55395508 0.61857867 2.62371874 44 9 27214 16.77200000 888980440 888980440 9.00000000
-5.17261744 0.19328739 -0.45286125 9 10 27214 5.19600000 888980443 888980443 -5.00000000
-12.92285252 0.48515233 2.51371765 50 11 27215 13.17400000 888980445 888980445 11.00000000
-4.25513077 0.16049069 -0.22316052 4 12 27216 4.26400000 888980447 888980447 -3.00000000
-4.18233347 0.15920700 -0.07305577 33 14 27218 4.18600000 888980452 888980452 -1.00000000
-10.27194309 0.39101741 2.75435233 47 15 27218 10.64200000 888980454 888980454 15.00000000
-1.96509528 0.07755231 -0.52695560 5 0 27226 2.03600000 888980475 888980475 -15.00000000
-4.20605564 0.16672686 0.07347463 7 1 27227 4.21000000 888980477 888980477 1.00000000
-2.23148823 0.08884564 -0.51558781 4 2 27228 2.29200000 888980479 888980479 -13.00000000
-4.38447380 0.17533220 0.22996420 5 3 27229 4.39400000 888980482 888980482 3.00000000
-2.60904312 0.10433390 -0.50755191 3 4 27229 2.66000000 888980484 888980484 -11.00000000
-4.81968880 0.19357871 0.42200810 9 5 27230 4.84200000 888980486 888980486 5.00000000
-3.15013933 0.12707335 -0.49933881 3 6 27231 3.19200000 888980489 888980489 -9.00000000
-3.90343189 0.15882519 -0.47967774 5 8 27233 3.93600000 888980493 888980493 -7.00000000
-16.34642792 0.66797101 2.59118056 40 9 27234 16.56400000 888980496 888980496 9.00000000
-5.17589283 0.21150471 -0.45320988 9 10 27234 5.20000000 888980498 888980498 -5.00000000
-12.92108059 0.53025860 2.51371765 50 11 27235 13.17400000 888980500 888980500 11.00000000
-4.23858023 0.17468494 -0.22232315 6 12 27236 4.24800000 888980502 888980502 -3.00000000
-10.08194542 0.41727066 2.32959318 13 13 27237 10.35600000 888980505 888980505 13.00000000
-4.16976404 0.17330685 -0.07284635 43 14 27238 4.17400000 888980507 888980507 -1.00000000
-10.26665497 0.42671037 2.75331712 45 15 27238 10.63800000 888980509 888980509 15.00000000
-1.95709229 0.08407962 -0.52488500 5 0 27246 2.02800000 888980530 888980530 -15.00000000
-4.22143078 0.18209715 0.07375387 7 1 27247 4.22600000 888980532 888980532 1.00000000
-2.21948290 0.09612851 -0.51288843 4 2 27248 2.28000000 888980535 888980535 -13.00000000
-4.36790514 0.18917929 0.22912681 18 3 27248 4.37800000 888980537 888980537 3.00000000
-2.61062431 0.11352582 -0.50793356 3 4 27249 2.66200000 888980539 888980539 -11.00000000
-4.81301212 0.21014066 0.42148519 9 5 27250 4.83600000 888980542 888980542 5.00000000
-3.14967656 0.13806862 -0.49933881 3 6 27251 3.19200000 888980544 888980544 -9.00000000
-3.91078615 0.17280024 -0.48065269 7 8 27253 3.94400000 888980548 888980548 -7.00000000
-16.29478645 0.71999413 2.58335876 36 9 27253 16.51400000 888980551 888980551 9.00000000
-5.16318035 0.22904089 -0.45216399 9 10 27254 5.18800000 888980553 888980553 -5.00000000
-12.91915131 0.57535833 2.51371765 43 11 27255 13.17400000 888980555 888980555 11.00000000
-4.24393034 0.18974692 -0.22263716 6 12 27256 4.25400000 888980558 888980558 -3.00000000
-10.05511856 0.45132470 2.32374430 10 13 27257 10.33000000 888980560 888980560 13.00000000
-4.15515041 0.18723089 -0.07260201 50 14 27258 4.16000000 888980562 888980562 -1.00000000
-10.25738335 0.46219724 2.75124645 45 15 27258 10.63000000 888980565 888980565 15.00000000
-1.94520831 0.09037270 -0.52177918 5 0 27266 2.01600000 888980585 888980585 -15.00000000
-4.20079422 0.19590005 0.07340482 7 1 27267 4.20600000 888980588 888980588 1.00000000
-2.23470688 0.10460432 -0.51648760 4 2 27268 2.29600000 888980590 888980590 -13.00000000
-4.34922695 0.20434357 0.22818477 48 3 27269 4.36000000 888980592 888980592 3.00000000
-2.60040665 0.12217721 -0.50602543 3 4 27269 2.65200000 888980595 888980595 -11.00000000
-4.78637695 0.22571981 0.41921914 9 5 27270 4.81000000 888980597 888980597 5.00000000
-3.13733625 0.14850181 -0.49746159 3 6 27271 3.18000000 888980599 888980599 -9.00000000
-3.93395329 0.18758497 -0.48357755 5 8 27273 3.96800000 888980604 888980604 -7.00000000
-16.27625275 0.77895725 2.58085585 28 9 27274 16.49800000 888980606 888980606 9.00000000
-5.17429018 0.24763381 -0.45320988 9 10 27274 5.20000000 888980608 888980608 -5.00000000
-12.90725899 0.61998010 2.51180959 50 11 27275 13.16400000 888980611 888980611 11.00000000
-4.25321674 0.20504071 -0.22316052 6 12 27276 4.26400000 888980613 888980613 -3.00000000
-4.16645527 0.20231585 -0.07281144 70 14 27278 4.17200000 888980618 888980618 -1.00000000
-10.23632526 0.49884897 2.74607015 47 15 27279 10.61000000 888980620 888980620 15.00000000
-1.94681036 0.09725859 -0.52229685 4 0 27286 2.01800000 888980641 888980641 -15.00000000
-4.19209576 0.21016186 0.07326520 7 1 27287 4.19800000 888980643 888980643 1.00000000
-2.22654295 0.11201261 -0.51468801 4 2 27288 2.28800000 888980645 888980645 -13.00000000
-4.35849905 0.21926676 0.22870813 71 3 27288 4.37000000 888980648 888980648 3.00000000
-2.62349343 0.13244139 -0.51060486 3 4 27289 2.67600000 888980650 888980650 -11.00000000
-4.78754997 0.24252681 0.41939342 9 5 27290 4.81200000 888980652 888980652 5.00000000
-3.13285327 0.15925169 -0.49683586 3 6 27291 3.17600000 888980654 888980654 -9.00000000
-3.92534447 0.20091002 -0.48260260 7 8 27293 3.96000000 888980659 888980659 -7.00000000
-16.27146149 0.83566588 2.58054304 20 9 27294 16.49600000 888980661 888980661 9.00000000
-5.18533278 0.26630709 -0.45425573 9 10 27294 5.21200000 888980664 888980664 -5.00000000
-12.89521313 0.66452587 2.50990152 50 11 27295 13.15400000 888980666 888980666 11.00000000
-4.23452377 0.21895772 -0.22221847 8 12 27296 4.24600000 888980668 888980668 -3.00000000
-12.14964294 0.63035697 2.80873895 48 13 27297 12.48600000 888980671 888980671 13.00000000
-4.16172981 0.21665034 -0.07274163 71 14 27298 4.16800000 888980673 888980673 -1.00000000
-10.22689724 0.53238940 2.74399948 45 15 27298 10.60200000 888980675 888980675 15.00000000
-1.95224631 0.10436301 -0.52384973 4 0 27306 2.02400000 888980696 888980696 -15.00000000
-4.18334961 0.22436535 0.07312559 7 1 27307 4.19000000 888980698 888980698 1.00000000
-2.22613835 0.11978401 -0.51468801 4 2 27308 2.28800000 888980700 888980700 -13.00000000
-4.33975792 0.23351361 0.22776608 43 3 27308 4.35200000 888980703 888980703 3.00000000
-2.61909437 0.14138663 -0.50984162 3 4 27309 2.67200000 888980705 888980705 -11.00000000
-4.79065323 0.25945249 0.41974205 9 5 27310 4.81600000 888980707 888980707 5.00000000
-3.12833333 0.16997208 -0.49621013 3 6 27311 3.17200000 888980710 888980710 -9.00000000
-3.91272664 0.21396047 -0.48114017 7 8 27313 3.94800000 888980714 888980714 -7.00000000
-16.26844597 0.89245880 2.58054304 16 9 27314 16.49600000 888980717 888980717 9.00000000
-5.18437147 0.28440565 -0.45425573 9 10 27314 5.21200000 888980719 888980719 -5.00000000
-12.89085484 0.70942664 2.50951982 50 11 27315 13.15200000 888980721 888980721 11.00000000
-4.22775126 0.23340735 -0.22190446 8 12 27316 4.24000000 888980724 888980724 -3.00000000
-12.13569450 0.67211676 2.80603933 50 13 27317 12.47400000 888980726 888980726 13.00000000
-4.16494131 0.23139803 -0.07281144 73 14 27318 4.17200000 888980728 888980728 -1.00000000
-1.95379889 0.11128685 -0.52436739 4 0 27326 2.02600000 888980751 888980751 -15.00000000
-4.19052649 0.23942286 0.07326520 7 1 27327 4.19800000 888980753 888980753 1.00000000
-2.21792459 0.12710796 -0.51288843 4 2 27328 2.28000000 888980756 888980756 -13.00000000
-4.32292128 0.24850106 0.22692871 13 3 27329 4.33600000 888980758 888980758 3.00000000
-2.61074471 0.15007743 -0.50831515 3 4 27329 2.66400000 888980760 888980760 -11.00000000
-4.79767466 0.27663219 0.42043930 9 5 27330 4.82400000 888980763 888980763 5.00000000
-3.13166499 0.18111907 -0.49683586 3 6 27331 3.17600000 888980765 888980765 -9.00000000
-3.91790104 0.22796305 -0.48187140 7 8 27333 3.95400000 888980770 888980770 -7.00000000
-16.23975945 0.94491035 2.57647562 16 9 27333 16.47000000 888980772 888980772 9.00000000
-5.18732548 0.30273291 -0.45460436 9 10 27334 5.21600000 888980774 888980774 -5.00000000
-12.88829994 0.75441980 2.50951982 50 11 27335 13.15200000 888980777 888980777 11.00000000
-4.22691059 0.24816352 -0.22190446 10 12 27336 4.24000000 888980779 888980779 -3.00000000
-12.12938309 0.71424502 2.80513954 50 13 27337 12.47000000 888980781 888980781 13.00000000
-4.15412712 0.24534549 -0.07263692 78 14 27338 4.16200000 888980783 888980783 -1.00000000
-9.36658478 0.55483717 2.51416826 6 15 27339 9.71400000 888980786 888980786 15.00000000
-1.95725513 0.11833938 -0.52540267 4 0 27346 2.03000000 888980806 888980806 -15.00000000
-4.19565344 0.25441217 0.07336992 7 1 27347 4.20400000 888980809 888980809 1.00000000
-2.22135758 0.13508576 -0.51378822 4 2 27348 2.28400000 888980811 888980811 -13.00000000
-4.30213737 0.26162270 0.22588199 14 3 27348 4.31600000 888980813 888980813 3.00000000
-2.60236669 0.15871167 -0.50678867 3 4 27349 2.65600000 888980816 888980816 -11.00000000
-4.78673649 0.29276934 0.41956773 9 5 27350 4.81400000 888980818 888980818 5.00000000
-3.13890052 0.19253327 -0.49808735 3 6 27351 3.18400000 888980820 888980820 -9.00000000
-3.91510010 0.24151546 -0.48162764 7 8 27353 3.95200000 888980825 888980825 -7.00000000
-16.23027229 1.00405979 2.57553697 16 9 27354 16.46400000 888980827 888980827 9.00000000
-5.17828274 0.32034615 -0.45390710 9 10 27354 5.20800000 888980830 888980830 -5.00000000
-12.89734459 0.80013317 2.51180959 50 11 27355 13.16400000 888980832 888980832 11.00000000
-4.22003841 0.26254463 -0.22159044 14 12 27356 4.23400000 888980834 888980834 -3.00000000
-12.12681675 0.75658011 2.80513954 50 13 27357 12.47000000 888980836 888980836 13.00000000
-4.14526224 0.25934514 -0.07249729 89 14 27358 4.15400000 888980839 888980839 -1.00000000
-10.21293736 0.64075404 2.74192905 28 15 27359 10.59400000 888980841 888980841 15.00000000
-1.94524097 0.12477034 -0.52229685 4 0 27367 2.01800000 888980862 888980862 -15.00000000
-4.18271923 0.26901820 0.07316048 7 1 27368 4.19200000 888980864 888980864 1.00000000
-2.23251581 0.14397904 -0.51648760 4 2 27369 2.29600000 888980866 888980866 -13.00000000
-4.29517031 0.27700344 0.22556797 7 3 27369 4.31000000 888980869 888980869 3.00000000
-2.61352229 0.16900891 -0.50907838 3 4 27370 2.66800000 888980871 888980871 -11.00000000
-4.78165483 0.31005380 0.41921914 9 5 27371 4.81000000 888980873 888980873 5.00000000
-3.13028884 0.20352396 -0.49683586 3 6 27372 3.17600000 888980876 888980876 -9.00000000
-3.92607379 0.25664032 -0.48309007 5 8 27374 3.96400000 888980880 888980880 -7.00000000
-16.22075653 1.06032133 2.57459831 16 9 27374 16.45800000 888980883 888980883 9.00000000
-5.18104982 0.33958396 -0.45425573 9 10 27375 5.21200000 888980885 888980885 -5.00000000
-12.89628410 0.84752762 2.51219130 46 11 27376 13.16600000 888980887 888980887 11.00000000
-4.21904755 0.27801010 -0.22159044 16 12 27377 4.23400000 888980889 888980889 -3.00000000
-12.13562870 0.80179286 2.80783916 50 13 27378 12.48200000 888980892 888980892 13.00000000
-4.14827442 0.27480090 -0.07256711 94 14 27379 4.15800000 888980894 888980894 -1.00000000
-8.68000221 0.57652515 2.33092427 6 15 27380 9.00600000 888980896 888980896 15.00000000
-1.94093871 0.13129896 -0.52126157 4 0 27387 2.01400000 888980917 888980917 -15.00000000
-4.17975950 0.28348166 0.07312559 7 1 27388 4.19000000 888980919 888980919 1.00000000
-2.22033405 0.15097788 -0.51378822 4 2 27389 2.28400000 888980922 888980922 -13.00000000
-4.30414057 0.29267216 0.22609133 5 3 27389 4.32000000 888980924 888980924 3.00000000
-2.62075138 0.17866491 -0.51060486 3 4 27390 2.67600000 888980926 888980926 -11.00000000
-4.80042076 0.32810161 0.42096224 9 5 27391 4.83000000 888980929 888980929 5.00000000
-3.12955928 0.21444948 -0.49683586 3 6 27392 3.17600000 888980931 888980931 -9.00000000
-3.93703651 0.27116171 -0.48455250 7 8 27394 3.97600000 888980936 888980936 -7.00000000
-6.03233719 0.41547462 0.95769179 7 9 27394 6.12200000 888980938 888980938 9.00000000
-5.19175911 0.35849062 -0.45530161 9 10 27395 5.22400000 888980940 888980940 -5.00000000
-12.88345432 0.89186102 2.51028323 50 11 27396 13.15600000 888980942 888980942 11.00000000
-4.20410442 0.29176766 -0.22085774 20 12 27397 4.22000000 888980945 888980945 -3.00000000
-12.13664436 0.84441978 2.80873895 48 13 27398 12.48600000 888980947 888980947 13.00000000
-4.15127993 0.28955770 -0.07263692 98 14 27399 4.16200000 888980949 888980949 -1.00000000
-8.58350754 0.60021728 2.30556011 9 15 27400 8.90800000 888980952 888980952 15.00000000
-1.94434667 0.13800818 -0.52229685 4 0 27406 2.01800000 888980972 888980972 -15.00000000
-4.18478060 0.29776648 0.07323030 7 1 27407 4.19600000 888980975 888980975 1.00000000
-2.22370887 0.15861724 -0.51468801 4 2 27408 2.28800000 888980977 888980977 -13.00000000
-4.28123236 0.30538046 0.22493994 5 3 27408 4.29800000 888980979 888980979 3.00000000
-2.62014437 0.18735464 -0.51060486 3 4 27409 2.67600000 888980982 888980982 -11.00000000
-4.81917953 0.34544307 0.42270535 9 5 27410 4.85000000 888980984 888980984 5.00000000
-3.14459324 0.22595891 -0.49933881 3 6 27411 3.19200000 888980986 888980986 -9.00000000
-3.92027617 0.28307217 -0.48260260 7 8 27413 3.96000000 888980991 888980991 -7.00000000
-16.22104454 1.17127621 2.57585001 12 9 27413 16.46600000 888980993 888980993 9.00000000
-5.19451618 0.37599280 -0.45565021 9 10 27414 5.22800000 888980995 888980995 -5.00000000
-12.88630009 0.93500543 2.51142788 50 11 27415 13.16200000 888980998 888980998 11.00000000
-4.19514561 0.30512783 -0.22043905 22 12 27416 4.21200000 888981000 888981000 -3.00000000
-12.11822891 0.88352805 2.80513954 47 13 27417 12.47000000 888981002 888981002 13.00000000
-4.15827417 0.30390528 -0.07277653 98 14 27418 4.17000000 888981005 888981005 -1.00000000
-8.57387257 0.62661690 2.30348945 6 15 27418 8.90000000 888981007 888981007 15.00000000
-1.96119165 0.14608590 -0.52695560 4 0 27426 2.03600000 888981028 888981028 -15.00000000
-4.18570995 0.31252116 0.07326520 7 1 27427 4.19800000 888981030 888981030 1.00000000
-2.22702813 0.16666934 -0.51558781 4 2 27428 2.29200000 888981032 888981032 -13.00000000
-4.26221466 0.31898138 0.22399789 7 3 27428 4.28000000 888981035 888981035 3.00000000
-2.60772800 0.19561835 -0.50831515 3 4 27429 2.66400000 888981037 888981037 -11.00000000
-4.81595755 0.36211365 0.42253104 9 5 27430 4.84800000 888981039 888981039 5.00000000
-3.12802720 0.23574658 -0.49683586 3 6 27431 3.17600000 888981041 888981041 -9.00000000
-3.90738750 0.29585549 -0.48114017 7 8 27433 3.94800000 888981046 888981046 -7.00000000
-16.20503807 1.22699618 2.57397270 16 9 27433 16.45400000 888981048 888981048 9.00000000
-5.20906544 0.39532894 -0.45704472 9 10 27434 5.24400000 888981051 888981051 -5.00000000
-12.90057659 0.98132151 2.51486254 53 11 27435 13.18000000 888981053 888981053 11.00000000
-4.19405508 0.31976977 -0.22043905 30 12 27436 4.21200000 888981055 888981055 -3.00000000
-12.10729885 0.92522919 2.80333996 47 13 27437 12.46200000 888981058 888981058 13.00000000
-4.14123726 0.31719676 -0.07249729 100 14 27438 4.15400000 888981060 888981060 -1.00000000
-10.20106983 0.78313857 2.74141121 28 15 27439 10.59200000 888981062 888981062 15.00000000
-1.95489180 0.15248017 -0.52540267 5 0 27446 2.03000000 888981083 888981083 -15.00000000
-4.19456148 0.32790938 0.07343972 7 1 27447 4.20800000 888981085 888981085 1.00000000
-2.23031831 0.17474654 -0.51648760 4 2 27448 2.29600000 888981088 888981088 -13.00000000
-4.26898146 0.33522645 0.22441658 15 3 27449 4.28800000 888981090 888981090 3.00000000
-2.60702920 0.20471983 -0.50831515 3 4 27449 2.66400000 888981092 888981092 -11.00000000
-4.82260895 0.37954757 0.42322829 9 5 27450 4.85600000 888981094 888981094 5.00000000
-3.13506222 0.24728532 -0.49808735 3 6 27451 3.18400000 888981097 888981097 -9.00000000
-3.93007779 0.31137446 -0.48406503 7 8 27453 3.97200000 888981101 888981101 -7.00000000
-6.03167725 0.47788119 0.95831752 7 9 27453 6.12600000 888981104 888981104 9.00000000
-5.19970894 0.41287875 -0.45634747 9 10 27454 5.23600000 888981106 888981106 -5.00000000
-12.91272926 1.02759290 2.51791549 53 11 27455 13.19600000 888981108 888981108 11.00000000
-4.20286798 0.33520174 -0.22096241 32 12 27456 4.22200000 888981111 888981111 -3.00000000
-12.10788059 0.96779644 2.80423975 48 13 27457 12.46600000 888981113 888981113 13.00000000
-4.13611841 0.33133107 -0.07242749 100 14 27458 4.15000000 888981115 888981115 -1.00000000
-10.20611954 0.81757927 2.74348187 42 15 27458 10.60000000 888981118 888981118 15.00000000
-1.94472027 0.15851834 -0.52281445 4 0 27466 2.02000000 888981138 888981138 -15.00000000
-4.17346096 0.34092104 0.07309068 7 1 27467 4.18800000 888981141 888981141 1.00000000
-2.24134827 0.18348473 -0.51918703 4 2 27468 2.30800000 888981143 888981143 -13.00000000
-4.26977587 0.35028926 0.22452125 17 3 27469 4.29000000 888981145 888981145 3.00000000
-2.61021209 0.21413986 -0.50907838 3 4 27469 2.66800000 888981147 888981147 -11.00000000
-4.81529760 0.39588952 0.42270535 9 5 27470 4.85000000 888981150 888981150 5.00000000
-3.14205480 0.25887603 -0.49933881 4 6 27471 3.19200000 888981152 888981152 -9.00000000
-3.92896700 0.32509106 -0.48406503 7 8 27473 3.97200000 888981157 888981157 -7.00000000
-6.03775978 0.50063813 0.95956904 7 9 27474 6.13400000 888981159 888981159 9.00000000
-5.19029379 0.43036804 -0.45565021 9 10 27474 5.22800000 888981161 888981161 -5.00000000
-12.89341164 1.07135987 2.51486254 53 11 27475 13.18000000 888981164 888981164 11.00000000
-4.20764351 0.35036767 -0.22127642 38 12 27476 4.22800000 888981166 888981166 -3.00000000
-12.09277630 1.00908267 2.80154037 48 13 27477 12.45400000 888981168 888981168 13.00000000
-4.14290762 0.34643334 -0.07256711 100 14 27478 4.15800000 888981171 888981171 -1.00000000
-10.18957806 0.85385185 2.73985839 45 15 27479 10.58600000 888981173 888981173 15.00000000
-1.94418395 0.16496639 -0.52281445 5 0 27485 2.02000000 888981194 888981194 -15.00000000
-4.16433716 0.35408118 0.07295106 7 1 27486 4.18000000 888981196 888981196 1.00000000
-2.22131038 0.18926191 -0.51468801 4 2 27487 2.28800000 888981198 888981198 -13.00000000
-4.25068092 0.36291727 0.22357920 17 3 27488 4.27200000 888981200 888981200 3.00000000
-2.61144376 0.22296147 -0.50946003 3 4 27488 2.67000000 888981203 888981203 -11.00000000
-4.80601788 0.41117612 0.42200810 9 5 27489 4.84200000 888981205 888981205 5.00000000
-3.12936997 0.26828164 -0.49746159 3 6 27490 3.18000000 888981207 888981207 -9.00000000
-3.93577838 0.33879921 -0.48503998 5 8 27492 3.98000000 888981212 888981212 -7.00000000
-6.04206181 0.52011204 0.96050763 5 9 27492 6.14000000 888981214 888981214 9.00000000
-5.18883801 0.44757730 -0.45565021 9 10 27493 5.22800000 888981217 888981217 -5.00000000
-12.79003334 1.10548794 2.49539995 12 11 27494 13.07800000 888981219 888981219 11.00000000
-4.19849920 0.36362943 -0.22085774 38 12 27495 4.22000000 888981221 888981221 -3.00000000
-12.08936405 1.04917824 2.80154037 48 13 27496 12.45400000 888981224 888981224 13.00000000
-4.14572001 0.36051631 -0.07263692 100 14 27497 4.16200000 888981226 888981226 -1.00000000
-10.19646835 0.88669592 2.74244666 47 15 27497 10.59600000 888981228 888981228 15.00000000
-1.96091545 0.17328233 -0.52747321 6 0 27505 2.03800000 888981249 888981249 -15.00000000
-4.17104340 0.36932078 0.07309068 7 1 27506 4.18800000 888981251 888981251 1.00000000
-2.22063637 0.19701459 -0.51468801 4 2 27507 2.28800000 888981253 888981253 -13.00000000
-4.24143028 0.37704530 0.22316052 15 3 27508 4.26400000 888981256 888981256 3.00000000
-2.62042737 0.23294495 -0.51136810 3 4 27508 2.68000000 888981258 888981258 -11.00000000
-4.81844521 0.42918709 0.42322829 9 5 27509 4.85600000 888981260 888981260 5.00000000
-3.12447929 0.27885234 -0.49683586 3 6 27510 3.17600000 888981263 888981263 -9.00000000
-3.92270875 0.35147265 -0.48357755 5 8 27512 3.96800000 888981267 888981267 -7.00000000
-6.04798460 0.54296035 0.96175909 5 9 27513 6.14800000 888981270 888981270 9.00000000
-5.20708847 0.46746853 -0.45739335 9 10 27513 5.24800000 888981272 888981272 -5.00000000
-12.51821232 1.12603021 2.44311833 9 11 27514 12.80400000 888981274 888981274 11.00000000
-4.18924761 0.37756559 -0.22043905 40 12 27515 4.21200000 888981276 888981276 -3.00000000
-12.06816006 1.08979416 2.79749131 53 13 27516 12.43600000 888981279 888981279 13.00000000
-4.14443636 0.37498537 -0.07263692 100 14 27517 4.16200000 888981281 888981281 -1.00000000
-10.19507408 0.92423630 2.74296427 45 15 27518 10.59800000 888981283 888981283 15.00000000
-1.96222234 0.18030290 -0.52799088 5 0 27525 2.04000000 888981304 888981304 -15.00000000
-4.16574621 0.38351154 0.07302087 7 1 27526 4.18400000 888981306 888981306 1.00000000
-2.22769713 0.20548081 -0.51648760 4 2 27527 2.29600000 888981309 888981309 -13.00000000
-4.24406624 0.39221594 0.22336987 15 3 27528 4.26800000 888981311 888981311 3.00000000
-2.61764336 0.24190986 -0.51098651 3 4 27528 2.67800000 888981313 888981313 -11.00000000
-4.82485294 0.44673875 0.42392552 9 5 27529 4.86400000 888981316 888981316 5.00000000
-3.14315629 0.29158178 -0.49996457 3 6 27530 3.19600000 888981318 888981318 -9.00000000
-3.91355181 0.36442712 -0.48260260 7 8 27532 3.96000000 888981323 888981323 -7.00000000
-12.47190666 1.16137493 1.98390186 23 9 27532 12.68200000 888981325 888981325 9.00000000
-5.21335983 0.48638210 -0.45809057 9 10 27533 5.25600000 888981327 888981327 -5.00000000
-12.45556355 1.16423869 2.43166995 43 11 27534 12.74400000 888981329 888981329 11.00000000
-4.19188118 0.39255893 -0.22064839 38 12 27535 4.21600000 888981332 888981332 -3.00000000
-11.99443436 1.12535989 2.78129482 57 13 27536 12.36400000 888981334 888981334 13.00000000
-4.13513851 0.38870129 -0.07249729 100 14 27537 4.15400000 888981336 888981336 -1.00000000
-10.20541668 0.95930493 2.74658775 47 15 27537 10.61200000 888981339 888981339 15.00000000
-1.95196545 0.18623383 -0.52540267 5 0 27545 2.03000000 888981359 888981359 -15.00000000
-4.16239166 0.39786008 0.07298596 7 1 27546 4.18200000 888981362 888981362 1.00000000
-2.22696614 0.21325567 -0.51648760 4 2 27547 2.29600000 888981364 888981364 -13.00000000
-4.23670673 0.40645590 0.22305584 15 3 27548 4.26200000 888981366 888981366 3.00000000
-2.60896587 0.25029573 -0.50946003 3 4 27548 2.67000000 888981369 888981369 -11.00000000
-4.81334829 0.46262485 0.42305398 9 5 27549 4.85400000 888981371 888981371 5.00000000
-3.14998436 0.30330899 -0.50121605 3 6 27550 3.20400000 888981373 888981373 -9.00000000
-3.92411113 0.37923145 -0.48406503 7 8 27552 3.97200000 888981378 888981378 -7.00000000
-12.46756649 1.20707893 1.98390186 60 9 27553 12.68200000 888981380 888981380 9.00000000
-5.19973183 0.50342518 -0.45704472 9 10 27553 5.24400000 888981382 888981382 -5.00000000
-12.45923996 1.20846784 2.43319631 59 11 27554 12.75200000 888981385 888981385 11.00000000
-4.20638847 0.40873426 -0.22148576 28 12 27555 4.23200000 888981387 888981387 -3.00000000
-11.83914661 1.15249431 2.74620247 55 13 27556 12.20800000 888981389 888981389 13.00000000
-4.12181520 0.40196869 -0.07228786 100 14 27557 4.14200000 888981392 888981392 -1.00000000
-10.19414139 0.99595183 2.74451709 47 15 27558 10.60400000 888981394 888981394 15.00000000
-1.94169116 0.19209535 -0.52281445 4 0 27565 2.02000000 888981415 888981415 -15.00000000
-4.15699768 0.41199267 0.07291616 7 1 27566 4.17800000 888981417 888981417 1.00000000
-2.23396516 0.22179806 -0.51828724 4 2 27567 2.30400000 888981419 888981419 -13.00000000
-4.23128700 0.42084694 0.22284651 14 3 27568 4.25800000 888981422 888981422 3.00000000
-2.61393714 0.25998411 -0.51060486 3 4 27568 2.67600000 888981424 888981424 -11.00000000
-4.81368637 0.47962129 0.42322829 9 5 27569 4.85600000 888981426 888981426 5.00000000
-3.14104414 0.31351787 -0.49996457 3 6 27570 3.19600000 888981429 888981429 -9.00000000
-3.91881299 0.39253116 -0.48357755 7 8 27572 3.96800000 888981433 888981433 -7.00000000
-12.47135735 1.24920380 1.98515332 70 9 27572 12.69000000 888981435 888981435 9.00000000
-5.19001293 0.52077687 -0.45634747 13 10 27573 5.23600000 888981438 888981438 -5.00000000
-12.46861935 1.25332582 2.43586755 84 11 27574 12.76600000 888981440 888981440 11.00000000
-4.20692348 0.42361492 -0.22159044 14 12 27575 4.23400000 888981442 888981442 -3.00000000
-11.64891720 1.17503798 2.70301175 55 13 27576 12.01600000 888981445 888981445 13.00000000
-4.12436581 0.41675615 -0.07235768 100 14 27577 4.14600000 888981447 888981447 -1.00000000
-10.18693829 1.02936292 2.74348187 47 15 27577 10.60000000 888981449 888981449 15.00000000
-1.94293058 0.19906886 -0.52333212 4 0 27585 2.02200000 888981470 888981470 -15.00000000
-4.15951252 0.42690912 0.07298596 7 1 27586 4.18200000 888981472 888981472 1.00000000
-2.22930026 0.22919610 -0.51738745 4 2 27587 2.30000000 888981475 888981475 -13.00000000
-4.24966002 0.43766043 0.22389323 14 3 27588 4.27800000 888981477 888981477 3.00000000
-2.61301351 0.26910686 -0.51060486 3 4 27588 2.67600000 888981479 888981479 -11.00000000
-4.81396484 0.49662572 0.42340261 9 5 27589 4.85800000 888981482 888981482 5.00000000
-3.13207102 0.32366803 -0.49871308 3 6 27590 3.18800000 888981484 888981484 -9.00000000
-3.92531705 0.40702695 -0.48455250 5 8 27592 3.97600000 888981488 888981488 -7.00000000
-12.47258949 1.29551744 1.98609197 77 9 27593 12.69600000 888981491 888981491 9.00000000
-5.19212675 0.53930187 -0.45669609 13 10 27593 5.24000000 888981493 888981493 -5.00000000
-12.46026325 1.29643536 2.43510437 87 11 27594 12.76200000 888981495 888981495 11.00000000
-4.20144606 0.43788317 -0.22138110 14 12 27595 4.23000000 888981498 888981498 -3.00000000
-11.48193550 1.19869614 2.66522002 55 13 27596 11.84800000 888981500 888981500 13.00000000
-4.12686396 0.43156630 -0.07242749 100 14 27597 4.15000000 888981502 888981502 -1.00000000
-10.19078255 1.06749797 2.74555254 45 15 27598 10.60800000 888981505 888981505 15.00000000
-1.94990814 0.20666417 -0.52540267 4 0 27605 2.03000000 888981525 888981525 -15.00000000
-4.15600872 0.44121483 0.07295106 7 1 27606 4.18000000 888981528 888981528 1.00000000
-2.22848654 0.23697641 -0.51738745 4 2 27607 2.30000000 888981530 888981530 -13.00000000
-4.24016237 0.45164567 0.22347453 14 3 27608 4.27000000 888981532 888981532 3.00000000
-2.62962818 0.28009781 -0.51403946 3 4 27608 2.69400000 888981535 888981535 -11.00000000
-4.82408857 0.51469481 0.42444846 9 5 27609 4.87000000 888981537 888981537 5.00000000
-3.13485050 0.33501887 -0.49933881 3 6 27610 3.19200000 888981539 888981539 -9.00000000
-3.91202974 0.41945657 -0.48309007 7 8 27612 3.96400000 888981544 888981544 -7.00000000
-12.49375820 1.33960867 1.99015927 94 9 27612 12.72200000 888981546 888981546 9.00000000
-5.19813681 0.55827355 -0.45739335 13 10 27613 5.24800000 888981548 888981548 -5.00000000
-12.46932602 1.34139180 2.43777561 96 11 27614 12.77600000 888981551 888981551 11.00000000
-4.18003416 0.45040658 -0.22033438 16 12 27615 4.21000000 888981553 888981553 -3.00000000
-11.29361916 1.21890283 2.62247944 52 13 27616 11.65800000 888981555 888981555 13.00000000
-4.13328457 0.44682881 -0.07256711 100 14 27617 4.15800000 888981558 888981558 -1.00000000
-10.20639324 1.10336232 2.75072885 47 15 27617 10.62800000 888981560 888981560 15.00000000
-1.94533420 0.21304874 -0.52436739 4 0 27625 2.02600000 888981581 888981581 -15.00000000
-4.16040659 0.45637345 0.07305577 7 1 27626 4.18600000 888981583 888981583 1.00000000
-4.14729548 0.45566782 -0.96324039 5 2 27627 4.28200000 888981585 888981585 -13.00000000
-4.22466278 0.46491453 0.22274183 14 3 27628 4.25600000 888981588 888981588 3.00000000
-2.62668300 0.28906047 -0.51365781 3 4 27628 2.69200000 888981590 888981590 -11.00000000
-4.83612537 0.53305888 0.42566866 9 5 27629 4.88400000 888981592 888981592 5.00000000
-3.12580800 0.34509242 -0.49808735 3 6 27630 3.18400000 888981594 888981594 -9.00000000
-7.26285648 0.80310994 0.89720213 2 7 27631 7.36200000 888981597 888981597 7.00000000
-3.91843367 0.43398362 -0.48406503 5 8 27632 3.97200000 888981599 888981599 -7.00000000
-12.47722626 1.38190722 1.98828208 94 9 27632 12.71000000 888981601 888981601 9.00000000
-5.19615650 0.57641500 -0.45739335 13 10 27633 5.24800000 888981604 888981604 -5.00000000
-12.47822666 1.38642728 2.44044709 100 11 27634 12.79000000 888981606 888981606 11.00000000
-4.17843676 0.46499488 -0.22033438 26 12 27635 4.21000000 888981608 888981608 -3.00000000
-11.09562111 1.23673034 2.57748914 48 13 27636 11.45800000 888981611 888981611 13.00000000
-4.12772512 0.46081021 -0.07249729 100 14 27637 4.15400000 888981613 888981613 -1.00000000
-10.21783924 1.14069724 2.75486994 45 15 27637 10.64400000 888981615 888981615 15.00000000
-1.94649827 0.22005494 -0.52488500 4 0 27645 2.02800000 888981636 888981636 -15.00000000
-4.16474915 0.47156817 0.07316048 8 1 27646 4.19200000 888981638 888981638 1.00000000
-4.13406134 0.46882427 -0.96054101 8 2 27647 4.27000000 888981641 888981641 -13.00000000
-4.23492146 0.48101094 0.22336987 14 3 27648 4.26800000 888981643 888981643 3.00000000
-2.61395383 0.29689816 -0.51136810 3 4 27648 2.68000000 888981645 888981645 -11.00000000
-4.82037783 0.54836047 0.42444846 9 5 27649 4.87000000 888981647 888981647 5.00000000
-3.14813662 0.35868487 -0.50184178 3 6 27650 3.20800000 888981650 888981650 -9.00000000
-7.26000881 0.82845712 0.89720213 2 7 27651 7.36200000 888981652 888981652 7.00000000
-3.92872858 0.44901133 -0.48552746 5 8 27652 3.98400000 888981654 888981654 -7.00000000
-12.48188972 1.42875242 1.98984635 100 9 27653 12.72000000 888981657 888981657 9.00000000
-5.20203066 0.59545583 -0.45809057 9 10 27653 5.25600000 888981659 888981659 -5.00000000
-12.49671650 1.43265939 2.44502640 93 11 27654 12.81400000 888981661 888981661 11.00000000
-4.18670893 0.48071665 -0.22085774 36 12 27655 4.22000000 888981664 888981664 -3.00000000
-10.92861462 1.25675273 2.53969741 50 13 27656 11.29000000 888981666 888981666 13.00000000
-4.11019897 0.47338545 -0.07221806 100 14 27657 4.13800000 888981668 888981668 -1.00000000
-10.21571445 1.17657828 2.75538754 47 15 27657 10.64600000 888981670 888981670 15.00000000
-1.94763708 0.22707187 -0.52540267 4 0 27665 2.03000000 888981691 888981691 -15.00000000
-4.14917421 0.48447955 0.07291616 7 1 27666 4.17800000 888981694 888981694 1.00000000
-4.14207745 0.48438370 -0.96279049 5 2 27667 4.28000000 888981696 888981696 -13.00000000
-4.23321629 0.49579063 0.22336987 14 3 27668 4.26800000 888981698 888981698 3.00000000
-2.61290145 0.30602077 -0.51136810 3 4 27668 2.68000000 888981700 888981700 -11.00000000
-4.82634974 0.56611186 0.42514572 9 5 27669 4.87800000 888981703 888981703 5.00000000
-3.13509417 0.36828890 -0.49996457 3 6 27670 3.19600000 888981705 888981705 -9.00000000
-3.93108010 0.46318698 -0.48601493 5 8 27672 3.98800000 888981710 888981710 -7.00000000
-12.49055862 1.47393417 1.99203646 100 9 27673 12.73400000 888981712 888981712 9.00000000
-5.18804836 0.61220974 -0.45704472 13 10 27673 5.24400000 888981714 888981714 -5.00000000
-12.50333786 1.47765481 2.44731617 100 11 27674 12.82600000 888981717 888981717 11.00000000
-4.20483971 0.49767557 -0.22190446 36 12 27675 4.24000000 888981719 888981719 -3.00000000
-10.77708626 1.27745950 2.50550485 57 13 27676 11.13800000 888981721 888981721 13.00000000
-4.11646461 0.48867276 -0.07235768 100 14 27677 4.14600000 888981723 888981723 -1.00000000
-10.20366001 1.21310055 2.75331712 47 15 27678 10.63800000 888981726 888981726 15.00000000
-1.94107842 0.23317777 -0.52384973 4 0 27685 2.02400000 888981747 888981747 -15.00000000
-4.14547253 0.49872106 0.07288125 8 1 27686 4.17600000 888981749 888981749 1.00000000
-4.14810038 0.49977171 -0.96459013 5 2 27687 4.28800000 888981751 888981751 -13.00000000
-4.24137449 0.51176059 0.22389323 14 3 27688 4.27800000 888981753 888981753 3.00000000
-2.61766458 0.31584516 -0.51251298 3 4 27688 2.68600000 888981756 888981756 -11.00000000
-4.83027840 0.58367252 0.42566866 9 5 27689 4.88400000 888981758 888981758 5.00000000
-3.14947796 0.38112870 -0.50246751 3 6 27690 3.21200000 888981760 888981760 -9.00000000
-3.93338060 0.47738454 -0.48650241 7 8 27692 3.99200000 888981765 888981765 -7.00000000
-12.50690842 1.52014709 1.99547803 100 9 27693 12.75600000 888981767 888981767 9.00000000
-5.19379091 0.63127726 -0.45774198 9 10 27693 5.25200000 888981770 888981770 -5.00000000
-12.49420547 1.52081609 2.44655299 100 11 27694 12.82200000 888981772 888981772 11.00000000
-4.18721628 0.51041681 -0.22106709 38 12 27695 4.22400000 888981774 888981774 -3.00000000
-10.70872688 1.30727816 2.49065804 60 13 27696 11.07200000 888981776 888981776 13.00000000
-4.11870337 0.50352424 -0.07242749 100 14 27697 4.15000000 888981779 888981779 -1.00000000
-10.21492195 1.24880588 2.75745821 47 15 27697 10.65400000 888981781 888981781 15.00000000
-1.95175612 0.24137461 -0.52695560 4 0 27705 2.03600000 888981802 888981802 -15.00000000
-4.14966011 0.51392579 0.07298596 7 1 27706 4.18200000 888981804 888981804 1.00000000
-4.13666105 0.51304895 -0.96234059 5 2 27707 4.27800000 888981806 888981806 -13.00000000
-4.23758030 0.52631640 0.22378854 14 3 27708 4.27600000 888981809 888981809 3.00000000
-2.62628770 0.32619050 -0.51442105 3 4 27708 2.69600000 888981811 888981811 -11.00000000
-4.84205151 0.60225123 0.42688882 9 5 27709 4.89800000 888981813 888981813 5.00000000
-3.12852597 0.38967851 -0.49933881 3 6 27710 3.19200000 888981816 888981816 -9.00000000
-3.92775083 0.49061960 -0.48601493 5 8 27712 3.98800000 888981820 888981820 -7.00000000
-12.51328659 1.56526625 1.99735522 100 9 27713 12.76800000 888981823 888981823 9.00000000
-5.20737171 0.65138149 -0.45913646 9 10 27713 5.26800000 888981825 888981825 -5.00000000
-12.50830173 1.56685996 2.45036912 100 11 27714 12.84200000 888981827 888981827 11.00000000
-4.18937254 0.52552700 -0.22127642 36 12 27715 4.22800000 888981829 888981829 -3.00000000
-10.64609241 1.33736384 2.47716093 60 13 27716 11.01200000 888981832 888981832 13.00000000
-4.12882519 0.51939571 -0.07263692 100 14 27717 4.16200000 888981834 888981834 -1.00000000
-10.22200108 1.28590167 2.76056385 47 15 27717 10.66600000 888981836 888981836 15.00000000
-1.95090175 0.24818605 -0.52695560 4 0 27725 2.03600000 888981857 888981857 -15.00000000
-4.15775919 0.52967119 0.07316048 7 1 27726 4.19200000 888981859 888981859 1.00000000
-4.14257717 0.52847189 -0.96414024 5 2 27727 4.28600000 888981862 888981862 -13.00000000
-4.22392416 0.53884941 0.22316052 14 3 27727 4.26400000 888981864 888981864 3.00000000
-2.61734319 0.33436084 -0.51289457 3 4 27728 2.68800000 888981866 888981866 -11.00000000
-4.85375404 0.62091917 0.42810902 9 5 27729 4.91200000 888981869 888981869 5.00000000
-3.14282179 0.40260476 -0.50184178 3 6 27730 3.20800000 888981871 888981871 -9.00000000
-7.24773407 0.92974192 0.89720213 2 7 27731 7.36200000 888981873 888981873 7.00000000
-3.91813850 0.50331533 -0.48503998 7 8 27732 3.98000000 888981875 888981875 -7.00000000
-12.51586437 1.60775995 1.99860668 100 9 27732 12.77600000 888981878 888981878 9.00000000
-5.21297073 0.67057145 -0.45983371 9 10 27733 5.27600000 888981880 888981880 -5.00000000
-12.52222729 1.61302078 2.45418525 87 11 27734 12.86200000 888981882 888981882 11.00000000
-4.18751240 0.54014742 -0.22127642 36 12 27735 4.22800000 888981885 888981885 -3.00000000
-10.61816692 1.37152183 2.47176218 57 13 27736 10.98800000 888981887 888981887 13.00000000
-4.11508799 0.53226572 -0.07242749 100 14 27737 4.15000000 888981889 888981889 -1.00000000
-10.22511387 1.32256651 2.76263452 47 15 27737 10.67400000 888981892 888981892 15.00000000
-1.94810796 0.25474396 -0.52643794 4 0 27745 2.03400000 888981912 888981912 -15.00000000
-4.15588474 0.54418123 0.07316048 8 1 27746 4.19200000 888981915 888981915 1.00000000
-4.14843607 0.54394239 -0.96593982 5 2 27747 4.29400000 888981917 888981917 -13.00000000
-4.22984219 0.55536723 0.22357920 14 3 27748 4.27200000 888981919 888981919 3.00000000
-2.60837412 0.34247273 -0.51136810 3 4 27748 2.68000000 888981922 888981922 -11.00000000
-4.85155678 0.63785815 0.42810902 9 5 27749 4.91200000 888981924 888981924 5.00000000
-3.14923120 0.41460413 -0.50309324 3 6 27750 3.21600000 888981926 888981926 -9.00000000
-3.92029381 0.51750869 -0.48552746 7 8 27752 3.98400000 888981931 888981931 -7.00000000
-12.50792885 1.65336323 1.99829388 97 9 27753 12.77400000 888981933 888981933 9.00000000
-5.20664787 0.68824184 -0.45948508 9 10 27753 5.27200000 888981935 888981935 -5.00000000
-12.51652050 1.65672171 2.45418525 81 11 27754 12.86200000 888981938 888981938 11.00000000
-4.19748116 0.55633581 -0.22190446 34 12 27755 4.24000000 888981940 888981940 -3.00000000
-10.59786034 1.40652668 2.46816301 60 13 27756 10.97200000 888981942 888981942 13.00000000
-4.11320496 0.54662681 -0.07242749 100 14 27757 4.15000000 888981945 888981945 -1.00000000
-10.17040825 1.35340893 2.74917579 49 15 27758 10.62200000 888981947 888981947 15.00000000
-1.93950272 0.26085240 -0.52436739 4 0 27766 2.02600000 888981968 888981968 -15.00000000
-4.15188074 0.55914277 0.07312559 7 1 27767 4.19000000 888981970 888981970 1.00000000
-4.14834595 0.55940396 -0.96638972 5 2 27768 4.29600000 888981972 888981972 -13.00000000
-4.23183632 0.57066262 0.22378854 14 3 27768 4.27600000 888981975 888981975 3.00000000
-2.61293817 0.35281873 -0.51251298 3 4 27769 2.68600000 888981977 888981977 -11.00000000
-4.83931446 0.65430093 0.42723745 9 5 27770 4.90200000 888981979 888981979 5.00000000
-3.14377522 0.42561385 -0.50246751 3 6 27771 3.21200000 888981981 888981981 -9.00000000
-3.92623901 0.53294182 -0.48650241 5 8 27773 3.99200000 888981986 888981986 -7.00000000
-12.51744461 1.70132422 2.00079679 97 9 27774 12.79000000 888981988 888981988 9.00000000
-5.19224501 0.70571053 -0.45843920 9 10 27774 5.26000000 888981991 888981991 -5.00000000
-12.51425552 1.70311534 2.45494843 84 11 27775 12.86600000 888981993 888981993 11.00000000
-4.19541407 0.57171661 -0.22190446 36 12 27776 4.24000000 888981995 888981995 -3.00000000
-10.59649563 1.44588733 2.46906281 62 13 27777 10.97600000 888981998 888981998 13.00000000
-4.11909866 0.56278157 -0.07256711 100 14 27778 4.15800000 888982000 888982000 -1.00000000
-10.02589512 1.36981153 2.71138835 47 15 27778 10.47600000 888982002 888982002 15.00000000
-1.95006263 0.26920608 -0.52747321 4 0 27786 2.03800000 888982023 888982023 -15.00000000
-4.14594173 0.57308453 0.07305577 8 1 27787 4.18600000 888982025 888982025 1.00000000
-2.22761106 0.30831406 -0.51918703 4 2 27788 2.30800000 888982027 888982027 -13.00000000
-4.23773241 0.58652627 0.22420724 14 3 27788 4.28400000 888982030 888982030 3.00000000
-2.61752462 0.36274591 -0.51365781 3 4 27789 2.69200000 888982032 888982032 -11.00000000
-4.85081530 0.67310625 0.42845762 9 5 27790 4.91600000 888982034 888982034 5.00000000
-3.11096525 0.43223554 -0.49746159 3 6 27791 3.18000000 888982037 888982037 -9.00000000
-3.93221927 0.54773921 -0.48747736 8 8 27793 4.00000000 888982041 888982041 -7.00000000
-12.53490639 1.74828243 2.00455117 100 9 27794 12.81400000 888982044 888982044 9.00000000
-5.19764280 0.72493142 -0.45913646 9 10 27794 5.26800000 888982046 888982046 -5.00000000
-12.51212311 1.74733102 2.45571184 84 11 27795 12.87000000 888982048 888982048 11.00000000
-4.18943691 0.58580470 -0.22169511 36 12 27796 4.23600000 888982051 888982051 -3.00000000
-10.59138393 1.48286712 2.46906281 59 13 27797 10.97600000 888982053 888982053 13.00000000
-4.12503052 0.57826698 -0.07270672 100 14 27798 4.16600000 888982055 888982055 -1.00000000
-9.89095783 1.38656294 2.67618895 42 15 27798 10.34000000 888982057 888982057 15.00000000
-1.94538152 0.27479064 -0.52643794 4 0 27804 2.03400000 888982078 888982078 -15.00000000
-4.15402079 0.58750665 0.07323030 8 1 27805 4.19600000 888982080 888982080 1.00000000
-2.23434949 0.31640372 -0.52098662 4 2 27806 2.31600000 888982083 888982083 -13.00000000
-4.23774147 0.60085624 0.22431190 15 3 27807 4.28600000 888982085 888982085 3.00000000
-2.62025976 0.37151852 -0.51442105 3 4 27807 2.69600000 888982087 888982087 -11.00000000
-4.85853958 0.68974239 0.42932919 9 5 27808 4.92600000 888982090 888982090 5.00000000
-3.14479494 0.44701061 -0.50309324 3 6 27809 3.21600000 888982092 888982092 -9.00000000
-3.93047905 0.56008989 -0.48747736 8 8 27811 4.00000000 888982097 888982097 -7.00000000
-12.53748608 1.78658116 2.00580263 94 9 27811 12.82200000 888982099 888982099 9.00000000
-5.20322943 0.74238235 -0.45983371 9 10 27812 5.27600000 888982101 888982101 -5.00000000
-12.52600670 1.78940666 2.45952797 90 11 27813 12.89000000 888982104 888982104 11.00000000
-4.18362141 0.59839767 -0.22148576 38 12 27814 4.23200000 888982106 888982106 -3.00000000
-10.57509899 1.51447606 2.46636343 60 13 27815 10.96400000 888982108 888982108 13.00000000
-4.13111115 0.59235859 -0.07284635 100 14 27816 4.17400000 888982110 888982110 -1.00000000
-9.74862385 1.39958823 2.63891888 45 15 27817 10.19600000 888982113 888982113 15.00000000
-1.95396996 0.28296396 -0.52902615 4 0 27824 2.04400000 888982133 888982133 -15.00000000
-4.15590286 0.60257721 0.07330011 7 1 27825 4.20000000 888982136 888982136 1.00000000
-2.22358871 0.32280129 -0.51873714 4 2 27826 2.30600000 888982138 888982138 -13.00000000
-4.22979593 0.61404502 0.22399789 14 3 27826 4.28000000 888982140 888982140 3.00000000
-2.61506128 0.38009790 -0.51365781 3 4 27827 2.69200000 888982143 888982143 -11.00000000
-4.86793232 0.70841920 0.43037507 9 5 27828 4.93800000 888982145 888982145 5.00000000
-3.13930583 0.45741564 -0.50246751 3 6 27829 3.21200000 888982147 888982147 -9.00000000
-3.92064285 0.57265884 -0.48650241 5 8 27831 3.99200000 888982152 888982152 -7.00000000
-12.53867245 1.83366466 2.00705409 94 9 27832 12.83000000 888982154 888982154 9.00000000
-5.21637774 0.76284695 -0.46122819 9 10 27832 5.29200000 888982157 888982157 -5.00000000
-12.53328228 1.83511066 2.46219921 100 11 27833 12.90400000 888982159 888982159 11.00000000
-4.18150711 0.61299759 -0.22148576 36 12 27834 4.23200000 888982161 888982161 -3.00000000
-10.55432320 1.54911685 2.46276402 64 13 27835 10.94800000 888982163 888982163 13.00000000
-4.12506151 0.60619378 -0.07277653 99 14 27836 4.17000000 888982166 888982166 -1.00000000
-9.61562443 1.41476774 2.60423732 47 15 27837 10.06200000 888982168 888982168 15.00000000
-1.93768287 0.28751451 -0.52488500 4 0 27844 2.02800000 888982189 888982189 -15.00000000
-4.15970802 0.61796188 0.07340482 8 1 27845 4.20600000 888982191 888982191 1.00000000
-4.13456392 0.61496407 -0.96504003 5 2 27846 4.29000000 888982193 888982193 -13.00000000
-4.23355341 0.62968749 0.22431190 14 3 27846 4.28600000 888982196 888982196 3.00000000
-2.60789299 0.38835633 -0.51251298 3 4 27847 2.68600000 888982198 888982198 -11.00000000
-4.87725353 0.72716999 0.43142092 9 5 27848 4.95000000 888982200 888982200 5.00000000
-3.14941239 0.47012091 -0.50434470 3 6 27849 3.22400000 888982203 888982203 -9.00000000
-3.92647314 0.58751595 -0.48747736 6 8 27851 4.00000000 888982207 888982207 -7.00000000
-12.53643036 1.87581897 2.00767994 97 9 27851 12.83400000 888982210 888982210 9.00000000
-5.20186090 0.77927977 -0.46018231 9 10 27852 5.28000000 888982212 888982212 -5.00000000
-12.53844929 1.88059604 2.46448898 96 11 27853 12.91600000 888982214 888982214 11.00000000
-4.19119263 0.62936962 -0.22211380 34 12 27854 4.24400000 888982216 888982216 -3.00000000
-10.55270576 1.58652830 2.46366405 60 13 27855 10.95200000 888982219 888982219 13.00000000
-4.10710096 0.61820805 -0.07249729 87 14 27856 4.15400000 888982221 888982221 -1.00000000
-9.47308636 1.42759657 2.56696725 38 15 27857 9.91800000 888982223 888982223 15.00000000
-1.93857741 0.29456675 -0.52540267 4 0 27864 2.03000000 888982244 888982244 -15.00000000
-4.15357161 0.63187671 0.07333501 8 1 27865 4.20200000 888982246 888982246 1.00000000
-4.13624477 0.62997949 -0.96593982 5 2 27866 4.29400000 888982249 888982249 -13.00000000
-4.22540617 0.64355934 0.22399789 14 3 27866 4.28000000 888982251 888982251 3.00000000
-2.61622548 0.39893696 -0.51442105 3 4 27867 2.69600000 888982253 888982253 -11.00000000
-4.87271595 0.74388963 0.43124661 9 5 27868 4.94800000 888982256 888982256 5.00000000
-3.15165758 0.48170847 -0.50497043 3 6 27869 3.22800000 888982258 888982258 -9.00000000
-3.92832279 0.60181952 -0.48796484 8 8 27871 4.00400000 888982263 888982263 -7.00000000
-12.54152107 1.92136264 2.00955725 54 9 27871 12.84600000 888982265 888982265 9.00000000
-5.19516993 0.79682875 -0.45983371 9 10 27872 5.27600000 888982267 888982267 -5.00000000
-12.56479740 1.92941761 2.47097659 34 11 27873 12.95000000 888982269 888982269 11.00000000
-4.19686651 0.64520973 -0.22253248 34 12 27874 4.25200000 888982272 888982272 -3.00000000
-10.53939915 1.62216866 2.46186423 62 13 27875 10.94400000 888982274 888982274 13.00000000
-4.10887098 0.63314986 -0.07256711 75 14 27876 4.15800000 888982276 888982276 -1.00000000
-9.34776211 1.44209862 2.53435612 45 15 27877 9.79200000 888982279 888982279 15.00000000
-1.94326413 0.30222249 -0.52695560 4 0 27884 2.03600000 888982299 888982299 -15.00000000
-4.14936495 0.64606392 0.07330011 8 1 27885 4.20000000 888982302 888982302 1.00000000
-2.23356509 0.34816957 -0.52188647 4 2 27886 2.32000000 888982304 888982304 -13.00000000
-4.24484158 0.66168863 0.22514929 12 3 27886 4.30200000 888982306 888982306 3.00000000
-2.60899782 0.40715870 -0.51327622 3 4 27887 2.69000000 888982309 888982309 -11.00000000
-4.88583755 0.76335454 0.43264112 9 5 27888 4.96400000 888982311 888982311 5.00000000
-3.14605355 0.49209630 -0.50434470 3 6 27889 3.22400000 888982313 888982313 -9.00000000
-3.93404269 0.61675811 -0.48893979 6 8 27891 4.01200000 888982318 888982318 -7.00000000
-17.94830894 2.81383967 2.87745547 45 9 27891 18.39400000 888982320 888982320 9.00000000
-5.20023012 0.81619418 -0.46053094 9 10 27892 5.28400000 888982322 888982322 -5.00000000
-12.64720058 1.98728371 2.48853087 43 11 27893 13.04200000 888982325 888982325 11.00000000
-4.20050764 0.66078669 -0.22284651 32 12 27894 4.25800000 888982327 888982327 -3.00000000
-10.53752232 1.65955448 2.46276402 59 13 27895 10.94800000 888982329 888982329 13.00000000
-4.09675932 0.64593142 -0.07239258 63 14 27896 4.14800000 888982332 888982332 -1.00000000
-9.22843170 1.45503640 2.50329781 45 15 27896 9.67200000 888982334 888982334 15.00000000
-1.94028950 0.30870038 -0.52643794 4 0 27904 2.03400000 888982355 888982355 -15.00000000
-4.14905930 0.66085851 0.07333501 8 1 27905 4.20200000 888982357 888982357 1.00000000
-2.21694064 0.35350910 -0.51828724 4 2 27906 2.30400000 888982359 888982359 -13.00000000
-4.24053383 0.67618740 0.22504461 12 3 27906 4.30000000 888982362 888982362 3.00000000
-2.61919284 0.41812027 -0.51556593 3 4 27907 2.70200000 888982364 888982364 -11.00000000
-4.89101267 0.78166234 0.43333834 9 5 27908 4.97200000 888982366 888982366 5.00000000
-3.15602016 0.50494760 -0.50622195 3 6 27909 3.23600000 888982368 888982368 -9.00000000
-3.93578577 0.63111532 -0.48942727 8 8 27911 4.01600000 888982373 888982373 -7.00000000
-17.93447685 2.87584829 2.87682986 49 9 27911 18.39000000 888982375 888982375 9.00000000
-5.20128393 0.83497298 -0.46087956 9 10 27912 5.28800000 888982378 888982378 -5.00000000
