# .PCD v0.7 - Point Cloud Data file format
VERSION 0.7
FIELDS x y z intensity laser_id azimuth distance_m adjustedtime timestamp vertical_angle
SIZE 4 4 4 1 1 2 8 8 4 8
TYPE F F F U U U F U U F
COUNT 1 1 1 1 1 1 1 1 1 1
WIDTH 537
HEIGHT 1
VIEWPOINT 0 0 0 1 0 0 0
POINTS 537
DATA ascii
-4.28105688 0.94438511 0.22975485 7 3 28244 4.39000000 888483259 888483259 3.00000000
-2.60532188 0.57520109 -0.51861882 3 4 28245 2.71800000 888483261 888483261 -11.00000000
-5.10878420 1.12884891 0.45774198 10 5 28246 5.25200000 888483264 888483264 5.00000000
-3.12461710 0.69099468 -0.50684768 3 6 28247 3.24000000 888483266 888483266 -9.00000000
-5.75641680 1.27405894 0.72390389 2 7 28248 5.94000000 888483268 888483268 7.00000000
-3.92273998 0.86893225 -0.49332711 8 8 28249 4.04800000 888483271 888483271 -7.00000000
-17.19370842 3.80860543 2.78922653 41 9 28249 17.83000000 888483273 888483273 9.00000000
-5.19552708 1.15182066 -0.46558598 6 10 28250 5.34200000 888483275 888483275 -5.00000000
-12.61534595 2.79906487 2.51180959 68 11 28251 13.16400000 888483277 888483277 11.00000000
-4.20759296 0.93434191 -0.22588199 16 12 28252 4.31600000 888483280 888483280 -3.00000000
-11.76017952 2.61363006 2.78129482 53 13 28253 12.36400000 888483282 888483282 13.00000000
-4.12260723 0.91698003 -0.07371897 63 14 28254 4.22400000 888483284 888483284 -1.00000000
-8.75904560 1.94985473 2.40442896 38 15 28255 9.29000000 888483287 888483287 15.00000000
-1.92680359 0.43069163 -0.52902615 4 0 28260 2.04400000 888483307 888483307 -15.00000000
-4.18588209 0.93642259 0.07487082 15 1 28261 4.29000000 888483310 888483310 1.00000000
-2.21353173 0.49559432 -0.52368605 4 2 28262 2.32800000 888483312 888483312 -13.00000000
-4.26832390 0.95564795 0.22923149 7 3 28262 4.38000000 888483314 888483314 3.00000000
-2.62074375 0.58724660 -0.52205342 3 4 28263 2.73600000 888483317 888483317 -11.00000000
-5.15187120 1.15535665 0.46192545 7 5 28264 5.30000000 888483319 888483319 5.00000000
-3.13014054 0.70253789 -0.50809914 3 6 28265 3.24800000 888483321 888483321 -9.00000000
-5.76981735 1.29605258 0.72609752 2 7 28266 5.95800000 888483323 888483323 7.00000000
-3.91999078 0.88125157 -0.49332711 6 8 28267 4.04800000 888483326 888483326 -7.00000000
-16.92340469 3.80454397 2.74730206 49 9 28267 17.56200000 888483328 888483328 9.00000000
-5.18799543 1.16726243 -0.46523735 9 10 28268 5.33800000 888483330 888483330 -5.00000000
-12.62181187 2.84213352 2.51486254 68 11 28269 13.18000000 888483333 888483333 11.00000000
-4.19684315 0.94579947 -0.22546330 16 12 28270 4.30800000 888483335 888483335 -3.00000000
-11.74240589 2.64841914 2.77904534 54 13 28271 12.35400000 888483337 888483337 13.00000000
-4.12555790 0.93124795 -0.07382368 56 14 28272 4.23000000 888483340 888483340 -1.00000000
-8.75699139 1.97668540 2.40546417 38 15 28272 9.29400000 888483342 888483342 15.00000000
-1.94412684 0.44169480 -0.53420252 4 0 28280 2.06400000 888483363 888483363 -15.00000000
-4.19428730 0.95368850 0.07508025 16 1 28281 4.30200000 888483365 888483365 1.00000000
-2.21558881 0.50418276 -0.52458584 4 2 28282 2.33200000 888483367 888483367 -13.00000000
-4.26690960 0.97098452 0.22933616 7 3 28282 4.38200000 888483370 888483370 3.00000000
-2.59379268 0.59072363 -0.51709241 3 4 28283 2.71000000 888483372 888483372 -11.00000000
-5.15946198 1.17598951 0.46297130 7 5 28284 5.31200000 888483374 888483374 5.00000000
-3.13537288 0.71521717 -0.50935060 3 6 28285 3.25600000 888483376 888483376 -9.00000000
-5.80202913 1.32457972 0.73072857 2 7 28286 5.99600000 888483379 888483379 7.00000000
-3.91689086 0.89492953 -0.49332711 6 8 28287 4.04800000 888483381 888483381 -7.00000000
-16.64041519 3.80199528 2.70350051 36 9 28287 17.28200000 888483383 888483383 9.00000000
-5.20719624 1.19069433 -0.46732908 6 10 28288 5.36200000 888483386 888483386 -5.00000000
-12.64243507 2.89318204 2.52096844 68 11 28289 13.21200000 888483388 888483388 11.00000000
-4.21103811 0.96445644 -0.22640535 16 12 28290 4.32600000 888483390 888483390 -3.00000000
-11.71029568 2.68416691 2.77364659 51 13 28291 12.33000000 888483393 888483393 13.00000000
-4.12228203 0.94564319 -0.07382368 57 14 28292 4.23000000 888483395 888483395 -1.00000000
-8.75533581 2.01006484 2.40701723 40 15 28293 9.30000000 888483397 888483397 15.00000000
-1.92751455 0.44500178 -0.53006142 4 0 28300 2.04800000 888483418 888483418 -15.00000000
-4.20262289 0.97102457 0.07528968 16 1 28301 4.31400000 888483420 888483420 1.00000000
-2.21571398 0.51235259 -0.52503574 4 2 28302 2.33400000 888483423 888483423 -13.00000000
-4.28472614 0.99157035 0.23048756 7 3 28303 4.40400000 888483425 888483425 3.00000000
-2.60127854 0.60198724 -0.51900047 3 4 28303 2.72000000 888483427 888483427 -11.00000000
-5.16308975 1.19579041 0.46366856 7 5 28304 5.32000000 888483429 888483429 5.00000000
-3.14825201 0.72972560 -0.51185358 3 6 28305 3.27200000 888483432 888483432 -9.00000000
-17.28382111 4.00935316 2.17853642 8 7 28306 17.87600000 888483434 888483434 7.00000000
-3.91761041 0.90949440 -0.49381459 6 8 28307 4.05200000 888483436 888483436 -7.00000000
-16.61549759 3.85737753 2.70162320 20 9 28307 17.27000000 888483439 888483439 9.00000000
-5.20883036 1.21021628 -0.46785203 6 10 28308 5.36800000 888483441 888483441 -5.00000000
-12.65138149 2.94174099 2.52478456 65 11 28309 13.23200000 888483443 888483443 11.00000000
-4.21542692 0.98096055 -0.22682403 16 12 28310 4.33400000 888483446 888483446 -3.00000000
-11.69516087 2.72370100 2.77229691 51 13 28311 12.32400000 888483448 888483448 13.00000000
-4.11895609 0.96002686 -0.07382368 57 14 28312 4.23000000 888483450 888483450 -1.00000000
-8.75050354 2.03952622 2.40753484 40 15 28312 9.30200000 888483453 888483453 15.00000000
-1.92218781 0.45084509 -0.52902615 4 0 28320 2.04400000 888483473 888483473 -15.00000000
-4.19142056 0.98386067 0.07515007 15 1 28321 4.30600000 888483476 888483476 1.00000000
-2.22529459 0.52275771 -0.52773517 4 2 28322 2.34600000 888483478 888483478 -13.00000000
-4.27929497 1.00606370 0.23038287 7 3 28323 4.40200000 888483480 888483480 3.00000000
-2.60680580 0.61286098 -0.52052695 3 4 28323 2.72800000 888483482 888483482 -11.00000000
-5.21124887 1.22612631 0.46837497 2 5 28324 5.37400000 888483485 888483485 5.00000000
-3.13222599 0.73754132 -0.50966346 1 6 28325 3.25800000 888483487 888483487 -9.00000000
-17.31029510 4.07922220 2.18365479 14 7 28326 17.91800000 888483489 888483489 7.00000000
-3.92600441 0.92589784 -0.49527702 6 8 28327 4.06400000 888483492 888483492 -7.00000000
-17.44717216 4.11790657 2.83928561 53 9 28328 18.15000000 888483494 888483494 9.00000000
-5.18518305 1.22381437 -0.46610892 6 10 28328 5.34800000 888483496 888483496 -5.00000000
-12.60473251 2.97730970 2.51753378 62 11 28329 13.19400000 888483499 888483499 11.00000000
-4.22752666 0.99934489 -0.22766142 14 12 28330 4.35000000 888483501 888483501 -3.00000000
-11.67989349 2.76316237 2.77094698 50 13 28331 12.31800000 888483503 888483503 13.00000000
-4.12725496 0.97716308 -0.07403311 50 14 28332 4.24200000 888483506 888483506 -1.00000000
-8.74108982 2.07113934 2.40701723 40 15 28333 9.30000000 888483508 888483508 15.00000000
-1.92232168 0.45867077 -0.52954376 4 0 28342 2.04600000 888483529 888483529 -15.00000000
-4.18566704 0.99948281 0.07511516 13 1 28343 4.30400000 888483531 888483531 1.00000000
-2.21379399 0.52903366 -0.52548563 4 2 28344 2.33600000 888483533 888483533 -13.00000000
-4.29676771 1.02759767 0.23153427 7 3 28345 4.42400000 888483535 888483535 3.00000000
-2.59679580 0.62103927 -0.51900047 3 4 28345 2.72000000 888483538 888483538 -11.00000000
-5.28400898 1.26467741 0.47534743 2 5 28346 5.45400000 888483540 888483540 5.00000000
-3.12552881 0.74864244 -0.50903773 1 6 28347 3.25400000 888483542 888483542 -9.00000000
-17.28485298 4.14334536 2.18243623 10 7 28348 17.90800000 888483545 888483545 7.00000000
-3.91855955 0.94003958 -0.49478954 6 8 28349 4.06000000 888483547 888483547 -7.00000000
-17.42235756 4.17952204 2.83772111 53 9 28349 18.14000000 888483549 888483549 9.00000000
-5.20369387 1.24929643 -0.46820065 6 10 28350 5.37200000 888483552 888483552 -5.00000000
-12.64665794 3.03852844 2.52821922 62 11 28351 13.25000000 888483554 888483554 11.00000000
-4.21200657 1.01276851 -0.22703338 16 12 28352 4.33800000 888483556 888483556 -3.00000000
-11.66540813 2.80707765 2.77004719 50 13 28353 12.31400000 888483559 888483559 13.00000000
-4.14096975 0.99721700 -0.07434725 24 14 28354 4.26000000 888483561 888483561 -1.00000000
-8.72968388 2.10225844 2.40598178 42 15 28354 9.29600000 888483563 888483563 15.00000000
-1.92446399 0.46628797 -0.53057903 4 0 28362 2.05000000 888483584 888483584 -15.00000000
-4.20352983 1.01927090 0.07549911 15 1 28363 4.32600000 888483586 888483586 1.00000000
-2.20814633 0.53583890 -0.52458584 4 2 28364 2.33200000 888483588 888483588 -13.00000000
-4.28539085 1.04070461 0.23111558 7 3 28365 4.41600000 888483591 888483591 3.00000000
-2.61369014 0.63473308 -0.52281666 3 4 28365 2.74000000 888483593 888483593 -11.00000000
-5.44606113 1.32357931 0.49033821 2 5 28366 5.62600000 888483595 888483595 5.00000000
-3.12481594 0.76001489 -0.50935060 3 6 28367 3.25600000 888483598 888483598 -9.00000000
-17.29728699 4.21022797 2.18584847 10 7 28368 17.93600000 888483600 888483600 7.00000000
-3.91139698 0.95277256 -0.49430206 6 8 28369 4.05600000 888483602 888483602 -7.00000000
-17.39156723 4.23960733 2.83521819 53 9 28370 18.12400000 888483605 888483605 9.00000000
-5.18381596 1.26367807 -0.46680614 6 10 28370 5.35600000 888483607 888483607 -5.00000000
-12.65886211 3.08823872 2.53279853 59 11 28371 13.27400000 888483609 888483609 11.00000000
-4.21232653 1.02841234 -0.22724272 16 12 28372 4.34200000 888483611 888483611 -3.00000000
-11.64985943 2.84639287 2.76869750 51 13 28373 12.30800000 888483614 888483614 13.00000000
-4.15300322 1.01546526 -0.07462649 22 14 28374 4.27600000 888483616 888483616 -1.00000000
-8.72192001 2.13424015 2.40598178 45 15 28375 9.29600000 888483618 888483618 15.00000000
-1.93612218 0.47555721 -0.53420252 4 0 28380 2.06400000 888483639 888483639 -15.00000000
-4.21001625 1.03485835 0.07567363 13 1 28381 4.33600000 888483641 888483641 1.00000000
-2.21212912 0.54416984 -0.52593559 3 2 28382 2.33800000 888483644 888483644 -13.00000000
-4.27822161 1.05320752 0.23090623 7 3 28383 4.41200000 888483646 888483646 3.00000000
-2.59261990 0.63824809 -0.51900047 3 4 28383 2.72000000 888483648 888483648 -11.00000000
-5.44187593 1.34068203 0.49033821 2 5 28384 5.62600000 888483651 888483651 5.00000000
-3.13008475 0.77171946 -0.51060212 3 6 28385 3.26400000 888483653 888483653 -9.00000000
-17.31481171 4.27215672 2.18974829 10 7 28386 17.96800000 888483655 888483655 7.00000000
-3.90453005 0.96410418 -0.49381459 6 8 28387 4.05200000 888483658 888483658 -7.00000000
-17.36548805 4.28787565 2.83302808 61 9 28387 18.11000000 888483660 888483660 9.00000000
-5.19916248 1.28473675 -0.46854928 6 10 28388 5.37600000 888483662 888483662 -5.00000000
-4.21682978 1.04355991 -0.22766142 16 12 28390 4.35000000 888483667 888483667 -3.00000000
-11.62383556 2.87876153 2.76464844 50 13 28391 12.29000000 888483669 888483669 13.00000000
-4.15173388 1.02898836 -0.07466140 19 14 28392 4.27800000 888483671 888483671 -1.00000000
-8.71929932 2.16103864 2.40701723 42 15 28392 9.30000000 888483674 888483674 15.00000000
-1.91570568 0.47763908 -0.52902615 4 0 28400 2.04400000 888483694 888483694 -15.00000000
-4.20831871 1.05003190 0.07570854 15 1 28401 4.33800000 888483697 888483697 1.00000000
-2.21210670 0.55236042 -0.52638549 4 2 28402 2.34000000 888483699 888483699 -13.00000000
-4.29002047 1.07200849 0.23174362 7 3 28403 4.42800000 888483701 888483701 3.00000000
-2.58847141 0.64681822 -0.51861882 3 4 28403 2.71800000 888483704 888483704 -11.00000000
-5.47582054 1.36933661 0.49382445 2 5 28404 5.66600000 888483706 888483706 5.00000000
-3.13886952 0.78551817 -0.51247931 3 6 28405 3.27600000 888483708 888483708 -9.00000000
-17.31904984 4.33739328 2.19218564 12 7 28406 17.98800000 888483711 888483711 7.00000000
-3.92039633 0.98255354 -0.49625197 6 8 28407 4.07200000 888483713 888483713 -7.00000000
-17.32666397 4.34572792 2.82927370 61 9 28408 18.08600000 888483715 888483715 9.00000000
-5.18691587 1.30093861 -0.46785203 6 10 28408 5.36800000 888483717 888483717 -5.00000000
-10.36640453 2.60193753 2.07752824 6 11 28409 10.88800000 888483720 888483720 11.00000000
-4.23253202 1.06313860 -0.22870813 14 12 28410 4.37000000 888483722 888483722 -3.00000000
-11.60993576 2.91836858 2.76374865 50 13 28411 12.28600000 888483724 888483724 13.00000000
-4.14229870 1.04201078 -0.07455668 19 14 28412 4.27200000 888483727 888483727 -1.00000000
-8.70007992 2.19015241 2.40391135 45 15 28413 9.28800000 888483729 888483729 15.00000000
-1.91760290 0.48594043 -0.53006142 4 0 28422 2.04800000 888483750 888483750 -15.00000000
-4.21394730 1.06864059 0.07588306 13 1 28423 4.34800000 888483752 888483752 1.00000000
-2.21941376 0.56324697 -0.52863497 4 2 28424 2.35000000 888483754 888483754 -13.00000000
-4.29748774 1.09142280 0.23237164 7 3 28425 4.44000000 888483757 888483757 3.00000000
-2.58596873 0.65675241 -0.51861882 3 4 28425 2.71800000 888483759 888483759 -11.00000000
-5.48597050 1.39427829 0.49521893 2 5 28426 5.68200000 888483761 888483761 5.00000000
-3.11668611 0.79269558 -0.50935060 3 6 28427 3.25600000 888483764 888483764 -9.00000000
-17.33112335 4.41120577 2.19584179 10 7 28428 18.01800000 888483766 888483766 7.00000000
-3.91659451 0.99759948 -0.49625197 6 8 28429 4.07200000 888483768 888483768 -7.00000000
-17.30296135 4.40725374 2.82802224 61 9 28429 18.07800000 888483770 888483770 9.00000000
-5.18574381 1.32182956 -0.46820065 6 10 28430 5.37200000 888483773 888483773 -5.00000000
-10.35824013 2.64220762 2.07790995 9 11 28431 10.89000000 888483775 888483775 11.00000000
-4.24003029 1.08234644 -0.22933616 17 12 28432 4.38200000 888483777 888483777 -3.00000000
-11.60430908 2.96437287 2.76509833 51 13 28433 12.29200000 888483780 888483780 13.00000000
-4.15376616 1.06187057 -0.07483592 19 14 28434 4.28800000 888483782 888483782 -1.00000000
-8.69386578 2.22250342 2.40442896 45 15 28434 9.29000000 888483784 888483784 15.00000000
-1.91776597 0.49311224 -0.53057903 4 0 28442 2.05000000 888483805 888483805 -15.00000000
-4.20631838 1.08234692 0.07581326 13 1 28443 4.34400000 888483807 888483807 1.00000000
-2.21554708 0.57050478 -0.52818507 4 2 28444 2.34800000 888483810 888483810 -13.00000000
-4.30525589 1.10940754 0.23299968 7 3 28445 4.45200000 888483812 888483812 3.00000000
-2.58556175 0.66626501 -0.51900047 3 4 28445 2.72000000 888483814 888483814 -11.00000000
-5.50422144 1.41938949 0.49731067 3 5 28446 5.70600000 888483817 888483817 5.00000000
-3.13685250 0.80949318 -0.51310503 3 6 28447 3.28000000 888483819 888483819 -9.00000000
-17.35021782 4.48061037 2.20022917 16 7 28448 18.05400000 888483821 888483821 7.00000000
-3.90924454 1.01027155 -0.49576449 6 8 28449 4.06800000 888483823 888483823 -7.00000000
-17.27521706 4.46767521 2.82614493 61 9 28450 18.06600000 888483826 888483826 9.00000000
-5.18302727 1.34042192 -0.46837497 6 10 28450 5.37400000 888483828 888483828 -5.00000000
-10.35085392 2.67884040 2.07829165 12 11 28451 10.89200000 888483830 888483830 11.00000000
-4.23622608 1.09714031 -0.22933616 14 12 28452 4.38200000 888483833 888483833 -3.00000000
-11.59955025 3.00632811 2.76644802 54 13 28453 12.29800000 888483835 888483835 13.00000000
-4.15390587 1.07736754 -0.07490573 19 14 28454 4.29200000 888483837 888483837 -1.00000000
-8.68192196 2.25338244 2.40339375 45 15 28455 9.28600000 888483840 888483840 15.00000000
-1.92537951 0.50224155 -0.53316724 4 0 28462 2.06000000 888483860 888483860 -15.00000000
-4.21218872 1.09954846 0.07598778 11 1 28463 4.35400000 888483863 888483863 1.00000000
-2.20411468 0.57577235 -0.52593559 4 2 28464 2.33800000 888483865 888483865 -13.00000000
-4.31101894 1.12695456 0.23352304 7 3 28465 4.46200000 888483867 888483867 3.00000000
-2.60601330 0.68124467 -0.52357990 3 4 28465 2.74400000 888483870 888483870 -11.00000000
-5.53392839 1.44767046 0.50044829 3 5 28466 5.74200000 888483872 888483872 5.00000000
-3.13018584 0.81943738 -0.51247931 3 6 28467 3.27600000 888483874 888483874 -9.00000000
-21.09440231 5.52614355 2.67746949 21 7 28468 21.97000000 888483876 888483876 7.00000000
-3.90185380 1.02290440 -0.49527702 6 8 28469 4.06400000 888483879 888483879 -7.00000000
-17.24884224 4.52193165 2.82426786 53 9 28469 18.05400000 888483881 888483881 9.00000000
-5.18987942 1.36153948 -0.46942082 6 10 28470 5.38600000 888483883 888483883 -5.00000000
-10.35283375 2.71794653 2.08058119 12 11 28471 10.90400000 888483886 888483886 11.00000000
-4.21691704 1.10786092 -0.22849879 25 12 28472 4.36600000 888483888 888483888 -3.00000000
-11.57767677 3.04382682 2.76374865 53 13 28473 12.28600000 888483890 888483890 13.00000000
-4.16945839 1.09694874 -0.07525478 19 14 28474 4.31200000 888483893 888483893 -1.00000000
-8.67626953 2.28265190 2.40391135 45 15 28474 9.28800000 888483895 888483895 15.00000000
-1.92734981 0.50994760 -0.53420252 4 0 28482 2.06400000 888483916 888483916 -15.00000000
-4.22378969 1.11833966 0.07626702 11 1 28483 4.37000000 888483918 888483918 1.00000000
-2.22281265 0.58895290 -0.53088450 4 2 28484 2.36000000 888483920 888483920 -13.00000000
-4.29933691 1.13994849 0.23310435 7 3 28485 4.45400000 888483923 888483923 3.00000000
-2.59982419 0.68933088 -0.52281666 3 4 28485 2.74000000 888483925 888483925 -11.00000000
-5.66749573 1.50376809 0.51299870 9 5 28486 5.88600000 888483927 888483927 5.00000000
-3.12730646 0.83035874 -0.51247931 3 6 28487 3.27600000 888483929 888483929 -9.00000000
-21.09608650 5.60535049 2.68015051 42 7 28488 21.99200000 888483932 888483932 7.00000000
-3.89058566 1.03447771 -0.49430206 6 8 28489 4.05600000 888483934 888483934 -7.00000000
-17.22913551 4.58109856 2.82364202 53 9 28489 18.05000000 888483936 888483936 9.00000000
-5.18702078 1.38015950 -0.46959513 6 10 28490 5.38800000 888483939 888483939 -5.00000000
-10.35846043 2.75810909 2.08363414 18 11 28491 10.92000000 888483941 888483941 11.00000000
-4.23618317 1.12874472 -0.22975485 8 12 28492 4.39000000 888483943 888483943 -3.00000000
-11.56133270 3.08271575 2.76239896 55 13 28493 12.28000000 888483946 888483946 13.00000000
-4.16173983 1.11046505 -0.07518496 19 14 28494 4.30800000 888483948 888483948 -1.00000000
-8.66824913 2.31292391 2.40391135 42 15 28494 9.28800000 888483950 888483950 15.00000000
-1.91809464 0.51466960 -0.53213197 4 0 28502 2.05600000 888483971 888483971 -15.00000000
-4.23724174 1.13774371 0.07658116 13 1 28503 4.38800000 888483973 888483973 1.00000000
-2.21697927 0.59569699 -0.52998471 4 2 28504 2.35600000 888483976 888483976 -13.00000000
-4.30690384 1.15806067 0.23373239 7 3 28505 4.46600000 888483978 888483978 3.00000000
-2.57844305 0.69330394 -0.51900047 3 4 28505 2.72000000 888483980 888483980 -11.00000000
-5.67760372 1.52768362 0.51439321 18 5 28506 5.90200000 888483982 888483982 5.00000000
-3.12438893 0.84127003 -0.51247931 3 6 28507 3.27600000 888483985 888483985 -9.00000000
-21.13581085 5.69496536 2.68770647 89 7 28508 22.05400000 888483987 888483987 7.00000000
-3.89653420 1.05063605 -0.49552074 6 8 28509 4.06600000 888483989 888483989 -7.00000000
-17.19697189 4.64009905 2.82113910 45 9 28510 18.03400000 888483992 888483992 9.00000000
-5.08791542 1.37282491 -0.46105388 6 10 28510 5.29000000 888483994 888483994 -5.00000000
-10.36393261 2.79834437 2.08668709 21 11 28511 10.93600000 888483996 888483996 11.00000000
-4.25342655 1.14925551 -0.23090623 8 12 28512 4.41200000 888483999 888483999 -3.00000000
-11.53921413 3.12000179 2.75969958 56 13 28513 12.26800000 888484001 888484001 13.00000000
-4.16362906 1.12655234 -0.07528968 17 14 28514 4.31400000 888484003 888484003 -1.00000000
-8.65639305 2.34215856 2.40287590 42 15 28514 9.28400000 888484005 888484005 15.00000000
-1.91255820 0.52034754 -0.53109670 4 0 28522 2.05200000 888484026 888484026 -15.00000000
-4.23324442 1.15252757 0.07658116 13 1 28523 4.38800000 888484029 888484029 1.00000000
-2.22428751 0.60599333 -0.53223419 3 2 28524 2.36600000 888484031 888484031 -13.00000000
-4.31632376 1.17676497 0.23446508 7 3 28525 4.48000000 888484033 888484033 3.00000000
-2.57790136 0.70281655 -0.51938206 3 4 28525 2.72200000 888484035 888484035 -11.00000000
-5.64917088 1.54120004 0.51230145 9 5 28526 5.87800000 888484038 888484038 5.00000000
-3.12524462 0.85321158 -0.51310503 3 6 28527 3.28000000 888484040 888484040 -9.00000000
-21.12346268 5.77080107 2.68868136 68 7 28528 22.06200000 888484042 888484042 7.00000000
-3.90241718 1.06684852 -0.49673945 6 8 28529 4.07600000 888484045 888484045 -7.00000000
-17.18448067 4.70114183 2.82176495 49 9 28530 18.03800000 888484047 888484047 9.00000000
-5.02928257 1.37585604 -0.45617315 9 10 28530 5.23400000 888484049 888484049 -5.00000000
-10.36356926 2.83709598 2.08859515 25 11 28531 10.94600000 888484052 888484052 11.00000000
-4.26865196 1.16937268 -0.23195297 8 12 28532 4.43200000 888484054 888484054 -3.00000000
-11.52073574 3.15820122 2.75790000 56 13 28533 12.26000000 888484056 888484056 13.00000000
-4.17124224 1.14425325 -0.07549911 19 14 28534 4.32600000 888484058 888484058 -1.00000000
-8.62539482 2.36773348 2.39666438 42 15 28535 9.26000000 888484061 888484061 15.00000000
-1.91091406 0.52635342 -0.53109670 4 0 28540 2.05200000 888484082 888484082 -15.00000000
-4.22381926 1.16422689 0.07647645 18 1 28541 4.38200000 888484084 888484084 1.00000000
-2.21110129 0.60986918 -0.52953476 3 2 28542 2.35400000 888484086 888484086 -13.00000000
-4.32993317 1.19510174 0.23540713 7 3 28543 4.49800000 888484088 888484088 3.00000000
-2.58892798 0.71456820 -0.52205342 3 4 28543 2.73600000 888484091 888484091 -11.00000000
-5.66158581 1.56371379 0.51387024 9 5 28544 5.89600000 888484093 888484093 5.00000000
-3.09208465 0.85460579 -0.50809914 3 6 28545 3.24800000 888484095 888484095 -9.00000000
-21.12818909 5.84348345 2.69160628 70 7 28546 22.08600000 888484098 888484098 7.00000000
-3.89904642 1.07910299 -0.49673945 6 8 28547 4.07600000 888484100 888484100 -7.00000000
-17.18104935 4.75826836 2.82364202 45 9 28548 18.05000000 888484102 888484102 9.00000000
-4.97885275 1.37888658 -0.45198968 9 10 28548 5.18600000 888484105 888484105 -5.00000000
-10.35271358 2.86911583 2.08821368 25 11 28549 10.94400000 888484107 888484107 11.00000000
-4.25918341 1.18117607 -0.23163894 8 12 28550 4.42600000 888484109 888484109 -3.00000000
-11.51451302 3.19542122 2.75879979 57 13 28551 12.26400000 888484111 888484111 13.00000000
-4.17533398 1.15949225 -0.07563873 17 14 28552 4.33400000 888484114 888484114 -1.00000000
-8.63694572 2.39848423 2.40184069 40 15 28552 9.28000000 888484116 888484116 15.00000000
-1.92022920 0.53613764 -0.53420252 4 0 28560 2.06400000 888484137 888484137 -15.00000000
-4.23898935 1.18434465 0.07682549 9 1 28561 4.40200000 888484139 888484139 1.00000000
-2.19582152 0.61391068 -0.52638549 4 2 28562 2.34000000 888484141 888484141 -13.00000000
-4.32573509 1.21020877 0.23540713 7 3 28563 4.49800000 888484144 888484144 3.00000000
-2.58263659 0.72254300 -0.52129018 3 4 28563 2.73200000 888484146 888484146 -11.00000000
-5.69830227 1.59528375 0.51770508 9 5 28564 5.94000000 888484148 888484148 5.00000000
-3.11571288 0.87285429 -0.51247931 3 6 28565 3.27600000 888484151 888484151 -9.00000000
-21.12295341 5.92148590 2.69355631 68 7 28566 22.10200000 888484153 888484153 7.00000000
-3.91054630 1.09699595 -0.49868935 6 8 28567 4.09200000 888484155 888484155 -7.00000000
-17.15292358 4.81500912 2.82176495 49 9 28568 18.03800000 888484158 888484158 9.00000000
-4.94331694 1.38764203 -0.44920069 9 10 28568 5.15400000 888484160 888484160 -5.00000000
-10.35586548 2.90895247 2.09088492 28 11 28569 10.95800000 888484162 888484162 11.00000000
-4.25503445 1.19603622 -0.23163894 10 12 28570 4.42600000 888484164 888484164 -3.00000000
-11.48828125 3.23137379 2.75520062 55 13 28571 12.24800000 888484167 888484167 13.00000000
-4.18666029 1.17839420 -0.07591797 15 14 28572 4.35000000 888484169 888484169 -1.00000000
-8.61922264 2.42600107 2.39925265 27 15 28572 9.27000000 888484171 888484171 15.00000000
-1.92568636 0.54527736 -0.53627306 4 0 28581 2.07200000 888484193 888484193 -15.00000000
-4.28849077 1.21513748 0.07780283 8 1 28582 4.45800000 888484195 888484195 1.00000000
-2.20855522 0.62620735 -0.52998471 4 2 28583 2.35600000 888484198 888484198 -13.00000000
-4.32532692 1.22639060 0.23561648 7 3 28583 4.50200000 888484200 888484200 3.00000000
-2.57052755 0.72932464 -0.51938206 3 4 28584 2.72200000 888484202 888484202 -11.00000000
-5.70966673 1.62105584 0.51927394 9 5 28585 5.95800000 888484205 888484205 5.00000000
-3.12009335 0.88642746 -0.51373076 3 6 28586 3.28400000 888484207 888484207 -9.00000000
-21.14693451 6.01189375 2.69940591 73 7 28587 22.15000000 888484209 888484209 7.00000000
-3.87976861 1.10371709 -0.49527702 6 8 28588 4.06400000 888484211 888484211 -7.00000000
-17.13221169 4.87377405 2.82113910 49 9 28588 18.03400000 888484214 888484214 9.00000000
-4.92286777 1.40138698 -0.44780621 6 10 28589 5.13800000 888484216 888484216 -5.00000000
-10.36590385 2.95280552 2.09508276 31 11 28590 10.98000000 888484218 888484218 11.00000000
-4.26598787 1.21600366 -0.23247632 8 12 28591 4.44200000 888484221 888484221 -3.00000000
-11.45762062 3.26811337 2.75070143 57 13 28592 12.22800000 888484223 888484223 13.00000000
-4.18615866 1.19482875 -0.07598778 14 14 28593 4.35400000 888484225 888484225 -1.00000000
-9.75273705 2.78366184 2.71759987 42 15 28593 10.50000000 888484228 888484228 15.00000000
-1.90891588 0.54773337 -0.53213197 4 0 28601 2.05600000 888484248 888484248 -15.00000000
-4.32266378 1.24113691 0.07850093 8 1 28602 4.49800000 888484251 888484251 1.00000000
-2.22508574 0.63929409 -0.53448373 4 2 28603 2.37600000 888484253 888484253 -13.00000000
-4.33232021 1.24554670 0.23624450 7 3 28604 4.51400000 888484255 888484255 3.00000000
-2.58117390 0.74209023 -0.52205342 3 4 28604 2.73600000 888484258 888484258 -11.00000000
-5.72503567 1.64703572 0.52119136 9 5 28605 5.98000000 888484260 888484260 5.00000000
-3.11508203 0.89676678 -0.51341790 3 6 28606 3.28200000 888484262 888484262 -9.00000000
-21.15824890 6.09501505 2.70354962 63 7 28607 22.18400000 888484264 888484264 7.00000000
-3.89115191 1.12165201 -0.49722692 6 8 28608 4.08000000 888484267 888484267 -7.00000000
-17.09525299 4.93105888 2.81801057 53 9 28609 18.01400000 888484269 888484269 9.00000000
-4.89497423 1.41193616 -0.44571447 6 10 28609 5.11400000 888484271 888484271 -5.00000000
-10.37439632 2.99441552 2.09889889 31 11 28610 11.00000000 888484274 888484274 11.00000000
-4.26939249 1.23310411 -0.23289500 8 12 28611 4.45000000 888484276 888484276 -3.00000000
-11.43490982 3.30484152 2.74800205 57 13 28612 12.21600000 888484278 888484278 13.00000000
-4.18196249 1.20943391 -0.07598778 14 14 28613 4.35400000 888484281 888484281 -1.00000000
-9.73875713 2.81831479 2.71656466 45 15 28614 10.49600000 888484283 888484283 15.00000000
-1.90904093 0.55426633 -0.53264958 4 0 28619 2.05800000 888484304 888484304 -15.00000000
-4.33602571 1.25973189 0.07881507 8 1 28620 4.51600000 888484306 888484306 1.00000000
-2.21183872 0.64301717 -0.53178430 4 2 28621 2.36400000 888484308 888484308 -13.00000000
-4.35353756 1.26564360 0.23760524 7 3 28621 4.54000000 888484311 888484311 3.00000000
-2.59014034 0.75348592 -0.52434313 3 4 28622 2.74800000 888484313 888484313 -11.00000000
-29.64748192 8.63022614 2.70147943 38 5 28623 30.99600000 888484315 888484315 5.00000000
-3.10276651 0.90378648 -0.51185358 3 6 28624 3.27200000 888484317 888484317 -9.00000000
-21.16377068 6.16867685 2.70671821 57 7 28625 22.21000000 888484320 888484320 7.00000000
-3.88760877 1.13387084 -0.49722692 6 8 28626 4.08000000 888484322 888484322 -7.00000000
-17.07588387 4.98363400 2.81738472 57 9 28627 18.01000000 888484324 888484324 9.00000000
-4.87330055 1.42228341 -0.44414568 9 10 28627 5.09600000 888484327 888484327 -5.00000000
-10.38189888 3.03194618 2.10233355 31 11 28628 11.01800000 888484329 888484329 11.00000000
-4.29041958 1.25379372 -0.23425575 10 12 28629 4.47600000 888484331 888484331 -3.00000000
-11.42072964 3.33965516 2.74710226 57 13 28630 12.21200000 888484334 888484334 13.00000000
-4.20117331 1.22930491 -0.07640664 14 14 28631 4.37800000 888484336 888484336 -1.00000000
-9.72293568 2.84502769 2.71449423 45 15 28631 10.48800000 888484338 888484338 15.00000000
-1.90894783 0.56147188 -0.53316724 4 0 28639 2.06000000 888484359 888484359 -15.00000000
-4.38339710 1.29010391 0.07975750 16 1 28640 4.57000000 888484361 888484361 1.00000000
-2.20210314 0.64853185 -0.52998471 4 2 28641 2.35600000 888484363 888484363 -13.00000000
-4.37400007 1.28816772 0.23896597 7 3 28641 4.56600000 888484366 888484366 3.00000000
-2.56677938 0.75641793 -0.52014530 3 4 28642 2.72600000 888484368 888484368 -11.00000000
-29.66495323 8.74775124 2.70583725 86 5 28643 31.04600000 888484370 888484370 5.00000000
-3.11096048 0.91796595 -0.51373076 3 6 28644 3.28400000 888484373 888484373 -9.00000000
-21.17637825 6.25263309 2.71110535 68 7 28645 22.24600000 888484375 888484375 7.00000000
-3.89314580 1.15024650 -0.49844560 6 8 28646 4.09000000 888484377 888484377 -7.00000000
-17.05838394 5.04320955 2.81738472 57 9 28647 18.01000000 888484380 888484380 9.00000000
-4.88168097 1.44323981 -0.44536585 9 10 28647 5.11000000 888484382 888484382 -5.00000000
-10.37125206 3.06816721 2.10233355 31 11 28648 11.01800000 888484384 888484384 11.00000000
-4.28601694 1.26876247 -0.23425575 8 12 28649 4.47600000 888484387 888484387 -3.00000000
-11.40900326 3.37950063 2.74710226 57 13 28650 12.21200000 888484389 888484389 13.00000000
-4.21027708 1.24794030 -0.07665097 12 14 28651 4.39200000 888484391 888484391 -1.00000000
-9.72035408 2.88114572 2.71656466 42 15 28651 10.49600000 888484393 888484393 15.00000000
-1.91048038 0.56990206 -0.53420252 4 0 28661 2.06400000 888484414 888484414 -15.00000000
-4.36499834 1.30292177 0.07951316 12 1 28662 4.55600000 888484416 888484416 1.00000000
-2.19586229 0.65586710 -0.52908486 4 2 28663 2.35200000 888484419 888484419 -13.00000000
-4.36687994 1.30514371 0.23886131 7 3 28664 4.56400000 888484421 888484421 3.00000000
-2.57702327 0.77020341 -0.52281666 3 4 28664 2.74000000 888484423 888484423 -11.00000000
-29.66168594 8.87072563 2.70862627 86 5 28665 31.07800000 888484426 888484426 5.00000000
-3.10362792 0.92877173 -0.51310503 3 6 28666 3.28000000 888484428 888484428 -9.00000000
-21.17123032 6.33959246 2.71354270 73 7 28667 22.26600000 888484430 888484430 7.00000000
-3.88299584 1.16347730 -0.49771440 6 8 28668 4.08400000 888484433 888484433 -7.00000000
-17.02275467 5.10059500 2.81456900 66 9 28668 17.99200000 888484435 888484435 9.00000000
-4.87037802 1.46025693 -0.44484290 9 10 28669 5.10400000 888484437 888484437 -5.00000000
-10.38195992 3.11473727 2.10691285 31 11 28670 11.04200000 888484440 888484440 11.00000000
-4.27920103 1.28463590 -0.23415107 8 12 28671 4.47400000 888484442 888484442 -3.00000000
-11.36981392 3.41543412 2.74080372 59 13 28672 12.18400000 888484444 888484444 13.00000000
-4.22268963 1.26927805 -0.07696512 11 14 28673 4.41000000 888484446 888484446 -1.00000000
-9.70686054 2.91958594 2.71604705 42 15 28674 10.49400000 888484449 888484449 15.00000000
-1.91217804 0.57768476 -0.53523779 4 0 28681 2.06800000 888484469 888484469 -15.00000000
-4.36999416 1.32104373 0.07968768 8 1 28682 4.56600000 888484472 888484472 1.00000000
-2.19729018 0.66465658 -0.52998471 4 2 28683 2.35600000 888484474 888484474 -13.00000000
-4.36252785 1.31961763 0.23886131 7 3 28683 4.56400000 888484476 888484476 3.00000000
-2.56492376 0.77635044 -0.52090853 3 4 28684 2.73000000 888484479 888484479 -11.00000000
-29.67249298 8.98691559 2.71246099 86 5 28685 31.12200000 888484481 888484481 5.00000000
-3.10036707 0.93959975 -0.51310503 3 6 28686 3.28000000 888484483 888484483 -9.00000000
-21.18696594 6.42497683 2.71841764 68 7 28687 22.30600000 888484486 888484486 7.00000000
-3.88650918 1.17932999 -0.49868935 8 8 28688 4.09200000 888484488 888484488 -7.00000000
-16.97181320 5.15319586 2.80925012 70 9 28689 17.95800000 888484490 888484490 9.00000000
-4.88240910 1.48245847 -0.44641173 9 10 28689 5.12200000 888484493 888484493 -5.00000000
-10.39356613 3.15780687 2.11149240 31 11 28690 11.06600000 888484495 888484495 11.00000000
-4.29188871 1.30479372 -0.23509312 8 12 28691 4.49200000 888484497 888484497 -3.00000000
-11.33917809 3.44942975 2.73630452 59 13 28692 12.16400000 888484499 888484499 13.00000000
-4.21440744 1.28284562 -0.07689530 13 14 28693 4.40600000 888484502 888484502 -1.00000000
-9.70585060 2.95626593 2.71863532 38 15 28694 10.50400000 888484504 888484504 15.00000000
-1.91014993 0.58435601 -0.53523779 4 0 28701 2.06800000 888484525 888484525 -15.00000000
-4.37491703 1.33921635 0.07986221 8 1 28702 4.57600000 888484527 888484527 1.00000000
-2.20427322 0.67517614 -0.53223419 3 2 28703 2.36600000 888484529 888484529 -13.00000000
-4.36935329 1.33834732 0.23948933 7 3 28703 4.57600000 888484532 888484532 3.00000000
-2.56032109 0.78472364 -0.52052695 3 4 28704 2.72800000 888484534 888484534 -11.00000000
-29.66951370 9.09920025 2.71507573 96 5 28705 31.15200000 888484536 888484536 5.00000000
-3.10839891 0.95389348 -0.51498228 3 6 28706 3.29200000 888484539 888484539 -9.00000000
-21.19856644 6.50938272 2.72280478 70 7 28707 22.34200000 888484541 888484541 7.00000000
-3.87857389 1.19172323 -0.49820188 6 8 28708 4.08800000 888484543 888484543 -7.00000000
-16.93574905 5.20364618 2.80612135 66 9 28708 17.93800000 888484546 888484546 9.00000000
-4.89053535 1.50359082 -0.44763190 9 10 28709 5.13600000 888484548 888484548 -5.00000000
-10.39936829 3.19926333 2.11492682 28 11 28710 11.08400000 888484550 888484550 11.00000000
-4.29685211 1.32270527 -0.23561648 8 12 28711 4.50200000 888484552 888484552 -3.00000000
-11.31589413 3.48554802 2.73360515 56 13 28712 12.15200000 888484555 888484555 13.00000000
-4.22136974 1.30108273 -0.07710473 11 14 28713 4.41800000 888484557 888484557 -1.00000000
-9.68070316 2.98557281 2.71449423 14 15 28714 10.48800000 888484559 888484559 15.00000000
-1.89887166 0.58816218 -0.53264958 4 0 28721 2.05800000 888484580 888484580 -15.00000000
-4.41223669 1.36750340 0.08063012 8 1 28722 4.62000000 888484582 888484582 1.00000000
-2.20562553 0.68402088 -0.53313398 4 2 28723 2.37000000 888484585 888484585 -13.00000000
-4.38754654 1.36069036 0.24074540 5 3 28723 4.60000000 888484587 888484587 3.00000000
-2.56319141 0.79540163 -0.52167177 3 4 28724 2.73400000 888484589 888484589 -11.00000000
-29.68133354 9.21629906 2.71908498 100 5 28725 31.19800000 888484592 888484592 5.00000000
-3.09750462 0.96239352 -0.51373076 3 6 28726 3.28400000 888484594 888484594 -9.00000000
-21.21552277 6.59571552 2.72792339 60 7 28727 22.38400000 888484596 888484596 7.00000000
-3.89713621 1.21233058 -0.50112677 6 8 28728 4.11200000 888484599 888484599 -7.00000000
-16.91182327 5.26097107 2.80518293 61 9 28728 17.93200000 888484601 888484601 9.00000000
-4.87574530 1.51769209 -0.44676033 9 10 28729 5.12600000 888484603 888484603 -5.00000000
-10.40875626 3.24196649 2.11912465 25 11 28730 11.10600000 888484605 888484605 11.00000000
-4.30364990 1.34126174 -0.23624450 8 12 28731 4.51400000 888484608 888484608 -3.00000000
-11.31110001 3.52734709 2.73540473 57 13 28732 12.16000000 888484610 888484610 13.00000000
-4.23016500 1.31997979 -0.07734907 11 14 28733 4.43200000 888484612 888484612 -1.00000000
-1.90602374 0.59767699 -0.53523779 4 0 28741 2.06800000 888484635 888484635 -15.00000000
-4.40934420 1.38349521 0.08066502 6 1 28742 4.62200000 888484638 888484638 1.00000000
-2.20508361 0.69229949 -0.53358388 4 2 28743 2.37200000 888484640 888484640 -13.00000000
-4.39991999 1.38138175 0.24168745 7 3 28743 4.61800000 888484642 888484642 3.00000000
-2.57538342 0.80905122 -0.52472472 3 4 28744 2.75000000 888484645 888484645 -11.00000000
-29.70030212 9.33598232 2.72379136 96 5 28745 31.25200000 888484647 888484647 5.00000000
-3.09412646 0.97319996 -0.51373076 3 6 28746 3.28400000 888484649 888484649 -9.00000000
-21.21698570 6.67747879 2.73109198 57 7 28747 22.41000000 888484651 888484651 7.00000000
-3.89288068 1.22592676 -0.50112677 8 8 28748 4.11200000 888484654 888484654 -7.00000000
-16.89335632 5.31997204 2.80518293 66 9 28748 17.93200000 888484656 888484656 9.00000000
-4.88942051 1.54069030 -0.44850346 9 10 28749 5.14600000 888484658 888484658 -5.00000000
-10.38801384 3.27532816 2.11721659 25 11 28750 11.09600000 888484661 888484661 11.00000000
-4.31989336 1.36288619 -0.23739590 8 12 28751 4.53600000 888484663 888484663 -3.00000000
-11.29871845 3.56680870 2.73540473 57 13 28752 12.16000000 888484665 888484665 13.00000000
-4.24841356 1.34196556 -0.07776792 9 14 28753 4.45600000 888484668 888484668 -1.00000000
-8.47013760 2.67550087 2.38010001 2 15 28753 9.19600000 888484670 888484670 15.00000000
-1.90576720 0.60491109 -0.53575540 4 0 28761 2.07000000 888484691 888484691 -15.00000000
-4.41592360 1.40251017 0.08087445 6 1 28762 4.63400000 888484693 888484693 1.00000000
-2.18779588 0.69527072 -0.52998471 4 2 28763 2.35600000 888484695 888484695 -13.00000000
-4.40458870 1.39975655 0.24221081 5 3 28763 4.62800000 888484698 888484698 3.00000000
-2.57628560 0.81922591 -0.52548796 3 4 28764 2.75400000 888484700 888484700 -11.00000000
-28.88910484 9.19191933 2.65232348 28 5 28765 30.43200000 888484702 888484702 5.00000000
-3.09823966 0.98639166 -0.51498228 3 6 28766 3.29200000 888484704 888484704 -9.00000000
-21.21624565 6.75872946 2.73401690 57 7 28767 22.43400000 888484707 888484707 7.00000000
-3.89236021 1.24071372 -0.50161421 6 8 28768 4.11600000 888484709 888484709 -7.00000000
-16.87091827 5.37770891 2.80455709 61 9 28768 17.92800000 888484711 888484711 9.00000000
-4.93716192 1.57469988 -0.45338416 6 10 28769 5.20200000 888484714 888484714 -5.00000000
-10.39522076 3.31753826 2.12103271 25 11 28770 11.11600000 888484716 888484716 11.00000000
-4.30369425 1.37431169 -0.23676787 6 12 28771 4.52400000 888484718 888484718 -3.00000000
-11.27134895 3.60148191 2.73180556 56 13 28772 12.14400000 888484721 888484721 13.00000000
-4.25703621 1.36105001 -0.07801226 7 14 28773 4.47000000 888484723 888484723 -1.00000000
-8.38299561 2.68180490 2.35835910 2 15 28774 9.11200000 888484725 888484725 15.00000000
-1.90375078 0.61122751 -0.53575540 4 0 28780 2.07000000 888484746 888484746 -15.00000000
-4.46646023 1.43488348 0.08188669 12 1 28781 4.69200000 888484748 888484748 1.00000000
-2.19475436 0.70550376 -0.53223419 4 2 28782 2.36600000 888484751 888484751 -13.00000000
-4.40347815 1.41634595 0.24242015 5 3 28783 4.63200000 888484753 888484753 3.00000000
-2.56234097 0.82415789 -0.52319825 3 4 28783 2.74200000 888484755 888484755 -11.00000000
-29.73279190 9.56905746 2.73268127 100 5 28784 31.35400000 888484757 888484757 5.00000000
-3.11375451 1.00271535 -0.51811093 3 6 28785 3.31200000 888484760 888484760 -9.00000000
-21.22961617 6.84061527 2.73864794 63 7 28786 22.47200000 888484762 888484762 7.00000000
-3.87688851 1.24995959 -0.50015181 6 8 28787 4.10400000 888484764 888484764 -7.00000000
-16.84547234 5.43120050 2.80330563 61 9 28787 17.92000000 888484767 888484767 9.00000000
-5.14238644 1.65896356 -0.47273275 6 10 28788 5.42400000 888484769 888484769 -5.00000000
-10.41405582 3.36164117 2.12713861 25 11 28789 11.14800000 888484771 888484771 11.00000000
-4.32952261 1.39839768 -0.23844261 6 12 28790 4.55600000 888484774 888484774 -3.00000000
-11.25563526 3.63764071 2.73090577 57 13 28791 12.14000000 888484776 888484776 13.00000000
-4.25820732 1.37700522 -0.07811697 7 14 28792 4.47600000 888484778 888484778 -1.00000000
-8.42599678 2.72477102 2.37285304 2 15 28792 9.16800000 888484781 888484781 15.00000000
-1.90160561 0.61786914 -0.53575540 4 0 28800 2.07000000 888484801 888484801 -15.00000000
-4.42909527 1.43995500 0.08129331 6 1 28801 4.65800000 888484804 888484804 1.00000000
-2.19783783 0.71496910 -0.53358388 4 2 28802 2.37200000 888484806 888484806 -13.00000000
-4.41939831 1.43850827 0.24357153 5 3 28803 4.65400000 888484808 888484808 3.00000000
-2.55758166 0.83248943 -0.52281666 3 4 28803 2.74000000 888484810 888484810 -11.00000000
-29.74088669 9.68636036 2.73651600 100 5 28804 31.39800000 888484813 888484813 5.00000000
-3.09896636 1.00990593 -0.51623374 3 6 28805 3.30000000 888484815 888484815 -9.00000000
-21.24901581 6.92883301 2.74425387 68 7 28806 22.51800000 888484817 888484817 7.00000000
-3.88382483 1.26717925 -0.50161421 6 8 28807 4.11600000 888484820 888484820 -7.00000000
-16.81043053 5.48800135 2.80080271 61 9 28808 17.90400000 888484822 888484822 9.00000000
-5.14603424 1.67999530 -0.47360429 6 10 28808 5.43400000 888484824 888484824 -5.00000000
-10.41345501 3.40163016 2.12942839 25 11 28809 11.16000000 888484827 888484827 11.00000000
-4.35878658 1.42467105 -0.24032672 4 12 28810 4.59200000 888484829 888484829 -3.00000000
-11.23546028 3.67448497 2.72910619 57 13 28811 12.13200000 888484831 888484831 13.00000000
-4.26287746 1.39497030 -0.07829150 7 14 28812 4.48600000 888484834 888484834 -1.00000000
-8.41228104 2.75443339 2.37181783 2 15 28813 9.16400000 888484836 888484836 15.00000000
-1.89576685 0.62329644 -0.53472012 4 0 28820 2.06600000 888484857 888484857 -15.00000000
-4.39934778 1.44728291 0.08083954 6 1 28821 4.63200000 888484859 888484859 1.00000000
-2.20273304 0.72507387 -0.53538352 4 2 28822 2.38000000 888484861 888484861 -13.00000000
-4.45418739 1.46704710 0.24576965 4 3 28823 4.69600000 888484863 888484863 3.00000000
-2.55652499 0.84202617 -0.52319825 3 4 28823 2.74200000 888484866 888484866 -11.00000000
-29.72770882 9.79697609 2.73843336 86 5 28824 31.42000000 888484868 888484868 5.00000000
-3.09167027 1.01947999 -0.51560801 3 6 28825 3.29600000 888484870 888484870 -9.00000000
-21.26994324 7.01789141 2.75010371 68 7 28826 22.56600000 888484873 888484873 7.00000000
-3.88314795 1.28197324 -0.50210172 6 8 28827 4.12000000 888484875 888484875 -7.00000000
-16.79964256 5.54619360 2.80205417 61 9 28827 17.91200000 888484877 888484877 9.00000000
-5.14013863 1.69794810 -0.47360429 6 10 28828 5.43400000 888484880 888484880 -5.00000000
-10.41643047 3.44288826 2.13248134 21 11 28829 11.17600000 888484882 888484882 11.00000000
-4.39740038 1.45430124 -0.24273416 4 12 28830 4.63800000 888484884 888484884 -3.00000000
-11.22996521 3.71613050 2.73090577 56 13 28831 12.14000000 888484887 888484887 13.00000000
-4.27316904 1.41487050 -0.07857073 7 14 28832 4.50200000 888484889 888484889 -1.00000000
-8.37926006 2.77442026 2.36508846 2 15 28832 9.13800000 888484891 888484891 15.00000000
-1.90274501 0.63295901 -0.53730834 4 0 28840 2.07600000 888484912 888484912 -15.00000000
-4.41703749 1.47020900 0.08125840 4 1 28841 4.65600000 888484914 888484914 1.00000000
-2.18909526 0.72906381 -0.53268409 4 2 28842 2.36800000 888484916 888484916 -13.00000000
-47.74380112 15.91001892 2.63741827 34 3 28843 50.39400000 888484919 888484919 3.00000000
-2.55357003 0.85094500 -0.52319825 3 4 28843 2.74200000 888484921 888484921 -11.00000000
-29.75759315 9.92211246 2.74435997 96 5 28844 31.48800000 888484923 888484923 5.00000000
-3.09184051 1.03151596 -0.51623374 3 6 28845 3.30000000 888484926 888484926 -9.00000000
-21.25849724 7.09649467 2.75180984 60 7 28846 22.58000000 888484928 888484928 7.00000000
-3.87864947 1.29552007 -0.50210172 6 8 28847 4.12000000 888484930 888484930 -7.00000000
-16.77920151 5.60773039 2.80205417 61 9 28848 17.91200000 888484933 888484933 9.00000000
-5.15307713 1.72219551 -0.47534743 6 10 28848 5.45400000 888484935 888484935 -5.00000000
-10.42110634 3.48483109 2.13591599 25 11 28849 11.19400000 888484937 888484937 11.00000000
-4.49836397 1.50513160 -0.24859579 2 12 28850 4.75000000 888484939 888484939 -3.00000000
-4.28526926 1.43549454 -0.07888488 5 14 28852 4.52000000 888484944 888484944 -1.00000000
-8.39651012 2.81432247 2.37285304 2 15 28853 9.16800000 888484946 888484946 15.00000000
-1.89686215 0.63836461 -0.53627306 4 0 28860 2.07200000 888484967 888484967 -15.00000000
-4.39861250 1.48115134 0.08101407 6 1 28861 4.64200000 888484969 888484969 1.00000000
-2.18653679 0.73670077 -0.53268409 4 2 28862 2.36800000 888484972 888484972 -13.00000000
-47.74853897 16.09699631 2.64076757 11 3 28863 50.45800000 888484974 888484974 3.00000000
-2.57290888 0.86737949 -0.52777767 3 4 28863 2.76600000 888484976 888484976 -11.00000000
-29.76619720 10.04057217 2.74836922 96 5 28864 31.53400000 888484979 888484979 5.00000000
-3.08447766 1.04103887 -0.51560801 3 6 28865 3.29600000 888484981 888484981 -9.00000000
-21.26368904 7.18081951 2.75570965 60 7 28866 22.61200000 888484983 888484983 7.00000000
-3.87034225 1.30778027 -0.50161421 6 8 28867 4.11600000 888484986 888484986 -7.00000000
-16.75115585 5.66017962 2.80048990 57 9 28867 17.90200000 888484988 888484988 9.00000000
-5.15080881 1.74144888 -0.47569606 10 10 28868 5.45800000 888484990 888484990 -5.00000000
-10.42933559 3.52810645 2.14011359 18 11 28869 11.21600000 888484992 888484992 11.00000000
-7.81701803 2.64591455 -0.43250436 12 12 28870 8.26400000 888484995 888484995 -3.00000000
-9.49457741 3.21558404 2.31429648 15 13 28871 10.28800000 888484997 888484997 13.00000000
-4.28212643 1.45108593 -0.07891978 5 14 28872 4.52200000 888484999 888484999 -1.00000000
-9.57091713 3.24330068 2.70776486 30 15 28872 10.46200000 888485002 888485002 15.00000000
-1.90925252 0.64996260 -0.54041415 4 0 28880 2.08800000 888485022 888485022 -15.00000000
-4.38016510 1.49198294 0.08076974 6 1 28881 4.62800000 888485025 888485025 1.00000000
-2.19133019 0.74684334 -0.53448373 4 2 28882 2.37600000 888485027 888485027 -13.00000000
-47.76956177 16.29000092 2.64505935 34 3 28883 50.54000000 888485029 888485029 3.00000000
-2.54570913 0.86811769 -0.52281666 3 4 28883 2.74000000 888485032 888485032 -11.00000000
-29.78942299 10.16436005 2.75377274 96 5 28884 31.59600000 888485034 888485034 5.00000000
-3.08456373 1.05307579 -0.51623374 3 6 28885 3.30000000 888485036 888485036 -9.00000000
-21.27230644 7.26655054 2.76009679 63 7 28886 22.64800000 888485039 888485039 7.00000000
-3.86575365 1.32128239 -0.50161421 6 8 28887 4.11600000 888485041 888485041 -7.00000000
-16.71534538 5.71642399 2.79798675 57 9 28888 17.88600000 888485043 888485043 9.00000000
-5.14092827 1.75812852 -0.47534743 10 10 28888 5.45400000 888485045 888485045 -5.00000000
-10.48754215 3.58864331 2.15461516 15 11 28889 11.29200000 888485048 888485048 11.00000000
-7.82474089 2.67900753 -0.43344638 12 12 28890 8.28200000 888485050 888485050 -3.00000000
-9.40402126 3.22154999 2.29495072 16 13 28891 10.20200000 888485052 888485052 13.00000000
-4.31297636 1.47834408 -0.07958297 3 14 28892 4.56000000 888485055 888485055 -1.00000000
-9.56810188 3.28149176 2.71035314 42 15 28893 10.47200000 888485057 888485057 15.00000000
-1.89601243 0.65284944 -0.53730834 4 0 28900 2.07600000 888485078 888485078 -15.00000000
-2.19607925 0.75702834 -0.53628331 4 2 28902 2.38400000 888485082 888485082 -13.00000000
-47.79737473 16.48595428 2.64976954 34 3 28903 50.63000000 888485085 888485085 3.00000000
-2.54637504 0.87827891 -0.52357990 3 4 28903 2.74400000 888485087 888485087 -11.00000000
-29.81026268 10.28778172 2.75900221 100 5 28904 31.65600000 888485089 888485089 5.00000000
-3.11261129 1.07479727 -0.52155250 3 6 28905 3.33400000 888485092 888485092 -9.00000000
-21.28246117 7.35307741 2.76472783 70 7 28906 22.68600000 888485094 888485094 7.00000000
-3.86111808 1.33476830 -0.50161421 6 8 28907 4.11600000 888485096 888485096 -7.00000000
-16.68322754 5.76730490 2.79579687 57 9 28907 17.87200000 888485098 888485098 9.00000000
-5.12346268 1.77215528 -0.47430155 10 10 28908 5.44200000 888485101 888485101 -5.00000000
-10.68830967 3.69906998 2.19850135 31 11 28909 11.52200000 888485103 888485103 11.00000000
-7.84365129 2.71610785 -0.43501648 12 12 28910 8.31200000 888485105 888485105 -3.00000000
-9.34116077 3.23649311 2.28235340 14 13 28911 10.14600000 888485108 888485108 13.00000000
-16.40172005 5.68601751 -0.30300868 2 14 28912 17.36200000 888485110 888485110 -1.00000000
-9.55899334 3.31383538 2.71087074 47 15 28912 10.47400000 888485112 888485112 15.00000000
