# .PCD v0.7 - Point Cloud Data file format
VERSION 0.7
FIELDS x y z intensity laser_id azimuth distance_m adjustedtime timestamp vertical_angle
SIZE 4 4 4 1 1 2 8 8 4 8
TYPE F F F U U U F U U F
COUNT 1 1 1 1 1 1 1 1 1 1
WIDTH 549
HEIGHT 1
VIEWPOINT 0 0 0 1 0 0 0
POINTS 549
DATA ascii
2.20904374 0.52219582 -0.60822475 4 0 7670 2.35000000 888126316 888126316 -15.00000000
7.93441916 1.87415504 0.14230692 21 1 7671 8.15400000 888126319 888126319 1.00000000
2.58510542 0.61014032 -0.61321658 6 2 7672 2.72600000 888126321 888126321 -13.00000000
7.96978760 1.88104069 0.42915484 100 3 7672 8.20000000 888126323 888126323 3.00000000
3.11848092 0.73545378 -0.62280059 4 4 7673 3.26400000 888126326 888126326 -11.00000000
7.95488882 1.87459314 0.71502572 90 5 7674 8.20400000 888126328 888126328 5.00000000
3.94748926 0.92951035 -0.64231992 9 6 7675 4.10600000 888126330 888126330 -9.00000000
7.96505213 1.87405360 1.00469089 99 7 7676 8.24400000 888126332 888126332 7.00000000
5.28706408 1.24299061 -0.66686904 9 8 7677 5.47200000 888126335 888126335 -7.00000000
21.16397285 4.97565746 3.44343543 51 9 7677 22.01200000 888126337 888126337 9.00000000
6.48210764 1.52275193 -0.58254898 12 10 7678 6.68400000 888126339 888126339 -5.00000000
17.24761391 4.04856730 3.44372082 3 11 7679 18.04800000 888126342 888126342 11.00000000
7.93157196 1.86033332 -0.42695674 17 12 7680 8.15800000 888126344 888126344 -3.00000000
16.24304199 3.80678010 3.85161185 42 13 7681 17.12200000 888126346 888126346 13.00000000
7.94189692 1.85983050 -0.14237674 18 14 7682 8.15800000 888126349 888126349 -1.00000000
8.01102543 1.87601900 2.20462060 47 15 7682 8.51800000 888126351 888126351 15.00000000
2.21085310 0.51448160 -0.60822475 4 0 7690 2.35000000 888126372 888126372 -15.00000000
7.94480848 1.84735310 0.14237674 28 1 7691 8.15800000 888126374 888126374 1.00000000
2.58721948 0.60111290 -0.61321658 5 2 7692 2.72600000 888126376 888126376 -13.00000000
7.96463251 1.85049748 0.42852682 100 3 7692 8.18800000 888126379 888126379 3.00000000
3.12867880 0.72633964 -0.62432700 4 4 7693 3.27200000 888126381 888126381 -11.00000000
7.96332455 1.84726417 0.71520001 83 5 7694 8.20600000 888126383 888126383 5.00000000
3.94301248 0.91394120 -0.64106846 9 6 7695 4.09800000 888126385 888126385 -9.00000000
7.96380949 1.84444737 1.00371587 99 7 7696 8.23600000 888126388 888126388 7.00000000
5.28363466 1.22273743 -0.66589409 9 8 7697 5.46400000 888126390 888126390 -7.00000000
21.16581535 4.89818811 3.44093251 51 9 7697 21.99600000 888126392 888126392 9.00000000
6.49514818 1.50191140 -0.58324623 12 10 7698 6.69200000 888126395 888126395 -5.00000000
17.25590324 3.98701143 3.44257593 3 11 7699 18.04200000 888126397 888126397 11.00000000
7.94190931 1.83353424 -0.42716607 17 12 7700 8.16200000 888126399 888126399 -3.00000000
14.71434784 3.39436984 3.48629141 12 13 7701 15.49800000 888126402 888126402 13.00000000
7.95613480 1.83389342 -0.14251634 16 14 7702 8.16600000 888126404 888126404 -1.00000000
8.02161217 1.84751177 2.20565581 47 15 7703 8.52200000 888126406 888126406 15.00000000
2.21649027 0.50723690 -0.60926002 4 0 7711 2.35400000 888126427 888126427 -15.00000000
7.95152569 1.81822157 0.14237674 28 1 7712 8.15800000 888126429 888126429 1.00000000
2.59510469 0.59292841 -0.61456627 6 2 7713 2.73200000 888126432 888126432 -13.00000000
7.96778488 1.81901288 0.42831746 100 3 7714 8.18400000 888126434 888126434 3.00000000
3.11792183 0.71180886 -0.62165570 5 4 7714 3.25800000 888126436 888126436 -11.00000000
7.97004175 1.81806469 0.71520001 83 5 7715 8.20600000 888126438 888126438 5.00000000
3.94633555 0.89948320 -0.64106846 9 6 7716 4.09800000 888126441 888126441 -9.00000000
7.97051620 1.81524622 1.00371587 99 7 7717 8.23600000 888126443 888126443 7.00000000
5.28420925 1.20248282 -0.66540664 6 8 7718 5.46000000 888126445 888126445 -7.00000000
21.16051292 4.81531858 3.43717813 51 9 7718 21.97200000 888126448 888126448 9.00000000
6.50449514 1.47897887 -0.58359486 16 10 7719 6.69600000 888126450 888126450 -5.00000000
17.25891304 3.92112875 3.44028616 3 11 7720 18.03000000 888126452 888126452 11.00000000
7.94857645 1.80441344 -0.42716607 17 12 7721 8.16200000 888126455 888126455 -3.00000000
15.07447433 3.41930342 3.56862354 7 13 7722 15.86400000 888126457 888126457 13.00000000
7.96280289 1.80472040 -0.14251634 16 14 7723 8.16600000 888126459 888126459 -1.00000000
8.02801228 1.81949985 2.20565581 49 15 7723 8.52200000 888126462 888126462 15.00000000
2.21447802 0.49864805 -0.60822475 4 0 7731 2.35000000 888126482 888126482 -15.00000000
7.96367693 1.79177129 0.14248145 21 1 7732 8.16400000 888126485 888126485 1.00000000
2.60096121 0.58472103 -0.61546606 6 2 7733 2.73600000 888126487 888126487 -13.00000000
7.97018814 1.79031360 0.42810813 100 3 7734 8.18000000 888126489 888126489 3.00000000
3.11847186 0.70049071 -0.62127411 5 4 7734 3.25600000 888126491 888126491 -11.00000000
7.96467543 1.78761506 0.71415418 83 5 7735 8.19400000 888126494 888126494 5.00000000
3.96101642 0.88829601 -0.64294565 9 6 7736 4.11000000 888126496 888126496 -9.00000000
7.97874117 1.78784692 1.00395966 97 7 7737 8.23800000 888126498 888126498 7.00000000
5.29224873 1.18489754 -0.66589409 6 8 7738 5.46400000 888126501 888126501 -7.00000000
21.16645241 4.73514175 3.43530083 51 9 7739 21.96000000 888126503 888126503 9.00000000
6.49406338 1.45278525 -0.58220035 20 10 7739 6.68000000 888126505 888126505 -5.00000000
17.31081390 3.86942554 3.44791865 7 11 7740 18.07000000 888126508 888126508 11.00000000
7.96847105 1.77970409 -0.42789876 17 12 7741 8.17600000 888126510 888126510 -3.00000000
7.95343971 1.77343249 -0.14223711 16 14 7743 8.15000000 888126515 888126515 -1.00000000
8.02331352 1.78754282 2.20255017 47 15 7744 8.51000000 888126517 888126517 15.00000000
2.20283175 0.48875940 -0.60460126 4 0 7749 2.33600000 888126538 888126538 -15.00000000
7.95560074 1.76371419 0.14223711 18 1 7750 8.15000000 888126540 888126540 1.00000000
2.59707737 0.57528263 -0.61411637 5 2 7751 2.73000000 888126542 888126542 -13.00000000
7.97967339 1.76612890 0.42831746 100 3 7752 8.18400000 888126544 888126544 3.00000000
3.13024163 0.69281155 -0.62318218 5 4 7752 3.26600000 888126547 888126547 -11.00000000
7.95857954 1.76000321 0.71310830 76 5 7753 8.18200000 888126549 888126549 5.00000000
3.95607209 0.87414294 -0.64169419 9 6 7754 4.10200000 888126551 888126551 -9.00000000
7.99401045 1.76491201 1.00517833 99 7 7755 8.24800000 888126554 888126554 7.00000000
5.28431416 1.16569996 -0.66443163 9 8 7756 5.45200000 888126556 888126556 -7.00000000
21.17655182 4.67146778 3.43467522 51 9 7756 21.95600000 888126558 888126558 9.00000000
6.51221514 1.43537843 -0.58342052 48 10 7757 6.69400000 888126561 888126561 -5.00000000
17.32096863 3.81460071 3.44753695 14 11 7758 18.06800000 888126563 888126563 11.00000000
7.97012186 1.75380325 -0.42768943 17 12 7759 8.17200000 888126565 888126565 -3.00000000
7.95506573 1.74757922 -0.14216730 16 14 7761 8.14600000 888126570 888126570 -1.00000000
8.02103519 1.76207137 2.20047951 47 15 7761 8.50200000 888126572 888126572 15.00000000
2.21207404 0.48271459 -0.60667187 4 0 7769 2.34400000 888126593 888126593 -15.00000000
7.95780087 1.73508120 0.14216730 25 1 7770 8.14600000 888126595 888126595 1.00000000
2.60097384 0.56662846 -0.61456627 6 2 7771 2.73200000 888126597 888126597 -13.00000000
7.98578978 1.73826385 0.42831746 100 3 7772 8.18400000 888126600 888126600 3.00000000
3.14031410 0.68355101 -0.62470865 5 4 7772 3.27400000 888126602 888126602 -11.00000000
7.97440910 1.73432899 0.71397984 94 5 7773 8.19200000 888126604 888126604 5.00000000
3.95137811 0.85865045 -0.64044273 9 6 7774 4.09400000 888126607 888126607 -9.00000000
7.98460340 1.73362732 1.00322843 99 7 7775 8.23200000 888126609 888126609 7.00000000
5.29611111 1.14893055 -0.66540664 6 8 7776 5.46000000 888126611 888126611 -7.00000000
21.21283722 4.59800529 3.43780375 51 9 7777 21.97600000 888126614 888126614 9.00000000
6.50160837 1.40926123 -0.58202606 20 10 7777 6.67800000 888126616 888126616 -5.00000000
17.21329498 3.72793603 3.42349505 10 11 7778 17.94200000 888126618 888126618 11.00000000
7.95667410 1.72174752 -0.42664272 17 12 7779 8.15200000 888126620 888126620 -3.00000000
16.32353210 3.52927256 3.85566115 33 13 7780 17.14000000 888126623 888126623 13.00000000
7.96111727 1.71980011 -0.14216730 16 14 7781 8.14600000 888126625 888126625 -1.00000000
8.02932739 1.73306847 2.20099711 45 15 7782 8.50400000 888126627 888126627 15.00000000
2.22130108 0.47661120 -0.60874242 4 0 7789 2.35200000 888126648 888126648 -15.00000000
7.96771955 1.70813107 0.14223711 25 1 7790 8.15000000 888126650 888126650 1.00000000
2.59150267 0.55509698 -0.61186689 6 2 7791 2.72000000 888126653 888126653 -13.00000000
7.98009062 1.70786977 0.42768943 100 3 7792 8.17200000 888126655 888126655 3.00000000
3.13884163 0.67176336 -0.62394542 5 4 7792 3.27000000 888126657 888126657 -11.00000000
7.97456932 1.70523262 0.71345693 76 5 7793 8.18600000 888126660 888126660 5.00000000
3.95435119 0.84485233 -0.64044273 9 6 7794 4.09400000 888126662 888126662 -9.00000000
7.98089933 1.70367324 1.00200975 95 7 7795 8.22200000 888126664 888126664 7.00000000
5.28844070 1.12795222 -0.66394418 6 8 7796 5.44800000 888126667 888126667 -7.00000000
6.51233387 1.38780367 -0.58254898 16 10 7797 6.68400000 888126671 888126671 -5.00000000
8.06296158 1.71677732 1.60241389 3 11 7798 8.39800000 888126673 888126673 11.00000000
7.95286798 1.69188511 -0.42611936 17 12 7799 8.14200000 888126676 888126676 -3.00000000
7.97294044 1.69324648 -0.14227201 18 14 7801 8.15200000 888126680 888126680 -1.00000000
8.04069996 1.70763671 2.20255017 47 15 7801 8.51000000 888126683 888126683 15.00000000
2.22484159 0.46925321 -0.60926002 4 0 7809 2.35400000 888126703 888126703 -15.00000000
7.97167683 1.67989576 0.14220221 21 1 7810 8.14800000 888126706 888126706 1.00000000
2.59151769 0.54564607 -0.61141694 6 2 7811 2.71800000 888126708 888126708 -13.00000000
7.98404932 1.67959249 0.42758477 100 3 7812 8.17000000 888126710 888126710 3.00000000
3.13348246 0.65918607 -0.62241894 5 4 7812 3.26200000 888126713 888126713 -11.00000000
7.98827219 1.67902505 0.71415418 83 5 7813 8.19400000 888126715 888126715 5.00000000
3.95727634 0.83104396 -0.64044273 9 6 7814 4.09400000 888126717 888126717 -9.00000000
7.98874044 1.67621195 1.00225353 99 7 7815 8.22400000 888126720 888126720 7.00000000
5.27485991 1.10581958 -0.66175056 4 8 7816 5.43000000 888126722 888126722 -7.00000000
21.23475266 4.44777584 3.43623948 20 9 7817 21.96600000 888126724 888126724 9.00000000
6.51713848 1.36506283 -0.58254898 12 10 7817 6.68400000 888126726 888126726 -5.00000000
17.33306122 3.62738013 3.44219422 29 11 7818 18.04000000 888126729 888126729 11.00000000
7.96068048 1.66452289 -0.42622402 17 12 7819 8.14400000 888126731 888126731 -3.00000000
7.96705723 1.66295385 -0.14206259 18 14 7821 8.14000000 888126736 888126736 -1.00000000
8.04690456 1.67815459 2.20255017 47 15 7822 8.51000000 888126738 888126738 15.00000000
2.22646594 0.46148419 -0.60926002 4 0 7829 2.35400000 888126759 888126759 -15.00000000
7.97749233 1.65205920 0.14220221 21 1 7830 8.14800000 888126761 888126761 1.00000000
2.60294819 0.53857088 -0.61366647 6 2 7831 2.72800000 888126763 888126763 -13.00000000
7.99181938 1.65211713 0.42768943 100 3 7832 8.17200000 888126766 888126766 3.00000000
3.13384175 0.64784670 -0.62203735 5 4 7832 3.26000000 888126768 888126768 -11.00000000
7.98823071 1.64992154 0.71363121 90 5 7833 8.18800000 888126770 888126770 5.00000000
3.96789145 0.81882232 -0.64169419 9 6 7834 4.10200000 888126773 888126773 -9.00000000
7.99259901 1.64791501 1.00200975 95 7 7835 8.22200000 888126775 888126775 7.00000000
5.28452063 1.08860159 -0.66248173 6 8 7836 5.43600000 888126777 888126777 -7.00000000
21.23777580 4.37494326 3.43436217 51 9 7836 21.95400000 888126779 888126779 9.00000000
6.50820351 1.33949399 -0.58132881 16 10 7837 6.67000000 888126782 888126782 -5.00000000
17.35523224 3.56883144 3.44410229 36 11 7838 18.05000000 888126784 888126784 11.00000000
7.97622395 1.63873446 -0.42674738 17 12 7839 8.15400000 888126786 888126786 -3.00000000
16.34623337 3.35539961 3.85251164 40 13 7840 17.12600000 888126789 888126789 13.00000000
7.95714235 1.63191950 -0.14178336 16 14 7841 8.12400000 888126791 888126791 -1.00000000
8.04106998 1.64913213 2.19944429 49 15 7841 8.49800000 888126793 888126793 15.00000000
2.21859813 0.45178217 -0.60667187 4 0 7849 2.34400000 888126814 888126814 -15.00000000
7.97733164 1.62300646 0.14209749 25 1 7850 8.14200000 888126816 888126816 1.00000000
2.61054134 0.53064615 -0.61501616 6 2 7851 2.73400000 888126819 888126819 -13.00000000
7.99558020 1.62381291 0.42758477 100 3 7852 8.17000000 888126821 888126821 3.00000000
3.13608408 0.63690358 -0.62203735 5 4 7852 3.26000000 888126823 888126823 -11.00000000
7.98222589 1.61965024 0.71258533 90 5 7853 8.17600000 888126826 888126826 5.00000000
3.95523763 0.80182701 -0.63919121 9 6 7854 4.08600000 888126828 888126828 -9.00000000
8.00219345 1.62079370 1.00249720 95 7 7855 8.22600000 888126830 888126830 7.00000000
5.29996252 1.07251096 -0.66394418 6 8 7856 5.44800000 888126832 888126832 -7.00000000
21.26528549 4.29942226 3.43623948 30 9 7857 21.96600000 888126835 888126835 9.00000000
6.49526358 1.31321442 -0.57976002 16 10 7857 6.65200000 888126837 888126837 -5.00000000
17.35603905 3.50589633 3.44181275 10 11 7858 18.03800000 888126839 888126839 11.00000000
7.97993803 1.61048722 -0.42664272 17 12 7859 8.15200000 888126842 888126842 -3.00000000
16.36930656 3.30063128 3.85521126 7 13 7860 17.13800000 888126844 888126844 13.00000000
7.97259188 1.60610843 -0.14195788 16 14 7861 8.13400000 888126846 888126846 -1.00000000
8.03948498 1.61812437 2.19737363 47 15 7862 8.49000000 888126849 888126849 15.00000000
2.21826744 0.44365621 -0.60615420 4 0 7869 2.34200000 888126869 888126869 -15.00000000
7.97314405 1.59319139 0.14192297 21 1 7870 8.13200000 888126872 888126872 1.00000000
2.60091138 0.51924133 -0.61231679 6 2 7871 2.72200000 888126874 888126874 -13.00000000
8.00119972 1.59589314 0.42758477 100 3 7872 8.17000000 888126876 888126876 3.00000000
3.14406419 0.62710482 -0.62318218 5 4 7872 3.26600000 888126879 888126879 -11.00000000
7.98978472 1.59216654 0.71275967 83 5 7873 8.17800000 888126881 888126881 5.00000000
3.95413756 0.78724432 -0.63856548 9 6 7874 4.08200000 888126883 888126883 -9.00000000
7.99612093 1.59052730 1.00103474 92 7 7875 8.21400000 888126885 888126885 7.00000000
5.30951500 1.05516493 -0.66467541 4 8 7876 5.45400000 888126888 888126888 -7.00000000
8.08126068 1.60599649 1.30497634 7 9 7876 8.34200000 888126890 888126890 9.00000000
6.50762510 1.29208577 -0.58045727 24 10 7877 6.66000000 888126892 888126892 -5.00000000
17.37779808 3.44720101 3.44372082 3 11 7878 18.04800000 888126895 888126895 11.00000000
7.96983767 1.57951593 -0.42580533 17 12 7879 8.13600000 888126897 888126897 -3.00000000
16.39984512 3.24725676 3.85971022 14 13 7880 17.15800000 888126899 888126899 13.00000000
7.98011112 1.57865727 -0.14199278 20 14 7881 8.13600000 888126902 888126902 -1.00000000
8.04859734 1.59220541 2.19840908 47 15 7881 8.49400000 888126904 888126904 15.00000000
2.23117638 0.43814382 -0.60926002 4 0 7889 2.35400000 888126925 888126925 -15.00000000
7.97865677 1.56535017 0.14192297 21 1 7890 8.13200000 888126927 888126927 1.00000000
2.60462046 0.51053417 -0.61276668 6 2 7891 2.72400000 888126929 888126929 -13.00000000
7.99692154 1.56603491 0.42706141 99 3 7892 8.16000000 888126932 888126932 3.00000000
3.15008736 0.61688071 -0.62394542 5 4 7892 3.27000000 888126934 888126934 -11.00000000
8.00115967 1.56541491 0.71328259 90 5 7893 8.18400000 888126936 888126936 5.00000000
3.97237110 0.77646863 -0.64106846 9 6 7894 4.09800000 888126938 888126938 -9.00000000
7.99383116 1.56108403 1.00005984 92 7 7895 8.20600000 888126941 888126941 7.00000000
5.29563046 1.03320360 -0.66248173 4 8 7896 5.43600000 888126943 888126943 -7.00000000
21.30956841 4.15760183 3.43874240 41 9 7896 21.98200000 888126945 888126945 9.00000000
6.50818443 1.26859975 -0.58010864 28 10 7897 6.65600000 888126948 888126948 -5.00000000
17.36274719 3.38126636 3.43837810 21 11 7898 18.02000000 888126950 888126950 11.00000000
7.97922373 1.55244935 -0.42601469 25 12 7899 8.14000000 888126952 888126952 -3.00000000
16.39960289 3.18775988 3.85701084 37 13 7900 17.14600000 888126955 888126955 13.00000000
7.99342537 1.55231667 -0.14213240 22 14 7901 8.14400000 888126957 888126957 -1.00000000
8.06169128 1.56557393 2.20047951 47 15 7901 8.50200000 888126959 888126959 15.00000000
2.23838305 0.43144980 -0.61081296 4 0 7909 2.36000000 888126980 888126980 -15.00000000
7.98603582 1.53786802 0.14195788 18 1 7910 8.13400000 888126982 888126982 1.00000000
2.59873223 0.49996656 -0.61096704 6 2 7911 2.71600000 888126985 888126985 -13.00000000
7.99645519 1.53697991 0.42674738 94 3 7912 8.15400000 888126987 888126987 3.00000000
3.14065361 0.60365772 -0.62165570 5 4 7912 3.25800000 888126989 888126989 -11.00000000
8.00461864 1.53710043 0.71310830 83 5 7913 8.18200000 888126991 888126991 5.00000000
3.96729732 0.76110899 -0.63981694 9 6 7914 4.09000000 888126994 888126994 -9.00000000
8.00702953 1.53466558 1.00103474 95 7 7915 8.21400000 888126996 888126996 7.00000000
5.30700350 1.01620543 -0.66345668 4 8 7916 5.44400000 888126998 888126998 -7.00000000
21.31884384 4.07835674 3.43780375 51 9 7917 21.97600000 888127001 888127001 9.00000000
6.52431440 1.24812031 -0.58115447 32 10 7917 6.66800000 888127003 888127003 -5.00000000
17.38408661 3.32248116 3.44028616 14 11 7918 18.03000000 888127005 888127005 11.00000000
7.98263264 1.52421260 -0.42591003 21 12 7919 8.13800000 888127008 888127008 -3.00000000
16.39531708 3.12757397 3.85341167 40 13 7920 17.13000000 888127010 888127010 13.00000000
7.98111629 1.52103567 -0.14181826 20 14 7921 8.12600000 888127012 888127012 -1.00000000
8.06331158 1.53670061 2.19944429 47 15 7921 8.49800000 888127014 888127014 15.00000000
2.22848630 0.42147970 -0.60770714 4 0 7929 2.34800000 888127035 888127035 -15.00000000
7.99528503 1.51072478 0.14202769 18 1 7930 8.13800000 888127038 888127038 1.00000000
2.61195111 0.49306113 -0.61366647 6 2 7931 2.72800000 888127040 888127040 -13.00000000
8.00177193 1.50905776 0.42674738 94 3 7932 8.15400000 888127042 888127042 3.00000000
3.14660025 0.59341878 -0.62241894 5 4 7932 3.26200000 888127044 888127044 -11.00000000
8.00014591 1.50730526 0.71223670 79 5 7933 8.17200000 888127047 888127047 5.00000000
3.96992993 0.74725592 -0.63981694 9 6 7934 4.09000000 888127049 888127049 -9.00000000
8.01233768 1.50670648 1.00103474 92 7 7935 8.21400000 888127051 888127051 7.00000000
5.30076361 0.99584168 -0.66223800 4 8 7936 5.43400000 888127054 888127054 -7.00000000
21.32518387 4.00245762 3.43655229 51 9 7937 21.96800000 888127056 888127056 9.00000000
6.51296568 1.22239840 -0.57976002 28 10 7937 6.65200000 888127058 888127058 -5.00000000
17.38592911 3.25997019 3.43837810 14 11 7938 18.02000000 888127061 888127061 11.00000000
7.98594141 1.49597096 -0.42580533 21 12 7939 8.13600000 888127063 888127063 -3.00000000
16.40996552 3.07104135 3.85431147 40 13 7940 17.13400000 888127065 888127065 13.00000000
7.98048019 1.49206460 -0.14171354 18 14 7941 8.12000000 888127067 888127067 -1.00000000
8.06509209 1.50642729 2.19840908 47 15 7942 8.49400000 888127070 888127070 15.00000000
2.22614503 0.41299349 -0.60667187 4 0 7949 2.34400000 888127091 888127091 -15.00000000
7.99854374 1.48244238 0.14199278 21 1 7950 8.13600000 888127093 888127093 1.00000000
2.61557245 0.48429552 -0.61411637 7 2 7951 2.73000000 888127095 888127095 -13.00000000
8.00895405 1.48148048 0.42685205 89 3 7952 8.15600000 888127097 888127097 3.00000000
3.14093041 0.58100307 -0.62089247 5 4 7952 3.25400000 888127100 888127100 -11.00000000
7.99752188 1.47792208 0.71153951 79 5 7953 8.16400000 888127102 888127102 5.00000000
3.96862888 0.73267645 -0.63919121 9 6 7954 4.08600000 888127104 888127104 -9.00000000
8.01364422 1.47800887 1.00054729 95 7 7955 8.21000000 888127107 888127107 7.00000000
5.31787300 0.97985047 -0.66394418 6 8 7956 5.44800000 888127109 888127109 -7.00000000
21.32736778 3.92584896 3.43467522 51 9 7957 21.95600000 888127111 888127111 9.00000000
6.51719332 1.19965649 -0.57976002 28 10 7957 6.65200000 888127114 888127114 -5.00000000
17.39334106 3.19855189 3.43761492 10 11 7958 18.01600000 888127116 888127116 11.00000000
7.99504328 1.46880746 -0.42601469 25 12 7959 8.14000000 888127118 888127118 -3.00000000
16.42825127 3.01514840 3.85611105 40 13 7960 17.14200000 888127120 888127120 13.00000000
7.98563957 1.46419847 -0.14171354 14 14 7961 8.12000000 888127123 888127123 -1.00000000
8.05104160 1.47619021 2.19323254 47 15 7961 8.47400000 888127125 888127125 15.00000000
2.23137450 0.40591177 -0.60770714 4 0 7969 2.34800000 888127146 888127146 -15.00000000
7.98792982 1.45165288 0.14171354 15 1 7970 8.12000000 888127148 888127148 1.00000000
2.61149478 0.47411820 -0.61276668 6 2 7971 2.72400000 888127150 888127150 -13.00000000
8.02586842 1.45565355 0.42748010 89 3 7972 8.16800000 888127153 888127153 3.00000000
3.15066624 0.57143706 -0.62241894 5 4 7972 3.26200000 888127155 888127155 -11.00000000
8.00655270 1.45070696 0.71188813 79 5 7973 8.16800000 888127157 888127157 5.00000000
3.97893739 0.72022629 -0.64044273 9 6 7974 4.09400000 888127160 888127160 -9.00000000
8.01094151 1.44861412 0.99957234 95 7 7975 8.20200000 888127162 888127162 7.00000000
5.32907486 0.96269327 -0.66491914 6 8 7976 5.45600000 888127164 888127164 -7.00000000
21.34094238 3.85137844 3.43467522 51 9 7977 21.95600000 888127167 888127167 9.00000000
6.51349831 1.17548454 -0.57906276 32 10 7977 6.64400000 888127169 888127169 -5.00000000
19.08726311 3.44121957 3.77000403 26 11 7978 19.75800000 888127171 888127171 11.00000000
7.99619055 1.44018257 -0.42580533 21 12 7979 8.13600000 888127173 888127173 -3.00000000
16.43867683 2.95778465 3.85611105 40 13 7980 17.14200000 888127176 888127176 13.00000000
7.99463844 1.43702197 -0.14178336 14 14 7981 8.12400000 888127178 888127178 -1.00000000
8.07135677 1.45081198 2.19737363 47 15 7981 8.49000000 888127180 888127180 15.00000000
2.23467946 0.39845946 -0.60822475 4 0 7989 2.35000000 888127201 888127201 -15.00000000
7.98901081 1.42305958 0.14164373 15 1 7990 8.11600000 888127203 888127203 1.00000000
2.60162234 0.46295103 -0.61006725 6 2 7991 2.71200000 888127206 888127206 -13.00000000
8.01688671 1.42658138 0.42674738 65 3 7991 8.15400000 888127208 888127208 3.00000000
3.14877582 0.55974847 -0.62165570 5 4 7992 3.25800000 888127210 888127210 -11.00000000
8.01745319 1.42379522 0.71241105 83 5 7993 8.17400000 888127213 888127213 5.00000000
3.96392226 0.70322728 -0.63762689 9 6 7994 4.07600000 888127215 888127215 -9.00000000
8.01594925 1.42064190 0.99957234 97 7 7995 8.20200000 888127217 888127217 7.00000000
5.32458401 0.94270116 -0.66394418 6 8 7996 5.44800000 888127219 888127219 -7.00000000
21.36137772 3.78196573 3.43592668 56 9 7996 21.96400000 888127222 888127222 9.00000000
6.53914309 1.15655804 -0.58098018 20 10 7997 6.66600000 888127224 888127224 -5.00000000
19.09335899 3.37354684 3.76885939 37 11 7998 19.75200000 888127226 888127226 11.00000000
7.99330139 1.41087317 -0.42538664 25 12 7999 8.12800000 888127229 888127229 -3.00000000
16.43738556 2.89835477 3.85341167 42 13 8000 17.13000000 888127231 888127231 13.00000000
8.00157547 1.40945363 -0.14181826 16 14 8001 8.12600000 888127233 888127233 -1.00000000
8.07256603 1.42195857 2.19633842 47 15 8001 8.48600000 888127236 888127236 15.00000000
2.23986292 0.39132151 -0.60926002 4 0 8009 2.35400000 888127256 888127256 -15.00000000
8.00574875 1.39722693 0.14185315 21 1 8010 8.12800000 888127259 888127259 1.00000000
2.60898185 0.45487100 -0.61141694 6 2 8011 2.71800000 888127261 888127261 -13.00000000
8.01812553 1.39650309 0.42653805 65 3 8012 8.15000000 888127263 888127263 3.00000000
3.13910580 0.54673260 -0.61936599 5 4 8012 3.24600000 888127266 888127266 -11.00000000
8.02433681 1.39614189 0.71258533 90 5 8013 8.17600000 888127268 888127268 5.00000000
3.98386860 0.69243073 -0.64044273 9 6 8014 4.09400000 888127270 888127270 -9.00000000
8.02085876 1.39265239 0.99957234 92 7 8015 8.20200000 888127272 888127272 7.00000000
5.32393074 0.92343068 -0.66345668 6 8 8016 5.44400000 888127275 888127275 -7.00000000
21.37509537 3.70364690 3.43592668 51 9 8017 21.96400000 888127277 888127277 9.00000000
6.55099297 1.13508570 -0.58167744 12 10 8017 6.67400000 888127279 888127279 -5.00000000
19.11856079 3.30922198 3.77153063 37 11 8018 19.76600000 888127282 888127282 11.00000000
7.99817753 1.38296282 -0.42538664 21 12 8019 8.12800000 888127284 888127284 -3.00000000
16.45508385 2.84228659 3.85521126 41 13 8020 17.13800000 888127286 888127286 13.00000000
7.99265242 1.37913418 -0.14157392 16 14 8021 8.11200000 888127289 888127289 -1.00000000
8.08153152 1.39301789 2.19737363 47 15 8022 8.49000000 888127291 888127291 15.00000000
2.22591519 0.38128242 -0.60511893 4 0 8028 2.33800000 888127312 888127312 -15.00000000
8.01230907 1.37100852 0.14188807 18 1 8029 8.13000000 888127314 888127314 1.00000000
2.61623836 0.44720182 -0.61276668 6 2 8030 2.72400000 888127316 888127316 -13.00000000
8.01656723 1.37029696 0.42622402 60 3 8030 8.14400000 888127319 888127319 3.00000000
3.14283681 0.53665042 -0.61974764 5 4 8031 3.24800000 888127321 888127321 -11.00000000
8.01517487 1.36717951 0.71136516 76 5 8032 8.16200000 888127323 888127323 5.00000000
3.98614287 0.67921597 -0.64044273 9 6 8033 4.09400000 888127325 888127325 -9.00000000
8.02543354 1.36604655 0.99957234 95 7 8034 8.20200000 888127328 888127328 7.00000000
5.33087730 0.90643632 -0.66394418 6 8 8035 5.44800000 888127330 888127330 -7.00000000
21.37946892 3.63142109 3.43467522 51 9 8036 21.95600000 888127332 888127332 9.00000000
6.55079222 1.11268830 -0.58132881 16 10 8036 6.67000000 888127335 888127335 -5.00000000
19.13136482 3.24613285 3.77191234 41 11 8037 19.76800000 888127337 888127337 11.00000000
8.00665760 1.35709977 -0.42559600 25 12 8038 8.13200000 888127339 888127339 -3.00000000
16.46826172 2.78835464 3.85611105 42 13 8039 17.14200000 888127342 888127342 13.00000000
7.99718189 1.35262203 -0.14157392 14 14 8040 8.11200000 888127344 888127344 -1.00000000
8.08205795 1.36697781 2.19633842 47 15 8040 8.48600000 888127346 888127346 15.00000000
2.21961164 0.37223214 -0.60304838 4 0 8048 2.33000000 888127367 888127367 -15.00000000
8.00718498 1.34138000 0.14171354 15 1 8049 8.12000000 888127369 888127369 1.00000000
2.61970544 0.43838835 -0.61321658 7 2 8050 2.72600000 888127371 888127371 -13.00000000
8.03115082 1.34395385 0.42674738 57 3 8050 8.15400000 888127374 888127374 3.00000000
3.15050006 0.52664763 -0.62089247 5 4 8051 3.25400000 888127376 888127376 -11.00000000
8.01203728 1.33788037 0.71066791 76 5 8052 8.15400000 888127378 888127378 5.00000000
3.97679877 0.66334748 -0.63856548 11 6 8053 4.08200000 888127381 888127381 -9.00000000
8.03406906 1.33867681 1.00005984 97 7 8054 8.20600000 888127383 888127383 7.00000000
5.33009291 0.88717067 -0.66345668 9 8 8055 5.44400000 888127385 888127385 -7.00000000
21.39201546 3.55677080 3.43467522 56 9 8056 21.95600000 888127388 888127388 9.00000000
6.51925898 1.08393300 -0.57819122 16 10 8056 6.63400000 888127390 888127390 -5.00000000
19.14064217 3.17901039 3.77153063 41 11 8057 19.76600000 888127392 888127392 11.00000000
8.01331711 1.32947004 -0.42570066 17 12 8058 8.13400000 888127395 888127395 -3.00000000
16.48173904 2.73148990 3.85701084 40 13 8059 17.14600000 888127397 888127397 13.00000000
7.99790859 1.32404518 -0.14150411 18 14 8060 8.10800000 888127399 888127399 -1.00000000
8.07915688 1.33749580 2.19426775 47 15 8060 8.47800000 888127401 888127401 15.00000000
2.22471023 0.36510772 -0.60408366 4 0 8068 2.33400000 888127422 888127422 -15.00000000
8.00392532 1.31212747 0.14157392 21 1 8069 8.11200000 888127424 888127424 1.00000000
2.63275862 0.43113077 -0.61591601 11 2 8070 2.73800000 888127427 888127427 -13.00000000
8.03602314 1.31450915 0.42674738 55 3 8071 8.15400000 888127429 888127429 3.00000000
3.14844418 0.51501328 -0.62012923 5 4 8071 3.25000000 888127431 888127431 -11.00000000
8.01862526 1.31022632 0.71084225 79 5 8072 8.15600000 888127434 888127434 5.00000000
3.94789672 0.64437050 -0.63355958 9 6 8073 4.05000000 888127436 888127436 -9.00000000
8.03477383 1.30998564 0.99957234 95 7 8074 8.20200000 888127438 888127438 7.00000000
5.34099436 0.86983615 -0.66443163 9 8 8075 5.45200000 888127441 888127441 -7.00000000
21.39979362 3.48517752 3.43404937 51 9 8075 21.95200000 888127443 888127443 9.00000000
6.53873539 1.06372917 -0.57958567 36 10 8076 6.65000000 888127445 888127445 -5.00000000
19.13418198 3.10934353 3.76809597 41 11 8077 19.74800000 888127448 888127448 11.00000000
8.00410843 1.29925013 -0.42496797 17 12 8078 8.12000000 888127450 888127450 -3.00000000
16.49886894 2.67518878 3.85881042 40 13 8079 17.15400000 888127452 888127452 13.00000000
8.01037788 1.29739809 -0.14164373 18 14 8080 8.11600000 888127454 888127454 -1.00000000
8.08400536 1.30787516 2.19426775 47 15 8081 8.47800000 888127457 888127457 15.00000000
2.23741555 0.35917702 -0.60718948 4 0 8088 2.34600000 888127477 888127477 -15.00000000
8.00845718 1.28418064 0.14157392 21 1 8089 8.11200000 888127480 888127480 1.00000000
2.61308122 0.41854778 -0.61096704 7 2 8090 2.71600000 888127482 888127482 -13.00000000
8.03639412 1.28722179 0.42653805 55 3 8090 8.15000000 888127484 888127484 3.00000000
3.15409994 0.50464034 -0.62089247 5 4 8091 3.25400000 888127487 888127487 -11.00000000
8.03101921 1.28348577 0.71153951 79 5 8092 8.16400000 888127489 888127489 5.00000000
3.95597410 0.63152009 -0.63449818 2 6 8093 4.05600000 888127491 888127491 -9.00000000
8.03145695 1.28068066 0.99859738 95 7 8094 8.19400000 888127494 888127494 7.00000000
5.32439423 0.84806484 -0.66199428 9 8 8095 5.43200000 888127496 888127496 -7.00000000
21.42022705 3.40796161 3.43530083 51 9 8096 21.96000000 888127498 888127498 9.00000000
6.53453827 1.03964603 -0.57888842 36 10 8096 6.64200000 888127501 888127501 -5.00000000
19.13716316 3.04130149 3.76656961 41 11 8097 19.74000000 888127503 888127503 11.00000000
8.01056767 1.27161574 -0.42507264 17 12 8098 8.12200000 888127505 888127505 -3.00000000
16.50425720 2.61697030 3.85791063 40 13 8099 17.15000000 888127507 888127507 13.00000000
8.01683235 1.26974154 -0.14167863 20 14 8100 8.11800000 888127510 888127510 -1.00000000
8.08852100 1.27964878 2.19426775 47 15 8101 8.47800000 888127512 888127512 15.00000000
2.24438119 0.35226342 -0.60874242 4 0 8108 2.35200000 888127533 888127533 -15.00000000
8.02276897 1.25776660 0.14174844 28 1 8109 8.12200000 888127535 888127535 1.00000000
2.60875034 0.40851942 -0.60961735 6 2 8110 2.71000000 888127537 888127537 -13.00000000
8.03294563 1.25792563 0.42611936 49 3 8110 8.14200000 888127540 888127540 3.00000000
3.16942000 0.49575120 -0.62356383 5 4 8111 3.26800000 888127542 888127542 -11.00000000
8.03545094 1.25544441 0.71153951 76 5 8112 8.16400000 888127544 888127544 5.00000000
3.97376847 0.62014401 -0.63700116 2 6 8113 4.07200000 888127547 888127547 -9.00000000
8.03587818 1.25263786 0.99859738 97 7 8114 8.19400000 888127549 888127549 7.00000000
5.32143784 0.82855785 -0.66126305 9 8 8115 5.42600000 888127551 888127551 -7.00000000
21.42360306 3.33569527 3.43404937 51 9 8115 21.95200000 888127554 888127554 9.00000000
6.54993963 1.01866710 -0.57993430 16 10 8116 6.65400000 888127556 888127556 -5.00000000
19.15542412 2.97568727 3.76809597 41 11 8117 19.74800000 888127558 888127558 11.00000000
8.01298332 1.24333966 -0.42496797 25 12 8118 8.12000000 888127560 888127560 -3.00000000
16.51329041 2.55934381 3.85791063 42 13 8119 17.15000000 888127563 888127563 13.00000000
8.01331139 1.24052620 -0.14153902 20 14 8120 8.11000000 888127565 888127565 -1.00000000
8.09675694 1.25199723 2.19530320 47 15 8121 8.48200000 888127567 888127567 15.00000000
2.23604965 0.34296250 -0.60615420 4 0 8128 2.34200000 888127588 888127588 -15.00000000
8.03896999 1.23157120 0.14195788 25 1 8129 8.13400000 888127590 888127590 1.00000000
2.62364483 0.40147406 -0.61276668 6 2 8130 2.72400000 888127593 888127593 -13.00000000
8.03728771 1.22987783 0.42611936 49 3 8130 8.14200000 888127595 888127595 3.00000000
3.14784265 0.48112535 -0.61898440 5 4 8131 3.24400000 888127597 888127597 -11.00000000
8.03584480 1.22678649 0.71119088 76 5 8132 8.16000000 888127600 888127600 5.00000000
3.97981453 0.60686475 -0.63762689 2 6 8133 4.07600000 888127602 888127602 -9.00000000
8.04805183 1.22577536 0.99957234 92 7 8134 8.20200000 888127604 888127604 7.00000000
5.32822227 0.81057465 -0.66175056 9 8 8135 5.43000000 888127607 888127607 -7.00000000
21.44292831 3.26208091 3.43530083 51 9 8135 21.96000000 888127609 888127609 9.00000000
6.54163694 0.99400145 -0.57888842 16 10 8136 6.64200000 888127611 888127611 -5.00000000
19.17345810 2.90998244 3.76962256 45 11 8137 19.75600000 888127613 888127613 11.00000000
8.01332569 1.21476281 -0.42475861 21 12 8138 8.11600000 888127616 888127616 -3.00000000
16.52983093 2.50285292 3.85971022 43 13 8139 17.15800000 888127618 888127618 13.00000000
8.00572968 1.21075273 -0.14132959 16 14 8140 8.09800000 888127620 888127620 -1.00000000
8.09343719 1.22257245 2.19323254 47 15 8141 8.47400000 888127623 888127623 15.00000000
2.23138475 0.33507544 -0.60460126 4 0 8146 2.33600000 888127643 888127643 -15.00000000
8.03093338 1.20453036 0.14174844 18 1 8147 8.12200000 888127646 888127646 1.00000000
2.63260198 0.39438453 -0.61456627 6 2 8148 2.73200000 888127648 888127648 -13.00000000
8.04308701 1.20491779 0.42622402 49 3 8148 8.14400000 888127650 888127650 3.00000000
3.16293001 0.47326744 -0.62165570 5 4 8149 3.25800000 888127653 888127653 -11.00000000
8.03374767 1.20065165 0.71066791 76 5 8150 8.15400000 888127655 888127655 5.00000000
3.96411777 0.59173405 -0.63481104 2 6 8151 4.05800000 888127657 888127657 -9.00000000
8.05186272 1.20048571 0.99957234 90 7 8152 8.20200000 888127659 888127659 7.00000000
5.34055996 0.79529351 -0.66296923 9 8 8153 5.44000000 888127662 888127662 -7.00000000
21.45697784 3.19528198 3.43592668 51 9 8153 21.96400000 888127664 888127664 9.00000000
6.54472733 0.97344542 -0.57888842 16 10 8154 6.64200000 888127666 888127666 -5.00000000
19.17862129 2.84915614 3.76885939 41 11 8155 19.75200000 888127669 888127669 11.00000000
8.02302933 1.19046175 -0.42507264 17 12 8156 8.12200000 888127671 888127671 -3.00000000
16.53761292 2.45091081 3.85971022 40 13 8157 17.15800000 888127673 888127673 13.00000000
8.01740646 1.18676734 -0.14146921 16 14 8158 8.10600000 888127676 888127676 -1.00000000
8.09129620 1.19770479 2.19167972 47 15 8158 8.46800000 888127678 888127678 15.00000000
2.23827505 0.32812503 -0.60615420 4 0 8166 2.34200000 888127699 888127699 -15.00000000
8.02321815 1.17475164 0.14153902 31 1 8167 8.11000000 888127701 888127701 1.00000000
2.62239313 0.38350073 -0.61186689 9 2 8168 2.72000000 888127703 888127703 -13.00000000
8.05712509 1.17827988 0.42674738 49 3 8168 8.15400000 888127706 888127706 3.00000000
3.15290689 0.46052137 -0.61936599 5 4 8169 3.24600000 888127708 888127708 -11.00000000
8.03394699 1.17202604 0.71031928 76 5 8170 8.15000000 888127710 888127710 5.00000000
3.96224976 0.57732350 -0.63418531 2 6 8171 4.05400000 888127712 888127712 -9.00000000
8.04814625 1.17122865 0.99859738 95 7 8172 8.19400000 888127715 888127715 7.00000000
5.34723234 0.77721769 -0.66345668 9 8 8173 5.44400000 888127717 888127717 -7.00000000
21.46800041 3.12036347 3.43592668 51 9 8173 21.96400000 888127719 888127719 9.00000000
6.55005693 0.95088035 -0.57906276 12 10 8174 6.64400000 888127722 888127722 -5.00000000
19.17096329 2.77965736 3.76542473 41 11 8175 19.73400000 888127724 888127724 11.00000000
8.01922894 1.16130388 -0.42465395 17 12 8176 8.11400000 888127726 888127726 -3.00000000
16.55764008 2.39484262 3.86240959 42 13 8177 17.17000000 888127729 888127729 13.00000000
8.02545834 1.15934598 -0.14153902 20 14 8178 8.11000000 888127731 888127731 -1.00000000
8.09945488 1.16859233 2.19271493 47 15 8179 8.47200000 888127733 888127733 15.00000000
2.23940682 0.32031000 -0.60615420 4 0 8186 2.34200000 888127754 888127754 -15.00000000
8.03122902 1.14730382 0.14160882 25 1 8187 8.11400000 888127756 888127756 1.00000000
2.61406994 0.37296826 -0.60961735 7 2 8188 2.71000000 888127759 888127759 -13.00000000
8.05545712 1.14789581 0.42643338 49 3 8189 8.14800000 888127761 888127761 3.00000000
3.16226959 0.45062074 -0.62089247 8 4 8189 3.25400000 888127763 888127763 -11.00000000
8.04390621 1.14481747 0.71084225 79 5 8190 8.15600000 888127765 888127765 5.00000000
3.94859505 0.56126517 -0.63168240 2 6 8191 4.03800000 888127768 888127768 -9.00000000
8.04825497 1.14257014 0.99810994 97 7 8192 8.19000000 888127770 888127770 7.00000000
5.33811998 0.75687557 -0.66199428 9 8 8193 5.43200000 888127772 888127772 -7.00000000
21.49049568 3.04707122 3.43780375 51 9 8193 21.97600000 888127775 888127775 9.00000000
6.56122732 0.92912799 -0.57976002 12 10 8194 6.65200000 888127777 888127777 -5.00000000
19.19415665 2.71464586 3.76809597 41 11 8195 19.74800000 888127779 888127779 11.00000000
8.01334572 1.13190782 -0.42413059 17 12 8196 8.10400000 888127782 888127782 -3.00000000
16.55817986 2.33594203 3.86061001 41 13 8197 17.16200000 888127784 888127784 13.00000000
8.02549648 1.13076687 -0.14146921 16 14 8198 8.10600000 888127786 888127786 -1.00000000
8.10711193 1.14226627 2.19375014 47 15 8198 8.47600000 888127789 888127789 15.00000000
2.24816442 0.31355849 -0.60822475 4 0 8206 2.35000000 888127809 888127809 -15.00000000
8.03122330 1.11871076 0.14153902 25 1 8207 8.11000000 888127812 888127812 1.00000000
2.61921620 0.36437821 -0.61051714 7 2 8208 2.71400000 888127814 888127814 -13.00000000
8.03765488 1.11674654 0.42528197 47 3 8209 8.12600000 888127816 888127816 3.00000000
3.16382337 0.43957961 -0.62089247 6 4 8209 3.25400000 888127818 888127818 -11.00000000
8.04982758 1.11700583 0.71101654 76 5 8210 8.15800000 888127821 888127821 5.00000000
3.97596693 0.55100375 -0.63574964 4 6 8211 4.06400000 888127823 888127823 -9.00000000
8.06005955 1.11555815 0.99908489 95 7 8212 8.19800000 888127825 888127825 7.00000000
5.34072971 0.73823744 -0.66199428 6 8 8213 5.43200000 888127828 888127828 -7.00000000
21.49369240 2.96720338 3.43655229 51 9 8214 21.96800000 888127830 888127830 9.00000000
6.57627249 0.90785420 -0.58080590 12 10 8214 6.66400000 888127832 888127832 -5.00000000
19.21323967 2.64896989 3.77000403 41 11 8215 19.75800000 888127835 888127835 11.00000000
8.02318382 1.10474634 -0.42444462 17 12 8216 8.11000000 888127837 888127837 -3.00000000
16.55464935 2.27653623 3.85791063 43 13 8217 17.15000000 888127839 888127839 13.00000000
8.03731918 1.10383403 -0.14160882 18 14 8218 8.11400000 888127842 888127842 -1.00000000
8.11507225 1.11306953 2.19478559 47 15 8219 8.48000000 888127844 888127844 15.00000000
2.24541688 0.30518869 -0.60718948 4 0 8226 2.34600000 888127865 888127865 -15.00000000
8.04300594 1.09174562 0.14167863 25 1 8227 8.11800000 888127867 888127867 1.00000000
2.62433434 0.35575676 -0.61141694 7 2 8228 2.71800000 888127869 888127869 -13.00000000
8.05733681 1.09082675 0.42611936 44 3 8229 8.14200000 888127871 888127871 3.00000000
3.15172005 0.42668942 -0.61822116 5 4 8229 3.24000000 888127874 888127874 -11.00000000
8.04775429 1.08809900 0.71049362 79 5 8230 8.15200000 888127876 888127876 5.00000000
3.97395086 0.53659302 -0.63512391 6 6 8231 4.06000000 888127878 888127878 -9.00000000
8.06783962 1.08794713 0.99957234 92 7 8232 8.20200000 888127881 888127881 7.00000000
5.33147001 0.71800065 -0.66053182 9 8 8233 5.42000000 888127883 888127883 -7.00000000
21.48775291 2.89380240 3.43404937 51 9 8233 21.95200000 888127885 888127885 9.00000000
8.01691818 1.07823122 -0.70770460 17 10 8234 8.12000000 888127888 888127888 -5.00000000
19.23015213 2.58293247 3.77153063 41 11 8235 19.76600000 888127890 888127890 11.00000000
8.04282761 1.07885778 -0.42528197 17 12 8236 8.12600000 888127892 888127892 -3.00000000
16.57022095 2.21977067 3.85971022 43 13 8237 17.15800000 888127895 888127895 13.00000000
8.02328491 1.07338536 -0.14129469 20 14 8238 8.09600000 888127897 888127897 -1.00000000
8.11105919 1.08512819 2.19271493 47 15 8238 8.47200000 888127899 888127899 15.00000000
2.23306251 0.29557440 -0.60356599 4 0 8246 2.33200000 888127920 888127920 -15.00000000
8.04082012 1.06287754 0.14157392 21 1 8247 8.11200000 888127922 888127922 1.00000000
2.63328815 0.34761411 -0.61321658 7 2 8248 2.72600000 888127924 888127924 -13.00000000
8.06307602 1.06295574 0.42622402 39 3 8249 8.14400000 888127927 888127927 3.00000000
3.15902948 0.41645503 -0.61936599 5 4 8249 3.24600000 888127929 888127929 -11.00000000
8.04755211 1.05948043 0.71014500 76 5 8250 8.14800000 888127931 888127931 5.00000000
3.96796560 0.52168804 -0.63387245 6 6 8251 4.05200000 888127934 888127934 -9.00000000
8.07552433 1.06029534 1.00005984 90 7 8252 8.20600000 888127936 888127936 7.00000000
5.33394384 0.69938600 -0.66053182 9 8 8253 5.42000000 888127938 888127938 -7.00000000
21.50213242 2.81553936 3.43467522 51 9 8254 21.95600000 888127941 888127941 9.00000000
8.00285339 1.04791224 -0.70613581 17 10 8254 8.10200000 888127943 888127943 -5.00000000
19.23905182 2.51579094 3.77153063 41 11 8255 19.76600000 888127945 888127945 11.00000000
8.03664207 1.04948342 -0.42475861 17 12 8256 8.11600000 888127947 888127947 -3.00000000
16.58559799 2.16292429 3.86150980 42 13 8257 17.16600000 888127950 888127950 13.00000000
8.03689766 1.04666352 -0.14146921 20 14 8258 8.10600000 888127952 888127952 -1.00000000
8.11115074 1.05489409 2.19167972 47 15 8259 8.46800000 888127954 888127954 15.00000000
2.23982859 0.28851816 -0.60511893 4 0 8266 2.33800000 888127975 888127975 -15.00000000
8.03059769 1.03301740 0.14132959 25 1 8267 8.09800000 888127977 888127977 1.00000000
2.62675405 0.33742693 -0.61141694 7 2 8268 2.71800000 888127980 888127980 -13.00000000
8.06673717 1.03480387 0.42622402 34 3 8269 8.14400000 888127982 888127982 3.00000000
3.16630578 0.40617484 -0.62051088 5 4 8269 3.25200000 888127984 888127984 -11.00000000
8.05317783 1.03163588 0.71031928 76 5 8270 8.15000000 888127987 888127987 5.00000000
3.96192479 0.50683147 -0.63262099 6 6 8271 4.04400000 888127989 888127989 -9.00000000
8.06539249 1.03033912 0.99835366 99 7 8272 8.19200000 888127991 888127991 7.00000000
5.34422922 0.68176758 -0.66150677 9 8 8273 5.42800000 888127994 888127994 -7.00000000
21.50351334 2.74322033 3.43342376 50 9 8273 21.94800000 888127996 888127996 9.00000000
8.01436806 1.02097785 -0.70683306 17 10 8274 8.11000000 888127998 888127998 -5.00000000
19.22239876 2.44539785 3.76656961 30 11 8275 19.74000000 888128000 888128000 11.00000000
8.04223824 1.02167559 -0.42486328 17 12 8276 8.11800000 888128003 888128003 -3.00000000
16.60464668 2.10648823 3.86420918 40 13 8277 17.17800000 888128005 888128005 13.00000000
8.04446983 1.01910579 -0.14153902 22 14 8278 8.11000000 888128007 888128007 -1.00000000
8.11843681 1.02847636 2.19271493 47 15 8278 8.47200000 888128010 888128010 15.00000000
2.24465585 0.28117818 -0.60615420 4 0 8286 2.34200000 888128030 888128030 -15.00000000
8.04606056 1.00646830 0.14153902 28 1 8287 8.11000000 888128033 888128033 1.00000000
2.61244607 0.32632348 -0.60781777 7 2 8288 2.70200000 888128035 888128035 -13.00000000
8.06237221 1.00565064 0.42580533 34 3 8289 8.13600000 888128037 888128037 3.00000000
3.16965246 0.39536288 -0.62089247 8 4 8289 3.25400000 888128040 888128040 -11.00000000
8.05673027 1.00351870 0.71031928 76 5 8290 8.15000000 888128042 888128042 5.00000000
3.97151089 0.49397394 -0.63387245 6 6 8291 4.05200000 888128044 888128044 -9.00000000
8.06303024 1.00144541 0.99762243 95 7 8292 8.18600000 888128047 888128047 7.00000000
5.33475637 0.66164261 -0.66004437 9 8 8293 5.41600000 888128049 888128049 -7.00000000
8.02183723 0.99348599 -0.70718169 17 10 8294 8.11400000 888128053 888128053 -5.00000000
8.15994549 1.00914431 1.59821618 6 11 8295 8.37600000 888128056 888128056 11.00000000
8.03386211 0.99212801 -0.42423525 17 12 8296 8.10600000 888128058 888128058 -3.00000000
16.60416222 2.04756021 3.86240959 42 13 8297 17.17000000 888128060 888128060 13.00000000
8.04003906 0.99004161 -0.14139940 18 14 8298 8.10200000 888128063 888128063 -1.00000000
8.12982178 0.99965692 2.19478559 47 15 8299 8.48000000 888128065 888128065 15.00000000
2.25329447 0.27427486 -0.60822475 4 0 8306 2.35000000 888128086 888128086 -15.00000000
8.05746460 0.97934133 0.14167863 25 1 8307 8.11800000 888128088 888128088 1.00000000
2.62324190 0.31837630 -0.61006725 10 2 8308 2.71200000 888128090 888128090 -13.00000000
8.06186867 0.97702098 0.42559600 28 3 8309 8.13200000 888128093 888128093 3.00000000
3.15931916 0.38287914 -0.61860275 6 4 8309 3.24200000 888128095 888128095 -11.00000000
8.07007313 0.97658622 0.71119088 79 5 8310 8.16000000 888128097 888128097 5.00000000
3.97125006 0.47987080 -0.63355958 6 6 8311 4.05000000 888128100 888128100 -9.00000000
8.07041836 0.97376966 0.99810994 97 7 8312 8.19000000 888128102 888128102 7.00000000
5.33309174 0.64254189 -0.65955687 9 8 8313 5.41200000 888128104 888128104 -7.00000000
21.52410126 2.59326816 3.43373656 35 9 8313 21.95000000 888128106 888128106 9.00000000
8.02525616 0.96547848 -0.70718169 17 10 8314 8.11400000 888128109 888128109 -5.00000000
19.25264549 2.31278086 3.76924086 30 11 8315 19.75400000 888128111 888128111 11.00000000
8.04322529 0.96479213 -0.42454928 17 12 8316 8.11200000 888128113 888128113 -3.00000000
16.59959793 1.98819792 3.85971022 42 13 8317 17.15800000 888128116 888128116 13.00000000
8.04741669 0.96244550 -0.14146921 20 14 8318 8.10600000 888128118 888128118 -1.00000000
8.13309193 0.97269201 2.19478559 47 15 8318 8.48000000 888128120 888128120 15.00000000
2.24080873 0.26482061 -0.60460126 4 0 8326 2.33600000 888128141 888128141 -15.00000000
8.06480598 0.95167828 0.14174844 25 1 8327 8.12200000 888128143 888128143 1.00000000
2.62433743 0.30921754 -0.61006725 9 2 8328 2.71200000 888128146 888128146 -13.00000000
8.06324577 0.94864047 0.42549133 28 3 8329 8.13000000 888128148 888128148 3.00000000
3.14503813 0.37001356 -0.61554980 8 4 8329 3.22600000 888128150 888128150 -11.00000000
8.07145405 0.94817799 0.71101654 83 5 8330 8.15800000 888128153 888128153 5.00000000
3.97682476 0.46646589 -0.63418531 6 6 8331 4.05400000 888128155 888128155 -9.00000000
8.07771111 0.94605452 0.99859738 97 7 8332 8.19400000 888128157 888128157 7.00000000
5.33333063 0.62369144 -0.65931314 9 8 8333 5.41000000 888128159 888128159 -7.00000000
21.53542328 2.51459002 3.43404937 51 9 8334 21.95200000 888128162 888128162 9.00000000
8.02659893 0.93722814 -0.70700741 17 10 8334 8.11200000 888128164 888128164 -5.00000000
19.26840210 2.24647188 3.77076745 41 11 8335 19.76200000 888128166 888128166 11.00000000
8.05447960 0.93763393 -0.42496797 17 12 8336 8.12000000 888128169 888128169 -3.00000000
16.61417961 1.93114245 3.86150980 43 13 8337 17.16600000 888128171 888128171 13.00000000
8.03880978 0.93296576 -0.14125977 16 14 8338 8.09400000 888128173 888128173 -1.00000000
8.13276482 0.94243145 2.19375014 47 15 8339 8.47600000 888128176 888128176 15.00000000
2.23596144 0.25633702 -0.60304838 4 0 8346 2.33000000 888128196 888128196 -15.00000000
8.05814552 0.92238396 0.14157392 21 1 8347 8.11200000 888128199 888128199 1.00000000
2.63508129 0.30116141 -0.61231679 7 2 8348 2.72200000 888128201 888128201 -13.00000000
8.07643032 0.92162091 0.42601469 26 3 8349 8.14000000 888128203 888128203 3.00000000
3.16191530 0.36081377 -0.61860275 8 4 8349 3.24200000 888128206 888128206 -11.00000000
8.06481743 0.91886985 0.71014500 76 5 8350 8.14800000 888128208 888128208 5.00000000
3.98235416 0.45302787 -0.63481104 9 6 8351 4.05800000 888128210 888128210 -9.00000000
8.08490944 0.91830039 0.99908489 97 7 8352 8.19800000 888128212 888128212 7.00000000
5.33942032 0.60551822 -0.65980065 9 8 8353 5.41400000 888128215 888128215 -7.00000000
21.54364395 2.44316220 3.43404937 51 9 8353 21.95200000 888128217 888128217 9.00000000
8.02586174 0.90875608 -0.70665878 17 10 8354 8.10800000 888128219 888128219 -5.00000000
