# .PCD v0.7 - Point Cloud Data file format
VERSION 0.7
FIELDS x y z intensity laser_id azimuth distance_m adjustedtime timestamp vertical_angle
SIZE 4 4 4 1 1 2 8 8 4 8
TYPE F F F U U U F U U F
COUNT 1 1 1 1 1 1 1 1 1 1
WIDTH 532
HEIGHT 1
VIEWPOINT 0 0 0 1 0 0 0
POINTS 532
DATA ascii
-8.14644527 7.73339081 2.59323573 55 13 31351 11.52800000 888291903 888291903 13.00000000
-18.89266586 17.94100761 -0.45477480 3 14 31352 26.05800000 888291905 888291905 -1.00000000
-7.02807140 6.67405510 2.59699035 47 15 31352 10.03400000 888291907 888291907 15.00000000
-1.51371002 1.44148660 -0.56008440 4 0 31360 2.16400000 888291928 888291928 -15.00000000
-1.76062047 1.67778850 -0.56147784 3 2 31362 2.49600000 888291932 888291932 -13.00000000
-32.98915100 31.43710899 2.38819432 10 3 31362 45.63200000 888291935 888291935 3.00000000
-2.07895875 1.98184240 -0.55830711 3 4 31363 2.92600000 888291937 888291937 -11.00000000
-22.04335022 21.02096367 2.66487408 57 5 31364 30.57600000 888291939 888291939 5.00000000
-2.53418946 2.41749644 -0.55471659 1 6 31365 3.54600000 888291942 888291942 -9.00000000
-13.90588856 13.27019405 2.36012173 47 7 31366 19.36600000 888291944 888291944 7.00000000
-3.25369143 3.10603738 -0.55231184 2 8 31367 4.53200000 888291946 888291946 -7.00000000
-10.60027695 10.12276745 2.32148743 56 9 31368 14.84000000 888291949 888291949 9.00000000
-4.50285149 4.30001211 -0.54472339 7 10 31368 6.25000000 888291951 888291951 -5.00000000
-9.65047550 9.21897316 2.59423900 53 11 31369 13.59600000 888291953 888291953 11.00000000
-7.23564672 6.91453457 -0.52451098 4 12 31370 10.02200000 888291956 888291956 -3.00000000
-8.11940098 7.76178026 2.59323573 55 13 31371 11.52800000 888291958 888291958 13.00000000
-18.91374779 18.08700562 -0.45679930 3 14 31372 26.17400000 888291960 888291960 -1.00000000
-7.00752449 6.70121717 2.59802556 47 15 31372 10.03800000 888291962 888291962 15.00000000
-1.51399291 1.45237434 -0.56215495 4 0 31381 2.17200000 888291983 888291983 -15.00000000
-1.75024176 1.68018162 -0.56012815 4 2 31383 2.49000000 888291988 888291988 -13.00000000
-32.78464508 31.48331070 2.38212347 10 3 31384 45.51600000 888291990 888291990 3.00000000
-2.05752063 1.97585046 -0.55449092 2 4 31384 2.90600000 888291992 888291992 -11.00000000
-21.92879868 21.06572914 2.66034198 57 5 31385 30.52400000 888291995 888291995 5.00000000
-2.53670645 2.43771839 -0.55721956 3 6 31386 3.56200000 888291997 888291997 -9.00000000
-13.84857082 13.31281853 2.35865927 47 7 31387 19.35400000 888291999 888291999 7.00000000
-3.25659370 3.13170147 -0.55474925 2 8 31388 4.55200000 888292002 888292002 -7.00000000
-10.56202984 10.15696907 2.32086182 56 9 31388 14.83600000 888292004 888292004 9.00000000
-4.50141954 4.33029985 -0.54646653 7 10 31389 6.27000000 888292006 888292006 -5.00000000
-9.61520672 9.25292015 2.59385753 56 11 31390 13.59400000 888292009 888292009 11.00000000
-7.24191093 6.97148132 -0.52681375 4 12 31391 10.06600000 888292011 888292011 -3.00000000
-8.08809090 7.78878355 2.59233594 56 13 31392 11.52400000 888292013 888292013 13.00000000
-18.93949890 18.24499702 -0.45903319 3 14 31393 26.30200000 888292015 888292015 -1.00000000
-6.98591518 6.73209620 2.59957838 47 15 31394 10.04400000 888292018 888292018 15.00000000
-1.51308227 1.46167696 -0.56370789 4 0 31401 2.17800000 888292038 888292038 -15.00000000
-1.73876178 1.68086302 -0.55832851 4 2 31403 2.48200000 888292043 888292043 -13.00000000
-32.57954407 31.49468231 2.37479639 10 3 31403 45.37600000 888292045 888292045 3.00000000
-2.05625606 1.98847961 -0.55601740 3 4 31404 2.91400000 888292048 888292048 -11.00000000
-21.83938026 21.12690735 2.65842438 47 5 31405 30.50200000 888292050 888292050 5.00000000
-2.53385973 2.45205307 -0.55847102 1 6 31406 3.57000000 888292052 888292052 -9.00000000
-13.83196735 13.39007282 2.36377788 51 7 31407 19.39600000 888292055 888292055 7.00000000
-3.24849439 3.14581203 -0.55523676 2 8 31408 4.55600000 888292057 888292057 -7.00000000
-10.51621819 10.18736649 2.31898451 56 9 31409 14.82400000 888292059 888292059 9.00000000
-4.48913860 4.34875870 -0.54681516 7 10 31409 6.27400000 888292062 888292062 -5.00000000
-9.58566952 9.28915977 2.59462070 56 11 31410 13.59800000 888292064 888292064 11.00000000
-7.24621248 7.02452135 -0.52890718 4 12 31411 10.10600000 888292066 888292066 -3.00000000
-8.05805588 7.81425571 2.59143615 55 13 31412 11.52000000 888292068 888292068 13.00000000
-18.82976723 18.26644135 -0.45791623 3 14 31413 26.23800000 888292071 888292071 -1.00000000
-6.96653223 6.76047659 2.60113144 47 15 31414 10.05000000 888292073 888292073 15.00000000
-1.49991703 1.45860553 -0.56060207 4 0 31420 2.16600000 888292094 888292094 -15.00000000
-1.74435103 1.69749236 -0.56192774 4 2 31422 2.49800000 888292098 888292098 -13.00000000
-32.38618088 31.51618576 2.36830664 10 3 31422 45.25200000 888292101 888292101 3.00000000
-2.04965091 1.99528754 -0.55601740 3 4 31423 2.91400000 888292103 888292103 -11.00000000
-21.72067070 21.15195274 2.65249777 38 5 31424 30.43400000 888292105 888292105 5.00000000
-2.53278947 2.46733427 -0.56003541 1 6 31425 3.58000000 888292108 888292108 -9.00000000
-13.82871723 13.47604465 2.37084627 58 7 31426 19.45400000 888292110 888292110 7.00000000
-3.24657321 3.16488099 -0.55669916 2 8 31427 4.56800000 888292112 888292112 -7.00000000
-10.47850418 10.21483803 2.31773305 56 9 31427 14.81600000 888292115 888292115 9.00000000
-4.48325157 4.37196779 -0.54786098 7 10 31428 6.28600000 888292117 888292117 -5.00000000
-9.54919147 9.31541252 2.59309435 56 11 31429 13.59000000 888292119 888292119 11.00000000
-7.23431396 7.05967140 -0.52974457 4 12 31430 10.12200000 888292121 888292121 -3.00000000
-8.03209877 7.84093428 2.59143615 56 13 31431 11.52000000 888292124 888292124 13.00000000
-18.84062386 18.39863777 -0.45966148 3 14 31432 26.33800000 888292126 888292126 -1.00000000
-6.93854761 6.77814150 2.59906077 47 15 31433 10.04200000 888292128 888292128 15.00000000
-1.48791516 1.45707417 -0.55801386 4 0 31440 2.15600000 888292149 888292149 -15.00000000
-1.74398243 1.70902681 -0.56372732 4 2 31442 2.50600000 888292154 888292154 -13.00000000
-32.23032379 31.58431053 2.36495709 30 3 31442 45.18800000 888292156 888292156 3.00000000
-2.04547739 2.00517869 -0.55678064 3 4 31443 2.91800000 888292158 888292158 -11.00000000
-21.60687256 21.18858337 2.64761710 76 5 31444 30.37800000 888292161 888292161 5.00000000
-2.50864983 2.46094370 -0.55659384 1 6 31445 3.55800000 888292163 888292163 -9.00000000
-13.83259869 13.57428741 2.37962079 63 7 31446 19.52600000 888292165 888292165 7.00000000
-3.21850681 3.15950704 -0.55377430 2 8 31447 4.54400000 888292168 888292168 -7.00000000
-10.43996429 10.24858475 2.31710720 56 9 31447 14.81200000 888292170 888292170 9.00000000
-4.45943356 4.37921429 -0.54681516 7 10 31448 6.27400000 888292172 888292172 -5.00000000
-9.51101398 9.34318542 2.59156775 56 11 31449 13.58200000 888292174 888292174 11.00000000
-7.23241949 7.10727882 -0.53141928 4 12 31450 10.15400000 888292177 888292177 -3.00000000
-8.00884914 7.87302208 2.59278584 54 13 31451 11.52600000 888292179 888292179 13.00000000
-18.89034843 18.57645988 -0.46245387 3 14 31452 26.49800000 888292181 888292181 -1.00000000
-6.90658236 6.79419184 2.59595513 47 15 31453 10.03000000 888292184 888292184 15.00000000
-1.48582661 1.46471262 -0.55904913 4 0 31459 2.16000000 888292204 888292204 -15.00000000
-1.72720706 1.70385218 -0.56012815 4 2 31461 2.49000000 888292209 888292209 -13.00000000
-32.24200058 31.80603218 2.37354040 62 3 31461 45.35200000 888292211 888292211 3.00000000
-2.03602195 2.00919271 -0.55601740 3 4 31462 2.91400000 888292214 888292214 -11.00000000
-21.49253464 21.21672630 2.64221358 28 5 31463 30.31600000 888292216 888292216 5.00000000
-2.50890851 2.47757697 -0.55847102 1 6 31464 3.57000000 888292218 888292218 -9.00000000
-13.83834934 13.67030621 2.38839531 49 7 31465 19.59800000 888292220 888292220 7.00000000
-3.22495556 3.18690634 -0.55669916 2 8 31466 4.56800000 888292223 888292223 -7.00000000
-10.40592194 10.28314877 2.31710720 52 9 31466 14.81200000 888292225 888292225 9.00000000
-4.45622253 4.40518379 -0.54820961 7 10 31467 6.29000000 888292227 888292227 -5.00000000
-9.46881104 9.36362934 2.58851480 56 11 31468 13.56600000 888292230 888292230 11.00000000
-7.20597172 7.12841415 -0.53120995 4 12 31469 10.15000000 888292232 888292232 -3.00000000
-7.98685265 7.90364933 2.59413552 55 13 31470 11.53200000 888292234 888292234 13.00000000
-18.91675377 18.72622299 -0.46461797 3 14 31471 26.62200000 888292237 888292237 -1.00000000
-6.89069510 6.82129192 2.59802556 47 15 31471 10.03800000 888292239 888292239 15.00000000
-1.48755991 1.47669530 -0.56163734 4 0 31479 2.17000000 888292260 888292260 -15.00000000
-29.89249992 29.68453598 0.73533970 31 1 31480 42.13400000 888292262 888292262 1.00000000
-1.72124898 1.70987093 -0.56012815 4 2 31481 2.49000000 888292264 888292264 -13.00000000
-32.25405502 32.04084396 2.38264680 51 3 31481 45.52600000 888292267 888292267 3.00000000
-2.04013681 2.02735829 -0.55907035 3 4 31482 2.93000000 888292269 888292269 -11.00000000
-21.39291000 21.26633644 2.63907599 57 5 31483 30.28000000 888292271 888292271 5.00000000
-2.50024486 2.48631978 -0.55847102 1 6 31484 3.57000000 888292273 888292273 -9.00000000
-13.84402561 13.77172756 2.39765739 47 7 31485 19.67400000 888292276 888292276 7.00000000
-3.19411206 3.17854071 -0.55328679 2 8 31486 4.54000000 888292278 888292278 -7.00000000
-10.36156178 10.31104946 2.31523013 56 9 31486 14.80000000 888292280 888292280 9.00000000
-4.46341085 4.44320250 -0.55099863 15 10 31487 6.32200000 888292283 888292283 -5.00000000
-9.43606853 9.39662552 2.58851480 56 11 31488 13.56600000 888292285 888292285 11.00000000
-7.18104506 7.15352440 -0.53120995 4 12 31489 10.15000000 888292287 888292287 -3.00000000
-7.94955254 7.92185163 2.59098625 53 13 31490 11.51800000 888292290 888292290 13.00000000
-18.89375877 18.83449554 -0.46566510 3 14 31491 26.68200000 888292292 888292292 -1.00000000
-6.86838341 6.84923029 2.59906077 47 15 31492 10.04200000 888292294 888292294 15.00000000
-1.48649502 1.48597622 -0.56319022 4 0 31499 2.17600000 888292315 888292315 -15.00000000
-1.72078085 1.72138155 -0.56192774 4 2 31501 2.49800000 888292320 888292320 -13.00000000
-32.25781631 32.28034210 2.39164853 41 3 31502 45.69800000 888292322 888292322 3.00000000
-2.02194571 2.02335763 -0.55601740 3 4 31502 2.91400000 888292324 888292324 -11.00000000
-21.30868912 21.33101463 2.63785577 76 5 31503 30.26600000 888292326 888292326 5.00000000
-2.49852991 2.50202084 -0.56003541 3 6 31504 3.58000000 888292329 888292329 -9.00000000
-13.86038113 13.88459301 2.40886950 11 7 31505 19.76600000 888292331 888292331 7.00000000
-3.19561720 3.20231724 -0.55548048 2 8 31506 4.55800000 888292333 888292333 -7.00000000
-10.31434441 10.33596897 2.31272721 60 9 31506 14.78400000 888292336 888292336 9.00000000
-4.44646692 4.45734501 -0.55082428 7 10 31507 6.32000000 888292338 888292338 -5.00000000
-9.40459633 9.43089581 2.58889651 59 11 31508 13.56800000 888292340 888292340 11.00000000
-7.15462065 7.17713261 -0.53110528 4 12 31509 10.14800000 888292343 888292343 -3.00000000
-7.91910028 7.94679165 2.59008646 54 13 31510 11.51400000 888292345 888292345 13.00000000
-18.87870407 18.95133209 -0.46692169 3 14 31511 26.75400000 888292347 888292347 -1.00000000
-6.84563303 6.87196875 2.59906077 49 15 31511 10.04200000 888292350 888292350 15.00000000
-1.47312999 1.48293269 -0.56008440 4 0 31519 2.16400000 888292370 888292370 -15.00000000
-24.11736488 24.28632545 0.59743077 22 1 31520 34.23200000 888292373 888292373 1.00000000
-1.72025323 1.73290980 -0.56372732 4 2 31521 2.50600000 888292375 888292375 -13.00000000
-32.46429443 32.71456146 2.41540909 10 3 31522 46.15200000 888292377 888292377 3.00000000
-2.01763630 2.03319049 -0.55678064 3 4 31522 2.91800000 888292379 888292379 -11.00000000
-21.22427750 21.39536476 2.63663554 76 5 31523 30.25200000 888292382 888292382 5.00000000
-2.48699903 2.50792193 -0.55940962 1 6 31524 3.57600000 888292384 888292384 -9.00000000
-11.36055565 11.46013069 1.98135173 14 7 31525 16.25800000 888292386 888292386 7.00000000
-3.18302226 3.21204257 -0.55523676 2 8 31526 4.55600000 888292389 888292389 -7.00000000
-10.26248932 10.35966969 2.30959845 52 9 31527 14.76400000 888292391 888292391 9.00000000
-4.42807627 4.47000790 -0.55047566 7 10 31527 6.31600000 888292393 888292393 -5.00000000
-9.37023830 9.46227169 2.58851480 59 11 31528 13.56600000 888292396 888292396 11.00000000
-7.16746187 7.24038744 -0.53393143 4 12 31529 10.20200000 888292398 888292398 -3.00000000
-7.88994217 7.97300100 2.58963656 56 13 31530 11.51200000 888292400 888292400 13.00000000
-18.87150192 19.07682419 -0.46838769 3 14 31531 26.83800000 888292403 888292403 -1.00000000
-6.81360817 6.89014482 2.59647274 47 15 31532 10.03200000 888292405 888292405 15.00000000
-1.47065806 1.49081647 -0.56111968 4 0 31539 2.16800000 888292426 888292426 -15.00000000
-23.96925926 24.30629158 0.59586006 7 1 31540 34.14200000 888292428 888292428 1.00000000
-1.71282566 1.73751628 -0.56327742 4 2 31541 2.50400000 888292430 888292430 -13.00000000
-23.96101952 24.31490707 1.78905237 6 3 31542 34.18400000 888292432 888292432 3.00000000
-2.01879501 2.04861116 -0.55907035 3 4 31542 2.93000000 888292435 888292435 -11.00000000
-21.11590767 21.43525696 2.63245201 76 5 31543 30.20400000 888292437 888292437 5.00000000
-2.47961569 2.51799536 -0.55972254 1 6 31544 3.57800000 888292439 888292439 -9.00000000
-11.36086845 11.54074097 1.98842025 15 7 31545 16.31600000 888292442 888292442 7.00000000
-3.18153739 3.23303795 -0.55694288 2 8 31546 4.57000000 888292444 888292444 -7.00000000
-10.21560955 10.38097286 2.30678272 30 9 31546 14.74600000 888292446 888292446 9.00000000
-4.42641830 4.49964094 -0.55221879 3 10 31547 6.33600000 888292449 888292449 -5.00000000
-9.33439827 9.49212265 2.58775163 59 11 31548 13.56200000 888292451 888292451 11.00000000
-7.14914560 7.27248383 -0.53445476 4 12 31549 10.21200000 888292453 888292453 -3.00000000
-7.86342859 8.00188351 2.59008646 54 13 31550 11.51400000 888292456 888292456 13.00000000
-18.88327217 19.22246742 -0.47034237 3 14 31551 26.95000000 888292458 888292458 -1.00000000
-6.78124523 6.90305519 2.59284925 47 15 31551 10.01800000 888292460 888292460 15.00000000
-1.46679699 1.49732089 -0.56163734 4 0 31559 2.17000000 888292481 888292481 -15.00000000
-23.81011391 24.31408882 0.59401011 14 1 31560 34.03600000 888292483 888292483 1.00000000
-1.70538700 1.74209201 -0.56282753 4 2 31561 2.50200000 888292485 888292485 -13.00000000
-23.81732750 24.33844376 1.78465617 6 3 31562 34.10000000 888292488 888292488 3.00000000
-2.00339293 2.04722643 -0.55678064 3 4 31562 2.91800000 888292490 888292490 -11.00000000
-21.01169777 21.47892570 2.62879157 66 5 31563 30.16200000 888292492 888292492 5.00000000
-2.46528673 2.52098632 -0.55847102 1 6 31564 3.57000000 888292495 888292495 -9.00000000
-11.34826756 11.60871792 1.99329495 17 7 31565 16.35600000 888292497 888292497 7.00000000
-3.17161989 3.24554372 -0.55718666 2 8 31566 4.57200000 888292499 888292499 -7.00000000
-10.16644955 10.40704060 2.30427957 11 9 31567 14.73000000 888292502 888292502 9.00000000
-4.39676237 4.50081253 -0.55047566 7 10 31567 6.31600000 888292504 888292504 -5.00000000
-9.28749084 9.51060200 2.58393550 59 11 31568 13.54200000 888292506 888292506 11.00000000
-7.12929678 7.30311155 -0.53487349 4 12 31569 10.22000000 888292508 888292508 -3.00000000
-7.84089327 8.03486156 2.59188604 54 13 31570 11.52200000 888292511 888292511 13.00000000
-18.91380501 19.38846397 -0.47278568 3 14 31571 27.09000000 888292513 888292513 -1.00000000
-6.75724745 6.92924643 2.59336686 47 15 31572 10.02000000 888292515 888292515 15.00000000
-1.46694970 1.50797081 -0.56370789 4 0 31579 2.17800000 888292536 888292536 -15.00000000
-23.66654396 24.33684158 0.59254408 14 1 31580 33.95200000 888292538 888292538 1.00000000
-1.69657886 1.74523962 -0.56192774 4 2 31581 2.49800000 888292541 888292541 -13.00000000
-23.65567017 24.34265518 1.77889919 6 3 31582 33.99000000 888292543 888292543 3.00000000
-2.00718021 2.06547093 -0.55983359 3 4 31582 2.93400000 888292545 888292545 -11.00000000
-20.70058823 21.30919456 2.59915853 37 5 31583 29.82200000 888292548 888292548 5.00000000
-2.45647192 2.52957630 -0.55847102 1 6 31584 3.57000000 888292550 888292550 -9.00000000
-11.35330582 11.69526291 2.00133824 17 7 31585 16.42200000 888292552 888292552 7.00000000
-3.15888906 3.25517035 -0.55694288 2 8 31586 4.57000000 888292555 888292555 -7.00000000
-11.43052483 11.77892017 2.59962797 48 9 31586 16.61800000 888292557 888292557 9.00000000
-4.39628458 4.53186321 -0.55239308 7 10 31587 6.33800000 888292559 888292559 -5.00000000
-9.24876976 9.53732586 2.58240891 56 11 31588 13.53400000 888292561 888292561 11.00000000
-7.11627245 7.34085941 -0.53581554 4 12 31589 10.23800000 888292564 888292564 -3.00000000
-7.81144238 8.06078339 2.59143615 55 13 31590 11.52000000 888292566 888292566 13.00000000
-18.84044647 19.44862366 -0.47264606 3 14 31591 27.08200000 888292568 888292568 -1.00000000
-6.73692036 6.95439100 2.59440207 47 15 31591 10.02400000 888292571 888292571 15.00000000
-1.46973026 1.52141881 -0.56681371 4 0 31599 2.19000000 888292591 888292591 -15.00000000
-23.51060486 24.34594345 0.59076399 14 1 31600 33.85000000 888292594 888292594 1.00000000
-1.69047654 1.75115120 -0.56192774 4 2 31601 2.49800000 888292596 888292596 -13.00000000
-23.51091766 24.36328125 1.77439821 6 3 31602 33.90400000 888292598 888292598 3.00000000
-1.99723160 2.06963921 -0.55907035 3 4 31602 2.93000000 888292601 888292601 -11.00000000
-20.78377151 21.54479027 2.61903000 57 5 31603 30.05000000 888292603 888292603 5.00000000
-2.46819520 2.55946445 -0.56316406 1 6 31604 3.60000000 888292605 888292605 -9.00000000
-11.36338806 11.78770161 2.01035666 17 7 31605 16.49600000 888292608 888292608 7.00000000
-3.15301704 3.27189469 -0.55791783 2 8 31606 4.57800000 888292610 888292610 -7.00000000
-11.36671829 11.79939651 2.59493494 52 9 31607 16.58800000 888292612 888292612 9.00000000
-4.37905645 4.54574680 -0.55221879 7 10 31607 6.33600000 888292614 888292614 -5.00000000
-9.22086906 9.57520866 2.58393550 53 11 31608 13.54200000 888292617 888292617 11.00000000
-7.08783436 7.36277723 -0.53560621 4 12 31609 10.23400000 888292619 888292619 -3.00000000
-7.77379847 8.07817173 2.58828688 54 13 31610 11.50600000 888292621 888292621 13.00000000
-18.85284996 19.59785461 -0.47467056 3 14 31611 27.19800000 888292624 888292624 -1.00000000
-6.71540356 6.98321390 2.59595513 47 15 31612 10.03000000 888292626 888292626 15.00000000
-1.45130098 1.51234555 -0.56163734 4 0 31618 2.17000000 888292647 888292647 -15.00000000
-23.36467743 24.35594940 0.58912343 14 1 31619 33.75600000 888292649 888292649 1.00000000
-1.69545066 1.76799953 -0.56552696 4 2 31620 2.51400000 888292651 888292651 -13.00000000
-23.34292221 24.35028076 1.76780391 6 3 31621 33.77800000 888292654 888292654 3.00000000
-1.98492301 2.07058191 -0.55754387 3 4 31621 2.92200000 888292656 888292656 -11.00000000
-20.64466476 21.54310608 2.61048889 37 5 31622 29.95200000 888292658 888292658 5.00000000
-2.45832777 2.56620884 -0.56285119 1 6 31623 3.59800000 888292661 888292661 -9.00000000
-11.37778187 11.88123417 2.01986241 17 7 31624 16.57400000 888292663 888292663 7.00000000
-3.15038610 3.29093623 -0.55938029 2 8 31625 4.59000000 888292665 888292665 -7.00000000
-11.31593418 11.82077885 2.59180617 56 9 31625 16.56800000 888292667 888292667 9.00000000
-4.38186598 4.57895660 -0.55448484 7 10 31626 6.36200000 888292670 888292670 -5.00000000
-9.18363762 9.60005856 2.58240891 50 11 31627 13.53400000 888292672 888292672 11.00000000
-7.07994413 7.40356255 -0.53686225 4 12 31628 10.25800000 888292674 888292674 -3.00000000
-7.74831438 8.10531521 2.58873677 57 13 31629 11.50800000 888292677 888292677 13.00000000
-18.96735954 19.84820938 -0.47920817 3 14 31630 27.45800000 888292679 888292679 -1.00000000
-6.68542385 6.99589634 2.59284925 47 15 31630 10.01800000 888292681 888292681 15.00000000
-1.44867849 1.52019942 -0.56267262 4 0 31638 2.17400000 888292702 888292702 -15.00000000
-23.25469017 24.41129684 0.58849514 21 1 31639 33.72000000 888292704 888292704 1.00000000
-1.68926883 1.77390707 -0.56552696 4 2 31640 2.51400000 888292707 888292707 -13.00000000
-23.25089645 24.42438126 1.76728058 38 3 31641 33.76800000 888292709 888292709 3.00000000
-1.98580515 2.08602977 -0.55983359 3 4 31641 2.93400000 888292711 888292711 -11.00000000
-20.49379921 21.53565598 2.60090160 28 5 31642 29.84200000 888292714 888292714 5.00000000
-2.43982434 2.56475568 -0.56066114 1 6 31643 3.58400000 888292716 888292716 -9.00000000
-11.38822174 11.97554016 2.02912450 15 7 31644 16.65000000 888292718 888292718 7.00000000
-3.14298248 3.30622935 -0.56011152 2 8 31645 4.59600000 888292720 888292720 -7.00000000
-11.26436806 11.85358238 2.58992910 60 9 31646 16.55600000 888292723 888292723 9.00000000
-4.36997318 4.59855700 -0.55500776 3 10 31646 6.36800000 888292725 888292725 -5.00000000
-9.13925362 9.62067032 2.57935596 62 11 31647 13.51800000 888292727 888292727 11.00000000
-7.06230974 7.43692064 -0.53749025 4 12 31648 10.27000000 888292730 888292730 -3.00000000
-7.72399902 8.13655186 2.59008646 53 13 31649 11.51400000 888292732 888292732 13.00000000
-18.89796066 19.91429520 -0.47920817 3 14 31650 27.45800000 888292734 888292734 -1.00000000
-6.65441942 7.01474667 2.59077859 47 15 31651 10.01000000 888292737 888292737 15.00000000
-1.44734669 1.52945650 -0.56422549 4 0 31658 2.18000000 888292757 888292757 -15.00000000
-23.26965523 24.59836960 0.59104317 7 1 31659 33.86600000 888292760 888292760 1.00000000
-1.67503273 1.77129745 -0.56282753 4 2 31660 2.50200000 888292762 888292762 -13.00000000
-23.25330734 24.59828186 1.77397954 71 3 31661 33.89600000 888292764 888292764 3.00000000
-1.97851145 2.09294891 -0.55983359 3 4 31661 2.93400000 888292767 888292767 -11.00000000
-17.58719635 18.61094856 2.24025130 23 5 31662 25.70400000 888292769 888292769 5.00000000
-2.44170904 2.58474445 -0.56316406 1 6 31663 3.60000000 888292771 888292771 -9.00000000
-11.39677811 12.06862068 2.03814292 15 7 31664 16.72400000 888292773 888292773 7.00000000
-3.14096117 3.32728481 -0.56181765 2 8 31665 4.61000000 888292776 888292776 -7.00000000
-11.21957397 11.88512516 2.58867764 64 9 31665 16.54800000 888292778 888292778 9.00000000
-4.34979200 4.60943556 -0.55448484 7 10 31666 6.36200000 888292780 888292780 -5.00000000
-9.08136654 9.62680721 2.57248688 62 11 31667 13.48200000 888292783 888292783 11.00000000
-7.02671480 7.45135593 -0.53675759 4 12 31668 10.25600000 888292785 888292785 -3.00000000
-7.70223379 8.17055416 2.59233594 55 13 31669 11.52400000 888292787 888292787 13.00000000
-18.98467445 20.14604759 -0.48318732 3 14 31670 27.68600000 888292790 888292790 -1.00000000
-6.63377094 7.03958654 2.59181380 47 15 31670 10.01400000 888292792 888292792 15.00000000
-1.44464493 1.53731489 -0.56526077 4 0 31678 2.18400000 888292813 888292813 -15.00000000
-23.29865646 24.80187416 0.59397519 7 1 31679 34.03400000 888292815 888292815 1.00000000
-1.67150748 1.77997470 -0.56372732 4 2 31680 2.50600000 888292817 888292817 -13.00000000
-23.27255821 24.79142761 1.78203928 71 3 31681 34.05000000 888292820 888292820 3.00000000
-1.98463058 2.11415625 -0.56364977 3 4 31681 2.95400000 888292822 888292822 -11.00000000
-17.47986031 18.62718773 2.23484755 23 5 31682 25.64200000 888292824 888292824 5.00000000
-2.43537450 2.59613323 -0.56378978 1 6 31683 3.60400000 888292826 888292826 -9.00000000
-11.40618038 12.16335392 2.04740500 16 7 31684 16.80000000 888292829 888292829 7.00000000
-3.12525463 3.33388376 -0.56108648 2 8 31685 4.60400000 888292831 888292831 -7.00000000
-10.56467342 11.26992702 2.44663501 11 9 31685 15.64000000 888292833 888292833 9.00000000
-4.35002422 4.64203691 -0.55657655 7 10 31686 6.38600000 888292836 888292836 -5.00000000
-9.03025818 9.63982296 2.56752586 68 11 31687 13.45600000 888292838 888292838 11.00000000
-7.01567888 7.49187469 -0.53790897 4 12 31688 10.27800000 888292840 888292840 -3.00000000
-7.66567564 8.18885422 2.58963656 55 13 31689 11.51200000 888292843 888292843 13.00000000
-19.01807785 20.32316208 -0.48584008 3 14 31690 27.83800000 888292845 888292845 -1.00000000
-6.61047792 7.06411076 2.59233165 47 15 31690 10.01600000 888292847 888292847 15.00000000
-1.44717801 1.55082273 -0.56836665 4 0 31698 2.19600000 888292868 888292868 -15.00000000
-23.31970024 24.99856758 0.59673268 7 1 31699 34.19200000 888292870 888292870 1.00000000
-1.65996790 1.78009772 -0.56192774 4 2 31700 2.49800000 888292873 888292873 -13.00000000
-23.28393364 24.97769928 1.78957570 66 3 31701 34.19400000 888292875 888292875 3.00000000
-1.96385181 2.10671020 -0.55983359 3 4 31701 2.93400000 888292877 888292877 -11.00000000
-17.37670135 18.64727592 2.22996688 23 5 31702 25.58600000 888292879 888292879 5.00000000
-2.42899036 2.60750937 -0.56441557 1 6 31703 3.60800000 888292882 888292882 -9.00000000
-11.43941021 12.28444862 2.06105423 15 7 31704 16.91200000 888292884 888292884 7.00000000
-3.10548282 3.33605480 -0.55962402 2 8 31705 4.59200000 888292886 888292886 -7.00000000
-10.51791286 11.30278873 2.44538355 3 9 31706 15.63200000 888292889 888292889 9.00000000
-4.33379412 4.65719318 -0.55657655 11 10 31706 6.38600000 888292891 888292891 -5.00000000
-8.97783375 9.65116119 2.56218314 78 11 31707 13.42800000 888292893 888292893 11.00000000
-7.01124620 7.53972006 -0.53958368 4 12 31708 10.31000000 888292896 888292896 -3.00000000
-7.62908411 8.20699883 2.58693719 55 13 31709 11.50000000 888292898 888292898 13.00000000
-18.98513603 20.43043900 -0.48681742 3 14 31710 27.89400000 888292900 888292900 -1.00000000
-6.58709431 7.08855772 2.59284925 47 15 31710 10.01800000 888292902 888292902 15.00000000
-1.43125117 1.54452884 -0.56422549 4 0 31718 2.18000000 888292923 888292923 -15.00000000
-1.66433656 1.79732001 -0.56552696 4 2 31720 2.51400000 888292928 888292928 -13.00000000
-23.27665138 25.14529991 1.79575133 26 3 31721 34.31200000 888292930 888292930 3.00000000
-1.95915341 2.11643410 -0.56059682 3 4 31721 2.93800000 888292932 888292932 -11.00000000
-17.26955414 18.66248512 2.22456312 23 5 31722 25.52400000 888292935 888292935 5.00000000
-2.43060493 2.62757277 -0.56691849 1 6 31723 3.62400000 888292937 888292937 -9.00000000
-14.00433064 15.14449596 2.53268862 42 7 31724 20.78200000 888292939 888292939 7.00000000
-3.10459876 3.35853601 -0.56157392 2 8 31725 4.60800000 888292942 888292942 -7.00000000
-11.06827450 11.97778511 2.58304596 40 9 31726 16.51200000 888292944 888292944 9.00000000
-4.32291937 4.67814589 -0.55727381 11 10 31726 6.39400000 888292946 888292946 -5.00000000
-8.92011166 9.65648174 2.55531406 71 11 31727 13.39200000 888292949 888292949 11.00000000
-7.02146912 7.60376596 -0.54240984 4 12 31728 10.36400000 888292951 888292951 -3.00000000
-7.60171127 8.23501110 2.58738708 54 13 31729 11.50200000 888292953 888292953 13.00000000
-18.98151016 20.57006645 -0.48856267 3 14 31730 27.99400000 888292955 888292955 -1.00000000
-1.42061865 1.54382920 -0.56215495 4 0 31738 2.17200000 888292979 888292979 -15.00000000
-42.92772675 46.66720200 1.10679674 15 1 31739 63.41800000 888292981 888292981 1.00000000
-1.65805256 1.80311871 -0.56552696 4 2 31740 2.51400000 888292983 888292983 -13.00000000
-32.61236954 35.47811127 2.52552390 55 3 31741 48.25600000 888292985 888292985 3.00000000
-1.94909644 2.12036920 -0.55983359 2 4 31741 2.93400000 888292988 888292988 -11.00000000
-17.14903450 18.66250420 2.21741652 31 5 31742 25.44200000 888292990 888292990 5.00000000
-2.40003705 2.61276507 -0.56191260 1 6 31743 3.59200000 888292992 888292992 -9.00000000
-12.70675278 13.83786678 2.30674291 29 7 31744 18.92800000 888292995 888292995 7.00000000
-3.09956837 3.37666464 -0.56279260 2 8 31745 4.61800000 888292997 888292997 -7.00000000
-11.01704788 12.00615883 2.58085585 44 9 31746 16.49800000 888292999 888292999 9.00000000
-4.31195164 4.69907904 -0.55797106 11 10 31746 6.40200000 888293002 888293002 -5.00000000
-8.86246109 9.66151810 2.54844499 75 11 31747 13.35600000 888293004 888293004 11.00000000
-7.02053118 7.65619850 -0.54439861 4 12 31748 10.40200000 888293006 888293006 -3.00000000
-7.57555342 8.26436901 2.58828688 54 13 31749 11.50600000 888293008 888293008 13.00000000
-19.01496696 20.75119591 -0.49128523 3 14 31750 28.15000000 888293011 888293011 -1.00000000
-5.73739576 6.26126862 2.27553701 29 15 31750 8.79200000 888293013 888293013 15.00000000
-1.42303991 1.55733550 -0.56526077 4 0 31758 2.18400000 888293034 888293034 -15.00000000
-42.62430573 46.66321564 1.10316658 15 1 31759 63.21000000 888293036 888293036 1.00000000
-1.64649224 1.80313909 -0.56372732 4 2 31760 2.50600000 888293038 888293038 -13.00000000
-32.64587021 35.76432419 2.53777051 55 3 31761 48.49000000 888293041 888293041 3.00000000
-1.94697738 2.13295984 -0.56136006 3 4 31761 2.94200000 888293043 888293043 -11.00000000
-17.04483986 18.67957115 2.21236134 23 5 31762 25.38400000 888293045 888293045 5.00000000
-2.39888954 2.62988329 -0.56378978 1 6 31763 3.60400000 888293048 888293048 -9.00000000
-14.03201389 15.38857841 2.55706263 70 7 31764 20.98200000 888293050 888293050 7.00000000
-3.09043717 3.39039779 -0.56328011 2 8 31765 4.62200000 888293052 888293052 -7.00000000
-10.96841908 12.03724194 2.57929134 40 9 31766 16.48800000 888293055 888293055 9.00000000
-4.29552269 4.71410179 -0.55797106 7 10 31766 6.40200000 888293057 888293057 -5.00000000
-8.79959774 9.66046524 2.54004931 65 11 31767 13.31200000 888293059 888293059 11.00000000
-6.97224855 7.65702963 -0.54272389 4 12 31768 10.37000000 888293061 888293061 -3.00000000
-7.54797077 8.29220390 2.58873677 56 13 31769 11.50800000 888293064 888293064 13.00000000
-18.97740746 20.85589981 -0.49219278 3 14 31770 28.20200000 888293066 888293066 -1.00000000
-5.72720623 6.29411745 2.28019571 40 15 31770 8.81000000 888293068 888293068 15.00000000
-1.42019141 1.56515467 -0.56629604 4 0 31778 2.18800000 888293089 888293089 -15.00000000
-42.38055420 46.72284698 1.10107231 15 1 31779 63.09000000 888293091 888293091 1.00000000
-1.64018810 1.80887544 -0.56372732 4 2 31780 2.50600000 888293094 888293094 -13.00000000
-32.67735291 36.03809738 2.54949379 44 3 31780 48.71400000 888293096 888293096 3.00000000
-1.95270514 2.15428925 -0.56517625 2 4 31781 2.96200000 888293098 888293098 -11.00000000
-16.94608688 18.70204353 2.20800352 23 5 31782 25.33400000 888293101 888293101 5.00000000
-2.39102101 2.63970494 -0.56410271 1 6 31783 3.60600000 888293103 888293103 -9.00000000
-14.03417301 15.49926758 2.56729960 52 7 31784 21.06600000 888293105 888293105 7.00000000
-3.08391237 3.40705156 -0.56425506 2 8 31785 4.63000000 888293107 888293107 -7.00000000
-10.91783619 12.06183243 2.57678843 40 9 31785 16.47200000 888293110 888293110 9.00000000
-4.29374552 4.74531841 -0.55988848 3 10 31786 6.42400000 888293112 888293112 -5.00000000
-8.74870205 9.67219448 2.53508830 65 11 31787 13.28600000 888293114 888293114 11.00000000
-6.94547796 7.68132067 -0.54272389 8 12 31788 10.37000000 888293117 888293117 -3.00000000
-7.51505947 8.31416321 2.58738708 54 13 31789 11.50200000 888293119 888293119 13.00000000
-19.01710701 21.04664803 -0.49512476 3 14 31790 28.37000000 888293121 888293121 -1.00000000
-5.70261049 6.31120396 2.27916050 45 15 31790 8.80600000 888293124 888293124 15.00000000
-1.41471934 1.57010245 -0.56629604 4 0 31798 2.18800000 888293144 888293144 -15.00000000
-42.09675217 46.73677444 1.09793091 15 1 31799 62.91000000 888293147 888293147 1.00000000
-1.63386393 1.81458974 -0.56372732 4 2 31800 2.50600000 888293149 888293149 -13.00000000
-32.68801498 36.31646347 2.56069374 33 3 31801 48.92800000 888293151 888293151 3.00000000
-1.93466604 2.14941859 -0.56212330 3 4 31801 2.94600000 888293154 888293154 -11.00000000
-16.83005905 18.70480156 2.20137978 23 5 31802 25.25800000 888293156 888293156 5.00000000
-2.37782907 2.64362907 -0.56316406 1 6 31803 3.60000000 888293158 888293158 -9.00000000
-14.05962086 15.63673019 2.58192396 55 7 31804 21.18600000 888293160 888293160 7.00000000
-3.05474973 3.39860296 -0.56108648 2 8 31805 4.60400000 888293163 888293163 -7.00000000
-10.86299229 12.09001160 2.57428551 40 9 31806 16.45600000 888293165 888293165 9.00000000
-4.29047155 4.77509785 -0.56163162 3 10 31806 6.44400000 888293167 888293167 -5.00000000
-8.69651985 9.68222618 2.52974558 65 11 31807 13.25800000 888293170 888293170 11.00000000
-6.94397545 7.73375463 -0.54471260 4 12 31808 10.40800000 888293172 888293172 -3.00000000
-7.48469019 8.33889484 2.58693719 55 13 31809 11.50000000 888293174 888293174 13.00000000
-18.99427223 21.16946220 -0.49645114 3 14 31810 28.44600000 888293177 888293177 -1.00000000
-5.67815065 6.33062458 2.27864289 45 15 31811 8.80400000 888293179 888293179 15.00000000
-1.40923011 1.57503128 -0.56629604 4 0 31818 2.18800000 888293200 888293200 -15.00000000
-42.07600021 47.04291534 1.10166574 46 1 31819 63.12400000 888293202 888293202 1.00000000
-1.63141656 1.82464015 -0.56507707 3 2 31820 2.51200000 888293204 888293204 -13.00000000
-32.14673615 35.95416641 2.52761745 11 3 31820 48.29600000 888293207 888293207 3.00000000
-1.91930151 2.14737606 -0.55983359 3 4 31821 2.93400000 888293209 888293209 -11.00000000
-16.72351265 18.71737671 2.19597602 23 5 31822 25.19600000 888293211 888293211 5.00000000
-2.37648201 2.66075301 -0.56504130 1 6 31823 3.61200000 888293213 888293213 -9.00000000
-14.08031178 15.77011585 2.59581709 57 7 31824 21.30000000 888293216 888293216 7.00000000
-3.05344248 3.42109323 -0.56303638 2 8 31825 4.62000000 888293218 888293218 -7.00000000
-10.80494308 12.11016941 2.57053113 40 9 31826 16.43200000 888293220 888293220 9.00000000
-4.25653362 4.77071857 -0.55936557 3 10 31826 6.41800000 888293223 888293223 -5.00000000
-8.65090847 9.69933701 2.52631116 65 11 31827 13.24000000 888293225 888293225 11.00000000
-6.93554544 7.77881718 -0.54617804 4 12 31828 10.43600000 888293227 888293227 -3.00000000
-7.45942640 8.36933517 2.58828688 54 13 31829 11.50600000 888293230 888293230 13.00000000
-5.64813042 6.33932257 2.27501941 45 15 31830 8.79000000 888293234 888293234 15.00000000
-1.39859116 1.57416403 -0.56422549 4 0 31838 2.18000000 888293255 888293255 -15.00000000
-42.08814240 47.38835526 1.10630810 15 1 31839 63.39000000 888293257 888293257 1.00000000
-1.62762511 1.83323824 -0.56597686 4 2 31840 2.51600000 888293259 888293259 -13.00000000
-32.76626587 36.90553284 2.58644295 45 3 31840 49.42000000 888293262 888293262 3.00000000
-1.93003893 2.17461944 -0.56517625 3 4 31841 2.96200000 888293264 888293264 -11.00000000
-16.62898636 18.74285126 2.19214129 23 5 31842 25.15200000 888293266 888293266 5.00000000
-2.35931540 2.66016483 -0.56316406 1 6 31843 3.60000000 888293269 888293269 -9.00000000
-14.09497452 15.89789391 2.60873508 55 7 31844 21.40600000 888293271 888293271 7.00000000
-3.05464864 3.44658685 -0.56547374 2 8 31845 4.64000000 888293273 888293273 -7.00000000
-10.75998497 12.14485455 2.56990528 40 9 31846 16.42800000 888293276 888293276 9.00000000
-4.23985481 4.78554773 -0.55936557 3 10 31846 6.41800000 888293278 888293278 -5.00000000
-8.58575916 9.69420242 2.51715231 68 11 31847 13.19200000 888293280 888293280 11.00000000
-6.92556143 7.82241917 -0.54753876 4 12 31848 10.46200000 888293283 888293283 -3.00000000
-7.43662405 8.40261841 2.59053636 57 13 31849 11.51600000 888293285 888293285 13.00000000
-15.15578747 17.13050079 -0.39924124 17 14 31850 22.87600000 888293287 888293287 -1.00000000
-5.62084723 6.35321188 2.27294874 45 15 31850 8.78200000 888293289 888293289 15.00000000
-1.39847660 1.58458698 -0.56629604 4 0 31857 2.18800000 888293310 888293310 -15.00000000
-15.11862469 17.13665199 0.39889219 18 1 31858 22.85600000 888293312 888293312 1.00000000
-1.62024796 1.83716404 -0.56552696 3 2 31859 2.51400000 888293315 888293315 -13.00000000
-15.13121223 17.16299057 1.19912148 10 3 31860 22.91200000 888293317 888293317 3.00000000
-1.91762364 2.17511702 -0.56364977 3 4 31860 2.95400000 888293319 888293319 -11.00000000
-15.11240864 17.14769554 1.99970138 21 5 31861 22.94400000 888293322 888293322 5.00000000
-2.35048079 2.66797400 -0.56316406 1 6 31862 3.60000000 888293324 888293324 -9.00000000
-14.09334564 16.00264549 2.61824107 60 7 31863 21.48400000 888293326 888293326 7.00000000
-3.03270864 3.44477797 -0.56352383 2 8 31864 4.62400000 888293329 888293329 -7.00000000
-10.72177696 12.17859840 2.56990528 36 9 31864 16.42800000 888293331 888293331 9.00000000
-4.23185968 4.80855513 -0.56041145 3 10 31865 6.43000000 888293333 888293333 -5.00000000
-8.52503490 9.69019222 2.50875664 65 11 31866 13.14800000 888293336 888293336 11.00000000
-6.88903141 7.83334398 -0.54670137 4 12 31867 10.44600000 888293338 888293338 -3.00000000
-7.40614557 8.42430592 2.58963656 57 13 31868 11.51200000 888293340 888293340 13.00000000
-15.06985569 17.14762115 -0.39847335 11 14 31869 22.83200000 888293342 888293342 -1.00000000
-5.60373640 6.37859917 2.27501941 45 15 31870 8.79000000 888293345 888293345 15.00000000
-1.39548337 1.59236467 -0.56733137 4 0 31877 2.19200000 888293365 888293365 -15.00000000
-15.02577209 17.15171623 0.39801958 18 1 31878 22.80600000 888293368 888293368 1.00000000
-1.60483813 1.83254635 -0.56237763 4 2 31879 2.50000000 888293370 888293370 -13.00000000
-15.03079224 17.16349030 1.19566727 14 3 31879 22.84600000 888293372 888293372 3.00000000
-1.91001940 2.18179750 -0.56364977 3 4 31880 2.95400000 888293375 888293375 -11.00000000
-15.02096939 17.16435814 1.99551785 21 5 31881 22.89600000 888293377 888293377 5.00000000
-2.34245420 2.67764926 -0.56347692 1 6 31882 3.60200000 888293379 888293379 -9.00000000
-14.04524040 16.06070900 2.61970329 47 7 31883 21.49600000 888293382 888293382 7.00000000
-3.02066565 3.45534301 -0.56352383 2 8 31884 4.62400000 888293384 888293384 -7.00000000
-4.21504879 4.82329798 -0.56041145 3 10 31885 6.43000000 888293389 888293389 -5.00000000
-8.46661758 9.69179821 2.50150585 62 11 31886 13.11000000 888293391 888293391 11.00000000
-6.86952829 7.86636972 -0.54732943 4 12 31887 10.45800000 888293393 888293393 -3.00000000
-7.37413120 8.44717121 2.58873677 56 13 31888 11.50800000 888293395 888293395 13.00000000
-14.98098183 17.16697311 -0.39770544 11 14 31889 22.78800000 888293398 888293398 -1.00000000
-5.58143663 6.39812088 2.27501941 45 15 31890 8.79000000 888293400 888293400 15.00000000
-1.39498913 1.60305548 -0.56940192 4 0 31897 2.20000000 888293421 888293421 -15.00000000
-14.93431091 17.16785240 0.39718187 13 1 31898 22.75800000 888293423 888293423 1.00000000
-1.60994029 1.85137165 -0.56642675 3 2 31899 2.51800000 888293425 888293425 -13.00000000
-14.94064522 17.18118858 1.19325984 10 3 31899 22.80000000 888293428 888293428 3.00000000
-1.89981592 2.18548822 -0.56288654 3 4 31900 2.95000000 888293430 888293430 -11.00000000
-14.92045021 17.17006683 1.99011421 20 5 31901 22.83400000 888293432 888293432 5.00000000
-2.34734321 2.70221376 -0.56691849 1 6 31902 3.62400000 888293435 888293435 -9.00000000
-13.98648930 16.10663986 2.61921597 47 7 31903 21.49200000 888293437 888293437 7.00000000
-3.00598335 3.46286798 -0.56303638 2 8 31904 4.62000000 888293439 888293439 -7.00000000
-9.31955814 10.73605347 2.25171781 3 9 31904 14.39400000 888293442 888293442 9.00000000
-4.21516228 4.85754442 -0.56267750 3 10 31905 6.45600000 888293444 888293444 -5.00000000
-8.42244339 9.70942974 2.49845290 62 11 31906 13.09400000 888293446 888293446 11.00000000
-6.87604809 7.92953396 -0.55005091 4 12 31907 10.51000000 888293448 888293448 -3.00000000
-7.34077072 8.46844292 2.58738708 54 13 31908 11.50200000 888293451 888293451 13.00000000
-14.86596584 17.15568924 -0.39623943 8 14 31909 22.70400000 888293453 888293453 -1.00000000
-5.56159878 6.42048502 2.27605462 47 15 31910 8.79400000 888293455 888293455 15.00000000
-1.38180649 1.59914470 -0.56629604 4 0 31917 2.18800000 888293476 888293476 -15.00000000
-14.83507824 17.17447853 0.39613473 13 1 31918 22.69800000 888293478 888293478 1.00000000
-1.59964716 1.85255527 -0.56507707 4 2 31919 2.51200000 888293481 888293481 -13.00000000
-14.84403133 17.19091034 1.19032896 14 3 31919 22.74400000 888293483 888293483 3.00000000
-1.89858961 2.19953728 -0.56479460 3 4 31920 2.96000000 888293485 888293485 -11.00000000
-14.82267761 17.17829895 1.98505914 20 5 31921 22.77600000 888293488 888293488 5.00000000
-2.33144522 2.70291209 -0.56535417 1 6 31922 3.61400000 888293490 888293490 -9.00000000
-13.92499638 16.14935112 2.61824107 45 7 31923 21.48400000 888293492 888293492 7.00000000
-3.01331806 3.49589372 -0.56669247 2 8 31924 4.65000000 888293495 888293495 -7.00000000
-10.55496693 12.24531937 2.56051922 24 9 31924 16.36800000 888293497 888293497 9.00000000
-4.19948101 4.87373781 -0.56285179 3 10 31925 6.45800000 888293499 888293499 -5.00000000
-8.37824917 9.72686958 2.49539995 62 11 31926 13.07800000 888293501 888293501 11.00000000
-6.84832716 7.95348740 -0.55005091 4 12 31927 10.51000000 888293504 888293504 -3.00000000
-7.31243706 8.49549198 2.58783698 56 13 31928 11.50400000 888293506 888293506 13.00000000
-14.77729702 17.17412949 -0.39547154 11 14 31929 22.66000000 888293508 888293508 -1.00000000
-5.53915310 6.43985987 2.27605462 47 15 31930 8.79400000 888293511 888293511 15.00000000
-1.36894655 1.59492254 -0.56319022 4 0 31936 2.17600000 888293531 888293531 -15.00000000
-14.74418831 17.18412209 0.39522719 13 1 31937 22.64600000 888293534 888293534 1.00000000
-1.60110724 1.86672473 -0.56777644 4 2 31938 2.52400000 888293536 888293536 -13.00000000
-14.74923420 17.19607544 1.18729353 14 3 31938 22.68600000 888293538 888293538 3.00000000
-1.87978423 2.19240737 -0.56136006 3 4 31939 2.94200000 888293541 888293541 -11.00000000
-14.73321629 17.18953896 1.98070145 20 5 31940 22.72600000 888293543 888293543 5.00000000
-2.33146596 2.72112918 -0.56754422 1 6 31941 3.62800000 888293545 888293545 -9.00000000
-13.86491013 16.18790054 2.61702228 42 7 31942 21.47400000 888293547 888293547 7.00000000
-2.99783564 3.50134349 -0.56596124 2 8 31943 4.64400000 888293550 888293550 -7.00000000
-10.51430130 12.28025341 2.56051922 40 9 31943 16.36800000 888293552 888293552 9.00000000
-4.18847847 4.89369154 -0.56354904 3 10 31944 6.46600000 888293554 888293554 -5.00000000
-8.32169819 9.72625637 2.48814940 65 11 31945 13.04000000 888293557 888293557 11.00000000
-6.85307074 8.01258087 -0.55256301 4 12 31946 10.55800000 888293559 888293559 -3.00000000
-7.28928995 8.52561855 2.58963656 59 13 31947 11.51200000 888293561 888293561 13.00000000
-14.68778324 17.18503380 -0.39459890 17 14 31948 22.61000000 888293564 888293564 -1.00000000
-5.50508785 6.44107580 2.27036071 47 15 31948 8.77200000 888293566 888293566 15.00000000
-1.37590194 1.61439443 -0.56836665 4 0 31956 2.19600000 888293587 888293587 -15.00000000
-14.64261532 17.18677521 0.39411023 18 1 31957 22.58200000 888293589 888293589 1.00000000
-1.58573663 1.86191714 -0.56462717 3 2 31958 2.51000000 888293591 888293591 -13.00000000
-14.65285969 17.20487976 1.18436265 14 3 31958 22.63000000 888293594 888293594 3.00000000
-1.88739204 2.21689415 -0.56593949 3 4 31959 2.96600000 888293596 888293596 -11.00000000
-14.64342403 17.20596504 1.97669220 20 5 31960 22.68000000 888293598 888293598 5.00000000
-2.30787301 2.71270084 -0.56410271 1 6 31961 3.60600000 888293600 888293600 -9.00000000
-13.79417324 16.21956635 2.61434126 32 7 31962 21.45200000 888293603 888293603 7.00000000
-2.99845314 3.52691054 -0.56839859 2 8 31963 4.66400000 888293605 888293605 -7.00000000
-10.47137165 12.31688023 2.56051922 40 9 31963 16.36800000 888293607 888293607 9.00000000
-4.17266083 4.90980053 -0.56372333 3 10 31964 6.46800000 888293610 888293610 -5.00000000
-8.26990032 9.73429871 2.48280668 65 11 31965 13.01200000 888293612 888293612 11.00000000
-6.83798885 8.05167770 -0.55360973 4 12 31966 10.57800000 888293614 888293614 -3.00000000
-7.25948572 8.55101109 2.58963656 57 13 31967 11.51200000 888293617 888293617 13.00000000
-14.58371353 17.18436050 -0.39341214 11 14 31968 22.54200000 888293619 888293619 -1.00000000
-5.48769188 6.46857500 2.27294874 47 15 31969 8.78200000 888293621 888293621 15.00000000
-1.36748016 1.61647677 -0.56733137 4 0 31977 2.19200000 888293642 888293642 -15.00000000
-14.54336929 17.19757271 0.39313290 18 1 31978 22.52600000 888293644 888293644 1.00000000
-1.57638562 1.86474013 -0.56372732 3 2 31979 2.50600000 888293647 888293647 -13.00000000
-14.55832863 17.22745514 1.18205988 14 3 31980 22.58600000 888293649 888293649 3.00000000
-1.87165093 2.21479964 -0.56364977 3 4 31980 2.95400000 888293651 888293651 -11.00000000
-14.53911877 17.21081543 1.97111428 20 5 31981 22.61600000 888293653 888293653 5.00000000
-2.29664063 2.71963215 -0.56378978 1 6 31982 3.60400000 888293656 888293656 -9.00000000
-13.72310829 16.25636292 2.61214757 25 7 31983 21.43400000 888293658 888293658 7.00000000
-2.96502256 3.51360297 -0.56449878 2 8 31984 4.63200000 888293660 888293660 -7.00000000
-10.42615795 12.35517693 2.56051922 56 9 31984 16.36800000 888293663 888293663 9.00000000
-4.16234541 4.93419838 -0.56476921 3 10 31985 6.48000000 888293665 888293665 -5.00000000
-8.20379162 9.72852325 2.47364783 68 11 31986 12.96400000 888293667 888293667 11.00000000
-6.80070829 8.06752300 -0.55298173 4 12 31987 10.56600000 888293670 888293670 -3.00000000
-7.22809601 8.57756138 2.58963656 55 13 31988 11.51200000 888293672 888293672 13.00000000
-14.48842430 17.19946289 -0.39253953 8 14 31989 22.49200000 888293674 888293674 -1.00000000
-5.45885611 6.48030376 2.27036071 47 15 31989 8.77200000 888293677 888293677 15.00000000
-1.37176967 1.63307416 -0.57147247 4 0 31997 2.20800000 888293697 888293697 -15.00000000
-14.45238781 17.21148109 0.39229518 18 1 31998 22.47800000 888293700 888293700 1.00000000
-1.57111967 1.87172401 -0.56417722 4 2 31999 2.50800000 888293702 888293702 -13.00000000
-14.45830631 17.23073769 1.17881513 14 3 32000 22.52400000 888293704 888293704 3.00000000
-1.87148011 2.23034310 -0.56593949 3 4 32000 2.96600000 888293706 888293706 -11.00000000
-14.46230793 17.24161720 1.96884823 20 5 32001 22.59000000 888293709 888293709 5.00000000
-2.29728699 2.73974180 -0.56629276 1 6 32002 3.62000000 888293711 888293711 -9.00000000
-13.65480232 16.29047394 2.60995388 17 7 32003 21.41600000 888293713 888293713 7.00000000
-2.97058868 3.54523325 -0.56791115 2 8 32004 4.66000000 888293716 888293716 -7.00000000
-10.36811924 12.37816429 2.55739069 60 9 32005 16.34800000 888293718 888293718 9.00000000
-4.14637613 4.95022535 -0.56494355 3 10 32005 6.48200000 888293720 888293720 -5.00000000
-8.15465832 9.73903751 2.46906829 68 11 32006 12.94000000 888293723 888293723 11.00000000
-6.78532553 8.10652924 -0.55402845 4 12 32007 10.58600000 888293725 888293725 -3.00000000
-7.19185781 8.59526730 2.58738708 53 13 32008 11.50200000 888293727 888293727 13.00000000
-14.40263939 17.21925545 -0.39184144 11 14 32009 22.45200000 888293730 888293730 -1.00000000
-5.43754625 6.50323200 2.27139592 47 15 32010 8.77600000 888293732 888293732 15.00000000
-1.35616183 1.62598407 -0.56733137 4 0 32017 2.19200000 888293753 888293753 -15.00000000
-14.36404800 17.22803497 0.39152730 13 1 32018 22.43400000 888293755 888293755 1.00000000
-1.57081497 1.88468170 -0.56642675 3 2 32019 2.51800000 888293757 888293757 -13.00000000
-14.36227512 17.23813820 1.17588425 14 3 32020 22.46800000 888293759 888293759 3.00000000
-1.84860301 2.21876216 -0.56136006 3 4 32020 2.94200000 888293762 888293762 -11.00000000
-14.35995770 17.24147415 1.96309590 20 5 32021 22.52400000 888293764 888293764 5.00000000
-2.30666852 2.77051544 -0.57098579 1 6 32022 3.65000000 888293766 888293766 -9.00000000
-11.53684235 13.86170101 2.21436596 16 7 32023 18.17000000 888293769 888293769 7.00000000
-2.97850919 3.57999706 -0.57181096 2 8 32024 4.69200000 888293771 888293771 -7.00000000
-10.31943417 12.40336704 2.55551338 56 9 32024 16.33600000 888293773 888293773 9.00000000
-4.13161945 4.96773243 -0.56529212 3 10 32025 6.48600000 888293776 888293776 -5.00000000
-7.43155336 8.93864441 2.25956011 21 11 32026 11.84200000 888293778 888293778 11.00000000
