# .PCD v0.7 - Point Cloud Data file format
VERSION 0.7
FIELDS x y z intensity laser_id azimuth distance_m adjustedtime timestamp vertical_angle
SIZE 4 4 4 1 1 2 8 8 4 8
TYPE F F F U U U F U U F
COUNT 1 1 1 1 1 1 1 1 1 1
WIDTH 532
HEIGHT 1
VIEWPOINT 0 0 0 1 0 0 0
POINTS 532
DATA ascii
-13.83083344 -25.51569176 2.53919530 9 5 20846 29.13400000 888762841 888762841 5.00000000
-1.47463834 -2.71934032 -0.48995274 2 6 20847 3.13200000 888762844 888762844 -9.00000000
-10.71735096 -19.75534630 2.75960946 39 7 20848 22.64400000 888762846 888762846 7.00000000
-1.84266675 -3.39518309 -0.47431549 1 8 20849 3.89200000 888762848 888762848 -7.00000000
-7.93453979 -14.61360455 2.63373065 80 9 20850 16.83600000 888762851 888762851 9.00000000
-2.46703029 -4.54370451 -0.45233831 3 10 20850 5.19000000 888762853 888762853 -5.00000000
-5.09493208 -9.37979317 2.07485700 9 11 20851 10.87400000 888762855 888762855 11.00000000
-3.62662554 -6.67385674 -0.39806730 4 12 20852 7.60600000 888762857 888762857 -3.00000000
-5.88051033 -10.81704235 2.84248161 57 13 20853 12.63600000 888762860 888762860 13.00000000
-6.34193754 -11.66097450 -0.23169814 24 14 20854 13.27600000 888762862 888762862 -1.00000000
-4.12943459 -7.59282684 2.31591272 9 15 20854 8.94800000 888762864 888762864 15.00000000
-0.93215972 -1.70970190 -0.52177918 5 0 20860 2.01600000 888762885 888762885 -15.00000000
-8.42926216 -15.45394325 0.30726707 11 1 20861 17.60600000 888762887 888762887 1.00000000
-1.06225836 -1.94670260 -0.51198858 4 2 20862 2.27600000 888762890 888762890 -13.00000000
-8.42360020 -15.43715191 0.92163616 2 3 20862 17.61000000 888762892 888762892 3.00000000
-1.23795629 -2.26774645 -0.50220925 3 4 20863 2.63200000 888762894 888762894 -11.00000000
-13.84407806 -25.34971046 2.52699351 9 5 20864 28.99400000 888762897 888762897 5.00000000
-1.48317409 -2.71469426 -0.48995274 2 6 20865 3.13200000 888762899 888762899 -9.00000000
-10.77555275 -19.71461105 2.75863457 34 7 20866 22.63600000 888762901 888762901 7.00000000
-1.86094296 -3.40331101 -0.47626540 1 8 20867 3.90800000 888762903 888762903 -7.00000000
-7.98070765 -14.59519768 2.63466930 84 9 20867 16.84200000 888762906 888762906 9.00000000
-2.47938013 -4.53243589 -0.45198968 3 10 20868 5.18600000 888762908 888762908 -5.00000000
-5.13002920 -9.37407398 2.07714677 25 11 20869 10.88600000 888762910 888762910 11.00000000
-3.65524721 -6.67644548 -0.39890465 4 12 20870 7.62200000 888762913 888762913 -3.00000000
-5.40427351 -9.86701870 2.59728479 14 13 20871 11.54600000 888762915 888762915 13.00000000
-6.34779072 -11.58487511 -0.23058119 22 14 20872 13.21200000 888762917 888762917 -1.00000000
-4.16162252 -7.59506416 2.32057166 9 15 20872 8.96600000 888762920 888762920 15.00000000
-0.93067664 -1.69289446 -0.51763809 4 0 20880 2.00000000 888762940 888762940 -15.00000000
-8.50531960 -15.46472549 0.30806988 15 1 20881 17.65200000 888762943 888762943 1.00000000
-1.06904721 -1.94298267 -0.51198858 4 2 20882 2.27600000 888762945 888762945 -13.00000000
-8.53694630 -15.50940704 0.92781186 2 3 20883 17.72800000 888762947 888762947 3.00000000
-1.24018443 -2.25309181 -0.49991956 3 4 20883 2.62000000 888762950 888762950 -11.00000000
-13.87673950 -25.20000648 2.51688361 9 5 20884 28.87800000 888762952 888762952 5.00000000
-1.50026631 -2.72334218 -0.49245569 3 6 20885 3.14800000 888762954 888762954 -9.00000000
-10.84142876 -19.67166138 2.75790334 28 7 20886 22.63000000 888762956 888762956 7.00000000
-1.86706066 -3.38636422 -0.47480297 1 8 20887 3.89600000 888762959 888762959 -7.00000000
-8.03414822 -14.56584835 2.63466930 80 9 20888 16.84200000 888762961 888762961 9.00000000
-2.50095987 -4.53422117 -0.45303556 3 10 20888 5.19800000 888762963 888762963 -5.00000000
-7.14984035 -12.95725727 2.87663651 45 11 20889 15.07600000 888762966 888762966 11.00000000
-3.67080808 -6.64965773 -0.39806730 4 12 20890 7.60600000 888762968 888762968 -3.00000000
-5.93799019 -10.75221539 2.83573294 40 13 20891 12.60600000 888762970 888762970 13.00000000
-6.34757566 -11.48913288 -0.22911519 24 14 20892 13.12800000 888762973 888762973 -1.00000000
-4.19597387 -7.59159565 2.32419491 11 15 20893 8.98000000 888762975 888762975 15.00000000
-0.93377054 -1.68456662 -0.51608515 4 0 20900 1.99400000 888762996 888762996 -15.00000000
-8.56506824 -15.44543457 0.30827931 7 1 20901 17.66400000 888762998 888762998 1.00000000
-1.08149505 -1.94946373 -0.51468801 4 2 20902 2.28800000 888763000 888763000 -13.00000000
-8.61352158 -15.52642059 0.93053329 2 3 20902 17.78000000 888763003 888763003 3.00000000
-1.24994707 -2.25218225 -0.50068283 3 4 20903 2.62400000 888763005 888763005 -11.00000000
-13.89111614 -25.01902771 2.50363588 9 5 20904 28.72600000 888763007 888763007 5.00000000
-1.50784504 -2.71463490 -0.49182996 3 6 20905 3.14400000 888763009 888763009 -9.00000000
-12.44987297 -22.40480042 3.14715385 28 7 20906 25.82400000 888763012 888763012 7.00000000
-1.87501192 -3.37288618 -0.47382802 1 8 20907 3.88800000 888763014 888763014 -7.00000000
-8.08878326 -14.54462147 2.63592076 80 9 20908 16.85000000 888763016 888763016 9.00000000
-2.50515175 -4.50456905 -0.45094383 3 10 20908 5.17400000 888763019 888763019 -5.00000000
-7.19216251 -12.92707443 2.87549162 55 11 20909 15.07000000 888763021 888763021 11.00000000
-3.68622684 -6.62284231 -0.39722991 4 12 20910 7.59000000 888763023 888763023 -3.00000000
-5.98686266 -10.75185299 2.84113193 43 13 20911 12.63000000 888763026 888763026 13.00000000
-6.36331320 -11.42323208 -0.22824258 20 14 20912 13.07800000 888763028 888763028 -1.00000000
-4.21924496 -7.57426405 2.32315969 9 15 20912 8.97600000 888763030 888763030 15.00000000
-0.94247252 -1.68635595 -0.51763809 5 0 20920 2.00000000 888763051 888763051 -15.00000000
-8.66577339 -15.49922276 0.30995473 7 1 20921 17.76000000 888763053 888763053 1.00000000
-1.08258557 -1.93547201 -0.51198858 4 2 20922 2.27600000 888763055 888763055 -13.00000000
-8.70471668 -15.56249809 0.93451083 2 3 20922 17.85600000 888763058 888763058 3.00000000
-1.26355314 -2.25808501 -0.50297248 3 4 20923 2.63600000 888763060 888763060 -11.00000000
-13.91315842 -24.85390663 2.49195695 35 5 20924 28.59200000 888763062 888763062 5.00000000
-1.50379872 -2.68522596 -0.48744980 2 6 20925 3.11600000 888763065 888763065 -9.00000000
-12.50762844 -22.32483673 3.14203548 31 7 20926 25.78200000 888763067 888763067 7.00000000
-1.89647973 -3.38363719 -0.47626540 1 8 20927 3.90800000 888763069 888763069 -7.00000000
-8.14626694 -14.52835846 2.63811088 84 9 20928 16.86400000 888763072 888763072 9.00000000
-2.51111603 -4.47841835 -0.44920069 3 10 20928 5.15400000 888763074 888763074 -5.00000000
-7.23916340 -12.90531445 2.87625480 55 11 20929 15.07400000 888763076 888763076 11.00000000
-3.70932245 -6.60993481 -0.39722991 4 12 20930 7.59000000 888763079 888763079 -3.00000000
-6.03389692 -10.74788189 2.84563088 50 13 20931 12.65000000 888763081 888763081 13.00000000
-6.37377214 -11.34864426 -0.22719543 13 14 20932 13.01800000 888763083 888763083 -1.00000000
-4.26363230 -7.59149313 2.33299494 18 15 20932 9.01400000 888763085 888763085 15.00000000
-0.94740486 -1.68137276 -0.51712048 4 0 20940 1.99800000 888763106 888763106 -15.00000000
-8.71687698 -15.46365261 0.30985004 3 1 20941 17.75400000 888763108 888763108 1.00000000
-1.08167720 -1.91810191 -0.50838935 4 2 20942 2.26000000 888763111 888763111 -13.00000000
-8.77347374 -15.55136299 0.93576688 2 3 20943 17.88000000 888763113 888763113 3.00000000
-1.27335703 -2.25708055 -0.50373572 3 4 20943 2.64000000 888763115 888763115 -11.00000000
-13.94401073 -24.70628738 2.48202133 26 5 20944 28.47800000 888763118 888763118 5.00000000
-1.51607645 -2.68512058 -0.48838839 2 6 20945 3.12200000 888763120 888763120 -9.00000000
-12.60403061 -22.31388092 3.14666653 21 7 20946 25.82000000 888763122 888763122 7.00000000
-1.89265358 -3.34934449 -0.47236559 1 8 20947 3.87600000 888763125 888763125 -7.00000000
-8.19731617 -14.50642395 2.63904953 84 9 20947 16.87000000 888763127 888763127 9.00000000
-2.54438210 -4.50084543 -0.45233831 3 10 20948 5.19000000 888763129 888763129 -5.00000000
-7.28610039 -12.88338470 2.87701797 55 11 20949 15.07800000 888763132 888763132 11.00000000
-3.72843862 -6.58999300 -0.39681122 4 12 20950 7.58200000 888763134 888763134 -3.00000000
-6.06849766 -10.72166634 2.84428120 51 13 20951 12.64400000 888763136 888763136 13.00000000
-6.40743589 -11.31588650 -0.22698599 6 14 20952 13.00600000 888763138 888763138 -1.00000000
-4.30190182 -7.59430504 2.33868885 20 15 20953 9.03600000 888763141 888763141 15.00000000
-0.96090198 -1.69149339 -0.52126157 4 0 20960 2.01400000 888763161 888763161 -15.00000000
-1.09607124 -1.92786705 -0.51198858 4 2 20962 2.27600000 888763166 888763166 -13.00000000
-8.84473896 -15.55690861 0.93786031 2 3 20962 17.92000000 888763168 888763168 3.00000000
-1.27734542 -2.24579573 -0.50220925 3 4 20963 2.63200000 888763171 888763171 -11.00000000
-17.05317116 -29.97027206 3.01680899 70 5 20964 34.61400000 888763173 888763173 5.00000000
-1.52543998 -2.67981219 -0.48838839 2 6 20965 3.12200000 888763175 888763175 -9.00000000
-10.63958549 -18.68347359 2.63993382 10 7 20966 21.66200000 888763178 888763178 7.00000000
-1.91612506 -3.36341548 -0.47529045 1 8 20967 3.90000000 888763180 888763180 -7.00000000
-8.25336361 -14.48143005 2.63998795 84 9 20968 16.87600000 888763182 888763182 9.00000000
-2.54823899 -4.47116423 -0.45024657 3 10 20968 5.16600000 888763185 888763185 -5.00000000
-7.33686161 -12.86810589 2.87930775 55 11 20969 15.09000000 888763187 888763187 11.00000000
-3.74746108 -6.56999874 -0.39639252 4 12 20970 7.57400000 888763189 888763189 -3.00000000
-6.10202312 -10.69364834 2.84248161 53 13 20971 12.63600000 888763191 888763191 13.00000000
-6.46573257 -11.32644749 -0.22764920 6 14 20972 13.04400000 888763194 888763194 -1.00000000
-4.33988094 -7.59937334 2.34490061 22 15 20973 9.06000000 888763196 888763196 15.00000000
-0.95845181 -1.67287409 -0.51660281 4 0 20981 1.99600000 888763217 888763217 -15.00000000
-1.10119116 -1.92045581 -0.51108879 4 2 20983 2.27200000 888763221 888763221 -13.00000000
-8.94143772 -15.59369183 0.94204724 2 3 20983 18.00000000 888763224 888763224 3.00000000
-1.28166056 -2.23428702 -0.50068283 3 4 20984 2.62400000 888763226 888763226 -11.00000000
-17.12621117 -29.84362984 3.01035929 100 5 20985 34.54000000 888763228 888763228 5.00000000
-1.54508686 -2.69133449 -0.49151710 2 6 20986 3.14200000 888763231 888763231 -9.00000000
-10.73962879 -18.69943810 2.64773345 22 7 20987 21.72600000 888763233 888763233 7.00000000
-1.91657233 -3.33571529 -0.47236559 1 8 20988 3.87600000 888763235 888763235 -7.00000000
-8.30484772 -14.45424557 2.64030099 80 9 20988 16.87800000 888763238 888763238 9.00000000
-2.56858110 -4.46870422 -0.45094383 3 10 20989 5.17400000 888763240 888763240 -5.00000000
-7.38593388 -12.84453201 2.88007092 55 11 20990 15.09400000 888763242 888763242 11.00000000
-3.76554084 -6.54583216 -0.39576450 4 12 20991 7.56200000 888763244 888763244 -3.00000000
-6.14798021 -10.68303394 2.84563088 52 13 20992 12.65000000 888763247 888763247 13.00000000
-6.41541147 -11.14323711 -0.22443795 6 14 20993 12.86000000 888763249 888763249 -1.00000000
-4.37638283 -7.59848213 2.34955931 22 15 20994 9.07800000 888763251 888763251 15.00000000
-0.95945430 -1.66115391 -0.51401460 4 0 21001 1.98600000 888763272 888763272 -15.00000000
-1.10788810 -1.91660023 -0.51108879 4 2 21003 2.27200000 888763277 888763277 -13.00000000
-8.99581528 -15.56238556 0.94204724 2 3 21003 18.00000000 888763279 888763279 3.00000000
-1.29731441 -2.24339604 -0.50373572 3 4 21004 2.64000000 888763281 888763281 -11.00000000
-17.19536018 -29.72330666 3.00425839 40 5 21005 34.47000000 888763284 888763284 5.00000000
-1.55546141 -2.68763447 -0.49182996 3 6 21006 3.14400000 888763286 888763286 -9.00000000
-10.83169174 -18.70821953 2.65431428 22 7 21007 21.78000000 888763288 888763288 7.00000000
-1.91029549 -3.29808545 -0.46797827 1 8 21008 3.84000000 888763291 888763291 -7.00000000
-8.36416245 -14.44055176 2.64311671 84 9 21008 16.89600000 888763293 888763293 9.00000000
-2.58815980 -4.46660662 -0.45164105 3 10 21009 5.18200000 888763295 888763295 -5.00000000
-7.43269348 -12.82206917 2.88083410 55 11 21010 15.09800000 888763297 888763297 11.00000000
-3.78035140 -6.51882601 -0.39492711 4 12 21011 7.54600000 888763300 888763300 -3.00000000
-6.18914509 -10.66825104 2.84743047 53 13 21012 12.65800000 888763302 888763302 13.00000000
-6.41512251 -11.05332375 -0.22307666 9 14 21013 12.78200000 888763304 888763304 -1.00000000
-4.40772963 -7.59151268 2.35214758 22 15 21014 9.08800000 888763307 888763307 15.00000000
-0.97205132 -1.66948104 -0.51763809 4 0 21021 2.00000000 888763327 888763327 -15.00000000
-1.11457145 -1.91272128 -0.51108879 4 2 21023 2.27200000 888763332 888763332 -13.00000000
-1.30513740 -2.23885393 -0.50373572 3 4 21024 2.64000000 888763337 888763337 -11.00000000
-1.55686998 -2.66853881 -0.48932701 2 6 21026 3.12800000 888763341 888763341 -9.00000000
-10.92094517 -18.71144295 2.66016412 20 7 21027 21.82800000 888763343 888763343 7.00000000
-1.94181502 -3.32568264 -0.47285306 1 8 21028 3.88000000 888763346 888763346 -7.00000000
-8.41551399 -14.41297340 2.64342952 52 9 21028 16.89800000 888763348 888763348 9.00000000
-2.58765674 -4.43001842 -0.44885206 3 10 21029 5.15000000 888763350 888763350 -5.00000000
-7.47146273 -12.78587627 2.87854457 19 11 21030 15.08600000 888763353 888763353 11.00000000
-3.80207539 -6.50386620 -0.39482245 4 12 21031 7.54400000 888763355 888763355 -3.00000000
-6.22044420 -10.63648891 2.84473109 20 13 21032 12.64600000 888763357 888763357 13.00000000
-3.49733138 -5.97777796 1.85573256 22 15 21033 7.17000000 888763362 888763362 15.00000000
-0.97982872 -1.66940999 -0.51867336 5 0 21041 2.00400000 888763383 888763383 -15.00000000
-3.52254105 -5.99922705 0.12143385 8 1 21042 6.95800000 888763385 888763385 1.00000000
-1.11531937 -1.89873719 -0.50838935 4 2 21043 2.26000000 888763387 888763387 -13.00000000
-3.52637625 -6.00335836 0.36488628 17 3 21043 6.97200000 888763390 888763390 3.00000000
-1.31891239 -2.24444032 -0.50602543 3 4 21044 2.65200000 888763392 888763392 -11.00000000
-3.52289772 -5.99264574 0.60817277 13 5 21045 6.97800000 888763394 888763394 5.00000000
-1.56317127 -2.65797973 -0.48838839 2 6 21046 3.12200000 888763396 888763396 -9.00000000
-3.52214503 -5.98658133 0.85284168 7 7 21047 6.99800000 888763399 888763399 7.00000000
-1.96549499 -3.33941317 -0.47577792 1 8 21048 3.90400000 888763401 888763401 -7.00000000
-3.52398205 -5.98731279 1.10036004 47 9 21048 7.03400000 888763403 888763403 9.00000000
-2.61119199 -4.43469381 -0.45024657 3 10 21049 5.16600000 888763406 888763406 -5.00000000
-3.50841904 -5.95611382 1.34367692 50 11 21050 7.04200000 888763408 888763408 11.00000000
-3.54793668 -6.02079821 -0.36624703 7 12 21051 6.99800000 888763410 888763410 -3.00000000
-3.53811550 -5.99934292 -0.12157346 19 14 21053 6.96600000 888763415 888763415 -1.00000000
-3.50841951 -5.94661713 1.85003853 56 15 21054 7.14800000 888763417 888763417 15.00000000
-0.98889273 -1.67079496 -0.52022630 5 0 21062 2.01000000 888763438 888763438 -15.00000000
-3.53431726 -5.96906900 0.12108479 11 1 21063 6.93800000 888763440 888763440 1.00000000
-1.12723684 -1.90302002 -0.51063889 4 2 21064 2.27000000 888763443 888763443 -13.00000000
-3.53616500 -5.96743679 0.36352554 7 3 21065 6.94600000 888763445 888763445 3.00000000
-1.32112479 -2.22945738 -0.50373572 3 4 21065 2.64000000 888763447 888763447 -11.00000000
-3.53874207 -5.96940994 0.60712689 6 5 21066 6.96600000 888763449 888763449 5.00000000
-1.57894850 -2.66242695 -0.49026561 1 6 21067 3.13400000 888763452 888763452 -9.00000000
-3.53393459 -5.95655966 0.85040426 10 7 21068 6.97800000 888763454 888763454 7.00000000
-1.96556318 -3.31170225 -0.47285306 1 8 21069 3.88000000 888763456 888763456 -7.00000000
-3.52876329 -5.94547844 1.09504128 57 9 21069 7.00000000 888763459 888763459 9.00000000
-2.62335968 -4.41824102 -0.44954932 3 10 21070 5.15800000 888763461 888763461 -5.00000000
-3.52220488 -5.92971134 1.34062397 62 11 21071 7.02600000 888763463 888763463 11.00000000
-3.55875707 -5.98886728 -0.36509565 10 12 21072 6.97600000 888763466 888763466 -3.00000000
-3.52112293 -5.92318010 1.59085381 90 13 21073 7.07200000 888763468 888763468 13.00000000
-3.54065990 -5.95367908 -0.12091027 8 14 21074 6.92800000 888763470 888763470 -1.00000000
-3.51335645 -5.90776730 1.84175634 69 15 21074 7.11600000 888763473 888763473 15.00000000
-0.98977005 -1.65903771 -0.51763809 5 0 21082 2.00000000 888763493 888763493 -15.00000000
-3.55103230 -5.94982719 0.12094518 8 1 21083 6.93000000 888763496 888763496 1.00000000
-1.13786876 -1.90576637 -0.51243848 4 2 21084 2.27800000 888763498 888763498 -13.00000000
-3.55594945 -5.95334244 0.36342087 10 3 21085 6.94400000 888763500 888763500 3.00000000
-1.32487202 -2.21809030 -0.50220925 3 4 21085 2.63200000 888763502 888763502 -11.00000000
-3.55342579 -5.94675922 0.60608101 13 5 21086 6.95400000 888763505 888763505 5.00000000
-1.59025955 -2.66029024 -0.49089134 2 6 21087 3.13800000 888763507 888763507 -9.00000000
-3.54044175 -5.92033577 0.84699196 10 7 21088 6.95000000 888763509 888763509 7.00000000
-1.98934078 -3.32526302 -0.47577792 1 8 21089 3.90400000 888763512 888763512 -7.00000000
-3.53429985 -5.90538502 1.09003532 65 9 21090 6.96800000 888763514 888763514 9.00000000
-3.57803988 -5.97846937 -0.60956728 4 10 21090 6.99400000 888763516 888763516 -5.00000000
-3.53380537 -5.90222073 1.33718944 78 11 21091 7.00800000 888763519 888763519 11.00000000
-3.55808878 -5.94042635 -0.36289752 10 12 21092 6.93400000 888763521 888763521 -3.00000000
-3.52775431 -5.88745022 1.58455527 101 13 21093 7.04400000 888763523 888763523 13.00000000
-3.55113935 -5.92413187 -0.12056123 14 14 21094 6.90800000 888763526 888763526 -1.00000000
-3.52306342 -5.87496948 1.83554471 63 15 21095 7.09200000 888763528 888763528 15.00000000
-0.99526614 -1.65574634 -0.51763809 4 0 21101 2.00000000 888763549 888763549 -15.00000000
-3.55116343 -5.90545797 0.12028199 11 1 21102 6.89200000 888763551 888763551 1.00000000
-1.14820051 -1.90866208 -0.51423812 4 2 21103 2.28600000 888763553 888763553 -13.00000000
-3.55404472 -5.90558100 0.36122277 10 3 21104 6.90200000 888763555 888763555 3.00000000
-1.33424485 -2.21704888 -0.50297248 3 4 21104 2.63600000 888763558 888763558 -11.00000000
-3.55051804 -5.89739084 0.60224617 13 5 21105 6.91000000 888763560 888763560 5.00000000
-1.60416853 -2.66346288 -0.49245569 3 6 21106 3.14800000 888763562 888763562 -9.00000000
-3.54571223 -5.88475847 0.84357959 10 7 21107 6.92200000 888763565 888763565 7.00000000
-1.99113381 -3.30334687 -0.47358426 1 8 21108 3.88600000 888763567 888763567 -7.00000000
-3.53345942 -5.86210823 1.08409083 77 9 21108 6.93000000 888763569 888763569 9.00000000
-2.64514184 -4.38663244 -0.44815484 3 10 21109 5.14200000 888763572 888763572 -5.00000000
-3.53104854 -5.85348606 1.32879388 71 11 21110 6.96400000 888763574 888763574 11.00000000
-3.57054472 -5.91662455 -0.36216483 7 12 21111 6.92000000 888763576 888763576 -3.00000000
-3.52510071 -5.83901691 1.57465732 101 13 21112 7.00000000 888763579 888763579 13.00000000
-3.55525780 -5.88664722 -0.12003765 17 14 21113 6.87800000 888763581 888763581 -1.00000000
-3.52052951 -5.82914543 1.82467425 69 15 21113 7.05000000 888763583 888763583 15.00000000
-1.00204074 -1.65391445 -0.51815575 4 0 21121 2.00200000 888763604 888763604 -15.00000000
-3.55413532 -5.86395454 0.11968860 17 1 21122 6.85800000 888763606 888763606 1.00000000
-1.14677298 -1.89131165 -0.51063889 4 2 21123 2.27000000 888763608 888763608 -13.00000000
-3.56635094 -5.87947798 0.36038539 10 3 21124 6.88600000 888763611 888763611 3.00000000
-1.33790290 -2.20566368 -0.50144607 3 4 21124 2.62800000 888763613 888763613 -11.00000000
-3.55971265 -5.86622477 0.60032874 13 5 21125 6.88800000 888763615 888763615 5.00000000
-1.60218024 -2.63927245 -0.48901415 1 6 21126 3.12600000 888763618 888763618 -9.00000000
-3.54768491 -5.84180498 0.83919227 10 7 21127 6.88600000 888763620 888763620 7.00000000
-3.59096313 -5.91074371 -0.84918559 2 8 21128 6.96800000 888763622 888763622 -7.00000000
-3.53850603 -5.82210922 1.07908499 72 9 21129 6.89800000 888763625 888763625 9.00000000
-2.65422916 -4.36715698 -0.44710895 3 10 21129 5.13000000 888763627 888763627 -5.00000000
-3.53514028 -5.81428432 1.32268798 75 11 21130 6.93200000 888763629 888763629 11.00000000
-3.56626606 -5.86317158 -0.35965270 7 12 21131 6.87200000 888763631 888763631 -3.00000000
-3.52925348 -5.80004025 1.56745899 101 13 21132 6.96800000 888763634 888763634 13.00000000
-3.56746626 -5.86053658 -0.11975841 8 14 21133 6.86200000 888763636 888763636 -1.00000000
-3.52579403 -5.78980303 1.81639206 72 15 21134 7.01800000 888763638 888763638 15.00000000
-1.00579429 -1.64710903 -0.51712048 4 0 21141 1.99800000 888763659 888763659 -15.00000000
-3.56103063 -5.82932806 0.11923484 17 1 21142 6.83200000 888763661 888763661 1.00000000
-1.15336788 -1.88729715 -0.51063889 4 2 21143 2.27000000 888763664 888763664 -13.00000000
-3.56601667 -5.83291245 0.35829195 10 3 21144 6.84600000 888763666 888763666 3.00000000
-1.34559393 -2.20097995 -0.50144607 3 4 21144 2.62800000 888763668 888763668 -11.00000000
-3.55417943 -5.81127119 0.59597099 10 5 21145 6.83800000 888763671 888763671 5.00000000
-1.61447608 -2.63871884 -0.48995274 2 6 21146 3.13200000 888763673 888763673 -9.00000000
-3.54940128 -5.79890966 0.83480501 10 7 21147 6.85000000 888763675 888763675 7.00000000
-3.60120749 -5.88124371 -0.84674817 2 8 21148 6.94800000 888763678 888763678 -7.00000000
-3.55057263 -5.79855061 1.07689488 82 9 21148 6.88400000 888763680 888763680 9.00000000
-2.67153883 -4.36126328 -0.44745758 3 10 21149 5.13400000 888763682 888763682 -5.00000000
-3.53900170 -5.77512598 1.31658208 71 11 21150 6.90000000 888763684 888763684 11.00000000
-3.57418418 -5.83025408 -0.35839662 7 12 21151 6.84800000 888763687 888763687 -3.00000000
-3.53113961 -5.75778341 1.55936074 90 13 21152 6.93200000 888763689 888763689 13.00000000
-3.57744431 -5.83100319 -0.11940937 8 14 21153 6.84200000 888763691 888763691 -1.00000000
-3.53083086 -5.75502634 1.80914509 74 15 21153 6.99000000 888763694 888763694 15.00000000
-1.01660037 -1.65181434 -0.51970863 5 0 21161 2.00800000 888763714 888763714 -15.00000000
-3.56667948 -5.79302263 0.11874618 14 1 21162 6.80400000 888763717 888763717 1.00000000
-1.15586078 -1.87662256 -0.50883931 4 2 21163 2.26200000 888763719 888763719 -13.00000000
-3.56121039 -5.77961969 0.35577983 10 3 21164 6.79800000 888763721 888763721 3.00000000
-1.35532832 -2.19961238 -0.50220925 3 4 21164 2.63200000 888763724 888763724 -11.00000000
-3.56189728 -5.77847672 0.59387922 10 5 21165 6.81400000 888763726 888763726 5.00000000
-1.61849296 -2.62466025 -0.48838839 1 6 21166 3.12200000 888763728 888763728 -9.00000000
-3.55919933 -5.76958942 0.83236760 10 7 21167 6.83000000 888763731 888763731 7.00000000
-3.60190701 -5.83654070 -0.84211719 2 8 21168 6.91000000 888763733 888763733 -7.00000000
-3.55416059 -5.75692368 1.07157612 65 9 21169 6.85000000 888763735 888763735 9.00000000
-2.69302607 -4.36208344 -0.44850346 3 10 21169 5.14600000 888763737 888763737 -5.00000000
-3.54675937 -5.74269295 1.31200266 71 11 21170 6.87600000 888763740 888763740 11.00000000
-3.58821487 -5.80754757 -0.35776860 10 12 21171 6.83600000 888763742 888763742 -3.00000000
-3.52970004 -5.71061182 1.54991281 36 13 21172 6.89000000 888763744 888763744 13.00000000
-3.57253623 -5.77766037 -0.11857165 8 14 21173 6.79400000 888763747 888763747 -1.00000000
-3.53767252 -5.71904564 1.80189824 74 15 21174 6.96200000 888763749 888763749 15.00000000
-1.01698244 -1.64022470 -0.51712048 5 0 21180 1.99800000 888763770 888763770 -15.00000000
-3.57954597 -5.77096748 0.11853675 14 1 21181 6.79200000 888763772 888763772 1.00000000
-1.17029738 -1.88602614 -0.51243848 4 2 21182 2.27800000 888763774 888763774 -13.00000000
-3.53822231 -5.69990253 0.35159296 42 3 21183 6.71800000 888763777 888763777 3.00000000
-1.35847342 -2.18843389 -0.50068283 3 4 21183 2.62400000 888763779 888763779 -11.00000000
-3.56527376 -5.74124432 0.59126455 10 5 21184 6.78400000 888763781 888763781 5.00000000
-1.63552701 -2.63270235 -0.49089134 2 6 21185 3.13800000 888763784 888763784 -9.00000000
-3.56678629 -5.73920918 0.82968646 10 7 21186 6.80800000 888763786 888763786 7.00000000
-2.01867199 -3.24692059 -0.46944070 1 8 21187 3.85200000 888763788 888763788 -7.00000000
-3.55554104 -5.71888781 1.06657016 62 9 21187 6.81800000 888763790 888763790 9.00000000
-2.70221496 -4.34466982 -0.44763190 3 10 21188 5.13600000 888763793 888763793 -5.00000000
-3.55748606 -5.71756458 1.30894971 75 11 21189 6.86000000 888763795 888763795 11.00000000
-3.59162235 -5.77018261 -0.35619852 10 12 21190 6.80600000 888763797 888763797 -3.00000000
-3.54552746 -5.69391298 1.54856300 28 13 21191 6.88400000 888763800 888763800 13.00000000
-3.57158732 -5.73353291 -0.11790846 8 14 21192 6.75600000 888763802 888763802 -1.00000000
-3.53927898 -5.68166780 1.79361594 69 15 21192 6.93000000 888763804 888763804 15.00000000
-1.01758301 -1.62847328 -0.51453227 4 0 21200 1.98800000 888763825 888763825 -15.00000000
-3.57422924 -5.71774149 0.11769903 11 1 21201 6.74400000 888763827 888763827 1.00000000
-1.17274070 -1.87532055 -0.51063889 4 2 21202 2.27000000 888763830 888763830 -13.00000000
-3.55068231 -5.67566442 0.35086024 32 3 21203 6.70400000 888763832 888763832 3.00000000
-1.36818659 -2.18700743 -0.50144607 3 4 21203 2.62800000 888763834 888763834 -11.00000000
-3.56943798 -5.70343065 0.58864987 10 5 21204 6.75400000 888763837 888763837 5.00000000
-1.63422430 -2.61023426 -0.48776266 1 6 21205 3.11800000 888763839 888763839 -9.00000000
-3.57415366 -5.70653534 0.82676160 10 7 21206 6.78400000 888763841 888763841 7.00000000
-2.03420949 -3.24658298 -0.47041565 1 8 21207 3.86000000 888763843 888763843 -7.00000000
-3.55759358 -5.67569017 1.06093860 30 9 21208 6.78200000 888763846 888763846 9.00000000
-2.71736431 -4.33521080 -0.44763190 3 10 21208 5.13600000 888763848 888763848 -5.00000000
-3.55239081 -5.66519260 1.29979086 78 11 21209 6.81200000 888763850 888763850 11.00000000
-3.58627009 -5.71700430 -0.35368639 10 12 21210 6.75800000 888763853 888763853 -3.00000000
-3.53844929 -5.63858509 1.53686559 67 13 21211 6.83200000 888763855 888763855 13.00000000
-3.57882047 -5.70070744 -0.11748960 8 14 21212 6.73200000 888763857 888763857 -1.00000000
-3.53953075 -5.63593769 1.78326321 69 15 21213 6.89000000 888763860 888763860 15.00000000
-1.02663410 -1.62963641 -0.51608515 4 0 21221 1.99400000 888763880 888763880 -15.00000000
-3.57490444 -5.67245960 0.11703584 8 1 21222 6.70600000 888763883 888763883 1.00000000
-1.17648840 -1.86606419 -0.50928921 4 2 21223 2.26400000 888763885 888763885 -13.00000000
-3.55974054 -5.64403009 0.34970886 40 3 21224 6.68200000 888763887 888763887 3.00000000
-1.38247716 -2.19194150 -0.50373572 3 4 21224 2.64000000 888763890 888763890 -11.00000000
-3.58074951 -5.67514467 0.58708107 10 5 21225 6.73600000 888763892 888763892 5.00000000
-1.64588916 -2.60756779 -0.48838839 1 6 21226 3.12200000 888763894 888763894 -9.00000000
-3.57172823 -5.65647078 0.82139939 10 7 21227 6.74000000 888763896 888763896 7.00000000
-2.05457640 -3.25253177 -0.47236559 1 8 21228 3.87600000 888763899 888763899 -7.00000000
-3.56683421 -5.64653683 1.05780983 60 9 21228 6.76200000 888763901 888763901 9.00000000
-3.60706186 -5.70801306 -0.59074163 8 10 21229 6.77800000 888763903 888763903 -5.00000000
-3.55634594 -5.62558270 1.29368496 65 11 21230 6.78000000 888763906 888763906 11.00000000
-3.58798409 -5.67343712 -0.35180229 10 12 21231 6.72200000 888763908 888763908 -3.00000000
-3.55284071 -5.61569738 1.53416622 21 13 21232 6.82000000 888763910 888763910 13.00000000
-3.58685756 -5.66727543 -0.11707074 8 14 21233 6.70800000 888763913 888763913 -1.00000000
-3.54885077 -5.60722446 1.77808678 72 15 21233 6.87000000 888763915 888763915 15.00000000
-1.03335166 -1.62767375 -0.51660281 4 0 21241 1.99600000 888763936 888763936 -15.00000000
-3.58396244 -5.64306593 0.11668679 8 1 21242 6.68600000 888763938 888763938 1.00000000
-1.17985976 -1.85701168 -0.50793946 4 2 21243 2.25800000 888763940 888763940 -13.00000000
-3.55692172 -5.59617233 0.34751076 47 3 21244 6.64000000 888763943 888763943 3.00000000
-1.38380134 -2.17716098 -0.50144607 3 4 21244 2.62800000 888763945 888763945 -11.00000000
-3.58343291 -5.63570976 0.58429211 13 5 21245 6.70400000 888763947 888763947 5.00000000
-1.65074039 -2.59513974 -0.48713693 2 6 21246 3.11400000 888763949 888763949 -9.00000000
-3.56907129 -5.60879850 0.81628084 10 7 21247 6.69800000 888763952 888763952 7.00000000
-2.04672933 -3.21519756 -0.46797827 1 8 21248 3.84000000 888763954 888763954 -7.00000000
-3.57167149 -5.61072206 1.05342972 30 9 21248 6.73400000 888763956 888763956 9.00000000
-3.61412191 -5.67522049 -0.58864987 8 10 21249 6.75400000 888763959 888763959 -5.00000000
-3.56119323 -5.58995342 1.28834236 75 11 21250 6.75200000 888763961 888763961 11.00000000
-3.59381175 -5.63898230 -0.35044158 10 12 21251 6.69600000 888763963 888763963 -3.00000000
-3.54727840 -5.56382513 1.52336860 51 13 21252 6.77200000 888763966 888763966 13.00000000
-3.59694028 -5.63954687 -0.11675660 17 14 21253 6.69000000 888763968 888763968 -1.00000000
-3.55489707 -5.57362843 1.77135754 76 15 21253 6.84400000 888763970 888763970 15.00000000
-1.04423261 -1.63219333 -0.51919103 4 0 21261 2.00600000 888763991 888763991 -15.00000000
-3.59285879 -5.61367846 0.11633774 8 1 21262 6.66600000 888763993 888763993 1.00000000
-1.19053793 -1.85944653 -0.50973910 4 2 21263 2.26600000 888763996 888763996 -13.00000000
-3.55812120 -5.55513096 0.34573132 62 3 21264 6.60600000 888763998 888763998 3.00000000
-1.39562821 -2.17893004 -0.50297248 3 4 21264 2.63600000 888764000 888764000 -11.00000000
-3.59125948 -5.60471392 0.58237469 13 5 21265 6.68200000 888764002 888764002 5.00000000
-1.65978909 -2.58936167 -0.48713693 2 6 21266 3.11400000 888764005 888764005 -9.00000000
-3.57791233 -5.57959557 0.81384349 10 7 21267 6.67800000 888764007 888764007 7.00000000
-2.07080197 -3.22808385 -0.47090313 1 8 21268 3.86400000 888764009 888764009 -7.00000000
-3.58154297 -5.58096886 1.05030096 57 9 21269 6.71400000 888764012 888764012 9.00000000
-3.60916042 -5.62400389 -0.58464074 4 10 21269 6.70800000 888764014 888764014 -5.00000000
-3.56583524 -5.55435944 1.28299963 81 11 21270 6.72400000 888764016 888764016 11.00000000
-3.60160136 -5.60791779 -0.34929016 10 12 21271 6.67400000 888764019 888764019 -3.00000000
-3.55614448 -5.53501368 1.51886952 33 13 21272 6.75200000 888764021 888764021 13.00000000
-3.59606123 -5.59499502 -0.11609340 15 14 21273 6.65200000 888764023 888764023 -1.00000000
-3.55866337 -5.53680897 1.76359296 74 15 21273 6.81400000 888764025 888764025 15.00000000
-1.04468977 -1.62041998 -0.51660281 4 0 21281 1.99600000 888764046 888764046 -15.00000000
-3.59942627 -5.58093691 0.11591888 8 1 21282 6.64200000 888764049 888764049 1.00000000
-1.19913435 -1.85855448 -0.51063889 4 2 21283 2.27000000 888764051 888764051 -13.00000000
-3.56341028 -5.52086210 0.34437060 85 3 21284 6.58000000 888764053 888764053 3.00000000
-3.59004307 -5.56212473 -1.28681588 3 4 21284 6.74400000 888764055 888764055 -11.00000000
-3.58810592 -5.55699444 0.57871413 13 5 21285 6.64000000 888764058 888764058 5.00000000
-1.67203295 -2.58853006 -0.48807552 2 6 21286 3.12000000 888764060 888764060 -9.00000000
-3.58874798 -5.55373383 0.81189358 10 7 21287 6.66200000 888764062 888764062 7.00000000
-3.62635803 -5.60978889 -0.82018065 2 8 21288 6.73000000 888764065 888764065 -7.00000000
-3.57203984 -5.52364683 1.04185355 65 9 21289 6.66000000 888764067 888764067 9.00000000
-3.60929513 -5.58125687 -0.58150309 8 10 21289 6.67200000 888764069 888764069 -5.00000000
-3.57453799 -5.52539444 1.27918351 71 11 21290 6.70400000 888764072 888764072 11.00000000
-3.61572909 -5.58692789 -0.34876680 10 12 21291 6.66400000 888764074 888764074 -3.00000000
-3.56485295 -5.50620842 1.51437044 19 13 21292 6.73200000 888764076 888764076 13.00000000
-3.59491539 -5.55051851 -0.11543021 20 14 21293 6.61400000 888764078 888764078 -1.00000000
-3.55792356 -5.49130249 1.75324023 74 15 21294 6.77400000 888764081 888764081 15.00000000
-1.04535818 -1.60848105 -0.51401460 4 0 21302 1.98600000 888764102 888764102 -15.00000000
-3.60023737 -5.53752947 0.11529060 11 1 21303 6.60600000 888764104 888764104 1.00000000
-1.20487583 -1.85251331 -0.51018900 4 2 21304 2.26800000 888764106 888764106 -13.00000000
-3.59233522 -5.52115726 0.34520796 100 3 21305 6.59600000 888764108 888764108 3.00000000
-3.61040521 -5.54892921 -1.28681588 3 4 21305 6.74400000 888764111 888764111 -11.00000000
-3.59649348 -5.52543783 0.57679671 13 5 21306 6.61800000 888764113 888764113 5.00000000
-1.68689859 -2.59066129 -0.48963988 2 6 21307 3.13000000 888764115 888764115 -9.00000000
-3.59391069 -5.51725674 0.80848122 10 7 21308 6.63400000 888764118 888764118 7.00000000
-3.63605690 -5.57982874 -0.81774330 2 8 21309 6.71000000 888764120 888764120 -7.00000000
-3.58255219 -5.49562407 1.03903770 70 9 21310 6.64200000 888764122 888764122 9.00000000
-3.61558270 -5.54629278 -0.57923704 4 10 21310 6.64600000 888764125 888764125 -5.00000000
-3.57975173 -5.48923349 1.27384090 68 11 21311 6.67600000 888764127 888764127 11.00000000
-3.61872125 -5.54687357 -0.34709206 10 12 21312 6.63200000 888764129 888764129 -3.00000000
-3.57116437 -5.47189045 1.50852180 83 13 21313 6.70600000 888764131 888764131 13.00000000
-3.60211635 -5.51721191 -0.11501136 22 14 21314 6.59000000 888764134 888764134 -1.00000000
-3.56017232 -5.45296812 1.74495804 72 15 21314 6.74200000 888764136 888764136 15.00000000
-1.05519998 -1.61128676 -0.51608515 4 0 21322 1.99400000 888764157 888764157 -15.00000000
-3.59872413 -5.49314737 0.11462741 14 1 21323 6.56800000 888764159 888764159 1.00000000
-1.20919847 -1.84503639 -0.50928921 4 2 21324 2.26400000 888764161 888764161 -13.00000000
-1.40582943 -2.14424634 -0.49839309 3 4 21325 2.61200000 888764166 888764166 -11.00000000
-3.60046101 -5.48952579 0.57435632 13 5 21326 6.59000000 888764168 888764168 5.00000000
-1.68942940 -2.57484746 -0.48776266 1 6 21327 3.11800000 888764171 888764171 -9.00000000
-3.59136200 -5.47148705 0.80360645 13 7 21328 6.59400000 888764173 888764173 7.00000000
-3.64570594 -5.55216837 -0.81554967 2 8 21329 6.69200000 888764175 888764175 -7.00000000
-3.58653045 -5.45997047 1.03465760 72 9 21330 6.61400000 888764178 888764178 9.00000000
-2.80576944 -4.27137566 -0.44710895 3 10 21330 5.13000000 888764180 888764180 -5.00000000
-3.58164024 -5.45045280 1.26773500 78 11 21331 6.64400000 888764182 888764182 11.00000000
-3.62160444 -5.50917435 -0.34552199 10 12 21332 6.60200000 888764184 888764184 -3.00000000
-3.57739401 -5.43985271 1.50312293 87 13 21333 6.68200000 888764187 888764187 13.00000000
-3.61146164 -5.48956966 -0.11469722 22 14 21334 6.57200000 888764189 888764189 -1.00000000
-3.56750560 -5.42275429 1.73926401 63 15 21334 6.72000000 888764191 888764191 15.00000000
-1.06053746 -1.60777879 -0.51608515 4 0 21341 1.99400000 888764212 888764212 -15.00000000
-3.60590649 -5.46449280 0.11427835 14 1 21342 6.54800000 888764214 888764214 1.00000000
-1.20672143 -1.82800579 -0.50568998 4 2 21343 2.24800000 888764217 888764217 -13.00000000
-3.61346912 -5.47387505 0.34374255 7 3 21343 6.56800000 888764219 888764219 3.00000000
-1.42158735 -2.15267873 -0.50144607 3 4 21344 2.62800000 888764221 888764221 -11.00000000
-3.60546637 -5.45760775 0.57226461 9 5 21345 6.56600000 888764224 888764224 5.00000000
-1.69578040 -2.56593490 -0.48713693 1 6 21346 3.11400000 888764226 888764226 -9.00000000
-3.59306455 -5.43470907 0.79995036 28 7 21347 6.56400000 888764228 888764228 7.00000000
-3.63015032 -5.48872089 -0.80799377 2 8 21348 6.63000000 888764230 888764230 -7.00000000
-3.59603763 -5.43714285 1.03246748 82 9 21348 6.60000000 888764233 888764233 9.00000000
-2.81332207 -4.25207853 -0.44606310 3 10 21349 5.11800000 888764235 888764235 -5.00000000
-3.58235741 -5.41235161 1.26162910 84 11 21350 6.61200000 888764237 888764237 11.00000000
-3.62000585 -5.46715879 -0.34363788 10 12 21351 6.56600000 888764240 888764240 -3.00000000
-3.58357596 -5.41008854 1.49817407 92 13 21352 6.66000000 888764242 888764242 13.00000000
-3.61418176 -5.45422602 -0.11420855 9 14 21353 6.54400000 888764244 888764244 -1.00000000
-3.57693172 -5.39801121 1.73512292 65 15 21353 6.70400000 888764247 888764247 15.00000000
-1.07148993 -1.61211145 -0.51867336 4 0 21361 2.00400000 888764267 888764267 -15.00000000
-3.61499453 -5.43688583 0.11396421 14 1 21362 6.53000000 888764270 888764270 1.00000000
-1.22064996 -1.83514047 -0.50883931 4 2 21363 2.26200000 888764272 888764272 -13.00000000
-3.61469841 -5.43232679 0.34196314 10 3 21364 6.53400000 888764274 888764274 3.00000000
-1.42909288 -2.14770317 -0.50144607 3 4 21364 2.62800000 888764277 888764277 -11.00000000
-3.61235094 -5.42674494 0.57034719 9 5 21365 6.54400000 888764279 888764279 5.00000000
-1.70363200 -2.55835581 -0.48682407 2 6 21366 3.11200000 888764281 888764281 -9.00000000
-3.60100794 -5.40561295 0.79751301 49 7 21367 6.54400000 888764283 888764283 7.00000000
-3.63497639 -5.45454121 -0.80482513 2 8 21368 6.60400000 888764286 888764286 -7.00000000
-3.59402680 -5.39105415 1.02621007 82 9 21369 6.56000000 888764288 888764288 9.00000000
-2.81599069 -4.22399664 -0.44414568 3 10 21369 5.09600000 888764290 888764290 -5.00000000
-3.58379936 -5.37368059 1.25552320 81 11 21370 6.58000000 888764293 888764293 11.00000000
-3.61911559 -5.42458344 -0.34175378 10 12 21371 6.53000000 888764295 888764295 -3.00000000
-3.58080268 -5.36512899 1.48917603 103 13 21372 6.62000000 888764297 888764297 13.00000000
-3.61543226 -5.41496801 -0.11365007 9 14 21373 6.51200000 888764300 888764300 -1.00000000
-3.58274341 -5.36398077 1.72839355 72 15 21374 6.67800000 888764302 888764302 15.00000000
-1.07066095 -1.59873056 -0.51556754 4 0 21381 1.99200000 888764323 888764323 -15.00000000
-3.62170768 -5.40595961 0.11358026 17 1 21382 6.50800000 888764325 888764325 1.00000000
-1.22921813 -1.83410597 -0.50973910 3 2 21383 2.26600000 888764327 888764327 -13.00000000
-3.61934948 -5.40040064 0.34070706 15 3 21383 6.51000000 888764330 888764330 3.00000000
-1.43439448 -2.13944030 -0.50068283 3 4 21384 2.62400000 888764332 888764332 -11.00000000
-3.61573458 -5.39093685 0.56790680 9 5 21385 6.51600000 888764334 888764334 5.00000000
-1.72355807 -2.56879711 -0.48995274 2 6 21386 3.13200000 888764336 888764336 -9.00000000
-3.61542988 -5.38641739 0.79653805 78 7 21387 6.53600000 888764339 888764339 7.00000000
-2.13131213 -3.17411995 -0.46944070 1 8 21388 3.85200000 888764341 888764341 -7.00000000
-3.59519982 -5.35223913 1.02120423 87 9 21389 6.52800000 888764343 888764343 9.00000000
-2.82960701 -4.21248722 -0.44397137 3 10 21389 5.09400000 888764346 888764346 -5.00000000
-3.59596539 -5.35136080 1.25323343 81 11 21390 6.56800000 888764348 888764348 11.00000000
-3.62911487 -5.39865685 -0.34091642 10 12 21391 6.51400000 888764350 888764350 -3.00000000
-3.58645892 -5.33319187 1.48377717 101 13 21392 6.59600000 888764353 888764353 13.00000000
-3.61868548 -5.37908602 -0.11316140 9 14 21393 6.48400000 888764355 888764355 -1.00000000
-3.58541489 -5.32962990 1.72114670 69 15 21393 6.65000000 888764357 888764357 15.00000000
-1.07515442 -1.59338212 -0.51504987 4 0 21401 1.99000000 888764378 888764378 -15.00000000
-3.62713051 -5.37339497 0.11316140 17 1 21402 6.48400000 888764380 888764380 1.00000000
-1.23561287 -1.82980406 -0.50973910 3 2 21403 2.26600000 888764382 888764382 -13.00000000
-3.63258982 -5.37945795 0.34018371 20 3 21403 6.50000000 888764385 888764385 3.00000000
-1.43745792 -2.12791300 -0.49915633 3 4 21404 2.61600000 888764387 888764387 -11.00000000
-3.61333466 -5.34691763 0.56459492 9 5 21405 6.47800000 888764389 888764389 5.00000000
-1.72587633 -2.55294609 -0.48807552 2 6 21406 3.12000000 888764392 888764392 -9.00000000
-3.61641693 -5.34745455 0.79263818 94 7 21407 6.50400000 888764394 888764394 7.00000000
-2.16240120 -3.19625592 -0.47382802 1 8 21408 3.88800000 888764396 888764396 -7.00000000
-3.59836006 -5.31675434 1.01682401 87 9 21409 6.50000000 888764399 888764399 9.00000000
-2.84876084 -4.20918465 -0.44466859 3 10 21409 5.10200000 888764401 888764401 -5.00000000
-3.59701228 -5.31276512 1.24712765 75 11 21410 6.53600000 888764403 888764403 11.00000000
-3.63897729 -5.37272692 -0.34007904 10 12 21411 6.49800000 888764406 888764406 -3.00000000
-3.58756375 -5.29482746 1.47657871 103 13 21412 6.56400000 888764408 888764408 13.00000000
-3.63182998 -5.35814524 -0.11298688 9 14 21413 6.47400000 888764410 888764410 -1.00000000
-3.57798290 -5.27870321 1.70872331 74 15 21413 6.60200000 888764412 888764412 15.00000000
-1.07962370 -1.58802176 -0.51453227 4 0 21421 1.98800000 888764433 888764433 -15.00000000
-3.62224889 -5.32597733 0.11242840 11 1 21422 6.44200000 888764435 888764435 1.00000000
-1.24528110 -1.83031332 -0.51108879 4 2 21423 2.27200000 888764438 888764438 -13.00000000
-3.63093019 -5.33473635 0.33819494 10 3 21424 6.46200000 888764440 888764440 3.00000000
-1.45371413 -2.13586640 -0.50220925 3 4 21424 2.63200000 888764442 888764442 -11.00000000
-3.60955024 -5.30133438 0.56110865 9 5 21425 6.43800000 888764445 888764445 5.00000000
-1.72588098 -2.53384495 -0.48557258 2 6 21426 3.10400000 888764447 888764447 -9.00000000
-3.61270523 -5.30198908 0.78776342 76 7 21427 6.46400000 888764449 888764449 7.00000000
-2.16683650 -3.17884660 -0.47236559 1 8 21428 3.87600000 888764452 888764452 -7.00000000
-3.60707045 -5.29173422 1.01432109 80 9 21428 6.48400000 888764454 888764454 9.00000000
-2.86792636 -4.20579910 -0.44536585 3 10 21429 5.11000000 888764456 888764456 -5.00000000
-3.59562111 -5.27098370 1.24025846 78 11 21430 6.50000000 888764459 888764459 11.00000000
-3.63744521 -5.33029652 -0.33819494 10 12 21431 6.46200000 888764461 888764461 -3.00000000
-3.59064221 -5.25973988 1.47028005 92 13 21432 6.53600000 888764463 888764463 13.00000000
-3.64036155 -5.33057308 -0.11267274 9 14 21433 6.45600000 888764465 888764465 -1.00000000
-3.58749843 -5.25119734 1.70406461 78 15 21434 6.58400000 888764468 888764468 15.00000000
-1.09171069 -1.59380639 -0.51763809 4 0 21441 2.00000000 888764488 888764488 -15.00000000
-3.60803819 -5.26546335 0.11141616 14 1 21442 6.38400000 888764491 888764491 1.00000000
-1.24615347 -1.81791866 -0.50883931 4 2 21443 2.26200000 888764493 888764493 -13.00000000
-3.62262821 -5.28477716 0.33578750 10 3 21443 6.41600000 888764495 888764495 3.00000000
-1.46338141 -2.13401723 -0.50297248 3 4 21444 2.63600000 888764498 888764498 -11.00000000
-3.61676264 -5.27227306 0.55936557 9 5 21445 6.41800000 888764500 888764500 5.00000000
-1.74142158 -2.53757739 -0.48744980 2 6 21446 3.11600000 888764502 888764502 -9.00000000
-3.61658478 -5.26807070 0.78459483 73 7 21447 6.43800000 888764505 888764505 7.00000000
-2.15544367 -3.13853645 -0.46749079 1 8 21448 3.83600000 888764507 888764507 -7.00000000
-3.61525559 -5.26219654 1.01119244 80 9 21449 6.46400000 888764509 888764509 9.00000000
-2.88033342 -4.19247866 -0.44501722 3 10 21449 5.10600000 888764512 888764512 -5.00000000
-3.60510254 -5.24545670 1.23720551 68 11 21450 6.48400000 888764514 888764514 11.00000000
-3.64697671 -5.30440044 -0.33735758 10 12 21451 6.44600000 888764516 888764516 -3.00000000
-3.59793687 -5.23111773 1.46578109 59 13 21452 6.51600000 888764518 888764518 13.00000000
-3.63514304 -5.28323746 -0.11193974 13 14 21453 6.41400000 888764521 888764521 -1.00000000
-3.59923482 -5.22909498 1.70095873 36 15 21454 6.57200000 888764523 888764523 15.00000000
-1.10055923 -1.59475577 -0.51919103 4 0 21461 2.00600000 888764544 888764544 -15.00000000
-3.61844349 -5.24131727 0.11117183 2 1 21462 6.37000000 888764546 888764546 1.00000000
-1.24695456 -1.80554020 -0.50658977 4 2 21463 2.25200000 888764548 888764548 -13.00000000
-3.60473371 -5.21951008 0.33243799 2 3 21463 6.35200000 888764551 888764551 3.00000000
-1.45966208 -2.11274362 -0.49915633 3 4 21464 2.61600000 888764553 888764553 -11.00000000
-3.61362123 -5.22847462 0.55605364 9 5 21465 6.38000000 888764555 888764555 5.00000000
-1.75476241 -2.53798270 -0.48870125 2 6 21466 3.12400000 888764558 888764558 -9.00000000
-3.63043499 -5.24888372 0.78361988 36 7 21467 6.43000000 888764560 888764560 7.00000000
-2.17429256 -3.14242029 -0.46919698 1 8 21468 3.85000000 888764562 888764562 -7.00000000
-3.62256980 -5.23555899 1.00837660 27 9 21468 6.44600000 888764565 888764565 9.00000000
-2.90855765 -4.20205736 -0.44710895 3 10 21469 5.13000000 888764567 888764567 -5.00000000
-3.62450814 -5.23445463 1.23758709 21 11 21470 6.48600000 888764569 888764569 11.00000000
-3.65068579 -5.27029419 -0.33599684 10 12 21471 6.42000000 888764571 888764571 -3.00000000
-3.61395502 -5.21532297 1.46488130 23 13 21472 6.51200000 888764574 888764574 13.00000000
-3.62052464 -5.22285652 -0.11092749 4 14 21473 6.35600000 888764576 888764576 -1.00000000
-3.61526418 -5.21332407 1.69992352 18 15 21474 6.56800000 888764578 888764578 15.00000000
-1.09950233 -1.58138752 -0.51608515 4 0 21481 1.99400000 888764599 888764599 -15.00000000
-3.63900065 -5.23193789 0.11124164 8 1 21482 6.37400000 888764601 888764601 1.00000000
-1.25992751 -1.81077421 -0.50928921 4 2 21483 2.26400000 888764604 888764604 -13.00000000
-3.63776064 -5.22820807 0.33379874 7 3 21483 6.37800000 888764606 888764606 3.00000000
-1.46029866 -2.09796739 -0.49686661 3 4 21484 2.60400000 888764608 888764608 -11.00000000
-3.63298845 -5.21746397 0.55622792 3 5 21485 6.38200000 888764611 888764611 5.00000000
-1.76361096 -2.53184199 -0.48870125 2 6 21486 3.12400000 888764613 888764613 -9.00000000
-3.65213966 -5.24106550 0.78435111 15 7 21487 6.43600000 888764615 888764615 7.00000000
-2.17730212 -3.12341213 -0.46749079 1 8 21488 3.83600000 888764618 888764618 -7.00000000
-3.64082336 -5.22288227 1.00837660 15 9 21488 6.44600000 888764620 888764620 9.00000000
-2.90269399 -4.16246223 -0.44397137 3 10 21489 5.09400000 888764622 888764622 -5.00000000
-3.65062070 -5.23304176 1.24025846 12 11 21490 6.50000000 888764624 888764624 11.00000000
-3.65763021 -5.24114037 -0.33495012 13 12 21491 6.40000000 888764627 888764627 -3.00000000
-3.63883090 -5.21226358 1.46758068 15 13 21492 6.52400000 888764629 888764629 13.00000000
-3.63873386 -5.21018696 -0.11092749 2 14 21493 6.35600000 888764631 888764631 -1.00000000
-3.63786554 -5.20700741 1.70199406 9 15 21494 6.57600000 888764634 888764634 15.00000000
-1.10279906 -1.57437539 -0.51504987 4 0 21501 1.99000000 888764654 888764654 -15.00000000
-3.65150380 -5.21101522 0.11106712 11 1 21502 6.36400000 888764657 888764657 1.00000000
-1.27295208 -1.81593955 -0.51198858 4 2 21503 2.27600000 888764659 888764659 -13.00000000
-3.66286683 -5.22529078 0.33442676 30 3 21503 6.39000000 888764661 888764661 3.00000000
-1.47437620 -2.10250187 -0.49915633 3 4 21504 2.61600000 888764664 888764664 -11.00000000
-3.66490912 -5.22432327 0.55831969 35 5 21505 6.40600000 888764666 888764666 5.00000000
-1.77016854 -2.52243638 -0.48807552 2 6 21506 3.12000000 888764668 888764668 -9.00000000
-3.68067741 -5.24290752 0.78654474 10 7 21507 6.45400000 888764670 888764670 7.00000000
-2.19731855 -3.12878895 -0.46944070 1 8 21508 3.85200000 888764673 888764673 -7.00000000
-3.67152071 -5.22792339 1.01181817 10 9 21508 6.46800000 888764675 888764675 9.00000000
-2.92178750 -4.15882587 -0.44466859 3 10 21509 5.10200000 888764677 888764677 -5.00000000
-3.68015385 -5.23632956 1.24407470 12 11 21510 6.52000000 888764680 888764680 11.00000000
-3.68968749 -5.24794722 -0.33620620 10 12 21511 6.42400000 888764682 888764682 -3.00000000
-3.66709280 -5.21387577 1.47162974 15 13 21512 6.54200000 888764684 888764684 13.00000000
-3.67070699 -5.21707916 -0.11134636 20 14 21513 6.38000000 888764687 888764687 -1.00000000
-3.66845250 -5.21387482 1.70820570 11 15 21513 6.60000000 888764689 888764689 15.00000000
-1.10828793 -1.57051635 -0.51504987 4 0 21521 1.99000000 888764710 888764710 -15.00000000
-3.67082453 -5.19987106 0.11110202 20 1 21522 6.36600000 888764712 888764712 1.00000000
