# .PCD v0.7 - Point Cloud Data file format
VERSION 0.7
FIELDS x y z intensity laser_id azimuth distance_m adjustedtime timestamp vertical_angle
SIZE 4 4 4 1 1 2 8 8 4 8
TYPE F F F U U U F U U F
COUNT 1 1 1 1 1 1 1 1 1 1
WIDTH 540
HEIGHT 1
VIEWPOINT 0 0 0 1 0 0 0
POINTS 540
DATA ascii
4.78809929 -4.60286474 1.77963972 47 15 13387 6.87600000 888542122 888542122 15.00000000
1.51929557 -1.46358371 -0.56526077 4 0 13393 2.18400000 888542143 888542143 -15.00000000
4.80643415 -4.63180208 0.11651227 11 1 13394 6.67600000 888542145 888542145 1.00000000
1.79021156 -1.72577059 -0.57407510 19 2 13395 2.55200000 888542147 888542147 -13.00000000
4.81621504 -4.64447165 0.35065091 10 3 13396 6.70000000 888542150 888542150 3.00000000
2.08164167 -2.00741148 -0.56212330 3 4 13396 2.94600000 888542152 888542152 -11.00000000
4.81083345 -4.64090204 0.58481503 57 5 13397 6.71000000 888542154 888542154 5.00000000
2.56144571 -2.47183204 -0.56378978 1 6 13398 3.60400000 888542157 888542157 -9.00000000
4.80016851 -4.63385010 0.81920570 68 7 13399 6.72200000 888542159 888542159 7.00000000
3.35569644 -3.24055839 -0.57278591 6 8 13400 4.70000000 888542161 888542161 -7.00000000
4.79292202 -4.62847090 1.05530691 70 9 13400 6.74600000 888542163 888542163 9.00000000
4.66429567 -4.50583172 -0.56738389 16 10 13401 6.51000000 888542166 888542166 -5.00000000
4.77602100 -4.61537266 1.29101372 62 11 13402 6.76600000 888542168 888542168 11.00000000
4.80766535 -4.64757586 -0.35044158 10 12 13403 6.69600000 888542170 888542170 -3.00000000
4.75592279 -4.59916210 1.52741766 29 13 13404 6.79000000 888542173 888542173 13.00000000
4.79609585 -4.63963079 -0.11647736 8 14 13405 6.67400000 888542175 888542175 -1.00000000
4.75139952 -4.59639311 1.77135754 18 15 13405 6.84400000 888542177 888542177 15.00000000
1.50447118 -1.45946229 -0.56163734 3 0 13413 2.17000000 888542198 888542198 -15.00000000
4.78306150 -4.64158869 0.11633774 11 1 13414 6.66600000 888542200 888542200 1.00000000
1.77578712 -1.72386491 -0.57137567 14 2 13415 2.54000000 888542203 888542203 -13.00000000
4.78421259 -4.64594936 0.34949952 10 3 13416 6.67800000 888542205 888542205 3.00000000
2.07462192 -2.01466560 -0.56212330 3 4 13416 2.94600000 888542207 888542207 -11.00000000
4.78174257 -4.64517260 0.58324623 40 5 13417 6.69200000 888542210 888542210 5.00000000
2.56413484 -2.49177146 -0.56629276 1 6 13418 3.62000000 888542212 888542212 -9.00000000
4.76119041 -4.62843847 0.81530589 68 7 13419 6.69000000 888542214 888542214 7.00000000
3.33867168 -3.24671650 -0.57181096 6 8 13420 4.69200000 888542216 888542216 -7.00000000
4.74902296 -4.61983585 1.04936242 25 9 13421 6.70800000 888542219 888542219 9.00000000
4.64568281 -4.51930714 -0.56703526 16 10 13421 6.50600000 888542221 888542221 -5.00000000
4.77423954 -4.64761114 -0.34918550 10 12 13423 6.67200000 888542226 888542226 -3.00000000
4.66026068 -4.53823996 1.50177324 28 13 13424 6.67600000 888542228 888542228 13.00000000
4.77987099 -4.65634441 -0.11647736 8 14 13425 6.67400000 888542230 888542230 -1.00000000
4.64874077 -4.53018427 1.73926401 6 15 13426 6.72000000 888542233 888542233 15.00000000
1.50602019 -1.47171760 -0.56422549 2 0 13434 2.18000000 888542253 888542253 -15.00000000
4.75314760 -4.64650726 0.11602360 11 1 13435 6.64800000 888542256 888542256 1.00000000
1.75691736 -1.71809947 -0.56732655 7 2 13436 2.52200000 888542258 888542258 -13.00000000
4.74288082 -4.63970995 0.34772009 10 3 13437 6.64400000 888542260 888542260 3.00000000
2.06161022 -2.01676440 -0.56059682 3 4 13437 2.93800000 888542263 888542263 -11.00000000
4.75044489 -4.64873219 0.58150309 30 5 13438 6.67200000 888542265 888542265 5.00000000
2.56768918 -2.51358938 -0.56910861 1 6 13439 3.63800000 888542267 888542267 -9.00000000
4.73142958 -4.63335800 0.81311226 63 7 13440 6.67200000 888542269 888542269 7.00000000
3.31540513 -3.24781823 -0.56986105 6 8 13441 4.67600000 888542272 888542272 -7.00000000
4.65807867 -4.56312084 1.03278029 7 9 13441 6.60200000 888542274 888542274 9.00000000
4.63193369 -4.53909302 -0.56738389 16 10 13442 6.51000000 888542276 888542276 -5.00000000
4.64613581 -4.55460024 1.26468205 12 11 13443 6.62800000 888542279 888542279 11.00000000
4.75004292 -4.65808630 -0.34866214 14 12 13444 6.66200000 888542281 888542281 -3.00000000
4.62412024 -4.53618479 1.49547458 27 13 13445 6.64800000 888542283 888542283 13.00000000
4.73993635 -4.65142250 -0.11591888 9 14 13446 6.64200000 888542286 888542286 -1.00000000
4.62876272 -4.54232454 1.73771107 9 15 13446 6.71400000 888542288 888542288 15.00000000
1.50500464 -1.48103070 -0.56577843 4 0 13454 2.18600000 888542309 888542309 -15.00000000
4.73119926 -4.65745926 0.11588398 11 1 13455 6.64000000 888542311 888542311 1.00000000
1.73841286 -1.71191573 -0.56327742 12 2 13456 2.50400000 888542313 888542313 -13.00000000
4.71385098 -4.64362240 0.34677804 10 3 13457 6.62600000 888542316 888542316 3.00000000
2.05455780 -2.02394843 -0.56059682 3 4 13457 2.93800000 888542318 888542318 -11.00000000
4.71574020 -4.64710569 0.57923704 13 5 13458 6.64600000 888542320 888542320 5.00000000
2.56311989 -2.52669716 -0.57004720 1 6 13459 3.64400000 888542322 888542322 -9.00000000
4.70815992 -4.64287663 0.81189358 57 7 13460 6.66200000 888542325 888542325 7.00000000
3.30687428 -3.26215959 -0.57034850 6 8 13461 4.68000000 888542327 888542327 -7.00000000
4.61118412 -4.54883289 1.02589726 10 9 13461 6.55800000 888542329 888542329 9.00000000
4.60329771 -4.54263878 -0.56581509 15 10 13462 6.49200000 888542332 888542332 -5.00000000
4.61344290 -4.55423975 1.26010263 12 11 13463 6.60400000 888542334 888542334 11.00000000
4.72806978 -4.66902542 -0.34824345 14 12 13464 6.65400000 888542336 888542336 -3.00000000
4.59716702 -4.54134226 1.49187541 29 13 13465 6.63200000 888542339 888542339 13.00000000
4.69949102 -4.64404440 -0.11532550 9 14 13466 6.60800000 888542341 888542341 -1.00000000
4.60463428 -4.55030680 1.73460519 9 15 13466 6.70200000 888542343 888542343 15.00000000
1.49159241 -1.47811627 -0.56267262 4 0 13474 2.17400000 888542364 888542364 -15.00000000
4.68935013 -4.64860535 0.11525569 11 1 13475 6.60400000 888542366 888542366 1.00000000
1.72550786 -1.71111250 -0.56102794 22 2 13476 2.49400000 888542369 888542369 -13.00000000
4.69335938 -4.65582895 0.34646404 10 3 13477 6.62000000 888542371 888542371 3.00000000
2.05026793 -2.03387308 -0.56136006 3 4 13477 2.94200000 888542373 888542373 -11.00000000
4.68534803 -4.64950466 0.57749397 13 5 13478 6.62600000 888542375 888542375 5.00000000
2.54026532 -2.52171206 -0.56691849 1 6 13479 3.62400000 888542378 888542378 -9.00000000
4.68206453 -4.64949131 0.81018740 63 7 13480 6.64800000 888542380 888542380 7.00000000
3.30110025 -3.27927899 -0.57132345 6 8 13481 4.68800000 888542382 888542382 -7.00000000
4.59027719 -4.56152582 1.02495861 12 9 13482 6.55200000 888542385 888542385 9.00000000
4.58458662 -4.55587101 -0.56546646 15 10 13482 6.48800000 888542387 888542387 -5.00000000
4.58080959 -4.55370665 1.25552320 12 11 13483 6.58000000 888542389 888542389 11.00000000
4.69899702 -4.67282581 -0.34730139 10 12 13484 6.63600000 888542392 888542392 -3.00000000
4.56608915 -4.54224348 1.48692644 30 13 13485 6.61000000 888542394 888542394 13.00000000
4.68041658 -4.65759945 -0.11525569 9 14 13486 6.60400000 888542396 888542396 -1.00000000
4.56407404 -4.54182434 1.72528780 9 15 13486 6.66600000 888542398 888542398 15.00000000
1.48915863 -1.48604310 -0.56370789 4 0 13494 2.17800000 888542419 888542419 -15.00000000
4.66460323 -4.65646935 0.11504626 11 1 13495 6.59200000 888542422 888542422 1.00000000
1.70573521 -1.70335519 -0.55652893 44 2 13496 2.47400000 888542424 888542424 -13.00000000
4.67283964 -4.66794872 0.34615001 10 3 13497 6.61400000 888542426 888542426 3.00000000
2.04593396 -2.04379249 -0.56212330 3 4 13497 2.94600000 888542428 888542428 -11.00000000
4.66204309 -4.65878916 0.57662237 9 5 13498 6.61600000 888542431 888542431 5.00000000
2.53144741 -2.53056383 -0.56691849 1 6 13499 3.62400000 888542433 888542433 -9.00000000
4.65036631 -4.65036631 0.80750626 55 7 13500 6.62600000 888542435 888542435 7.00000000
3.29665065 -3.29780149 -0.57254219 6 8 13501 4.69800000 888542438 888542438 -7.00000000
4.56036329 -4.56354809 1.02182996 12 9 13502 6.53200000 888542440 888542440 9.00000000
4.56583881 -4.56902742 -0.56511784 15 10 13502 6.48400000 888542442 888542442 -5.00000000
4.54962349 -4.55439043 1.25132537 12 11 13503 6.55800000 888542445 888542445 11.00000000
4.67560101 -4.68213367 -0.34677804 14 12 13504 6.62600000 888542447 888542447 -3.00000000
4.54194546 -4.54987955 1.48422706 30 13 13505 6.59800000 888542449 888542449 13.00000000
4.65000486 -4.65975380 -0.11490665 9 14 13506 6.58400000 888542451 888542451 -1.00000000
4.53375340 -4.54484463 1.72011137 13 15 13507 6.64600000 888542454 888542454 15.00000000
1.48694837 -1.49371135 -0.56474316 4 0 13513 2.18200000 888542475 888542475 -15.00000000
4.62938881 -4.65206766 0.11455759 11 1 13514 6.56400000 888542477 888542477 1.00000000
1.68083632 -1.68966031 -0.55023026 42 2 13515 2.44600000 888542479 888542479 -13.00000000
4.64606762 -4.67208910 0.34531263 10 3 13516 6.59800000 888542481 888542481 3.00000000
2.05022001 -2.06170273 -0.56517625 3 4 13516 2.96200000 888542484 888542484 -11.00000000
4.62971258 -4.65726757 0.57453066 9 5 13517 6.59200000 888542486 888542486 5.00000000
2.50633287 -2.52213025 -0.56316406 1 6 13518 3.60000000 888542488 888542488 -9.00000000
4.61533308 -4.64604521 0.80409396 57 7 13519 6.59800000 888542491 888542491 7.00000000
3.27031016 -3.29322124 -0.56986105 6 8 13520 4.67600000 888542493 888542493 -7.00000000
4.53128815 -4.56462669 1.01870120 12 9 13521 6.51200000 888542495 888542495 9.00000000
4.55346966 -4.58697128 -0.56546646 15 10 13521 6.48800000 888542498 888542498 -5.00000000
4.52343273 -4.55830431 1.24827242 15 11 13522 6.54200000 888542500 888542500 11.00000000
4.63613653 -4.67350817 -0.34499863 14 12 13523 6.59200000 888542502 888542502 -3.00000000
4.50624990 -4.54416037 1.47747850 27 13 13524 6.56800000 888542504 888542504 13.00000000
4.62326431 -4.66378689 -0.11462741 9 14 13525 6.56800000 888542507 888542507 -1.00000000
4.41744900 -4.45616770 1.68128848 9 15 13525 6.49600000 888542509 888542509 15.00000000
1.47900903 -1.49614489 -0.56370789 4 0 13533 2.17800000 888542530 888542530 -15.00000000
4.61031055 -4.66535425 0.11448779 11 1 13534 6.56000000 888542532 888542532 1.00000000
1.66944993 -1.68997180 -0.54843068 37 2 13535 2.43800000 888542534 888542534 -13.00000000
4.60447025 -4.66269827 0.34342855 10 3 13536 6.56200000 888542537 888542537 3.00000000
2.02645707 -2.05208349 -0.56059682 3 4 13536 2.93800000 888542539 888542539 -11.00000000
4.60642862 -4.66631031 0.57365912 9 5 13537 6.58200000 888542541 888542541 5.00000000
2.50028872 -2.53367591 -0.56378978 1 6 13538 3.60400000 888542544 888542544 -9.00000000
4.58793449 -4.65082169 0.80214399 57 7 13539 6.58200000 888542546 888542546 7.00000000
3.25321937 -3.29896283 -0.56888610 6 8 13540 4.66800000 888542548 888542548 -7.00000000
4.46124315 -4.52555227 1.00649929 10 9 13541 6.43400000 888542551 888542551 9.00000000
4.52344322 -4.58864927 -0.56372333 15 10 13541 6.46800000 888542553 888542553 -5.00000000
4.35315561 -4.41744900 1.20553124 12 11 13542 6.31800000 888542555 888542555 11.00000000
4.59596682 -4.66547441 -0.34321919 14 12 13543 6.55800000 888542557 888542557 -3.00000000
4.29346275 -4.35991716 1.41269267 8 13 13544 6.28000000 888542560 888542560 13.00000000
4.58310843 -4.65567112 -0.11403403 9 14 13545 6.53400000 888542562 888542562 -1.00000000
4.31106520 -4.37932062 1.64660680 9 15 13545 6.36200000 888542564 888542564 15.00000000
1.47377753 -1.50129855 -0.56370789 4 0 13553 2.17800000 888542585 888542585 -15.00000000
4.58699417 -4.67428255 0.11431326 11 1 13554 6.55000000 888542587 888542587 1.00000000
1.67036414 -1.70274460 -0.55068016 27 2 13555 2.44800000 888542590 888542590 -13.00000000
4.57359743 -4.66225815 0.34227714 7 3 13555 6.54000000 888542592 888542592 3.00000000
2.01653242 -2.05634117 -0.55983359 3 4 13556 2.93400000 888542594 888542594 -11.00000000
4.36834764 -4.45613956 0.54594356 9 5 13557 6.26400000 888542597 888542597 5.00000000
2.49142933 -2.54238796 -0.56378978 1 6 13558 3.60400000 888542599 888542599 -9.00000000
3.24723959 -3.31597185 -0.56986105 6 8 13560 4.67600000 888542603 888542603 -7.00000000
4.29279852 -4.38366127 0.97177088 10 9 13560 6.21200000 888542606 888542606 9.00000000
4.49903584 -4.59586859 -0.56267750 15 10 13561 6.45600000 888542608 888542608 -5.00000000
4.29376936 -4.38771582 1.19331944 12 11 13562 6.25400000 888542610 888542610 11.00000000
4.57127333 -4.67292261 -0.34259117 14 12 13563 6.54600000 888542613 888542613 -3.00000000
4.27412987 -4.37069798 1.41134286 9 13 13564 6.27400000 888542615 888542615 13.00000000
4.53188229 -4.63589191 -0.11316140 6 14 13565 6.48400000 888542617 888542617 -1.00000000
4.27414513 -4.37223959 1.63832450 9 15 13565 6.33000000 888542620 888542620 15.00000000
1.46583104 -1.50366712 -0.56267262 4 0 13573 2.17400000 888542640 888542640 -15.00000000
4.29990005 -4.41242981 0.10754173 8 1 13574 6.16200000 888542643 888542643 1.00000000
1.68480742 -1.72950315 -0.55742872 12 2 13575 2.47800000 888542645 888542645 -13.00000000
4.29033613 -4.40569115 0.32228482 10 3 13576 6.15800000 888542647 888542647 3.00000000
2.01756024 -2.07180691 -0.56212330 3 4 13576 2.94600000 888542650 888542650 -11.00000000
4.28049803 -4.39712381 0.53687936 13 5 13577 6.16000000 888542652 888542652 5.00000000
2.49218321 -2.56097913 -0.56597990 1 6 13578 3.61800000 888542654 888542654 -9.00000000
4.28543806 -4.40527391 0.75461495 10 7 13579 6.19200000 888542656 888542656 7.00000000
3.23287702 -3.32444048 -0.56937355 6 8 13580 4.67200000 888542659 888542659 -7.00000000
4.26568747 -4.38803434 0.96926796 10 9 13581 6.19600000 888542661 888542661 9.00000000
4.39130688 -4.51725674 -0.55117291 11 10 13581 6.32400000 888542663 888542663 -5.00000000
4.25790405 -4.38155794 1.18759513 12 11 13582 6.22400000 888542666 888542666 11.00000000
4.31278372 -4.43958139 -0.32437825 9 12 13583 6.19800000 888542668 888542668 -3.00000000
4.25613213 -4.38279438 1.41044307 10 13 13584 6.27000000 888542670 888542670 13.00000000
4.27052784 -4.39915466 -0.10701816 9 14 13585 6.13200000 888542673 888542673 -1.00000000
4.25136423 -4.38094378 1.63573635 9 15 13586 6.32000000 888542675 888542675 15.00000000
1.46460438 -1.51293874 -0.56422549 4 0 13593 2.18000000 888542696 888542696 -15.00000000
4.24831581 -4.39005041 0.10663420 11 1 13594 6.11000000 888542698 888542698 1.00000000
1.69501925 -1.75218117 -0.56282753 4 2 13595 2.50200000 888542700 888542700 -13.00000000
4.26737070 -4.41128111 0.32165679 10 3 13595 6.14600000 888542703 888542703 3.00000000
2.01031613 -2.07883692 -0.56212330 2 4 13596 2.94600000 888542705 888542705 -11.00000000
4.25127506 -4.39771414 0.53513628 13 5 13597 6.14000000 888542707 888542707 5.00000000
2.47636509 -2.56256032 -0.56441557 1 6 13598 3.60800000 888542709 888542709 -9.00000000
4.24658823 -4.39593506 0.75047141 10 7 13599 6.15800000 888542712 888542712 7.00000000
3.21711588 -3.33142114 -0.56864238 6 8 13600 4.66600000 888542714 888542714 -7.00000000
4.24074030 -4.39294958 0.96707785 10 9 13601 6.18200000 888542716 888542716 9.00000000
4.25235558 -4.40498114 -0.53565919 15 10 13601 6.14600000 888542719 888542719 -5.00000000
4.22895050 -4.38226652 1.18377900 12 11 13602 6.20400000 888542721 888542721 11.00000000
4.24040699 -4.39567375 -0.32008672 13 12 13603 6.11600000 888542723 888542723 -3.00000000
4.22728014 -4.38359690 1.40594411 9 13 13604 6.25000000 888542726 888542726 13.00000000
4.24265528 -4.40107775 -0.10670401 9 14 13605 6.11400000 888542728 888542728 -1.00000000
4.22608709 -4.38389111 1.63159525 9 15 13605 6.30400000 888542730 888542730 15.00000000
1.46065307 -1.51943469 -0.56474316 4 0 13613 2.18200000 888542751 888542751 -15.00000000
4.22326660 -4.39476013 0.10638987 11 1 13614 6.09600000 888542753 888542753 1.00000000
1.68349254 -1.75246584 -0.56102794 3 2 13615 2.49400000 888542755 888542755 -13.00000000
4.22704077 -4.40022421 0.31977269 10 3 13615 6.11000000 888542758 888542758 3.00000000
2.00032759 -2.08300948 -0.56136006 3 4 13616 2.94200000 888542760 888542760 -11.00000000
4.22899961 -4.40534019 0.53426468 13 5 13617 6.13000000 888542762 888542762 5.00000000
2.47834682 -2.58259106 -0.56691849 1 6 13618 3.62400000 888542765 888542765 -9.00000000
4.21472692 -4.39354134 0.74754655 10 7 13619 6.13400000 888542767 888542767 7.00000000
3.20409369 -3.34119797 -0.56839859 6 8 13620 4.66400000 888542769 888542769 -7.00000000
4.21307755 -4.39489174 0.96426207 10 9 13621 6.16400000 888542772 888542772 9.00000000
4.23143816 -4.41404486 -0.53496194 15 10 13621 6.13800000 888542774 888542774 -5.00000000
4.20683575 -4.38991451 1.18187094 12 11 13622 6.19400000 888542776 888542776 11.00000000
4.22365570 -4.40900660 -0.31998202 13 12 13623 6.11400000 888542779 888542779 -3.00000000
4.19577885 -4.38143682 1.40054524 10 13 13624 6.22600000 888542781 888542781 13.00000000
4.22173548 -4.41008234 -0.10656440 9 14 13625 6.10600000 888542783 888542783 -1.00000000
4.20808697 -4.39582491 1.63056004 9 15 13625 6.30000000 888542785 888542785 15.00000000
1.45587242 -1.52401590 -0.56474316 4 0 13631 2.18200000 888542806 888542806 -15.00000000
4.20529604 -4.40366745 0.10628515 11 1 13632 6.09000000 888542808 888542808 1.00000000
1.68605232 -1.76620352 -0.56372732 3 2 13633 2.50600000 888542811 888542811 -13.00000000
4.19863701 -4.39976835 0.31872597 10 3 13634 6.09000000 888542813 888542813 3.00000000
2.00190616 -2.09780526 -0.56364977 2 4 13634 2.95400000 888542815 888542815 -11.00000000
4.20963812 -4.41283798 0.53356743 13 5 13635 6.12200000 888542818 888542818 5.00000000
2.45795178 -2.57749820 -0.56410271 1 6 13636 3.60600000 888542820 888542820 -9.00000000
4.18857622 -4.39382935 0.74535292 10 7 13637 6.11600000 888542822 888542822 7.00000000
3.18536425 -3.34262490 -0.56693619 6 8 13638 4.65200000 888542825 888542825 -7.00000000
4.18639135 -4.39307261 0.96113336 10 9 13638 6.14400000 888542827 888542827 9.00000000
4.20793056 -4.41721821 -0.53374177 15 10 13639 6.12400000 888542829 888542829 -5.00000000
4.18625450 -4.39600039 1.17996287 12 11 13640 6.18400000 888542832 888542832 11.00000000
4.20152140 -4.41357422 -0.31935400 13 12 13641 6.10200000 888542834 888542834 -3.00000000
4.16855955 -4.38047981 1.39604628 9 13 13642 6.20600000 888542836 888542836 13.00000000
4.19821215 -4.41318178 -0.10632006 9 14 13643 6.09200000 888542838 888542838 -1.00000000
4.17618036 -4.39155626 1.62383068 9 15 13644 6.27400000 888542841 888542841 15.00000000
1.44788468 -1.52628553 -0.56370789 4 0 13651 2.17800000 888542861 888542861 -15.00000000
4.17613888 -4.40381002 0.10593611 11 1 13652 6.07000000 888542864 888542864 1.00000000
1.67987692 -1.77207816 -0.56372732 3 2 13653 2.50600000 888542866 888542866 -13.00000000
4.17440557 -4.40352106 0.31799328 10 3 13653 6.07600000 888542868 888542868 3.00000000
1.97836614 -2.08767986 -0.55907035 2 4 13654 2.93000000 888542871 888542871 -11.00000000
4.17228508 -4.40436268 0.53077847 13 5 13655 6.09000000 888542873 888542873 5.00000000
2.45301461 -2.59036517 -0.56504130 3 6 13656 3.61200000 888542875 888542875 -9.00000000
4.17184877 -4.40698147 0.74510914 10 7 13657 6.11400000 888542878 888542878 7.00000000
3.17367697 -3.35372353 -0.56693619 6 8 13658 4.65200000 888542880 888542880 -7.00000000
4.15532923 -4.39260149 0.95769179 10 9 13659 6.12200000 888542882 888542882 9.00000000
4.17742443 -4.41595840 -0.53182435 15 10 13659 6.10200000 888542885 888542885 -5.00000000
4.15334797 -4.39204216 1.17500174 12 11 13660 6.15800000 888542887 888542887 11.00000000
4.17922926 -4.42095613 -0.31883064 9 12 13661 6.09200000 888542889 888542889 -3.00000000
4.14521265 -4.38650560 1.39334679 9 13 13662 6.19400000 888542891 888542891 13.00000000
4.16355705 -4.40745831 -0.10583139 9 14 13663 6.06400000 888542894 888542894 -1.00000000
4.14093018 -4.38503885 1.61606610 9 15 13664 6.24400000 888542896 888542896 15.00000000
1.43724954 -1.52570558 -0.56163734 4 0 13671 2.17000000 888542917 888542917 -15.00000000
4.15251589 -4.40962553 0.10572668 11 1 13672 6.05800000 888542919 888542919 1.00000000
1.67635238 -1.78076911 -0.56462717 3 2 13673 2.51000000 888542921 888542921 -13.00000000
4.14805698 -4.40643120 0.31715590 7 3 13673 6.06000000 888542924 888542924 3.00000000
1.97375762 -2.09743261 -0.55983359 3 4 13674 2.93400000 888542926 888542926 -11.00000000
4.14186907 -4.40293646 0.52886105 13 5 13675 6.06800000 888542928 888542928 5.00000000
2.43448472 -2.58883882 -0.56285119 3 6 13676 3.59800000 888542931 888542931 -9.00000000
4.14420319 -4.40850019 0.74291551 10 7 13677 6.09600000 888542933 888542933 7.00000000
3.17010736 -3.37346101 -0.56839859 6 8 13678 4.66400000 888542935 888542935 -7.00000000
4.12991810 -4.39484072 0.95518887 10 9 13678 6.10600000 888542938 888542938 9.00000000
4.15107155 -4.41889620 -0.53042984 15 10 13679 6.08600000 888542940 888542940 -5.00000000
4.13127184 -4.39935780 1.17309368 12 11 13680 6.14800000 888542942 888542942 11.00000000
4.15283585 -4.42386818 -0.31799328 9 12 13681 6.07600000 888542944 888542944 -3.00000000
4.11787415 -4.38815928 1.38929772 9 13 13682 6.17600000 888542947 888542947 13.00000000
4.14404249 -4.41758966 -0.10572668 9 14 13683 6.05800000 888542949 888542949 -1.00000000
4.10841894 -4.38114738 1.60933685 9 15 13684 6.21800000 888542951 888542951 15.00000000
1.43455446 -1.53353477 -0.56267262 4 0 13691 2.17400000 888542972 888542972 -15.00000000
4.12343979 -4.40948820 0.10537763 11 1 13692 6.03800000 888542974 888542974 1.00000000
1.66480303 -1.78091550 -0.56282753 3 2 13693 2.50200000 888542977 888542977 -13.00000000
4.13128614 -4.41942501 0.31705123 10 3 13693 6.05800000 888542979 888542979 3.00000000
1.97178590 -2.11004710 -0.56136006 2 4 13694 2.94200000 888542981 888542981 -11.00000000
4.11423397 -4.40426397 0.52729225 13 5 13695 6.05000000 888542984 888542984 5.00000000
2.41734385 -2.58865833 -0.56097400 1 6 13696 3.58600000 888542986 888542986 -9.00000000
4.12066174 -4.41423273 0.74145311 10 7 13697 6.08400000 888542988 888542988 7.00000000
3.15560389 -3.38160348 -0.56791115 6 8 13698 4.66000000 888542991 888542991 -7.00000000
4.10646582 -4.40056467 0.95331162 10 9 13698 6.09400000 888542993 888542993 9.00000000
4.12610817 -4.42316103 -0.52920967 15 10 13699 6.07200000 888542995 888542995 -5.00000000
4.09714508 -4.39365005 1.16775107 12 11 13700 6.12000000 888542997 888542997 11.00000000
4.12647343 -4.42664957 -0.31715590 9 12 13701 6.06000000 888543000 888543000 -3.00000000
4.09854603 -4.39822960 1.38794804 9 13 13702 6.17000000 888543002 888543002 13.00000000
4.12178183 -4.42471218 -0.10555215 9 14 13703 6.04800000 888543004 888543004 -1.00000000
4.09178448 -4.39404774 1.60881913 9 15 13704 6.21600000 888543007 888543007 15.00000000
1.42760968 -1.53736675 -0.56215495 4 0 13712 2.17200000 888543027 888543027 -15.00000000
4.09908772 -4.41577816 0.10516820 11 1 13713 6.02600000 888543030 888543030 1.00000000
1.64766002 -1.77557766 -0.55922830 3 2 13714 2.48600000 888543032 888543032 -13.00000000
4.10419226 -4.42282486 0.31621385 10 3 13714 6.04200000 888543034 888543034 3.00000000
1.96670938 -2.12013865 -0.56212330 3 4 13715 2.94600000 888543037 888543037 -11.00000000
4.09535456 -4.41639185 0.52694362 9 5 13716 6.04600000 888543039 888543039 5.00000000
2.41992593 -2.61053920 -0.56378978 1 6 13717 3.60400000 888543041 888543041 -9.00000000
4.08826399 -4.41183329 0.73852819 10 7 13718 6.06000000 888543043 888543043 7.00000000
3.13779235 -3.38732147 -0.56693619 6 8 13719 4.65200000 888543046 888543046 -7.00000000
4.08628225 -4.41123867 0.95237303 10 9 13719 6.08800000 888543048 888543048 9.00000000
4.09903908 -4.42655945 -0.52781516 15 10 13720 6.05600000 888543050 888543050 -5.00000000
4.07834673 -4.40575600 1.16698778 12 11 13721 6.11600000 888543053 888543053 11.00000000
4.09394312 -4.42415333 -0.31589982 9 12 13722 6.03600000 888543055 888543055 -3.00000000
4.06519508 -4.39462471 1.38209927 9 13 13723 6.14400000 888543057 888543057 13.00000000
4.09060240 -4.42363977 -0.10516820 9 14 13724 6.02600000 888543060 888543060 -1.00000000
4.06592894 -4.39695692 1.60467803 9 15 13724 6.20000000 888543062 888543062 15.00000000
1.44580746 -1.56790435 -0.57147247 4 0 13732 2.20800000 888543083 888543083 -15.00000000
4.07280588 -4.41829729 0.10488896 11 1 13733 6.01000000 888543085 888543085 1.00000000
1.64409328 -1.78418434 -0.56012815 3 2 13734 2.49000000 888543087 888543087 -13.00000000
4.07248735 -4.41949892 0.31495780 10 3 13734 6.01800000 888543090 888543090 3.00000000
1.94333506 -2.10966301 -0.55754387 3 4 13735 2.92200000 888543092 888543092 -11.00000000
4.06641722 -4.41600418 0.52520049 13 5 13736 6.02600000 888543094 888543094 5.00000000
2.39875817 -2.60589004 -0.56097400 1 6 13737 3.58600000 888543096 888543096 -9.00000000
4.06746244 -4.42023420 0.73755324 10 7 13738 6.05200000 888543099 888543099 7.00000000
3.12863708 -3.40117574 -0.56742364 6 8 13739 4.65600000 888543101 888543101 -7.00000000
4.05614853 -4.40948343 0.94893146 10 9 13739 6.06600000 888543103 888543103 9.00000000
4.08086491 -4.43790770 -0.52746654 15 10 13740 6.05200000 888543106 888543106 -5.00000000
4.05762815 -4.41418362 1.16546130 12 11 13741 6.10800000 888543108 888543108 11.00000000
4.07036686 -4.42959309 -0.31527179 13 12 13742 6.02400000 888543110 888543110 -3.00000000
4.03928375 -4.39730692 1.37850010 9 13 13743 6.12800000 888543113 888543113 13.00000000
4.06431580 -4.42610836 -0.10488896 9 14 13744 6.01000000 888543115 888543115 -1.00000000
4.04847956 -4.41040659 1.60416043 9 15 13745 6.19800000 888543117 888543117 15.00000000
1.48888111 -1.62539804 -0.59062505 8 0 13751 2.28200000 888543138 888543138 -15.00000000
4.05137968 -4.42440462 0.10471444 11 1 13752 6.00000000 888543140 888543140 1.00000000
1.64343083 -1.79537642 -0.56192774 3 2 13753 2.49800000 888543143 888543143 -13.00000000
4.04894590 -4.42484713 0.31432974 10 3 13754 6.00600000 888543145 888543145 3.00000000
1.93897915 -2.11899257 -0.55830711 3 4 13754 2.92600000 888543147 888543147 -11.00000000
4.03561401 -4.41182280 0.52310878 9 5 13755 6.00200000 888543149 888543149 5.00000000
2.40210080 -2.62695050 -0.56378978 1 6 13756 3.60400000 888543152 888543152 -9.00000000
4.04608536 -4.42637205 0.73633456 10 7 13757 6.04200000 888543154 888543154 7.00000000
3.12001944 -3.41446280 -0.56791115 6 8 13758 4.66000000 888543156 888543156 -7.00000000
4.05537605 -4.43964720 -0.52607208 15 10 13759 6.03600000 888543161 888543161 -5.00000000
4.03237724 -4.41601658 1.16240835 12 11 13760 6.09200000 888543163 888543163 11.00000000
4.04488325 -4.43126535 -0.31443444 9 12 13761 6.00800000 888543166 888543166 -3.00000000
4.01679850 -4.40204048 1.37580061 9 13 13762 6.11600000 888543168 888543168 13.00000000
4.02940178 -4.41740084 -0.10436539 9 14 13763 5.98000000 888543170 888543170 -1.00000000
4.02028275 -4.40740395 1.59846640 9 15 13763 6.17600000 888543173 888543173 15.00000000
1.43120193 -1.57342196 -0.56991953 4 0 13771 2.20200000 888543193 888543193 -15.00000000
4.02783918 -4.42964268 0.10450501 11 1 13772 5.98800000 888543196 888543196 1.00000000
1.64763999 -1.81263840 -0.56552696 3 2 13773 2.51400000 888543198 888543198 -13.00000000
4.02810287 -4.43304062 0.31391108 9 3 13774 5.99800000 888543200 888543200 3.00000000
1.93157065 -2.12574792 -0.55830711 3 4 13774 2.92600000 888543202 888543202 -11.00000000
4.01215124 -4.41703415 0.52206290 9 5 13775 5.99000000 888543205 888543205 5.00000000
2.38760471 -2.62946963 -0.56253833 3 6 13776 3.59600000 888543207 888543207 -9.00000000
4.01860189 -4.42723989 0.73414093 10 7 13777 6.02400000 888543209 888543209 7.00000000
3.11208344 -3.42974329 -0.56864238 4 8 13778 4.66600000 888543212 888543212 -7.00000000
4.00270414 -4.41281986 0.94361269 55 9 13779 6.03200000 888543214 888543214 9.00000000
4.02111387 -4.43311596 -0.52363169 15 10 13779 6.00800000 888543216 888543216 -5.00000000
4.00506926 -4.41697598 1.15897381 12 11 13780 6.07400000 888543219 888543219 11.00000000
4.02134275 -4.43647909 -0.31380638 9 12 13781 5.99600000 888543221 888543221 -3.00000000
4.00140810 -4.41603470 1.37580061 9 13 13782 6.11600000 888543223 888543223 13.00000000
4.00321770 -4.41958237 -0.10408615 9 14 13783 5.96400000 888543226 888543226 -1.00000000
3.98724508 -4.40349293 1.59173715 9 15 13784 6.15000000 888543228 888543228 15.00000000
1.40471077 -1.55571556 -0.56163734 4 0 13792 2.17000000 888543249 888543249 -15.00000000
3.99281836 -4.42359352 0.10401634 11 1 13793 5.96000000 888543251 888543251 1.00000000
1.63576329 -1.81287777 -0.56372732 3 2 13794 2.50600000 888543253 888543253 -13.00000000
4.00246382 -4.43739319 0.31317836 9 3 13795 5.98400000 888543255 888543255 3.00000000
1.92639625 -2.13572884 -0.55907035 2 4 13795 2.93000000 888543258 888543258 -11.00000000
3.99059844 -4.42579079 0.52136564 9 5 13796 5.98200000 888543260 888543260 5.00000000
2.37398338 -2.63380122 -0.56159973 3 6 13797 3.59000000 888543262 888543262 -9.00000000
3.99836183 -4.43751478 0.73340970 10 7 13798 6.01800000 888543265 888543265 7.00000000
3.09152055 -3.43227673 -0.56717992 4 8 13799 4.65400000 888543267 888543267 -7.00000000
3.97537780 -4.41355515 0.94079685 52 9 13799 6.01400000 888543269 888543269 9.00000000
3.99950624 -4.44190168 -0.52293444 15 10 13800 6.00000000 888543272 888543272 -5.00000000
3.97965932 -4.42141104 1.15630257 12 11 13801 6.06000000 888543274 888543274 11.00000000
3.99837565 -4.44376421 -0.31328303 12 12 13802 5.98600000 888543276 888543276 -3.00000000
3.97737622 -4.42197800 1.37310123 9 13 13803 6.10400000 888543279 888543279 13.00000000
3.98164439 -4.42827702 -0.10394653 9 14 13804 5.95600000 888543281 888543281 -1.00000000
3.96409988 -4.40876484 1.58863127 9 15 13804 6.13800000 888543283 888543283 15.00000000
1.40185106 -1.56348622 -0.56267262 4 0 13812 2.17400000 888543304 888543304 -15.00000000
3.96667552 -4.42559147 0.10373710 11 1 13813 5.94400000 888543306 888543306 1.00000000
1.61902189 -1.80696559 -0.56012815 3 2 13814 2.49000000 888543308 888543308 -13.00000000
3.97229218 -4.43497229 0.31202698 9 3 13815 5.96200000 888543311 888543311 3.00000000
1.92678857 -2.15121460 -0.56136006 2 4 13815 2.94200000 888543313 888543313 -11.00000000
3.96715093 -4.43078756 0.52031976 9 5 13816 5.97000000 888543315 888543315 5.00000000
2.35950565 -2.63618422 -0.56034827 1 6 13817 3.58200000 888543318 888543318 -9.00000000
3.95902205 -4.42481565 0.72902238 10 7 13818 5.98200000 888543320 888543320 7.00000000
3.07555079 -3.43860841 -0.56644869 6 8 13819 4.64800000 888543322 888543322 -7.00000000
3.95785809 -4.42662334 0.94048399 55 9 13820 6.01200000 888543325 888543325 9.00000000
3.97069669 -4.44098282 -0.52119136 15 10 13820 5.98000000 888543327 888543327 -5.00000000
3.94326830 -4.41185522 1.15019667 12 11 13821 6.02800000 888543329 888543329 11.00000000
3.96420956 -4.43684292 -0.31181762 12 12 13822 5.95800000 888543331 888543331 -3.00000000
3.94763684 -4.41984701 1.36815226 9 13 13823 6.08200000 888543334 888543334 13.00000000
3.96483064 -4.44065714 -0.10391163 9 14 13824 5.95400000 888543336 888543336 -1.00000000
3.94791436 -4.42326450 1.58863127 9 15 13825 6.13800000 888543338 888543338 15.00000000
1.39638495 -1.56836998 -0.56267262 4 0 13832 2.17400000 888543359 888543359 -15.00000000
3.95120311 -4.43941069 0.10373710 11 1 13833 5.94400000 888543361 888543361 1.00000000
1.60493243 -1.80387056 -0.55742872 3 2 13834 2.47800000 888543364 888543364 -13.00000000
3.94484115 -4.43537951 0.31108493 9 3 13835 5.94400000 888543366 888543366 3.00000000
1.90622032 -2.14325762 -0.55754387 3 4 13835 2.92200000 888543368 888543368 -11.00000000
3.94901276 -4.44163084 0.51997113 12 5 13836 5.96600000 888543371 888543371 5.00000000
2.35160160 -2.64588094 -0.56066114 3 6 13837 3.58400000 888543373 888543373 -9.00000000
3.93300462 -4.42673635 0.72707248 10 7 13838 5.96600000 888543375 888543375 7.00000000
3.05825615 -3.44338608 -0.56547374 6 8 13839 4.64000000 888543378 888543378 -7.00000000
3.93003941 -4.42495394 0.93735534 54 9 13839 5.99200000 888543380 888543380 9.00000000
3.95781612 -4.45779562 -0.52153999 15 10 13840 5.98400000 888543382 888543382 -5.00000000
3.92523766 -4.42265606 1.14943337 12 11 13841 6.02400000 888543384 888543384 11.00000000
3.93544292 -4.43571377 -0.31077090 12 12 13842 5.93800000 888543387 888543387 -3.00000000
3.91666794 -4.41610432 1.36275351 9 13 13843 6.05800000 888543389 888543389 13.00000000
3.93073320 -4.43352175 -0.10342296 9 14 13844 5.92600000 888543391 888543391 -1.00000000
3.92425346 -4.42621279 1.58500779 9 15 13844 6.12400000 888543394 888543394 15.00000000
1.39090180 -1.57323480 -0.56267262 4 0 13852 2.17400000 888543414 888543414 -15.00000000
3.92906117 -4.44568443 0.10356258 11 1 13853 5.93400000 888543417 888543417 1.00000000
1.61152852 -1.82406604 -0.56192774 4 2 13854 2.49800000 888543419 888543419 -13.00000000
3.92007995 -4.43864346 0.31035221 9 3 13855 5.93000000 888543421 888543421 3.00000000
1.89612818 -2.14695549 -0.55678064 2 4 13855 2.91800000 888543424 888543424 -11.00000000
3.91502380 -4.43447781 0.51753080 9 5 13856 5.93800000 888543426 888543426 5.00000000
2.34757972 -2.65999770 -0.56191260 3 6 13857 3.59200000 888543428 888543428 -9.00000000
3.91490197 -4.43746090 0.72658503 10 7 13858 5.96200000 888543431 888543431 7.00000000
3.05015707 -3.45850706 -0.56620497 4 8 13859 4.64600000 888543433 888543433 -7.00000000
3.89811873 -4.42154789 0.93360090 54 9 13860 5.96800000 888543435 888543435 9.00000000
3.92246771 -4.44916630 -0.51892531 15 10 13860 5.95400000 888543437 888543437 -5.00000000
3.90717983 -4.43338490 1.14867020 12 11 13861 6.02000000 888543440 888543440 11.00000000
3.91993523 -4.44942379 -0.31077090 12 12 13862 5.93800000 888543442 888543442 -3.00000000
3.89092541 -4.41804981 1.35915422 9 13 13863 6.04200000 888543444 888543444 13.00000000
3.90598392 -4.43670940 -0.10317863 9 14 13864 5.91200000 888543447 888543447 -1.00000000
3.89524126 -4.42606401 1.57983148 9 15 13865 6.10400000 888543449 888543449 15.00000000
1.38085246 -1.57179129 -0.56060207 4 0 13870 2.16600000 888543470 888543470 -15.00000000
3.89792132 -4.43847275 0.10310882 11 1 13871 5.90800000 888543472 888543472 1.00000000
1.60707581 -1.83058429 -0.56237763 4 2 13872 2.50000000 888543474 888543474 -13.00000000
3.90084648 -4.44493198 0.30993354 9 3 13873 5.92200000 888543477 888543477 3.00000000
1.89196384 -2.15585279 -0.55754387 3 4 13873 2.92200000 888543479 888543479 -11.00000000
3.88661981 -4.43028069 0.51561338 12 5 13874 5.91600000 888543481 888543481 5.00000000
2.33269930 -2.65993381 -0.56034827 3 6 13875 3.58200000 888543484 888543484 -9.00000000
3.88785601 -4.43481112 0.72414762 10 7 13876 5.94200000 888543486 888543486 7.00000000
3.03927684 -3.46807218 -0.56620497 4 8 13877 4.64600000 888543488 888543488 -7.00000000
3.87847281 -4.42566586 0.93203652 19 9 13877 5.95800000 888543490 888543490 9.00000000
3.89534187 -4.44648075 -0.51718217 15 10 13878 5.93400000 888543493 888543493 -5.00000000
3.88159180 -4.43234539 1.14523554 12 11 13879 6.00200000 888543495 888543495 11.00000000
3.89541316 -4.44969463 -0.30993354 12 12 13880 5.92200000 888543497 888543497 -3.00000000
3.87189317 -4.42438555 1.35735464 9 13 13881 6.03400000 888543500 888543500 13.00000000
3.88280964 -4.43842268 -0.10293429 9 14 13882 5.89800000 888543502 888543502 -1.00000000
3.87064385 -4.42451620 1.57517266 9 15 13882 6.08600000 888543504 888543504 15.00000000
1.37789738 -1.57951331 -0.56163734 4 0 13890 2.17000000 888543525 888543525 -15.00000000
3.86531878 -4.43245935 0.10265505 11 1 13891 5.88200000 888543527 888543527 1.00000000
1.59555387 -1.83030713 -0.56057805 4 2 13892 2.49200000 888543530 888543530 -13.00000000
3.88530707 -4.45852137 0.30993354 9 3 13893 5.92200000 888543532 888543532 3.00000000
1.88700664 -2.16540408 -0.55830711 3 4 13893 2.92600000 888543534 888543534 -11.00000000
3.86720538 -4.43931341 0.51509047 12 5 13894 5.91000000 888543537 888543537 5.00000000
2.31691384 -2.66061163 -0.55878389 1 6 13895 3.57200000 888543539 888543539 -9.00000000
3.86453152 -4.43937159 0.72268522 10 7 13896 5.93000000 888543541 888543541 7.00000000
3.02975869 -3.48165512 -0.56669247 4 8 13897 4.65000000 888543543 888543543 -7.00000000
3.86092949 -4.43836117 0.93172365 9 9 13898 5.95600000 888543546 888543546 9.00000000
3.87195110 -4.45103168 -0.51613629 15 10 13898 5.92200000 888543548 888543548 -5.00000000
3.84677219 -4.42364550 1.13951135 12 11 13899 5.97200000 888543550 888543550 11.00000000
3.86675382 -4.44819164 -0.30888683 12 12 13900 5.90200000 888543553 888543553 -3.00000000
3.85131264 -4.43199015 1.35555506 9 13 13901 6.02600000 888543555 888543555 13.00000000
3.86467028 -4.44893026 -0.10286448 9 14 13902 5.89400000 888543557 888543557 -1.00000000
3.84173465 -4.42408657 1.56999636 9 15 13903 6.06600000 888543560 888543560 15.00000000
1.39106798 -1.60645926 -0.56940192 4 0 13911 2.20000000 888543580 888543580 -15.00000000
3.84381199 -4.44054890 0.10251544 11 1 13912 5.87400000 888543583 888543583 1.00000000
1.58628452 -1.83319557 -0.55967820 4 2 13913 2.48800000 888543585 888543585 -13.00000000
3.84803367 -4.44856310 0.30825877 9 3 13914 5.89000000 888543587 888543587 3.00000000
1.88547933 -2.17972994 -0.56021523 3 4 13914 2.93600000 888543590 888543590 -11.00000000
3.84569597 -4.44742918 0.51439321 12 5 13915 5.90200000 888543592 888543592 5.00000000
2.31102204 -2.67356920 -0.55972254 1 6 13916 3.57800000 888543594 888543594 -9.00000000
3.83265996 -4.43548203 0.71976036 10 7 13917 5.90600000 888543596 888543596 7.00000000
3.00659633 -3.48071837 -0.56474257 4 8 13918 4.63400000 888543599 888543599 -7.00000000
3.83120918 -4.43536758 0.92828214 38 9 13918 5.93400000 888543601 888543601 9.00000000
3.84779859 -4.45614481 -0.51509047 15 10 13919 5.91000000 888543603 888543603 -5.00000000
3.82027030 -4.42582560 1.13645840 12 11 13920 5.95600000 888543606 888543606 11.00000000
3.84259582 -4.45326090 -0.30825877 12 12 13921 5.89000000 888543608 888543608 -3.00000000
3.81722307 -4.42541742 1.34925640 9 13 13922 5.99800000 888543610 888543610 13.00000000
3.84572649 -4.46003580 -0.10279468 9 14 13923 5.89000000 888543613 888543613 -1.00000000
3.81743765 -4.42722845 1.56637287 9 15 13923 6.05200000 888543615 888543615 15.00000000
1.43709147 -1.67136300 -0.59062505 9 0 13931 2.28200000 888543636 888543636 -15.00000000
3.82307434 -4.44787359 0.10237581 11 1 13932 5.86600000 888543638 888543638 1.00000000
1.58368576 -1.84315574 -0.56102794 5 2 13933 2.49400000 888543640 888543640 -13.00000000
3.82337236 -4.45136261 0.30752608 9 3 13934 5.87600000 888543643 888543643 3.00000000
1.85483360 -2.15949082 -0.55334610 5 4 13934 2.90000000 888543645 888543645 -11.00000000
3.81976461 -4.44873285 0.51299870 12 5 13935 5.88600000 888543647 888543647 5.00000000
2.30424857 -2.68461776 -0.56034827 1 6 13936 3.58200000 888543649 888543649 -9.00000000
3.80681276 -4.43678093 0.71781045 10 7 13937 5.89000000 888543652 888543652 7.00000000
2.99701285 -3.49420571 -0.56523001 4 8 13938 4.63800000 888543654 888543654 -7.00000000
3.81570339 -4.44871378 0.92828214 54 9 13938 5.93400000 888543656 888543656 9.00000000
3.82703280 -4.46349907 -0.51439321 15 10 13939 5.90200000 888543659 888543659 -5.00000000
3.80479789 -4.43913412 1.13645840 12 11 13940 5.95600000 888543661 888543661 11.00000000
3.82442856 -4.46361399 -0.30804944 12 12 13941 5.88600000 888543663 888543663 -3.00000000
3.79034305 -4.42539454 1.34520733 9 13 13942 5.98000000 888543666 888543666 13.00000000
3.81452799 -4.45520496 -0.10237581 9 14 13943 5.86600000 888543668 888543668 -1.00000000
3.79819107 -4.43612432 1.56481993 9 15 13943 6.04600000 888543670 888543670 15.00000000
1.35974884 -1.59262419 -0.56111968 4 0 13951 2.16800000 888543691 888543691 -15.00000000
3.80363059 -4.45662832 0.10227110 11 1 13952 5.86000000 888543693 888543693 1.00000000
1.58356643 -1.85608506 -0.56327742 12 2 13953 2.50400000 888543696 888543696 -13.00000000
3.79614639 -4.45100498 0.30658403 9 3 13954 5.85800000 888543698 888543698 3.00000000
1.76829696 -2.07333899 -0.52968580 15 4 13954 2.77600000 888543700 888543700 -11.00000000
3.79128623 -4.44687796 0.51125556 12 5 13955 5.86600000 888543702 888543702 5.00000000
2.29486346 -2.69264460 -0.56034827 1 6 13956 3.58200000 888543705 888543705 -9.00000000
3.78744006 -4.44550896 0.71707922 10 7 13957 5.88400000 888543707 888543707 7.00000000
2.99252009 -3.51371360 -0.56669247 4 8 13958 4.65000000 888543709 888543709 -7.00000000
3.77504206 -4.43409157 0.92233759 61 9 13959 5.89600000 888543712 888543712 9.00000000
3.80109644 -4.46469402 -0.51299870 15 10 13959 5.88600000 888543714 888543714 -5.00000000
3.78037238 -4.44192266 1.13378704 12 11 13960 5.94200000 888543716 888543716 11.00000000
3.79847074 -4.46476650 -0.30721205 12 12 13961 5.87000000 888543719 888543719 -3.00000000
3.77108502 -4.43414497 1.34385765 8 13 13962 5.97400000 888543721 888543721 13.00000000
3.78729582 -4.45478153 -0.10206167 9 14 13963 5.84800000 888543723 888543723 -1.00000000
3.76391339 -4.42727804 1.55705535 9 15 13963 6.01600000 888543725 888543725 15.00000000
1.34793508 -1.58999300 -0.55853152 4 0 13971 2.15800000 888543746 888543746 -15.00000000
3.77641511 -4.45614815 0.10195696 11 1 13972 5.84200000 888543749 888543749 1.00000000
1.53550947 -1.81253374 -0.54843068 12 2 13973 2.43800000 888543751 888543751 -13.00000000
3.77155113 -4.45355940 0.30585134 9 3 13974 5.84400000 888543753 888543753 3.00000000
1.78642428 -2.10946298 -0.53731811 26 4 13974 2.81600000 888543755 888543755 -11.00000000
3.76029253 -4.44183683 0.50916386 12 5 13975 5.84200000 888543758 888543758 5.00000000
2.27907014 -2.69309926 -0.55878389 3 6 13976 3.57200000 888543760 888543760 -9.00000000
3.77061725 -4.45718718 0.71683550 10 7 13977 5.88200000 888543762 888543762 7.00000000
2.98280048 -3.52716947 -0.56717992 4 8 13978 4.65400000 888543765 888543765 -7.00000000
3.75316477 -4.43969870 0.92077327 61 9 13979 5.88600000 888543767 888543767 9.00000000
3.76876712 -4.45815516 -0.51073265 15 10 13979 5.86000000 888543769 888543769 -5.00000000
3.75724101 -4.44609404 1.13149738 12 11 13980 5.93000000 888543772 888543772 11.00000000
3.78028488 -4.47494698 -0.30700272 12 12 13981 5.86600000 888543774 888543774 -3.00000000
3.74552536 -4.43537045 1.34025836 8 13 13982 5.95800000 888543776 888543776 13.00000000
3.76656318 -4.46186209 -0.10192205 9 14 13983 5.84000000 888543778 888543778 -1.00000000
3.73894024 -4.43070889 1.55343187 9 15 13984 6.00200000 888543781 888543781 15.00000000
1.34265506 -1.59445417 -0.55853152 4 0 13990 2.15800000 888543802 888543802 -15.00000000
3.74873948 -4.45334864 0.10160791 11 1 13991 5.82200000 888543804 888543804 1.00000000
1.57215059 -1.86831212 -0.56372732 6 2 13992 2.50600000 888543806 888543806 -13.00000000
3.75804758 -4.46757030 0.30595601 9 3 13993 5.84600000 888543808 888543808 3.00000000
1.82744336 -2.17246628 -0.55181962 17 4 13993 2.89200000 888543811 888543811 -11.00000000
3.74169540 -4.44970751 0.50864089 12 5 13994 5.83600000 888543813 888543813 5.00000000
2.27139807 -2.70215440 -0.55909675 1 6 13995 3.57400000 888543815 888543815 -9.00000000
3.74176836 -4.45294857 0.71415436 10 7 13996 5.86000000 888543818 888543818 7.00000000
2.96981072 -3.53552151 -0.56693619 4 8 13997 4.65200000 888543820 888543820 -7.00000000
3.73461080 -4.44758224 0.91983467 26 9 13998 5.88000000 888543822 888543822 9.00000000
3.75140023 -4.46757650 -0.51038402 15 10 13998 5.85600000 888543825 888543825 -5.00000000
3.72859216 -4.44198847 1.12729955 12 11 13999 5.90800000 888543827 888543827 11.00000000
3.75258660 -4.47215843 -0.30595601 12 12 14000 5.84600000 888543829 888543829 -3.00000000
3.72578716 -4.44179440 1.33845878 8 13 14001 5.95000000 888543831 888543831 13.00000000
3.74403715 -4.46513414 -0.10171262 9 14 14002 5.82800000 888543834 888543834 -1.00000000
3.71755481 -4.43355131 1.55032611 8 15 14002 5.99000000 888543836 888543836 15.00000000
1.34203792 -1.60505939 -0.56060207 4 0 14010 2.16600000 888543857 888543857 -15.00000000
3.72419453 -4.45566654 0.10136358 11 1 14011 5.80800000 888543859 888543859 1.00000000
1.57686484 -1.88724756 -0.56777644 4 2 14012 2.52400000 888543861 888543861 -13.00000000
3.72450519 -4.45920086 0.30449060 9 3 14013 5.81800000 888543864 888543864 3.00000000
1.81984890 -2.17883205 -0.55181962 8 4 14013 2.89200000 888543866 888543866 -11.00000000
3.72103238 -4.45662355 0.50794369 12 5 14014 5.82800000 888543868 888543868 5.00000000
2.25942039 -2.70703340 -0.55847102 1 6 14015 3.57000000 888543871 888543871 -9.00000000
3.71221280 -4.44921637 0.71147323 10 7 14016 5.83800000 888543873 888543873 7.00000000
2.95617986 -3.54434204 -0.56669247 4 8 14017 4.65000000 888543875 888543875 -7.00000000
3.72538805 -4.46817732 0.92139900 7 9 14018 5.89000000 888543878 888543878 9.00000000
3.72940326 -4.47299290 -0.50951248 14 10 14018 5.84600000 888543880 888543880 -5.00000000
3.71055007 -4.45196009 1.12653625 12 11 14019 5.90400000 888543882 888543882 11.00000000
3.72161126 -4.46681643 -0.30469993 12 12 14020 5.82200000 888543884 888543884 -3.00000000
3.69778824 -4.43979883 1.33395970 8 13 14021 5.93000000 888543887 888543887 13.00000000
3.72203064 -4.47049236 -0.10153810 9 14 14022 5.81800000 888543889 888543889 -1.00000000
3.69216752 -4.43462372 1.54618502 8 15 14022 5.97400000 888543891 888543891 15.00000000
1.33642709 -1.60973418 -0.56060207 4 0 14030 2.16600000 888543912 888543912 -15.00000000
3.69840193 -4.45632887 0.10108434 11 1 14031 5.79200000 888543914 888543914 1.00000000
1.55160344 -1.87024343 -0.56102794 3 2 14032 2.49400000 888543917 888543917 -13.00000000
3.70077062 -4.46076727 0.30375788 9 3 14032 5.80400000 888543919 888543919 3.00000000
1.77714062 -2.14285803 -0.54113430 12 4 14033 2.83600000 888543921 888543921 -11.00000000
3.70290995 -4.46651793 0.50759506 12 5 14034 5.82400000 888543924 888543924 5.00000000
2.24491525 -2.70881987 -0.55721956 1 6 14035 3.56200000 888543926 888543926 -9.00000000
3.69665956 -4.46214724 0.71147323 10 7 14036 5.83800000 888543928 888543928 7.00000000
2.94252372 -3.55311060 -0.56644869 4 8 14037 4.64800000 888543930 888543930 -7.00000000
3.68913150 -4.45464277 0.91608024 9 9 14037 5.85600000 888543933 888543933 9.00000000
3.70995522 -4.48137951 -0.50898951 14 10 14038 5.84000000 888543935 888543935 -5.00000000
3.68747711 -4.45581055 1.12424660 12 11 14039 5.89200000 888543937 888543937 11.00000000
3.70599651 -4.47978020 -0.30469993 12 12 14040 5.82200000 888543940 888543940 -3.00000000
3.67605829 -4.44517088 1.33171022 8 13 14041 5.92000000 888543942 888543942 13.00000000
3.68729138 -4.46033859 -0.10101453 9 14 14042 5.78800000 888543944 888543944 -1.00000000
3.67666531 -4.44748497 1.54618502 8 15 14042 5.97400000 888543947 888543947 15.00000000
1.32588470 -1.60842669 -0.55853152 4 0 14050 2.15800000 888543967 888543967 -15.00000000
3.68282390 -4.46921158 0.10108434 11 1 14051 5.79200000 888543970 888543970 1.00000000
1.54258764 -1.87263989 -0.56012815 3 2 14052 2.49000000 888543972 888543972 -13.00000000
3.67931795 -4.46813393 0.30333921 9 3 14053 5.79600000 888543974 888543974 3.00000000
1.84952116 -2.24604368 -0.56555784 5 4 14053 2.96400000 888543977 888543977 -11.00000000
3.67716646 -4.46711016 0.50620055 12 5 14054 5.80800000 888543979 888543979 5.00000000
2.22540474 -2.70443702 -0.55471659 7 6 14055 3.54600000 888543981 888543981 -9.00000000
3.67601681 -4.46889162 0.71049827 10 7 14056 5.83000000 888543983 888543983 7.00000000
2.92253828 -3.55416059 -0.56498629 2 8 14057 4.63600000 888543986 888543986 -7.00000000
3.66023588 -4.45287418 0.91295153 9 9 14058 5.83600000 888543988 888543988 9.00000000
3.68163800 -4.47891092 -0.50724643 14 10 14058 5.82000000 888543990 888543990 -5.00000000
3.66940808 -4.46562147 1.12348342 12 11 14059 5.88800000 888543993 888543993 11.00000000
3.67765951 -4.47725582 -0.30365321 12 12 14060 5.80200000 888543995 888543995 -3.00000000
3.65557289 -4.45195103 1.32991064 8 13 14061 5.91200000 888543997 888543997 13.00000000
