# .PCD v0.7 - Point Cloud Data file format
VERSION 0.7
FIELDS x y z intensity laser_id azimuth distance_m adjustedtime timestamp vertical_angle
SIZE 4 4 4 1 1 2 8 8 4 8
TYPE F F F U U U F U U F
COUNT 1 1 1 1 1 1 1 1 1 1
WIDTH 526
HEIGHT 1
VIEWPOINT 0 0 0 1 0 0 0
POINTS 526
DATA ascii
0.88407630 -2.18596840 -0.54438156 3 2 15798 2.42000000 1302547813 1302547813 -13.00000000
5.29121447 -13.08963680 0.73992574 10 3 15799 14.13800000 1302547816 1302547816 3.00000000
1.04110849 -2.57553959 -0.53998947 3 4 15799 2.83000000 1302547818 1302547818 -11.00000000
1.26779342 -3.13947630 -0.53625733 1 6 15801 3.42800000 1302547823 1302547823 -9.00000000
5.27520180 -13.06971550 1.73054469 60 7 15802 14.20000000 1302547825 1302547825 7.00000000
1.64128935 -4.06846571 -0.53866249 2 8 15803 4.42000000 1302547827 1302547827 -7.00000000
5.26478815 -13.05704594 2.22981691 61 9 15804 14.25400000 1302547830 1302547830 9.00000000
2.32984138 -5.77817011 -0.54507202 7 10 15804 6.25400000 1302547832 1302547832 -5.00000000
4.60129738 -11.41728687 2.39274478 40 11 15805 12.54000000 1302547834 1302547834 11.00000000
3.67899656 -9.13336182 -0.51603252 4 12 15806 9.86000000 1302547836 1302547836 -3.00000000
4.06405115 -10.09436989 2.51225328 44 13 15807 11.16800000 1302547839 1302547839 13.00000000
4.83140993 -12.00639725 -0.22590394 2 14 15808 12.94400000 1302547841 1302547841 -1.00000000
3.20854187 -7.97345495 2.30297184 33 15 15808 8.89800000 1302547843 1302547843 15.00000000
0.76395643 -1.90616691 -0.55024928 4 0 15816 2.12600000 1302547864 1302547864 -15.00000000
4.79767227 -11.97684574 0.22520585 35 1 15817 12.90400000 1302547866 1302547866 1.00000000
0.87788910 -2.19265938 -0.54528135 3 2 15818 2.42400000 1302547869 1302547869 -13.00000000
4.81423712 -12.02427769 0.67879736 50 3 15818 12.97000000 1302547871 1302547871 3.00000000
1.02919424 -2.57186723 -0.53846300 3 4 15819 2.82200000 1302547873 1302547873 -11.00000000
4.80719090 -12.01883507 1.13250172 13 5 15820 12.99400000 1302547876 1302547876 5.00000000
1.25609362 -3.14204836 -0.53594446 3 6 15821 3.42600000 1302547878 1302547878 -9.00000000
5.21776295 -13.05855560 1.72664487 9 7 15822 14.16800000 1302547880 1302547880 7.00000000
1.61235309 -4.03729963 -0.53378773 2 8 15823 4.38000000 1302547882 1302547882 -7.00000000
5.21340179 -13.05425262 2.22637534 14 9 15823 14.23200000 1302547885 1302547885 9.00000000
2.30522585 -5.77516508 -0.54402614 7 10 15824 6.24200000 1302547887 1302547887 -5.00000000
4.57887554 -11.47704220 2.40190363 40 11 15825 12.58800000 1302547889 1302547889 11.00000000
3.64043474 -9.12945080 -0.51509047 4 12 15826 9.84200000 1302547892 1302547892 -3.00000000
4.03672695 -10.12840652 2.51720238 9 13 15827 11.19000000 1302547894 1302547894 13.00000000
4.78059006 -12.00089645 -0.22548509 31 14 15828 12.92000000 1302547896 1302547896 -1.00000000
3.18426442 -7.99357986 2.30556011 9 15 15828 8.90800000 1302547899 1302547899 15.00000000
0.74874902 -1.88727367 -0.54403764 4 0 15836 2.10200000 1302547919 1302547919 -15.00000000
4.79563999 -12.09389973 0.22709072 14 1 15837 13.01200000 1302547922 1302547922 1.00000000
0.86879390 -2.19208717 -0.54438156 3 2 15838 2.42000000 1302547924 1302547924 -13.00000000
4.81720972 -12.16068172 0.68549633 7 3 15839 13.09800000 1302547926 1302547926 3.00000000
1.01731825 -2.56814313 -0.53693652 3 4 15839 2.81400000 1302547929 1302547929 -11.00000000
4.84222031 -12.23005199 1.15080440 4 5 15840 13.20400000 1302547931 1302547931 5.00000000
1.25093305 -3.16110826 -0.53844744 3 6 15841 3.44200000 1302547933 1302547933 -9.00000000
4.75680208 -12.03271389 -1.58868873 5 8 15843 13.03600000 1302547938 1302547938 -7.00000000
2.27773118 -5.76464701 -0.54228306 7 10 15844 6.22200000 1302547942 1302547942 -5.00000000
4.55969810 -11.54590988 2.41297054 15 11 15845 12.64600000 1302547945 1302547945 11.00000000
3.61221147 -9.15139198 -0.51561385 8 12 15846 9.85200000 1302547947 1302547947 -3.00000000
0.74036711 -1.88435209 -0.54248470 4 0 15855 2.09600000 1302547975 1302547975 -15.00000000
4.82641029 -12.29028416 0.23047648 7 1 15856 13.20600000 1302547977 1302547977 1.00000000
0.86151993 -2.19495606 -0.54438156 4 2 15857 2.42000000 1302547979 1302547979 -13.00000000
4.84027958 -12.33192635 0.69428879 7 3 15857 13.26600000 1302547982 1302547982 3.00000000
1.01453233 -2.58612370 -0.53998947 3 4 15858 2.83000000 1302547984 1302547984 -11.00000000
5.11292171 -13.03993893 1.22540975 4 5 15859 14.06000000 1302547986 1302547986 5.00000000
1.22963202 -3.13765121 -0.53375441 3 6 15860 3.41200000 1302547988 1302547988 -9.00000000
0.77901489 -1.98883331 0.26226282 1 7 15861 2.15200000 1302547991 1302547991 7.00000000
1.59641361 -4.07775688 -0.53768754 2 8 15862 4.41200000 1302547993 1302547993 -7.00000000
0.78242910 -1.99960506 0.34008852 1 9 15863 2.17400000 1302547995 1302547995 9.00000000
2.25569820 -5.76474667 -0.54158580 7 10 15863 6.21400000 1302547998 1302547998 -5.00000000
3.57166457 -9.13727760 -0.51414841 4 12 15865 9.82400000 1302548002 1302548002 -3.00000000
0.78219205 -2.00208783 0.49624202 7 13 15866 2.20600000 1302548005 1302548005 13.00000000
4.81153440 -12.32188034 -0.23089534 4 14 15867 13.23000000 1302548007 1302548007 -1.00000000
0.77576953 -1.98667181 0.57147247 2 15 15867 2.20800000 1302548009 1302548009 15.00000000
0.73448515 -1.88872552 -0.54300237 4 0 15875 2.09800000 1302548030 1302548030 -15.00000000
5.06818485 -13.03955269 0.24419408 14 1 15876 13.99200000 1302548032 1302548032 1.00000000
0.85526419 -2.20158291 -0.54528135 3 2 15877 2.42400000 1302548034 1302548034 -13.00000000
4.85867834 -12.50699329 0.70318592 42 3 15877 13.43600000 1302548037 1302548037 3.00000000
1.00407767 -2.58598900 -0.53922623 3 4 15878 2.82600000 1302548039 1302548039 -11.00000000
1.22438693 -3.15665793 -0.53625733 1 6 15880 3.42800000 1302548044 1302548044 -9.00000000
0.75484693 -1.94711947 0.25641310 4 7 15881 2.10400000 1302548046 1302548046 7.00000000
1.57786655 -4.07219839 -0.53622514 2 8 15882 4.40000000 1302548048 1302548048 -7.00000000
0.76617050 -1.97837722 0.33602124 4 9 15883 2.14800000 1302548051 1302548051 9.00000000
2.24131799 -5.78744888 -0.54298025 7 10 15883 6.23000000 1302548053 1302548053 -5.00000000
3.53902721 -9.14782619 -0.51404375 8 12 15885 9.82200000 1302548058 1302548058 -3.00000000
0.78082114 -2.01934671 0.49984124 20 13 15886 2.22200000 1302548060 1302548060 13.00000000
4.80525732 -12.43372822 -0.23267548 13 14 15887 13.33200000 1302548062 1302548062 -1.00000000
0.73066336 -1.89848959 -0.54507291 4 0 15895 2.10600000 1302548085 1302548085 -15.00000000
0.84337813 -2.19364142 -0.54258192 3 2 15897 2.41200000 1302548090 1302548090 -13.00000000
4.81137228 -12.52098846 0.70297658 20 3 15898 13.43200000 1302548092 1302548092 3.00000000
1.00067842 -2.60413909 -0.54227918 3 4 15898 2.84200000 1302548094 1302548094 -11.00000000
0.76290780 -1.98640645 0.18616466 1 5 15899 2.13600000 1302548097 1302548097 5.00000000
1.20415783 -3.13693833 -0.53219002 1 6 15900 3.40200000 1302548099 1302548099 -9.00000000
0.74733454 -1.94788921 0.25616935 16 7 15901 2.10200000 1302548101 1302548101 7.00000000
4.77479506 -12.45175648 -1.63743651 2 8 15902 13.43600000 1302548104 1302548104 -7.00000000
2.21967626 -5.79151630 -0.54263163 7 10 15903 6.22600000 1302548108 1302548108 -5.00000000
0.76549357 -1.99834776 0.41596362 4 11 15904 2.18000000 1302548111 1302548111 11.00000000
3.49921846 -9.13960648 -0.51289237 8 12 15905 9.80000000 1302548113 1302548113 -3.00000000
0.75635606 -1.97655904 0.48859370 30 13 15906 2.17200000 1302548115 1302548115 13.00000000
4.78254223 -12.50459003 -0.23368773 9 14 15907 13.39000000 1302548117 1302548117 -1.00000000
0.75877428 -1.98495412 0.56940192 63 15 15908 2.20000000 1302548120 1302548120 15.00000000
0.72815746 -1.91186059 -0.54817873 4 0 15915 2.11800000 1302548140 1302548140 -15.00000000
0.83710164 -2.20021462 -0.54348177 3 2 15917 2.41600000 1302548145 1302548145 -13.00000000
4.95164061 -13.01475430 0.72977257 30 3 15917 13.94400000 1302548147 1302548147 3.00000000
0.98460412 -2.58926558 -0.53846300 3 4 15918 2.82200000 1302548150 1302548150 -11.00000000
0.75243008 -1.97974527 0.18529311 8 5 15919 2.12600000 1302548152 1302548152 5.00000000
1.19670784 -3.15035558 -0.53375441 1 6 15920 3.41200000 1302548154 1302548154 -9.00000000
0.73841685 -1.94491851 0.25543815 24 7 15921 2.09600000 1302548157 1302548157 7.00000000
1.54094779 -4.06084299 -0.53330022 2 8 15922 4.37600000 1302548159 1302548159 -7.00000000
0.74673623 -1.96890187 0.33351827 30 9 15923 2.13200000 1302548161 1302548161 9.00000000
2.19732714 -5.79364061 -0.54210871 3 10 15923 6.22000000 1302548164 1302548164 -5.00000000
3.46021771 -9.13308907 -0.51184565 4 12 15925 9.78000000 1302548168 1302548168 -3.00000000
0.74462122 -1.96642995 0.48544437 49 13 15926 2.15800000 1302548170 1302548170 13.00000000
4.89246130 -12.92704868 -0.24126206 13 14 15927 13.82400000 1302548173 1302548173 -1.00000000
0.75389135 -1.99301136 0.57095480 66 15 15928 2.20600000 1302548175 1302548175 15.00000000
0.71739173 -1.90354419 -0.54507291 4 0 15935 2.10600000 1302548196 1302548196 -15.00000000
4.87708378 -12.94781780 0.24150640 24 1 15936 13.83800000 1302548198 1302548198 1.00000000
0.83353597 -2.21406603 -0.54618114 3 2 15937 2.42800000 1302548200 1302548200 -13.00000000
4.91603231 -13.05812740 0.73123801 45 3 15937 13.97200000 1302548203 1302548203 3.00000000
0.97417712 -2.58901167 -0.53769976 3 4 15938 2.81800000 1302548205 1302548205 -11.00000000
0.73780030 -1.96184611 0.18337569 14 5 15939 2.10400000 1302548207 1302548207 5.00000000
1.18639874 -3.15636277 -0.53406727 1 6 15940 3.41400000 1302548210 1302548210 -9.00000000
0.73371762 -1.95305908 0.25616935 53 7 15941 2.10200000 1302548212 1302548212 7.00000000
1.52257669 -4.05504704 -0.53183782 2 8 15942 4.36400000 1302548214 1302548214 -7.00000000
0.73534238 -1.95842206 0.33132818 41 9 15942 2.11800000 1302548217 1302548217 9.00000000
2.17078972 -5.78448725 -0.54053992 3 10 15943 6.20200000 1302548219 1302548219 -5.00000000
0.74600816 -1.98893750 0.41291067 22 11 15944 2.16400000 1302548221 1302548221 11.00000000
3.41850090 -9.11892891 -0.51038027 4 12 15945 9.75200000 1302548223 1302548223 -3.00000000
0.73570138 -1.96354270 0.48409468 57 13 15946 2.15200000 1302548226 1302548226 13.00000000
4.86063194 -12.97962952 -0.24192525 15 14 15947 13.86200000 1302548228 1302548228 -1.00000000
0.75031579 -2.00467730 0.57354301 71 15 15948 2.21600000 1302548230 1302548230 15.00000000
0.70669293 -1.89517617 -0.54196709 4 0 15955 2.09400000 1302548251 1302548251 -15.00000000
4.83465099 -12.97225761 0.24164602 35 1 15956 13.84600000 1302548253 1302548253 1.00000000
0.82308143 -2.20965743 -0.54438156 3 2 15957 2.42000000 1302548256 1302548256 -13.00000000
0.96581882 -2.59423637 -0.53808135 3 4 15958 2.82000000 1302548260 1302548260 -11.00000000
0.71983057 -1.93453264 0.18058670 24 5 15959 2.07200000 1302548263 1302548263 5.00000000
1.17468524 -3.15863347 -0.53375441 1 6 15960 3.41200000 1302548265 1302548265 -9.00000000
0.72551244 -1.95188689 0.25568187 45 7 15961 2.09800000 1302548267 1302548267 7.00000000
1.51670825 -4.08266687 -0.53476268 2 8 15962 4.38800000 1302548270 1302548270 -7.00000000
0.72575009 -1.95357013 0.33007672 42 9 15962 2.11000000 1302548272 1302548272 9.00000000
2.14364982 -5.77335167 -0.53879678 7 10 15963 6.18200000 1302548274 1302548274 -5.00000000
0.73496264 -1.98048592 0.41062096 42 11 15964 2.15200000 1302548276 1302548276 11.00000000
3.38178730 -9.11769772 -0.50964755 8 12 15965 9.73800000 1302548279 1302548279 -3.00000000
0.73155230 -1.97340775 0.48589426 67 13 15966 2.16000000 1302548281 1302548281 13.00000000
4.42484713 -11.94269466 -0.22230875 6 14 15967 12.73800000 1302548283 1302548283 -1.00000000
0.73861754 -1.99460268 0.56991953 73 15 15968 2.20200000 1302548286 1302548286 15.00000000
0.70141053 -1.90125632 -0.54300237 4 0 15975 2.09800000 1302548306 1302548306 -15.00000000
0.81536329 -2.21251702 -0.54438156 3 2 15977 2.42000000 1302548311 1302548311 -13.00000000
0.95811445 -2.60127640 -0.53884459 3 4 15978 2.82400000 1302548316 1302548316 -11.00000000
0.71513832 -1.94264269 0.18110964 33 5 15979 2.07800000 1302548318 1302548318 5.00000000
1.16365242 -3.16271448 -0.53375441 1 6 15980 3.41200000 1302548320 1302548320 -9.00000000
0.71389884 -1.94136572 0.25397572 34 7 15981 2.08400000 1302548322 1302548322 7.00000000
4.78468657 -13.01841927 -1.70300221 5 8 15982 13.97400000 1302548325 1302548325 -7.00000000
0.72301513 -1.96721625 0.33195394 48 9 15982 2.12200000 1302548327 1302548327 9.00000000
2.12760592 -5.79202032 -0.53984267 7 10 15983 6.19400000 1302548329 1302548329 -5.00000000
0.72466189 -1.97382450 0.40871286 51 11 15984 2.14200000 1302548332 1302548332 11.00000000
3.34443593 -9.11444664 -0.50881016 8 12 15985 9.72200000 1302548334 1302548334 -3.00000000
0.72465938 -1.97594929 0.48589426 77 13 15986 2.16000000 1302548336 1302548336 13.00000000
4.78572798 -13.05642986 -0.24272807 24 14 15987 13.90800000 1302548339 1302548339 -1.00000000
0.73332888 -2.00066876 0.57095480 75 15 15987 2.20600000 1302548341 1302548341 15.00000000
0.69609421 -1.90732265 -0.54403764 4 0 15995 2.10200000 1302548362 1302548362 -15.00000000
4.77069521 -13.07895947 0.24300730 14 1 15996 13.92400000 1302548364 1302548364 1.00000000
0.80630028 -2.21168804 -0.54348177 3 2 15997 2.41600000 1302548366 1302548366 -13.00000000
4.77286386 -13.09200382 0.73029596 85 3 15997 13.95400000 1302548369 1302548369 3.00000000
0.94701213 -2.59907126 -0.53769976 3 4 15998 2.81800000 1302548371 1302548371 -11.00000000
0.69403583 -1.90581274 0.17744909 28 5 15999 2.03600000 1302548373 1302548373 5.00000000
1.14855170 -3.15561962 -0.53187716 1 6 16000 3.40000000 1302548375 1302548375 -9.00000000
0.70033169 -1.92519093 0.25153834 21 7 16001 2.06400000 1302548378 1302548378 7.00000000
1.48138618 -4.07449961 -0.53232527 2 8 16002 4.36800000 1302548380 1302548380 -7.00000000
0.72289354 -1.98829293 0.33508262 49 9 16002 2.14200000 1302548382 1302548382 9.00000000
2.09716821 -5.77132273 -0.53722799 7 10 16003 6.16400000 1302548385 1302548385 -5.00000000
0.71575695 -1.97080600 0.40756801 47 11 16004 2.13600000 1302548387 1302548387 11.00000000
3.30169678 -9.09602737 -0.50713539 8 12 16005 9.69000000 1302548389 1302548389 -3.00000000
0.71377003 -1.96747530 0.48319486 77 13 16006 2.14800000 1302548392 1302548392 13.00000000
4.73330688 -13.05425644 -0.24237902 24 14 16007 13.88800000 1302548394 1302548394 -1.00000000
0.72599113 -2.00334311 0.57095480 73 15 16008 2.20600000 1302548396 1302548396 15.00000000
0.69402403 -1.92246044 -0.54766113 4 0 16015 2.11600000 1302548417 1302548417 -15.00000000
4.72026110 -13.08236599 0.24276297 14 1 16016 13.91000000 1302548419 1302548419 1.00000000
0.79989725 -2.21815538 -0.54438156 3 2 16017 2.42000000 1302548422 1302548422 -13.00000000
4.71401215 -13.07934570 0.72862118 77 3 16018 13.92200000 1302548424 1302548424 3.00000000
0.93926525 -2.60605502 -0.53846300 3 4 16018 2.82200000 1302548426 1302548426 -11.00000000
0.68670386 -1.90634930 0.17727478 49 5 16019 2.03400000 1302548428 1302548428 5.00000000
1.14555907 -3.18191290 -0.53563160 1 6 16020 3.42400000 1302548431 1302548431 -9.00000000
0.69965613 -1.94443440 0.25373197 35 7 16021 2.08200000 1302548433 1302548433 7.00000000
1.47387218 -4.09832573 -0.53476268 2 8 16022 4.38800000 1302548435 1302548435 -7.00000000
2.07903147 -5.78423309 -0.53775096 3 10 16023 6.17000000 1302548440 1302548440 -5.00000000
0.71816558 -1.99915957 0.41291067 45 11 16024 2.16400000 1302548442 1302548442 11.00000000
3.26250148 -9.08681965 -0.50598401 8 12 16025 9.66800000 1302548445 1302548445 -3.00000000
0.70294881 -1.95894945 0.48049545 81 13 16026 2.13600000 1302548447 1302548447 13.00000000
4.68028450 -13.04999352 -0.24199507 24 14 16027 13.86600000 1302548449 1302548449 -1.00000000
0.71999598 -2.00755787 0.57147247 67 15 16027 2.20800000 1302548452 1302548452 15.00000000
0.68341136 -1.91395521 -0.54455525 3 0 16035 2.10400000 1302548472 1302548472 -15.00000000
4.27331305 -11.97439766 0.22192480 10 1 16036 12.71600000 1302548475 1302548475 1.00000000
0.79084027 -2.21726298 -0.54348177 3 2 16037 2.41600000 1302548477 1302548477 -13.00000000
0.92488891 -2.59452367 -0.53541005 3 4 16038 2.80600000 1302548481 1302548481 -11.00000000
0.71080440 -1.99506879 0.18529311 20 5 16039 2.12600000 1302548484 1302548484 5.00000000
1.13510787 -3.18775320 -0.53594446 1 6 16040 3.42600000 1302548486 1302548486 -9.00000000
0.68554318 -1.92629278 0.25105086 22 7 16041 2.06000000 1302548488 1302548488 7.00000000
1.45955741 -4.10344553 -0.53476268 2 8 16042 4.38800000 1302548491 1302548491 -7.00000000
2.05682611 -5.78582287 -0.53722799 3 10 16043 6.16400000 1302548495 1302548495 -5.00000000
0.71512651 -2.01275396 0.41520038 38 11 16044 2.17600000 1302548498 1302548498 11.00000000
3.23477292 -9.10944462 -0.50661206 8 12 16045 9.68000000 1302548500 1302548500 -3.00000000
0.69741005 -1.96506429 0.48139524 67 13 16046 2.14000000 1302548502 1302548502 13.00000000
0.70682353 -1.99379599 0.56681371 61 15 16048 2.19000000 1302548507 1302548507 15.00000000
4.61483860 -13.07540131 0.24202998 14 1 16056 13.86800000 1302548530 1302548530 1.00000000
0.78698528 -2.23103666 -0.54618114 3 2 16057 2.42800000 1302548532 1302548532 -13.00000000
0.91909051 -2.60699391 -0.53731811 3 4 16058 2.81600000 1302548537 1302548537 -11.00000000
0.70714664 -2.00693369 0.18616466 31 5 16059 2.13600000 1302548539 1302548539 5.00000000
1.12003672 -3.18051672 -0.53406727 3 6 16060 3.41400000 1302548541 1302548541 -9.00000000
0.69133687 -1.96425152 0.25568187 12 7 16061 2.09800000 1302548544 1302548544 7.00000000
1.43929636 -4.09166193 -0.53256905 2 8 16062 4.37000000 1302548546 1302548546 -7.00000000
0.70465487 -2.00320768 0.33633411 13 9 16062 2.15000000 1302548548 1302548548 9.00000000
2.03793883 -5.79672670 -0.53757662 3 10 16063 6.16800000 1302548551 1302548551 -5.00000000
0.69247657 -1.97078419 0.40604153 28 11 16064 2.12800000 1302548553 1302548553 11.00000000
3.19633746 -9.10183620 -0.50556535 8 12 16065 9.66000000 1302548555 1302548555 -3.00000000
0.69183719 -1.97116435 0.48229507 44 13 16066 2.14400000 1302548558 1302548558 13.00000000
4.57781267 -13.05027103 -0.24140169 22 14 16067 13.83200000 1302548560 1302548560 -1.00000000
0.69445288 -1.97972250 0.56215495 69 15 16067 2.17200000 1302548562 1302548562 15.00000000
4.56192017 -13.07066250 0.24164602 14 1 16076 13.84600000 1302548585 1302548585 1.00000000
0.77405798 -2.21904993 -0.54258192 3 2 16077 2.41200000 1302548587 1302548587 -13.00000000
4.56298256 -13.08838844 0.72642308 95 3 16078 13.88000000 1302548590 1302548590 3.00000000
0.90739959 -2.60277104 -0.53579164 3 4 16078 2.80800000 1302548592 1302548592 -11.00000000
0.69882566 -2.00562692 0.18581605 7 5 16079 2.13200000 1302548594 1302548594 5.00000000
1.10438037 -3.17134833 -0.53187716 1 6 16080 3.40000000 1302548597 1302548597 -9.00000000
1.42435288 -4.09478617 -0.53232527 2 8 16082 4.36800000 1302548601 1302548601 -7.00000000
0.68757814 -1.97778928 0.33164108 18 9 16083 2.12000000 1302548604 1302548604 9.00000000
2.01572919 -5.79815960 -0.53705370 3 10 16083 6.16200000 1302548606 1302548606 -5.00000000
0.67399466 -1.93980837 0.39917243 56 11 16084 2.09200000 1302548608 1302548608 11.00000000
3.16323638 -9.10916519 -0.50535601 8 12 16085 9.65600000 1302548610 1302548610 -3.00000000
0.67536813 -1.94595206 0.47554654 46 13 16086 2.11400000 1302548613 1302548613 13.00000000
4.52698803 -13.05105686 -0.24112245 20 14 16087 13.81600000 1302548615 1302548615 -1.00000000
0.68972325 -1.98955560 0.56422549 67 15 16088 2.18000000 1302548617 1302548617 15.00000000
0.40627503 -1.17590666 -0.33335894 2 0 16094 1.28800000 1302548638 1302548638 -15.00000000
4.51724577 -13.08193779 0.24157621 14 1 16095 13.84200000 1302548640 1302548640 1.00000000
0.76160926 -2.20686769 -0.53898275 3 2 16096 2.39600000 1302548643 1302548643 -13.00000000
4.50783253 -13.06946182 0.72453898 72 3 16097 13.84400000 1302548645 1302548645 3.00000000
4.52326441 -13.11420345 -2.69651270 4 4 16097 14.13200000 1302548647 1302548647 -11.00000000
4.12315702 -11.96095276 1.10687792 17 5 16098 12.70000000 1302548650 1302548650 5.00000000
1.09900534 -3.18993425 -0.53438014 1 6 16099 3.41600000 1302548652 1302548652 -9.00000000
0.70638716 -2.05149722 0.26640639 5 7 16100 2.18600000 1302548654 1302548654 7.00000000
1.41012025 -4.09761000 -0.53208154 2 8 16101 4.36600000 1302548657 1302548657 -7.00000000
0.67943299 -1.97433603 0.33070245 39 9 16101 2.11400000 1302548659 1302548659 9.00000000
1.99649084 -5.80481195 -0.53705370 3 10 16102 6.16200000 1302548661 1302548661 -5.00000000
0.66628188 -1.93831956 0.39840919 51 11 16103 2.08800000 1302548663 1302548663 11.00000000
3.12133121 -9.08560467 -0.50347191 4 12 16104 9.62000000 1302548666 1302548666 -3.00000000
0.66511434 -1.93712223 0.47284710 59 13 16105 2.10200000 1302548668 1302548668 13.00000000
0.68785876 -2.00450349 0.56784898 56 15 16106 2.19400000 1302548673 1302548673 15.00000000
4.09230185 -11.98676014 0.22108708 35 1 16115 12.66800000 1302548696 1302548696 1.00000000
0.76145279 -2.23164487 -0.54438156 3 2 16116 2.42000000 1302548698 1302548698 -13.00000000
0.88839489 -2.60517073 -0.53502840 3 4 16117 2.80400000 1302548703 1302548703 -11.00000000
1.08850062 -3.19562101 -0.53469300 1 6 16119 3.41800000 1302548707 1302548707 -9.00000000
1.39580834 -4.10250711 -0.53208154 2 8 16121 4.36600000 1302548712 1302548712 -7.00000000
0.66201705 -1.94688964 0.32569656 35 9 16122 2.08200000 1302548714 1302548714 9.00000000
1.97236753 -5.80042791 -0.53600782 3 10 16122 6.15000000 1302548716 1302548716 -5.00000000
0.66077530 -1.94435120 0.39917243 39 11 16123 2.09200000 1302548719 1302548719 11.00000000
3.09473610 -9.11157417 -0.50430930 4 12 16124 9.63600000 1302548721 1302548721 -3.00000000
0.65646929 -1.93389618 0.47149742 67 13 16125 2.09600000 1302548723 1302548723 13.00000000
4.06606913 -11.98512554 -0.22091256 18 14 16126 12.65800000 1302548726 1302548726 -1.00000000
0.68546993 -2.02164745 0.57199007 52 15 16127 2.21000000 1302548728 1302548728 15.00000000
4.04357290 -11.97374058 0.22059841 10 1 16134 12.64000000 1302548751 1302548751 1.00000000
0.74906278 -2.21938634 -0.54078233 3 2 16135 2.40400000 1302548753 1302548753 -13.00000000
4.03574800 -11.96434593 0.66173583 15 3 16136 12.64400000 1302548756 1302548756 3.00000000
0.87849599 -2.60438204 -0.53426516 3 4 16136 2.80000000 1302548758 1302548758 -11.00000000
1.07726681 -3.19734120 -0.53438014 3 6 16138 3.41600000 1302548763 1302548763 -9.00000000
0.68733883 -2.04120755 0.26445648 35 7 16139 2.17000000 1302548765 1302548765 7.00000000
1.38472891 -4.11463881 -0.53305650 2 8 16140 4.37400000 1302548767 1302548767 -7.00000000
0.64959681 -1.93023777 0.32256788 42 9 16140 2.06200000 1302548769 1302548769 9.00000000
1.94041860 -5.76916790 -0.53252161 3 10 16141 6.11000000 1302548772 1302548772 -5.00000000
0.65057063 -1.93536615 0.39688271 39 11 16142 2.08000000 1302548774 1302548774 11.00000000
3.05814362 -9.10285378 -0.50326258 4 12 16143 9.61600000 1302548776 1302548776 -3.00000000
0.64943236 -1.93421507 0.47104752 79 13 16144 2.09400000 1302548779 1302548779 13.00000000
4.01167107 -11.95493984 -0.22010975 22 14 16145 12.61200000 1302548781 1302548781 -1.00000000
0.65514660 -1.95236301 0.55180222 48 15 16145 2.13200000 1302548783 1302548783 15.00000000
3.99858594 -11.97829819 0.22042389 7 1 16154 12.63000000 1302548806 1302548806 1.00000000
0.74624497 -2.23677611 -0.54438156 3 2 16155 2.42000000 1302548809 1302548809 -13.00000000
4.35721970 -13.06781960 0.72192216 12 3 16156 13.79400000 1302548811 1302548811 3.00000000
0.87188363 -2.61488247 -0.53579164 3 4 16156 2.80800000 1302548813 1302548813 -11.00000000
1.06672359 -3.20295620 -0.53469300 1 6 16158 3.41800000 1302548818 1302548818 -9.00000000
0.66077495 -1.98520589 0.25690058 26 7 16159 2.10800000 1302548820 1302548820 7.00000000
1.36722481 -4.11002922 -0.53183782 2 8 16160 4.36400000 1302548822 1302548822 -7.00000000
0.64127135 -1.92885673 0.32194212 45 9 16161 2.05800000 1302548825 1302548825 9.00000000
1.91775429 -5.76834345 -0.53182435 3 10 16161 6.10200000 1302548827 1302548827 -5.00000000
0.63885862 -1.92272043 0.39382976 41 11 16162 2.06400000 1302548829 1302548829 11.00000000
3.02320290 -9.10399532 -0.50273919 4 12 16163 9.60600000 1302548832 1302548832 -3.00000000
0.64451820 -1.94201887 0.47239721 71 13 16164 2.10000000 1302548834 1302548834 13.00000000
0.64251560 -1.93824756 0.54714346 68 15 16166 2.11400000 1302548839 1302548839 15.00000000
0.73232985 -2.22086024 -0.53988254 3 2 16175 2.40000000 1302548864 1302548864 -13.00000000
0.86029267 -2.61045146 -0.53426516 3 4 16176 2.80000000 1302548869 1302548869 -11.00000000
0.66068071 -2.00593138 0.18477018 1 5 16177 2.12000000 1302548871 1302548871 5.00000000
1.04750741 -3.18226790 -0.53062570 1 6 16178 3.39200000 1302548873 1302548873 -9.00000000
0.64453614 -1.95921528 0.25324449 31 7 16179 2.07800000 1302548875 1302548875 7.00000000
1.35658979 -4.12609148 -0.53330022 2 8 16180 4.37600000 1302548878 1302548878 -7.00000000
0.63363755 -1.92721951 0.32131639 44 9 16180 2.05400000 1302548880 1302548880 9.00000000
1.90382695 -5.79393053 -0.53356743 3 10 16181 6.12200000 1302548882 1302548882 -5.00000000
0.63091809 -1.92120826 0.39306653 37 11 16182 2.06000000 1302548885 1302548885 11.00000000
2.98829150 -9.10500431 -0.50221586 4 12 16183 9.59600000 1302548887 1302548887 -3.00000000
0.63712800 -1.94240510 0.47194731 55 13 16184 2.09800000 1302548889 1302548889 13.00000000
4.00348568 -12.21257973 -0.22433323 2 14 16185 12.85400000 1302548892 1302548892 -1.00000000
0.63548285 -1.93853188 0.54662585 77 15 16185 2.11200000 1302548894 1302548894 15.00000000
0.72698838 -2.23081422 -0.54168212 3 2 16195 2.40800000 1302548919 1302548919 -13.00000000
0.66119033 -2.03011107 0.11189427 1 3 16196 2.13800000 1302548922 1302548922 3.00000000
0.85178328 -2.61530542 -0.53464681 3 4 16196 2.80200000 1302548924 1302548924 -11.00000000
0.65860808 -2.02338195 0.18616466 10 5 16197 2.13600000 1302548926 1302548926 5.00000000
1.03578186 -3.18402648 -0.53031284 1 6 16198 3.39000000 1302548928 1302548928 -9.00000000
0.63401073 -1.95012617 0.25178206 36 7 16199 2.06600000 1302548931 1302548931 7.00000000
1.33604455 -4.11192226 -0.53086287 2 8 16200 4.35600000 1302548933 1302548933 -7.00000000
0.62446475 -1.92190480 0.32006490 40 9 16200 2.04600000 1302548935 1302548935 9.00000000
1.87743723 -5.78159094 -0.53182435 3 10 16201 6.10200000 1302548938 1302548938 -5.00000000
0.61935973 -1.90845978 0.39001358 40 11 16202 2.04400000 1302548940 1302548940 11.00000000
2.95464230 -9.10968113 -0.50190181 4 12 16203 9.59000000 1302548942 1302548942 -3.00000000
0.62794030 -1.93720210 0.47014770 45 13 16204 2.09000000 1302548945 1302548945 13.00000000
0.63168907 -1.94992745 0.54921401 73 15 16205 2.12200000 1302548949 1302548949 15.00000000
0.65867454 -2.04417372 0.03748777 1 1 16214 2.14800000 1302548972 1302548972 1.00000000
0.72755975 -2.25930738 -0.54798079 1 2 16215 2.43600000 1302548975 1302548975 -13.00000000
0.64675736 -2.00959206 0.11063821 9 3 16216 2.11400000 1302548977 1302548977 3.00000000
0.84685922 -2.63134456 -0.53731811 3 4 16216 2.81600000 1302548979 1302548979 -11.00000000
0.64178026 -1.99532139 0.18337569 21 5 16217 2.10400000 1302548981 1302548981 5.00000000
1.02526569 -3.18950319 -0.53062570 1 6 16218 3.39200000 1302548984 1302548984 -9.00000000
0.62416387 -1.94287765 0.25056338 40 7 16219 2.05600000 1302548986 1302548986 7.00000000
1.31076014 -4.08254004 -0.52647555 2 8 16220 4.32000000 1302548988 1302548988 -7.00000000
0.61439872 -1.91477609 0.31850058 35 9 16221 2.03600000 1302548991 1302548991 9.00000000
1.86454916 -5.81087494 -0.53391606 3 10 16221 6.12600000 1302548993 1302548993 -5.00000000
0.61089569 -1.90500176 0.38886872 46 11 16222 2.03800000 1302548995 1302548995 11.00000000
0.61760777 -1.92824709 0.46744829 38 13 16224 2.07800000 1302549000 1302549000 13.00000000
0.62546766 -1.95396042 0.54973167 69 15 16225 2.12400000 1302549004 1302549004 15.00000000
0.42454132 -1.33267260 -0.37476999 1 0 16233 1.44800000 1302549025 1302549025 -15.00000000
0.64182872 -2.01597333 0.03692929 10 1 16234 2.11600000 1302549028 1302549028 1.00000000
0.63429147 -1.99470723 0.10969616 16 3 16236 2.09600000 1302549032 1302549032 3.00000000
0.83052969 -2.61183333 -0.53273869 3 4 16236 2.79200000 1302549034 1302549034 -11.00000000
0.62877703 -1.97856140 0.18163256 25 5 16237 2.08400000 1302549037 1302549037 5.00000000
1.01771367 -3.20435882 -0.53250289 1 6 16238 3.40400000 1302549039 1302549039 -9.00000000
0.61797869 -1.94693661 0.25080711 38 7 16239 2.05800000 1302549041 1302549041 7.00000000
1.29650140 -4.08709049 -0.52647555 2 8 16240 4.32000000 1302549044 1302549044 -7.00000000
0.60054761 -1.89431298 0.31474614 47 9 16241 2.01200000 1302549046 1302549046 9.00000000
0.60839313 -1.92022347 0.39154005 52 11 16242 2.05200000 1302549051 1302549051 11.00000000
0.60264200 -1.90438008 0.46114966 59 13 16244 2.05000000 1302549055 1302549055 13.00000000
0.63856012 -2.01910830 -0.03696420 6 14 16245 2.11800000 1302549057 1302549057 -1.00000000
0.61771965 -1.95439768 0.54921401 53 15 16246 2.12200000 1302549060 1302549060 15.00000000
0.63118780 -2.00675607 0.03671986 20 1 16254 2.10400000 1302549083 1302549083 1.00000000
0.41958150 -1.33480310 -0.32302973 1 2 16255 1.43600000 1302549085 1302549085 -13.00000000
0.62672615 -1.99500382 0.10959149 26 3 16256 2.09400000 1302549087 1302549087 3.00000000
0.81787723 -2.60347867 -0.53044903 3 4 16256 2.78000000 1302549090 1302549090 -11.00000000
0.61768913 -1.96743774 0.18041238 30 5 16257 2.07000000 1302549092 1302549092 5.00000000
1.00297391 -3.19658303 -0.53062570 1 6 16258 3.39200000 1302549094 1302549094 -9.00000000
0.61058491 -1.94718778 0.25056338 33 7 16259 2.05600000 1302549097 1302549097 7.00000000
0.59452194 -1.89828277 0.31505901 62 9 16261 2.01400000 1302549101 1302549101 9.00000000
0.64728010 -2.06673741 -0.18947658 1 10 16261 2.17400000 1302549104 1302549104 -5.00000000
0.59640861 -1.90547287 0.38810548 59 11 16262 2.03400000 1302549106 1302549106 11.00000000
0.63084728 -2.01673603 -0.11074288 2 12 16263 2.11600000 1302549108 1302549108 -3.00000000
0.59831661 -1.91391206 0.46294928 73 13 16264 2.05800000 1302549110 1302549110 13.00000000
0.62912291 -2.01369023 -0.03682458 14 14 16265 2.11000000 1302549113 1302549113 -1.00000000
0.60316992 -1.93062007 0.54196709 40 15 16265 2.09400000 1302549115 1302549115 15.00000000
0.41522726 -1.33560395 -0.37476999 1 0 16273 1.44800000 1302549136 1302549136 -15.00000000
0.61527920 -1.98030233 0.03619629 28 1 16274 2.07400000 1302549138 1302549138 1.00000000
0.42994455 -1.38464773 -0.33472717 1 2 16275 1.48800000 1302549140 1302549140 -13.00000000
0.61916655 -1.99527180 0.10948682 25 3 16276 2.09200000 1302549143 1302549143 3.00000000
0.81343931 -2.62131810 -0.53350192 3 4 16276 2.79600000 1302549145 1302549145 -11.00000000
0.60904723 -1.96387303 0.17988946 28 5 16277 2.06400000 1302549147 1302549147 5.00000000
0.98947054 -3.19251728 -0.52937424 1 6 16278 3.38400000 1302549150 1302549150 -9.00000000
0.60084754 -1.93982613 0.24934468 35 7 16279 2.04600000 1302549152 1302549152 7.00000000
0.64394754 -2.08025837 -0.26738134 4 8 16280 2.19400000 1302549154 1302549154 -7.00000000
0.58905965 -1.90412080 0.31568474 61 9 16281 2.01800000 1302549157 1302549157 9.00000000
0.62475222 -2.01949596 -0.18494448 4 10 16281 2.12200000 1302549159 1302549159 -5.00000000
0.58801395 -1.90191615 0.38696066 82 11 16282 2.02800000 1302549161 1302549161 11.00000000
0.62380368 -2.01892567 -0.11074288 11 12 16283 2.11600000 1302549163 1302549163 -3.00000000
0.59450698 -1.92529881 0.46519879 77 13 16284 2.06800000 1302549166 1302549166 13.00000000
0.61973137 -2.00823092 -0.03668496 21 14 16285 2.10200000 1302549168 1302549168 -1.00000000
0.59073061 -1.91425419 0.53679073 56 15 16285 2.07400000 1302549170 1302549170 15.00000000
0.41056260 -1.33704519 -0.37476999 1 0 16293 1.44800000 1302549191 1302549191 -15.00000000
0.60542959 -1.97287953 0.03602177 29 1 16294 2.06400000 1302549193 1302549193 1.00000000
0.60961854 -1.98776662 0.10896346 31 3 16295 2.08200000 1302549198 1302549198 3.00000000
0.80658549 -2.63164973 -0.53502840 3 4 16296 2.80400000 1302549200 1302549200 -11.00000000
0.60043782 -1.96027195 0.17936651 26 5 16297 2.05800000 1302549203 1302549203 5.00000000
0.64064962 -2.09285736 -0.34665877 1 6 16298 2.21600000 1302549205 1302549205 -9.00000000
0.59058833 -1.93052220 0.24788225 36 7 16299 2.03400000 1302549207 1302549207 7.00000000
0.63494098 -2.07679844 -0.26665011 26 8 16300 2.18800000 1302549209 1302549209 -7.00000000
0.58274215 -1.90606368 0.31568474 61 9 16300 2.01800000 1302549212 1302549212 9.00000000
0.62410313 -2.04262424 -0.18686192 17 10 16301 2.14400000 1302549214 1302549214 -5.00000000
0.58481151 -1.91522312 0.38925034 75 11 16302 2.04000000 1302549216 1302549216 11.00000000
0.61500371 -2.01535988 -0.11042887 19 12 16303 2.11000000 1302549219 1302549219 -3.00000000
0.58948815 -1.93295431 0.46654847 79 13 16304 2.07400000 1302549221 1302549221 13.00000000
0.60572177 -1.98742795 -0.03626610 25 14 16305 2.07800000 1302549223 1302549223 -1.00000000
0.58291858 -1.91260874 0.53575540 68 15 16305 2.07000000 1302549226 1302549226 15.00000000
0.40589294 -1.33847022 -0.37476999 1 0 16313 1.44800000 1302549246 1302549246 -15.00000000
0.59621936 -1.96732581 0.03588215 28 1 16314 2.05600000 1302549249 1302549249 1.00000000
0.59480703 -1.96513665 0.10760272 29 3 16316 2.05600000 1302549253 1302549253 3.00000000
0.79398185 -2.62317491 -0.53273869 3 4 16316 2.79200000 1302549256 1302549256 -11.00000000
0.59416837 -1.96426296 0.17954083 28 5 16317 2.06000000 1302549258 1302549258 5.00000000
0.62705261 -2.07428122 -0.34321722 10 6 16318 2.19400000 1302549260 1302549260 -9.00000000
0.58556819 -1.93827271 0.24861346 33 7 16319 2.04000000 1302549262 1302549262 7.00000000
0.61621267 -2.04099488 -0.26177534 19 8 16320 2.14800000 1302549265 1302549265 -7.00000000
0.57575214 -1.90818667 0.31568474 56 9 16321 2.01800000 1302549267 1302549267 9.00000000
0.61121392 -2.02571583 -0.18511879 17 10 16321 2.12400000 1302549269 1302549269 -5.00000000
0.58095652 -1.92665112 0.39115843 73 11 16322 2.05000000 1302549272 1302549272 11.00000000
0.60047352 -1.99263442 -0.10906813 21 12 16323 2.08400000 1302549274 1302549274 -3.00000000
0.57880366 -1.92193842 0.46339917 54 13 16324 2.06000000 1302549276 1302549276 13.00000000
0.59417021 -1.97421145 -0.03598686 25 14 16325 2.06200000 1302549279 1302549279 -1.00000000
0.57924318 -1.92583227 0.53886127 63 15 16326 2.08200000 1302549281 1302549281 15.00000000
0.40121832 -1.33987880 -0.37476999 1 0 16333 1.44800000 1302549302 1302549302 -15.00000000
0.58705533 -1.96173203 0.03574253 28 1 16334 2.04800000 1302549304 1302549304 1.00000000
0.58885944 -1.96901190 0.10770740 31 3 16335 2.05800000 1302549309 1302549309 3.00000000
0.78144729 -2.61464405 -0.53044903 3 4 16336 2.78000000 1302549311 1302549311 -11.00000000
0.58388698 -1.95487070 0.17849496 28 5 16337 2.04800000 1302549313 1302549313 5.00000000
0.61302817 -2.05374336 -0.33946279 15 6 16338 2.17000000 1302549315 1302549315 -9.00000000
0.57936627 -1.94220722 0.24885720 28 7 16339 2.04200000 1302549318 1302549318 7.00000000
0.60398042 -2.02601218 -0.25958171 19 8 16340 2.13000000 1302549320 1302549320 -7.00000000
0.56683177 -1.90261221 0.31443328 56 9 16341 2.01000000 1302549322 1302549322 9.00000000
0.60015702 -2.01447082 -0.18389861 21 10 16341 2.11000000 1302549325 1302549325 -5.00000000
0.57758904 -1.93995702 0.39344814 59 11 16342 2.06200000 1302549327 1302549327 11.00000000
0.59237510 -1.99088967 -0.10885879 22 12 16343 2.08000000 1302549329 1302549329 -3.00000000
0.56653702 -1.90526807 0.45890015 55 13 16344 2.04000000 1302549332 1302549332 13.00000000
0.58271837 -1.96093857 -0.03570762 24 14 16345 2.04600000 1302549334 1302549334 -1.00000000
0.57395428 -1.93144619 0.53989655 58 15 16345 2.08600000 1302549336 1302549336 15.00000000
0.39653882 -1.34127116 -0.37476999 1 0 16353 1.44800000 1302549357 1302549357 -15.00000000
0.57567114 -1.94842732 0.03546329 28 1 16354 2.03200000 1302549359 1302549359 1.00000000
0.57858920 -1.95956230 0.10707936 31 3 16355 2.04600000 1302549364 1302549364 3.00000000
0.77398258 -2.62300491 -0.53159386 5 4 16356 2.78600000 1302549366 1302549366 -11.00000000
0.57424200 -1.94734180 0.17762341 30 5 16357 2.03800000 1302549368 1302549368 5.00000000
0.59859639 -2.03123808 -0.33539549 16 6 16358 2.14400000 1302549371 1302549371 -9.00000000
0.57594800 -1.95564318 0.25031963 36 7 16359 2.05400000 1302549373 1302549373 7.00000000
0.59298134 -2.01477766 -0.25787553 22 8 16360 2.11600000 1302549375 1302549375 -7.00000000
0.56018698 -1.90457928 0.31443328 61 9 16361 2.01000000 1302549378 1302549378 9.00000000
0.58693737 -1.99552786 -0.18198119 27 10 16361 2.08800000 1302549380 1302549380 -5.00000000
0.56472367 -1.92124212 0.38925034 50 11 16362 2.04000000 1302549382 1302549382 11.00000000
0.58204454 -1.98144746 -0.10823075 20 12 16363 2.06800000 1302549385 1302549385 -3.00000000
0.56537199 -1.92593241 0.46339917 65 13 16364 2.06000000 1302549387 1302549387 13.00000000
0.57361817 -1.95528543 -0.03556800 24 14 16365 2.03800000 1302549389 1302549389 -1.00000000
0.56612116 -1.92973042 0.53886127 73 15 16365 2.08200000 1302549391 1302549391 15.00000000
0.39185452 -1.34264719 -0.37476999 1 0 16373 1.44800000 1302549412 1302549412 -15.00000000
0.56326729 -1.93122780 0.03511424 29 1 16374 2.01200000 1302549414 1302549414 1.00000000
0.57475448 -1.97317517 0.10770740 34 3 16376 2.05800000 1302549419 1302549419 3.00000000
0.59461743 -2.04136610 -0.41329229 2 4 16376 2.16600000 1302549421 1302549421 -11.00000000
0.56744099 -1.94933438 0.17762341 26 5 16377 2.03800000 1302549424 1302549424 5.00000000
0.58653647 -2.01624441 -0.33257967 18 6 16378 2.12600000 1302549426 1302549426 -9.00000000
0.56579310 -1.94620454 0.24885720 37 7 16379 2.04200000 1302549428 1302549428 7.00000000
0.58483720 -2.01302290 -0.25738806 25 8 16380 2.11200000 1302549431 1302549431 -7.00000000
0.55441922 -1.90832341 0.31474614 63 9 16380 2.01200000 1302549433 1302549433 9.00000000
0.57719046 -1.98799765 -0.18110964 29 10 16381 2.07800000 1302549435 1302549435 -5.00000000
0.55144894 -1.90057576 0.38467094 61 11 16382 2.01600000 1302549438 1302549438 11.00000000
0.57067472 -1.96812117 -0.10739338 20 12 16383 2.05200000 1302549440 1302549440 -3.00000000
0.56515431 -1.95035505 0.46879801 77 13 16384 2.08400000 1302549442 1302549442 13.00000000
0.56456459 -1.94959271 -0.03542839 23 14 16385 2.03000000 1302549444 1302549444 -1.00000000
0.56334072 -1.94663799 0.54300237 86 15 16386 2.09800000 1302549447 1302549447 15.00000000
0.55541623 -1.92933893 0.03504443 27 1 16394 2.00800000 1302549470 1302549470 1.00000000
0.56434268 -1.96163440 0.10697469 32 3 16395 2.04400000 1302549474 1302549474 3.00000000
0.58586073 -2.03776884 -0.41214743 12 4 16396 2.16000000 1302549477 1302549477 -11.00000000
0.56063306 -1.95130324 0.17762341 26 5 16397 2.03800000 1302549479 1302549479 5.00000000
0.57295305 -1.99549556 -0.32882524 21 6 16398 2.10200000 1302549481 1302549481 -9.00000000
0.55680609 -1.94053531 0.24788225 24 7 16399 2.03400000 1302549484 1302549484 7.00000000
0.57342952 -1.99978650 -0.25543815 26 8 16400 2.09600000 1302549486 1302549486 -7.00000000
0.54959774 -1.91793847 0.31599763 70 9 16401 2.02000000 1302549488 1302549488 9.00000000
0.56860101 -1.98425436 -0.18058670 26 10 16401 2.07200000 1302549491 1302549491 -5.00000000
0.54967576 -1.91947567 0.38810548 67 11 16402 2.03400000 1302549493 1302549493 11.00000000
0.55720705 -1.94705915 -0.10613732 21 12 16403 2.02800000 1302549495 1302549495 -3.00000000
0.55834287 -1.95231593 0.46879801 63 13 16404 2.08400000 1302549497 1302549497 13.00000000
0.55665672 -1.94770610 -0.03535857 26 14 16405 2.02600000 1302549500 1302549500 -1.00000000
0.55601174 -1.94673502 0.54248470 81 15 16406 2.09600000 1302549502 1302549502 15.00000000
0.55141062 -1.94088376 0.03521896 31 1 16414 2.01800000 1302549525 1302549525 1.00000000
0.54930949 -1.93477261 0.10540462 27 3 16415 2.01400000 1302549530 1302549530 3.00000000
0.57284939 -2.01902556 -0.40794963 17 4 16416 2.13800000 1302549532 1302549532 -11.00000000
0.55327487 -1.95133150 0.17744909 28 5 16417 2.03600000 1302549534 1302549534 5.00000000
0.56490695 -1.99368227 -0.32819951 22 6 16418 2.09800000 1302549537 1302549537 -9.00000000
0.55056983 -1.94437706 0.24812599 27 7 16419 2.03600000 1302549539 1302549539 7.00000000
0.56266201 -1.98840523 -0.25373197 28 8 16420 2.08200000 1302549541 1302549541 -7.00000000
0.54323459 -1.91975045 0.31599763 85 9 16420 2.02000000 1302549544 1302549544 9.00000000
0.56058687 -1.98239267 -0.18023808 22 10 16421 2.06800000 1302549546 1302549546 -5.00000000
0.54884505 -1.94216454 0.39230329 70 11 16422 2.05600000 1302549548 1302549548 11.00000000
0.55040717 -1.94899225 -0.10613732 25 12 16423 2.02800000 1302549550 1302549550 -3.00000000
0.54940742 -1.94675112 0.46699840 59 13 16424 2.07600000 1302549553 1302549553 13.00000000
0.54442662 -1.93039119 -0.03500953 26 14 16425 2.00600000 1302549555 1302549555 -1.00000000
0.55130917 -1.95610166 0.54455525 77 15 16426 2.10400000 1302549557 1302549557 15.00000000
0.54355282 -1.93894577 0.03514915 30 1 16434 2.01400000 1302549580 1302549580 1.00000000
0.43001655 -1.53497338 -0.36801994 1 2 16435 1.63600000 1302549583 1302549583 -13.00000000
0.54470766 -1.94437110 0.10582330 27 3 16435 2.02200000 1302549585 1302549585 3.00000000
0.56262255 -2.00966954 -0.40565991 21 4 16436 2.12600000 1302549587 1302549587 -11.00000000
0.54646009 -1.95325089 0.17744909 38 5 16437 2.03600000 1302549590 1302549590 5.00000000
0.55900800 -1.99944687 -0.32882524 27 6 16438 2.10200000 1302549592 1302549592 -9.00000000
0.54591596 -1.95393467 0.24910094 39 7 16439 2.04400000 1302549594 1302549594 7.00000000
0.55518389 -1.98844528 -0.25348824 30 8 16440 2.08000000 1302549597 1302549597 -7.00000000
0.53759253 -1.92544019 0.31662336 66 9 16440 2.02400000 1302549599 1302549599 9.00000000
0.54937994 -1.96898472 -0.17884359 26 10 16441 2.05200000 1302549601 1302549601 -5.00000000
0.54417145 -1.95163310 0.39382976 68 11 16442 2.06400000 1302549603 1302549603 11.00000000
0.54735327 -1.96436942 -0.10687003 28 12 16443 2.04200000 1302549606 1302549606 -3.00000000
0.54208589 -1.94677973 0.46654847 57 13 16444 2.07400000 1302549608 1302549608 13.00000000
0.53554064 -1.92457378 -0.03486991 25 14 16445 1.99800000 1302549610 1302549610 -1.00000000
0.54188991 -1.94870806 0.54196709 63 15 16446 2.09400000 1302549613 1302549613 15.00000000
0.53571516 -1.93697667 0.03507934 44 1 16454 2.01000000 1302549636 1302549636 1.00000000
0.51913923 -1.87831903 -0.44990212 3 2 16455 2.00000000 1302549638 1302549638 -13.00000000
0.54217374 -1.96166134 0.10666068 43 3 16455 2.03800000 1302549640 1302549640 3.00000000
0.55560404 -2.01162124 -0.40565991 24 4 16456 2.12600000 1302549643 1302549643 -11.00000000
0.53221726 -1.92825842 0.17500873 31 5 16457 2.00800000 1302549645 1302549645 5.00000000
0.54992431 -1.99376893 -0.32757378 25 6 16458 2.09400000 1302549647 1302549647 -9.00000000
0.53961962 -1.95774209 0.24934468 23 7 16459 2.04600000 1302549649 1302549649 7.00000000
0.54771239 -1.98845732 -0.25324449 27 8 16460 2.07800000 1302549652 1302549652 -7.00000000
0.52929455 -1.92159164 0.31568474 59 9 16460 2.01800000 1302549654 1302549654 9.00000000
0.54038858 -1.96320653 -0.17814633 28 10 16461 2.04400000 1302549656 1302549656 -5.00000000
0.53527290 -1.94594884 0.39230329 66 11 16462 2.05600000 1302549659 1302549659 11.00000000
0.53943419 -1.96241641 -0.10666068 34 12 16463 2.03800000 1302549661 1302549661 -3.00000000
0.53322232 -1.94114363 0.46474889 57 13 16464 2.06600000 1302549663 1302549663 13.00000000
0.52987808 -1.93028820 -0.03493972 34 14 16465 2.00200000 1302549666 1302549666 -1.00000000
0.53542483 -1.95049429 0.54196709 57 15 16465 2.09400000 1302549668 1302549668 15.00000000
0.52842432 -1.93690574 0.03504443 29 1 16474 2.00800000 1302549691 1302549691 1.00000000
0.55051035 -2.01924872 -0.48319486 34 2 16475 2.14800000 1302549693 1302549693 -13.00000000
0.53164560 -1.95005345 0.10592797 31 3 16475 2.02400000 1302549696 1302549696 3.00000000
0.55012697 -2.01923108 -0.40680477 26 4 16476 2.13200000 1302549698 1302549698 -11.00000000
0.52862346 -1.94163895 0.17605460 23 5 16477 2.02000000 1302549700 1302549700 5.00000000
0.53984988 -1.98423982 -0.32569656 27 6 16478 2.08200000 1302549702 1302549702 -9.00000000
0.53017855 -1.95003593 0.24812599 26 7 16479 2.03600000 1302549705 1302549705 7.00000000
0.54232943 -1.99610400 -0.25397572 30 8 16480 2.08400000 1302549707 1302549707 -7.00000000
0.52465540 -1.93105257 0.31693622 58 9 16480 2.02600000 1302549709 1302549709 9.00000000
0.53301036 -1.96315813 -0.17797203 35 10 16481 2.04200000 1302549712 1302549712 -5.00000000
0.52436435 -1.93264747 0.38925034 68 11 16482 2.04000000 1302549714 1302549714 11.00000000
0.53049022 -1.95657682 -0.10624199 31 12 16483 2.03000000 1302549716 1302549716 -3.00000000
0.52797210 -1.94863582 0.46609858 60 13 16484 2.07200000 1302549719 1302549719 13.00000000
0.52940828 -1.95528841 -0.03535857 24 14 16485 2.02600000 1302549721 1302549721 -1.00000000
0.52928144 -1.95617318 0.54300237 51 15 16486 2.09800000 1302549723 1302549723 15.00000000
0.41414651 -1.53702819 -0.42653379 1 0 16492 1.64800000 1302549744 1302549744 -15.00000000
0.52199841 -1.93864739 0.03504443 29 1 16493 2.00800000 1302549746 1302549746 1.00000000
0.54583663 -2.02859044 -0.48499447 63 2 16494 2.15600000 1302549749 1302549749 -13.00000000
0.52587259 -1.95575476 0.10613732 25 3 16495 2.02800000 1302549751 1302549751 3.00000000
0.54444748 -2.02483606 -0.40756801 26 4 16495 2.13600000 1302549753 1302549753 -11.00000000
0.52683496 -1.96069860 0.17762341 30 5 16496 2.03800000 1302549755 1302549755 5.00000000
0.53685278 -1.99937379 -0.32788664 33 6 16497 2.09600000 1302549758 1302549758 -9.00000000
0.52319461 -1.94986606 0.24788225 33 7 16498 2.03400000 1302549760 1302549760 7.00000000
0.53467894 -1.99405670 -0.25348824 37 8 16499 2.08000000 1302549762 1302549762 -7.00000000
0.51824892 -1.93278182 0.31693622 55 9 16499 2.02600000 1302549765 1302549765 9.00000000
0.52804434 -1.97068834 -0.17849496 27 10 16500 2.04800000 1302549767 1302549767 -5.00000000
0.51947594 -1.94006503 0.39039519 61 11 16501 2.04600000 1302549769 1302549769 11.00000000
0.52399904 -1.95832527 -0.10624199 22 12 16502 2.03000000 1302549772 1302549772 -3.00000000
0.51899034 -1.94096291 0.46384907 58 13 16503 2.06200000 1302549774 1302549774 13.00000000
0.52085656 -1.94930553 -0.03521896 23 14 16504 2.01800000 1302549776 1302549776 -1.00000000
0.52063984 -1.94849443 0.54041415 49 15 16504 2.08800000 1302549779 1302549779 15.00000000
0.51830709 -1.95205402 0.03525386 32 1 16513 2.02000000 1302549802 1302549802 1.00000000
0.53525382 -2.01729822 -0.48184517 40 2 16514 2.14200000 1302549804 1302549804 -13.00000000
0.52057815 -1.96337020 0.10645133 31 3 16515 2.03400000 1302549806 1302549806 3.00000000
0.53586674 -2.02103114 -0.40642315 34 4 16515 2.13000000 1302549808 1302549808 -11.00000000
0.52202880 -1.97022939 0.17832065 31 5 16516 2.04600000 1302549811 1302549811 5.00000000
0.52835357 -1.99550676 -0.32694805 27 6 16517 2.09000000 1302549813 1302549813 -9.00000000
0.51993942 -1.96511388 0.24958842 37 7 16518 2.04800000 1302549815 1302549815 7.00000000
0.52670026 -1.99207270 -0.25300077 23 8 16519 2.07600000 1302549818 1302549818 -7.00000000
0.50914299 -1.92702889 0.31568474 56 9 16520 2.01800000 1302549820 1302549820 9.00000000
0.52319795 -1.98022473 -0.17919220 24 10 16520 2.05600000 1302549822 1302549822 -5.00000000
0.50969368 -1.93047726 0.38810548 55 11 16521 2.03400000 1302549825 1302549825 11.00000000
0.51665050 -1.95821118 -0.10613732 21 12 16522 2.02800000 1302549827 1302549827 -3.00000000
0.50873429 -1.92957222 0.46069977 61 13 16523 2.04800000 1302549829 1302549829 13.00000000
