# .PCD v0.7 - Point Cloud Data file format
VERSION 0.7
FIELDS x y z intensity laser_id azimuth distance_m adjustedtime timestamp vertical_angle
SIZE 4 4 4 1 1 2 8 8 4 8
TYPE F F F U U U F U U F
COUNT 1 1 1 1 1 1 1 1 1 1
WIDTH 538
HEIGHT 1
VIEWPOINT 0 0 0 1 0 0 0
POINTS 538
DATA ascii
5.17194653 1.66451406 -0.66711277 6 8 7216 5.47400000 1302423909 1302423909 -7.00000000
8.18722725 2.63493752 1.36223137 100 9 7216 8.70800000 1302423911 1302423911 9.00000000
8.11215782 2.60921502 -0.74553025 17 10 7217 8.55400000 1302423913 1302423913 -5.00000000
8.18462467 2.63094735 1.67110515 90 11 7218 8.75800000 1302423915 1302423915 11.00000000
8.17663288 2.62680387 -0.45008922 17 12 7219 8.60000000 1302423918 1302423918 -3.00000000
8.20481205 2.63427687 1.98946714 92 13 7220 8.84400000 1302423920 1302423920 13.00000000
8.16657925 2.62042975 -0.14970674 14 14 7221 8.57800000 1302423922 1302423922 -1.00000000
7.37261915 2.36566973 2.07469344 45 15 7221 8.01600000 1302423925 1302423925 15.00000000
2.16419053 0.69109756 -0.60874242 4 0 7229 2.35200000 1302423945 1302423945 -15.00000000
8.15354061 2.60212660 0.14939260 12 1 7230 8.56000000 1302423948 1302423948 1.00000000
2.53796268 0.80947918 -0.61501616 4 2 7231 2.73400000 1302423950 1302423950 -13.00000000
8.17686272 2.60642529 0.44977522 13 3 7232 8.59400000 1302423952 1302423952 3.00000000
3.05830836 0.97485459 -0.62394542 5 4 7232 3.27000000 1302423955 1302423955 -11.00000000
8.17636395 2.60469413 0.75075954 79 5 7233 8.61400000 1302423957 1302423957 5.00000000
3.83233047 1.22010529 -0.63700116 6 6 7234 4.07200000 1302423959 1302423959 -9.00000000
8.17191505 2.60013509 1.05295110 97 7 7235 8.64000000 1302423962 1302423962 7.00000000
5.17583323 1.64584899 -0.66686904 9 8 7236 5.47200000 1302423964 1302423964 -7.00000000
8.19306469 2.60371566 1.36160553 100 9 7237 8.70400000 1302423966 1302423966 9.00000000
8.09463215 2.57243419 -0.74308985 17 10 7237 8.52600000 1302423968 1302423968 -5.00000000
8.19188786 2.60176754 1.67072356 93 11 7238 8.75600000 1302423971 1302423971 11.00000000
8.15338993 2.58797383 -0.44830981 17 12 7239 8.56600000 1302423973 1302423973 -3.00000000
8.19909763 2.60090685 1.98586786 104 13 7240 8.82800000 1302423975 1302423975 13.00000000
8.16805172 2.58948970 -0.14956713 14 14 7241 8.57000000 1302423978 1302423978 -1.00000000
7.38492346 2.33979869 2.07572865 45 15 7242 8.02000000 1302423980 1302423980 15.00000000
2.16290522 0.68237638 -0.60770714 4 0 7249 2.34800000 1302424001 1302424001 -15.00000000
8.16448116 2.57425094 0.14942750 12 1 7250 8.56200000 1302424003 1302424003 1.00000000
2.54263139 0.80120075 -0.61546606 4 2 7251 2.73600000 1302424005 1302424005 -13.00000000
8.17067051 2.57306743 0.44893783 10 3 7252 8.57800000 1302424008 1302424008 3.00000000
3.05420232 0.96181434 -0.62241894 5 4 7252 3.26200000 1302424010 1302424010 -11.00000000
8.17400265 2.57254863 0.74971372 76 5 7253 8.60200000 1302424012 1302424012 5.00000000
3.84787226 1.21027672 -0.63887835 6 6 7254 4.08400000 1302424015 1302424015 -9.00000000
8.17715359 2.57040358 1.05246365 95 7 7255 8.63600000 1302424017 1302424017 7.00000000
5.18154669 1.62777185 -0.66686904 9 8 7256 5.47200000 1302424019 1302424019 -7.00000000
8.18657780 2.57179594 1.35910261 99 9 7256 8.68800000 1302424021 1302424021 9.00000000
6.65507221 2.08940053 -0.61026454 4 10 7257 7.00200000 1302424024 1302424024 -5.00000000
8.18593407 2.56845450 1.66767061 93 11 7258 8.74000000 1302424026 1302424026 11.00000000
8.16618538 2.56069279 -0.44851914 17 12 7259 8.57000000 1302424028 1302424028 -3.00000000
8.18953037 2.56644320 1.98136890 104 13 7260 8.80800000 1302424031 1302424031 13.00000000
8.16177464 2.55618095 -0.14928788 14 14 7261 8.55400000 1302424033 1302424033 -1.00000000
7.40001583 2.31760621 2.07779932 47 15 7261 8.02800000 1302424035 1302424035 15.00000000
2.16158509 0.67367268 -0.60667187 4 0 7269 2.34400000 1302424056 1302424056 -15.00000000
8.17341709 2.54573584 0.14942750 12 1 7270 8.56200000 1302424058 1302424058 1.00000000
2.54727340 0.79289961 -0.61591601 4 2 7271 2.73800000 1302424061 1302424061 -13.00000000
8.17960262 2.54453063 0.44893783 13 3 7272 8.57800000 1302424063 1302424063 3.00000000
3.05004263 0.94881463 -0.62089247 5 4 7272 3.25400000 1302424065 1302424065 -11.00000000
8.17532253 2.54163456 0.74901646 76 5 7273 8.59400000 1302424068 1302424068 5.00000000
3.83320928 1.19097662 -0.63574964 6 6 7274 4.06400000 1302424070 1302424070 -9.00000000
8.18607616 2.54184413 1.05246365 95 7 7275 8.63600000 1302424072 1302424072 7.00000000
5.19098902 1.61085165 -0.66735655 9 8 7276 5.47600000 1302424074 1302424074 -7.00000000
8.17330742 2.53475189 1.35534823 97 9 7277 8.66400000 1302424077 1302424077 9.00000000
6.64710140 2.06143618 -0.60887003 12 10 7277 6.98600000 1302424079 1302424079 -5.00000000
8.20047569 2.54160833 1.66881549 87 11 7278 8.74600000 1302424081 1302424081 11.00000000
8.15599537 2.52626252 -0.44747242 17 12 7279 8.55000000 1302424084 1302424084 -3.00000000
8.19843960 2.53784084 1.98136890 104 13 7280 8.80800000 1302424086 1302424086 13.00000000
8.15536499 2.52294755 -0.14900865 14 14 7281 8.53800000 1302424088 1302424088 -1.00000000
7.44537401 2.30188060 2.08815217 45 15 7282 8.06800000 1302424091 1302424091 15.00000000
2.16380715 0.66650093 -0.60667187 4 0 7288 2.34400000 1302424111 1302424111 -15.00000000
8.16461277 2.51332283 0.14911336 12 1 7289 8.54400000 1302424114 1302424114 1.00000000
2.55547643 0.78616720 -0.61726570 5 2 7290 2.74400000 1302424116 1302424116 -13.00000000
8.17654133 2.51387048 0.44830981 10 3 7291 8.56600000 1302424118 1302424118 3.00000000
3.05692530 0.93984902 -0.62165570 5 4 7291 3.25800000 1302424121 1302424121 -11.00000000
8.16656590 2.50924349 0.74744767 76 5 7292 8.57600000 1302424123 1302424123 5.00000000
3.84469104 1.18057811 -0.63700116 6 6 7293 4.07200000 1302424125 1302424125 -9.00000000
8.18686962 2.51235485 1.05148864 97 7 7294 8.62800000 1302424127 1302424127 7.00000000
5.19250679 1.59246480 -0.66686904 6 8 7295 5.47200000 1302424130 1302424130 -7.00000000
8.17745304 2.50790381 1.35472250 92 9 7295 8.66000000 1302424132 1302424132 9.00000000
6.65009069 2.03821445 -0.60852140 12 10 7296 6.98200000 1302424134 1302424134 -5.00000000
8.19384098 2.50980067 1.66576254 96 11 7297 8.73000000 1302424137 1302424137 11.00000000
8.16814804 2.50037146 -0.44768175 17 12 7298 8.55400000 1302424139 1302424139 -3.00000000
8.19935608 2.50835967 1.97956932 106 13 7299 8.80000000 1302424141 1302424141 13.00000000
8.15412521 2.49296618 -0.14883412 14 14 7300 8.52800000 1302424144 1302424144 -1.00000000
7.47658539 2.28582144 2.09488130 45 15 7300 8.09400000 1302424146 1302424146 15.00000000
2.16981697 0.66006821 -0.60770714 4 0 7308 2.34800000 1302424167 1302424167 -15.00000000
8.15420437 2.47899127 0.14876431 12 1 7309 8.52400000 1302424169 1302424169 1.00000000
2.55261135 0.77554268 -0.61591601 6 2 7310 2.73800000 1302424171 1302424171 -13.00000000
8.18144417 2.48415327 0.44810045 13 3 7311 8.56200000 1302424174 1302424174 3.00000000
3.05643010 0.92803180 -0.62089247 5 4 7311 3.25400000 1302424176 1302424176 -11.00000000
8.16955471 2.47898602 0.74692470 79 5 7312 8.57000000 1302424178 1302424178 5.00000000
3.82988477 1.16141796 -0.63387245 6 6 7313 4.05200000 1302424180 1302424180 -9.00000000
8.17659187 2.47800446 1.04905128 97 7 7314 8.60800000 1302424183 1302424183 7.00000000
5.20183372 1.57548070 -0.66735655 9 8 7315 5.47600000 1302424185 1302424185 -7.00000000
8.18426704 2.47877121 1.35440958 87 9 7315 8.65800000 1302424187 1302424187 9.00000000
6.64572334 2.01152563 -0.60747552 12 10 7316 6.97000000 1302424190 1302424190 -5.00000000
8.18376064 2.47549939 1.66194630 84 11 7317 8.71000000 1302424192 1302424192 11.00000000
8.15770817 2.46606469 -0.44663504 17 12 7318 8.53400000 1302424194 1302424194 -3.00000000
8.20433044 2.47859597 1.97866952 106 13 7319 8.79600000 1302424197 1302424197 13.00000000
8.16660595 2.46564364 -0.14890394 14 14 7320 8.53200000 1302424199 1302424199 -1.00000000
7.56404305 2.28371930 2.11713982 45 15 7320 8.18000000 1302424201 1302424201 15.00000000
2.17395806 0.65304589 -0.60822475 4 0 7328 2.35000000 1302424222 1302424222 -15.00000000
8.15514660 2.44821286 0.14862469 12 1 7329 8.51600000 1302424224 1302424224 1.00000000
2.55156994 0.76550764 -0.61501616 6 2 7330 2.73400000 1302424227 1302424227 -13.00000000
8.17284775 2.45041704 0.44715840 13 3 7331 8.54400000 1302424229 1302424229 3.00000000
3.07845640 0.92299557 -0.62470865 5 4 7331 3.27400000 1302424231 1302424231 -11.00000000
8.17243290 2.44873834 0.74640179 76 5 7332 8.56400000 1302424233 1302424233 5.00000000
3.84148502 1.15030861 -0.63512391 6 6 7333 4.06000000 1302424236 1302424236 -9.00000000
8.17758465 2.44717145 1.04807639 90 7 7334 8.60000000 1302424238 1302424238 7.00000000
5.20349741 1.55617571 -0.66686904 9 8 7335 5.47200000 1302424240 1302424240 -7.00000000
8.18761921 2.44706082 1.35347104 92 9 7336 8.65200000 1302424243 1302424243 9.00000000
6.64888620 1.98717451 -0.60712689 16 10 7336 6.96600000 1302424245 1302424245 -5.00000000
8.18482685 2.44467020 1.66041982 90 11 7337 8.70200000 1302424247 1302424247 11.00000000
8.15095615 2.43300390 -0.44579768 17 12 7338 8.51800000 1302424250 1302424250 -3.00000000
8.19052410 2.44325781 1.97327065 103 13 7339 8.77200000 1302424252 1302424252 13.00000000
8.16749763 2.43483686 -0.14876431 16 14 7340 8.52400000 1302424254 1302424254 -1.00000000
7.65898132 2.28324151 2.14146876 45 15 7340 8.27400000 1302424256 1302424256 15.00000000
2.17992854 0.64655209 -0.60926002 4 0 7348 2.35400000 1302424277 1302424277 -15.00000000
8.15789127 2.41802621 0.14851998 12 1 7349 8.51000000 1302424280 1302424280 1.00000000
2.55048943 0.75548941 -0.61411637 6 2 7350 2.73000000 1302424282 1302424282 -13.00000000
8.16411591 2.41677141 0.44621637 13 3 7351 8.52600000 1302424284 1302424284 3.00000000
3.06848216 0.90834326 -0.62203735 5 4 7351 3.26000000 1302424286 1302424286 -11.00000000
8.17519951 2.41850066 0.74587888 72 5 7352 8.55800000 1302424289 1302424289 5.00000000
3.85305429 1.13913250 -0.63637543 6 6 7353 4.06800000 1302424291 1302424291 -9.00000000
8.18226910 2.41748643 1.04758883 92 7 7354 8.59600000 1302424293 1302424293 7.00000000
5.19176340 1.53294349 -0.66467541 9 8 7355 5.45400000 1302424296 1302424296 -7.00000000
8.19042778 2.41678858 1.35253239 80 9 7356 8.64600000 1302424298 1302424298 9.00000000
6.63285112 1.95718706 -0.60503519 28 10 7356 6.94200000 1302424300 1302424300 -5.00000000
8.17824650 2.41164255 1.65736699 34 11 7357 8.68600000 1302424303 1302424303 11.00000000
8.15556717 2.40340781 -0.44558832 17 12 7358 8.51400000 1302424305 1302424305 -3.00000000
8.18778610 2.41134953 1.97057128 39 13 7359 8.76000000 1302424307 1302424307 13.00000000
8.15676308 2.40066600 -0.14841527 14 14 7360 8.50400000 1302424309 1302424309 -1.00000000
7.73587227 2.27532387 2.16062140 45 15 7361 8.34800000 1302424312 1302424312 15.00000000
2.16734004 0.63459593 -0.60511893 4 0 7368 2.33800000 1302424333 1302424333 -15.00000000
8.18163586 2.39402795 0.14879921 12 1 7369 8.52600000 1302424335 1302424335 1.00000000
2.55498147 0.74712890 -0.61456627 7 2 7370 2.73200000 1302424337 1302424337 -13.00000000
8.17633629 2.38937902 0.44642571 26 3 7371 8.53000000 1302424339 1302424339 3.00000000
3.06409621 0.89542401 -0.62051088 5 4 7371 3.25200000 1302424342 1302424342 -11.00000000
8.17785454 2.38827348 0.74535590 76 5 7372 8.55200000 1302424344 1302424344 5.00000000
3.86838484 1.12899649 -0.63825262 6 6 7373 4.08000000 1302424346 1302424346 -9.00000000
8.19065857 2.38891029 1.04758883 90 7 7374 8.59600000 1302424349 1302424349 7.00000000
5.20470572 1.51703346 -0.66565037 9 8 7375 5.46200000 1302424351 1302424351 -7.00000000
6.64155579 1.93457937 -0.60520947 64 10 7376 6.94400000 1302424356 1302424356 -5.00000000
8.29971504 2.41600347 1.68026400 12 11 7377 8.80600000 1302424358 1302424358 11.00000000
8.16582489 2.37548280 -0.44569302 17 12 7378 8.51600000 1302424360 1302424360 -3.00000000
8.27100468 2.40451431 1.98856735 20 13 7379 8.84000000 1302424362 1302424362 13.00000000
8.16317368 2.37162113 -0.14838035 14 14 7380 8.50200000 1302424365 1302424365 -1.00000000
7.82500124 2.27337313 2.18339753 47 15 7380 8.43600000 1302424367 1302424367 15.00000000
2.17325377 0.62809938 -0.60615420 4 0 7388 2.34200000 1302424388 1302424388 -15.00000000
8.15344048 2.35491133 0.14813602 12 1 7389 8.48800000 1302424390 1302424390 1.00000000
2.56880784 0.74144828 -0.61726570 7 2 7390 2.74400000 1302424392 1302424392 -13.00000000
8.18078899 2.35971665 0.44621637 18 3 7391 8.52600000 1302424395 1302424395 3.00000000
3.07286239 0.88635516 -0.62165570 5 4 7391 3.25800000 1302424397 1302424397 -11.00000000
8.16891098 2.35474634 0.74378711 76 5 7392 8.53400000 1302424399 1302424399 5.00000000
3.86091304 1.11220562 -0.63637543 4 6 7393 4.06800000 1302424402 1302424402 -9.00000000
8.19131660 2.35810828 1.04661393 92 7 7394 8.58800000 1302424404 1302424404 7.00000000
5.21187735 1.49940515 -0.66589409 9 8 7395 5.46400000 1302424406 1302424406 -7.00000000
8.31151676 2.38956976 1.36974013 15 9 7396 8.75600000 1302424409 1302424409 9.00000000
6.64443827 1.91028321 -0.60486084 28 10 7396 6.94000000 1302424411 1302424411 -5.00000000
8.28922939 2.38159609 1.67644787 12 11 7397 8.78600000 1302424413 1302424413 11.00000000
8.16830826 2.34531069 -0.44537899 17 12 7398 8.51000000 1302424415 1302424415 -3.00000000
8.28122044 2.37616587 1.98901725 3 13 7399 8.84200000 1302424418 1302424418 13.00000000
8.15602398 2.33870244 -0.14810112 12 14 7400 8.48600000 1302424420 1302424420 -1.00000000
7.91831207 2.27053952 2.20720887 45 15 7400 8.52800000 1302424422 1302424422 15.00000000
2.17171764 0.61944968 -0.60511893 4 0 7408 2.33800000 1302424444 1302424444 -15.00000000
8.15584183 2.32479167 0.14803131 15 1 7409 8.48200000 1302424446 1302424446 1.00000000
2.56388354 0.73034143 -0.61546606 7 2 7410 2.73600000 1302424449 1302424449 -13.00000000
8.18088531 2.33038664 0.44579768 21 3 7410 8.51800000 1302424451 1302424451 3.00000000
3.08160233 0.87723601 -0.62280059 5 4 7411 3.26400000 1302424453 1302424453 -11.00000000
8.16749859 2.32349133 0.74291557 76 5 7412 8.52400000 1302424456 1302424456 5.00000000
3.85337138 1.09548068 -0.63449818 4 6 7413 4.05600000 1302424458 1302424458 -9.00000000
8.18422222 2.32516098 1.04466403 97 7 7414 8.57200000 1302424460 1302424460 7.00000000
5.22662735 1.48391402 -0.66711277 9 8 7415 5.47400000 1302424462 1302424462 -7.00000000
6.64914942 1.88653433 -0.60468656 12 10 7416 6.93800000 1302424467 1302424467 -5.00000000
8.49392700 2.40834332 1.71613610 9 11 7417 8.99400000 1302424469 1302424469 11.00000000
8.15915012 2.31188321 -0.44443694 17 12 7418 8.49200000 1302424472 1302424472 -3.00000000
8.16221428 2.30967379 -0.14806622 14 14 7420 8.48400000 1302424476 1302424476 -1.00000000
8.02656746 2.27128983 2.23516130 45 15 7420 8.63600000 1302424479 1302424479 15.00000000
2.17944551 0.61343545 -0.60667187 4 0 7428 2.34400000 1302424499 1302424499 -15.00000000
8.15813255 2.29468393 0.14792660 15 1 7429 8.47600000 1302424502 1302424502 1.00000000
2.55703712 0.71875072 -0.61321658 9 2 7430 2.72600000 1302424504 1302424504 -13.00000000
8.18168068 2.29822588 0.44537899 26 3 7431 8.51000000 1302424506 1302424506 3.00000000
3.08086538 0.86541206 -0.62203735 5 4 7431 3.26000000 1302424509 1302424509 -11.00000000
8.17747784 2.29550576 0.74308985 76 5 7432 8.52600000 1302424511 1302424511 5.00000000
3.85336781 1.08095610 -0.63387245 4 6 7433 4.05200000 1302424513 1302424513 -9.00000000
8.17699718 2.29229188 1.04271412 95 7 7434 8.55600000 1302424515 1302424515 7.00000000
5.22030640 1.46244764 -0.66565037 9 8 7435 5.46200000 1302424518 1302424518 -7.00000000
8.58289623 2.40284801 1.41166461 10 9 7436 9.02400000 1302424520 1302424520 9.00000000
6.64418221 1.86009014 -0.60364068 12 10 7436 6.92600000 1302424522 1302424522 -5.00000000
8.61383057 2.40988731 1.73865151 12 11 7437 9.11200000 1302424525 1302424525 11.00000000
8.15755367 2.28069949 -0.44391358 17 12 7438 8.48200000 1302424527 1302424527 -3.00000000
8.60916615 2.40534210 2.06370091 42 13 7439 9.17400000 1302424529 1302424529 13.00000000
8.16637421 2.28009272 -0.14799641 14 14 7440 8.48000000 1302424532 1302424532 -1.00000000
8.13346004 2.26937270 2.26259613 45 15 7441 8.74200000 1302424534 1302424534 15.00000000
2.18343472 0.60634094 -0.60718948 4 0 7448 2.34600000 1302424555 1302424555 -15.00000000
8.16609192 2.26619267 0.14792660 12 1 7449 8.47600000 1302424557 1302424557 1.00000000
2.55577469 0.70877904 -0.61231679 9 2 7450 2.72200000 1302424559 1302424559 -13.00000000
8.17770863 2.26787949 0.44475096 34 3 7450 8.49800000 1302424562 1302424562 3.00000000
3.08197546 0.85412818 -0.62165570 5 4 7451 3.25800000 1302424564 1302424564 -11.00000000
8.17776012 2.26481986 0.74239260 76 5 7452 8.51800000 1302424566 1302424566 5.00000000
3.86473274 1.06960642 -0.63512391 4 6 7453 4.06000000 1302424568 1302424568 -9.00000000
8.17920876 2.26214719 1.04198289 100 7 7454 8.55000000 1302424571 1302424571 7.00000000
5.21772623 1.44210124 -0.66467541 9 8 7455 5.45400000 1302424573 1302424573 -7.00000000
8.68072319 2.39759088 1.42636943 10 9 7456 9.11800000 1302424575 1302424575 9.00000000
6.64871407 1.83635581 -0.60346639 20 10 7456 6.92400000 1302424578 1302424578 -5.00000000
8.68274975 2.39651966 1.75086331 9 11 7457 9.17600000 1302424580 1302424580 11.00000000
8.15583801 2.24955511 -0.44339022 12 12 7458 8.47200000 1302424582 1302424582 -3.00000000
8.15693283 2.24679351 -0.14768226 14 14 7460 8.46200000 1302424587 1302424587 -1.00000000
8.22288990 2.26496124 2.28537226 47 15 7460 8.83000000 1302424589 1302424589 15.00000000
2.17808533 0.59667397 -0.60511893 4 0 7468 2.33800000 1302424610 1302424610 -15.00000000
8.16045189 2.23397803 0.14768226 12 1 7469 8.46200000 1302424612 1302424612 1.00000000
2.56763172 0.70242453 -0.61456627 7 2 7470 2.73200000 1302424614 1302424614 -13.00000000
8.18172264 2.23826599 0.44454160 44 3 7470 8.49400000 1302424617 1302424617 3.00000000
3.08683205 0.84388262 -0.62203735 5 4 7471 3.26000000 1302424619 1302424619 -11.00000000
8.17408466 2.23310995 0.74134678 76 5 7472 8.50600000 1302424621 1302424621 5.00000000
3.87225413 1.05714989 -0.63574964 4 6 7473 4.06400000 1302424624 1302424624 -9.00000000
8.18514061 2.23306036 1.04173911 95 7 7474 8.54800000 1302424626 1302424626 7.00000000
5.22272825 1.42387915 -0.66467541 9 8 7475 5.45400000 1302424628 1302424628 -7.00000000
8.21637344 2.23850012 1.34877801 2 9 7476 8.62200000 1302424631 1302424631 9.00000000
6.64739466 1.81104136 -0.60276914 36 10 7476 6.91600000 1302424633 1302424633 -5.00000000
8.09814548 2.20477128 1.63141692 9 11 7477 8.55000000 1302424635 1302424635 11.00000000
8.15593147 2.21897507 -0.44297153 12 12 7478 8.46400000 1302424638 1302424638 -3.00000000
8.06348610 2.19231200 1.92918026 16 13 7479 8.57600000 1302424640 1302424640 13.00000000
8.15314770 2.21516109 -0.14747283 12 14 7480 8.45000000 1302424642 1302424642 -1.00000000
8.08533382 2.19673657 2.24499631 18 15 7480 8.67400000 1302424644 1302424644 15.00000000
2.18015480 0.58906740 -0.60511893 4 0 7488 2.33800000 1302424665 1302424665 -15.00000000
8.13538074 2.19661760 0.14708889 12 1 7489 8.42800000 1302424667 1302424667 1.00000000
2.56630492 0.69244224 -0.61366647 7 2 7490 2.72800000 1302424670 1302424670 -13.00000000
8.13009071 2.19214487 0.44129679 31 3 7491 8.43200000 1302424672 1302424672 3.00000000
3.08407211 0.83156914 -0.62089247 5 4 7491 3.25400000 1302424674 1302424674 -11.00000000
8.11065006 2.18538427 0.73489720 25 5 7492 8.43200000 1302424677 1302424677 5.00000000
3.86829090 1.04157245 -0.63449818 4 6 7493 4.05600000 1302424679 1302424679 -9.00000000
8.08170414 2.17455959 1.02760231 28 7 7494 8.43200000 1302424681 1302424681 7.00000000
5.22766685 1.40563977 -0.66467541 9 8 7495 5.45400000 1302424684 1302424684 -7.00000000
8.06160450 2.16764235 1.32218409 22 9 7495 8.45200000 1302424686 1302424686 9.00000000
6.64020681 1.78420758 -0.60154891 44 10 7496 6.90200000 1302424688 1302424688 -5.00000000
8.06597424 2.16579843 1.62340295 21 11 7497 8.50800000 1302424691 1302424691 11.00000000
8.10382843 2.17444634 -0.43972671 17 12 7498 8.40200000 1302424693 1302424693 -3.00000000
8.05979633 2.16112351 1.92648077 33 13 7499 8.56400000 1302424695 1302424695 13.00000000
8.04686832 2.15615177 -0.14541344 18 14 7500 8.33200000 1302424697 1302424697 -1.00000000
8.06907082 2.16059160 2.23826718 22 15 7501 8.64800000 1302424700 1302424700 15.00000000
2.18593121 0.58244842 -0.60615420 4 0 7508 2.34200000 1302424720 1302424720 -15.00000000
8.02705669 2.13733482 0.14499459 28 1 7509 8.30800000 1302424723 1302424723 1.00000000
2.57435608 0.68498319 -0.61501616 9 2 7510 2.73400000 1302424725 1302424725 -13.00000000
8.04853153 2.14154863 0.43648186 28 3 7510 8.34000000 1302424727 1302424727 3.00000000
3.10213470 0.82483453 -0.62394542 5 4 7511 3.27000000 1302424730 1302424730 -11.00000000
8.04698277 2.13812900 0.72844768 32 5 7512 8.35800000 1302424732 1302424732 5.00000000
3.88335848 1.03110480 -0.63637543 4 6 7513 4.06800000 1302424734 1302424734 -9.00000000
8.05087185 2.13615394 1.02272749 28 7 7514 8.39200000 1302424737 1302424737 7.00000000
5.24021673 1.38941824 -0.66565037 9 8 7515 5.46200000 1302424739 1302424739 -7.00000000
8.06567574 2.13706851 1.32155836 27 9 7516 8.44800000 1302424741 1302424741 9.00000000
6.64446831 1.76050770 -0.60137463 56 10 7516 6.90000000 1302424744 1302424744 -5.00000000
8.06209850 2.13461494 1.62111318 25 11 7517 8.49600000 1302424746 1302424746 11.00000000
8.02448177 2.12315655 -0.43501648 29 12 7518 8.31200000 1302424748 1302424748 -3.00000000
8.07671070 2.13546705 1.92873037 31 13 7519 8.57400000 1302424750 1302424750 13.00000000
8.03114510 2.12192011 -0.14499459 40 14 7520 8.30800000 1302424753 1302424753 -1.00000000
8.08963871 2.13586426 2.24189067 18 15 7521 8.66200000 1302424755 1302424755 15.00000000
2.18775010 0.57557827 -0.60615420 4 0 7526 2.34200000 1302424776 1302424776 -15.00000000
8.04146767 2.11414051 0.14513421 40 1 7527 8.31600000 1302424778 1302424778 1.00000000
2.56895614 0.67491156 -0.61321658 10 2 7528 2.72600000 1302424780 1302424780 -13.00000000
8.05521965 2.11625290 0.43648186 26 3 7528 8.34000000 1302424783 1302424783 3.00000000
3.10091305 0.81408775 -0.62318218 5 4 7529 3.26600000 1302424785 1302424785 -11.00000000
8.06522369 2.11587167 0.72949356 25 5 7530 8.37000000 1302424787 1302424787 5.00000000
3.88084626 1.01739705 -0.63543677 6 6 7531 4.06200000 1302424790 1302424790 -9.00000000
8.06906509 2.11386943 1.02418995 23 7 7532 8.40400000 1302424792 1302424792 7.00000000
5.22343159 1.36741877 -0.66296923 9 8 7533 5.44000000 1302424794 1302424794 -7.00000000
8.09491253 2.11913109 1.32531273 15 9 7533 8.47200000 1302424797 1302424797 9.00000000
6.64032888 1.73710370 -0.60050309 56 10 7534 6.89000000 1302424799 1302424799 -5.00000000
18.63337517 4.87099886 3.74367237 30 11 7535 19.62000000 1302424801 1302424801 11.00000000
8.03111267 2.09793639 -0.43501648 38 12 7536 8.31200000 1302424803 1302424803 -3.00000000
16.16675949 4.22016573 3.85746074 33 13 7537 17.14800000 1302424806 1302424806 13.00000000
8.03583717 2.09617448 -0.14495969 22 14 7538 8.30600000 1302424808 1302424808 -1.00000000
8.21594906 2.14162588 2.27501941 40 15 7539 8.79000000 1302424810 1302424810 15.00000000
2.19535589 0.56939310 -0.60770714 4 0 7546 2.34800000 1302424831 1302424831 -15.00000000
8.07396317 2.09257960 0.14558798 18 1 7547 8.34200000 1302424833 1302424833 1.00000000
2.57129645 0.66594011 -0.61321658 10 2 7548 2.72600000 1302424836 1302424836 -13.00000000
8.16503143 2.11466169 0.44202948 55 3 7548 8.44600000 1302424838 1302424838 3.00000000
3.08472943 0.79833966 -0.61936599 5 4 7549 3.24600000 1302424840 1302424840 -11.00000000
8.16514874 2.11165094 0.73786050 54 5 7550 8.46600000 1302424843 1302424843 5.00000000
3.88628650 1.00433838 -0.63574964 6 6 7551 4.06400000 1302424845 1302424845 -9.00000000
8.18018436 2.11249352 1.03735185 92 7 7552 8.51200000 1302424847 1302424847 7.00000000
5.22817278 1.34917724 -0.66296923 9 8 7553 5.44000000 1302424850 1302424850 -7.00000000
21.29425621 5.49517536 3.48316979 76 9 7553 22.26600000 1302424852 1302424852 9.00000000
6.64442253 1.71341646 -0.60032874 44 10 7554 6.88800000 1302424854 1302424854 -5.00000000
18.64646339 4.80494642 3.74290919 37 11 7555 19.61600000 1302424856 1302424856 11.00000000
8.10027981 2.08582735 -0.43836597 17 12 7556 8.37600000 1302424859 1302424859 -3.00000000
16.17950439 4.16322184 3.85701084 42 13 7557 17.14600000 1302424861 1302424861 13.00000000
8.13800335 2.09251237 -0.14667003 16 14 7558 8.40400000 1302424863 1302424863 -1.00000000
8.22898865 2.11437607 2.27657223 51 15 7559 8.79600000 1302424866 1302424866 15.00000000
2.18797183 0.55933404 -0.60511893 4 0 7566 2.33800000 1302424886 1302424886 -15.00000000
8.17034245 2.08715057 0.14719360 12 1 7567 8.43400000 1302424889 1302424889 1.00000000
2.56982899 0.65599656 -0.61231679 9 2 7568 2.72200000 1302424891 1302424891 -13.00000000
8.18203926 2.08861756 0.44255283 99 3 7568 8.45600000 1302424893 1302424893 3.00000000
3.09320426 0.78902286 -0.62051088 5 4 7569 3.25200000 1302424896 1302424896 -11.00000000
8.17053890 2.08264422 0.73768622 79 5 7570 8.46400000 1302424898 1302424898 5.00000000
3.88402581 0.98930389 -0.63481104 6 6 7571 4.05800000 1302424900 1302424900 -9.00000000
8.18173695 2.08245754 1.03662062 100 7 7572 8.50600000 1302424902 1302424902 7.00000000
5.23669815 1.33189797 -0.66345668 9 8 7573 5.44400000 1302424905 1302424905 -7.00000000
21.27310562 5.41058588 3.47659945 66 9 7573 22.22400000 1302424907 1302424907 9.00000000
6.63491535 1.68628657 -0.59893429 44 10 7574 6.87200000 1302424909 1302424909 -5.00000000
18.68595505 4.74562836 3.74748874 41 11 7575 19.64000000 1302424912 1302424912 11.00000000
8.16752434 2.07276940 -0.44161081 17 12 7576 8.43800000 1302424914 1302424914 -3.00000000
16.19771576 4.10767746 3.85791063 41 13 7577 17.15000000 1302424916 1302424916 13.00000000
8.14913464 2.06507516 -0.14673984 14 14 7578 8.40800000 1302424919 1302424919 -1.00000000
8.22097301 2.08327961 2.27243114 51 15 7578 8.78000000 1302424921 1302424921 15.00000000
2.18241763 0.54980546 -0.60304838 4 0 7586 2.33000000 1302424942 1302424942 -15.00000000
8.15042973 2.05178380 0.14670493 12 1 7587 8.40600000 1302424944 1302424944 1.00000000
2.58344221 0.64987463 -0.61501616 9 2 7588 2.73400000 1302424946 1302424946 -13.00000000
8.18346882 2.05858231 0.44223884 100 3 7588 8.45000000 1302424949 1302424949 3.00000000
3.09213161 0.77726352 -0.61974764 5 4 7589 3.24800000 1302424951 1302424951 -11.00000000
8.17196178 2.05265498 0.73716325 94 5 7590 8.45800000 1302424953 1302424953 5.00000000
3.88553953 0.97525918 -0.63449818 6 6 7591 4.05600000 1302424955 1302424955 -9.00000000
8.18125439 2.05195355 1.03564572 100 7 7592 8.49800000 1302424958 1302424958 7.00000000
5.24901772 1.31554067 -0.66443163 9 8 7593 5.45200000 1302424960 1302424960 -7.00000000
21.28802872 5.33533525 3.47597384 66 9 7593 22.22000000 1302424962 1302424962 9.00000000
6.63303041 1.66118002 -0.59823704 40 10 7594 6.86400000 1302424965 1302424965 -5.00000000
8.18245983 2.04618502 -0.44202948 17 12 7596 8.44600000 1302424969 1302424969 -3.00000000
16.22329903 4.05394650 3.86061001 38 13 7597 17.16200000 1302424972 1302424972 13.00000000
8.15047359 2.03516340 -0.14663512 12 14 7598 8.40200000 1302424974 1302424974 -1.00000000
8.21543312 2.04986048 2.26880765 47 15 7599 8.76600000 1302424976 1302424976 15.00000000
2.19172835 0.54442817 -0.60511893 4 0 7605 2.33800000 1302424997 1302424997 -15.00000000
8.14942551 2.02281761 0.14656530 12 1 7606 8.39800000 1302424999 1302424999 1.00000000
2.57801747 0.63942754 -0.61321658 9 2 7607 2.72600000 1302425002 1302425002 -13.00000000
8.17703438 2.02664089 0.44150612 100 3 7608 8.43600000 1302425004 1302425004 3.00000000
3.10040903 0.76842225 -0.62089247 5 4 7608 3.25400000 1302425006 1302425006 -11.00000000
8.15551662 2.01979685 0.73507154 79 5 7609 8.43400000 1302425008 1302425008 5.00000000
3.87916470 0.95999616 -0.63293386 6 6 7610 4.04600000 1302425011 1302425011 -9.00000000
8.16874409 2.02004671 1.03320825 99 7 7611 8.47800000 1302425013 1302425013 7.00000000
5.24564266 1.29622233 -0.66345668 9 8 7612 5.44400000 1302425015 1302425015 -7.00000000
21.27875710 5.25807810 3.47159362 66 9 7612 22.19200000 1302425018 1302425018 9.00000000
6.63076544 1.63726449 -0.59753978 16 10 7613 6.85600000 1302425020 1302425020 -5.00000000
18.71401215 4.61738729 3.74672532 45 11 7614 19.63600000 1302425022 1302425022 11.00000000
8.16011238 2.01186824 -0.44045940 17 12 7615 8.41600000 1302425025 1302425025 -3.00000000
16.24233055 4.00152445 3.86195970 29 13 7616 17.16800000 1302425027 1302425027 13.00000000
8.14941025 2.00621223 -0.14649551 12 14 7617 8.39400000 1302425029 1302425029 -1.00000000
8.21620464 2.02265549 2.26725483 51 15 7617 8.76000000 1302425032 1302425032 15.00000000
2.19361544 0.53677428 -0.60511893 4 0 7625 2.33800000 1302425052 1302425052 -15.00000000
8.15255165 1.99340868 0.14649551 12 1 7626 8.39400000 1302425055 1302425055 1.00000000
2.56887531 0.62764949 -0.61051714 9 2 7627 2.71400000 1302425057 1302425057 -13.00000000
8.16853714 1.99429572 0.44066876 100 3 7628 8.42000000 1302425059 1302425059 3.00000000
3.11260843 0.75992334 -0.62280059 5 4 7628 3.26400000 1302425061 1302425061 -11.00000000
8.16251659 1.99131656 0.73507154 79 5 7629 8.43400000 1302425064 1302425064 5.00000000
3.89400697 0.94925660 -0.63481104 6 6 7630 4.05800000 1302425066 1302425066 -9.00000000
8.15838718 1.98729193 1.03101468 97 7 7631 8.46000000 1302425068 1302425068 7.00000000
5.25785065 1.27978158 -0.66443163 6 8 7632 5.45200000 1302425071 1302425071 -7.00000000
21.29020882 5.17818499 3.47034216 66 9 7633 22.18400000 1302425073 1302425073 9.00000000
6.63450384 1.61363792 -0.59736544 8 10 7633 6.85400000 1302425075 1302425075 -5.00000000
18.73574066 4.55342627 3.74787021 41 11 7634 19.64200000 1302425078 1302425078 11.00000000
8.15932178 1.98148644 -0.44004071 12 12 7635 8.40800000 1302425080 1302425080 -3.00000000
16.25430489 3.94434428 3.86150980 19 13 7636 17.16600000 1302425082 1302425082 13.00000000
8.15247726 1.97681069 -0.14642569 14 14 7637 8.39000000 1302425085 1302425085 -1.00000000
8.22168541 1.99207318 2.26673722 49 15 7638 8.75800000 1302425087 1302425087 15.00000000
2.20862222 0.53228217 -0.60874242 4 0 7645 2.35200000 1302425108 1302425108 -15.00000000
8.15168381 1.96306610 0.14635588 12 1 7646 8.38600000 1302425110 1302425110 1.00000000
2.57673454 0.62004638 -0.61186689 7 2 7647 2.72000000 1302425112 1302425112 -13.00000000
8.15991306 1.96203458 0.43983138 100 3 7648 8.40400000 1302425114 1302425114 3.00000000
3.10378909 0.74629980 -0.62051088 5 4 7648 3.25200000 1302425117 1302425117 -11.00000000
8.16166973 1.96095002 0.73437428 79 5 7649 8.42600000 1302425119 1302425119 5.00000000
3.89537597 0.93519706 -0.63449818 6 6 7650 4.05600000 1302425121 1302425121 -9.00000000
8.17106533 1.96019101 1.03174591 100 7 7651 8.46600000 1302425124 1302425124 7.00000000
5.23912096 1.25586760 -0.66150677 9 8 7652 5.42800000 1302425126 1302425126 -7.00000000
21.28036880 5.10110903 3.46596193 71 9 7652 22.15600000 1302425128 1302425128 9.00000000
6.63622093 1.58954120 -0.59701681 16 10 7653 6.85000000 1302425131 1302425131 -5.00000000
18.77824974 4.49439621 3.75321293 41 11 7654 19.67000000 1302425133 1302425133 11.00000000
8.16036224 1.95159936 -0.43972671 17 12 7655 8.40200000 1302425135 1302425135 -3.00000000
16.24143982 3.88124084 3.85521126 10 13 7656 17.13800000 1302425138 1302425138 13.00000000
8.14571285 1.94509017 -0.14618136 14 14 7657 8.37600000 1302425140 1302425140 -1.00000000
8.22072983 1.96300340 2.26466656 47 15 7657 8.75000000 1302425142 1302425142 15.00000000
2.19730926 0.52144700 -0.60511893 4 0 7665 2.33800000 1302425163 1302425163 -15.00000000
8.15459538 1.93367672 0.14628607 15 1 7666 8.38200000 1302425165 1302425165 1.00000000
2.58077955 0.61149740 -0.61231679 9 2 7667 2.72200000 1302425167 1302425167 -13.00000000
8.15893841 1.93169868 0.43941268 100 3 7668 8.39600000 1302425170 1302425170 3.00000000
3.09873343 0.73365176 -0.61898440 5 4 7668 3.24400000 1302425172 1302425172 -11.00000000
8.15683174 1.92969644 0.73332840 79 5 7669 8.41400000 1302425174 1302425174 5.00000000
3.90246153 0.92250282 -0.63512391 6 6 7670 4.06000000 1302425177 1302425177 -9.00000000
8.17012978 1.92983139 1.03077090 99 7 7671 8.45800000 1302425179 1302425179 7.00000000
5.25892878 1.24122000 -0.66345668 9 8 7672 5.44400000 1302425181 1302425181 -7.00000000
21.27200699 5.01673031 3.46158195 66 9 7673 22.12800000 1302425184 1302425184 9.00000000
6.62039804 1.56133604 -0.59509939 24 10 7673 6.82800000 1302425186 1302425186 -5.00000000
18.81675529 4.43422413 3.75779247 41 11 7674 19.69400000 1302425188 1302425188 11.00000000
8.16323662 1.92218697 -0.43951735 17 12 7675 8.39800000 1302425190 1302425190 -3.00000000
16.26626968 3.82720184 3.85791063 4 13 7676 17.15000000 1302425193 1302425193 13.00000000
8.13882637 1.91344094 -0.14593703 16 14 7677 8.36200000 1302425195 1302425195 -1.00000000
8.21282482 1.92932534 2.26052547 49 15 7678 8.73400000 1302425197 1302425197 15.00000000
2.19535375 0.51289475 -0.60408366 4 0 7685 2.33400000 1302425218 1302425218 -15.00000000
8.14961147 1.90247250 0.14607663 15 1 7686 8.37000000 1302425220 1302425220 1.00000000
2.58859181 0.60381311 -0.61366647 7 2 7687 2.72800000 1302425223 1302425223 -13.00000000
8.15785122 1.90139341 0.43899399 100 3 7688 8.38800000 1302425225 1302425225 3.00000000
3.10509968 0.72372198 -0.61974764 6 4 7688 3.24800000 1302425227 1302425227 -11.00000000
8.15381527 1.89895248 0.73245686 83 5 7689 8.40400000 1302425230 1302425230 5.00000000
3.90565801 0.90887505 -0.63512391 6 6 7690 4.06000000 1302425232 1302425232 -9.00000000
8.17681694 1.90130055 1.03077090 100 7 7691 8.45800000 1302425234 1302425234 7.00000000
5.25549507 1.22105837 -0.66248173 9 8 7692 5.43600000 1302425237 1302425237 -7.00000000
21.27698135 4.94348001 3.45970464 66 9 7692 22.11600000 1302425239 1302425239 9.00000000
6.62774849 1.53866768 -0.59527373 32 10 7693 6.83000000 1302425241 1302425241 -5.00000000
18.82446861 4.36673975 3.75626588 11 11 7694 19.68600000 1302425243 1302425243 11.00000000
8.16795063 1.89322925 -0.43941268 17 12 7695 8.39600000 1302425246 1302425246 -3.00000000
8.26031971 1.91312015 1.95752406 3 13 7696 8.70200000 1302425248 1302425248 13.00000000
8.13766289 1.88321602 -0.14579740 18 14 7697 8.35400000 1302425250 1302425250 -1.00000000
8.20223808 1.89815998 2.25586677 56 15 7697 8.71600000 1302425253 1302425253 15.00000000
2.19713068 0.50522846 -0.60408366 4 0 7705 2.33400000 1302425273 1302425273 -15.00000000
8.13866234 1.86998332 0.14576250 15 1 7706 8.35200000 1302425276 1302425276 1.00000000
2.58498573 0.59346545 -0.61231679 9 2 7707 2.72200000 1302425278 1302425278 -13.00000000
8.17806530 1.87603164 0.43972671 100 3 7708 8.40200000 1302425280 1302425280 3.00000000
3.11717463 0.71507359 -0.62165570 15 4 7708 3.25800000 1302425283 1302425283 -11.00000000
8.14485836 1.86691761 0.73106235 76 5 7709 8.38800000 1302425285 1302425285 5.00000000
3.89532804 0.89214921 -0.63293386 6 6 7710 4.04600000 1302425287 1302425287 -9.00000000
8.16985798 1.86964667 1.02906477 97 7 7711 8.44400000 1302425290 1302425290 7.00000000
5.26553106 1.20403326 -0.66321295 9 8 7712 5.44200000 1302425292 1302425292 -7.00000000
21.26799583 4.85930252 3.45532441 61 9 7713 22.08800000 1302425294 1302425294 9.00000000
6.64279079 1.51774204 -0.59614527 16 10 7713 6.84000000 1302425296 1302425296 -5.00000000
18.83959770 4.30100346 3.75626588 15 11 7714 19.68600000 1302425299 1302425299 11.00000000
8.15698433 1.86070859 -0.43847063 17 12 7715 8.37800000 1302425301 1302425301 -3.00000000
8.25554657 1.88167620 1.95482469 3 13 7716 8.69000000 1302425303 1302425303 13.00000000
8.15588570 1.85746312 -0.14600684 20 14 7717 8.36600000 1302425306 1302425306 -1.00000000
8.20725632 1.86765587 2.25534916 47 15 7718 8.71400000 1302425308 1302425308 15.00000000
2.19888091 0.49755594 -0.60408366 4 0 7725 2.33400000 1302425329 1302425329 -15.00000000
8.13928890 1.84023976 0.14565778 18 1 7726 8.34600000 1302425331 1302425331 1.00000000
2.56993389 0.58057374 -0.60826766 7 2 7727 2.70400000 1302425333 1302425333 -13.00000000
8.16313362 1.84263599 0.43857533 100 3 7728 8.38000000 1302425336 1302425336 3.00000000
3.11582160 0.70332366 -0.62089247 16 4 7728 3.25400000 1302425338 1302425338 -11.00000000
8.15521240 1.83935213 0.73141098 83 5 7729 8.39200000 1302425340 1302425340 5.00000000
3.90612674 0.88028365 -0.63418531 6 6 7730 4.05400000 1302425343 1302425343 -9.00000000
8.16084194 1.83762848 1.02711487 97 7 7731 8.42800000 1302425345 1302425345 7.00000000
5.26001835 1.18346715 -0.66199428 9 8 7732 5.43200000 1302425347 1302425347 -7.00000000
21.28013802 4.78788137 3.45469880 61 9 7732 22.08400000 1302425349 1302425349 9.00000000
6.64999199 1.49498212 -0.59631962 12 10 7733 6.84200000 1302425352 1302425352 -5.00000000
18.86598969 4.23779678 3.75855565 41 11 7734 19.69800000 1302425354 1302425354 11.00000000
8.15563488 1.83047450 -0.43805194 17 12 7735 8.37000000 1302425356 1302425356 -3.00000000
8.24304962 1.84858310 1.95032561 3 13 7736 8.67000000 1302425359 1302425359 13.00000000
8.15451431 1.82723343 -0.14586721 16 14 7737 8.35800000 1302425361 1302425361 -1.00000000
8.21905994 1.84169662 2.25690198 51 15 7737 8.72000000 1302425363 1302425363 15.00000000
2.21191835 0.49239603 -0.60718948 4 0 7745 2.34600000 1302425384 1302425384 -15.00000000
8.15347099 1.81355381 0.14579740 15 1 7746 8.35400000 1302425386 1302425386 1.00000000
2.57955408 0.57329059 -0.61006725 7 2 7747 2.71200000 1302425389 1302425389 -13.00000000
8.15781689 1.81153226 0.43794727 100 3 7748 8.36800000 1302425391 1302425391 3.00000000
3.12592387 0.69414550 -0.62241894 6 4 7748 3.26200000 1302425393 1302425393 -11.00000000
8.15380287 1.80914760 0.73071373 76 5 7749 8.38400000 1302425396 1302425396 5.00000000
3.90531850 0.86578828 -0.63355958 6 6 7750 4.05000000 1302425398 1302425398 -9.00000000
8.16720676 1.80913067 1.02711487 97 7 7751 8.42800000 1302425400 1302425400 7.00000000
5.25636482 1.16338313 -0.66101933 9 8 7752 5.42400000 1302425402 1302425402 -7.00000000
13.24683380 2.92947626 2.14878392 17 9 7753 13.73600000 1302425405 1302425405 9.00000000
6.65322447 1.47133005 -0.59614527 12 10 7753 6.84000000 1302425407 1302425407 -5.00000000
13.24656391 2.92699170 2.63698030 56 11 7754 13.82000000 1302425409 1302425409 11.00000000
8.15807343 1.80113363 -0.43784261 17 12 7755 8.36600000 1302425412 1302425412 -3.00000000
8.23993778 1.81769931 1.94807613 4 13 7756 8.66000000 1302425414 1302425414 13.00000000
8.14131451 1.79445350 -0.14551817 16 14 7757 8.33800000 1302425416 1302425416 -1.00000000
8.21820831 1.80989790 2.25483155 49 15 7758 8.71200000 1302425419 1302425419 15.00000000
2.20599079 0.48340425 -0.60511893 4 0 7764 2.33800000 1302425439 1302425439 -15.00000000
8.15357971 1.78522277 0.14569269 21 1 7765 8.34800000 1302425442 1302425442 1.00000000
2.59095979 0.56681567 -0.61231679 9 2 7766 2.72200000 1302425444 1302425444 -13.00000000
8.16182804 1.78404355 0.43784261 100 3 7767 8.36600000 1302425446 1302425446 3.00000000
3.12245464 0.68251806 -0.62127411 5 4 7767 3.25600000 1302425449 1302425449 -11.00000000
8.15781116 1.78167355 0.73053944 76 5 7768 8.38200000 1302425451 1302425451 5.00000000
3.92167783 0.85578108 -0.63574964 6 6 7769 4.06400000 1302425453 1302425453 -9.00000000
8.17316151 1.78203726 1.02711487 95 7 7770 8.42800000 1302425455 1302425455 7.00000000
5.26019382 1.14594603 -0.66101933 9 8 7771 5.42400000 1302425458 1302425458 -7.00000000
13.23281002 2.88279986 2.14502931 63 9 7771 13.71200000 1302425460 1302425460 9.00000000
6.63665247 1.44459760 -0.59422785 8 10 7772 6.81800000 1302425462 1302425462 -5.00000000
13.25427914 2.88263106 2.63659859 75 11 7773 13.81800000 1302425465 1302425465 11.00000000
8.14838791 1.77067769 -0.43700522 17 12 7774 8.35000000 1302425467 1302425467 -3.00000000
8.25353718 1.79201865 1.94987571 4 13 7775 8.66800000 1302425469 1302425469 13.00000000
8.14135742 1.76617420 -0.14541344 16 14 7776 8.33200000 1302425472 1302425472 -1.00000000
8.20308685 1.77956545 2.24913740 47 15 7776 8.69000000 1302425474 1302425474 15.00000000
2.20199919 0.47448018 -0.60356599 4 0 7784 2.33200000 1302425495 1302425495 -15.00000000
8.15585136 1.75590885 0.14562288 18 1 7785 8.34400000 1302425497 1302425497 1.00000000
2.59863806 0.55899757 -0.61366647 7 2 7786 2.72800000 1302425499 1302425499 -13.00000000
8.16605282 1.75512290 0.43773794 100 3 7787 8.36400000 1302425502 1302425502 3.00000000
3.13825417 0.67450225 -0.62394542 5 4 7787 3.27000000 1302425504 1302425504 -11.00000000
8.14255238 1.74858510 0.72862202 76 5 7788 8.36000000 1302425506 1302425506 5.00000000
3.90725851 0.83835691 -0.63293386 6 6 7789 4.04600000 1302425508 1302425508 -9.00000000
8.17156792 1.75183237 1.02613986 92 7 7790 8.42000000 1302425511 1302425511 7.00000000
5.26804399 1.12840903 -0.66150677 9 8 7791 5.42800000 1302425513 1302425513 -7.00000000
13.24858665 2.83783245 2.14596796 94 9 7791 13.71800000 1302425515 1302425515 9.00000000
6.63386154 1.41975474 -0.59353060 12 10 7792 6.81000000 1302425518 1302425518 -5.00000000
13.25658131 2.83470535 2.63507223 90 11 7793 13.81000000 1302425520 1302425520 11.00000000
8.15256596 1.74180651 -0.43690056 17 12 7794 8.34800000 1302425522 1302425522 -3.00000000
8.25211906 1.76157022 1.94807613 3 13 7795 8.66000000 1302425525 1302425525 13.00000000
8.13573933 1.73524201 -0.14520402 14 14 7796 8.32000000 1302425527 1302425527 -1.00000000
8.20924854 1.75092053 2.24913740 47 15 7796 8.69000000 1302425529 1302425529 15.00000000
2.20931172 0.46799189 -0.60511893 4 0 7804 2.33800000 1302425550 1302425550 -15.00000000
8.14432430 1.72370243 0.14530873 18 1 7805 8.32600000 1302425552 1302425552 1.00000000
2.59676027 0.54911685 -0.61276668 7 2 7806 2.72400000 1302425555 1302425555 -13.00000000
8.17212963 1.72660732 0.43773794 100 3 7807 8.36400000 1302425557 1302425557 3.00000000
3.13290596 0.66192025 -0.62241894 5 4 7807 3.26200000 1302425559 1302425559 -11.00000000
8.14470768 1.71932864 0.72827339 76 5 7808 8.35600000 1302425561 1302425561 5.00000000
3.90629530 0.82389760 -0.63230813 6 6 7809 4.04200000 1302425564 1302425564 -9.00000000
8.16986370 1.72166026 1.02516496 97 7 7810 8.41200000 1302425566 1302425566 7.00000000
5.27583551 1.11083126 -0.66199428 6 8 7811 5.43200000 1302425568 1302425568 -7.00000000
13.24923325 2.78722167 2.14440370 98 9 7812 13.70800000 1302425571 1302425571 9.00000000
6.64267635 1.39740992 -0.59387922 12 10 7812 6.81400000 1302425573 1302425573 -5.00000000
13.24526119 2.78397202 2.63087440 68 11 7813 13.78800000 1302425575 1302425575 11.00000000
8.14100456 1.70964372 -0.43595850 17 12 7814 8.33000000 1302425578 1302425578 -3.00000000
8.25249672 1.73155367 1.94672644 3 13 7815 8.65400000 1302425580 1302425580 13.00000000
8.14370346 1.70724273 -0.14523892 16 14 7816 8.32200000 1302425582 1302425582 -1.00000000
8.20396519 1.71987605 2.24603176 47 15 7816 8.67800000 1302425584 1302425584 15.00000000
2.21849704 0.46185204 -0.60718948 4 0 7824 2.34600000 1302425605 1302425605 -15.00000000
8.15420628 1.69607747 0.14537854 15 1 7825 8.33000000 1302425608 1302425608 1.00000000
2.58339739 0.53687704 -0.60916746 7 2 7826 2.70800000 1302425610 1302425610 -13.00000000
8.15659618 1.69360423 0.43658656 100 3 7827 8.34200000 1302425612 1302425612 3.00000000
3.13904190 0.65177864 -0.62318218 5 4 7827 3.26600000 1302425614 1302425614 -11.00000000
8.15456104 1.69169724 0.72862202 76 5 7828 8.36000000 1302425617 1302425617 5.00000000
3.91688442 0.81186074 -0.63355958 9 6 7829 4.05000000 1302425619 1302425619 -9.00000000
8.16415977 1.69071627 1.02370250 95 7 7830 8.40000000 1302425621 1302425621 7.00000000
5.26218557 1.08878851 -0.65980065 9 8 7831 5.41400000 1302425624 1302425624 -7.00000000
13.23953724 2.73695707 2.14127493 98 9 7832 13.68800000 1302425626 1302425626 9.00000000
6.68653631 1.38228118 -0.59736544 12 10 7832 6.85400000 1302425628 1302425628 -5.00000000
13.24913025 2.73652911 2.62972951 50 11 7833 13.78200000 1302425631 1302425631 11.00000000
8.14301109 1.68040860 -0.43574917 17 12 7834 8.32600000 1302425633 1302425633 -3.00000000
8.25467300 1.70194948 1.94582665 3 13 7835 8.65000000 1302425635 1302425635 13.00000000
8.15157223 1.67920899 -0.14527383 16 14 7836 8.32400000 1302425637 1302425637 -1.00000000
8.21778297 1.69135320 2.24810219 47 15 7837 8.68600000 1302425640 1302425640 15.00000000
2.21828222 0.45333093 -0.60667187 4 0 7845 2.34400000 1302425661 1302425661 -15.00000000
8.15449047 1.66497922 0.14527383 18 1 7846 8.32400000 1302425663 1302425663 1.00000000
2.59489489 0.52935243 -0.61141694 6 2 7847 2.71800000 1302425665 1302425665 -13.00000000
8.15492058 1.66210198 0.43616787 99 3 7848 8.33400000 1302425667 1302425667 3.00000000
3.13756227 0.63948494 -0.62241894 5 4 7848 3.26200000 1302425670 1302425670 -11.00000000
8.15485001 1.66060519 0.72809905 76 5 7849 8.35400000 1302425672 1302425672 5.00000000
3.92370534 0.79828686 -0.63418531 9 6 7850 4.05400000 1302425674 1302425674 -9.00000000
8.16641140 1.65999091 1.02321506 92 7 7851 8.39600000 1302425677 1302425677 7.00000000
5.26030493 1.06830907 -0.65906942 9 8 7852 5.40800000 1302425679 1302425679 -7.00000000
13.24173641 2.68684220 2.14002347 42 9 7853 13.68000000 1302425681 1302425681 9.00000000
8.10719204 1.64500678 -0.72374129 17 10 7853 8.30400000 1302425684 1302425684 -5.00000000
8.14519978 1.64975882 -0.43553984 17 12 7855 8.32200000 1302425688 1302425688 -3.00000000
8.23793507 1.66704500 1.94042778 3 13 7856 8.62600000 1302425690 1302425690 13.00000000
8.14591217 1.64694297 -0.14506440 14 14 7857 8.31200000 1302425693 1302425693 -1.00000000
8.21984959 1.66189182 2.24706697 47 15 7857 8.68200000 1302425695 1302425695 15.00000000
2.21227503 0.44406417 -0.60460126 4 0 7865 2.33600000 1302425716 1302425716 -15.00000000
8.15829182 1.63611138 0.14523892 15 1 7866 8.32200000 1302425718 1302425718 1.00000000
2.59481597 0.51990843 -0.61096704 7 2 7867 2.71600000 1302425720 1302425720 -13.00000000
8.16067314 1.63362586 0.43616787 99 3 7868 8.33400000 1302425723 1302425723 3.00000000
3.13207531 0.62698740 -0.62089247 5 4 7868 3.25400000 1302425725 1302425725 -11.00000000
8.14496708 1.62900341 0.72670460 72 5 7869 8.33800000 1302425727 1302425727 5.00000000
3.92453074 0.78419864 -0.63387245 6 6 7870 4.05200000 1302425730 1302425730 -9.00000000
8.17410278 1.63186336 1.02345872 90 7 7871 8.39800000 1302425732 1302425732 7.00000000
5.26789522 1.05071723 -0.65955687 9 8 7872 5.41200000 1302425734 1302425734 -7.00000000
8.11483860 1.61708677 -0.72391558 17 10 7873 8.30600000 1302425739 1302425739 -5.00000000
13.23178959 2.63436747 2.62247872 25 11 7874 13.74400000 1302425741 1302425741 11.00000000
8.14699173 1.62053740 -0.43533048 17 12 7875 8.31800000 1302425743 1302425743 -3.00000000
8.24179268 1.63789916 1.93997788 3 13 7876 8.62400000 1302425746 1302425746 13.00000000
8.14376545 1.61694074 -0.14492479 14 14 7877 8.30400000 1302425748 1302425748 -1.00000000
8.21044159 1.63017929 2.24292588 47 15 7877 8.66600000 1302425750 1302425750 15.00000000
2.20615411 0.43522993 -0.60253072 4 0 7884 2.32800000 1302425771 1302425771 -15.00000000
8.14797688 1.60595500 0.14495969 15 1 7885 8.30600000 1302425773 1302425773 1.00000000
2.60034990 0.51205391 -0.61186689 7 2 7886 2.72000000 1302425776 1302425776 -13.00000000
8.16576481 1.60798037 0.43616787 99 3 7886 8.33400000 1302425778 1302425778 3.00000000
3.14184260 0.61811358 -0.62241894 5 4 7887 3.26200000 1302425780 1302425780 -11.00000000
8.14445972 1.60083199 0.72618163 76 5 7888 8.33200000 1302425783 1302425783 5.00000000
3.92710972 0.77118009 -0.63387245 6 6 7889 4.05200000 1302425785 1302425785 -9.00000000
8.18141747 1.60513031 1.02370250 90 7 7890 8.40000000 1302425787 1302425787 7.00000000
5.27135086 1.03324246 -0.65955687 9 8 7891 5.41200000 1302425789 1302425789 -7.00000000
