# .PCD v0.7 - Point Cloud Data file format
VERSION 0.7
FIELDS x y z intensity laser_id azimuth distance_m adjustedtime timestamp vertical_angle
SIZE 4 4 4 1 1 2 8 8 4 8
TYPE F F F U U U F U U F
COUNT 1 1 1 1 1 1 1 1 1 1
WIDTH 521
HEIGHT 1
VIEWPOINT 0 0 0 1 0 0 0
POINTS 521
DATA ascii
-3.26373076 3.00536227 -0.54475594 8 8 31264 4.47000000 1302990805 1302990805 -7.00000000
-11.81398964 10.87875175 2.54362440 68 9 31264 16.26000000 1302990807 1302990807 9.00000000
-4.55011225 4.19137669 -0.54123718 3 10 31265 6.21000000 1302990809 1302990809 -5.00000000
-9.78864861 9.02005959 2.58736992 50 11 31266 13.56000000 1302990812 1302990812 11.00000000
-7.27066135 6.70212841 -0.51823062 8 12 31267 9.90200000 1302990814 1302990814 -3.00000000
-8.25045204 7.60796690 2.59098625 41 13 31268 11.51800000 1302990816 1302990816 13.00000000
-12.00419998 11.07327843 -0.28506762 10 14 31269 16.33400000 1302990819 1302990819 -1.00000000
-7.10129309 6.55059004 2.58870816 45 15 31269 10.00200000 1302990821 1302990821 15.00000000
-1.53585029 1.42071998 -0.56060207 4 0 31277 2.16600000 1302990842 1302990842 -15.00000000
-12.00000000 11.10434437 0.28538176 14 1 31278 16.35200000 1302990844 1302990844 1.00000000
-1.78473973 1.65210855 -0.56147784 3 2 31279 2.49600000 1302990846 1302990846 -13.00000000
-12.00202465 11.11399651 0.85726297 95 3 31280 16.38000000 1302990849 1302990849 3.00000000
-2.09592509 1.94084799 -0.55525416 3 4 31280 2.91000000 1302990851 1302990851 -11.00000000
-11.98982716 11.10658932 1.42987716 76 5 31281 16.40600000 1302990853 1302990853 5.00000000
-2.57618737 2.38724661 -0.55628097 3 6 31282 3.55600000 1302990855 1302990855 -9.00000000
-11.96971130 11.09572220 2.00401950 73 7 31283 16.44400000 1302990858 1302990858 7.00000000
-3.24739790 3.01133728 -0.54378098 8 8 31284 4.46200000 1302990860 1302990860 -7.00000000
-11.72090244 10.86888313 2.53173542 68 9 31284 16.18400000 1302990862 1302990862 9.00000000
-4.52376842 4.19639444 -0.53984267 3 10 31285 6.19400000 1302990865 1302990865 -5.00000000
-9.76429844 9.06085110 2.58927798 53 11 31286 13.57000000 1302990867 1302990867 11.00000000
-7.25454140 6.73426056 -0.51875401 4 12 31287 9.91200000 1302990869 1302990869 -3.00000000
-8.22384453 7.63672018 2.59098625 40 13 31288 11.51800000 1302990872 1302990872 13.00000000
-12.01089191 11.15730381 -0.28614965 7 14 31289 16.39600000 1302990874 1302990874 -1.00000000
-7.06422997 6.56219053 2.58353162 42 15 31289 9.98200000 1302990876 1302990876 15.00000000
-1.51932621 1.41580343 -0.55646098 4 0 31298 2.15000000 1302990897 1302990897 -15.00000000
-11.99432564 11.18097591 0.28621948 14 1 31299 16.40000000 1302990899 1302990899 1.00000000
-1.78294814 1.66262603 -0.56282753 4 2 31300 2.50200000 1302990902 1302990902 -13.00000000
-11.99918079 11.19333363 0.85998446 90 3 31301 16.43200000 1302990904 1302990904 3.00000000
-2.08879757 1.94851685 -0.55525416 3 4 31301 2.91000000 1302990906 1302990906 -11.00000000
-11.96943283 11.16948986 1.43231750 80 5 31302 16.43400000 1302990908 1302990908 5.00000000
-2.57319641 2.40206456 -0.55753243 3 6 31303 3.56400000 1302990911 1302990911 -9.00000000
-11.96378422 11.17203426 2.00986910 71 7 31304 16.49200000 1302990913 1302990913 7.00000000
-3.23198724 3.01915407 -0.54304981 8 8 31305 4.45600000 1302990915 1302990915 -7.00000000
-11.65598965 10.89222908 2.52672958 24 9 31306 16.15200000 1302990918 1302990918 9.00000000
-4.52437019 4.22791004 -0.54176009 7 10 31306 6.21600000 1302990920 1302990920 -5.00000000
-9.71094418 9.07780838 2.58393550 50 11 31307 13.54200000 1302990922 1302990922 11.00000000
-7.25752735 6.78672409 -0.52074277 4 12 31308 9.95000000 1302990925 1302990925 -3.00000000
-8.19010639 7.66148567 2.58918667 38 13 31309 11.51000000 1302990927 1302990927 13.00000000
-12.00496006 11.23404312 -0.28698736 10 14 31310 16.44400000 1302990929 1302990929 -1.00000000
-7.03448868 6.58275795 2.58146119 40 15 31310 9.97400000 1302990931 1302990931 15.00000000
-1.52000976 1.42638600 -0.55853152 4 0 31318 2.15800000 1302990952 1302990952 -15.00000000
-11.97855091 11.24467468 0.28677794 14 1 31319 16.43200000 1302990955 1302990955 1.00000000
-1.77429247 1.66617155 -0.56192774 4 2 31320 2.49800000 1302990957 1302990957 -13.00000000
-11.99934006 11.27207184 0.86281055 85 3 31321 16.48600000 1302990959 1302990959 3.00000000
-2.07912135 1.95310783 -0.55449092 3 4 31321 2.90600000 1302990961 1302990961 -11.00000000
-11.95505333 11.23439789 1.43528080 19 5 31322 16.46800000 1302990964 1302990964 5.00000000
-2.56623507 2.41238499 -0.55784529 1 6 31323 3.56600000 1302990966 1302990966 -9.00000000
-11.95652866 11.24364567 2.01523137 71 7 31324 16.53600000 1302990968 1302990968 7.00000000
-3.22432041 3.03313780 -0.54353726 8 8 31325 4.46000000 1302990971 1302990971 -7.00000000
-11.55460072 10.87328434 2.51296329 24 9 31326 16.06400000 1302990973 1302990973 9.00000000
-4.49942780 4.23411942 -0.54053992 3 10 31326 6.20200000 1302990975 1302990975 -5.00000000
-9.66490269 9.09819412 2.58011913 53 11 31327 13.52200000 1302990978 1302990978 11.00000000
-7.25560379 6.83255482 -0.52231282 4 12 31328 9.98000000 1302990980 1302990980 -3.00000000
-8.16615009 7.69270039 2.59008646 42 13 31329 11.51400000 1302990982 1302990982 13.00000000
-12.00787735 11.31565094 -0.28799960 15 14 31330 16.50200000 1302990984 1302990984 -1.00000000
-7.00469160 6.60319614 2.57939053 42 15 31331 9.96600000 1302990987 1302990987 15.00000000
-1.51808000 1.43407190 -0.55956680 4 0 31337 2.16200000 1302991008 1302991008 -15.00000000
-11.98770523 11.32828522 0.28789490 14 1 31338 16.49600000 1302991010 1302991010 1.00000000
-1.75601220 1.65999770 -0.55787861 3 2 31339 2.48000000 1302991012 1302991012 -13.00000000
-11.98656368 11.33512974 0.86458999 72 3 31340 16.52000000 1302991014 1302991014 3.00000000
-2.08689761 1.97348106 -0.55830711 3 4 31340 2.92600000 1302991017 1302991017 -11.00000000
-11.96839142 11.32190228 1.44138169 33 5 31341 16.53800000 1302991019 1302991019 5.00000000
-2.55965614 2.42223954 -0.55815816 3 6 31342 3.56800000 1302991021 1302991021 -9.00000000
-11.95377541 11.31598568 2.02108121 66 7 31343 16.58400000 1302991024 1302991024 7.00000000
-3.20415497 3.03425884 -0.54183108 8 8 31344 4.44600000 1302991026 1302991026 -7.00000000
-11.48549652 10.88029575 2.50576735 68 9 31345 16.01800000 1302991028 1302991028 9.00000000
-4.49838018 4.26134872 -0.54210871 3 10 31345 6.22000000 1302991031 1302991031 -5.00000000
-9.64037895 9.13559532 2.58164573 53 11 31346 13.53000000 1302991033 1302991033 11.00000000
-7.22275972 6.84695911 -0.52158016 4 12 31347 9.96600000 1302991035 1302991035 -3.00000000
-8.12928295 7.70901060 2.58648729 42 13 31348 11.49800000 1302991037 1302991037 13.00000000
-12.01381016 11.39669514 -0.28904676 15 14 31349 16.56200000 1302991040 1302991040 -1.00000000
-6.98811722 6.62915802 2.58094358 45 15 31349 9.97200000 1302991042 1302991042 15.00000000
-1.52146304 1.44735134 -0.56267262 4 0 31357 2.17400000 1302991063 1302991063 -15.00000000
-11.98865032 11.40865993 0.28887224 14 1 31358 16.55200000 1302991065 1302991065 1.00000000
-1.75867581 1.67417908 -0.56057805 3 2 31359 2.49200000 1302991067 1302991067 -13.00000000
-11.98597527 11.41409016 0.86741614 85 3 31360 16.57400000 1302991070 1302991070 3.00000000
-2.06862235 1.96992242 -0.55525416 3 4 31360 2.91000000 1302991072 1302991072 -11.00000000
-11.97928810 11.41170979 1.44748259 52 5 31361 16.60800000 1302991074 1302991074 5.00000000
-2.55547547 2.43524790 -0.55909675 1 6 31362 3.57400000 1302991077 1302991077 -9.00000000
-11.94581318 11.38777733 2.02644348 71 7 31363 16.62800000 1302991079 1302991079 7.00000000
-3.18779755 3.03994513 -0.54085612 8 8 31364 4.43800000 1302991081 1302991081 -7.00000000
-11.39599133 10.87123489 2.49450397 69 9 31365 15.94600000 1302991084 1302991084 9.00000000
-4.48059464 4.27427483 -0.54176009 3 10 31365 6.21600000 1302991086 1302991086 -5.00000000
-9.60274982 9.16376972 2.58011913 53 11 31366 13.52200000 1302991088 1302991088 11.00000000
-7.22770882 6.89971209 -0.52367359 4 12 31367 10.00600000 1302991090 1302991090 -3.00000000
-8.09668732 7.73195648 2.58468771 39 13 31368 11.49000000 1302991093 1302991093 13.00000000
-12.00721169 11.47033215 -0.28984958 10 14 31369 16.60800000 1302991095 1302991095 -1.00000000
-6.96353769 6.65217590 2.58042598 42 15 31369 9.97000000 1302991097 1302991097 15.00000000
-1.51082134 1.44730783 -0.56060207 4 0 31377 2.16600000 1302991118 1302991118 -15.00000000
-11.98917961 11.48917866 0.28984958 10 1 31378 16.60800000 1302991120 1302991120 1.00000000
-1.75563467 1.68300498 -0.56147784 3 2 31379 2.49600000 1302991123 1302991123 -13.00000000
-11.98698711 11.49109173 0.87024230 90 3 31379 16.62800000 1302991125 1302991125 3.00000000
-2.05889940 1.97441351 -0.55449092 3 4 31380 2.90600000 1302991127 1302991127 -11.00000000
-11.97532558 11.48793697 1.45184040 47 5 31381 16.65800000 1302991130 1302991130 5.00000000
-2.54410863 2.44141793 -0.55847102 1 6 31382 3.57000000 1302991132 1302991132 -9.00000000
-11.94608688 11.46789837 2.03326821 70 7 31383 16.68400000 1302991134 1302991134 7.00000000
-3.16857576 3.04280424 -0.53939372 8 8 31384 4.42600000 1302991136 1302991136 -7.00000000
-11.31286049 10.86381340 2.48417926 65 9 31384 15.88000000 1302991139 1302991139 9.00000000
-4.48145247 4.30507183 -0.54367751 3 10 31385 6.23800000 1302991141 1302991141 -5.00000000
-9.57353497 9.19995403 2.58088255 53 11 31386 13.52600000 1302991143 1302991143 11.00000000
-7.23381758 6.95396662 -0.52587169 4 12 31387 10.04800000 1302991146 1302991146 -3.00000000
-8.06964779 7.76017237 2.58468771 41 13 31388 11.49000000 1302991148 1302991148 13.00000000
-11.99880409 11.54267502 -0.29061747 7 14 31389 16.65200000 1302991150 1302991150 -1.00000000
-6.93470573 6.67108583 2.57835531 45 15 31389 9.96200000 1302991153 1302991153 15.00000000
-1.49880838 1.44586658 -0.55801386 4 0 31397 2.15600000 1302991173 1302991173 -15.00000000
-11.98497486 11.56567383 0.29072219 14 1 31398 16.65800000 1302991176 1302991176 1.00000000
-1.75816143 1.69724381 -0.56417722 4 2 31399 2.50800000 1302991178 1302991178 -13.00000000
-11.98214436 11.57102203 0.87296373 84 3 31400 16.68000000 1302991180 1302991180 3.00000000
-2.06046844 1.98977113 -0.55678064 3 4 31400 2.91800000 1302991183 1302991183 -11.00000000
-11.95664692 11.55043316 1.45445502 61 5 31401 16.68800000 1302991185 1302991185 5.00000000
-2.52988911 2.44479275 -0.55721956 3 6 31402 3.56200000 1302991187 1302991187 -9.00000000
-11.95450974 11.55643845 2.04155517 68 7 31403 16.75200000 1302991189 1302991189 7.00000000
-3.08230448 2.98070836 -0.52647555 6 8 31404 4.32000000 1302991192 1302991192 -7.00000000
-11.23889160 10.87224197 2.47667050 62 9 31405 15.83200000 1302991194 1302991194 9.00000000
-4.45923758 4.31376219 -0.54280597 3 10 31405 6.22800000 1302991196 1302991196 -5.00000000
-9.53289795 9.22512436 2.57859278 50 11 31406 13.51400000 1302991199 1302991199 11.00000000
-7.20519447 6.97500753 -0.52555770 4 12 31407 10.04200000 1302991201 1302991201 -3.00000000
-8.04251099 7.78829336 2.58468771 41 13 31408 11.49000000 1302991203 1302991203 13.00000000
-12.00009155 11.62483788 -0.29162970 15 14 31409 16.71000000 1302991206 1302991206 -1.00000000
-6.90188456 6.68839121 2.57524943 45 15 31410 9.95000000 1302991208 1302991208 15.00000000
-1.49816310 1.45486641 -0.55956680 4 0 31416 2.16200000 1302991229 1302991229 -15.00000000
-11.97380829 11.63182831 0.29138538 14 1 31417 16.69600000 1302991231 1302991231 1.00000000
-1.73854804 1.68948364 -0.55967820 3 2 31418 2.48800000 1302991233 1302991233 -13.00000000
-11.98440742 11.64618969 0.87578988 81 3 31418 16.73400000 1302991236 1302991236 3.00000000
-2.05667424 1.99932992 -0.55754387 2 4 31419 2.92200000 1302991238 1302991238 -11.00000000
-11.96112919 11.63169003 1.45968437 73 5 31420 16.74800000 1302991240 1302991240 5.00000000
-2.51893616 2.45041394 -0.55659384 1 6 31421 3.55800000 1302991242 1302991242 -9.00000000
-11.94315147 11.62232113 2.04618621 64 7 31422 16.79000000 1302991245 1302991245 7.00000000
-3.19473052 3.10999584 -0.54743707 8 8 31423 4.49200000 1302991247 1302991247 -7.00000000
-11.16598129 10.87361908 2.46853590 65 9 31424 15.78000000 1302991249 1302991249 9.00000000
-4.45061779 4.33408594 -0.54350322 3 10 31424 6.23600000 1302991252 1302991252 -5.00000000
-9.49522209 9.24983597 2.57668471 50 11 31425 13.50400000 1302991254 1302991254 11.00000000
-7.21492386 7.03092241 -0.52796513 4 12 31426 10.08800000 1302991256 1302991256 -3.00000000
-8.01105785 7.80947924 2.58288789 43 13 31427 11.48200000 1302991259 1302991259 13.00000000
-11.99869919 11.70086670 -0.29253724 10 14 31428 16.76200000 1302991261 1302991261 -1.00000000
-6.88775396 6.71678495 2.57783771 45 15 31428 9.96000000 1302991263 1302991263 15.00000000
-1.49998164 1.46684051 -0.56215495 4 0 31436 2.17200000 1302991284 1302991284 -15.00000000
-11.97172832 11.71130943 0.29232782 7 1 31437 16.75000000 1302991286 1302991286 1.00000000
-1.72706878 1.69009018 -0.55787861 3 2 31438 2.48000000 1302991288 1302991288 -13.00000000
-11.95795631 11.70192146 0.87683660 28 3 31438 16.75400000 1302991291 1302991291 3.00000000
-2.05248857 2.00924373 -0.55830711 3 4 31439 2.92600000 1302991293 1302991293 -11.00000000
-11.94323063 11.69567490 1.46247339 48 5 31440 16.78000000 1302991295 1302991295 5.00000000
-2.51883388 2.46748567 -0.55847102 1 6 31441 3.57000000 1302991298 1302991298 -9.00000000
-11.93228340 11.69311714 2.05130482 75 7 31442 16.83200000 1302991300 1302991300 7.00000000
-3.22921705 3.16559696 -0.55523676 6 8 31443 4.55600000 1302991302 1302991302 -7.00000000
-10.11670876 9.92085838 2.24420881 10 9 31444 14.34600000 1302991305 1302991305 9.00000000
-4.44399691 4.35796547 -0.54454911 7 10 31444 6.24800000 1302991307 1302991307 -5.00000000
-9.45446777 9.27467537 2.57439494 46 11 31445 13.49200000 1302991309 1302991309 11.00000000
-7.18035889 7.04627180 -0.52723241 4 12 31446 10.07400000 1302991312 1302991312 -3.00000000
-7.97818613 7.83193493 2.58108830 42 13 31447 11.47400000 1302991314 1302991314 13.00000000
-19.81502151 19.45857430 -0.48475805 10 14 31448 27.77600000 1302991316 1302991316 -1.00000000
-6.86288738 6.73943329 2.57732010 42 15 31448 9.95800000 1302991318 1302991318 15.00000000
-1.49872398 1.47639561 -0.56370789 4 0 31457 2.17800000 1302991339 1302991339 -15.00000000
-19.88215637 19.59278488 0.48723629 15 1 31458 27.91800000 1302991341 1302991341 1.00000000
-1.72918952 1.70461726 -0.56057805 3 2 31459 2.49200000 1302991344 1302991344 -13.00000000
-19.85110092 19.57584381 1.46111524 36 3 31460 27.91800000 1302991346 1302991346 3.00000000
-2.03672314 2.00848174 -0.55601740 2 4 31460 2.91400000 1302991348 1302991348 -11.00000000
-19.46313286 19.19995880 2.39190221 85 5 31461 27.44400000 1302991351 1302991351 5.00000000
-2.52102137 2.48780131 -0.56097400 1 6 31462 3.58600000 1302991353 1302991353 -9.00000000
-15.26006508 15.06423664 2.63286519 22 7 31463 21.60400000 1302991355 1302991355 7.00000000
-3.22465539 3.18438554 -0.55645543 4 8 31464 4.56600000 1302991358 1302991358 -7.00000000
-10.04266167 9.91724873 2.23544860 14 9 31464 14.29000000 1302991360 1302991360 9.00000000
-4.43224669 4.37842464 -0.54507202 7 10 31465 6.25400000 1302991362 1302991362 -5.00000000
-9.43018532 9.31892490 2.57706618 53 11 31466 13.50600000 1302991365 1302991365 11.00000000
-7.18005180 7.09781599 -0.52911651 4 12 31467 10.11000000 1302991367 1302991367 -3.00000000
-7.94388485 7.85564280 2.57928872 42 13 31468 11.46600000 1302991369 1302991369 13.00000000
-19.84166145 19.62810707 -0.48716646 10 14 31469 27.91400000 1302991371 1302991371 -1.00000000
-6.83146667 6.76029968 2.57524943 42 15 31470 9.95000000 1302991374 1302991374 15.00000000
-1.49081826 1.47889698 -0.56267262 4 0 31477 2.17400000 1302991394 1302991394 -15.00000000
-19.87609673 19.72404289 0.48877209 15 1 31478 28.00600000 1302991397 1302991397 1.00000000
-1.72599471 1.71338868 -0.56147784 3 2 31479 2.49600000 1302991399 1302991399 -13.00000000
-19.86970520 19.72458267 1.46729088 45 3 31479 28.03600000 1302991401 1302991401 3.00000000
-2.02969980 2.01557922 -0.55601740 3 4 31480 2.91400000 1302991404 1302991404 -11.00000000
-19.31825256 19.19055176 2.38231516 76 5 31481 27.33400000 1302991406 1302991406 5.00000000
-2.51652551 2.50076318 -0.56191260 1 6 31482 3.59200000 1302991408 1302991408 -9.00000000
-15.19612598 15.10621643 2.63091540 52 7 31483 21.58800000 1302991411 1302991411 7.00000000
-3.21352005 3.19562244 -0.55645543 4 8 31484 4.56600000 1302991413 1302991413 -7.00000000
-9.95863056 9.90662289 2.22481108 14 9 31485 14.22200000 1302991415 1302991415 9.00000000
-4.42682362 4.40370560 -0.54629219 7 10 31485 6.26800000 1302991418 1302991418 -5.00000000
-9.38924980 9.34347630 2.57477665 50 11 31486 13.49400000 1302991420 1302991420 11.00000000
-7.19486523 7.16228962 -0.53204733 4 12 31487 10.16600000 1302991422 1302991422 -3.00000000
-7.91917658 7.88607407 2.58018851 43 13 31488 11.47000000 1302991424 1302991424 13.00000000
-19.83252716 19.75652122 -0.48863247 10 14 31489 27.99800000 1302991427 1302991427 -1.00000000
-6.80509043 6.78137732 2.57421422 42 15 31490 9.94600000 1302991429 1302991429 15.00000000
-1.47249269 1.46992493 -0.55749625 4 0 31495 2.15400000 1302991450 1302991450 -15.00000000
-19.88478470 19.85703850 0.49051735 16 1 31496 28.10600000 1302991452 1302991452 1.00000000
-1.72887564 1.72706604 -0.56417722 3 2 31497 2.50800000 1302991454 1302991454 -13.00000000
-19.86981201 19.84901619 1.47189641 58 3 31497 28.12400000 1302991457 1302991457 3.00000000
-2.03446746 2.03304768 -0.55907035 2 4 31498 2.93000000 1302991459 1302991459 -11.00000000
-19.19164085 19.18494415 2.37412238 93 5 31499 27.24000000 1302991461 1302991461 5.00000000
-2.50306964 2.50306964 -0.56066114 1 6 31500 3.58400000 1302991464 1302991464 -9.00000000
-15.13736629 15.14265060 2.62896538 47 7 31501 21.57200000 1302991466 1302991466 7.00000000
-3.20767450 3.20991468 -0.55718666 4 8 31502 4.57200000 1302991468 1302991468 -7.00000000
-9.89707756 9.90398979 2.21761489 18 9 31502 14.17600000 1302991471 1302991471 9.00000000
-4.40874290 4.41336203 -0.54576927 3 10 31503 6.26200000 1302991473 1302991473 -5.00000000
-9.35707569 9.37014961 2.57401323 50 11 31504 13.49000000 1302991475 1302991475 11.00000000
-7.18220615 7.19475222 -0.53278005 4 12 31505 10.18000000 1302991477 1302991477 -3.00000000
-7.88885689 7.90539646 2.57838893 44 13 31506 11.46200000 1302991480 1302991480 13.00000000
-19.84521294 19.89376259 -0.49048242 10 14 31507 28.10400000 1302991482 1302991482 -1.00000000
-6.77829599 6.79725122 2.57214355 40 15 31508 9.93800000 1302991484 1302991484 15.00000000
-1.47416496 1.48190391 -0.56008440 4 0 31515 2.16400000 1302991505 1302991505 -15.00000000
-19.86752129 19.97879219 0.49180880 16 1 31516 28.18000000 1302991507 1302991507 1.00000000
-1.71734095 1.72756231 -0.56237763 3 2 31517 2.50000000 1302991510 1302991510 -13.00000000
-19.87221718 19.99049377 1.47723472 67 3 31517 28.22600000 1302991512 1302991512 3.00000000
-2.03842926 2.05127740 -0.56212330 3 4 31518 2.94600000 1302991514 1302991514 -11.00000000
-19.05013657 19.17690277 2.36488390 83 5 31519 27.13400000 1302991517 1302991517 5.00000000
-2.48874927 2.50618505 -0.55940962 1 6 31520 3.57600000 1302991519 1302991519 -9.00000000
-15.06483650 15.17567444 2.62555313 52 7 31521 21.54400000 1302991521 1302991521 7.00000000
-3.21043301 3.23518252 -0.55962402 4 8 31522 4.59200000 1302991524 1302991524 -7.00000000
-9.83183479 9.90762901 2.21073174 21 9 31522 14.13200000 1302991526 1302991526 9.00000000
-4.41295481 4.44852734 -0.54820961 3 10 31523 6.29000000 1302991528 1302991528 -5.00000000
-9.30910397 9.38741970 2.56981564 50 11 31524 13.46800000 1302991530 1302991530 11.00000000
-7.19923115 7.26233196 -0.53592020 4 12 31525 10.24000000 1302991533 1302991533 -3.00000000
-7.86395693 7.93565416 2.57928872 41 13 31526 11.46600000 1302991535 1302991535 13.00000000
-19.70809746 19.89472389 -0.48880699 6 14 31527 28.00800000 1302991537 1302991537 -1.00000000
-6.75724649 6.82361555 2.57317901 45 15 31528 9.94200000 1302991540 1302991540 15.00000000
-1.47577143 1.49391246 -0.56267262 4 0 31535 2.17400000 1302991560 1302991560 -15.00000000
-27.74904060 28.09995651 0.68933517 48 1 31536 39.49800000 1302991563 1302991563 1.00000000
-1.70034790 1.72245169 -0.55877841 3 2 31537 2.48400000 1302991565 1302991565 -13.00000000
-27.72717285 28.08761406 2.06842160 62 3 31537 39.52200000 1302991567 1302991567 3.00000000
-2.02574062 2.05279088 -0.56059682 3 4 31538 2.93800000 1302991570 1302991570 -11.00000000
-18.92851067 19.18796539 2.35808587 67 5 31539 27.05600000 1302991572 1302991572 5.00000000
-2.50079131 2.53595495 -0.56410271 1 6 31540 3.60600000 1302991574 1302991574 -9.00000000
-15.00062370 15.21685886 2.62360334 55 7 31541 21.52800000 1302991576 1302991576 7.00000000
-3.17682695 3.22374654 -0.55572420 4 8 31542 4.56000000 1302991579 1302991579 -7.00000000
-9.76252747 9.90671349 2.20291018 18 9 31542 14.08200000 1302991581 1302991581 9.00000000
-4.38341761 4.44971085 -0.54646653 3 10 31543 6.27000000 1302991583 1302991583 -5.00000000
-9.27214622 9.41566086 2.56867075 50 11 31544 13.46200000 1302991586 1302991586 11.00000000
-7.20886517 7.32300043 -0.53853697 4 12 31545 10.29000000 1302991588 1302991588 -3.00000000
-7.82527351 7.95194387 2.57568955 47 13 31546 11.45000000 1302991590 1302991590 13.00000000
-19.63292313 19.95769310 -0.48866737 6 14 31547 28.00000000 1302991593 1302991593 -1.00000000
-6.73729086 6.84874058 2.57421422 45 15 31547 9.94600000 1302991595 1302991595 15.00000000
-1.47325337 1.50181282 -0.56370789 4 0 31555 2.17800000 1302991616 1302991616 -15.00000000
-27.74179268 28.28944969 0.69160396 39 1 31556 39.62800000 1302991618 1302991618 1.00000000
-1.70523858 1.73950934 -0.56237763 3 2 31557 2.50000000 1302991620 1302991620 -13.00000000
-27.71284866 28.26980400 2.07470202 79 3 31557 39.64200000 1302991623 1302991623 3.00000000
-2.01581454 2.05704498 -0.55983359 3 4 31558 2.93400000 1302991625 1302991625 -11.00000000
-2.47257447 2.52490997 -0.55972254 1 6 31560 3.57800000 1302991629 1302991629 -9.00000000
-14.94463825 15.26629066 2.62311578 52 7 31561 21.52400000 1302991632 1302991632 7.00000000
-3.19054580 3.26035404 -0.56011152 2 8 31562 4.59600000 1302991634 1302991634 -7.00000000
-9.68643856 9.89837551 2.19352412 21 9 31562 14.02200000 1302991636 1302991636 9.00000000
-4.37482452 4.47210550 -0.54733807 3 10 31563 6.28000000 1302991639 1302991639 -5.00000000
-9.23785019 9.44656563 2.56828904 50 11 31564 13.46000000 1302991641 1302991641 11.00000000
-7.18605185 7.35097599 -0.53874636 4 12 31565 10.29400000 1302991643 1302991643 -3.00000000
-7.78929663 7.97084856 2.57299018 50 13 31566 11.43800000 1302991646 1302991646 13.00000000
-19.63021088 20.09476471 -0.49034283 3 14 31567 28.09600000 1302991648 1302991648 -1.00000000
-6.71214390 6.87338781 2.57421422 42 15 31568 9.94600000 1302991650 1302991650 15.00000000
-1.46800208 1.50694633 -0.56370789 4 0 31575 2.17800000 1302991671 1302991671 -15.00000000
-35.62713623 36.58505249 0.89136422 73 1 31576 51.07400000 1302991673 1302991673 1.00000000
-1.70459342 1.75103664 -0.56417722 3 2 31577 2.50800000 1302991676 1302991676 -13.00000000
-34.85222626 35.81431198 2.61899590 46 3 31578 50.04200000 1302991678 1302991678 3.00000000
-2.00314498 2.05844092 -0.55830711 3 4 31578 2.92600000 1302991680 1302991680 -11.00000000
-17.74102402 18.23712540 2.22595763 23 5 31579 25.54000000 1302991682 1302991682 5.00000000
-2.46787739 2.53777385 -0.56066114 1 6 31580 3.58400000 1302991685 1302991685 -9.00000000
-14.88295555 15.30982399 2.62165332 52 7 31581 21.51200000 1302991687 1302991687 7.00000000
-3.16807818 3.26008224 -0.55816162 2 8 31582 4.58000000 1302991689 1302991689 -7.00000000
-9.62291813 9.90237713 2.18695378 14 9 31582 13.98000000 1302991692 1302991692 9.00000000
-4.35918760 4.48734951 -0.54733807 3 10 31583 6.28000000 1302991694 1302991694 -5.00000000
-9.20755482 9.48157120 2.56905222 46 11 31584 13.46400000 1302991696 1302991696 11.00000000
-7.14782763 7.36311769 -0.53780431 4 12 31585 10.27600000 1302991699 1302991699 -3.00000000
-7.76142550 7.99798965 2.57299018 50 13 31586 11.43800000 1302991701 1302991701 13.00000000
-19.55855560 20.16172981 -0.49030790 3 14 31587 28.09400000 1302991703 1302991703 -1.00000000
-6.68662405 6.89283514 2.57317901 45 15 31587 9.94200000 1302991706 1302991706 15.00000000
-1.45736015 1.50650752 -0.56163734 4 0 31595 2.17000000 1302991726 1302991726 -15.00000000
-43.46175766 44.94313431 1.09129894 46 1 31596 62.53000000 1302991729 1302991729 1.00000000
-1.69847083 1.75697613 -0.56417722 3 2 31597 2.50800000 1302991731 1302991731 -13.00000000
-34.60902786 35.81367111 2.61009884 45 3 31598 49.87200000 1302991733 1302991733 3.00000000
-1.99594748 2.06542087 -0.55830711 3 4 31598 2.92600000 1302991735 1302991735 -11.00000000
-17.60804367 18.22729492 2.21724200 23 5 31599 25.44000000 1302991738 1302991738 5.00000000
-2.45763159 2.54495192 -0.56034827 1 6 31600 3.58200000 1302991740 1302991740 -9.00000000
-14.82390881 15.35596943 2.62067842 50 7 31601 21.50400000 1302991742 1302991742 7.00000000
-3.15943599 3.27397799 -0.55864906 2 8 31602 4.58400000 1302991745 1302991745 -7.00000000
-9.55364418 9.90346050 2.17944503 14 9 31603 13.93200000 1302991747 1302991747 9.00000000
-4.35041380 4.50970840 -0.54820961 3 10 31603 6.29000000 1302991749 1302991749 -5.00000000
-9.16622543 9.50517464 2.56676269 50 11 31604 13.45200000 1302991752 1302991752 11.00000000
-7.14287424 7.40959215 -0.53937435 8 12 31605 10.30600000 1302991754 1302991754 -3.00000000
-7.73616457 8.02783966 2.57388997 50 13 31606 11.44200000 1302991756 1302991756 13.00000000
-19.57684898 20.32204819 -0.49254182 3 14 31607 28.22200000 1302991759 1302991759 -1.00000000
-6.65327501 6.90894747 2.57007313 40 15 31608 9.93000000 1302991761 1302991761 15.00000000
-1.44941592 1.50879908 -0.56060207 4 0 31615 2.16600000 1302991782 1302991782 -15.00000000
-56.79809189 59.14579010 1.43134165 69 1 31616 82.01400000 1302991784 1302991784 1.00000000
-1.69367707 1.76429999 -0.56462717 4 2 31617 2.51000000 1302991786 1302991786 -13.00000000
-34.36902237 35.81465149 2.60141110 45 3 31618 49.70600000 1302991788 1302991788 3.00000000
-1.98872566 2.07237530 -0.55830711 3 4 31618 2.92600000 1302991791 1302991791 -11.00000000
-17.48638153 18.22826004 2.20992112 23 5 31619 25.35600000 1302991793 1302991793 5.00000000
-2.45420218 2.55921817 -0.56159973 1 6 31620 3.59000000 1302991795 1302991795 -9.00000000
-14.75373173 15.39042473 2.61775351 50 7 31621 21.48000000 1302991798 1302991798 7.00000000
-3.16034961 3.29788566 -0.56084269 2 8 31622 4.60200000 1302991800 1302991800 -7.00000000
-9.49341583 9.90656185 2.17318749 14 9 31622 13.89200000 1302991802 1302991802 9.00000000
-4.34980631 4.54069281 -0.55012703 7 10 31623 6.31200000 1302991805 1302991805 -5.00000000
-9.12620068 9.53002357 2.56485462 50 11 31624 13.44200000 1302991807 1302991807 11.00000000
-7.18464184 7.50517511 -0.54450327 8 12 31625 10.40400000 1302991809 1302991809 -3.00000000
-7.70540047 8.05197906 2.57299018 48 13 31626 11.43800000 1302991812 1302991812 13.00000000
-19.49888039 20.38303566 -0.49236730 3 14 31627 28.21200000 1302991814 1302991814 -1.00000000
-6.63834000 6.93934822 2.57317901 40 15 31627 9.94200000 1302991816 1302991816 15.00000000
-1.44947433 1.51944065 -0.56267262 4 0 31635 2.17400000 1302991837 1302991837 -15.00000000
-56.76931000 59.53037643 1.43584442 71 1 31636 82.27200000 1302991839 1302991839 1.00000000
-1.68212962 1.76455915 -0.56282753 4 2 31637 2.50200000 1302991841 1302991841 -13.00000000
-34.11565781 35.79993820 2.59167647 45 3 31638 49.52000000 1302991844 1302991844 3.00000000
-2.00044107 2.09920239 -0.56364977 3 4 31638 2.95400000 1302991846 1302991846 -11.00000000
-17.36905098 18.23292732 2.20312285 23 5 31639 25.27800000 1302991848 1302991848 5.00000000
-2.44252920 2.56490850 -0.56097400 1 6 31640 3.58600000 1302991851 1302991851 -9.00000000
-14.68896961 15.43032932 2.61580348 50 7 31641 21.46400000 1302991853 1302991853 7.00000000
-3.13102865 3.29020286 -0.55767411 2 8 31642 4.57600000 1302991855 1302991855 -7.00000000
-9.44070435 9.92411613 2.16943312 14 9 31643 13.86800000 1302991858 1302991858 9.00000000
-4.34216928 4.56450987 -0.55117291 3 10 31643 6.32400000 1302991860 1302991860 -5.00000000
-9.09287930 9.56182194 2.56485462 50 11 31644 13.44200000 1302991862 1302991862 11.00000000
-7.28087187 7.65904140 -0.55381906 12 12 31645 10.58200000 1302991864 1302991864 -3.00000000
-7.67321968 8.07458878 2.57164049 51 13 31646 11.43200000 1302991867 1302991867 13.00000000
-19.41521645 20.43792725 -0.49205315 3 14 31647 28.19400000 1302991869 1302991869 -1.00000000
-6.61286163 6.96363211 2.57317901 42 15 31648 9.94200000 1302991871 1302991871 15.00000000
-1.44681871 1.52729595 -0.56370789 4 0 31655 2.17800000 1302991892 1302991892 -15.00000000
-56.76328659 59.94161224 1.44097543 73 1 31656 82.56600000 1302991894 1302991894 1.00000000
-1.67997897 1.77466571 -0.56417722 3 2 31657 2.50800000 1302991897 1302991897 -13.00000000
-33.86830521 35.78969574 2.58236074 45 3 31658 49.34200000 1302991899 1302991899 3.00000000
-1.98230588 2.09476447 -0.56059682 3 4 31658 2.93800000 1302991901 1302991901 -11.00000000
-17.24642372 18.23120689 2.19562745 23 5 31659 25.19200000 1302991904 1302991904 5.00000000
-2.44713378 2.58777142 -0.56410271 1 6 31660 3.60600000 1302991906 1302991906 -9.00000000
-14.62683582 15.47285366 2.61434126 50 7 31661 21.45200000 1302991908 1302991908 7.00000000
-3.11543441 3.29678392 -0.55694288 2 8 31662 4.57000000 1302991911 1302991911 -7.00000000
-9.38874817 9.93526745 2.16505289 10 9 31662 13.84000000 1302991913 1302991913 9.00000000
-4.33989143 4.59412241 -0.55291605 7 10 31663 6.34400000 1302991915 1302991915 -5.00000000
-9.06888199 9.60349560 2.56752586 34 11 31664 13.45600000 1302991917 1302991917 11.00000000
-7.18828344 7.61469650 -0.54879487 12 12 31665 10.48600000 1302991920 1302991920 -3.00000000
-7.63696241 8.09282017 2.56894112 51 13 31666 11.42000000 1302991922 1302991922 13.00000000
-19.38492203 20.54921341 -0.49310029 3 14 31667 28.25400000 1302991924 1302991924 -1.00000000
-6.58443069 6.97990227 2.57110834 40 15 31667 9.93400000 1302991927 1302991927 15.00000000
-1.43618405 1.52670860 -0.56163734 4 0 31675 2.17000000 1302991947 1302991947 -15.00000000
-56.75782394 60.35644531 1.44617617 75 1 31676 82.86400000 1302991950 1302991950 1.00000000
-1.68178248 1.78903842 -0.56687665 3 2 31677 2.52000000 1302991952 1302991952 -13.00000000
-33.63375092 35.79126358 2.57398701 56 3 31678 49.18200000 1302991954 1302991954 3.00000000
-1.97229290 2.09880996 -0.55983359 3 4 31678 2.93400000 1302991957 1302991957 -11.00000000
-17.13220787 18.23756790 2.18917799 23 5 31679 25.11800000 1302991959 1302991959 5.00000000
-2.42591572 2.58333778 -0.56128687 1 6 31680 3.58800000 1302991961 1302991961 -9.00000000
-14.56730175 15.51802731 2.61336613 50 7 31681 21.44400000 1302991964 1302991964 7.00000000
-3.11613297 3.32066655 -0.55913657 2 8 31682 4.58800000 1302991966 1302991966 -7.00000000
-10.17397308 10.84555531 2.35527730 60 9 31683 15.05600000 1302991968 1302991968 9.00000000
-4.33200741 4.61796236 -0.55396187 3 10 31683 6.35600000 1302991970 1302991970 -5.00000000
-7.11658287 7.59165668 -0.54534066 8 12 31685 10.42000000 1302991975 1302991975 -3.00000000
-7.61133194 8.12227345 2.56984091 56 13 31686 11.42400000 1302991977 1302991977 13.00000000
-19.37869453 20.68680382 -0.49477571 3 14 31687 28.35000000 1302991980 1302991980 -1.00000000
-6.55880356 7.00398827 2.57110834 40 15 31688 9.93400000 1302991982 1302991982 15.00000000
-1.43348360 1.53453588 -0.56267262 4 0 31695 2.17400000 1302992003 1302992003 -15.00000000
-56.72558212 60.74566269 1.45074868 51 1 31696 83.12600000 1302992005 1302992005 1.00000000
-1.66754866 1.78635085 -0.56417722 3 2 31697 2.50800000 1302992007 1302992007 -13.00000000
-33.39687347 35.78871155 2.56540394 55 3 31698 49.01800000 1302992010 1302992010 3.00000000
-1.97031236 2.11142325 -0.56136006 3 4 31698 2.94200000 1302992012 1302992012 -11.00000000
-17.00048828 18.22441483 2.18046236 7 5 31699 25.01800000 1302992014 1302992014 5.00000000
-2.42766094 2.60334778 -0.56378978 1 6 31700 3.60400000 1302992017 1302992017 -9.00000000
-14.50627708 15.56152153 2.61214757 50 7 31701 21.43400000 1302992019 1302992019 7.00000000
-3.10452271 3.33152366 -0.55913657 2 8 31702 4.58800000 1302992021 1302992021 -7.00000000
-10.10832500 10.84743977 2.34839416 67 9 31702 15.01200000 1302992023 1302992023 9.00000000
-4.29956484 4.61556149 -0.55187017 3 10 31703 6.33200000 1302992026 1302992026 -5.00000000
-7.84430408 8.42376900 2.23742628 3 11 31704 11.72600000 1302992028 1302992028 11.00000000
-7.06554461 7.59013796 -0.54345655 8 12 31705 10.38400000 1302992030 1302992030 -3.00000000
-7.58558846 8.15164566 2.57074070 56 13 31706 11.42800000 1302992033 1302992033 13.00000000
-6.52764654 7.01721287 2.56800246 42 15 31707 9.92200000 1302992037 1302992037 15.00000000
-1.43074596 1.54236293 -0.56370789 4 0 31715 2.17800000 1302992058 1302992058 -15.00000000
-56.71171188 61.15737915 1.45584488 79 1 31716 83.41800000 1302992060 1302992060 1.00000000
-1.66660225 1.79787743 -0.56597686 3 2 31717 2.51600000 1302992063 1302992063 -13.00000000
-33.17400360 35.79959106 2.55786753 33 3 31718 48.87400000 1302992065 1302992065 3.00000000
-1.96293008 2.11828804 -0.56136006 3 4 31718 2.94200000 1302992067 1302992067 -11.00000000
-16.90292168 18.24710464 2.17610455 7 5 31719 24.96800000 1302992070 1302992070 5.00000000
-2.42392755 2.61760354 -0.56504130 1 6 31720 3.61200000 1302992072 1302992072 -9.00000000
-14.43703556 15.59603882 2.60946631 45 7 31721 21.41200000 1302992074 1302992074 7.00000000
-3.10905337 3.35982418 -0.56206143 2 8 31722 4.61200000 1302992076 1302992076 -7.00000000
-10.03362274 10.84671402 2.34025955 67 9 31723 14.96000000 1302992079 1302992079 9.00000000
-4.28748608 4.63492918 -0.55239308 3 10 31723 6.33800000 1302992081 1302992081 -5.00000000
-8.92783165 9.65469360 2.55607724 12 11 31724 13.39600000 1302992083 1302992083 11.00000000
-7.02680540 7.60155535 -0.54251450 8 12 31725 10.36600000 1302992086 1302992086 -3.00000000
-7.55708790 8.17807484 2.57074070 56 13 31726 11.42800000 1302992088 1302992088 13.00000000
-6.50712585 7.04676771 2.57007313 40 15 31728 9.93000000 1302992093 1302992093 15.00000000
-1.42404449 1.54592693 -0.56319022 4 0 31735 2.17600000 1302992113 1302992113 -15.00000000
-56.71732712 61.59327316 1.46149945 81 1 31736 83.74200000 1302992116 1302992116 1.00000000
-1.64975786 1.79221380 -0.56237763 3 2 31737 2.50000000 1302992118 1302992118 -13.00000000
-32.91900635 35.77407837 2.54781914 33 3 31738 48.68200000 1302992120 1302992120 3.00000000
-1.96881783 2.13957381 -0.56517625 2 4 31738 2.96200000 1302992123 1302992123 -11.00000000
-17.69564819 19.23713303 2.28679228 65 5 31739 26.23800000 1302992125 1302992125 5.00000000
-2.40809011 2.61877823 -0.56347692 1 6 31740 3.60200000 1302992127 1302992127 -9.00000000
-12.73011780 13.84874916 2.30966783 19 7 31741 18.95200000 1302992129 1302992129 7.00000000
-3.08387494 3.35603929 -0.55962402 2 8 31742 4.59200000 1302992132 1302992132 -7.00000000
-9.96685696 10.84647274 2.33306360 67 9 31742 14.91400000 1302992134 1302992134 9.00000000
-4.29823780 4.67921305 -0.55587935 3 10 31743 6.37800000 1302992136 1302992136 -5.00000000
-8.91797829 9.71182728 2.56294632 43 11 31744 13.43200000 1302992139 1302992139 11.00000000
-7.01103306 7.63780785 -0.54335189 8 12 31745 10.38200000 1302992141 1302992141 -3.00000000
-7.51795435 8.19291687 2.56714153 59 13 31746 11.41200000 1302992143 1302992143 13.00000000
-6.48372221 7.06830740 2.57007313 42 15 31747 9.93000000 1302992148 1302992148 15.00000000
-1.43298233 1.56656826 -0.56888425 4 0 31755 2.19800000 1302992169 1302992169 -15.00000000
-56.69630051 62.00338364 1.46652567 83 1 31756 84.03000000 1302992171 1302992171 1.00000000
-1.64612138 1.80083835 -0.56327742 3 2 31757 2.50400000 1302992173 1302992173 -13.00000000
-32.00173569 35.02181244 2.48627186 10 3 31758 47.50600000 1302992176 1302992176 3.00000000
-1.96133733 2.14643335 -0.56517625 3 4 31758 2.96200000 1302992178 1302992178 -11.00000000
-17.59210968 19.25906563 2.28208590 73 5 31759 26.18400000 1302992180 1302992180 5.00000000
-2.39760208 2.62570953 -0.56316406 1 6 31760 3.60000000 1302992182 1302992182 -9.00000000
-12.69106674 13.90336418 2.31137395 48 7 31761 18.96600000 1302992185 1302992185 7.00000000
-3.07214141 3.36678362 -0.55962402 2 8 31762 4.59200000 1302992187 1302992187 -7.00000000
-9.89298534 10.84179878 2.32461619 63 9 31762 14.86000000 1302992189 1302992189 9.00000000
-4.29530478 4.70890808 -0.55762243 3 10 31763 6.39800000 1302992192 1302992192 -5.00000000
-8.87608624 9.73419380 2.56065679 46 11 31764 13.42000000 1302992194 1302992194 11.00000000
-6.99778414 7.67699480 -0.54439861 8 12 31765 10.40200000 1302992196 1302992196 -3.00000000
-7.48668480 8.21622849 2.56624174 57 13 31766 11.40800000 1302992199 1302992199 13.00000000
-6.45900965 7.09089661 2.57007313 42 15 31767 9.93000000 1302992203 1302992203 15.00000000
-1.41451621 1.55726087 -0.56370789 4 0 31775 2.17800000 1302992224 1302992224 -15.00000000
-55.23876190 60.83446503 1.43430853 70 1 31776 82.18400000 1302992226 1302992226 1.00000000
-1.64768386 1.81523120 -0.56597686 3 2 31777 2.51600000 1302992229 1302992229 -13.00000000
-32.44969177 35.76192856 2.53075743 44 3 31778 48.35600000 1302992231 1302992231 3.00000000
-1.93536317 2.13291144 -0.55983359 2 4 31778 2.93400000 1302992233 1302992233 -11.00000000
-17.47658539 19.26723099 2.27581072 72 5 31779 26.11200000 1302992235 1302992235 5.00000000
-2.39771056 2.64430618 -0.56535417 1 6 31780 3.61400000 1302992238 1302992238 -9.00000000
-12.64245796 13.94757938 2.31137395 44 7 31781 18.96600000 1302992240 1302992240 7.00000000
-3.07369971 3.39219713 -0.56206143 2 8 31782 4.61200000 1302992242 1302992242 -7.00000000
-9.81604958 10.83699226 2.31585574 63 9 31783 14.80400000 1302992245 1302992245 9.00000000
-4.27750397 4.72239637 -0.55744815 3 10 31783 6.39600000 1302992247 1302992247 -5.00000000
-8.85391331 9.77821541 2.56409121 50 11 31784 13.43800000 1302992249 1302992249 11.00000000
-6.99506950 7.72802830 -0.54628271 4 12 31785 10.43800000 1302992252 1302992252 -3.00000000
-7.45534420 8.23942184 2.56534171 57 13 31786 11.40400000 1302992254 1302992254 13.00000000
-6.43292284 7.11196709 2.56955552 40 15 31787 9.92800000 1302992258 1302992258 15.00000000
-1.41165948 1.56505799 -0.56474316 4 0 31795 2.18200000 1302992279 1302992279 -15.00000000
-54.85466766 60.83681488 1.42984080 69 1 31796 81.92800000 1302992282 1302992282 1.00000000
-1.64133751 1.82097161 -0.56597686 3 2 31797 2.51600000 1302992284 1302992284 -13.00000000
-32.22171783 35.76073074 2.52269769 33 3 31798 48.20200000 1302992286 1302992286 3.00000000
-1.93316293 2.14548826 -0.56136006 3 4 31798 2.94200000 1302992288 1302992288 -11.00000000
-17.37455559 19.28962708 2.27127862 72 5 31799 26.06000000 1302992291 1302992291 5.00000000
-2.38714361 2.65119171 -0.56504130 1 6 31800 3.61200000 1302992293 1302992293 -9.00000000
-12.58572674 13.98277187 2.30991149 46 7 31801 18.95400000 1302992295 1302992295 7.00000000
-3.05520105 3.39552736 -0.56084269 4 8 31802 4.60200000 1302992298 1302992298 -7.00000000
-9.74381542 10.83300495 2.30772114 67 9 31803 14.75200000 1302992300 1302992300 9.00000000
-4.25699663 4.73285484 -0.55692518 7 10 31803 6.39000000 1302992302 1302992302 -5.00000000
-8.81447601 9.80322266 2.56256485 53 11 31804 13.43000000 1302992305 1302992305 11.00000000
-6.99475336 7.78210735 -0.54837614 4 12 31805 10.47800000 1302992307 1302992307 -3.00000000
-7.42393303 8.26249695 2.56444192 47 13 31806 11.40000000 1302992309 1302992309 13.00000000
-6.40164995 7.12974739 2.56748486 40 15 31808 9.92000000 1302992314 1302992314 15.00000000
-1.40232122 1.56565905 -0.56319022 4 0 31815 2.17600000 1302992335 1302992335 -15.00000000
-54.43521881 60.79700470 1.42443049 67 1 31816 81.61800000 1302992337 1302992337 1.00000000
-1.62717319 1.81797743 -0.56327742 3 2 31817 2.50400000 1302992339 1302992339 -13.00000000
-31.99015045 35.75391006 2.51432395 44 3 31818 48.04200000 1302992341 1302992341 3.00000000
-1.92566192 2.15222335 -0.56136006 3 4 31818 2.94200000 1302992344 1302992344 -11.00000000
-17.28586388 19.32639694 2.26848960 72 5 31819 26.02800000 1302992346 1302992346 5.00000000
-2.37129140 2.65214515 -0.56347692 1 6 31820 3.60200000 1302992348 1302992348 -9.00000000
-12.52493477 14.01329899 2.30771780 55 7 31821 18.93600000 1302992351 1302992351 7.00000000
-3.06845951 3.43429708 -0.56547374 2 8 31822 4.64000000 1302992353 1302992353 -7.00000000
-9.69146729 10.85074520 2.30427957 71 9 31823 14.73000000 1302992355 1302992355 9.00000000
-4.24708605 4.75511551 -0.55779678 7 10 31823 6.40000000 1302992358 1302992358 -5.00000000
-8.77497292 9.82807255 2.56103826 50 11 31824 13.42200000 1302992360 1302992360 11.00000000
-6.96754599 7.80647612 -0.54837614 4 12 31825 10.47800000 1302992362 1302992362 -3.00000000
-7.38207245 8.27381992 2.55994296 15 13 31826 11.38000000 1302992364 1302992364 13.00000000
-6.37797165 7.15093660 2.56748486 40 15 31827 9.92000000 1302992369 1302992369 15.00000000
-1.39941514 1.57343149 -0.56422549 4 0 31835 2.18000000 1302992390 1302992390 -15.00000000
-54.05259323 60.79536057 1.41996264 65 1 31836 81.36200000 1302992392 1302992392 1.00000000
-1.62340641 1.82655942 -0.56417722 3 2 31837 2.50800000 1302992394 1302992394 -13.00000000
-31.77361870 35.76233673 2.50710154 32 3 31838 47.90400000 1302992397 1302992397 3.00000000
-1.93639314 2.17947912 -0.56670272 3 4 31838 2.97000000 1302992399 1302992399 -11.00000000
-17.21697426 19.38512802 2.26831532 72 5 31839 26.02600000 1302992401 1302992401 5.00000000
-2.37382293 2.67370105 -0.56629276 1 6 31840 3.62000000 1302992404 1302992404 -9.00000000
-12.45354176 14.03169441 2.30357432 46 7 31841 18.90200000 1302992406 1302992406 7.00000000
-3.03800869 3.42419839 -0.56206143 2 8 31842 4.61200000 1302992408 1302992408 -7.00000000
-9.62469578 10.85199547 2.29739666 63 9 31843 14.68600000 1302992411 1302992411 9.00000000
-4.24235964 4.78332710 -0.55936557 7 10 31843 6.41800000 1302992413 1302992413 -5.00000000
-8.73800850 9.85570526 2.56027508 53 11 31844 13.41800000 1302992415 1302992415 11.00000000
-6.94952726 7.84121275 -0.54910886 4 12 31845 10.49200000 1302992417 1302992417 -3.00000000
-6.31026602 7.12243271 2.19687200 15 13 31846 9.76600000 1302992420 1302992420 13.00000000
-6.35425234 7.17460251 2.56800246 40 15 31847 9.92200000 1302992424 1302992424 15.00000000
-1.40442240 1.58964562 -0.56836665 4 0 31854 2.19600000 1302992445 1302992445 -15.00000000
-53.69052124 60.79291153 1.41573918 21 1 31855 81.12000000 1302992447 1302992447 1.00000000
-1.61734045 1.83193290 -0.56417722 3 2 31856 2.50800000 1302992450 1302992450 -13.00000000
-31.55404091 35.74070358 2.49862313 10 3 31856 47.74200000 1302992452 1302992452 3.00000000
-1.92655683 2.18294454 -0.56593949 2 4 31857 2.96600000 1302992454 1302992454 -11.00000000
-17.14468765 19.43315125 2.26726937 56 5 31858 26.01400000 1302992457 1302992457 5.00000000
-2.36233044 2.67859530 -0.56566703 1 6 31859 3.61600000 1302992459 1302992459 -9.00000000
-12.40563011 14.07142544 2.30333066 48 7 31860 18.90000000 1302992461 1302992461 7.00000000
-3.03188705 3.44021106 -0.56303638 2 8 31861 4.62000000 1302992463 1302992463 -7.00000000
-9.56312847 10.85105705 2.29082632 61 9 31861 14.64400000 1302992466 1302992466 9.00000000
-4.23569393 4.80783367 -0.56058574 3 10 31862 6.43200000 1302992468 1302992468 -5.00000000
-8.70527744 9.88462734 2.56027508 53 11 31863 13.41800000 1302992470 1302992470 11.00000000
-6.89049244 7.82673788 -0.54649204 4 12 31864 10.44200000 1302992473 1302992473 -3.00000000
-6.26086378 7.11406136 2.18787384 16 13 31865 9.72600000 1302992475 1302992475 13.00000000
-6.33170176 7.19708490 2.56852031 40 15 31866 9.92400000 1302992480 1302992480 15.00000000
-1.39249492 1.58727717 -0.56577843 4 0 31874 2.18600000 1302992500 1302992500 -15.00000000
-53.38832855 60.87771988 1.41336572 21 1 31875 80.98400000 1302992503 1302992503 1.00000000
-1.60836673 1.83463657 -0.56327742 3 2 31876 2.50400000 1302992505 1302992505 -13.00000000
-28.06874847 32.02882004 2.23191929 9 3 31877 42.64600000 1302992507 1302992507 3.00000000
-1.91116154 2.18079710 -0.56364977 3 4 31877 2.95400000 1302992510 1302992510 -11.00000000
-17.06624603 19.48089027 2.26587510 56 5 31878 25.99800000 1302992512 1302992512 5.00000000
-2.34776020 2.68088055 -0.56441557 1 6 31879 3.60800000 1302992514 1302992514 -9.00000000
-12.34205341 14.09821320 2.30064940 46 7 31880 18.87800000 1302992516 1302992516 7.00000000
-3.03293300 3.46571159 -0.56547374 2 8 31881 4.64000000 1302992519 1302992519 -7.00000000
-9.49597931 10.85481262 2.28425598 58 9 31882 14.60200000 1302992521 1302992521 9.00000000
-4.21626186 4.81959057 -0.56023711 7 10 31882 6.42800000 1302992523 1302992523 -5.00000000
-8.67330551 9.91791058 2.56103826 53 11 31883 13.42200000 1302992526 1302992526 11.00000000
-6.90519476 7.89886045 -0.54984158 4 12 31884 10.50600000 1302992528 1302992528 -3.00000000
-6.28876114 7.20132732 2.56179094 40 15 31887 9.89800000 1302992535 1302992535 15.00000000
-1.37933218 1.58338821 -0.56267262 4 0 31894 2.17400000 1302992556 1302992556 -15.00000000
-1.61218894 1.85199833 -0.56687665 4 2 31896 2.52000000 1302992560 1302992560 -13.00000000
-27.88632202 32.03434753 2.22584820 9 3 31896 42.53000000 1302992563 1302992563 3.00000000
-1.90869260 2.19337916 -0.56517625 3 4 31897 2.96200000 1302992565 1302992565 -11.00000000
-16.95891190 19.49524689 2.26064563 32 5 31898 25.93800000 1302992567 1302992567 5.00000000
-2.33709168 2.68756890 -0.56410271 1 6 31899 3.60600000 1302992569 1302992569 -9.00000000
-12.28364944 14.13072205 2.29894328 48 7 31900 18.86400000 1302992572 1302992572 7.00000000
-3.01300430 3.46728706 -0.56401134 2 8 31901 4.62800000 1302992574 1302992574 -7.00000000
-9.44507694 10.87298107 2.28112745 58 9 31902 14.58200000 1302992576 1302992576 9.00000000
-4.20986557 4.84631205 -0.56163162 7 10 31902 6.44400000 1302992579 1302992579 -5.00000000
-8.63090897 9.93923092 2.55874872 53 11 31903 13.41000000 1302992581 1302992581 11.00000000
-6.89591026 7.94403172 -0.55130696 4 12 31904 10.53400000 1302992583 1302992583 -3.00000000
-6.17145252 7.11196947 2.17392707 22 13 31905 9.66400000 1302992586 1302992586 13.00000000
-6.06610298 6.99302959 2.48052168 47 15 31906 9.58400000 1302992590 1302992590 15.00000000
-1.37885201 1.59403765 -0.56474316 4 0 31914 2.18200000 1302992611 1302992611 -15.00000000
-1.60316563 1.85466599 -0.56597686 4 2 31916 2.51600000 1302992615 1302992615 -13.00000000
-30.89069939 35.73675156 2.47559547 10 3 31916 47.30200000 1302992618 1302992618 3.00000000
-1.89332306 2.19111538 -0.56288654 2 4 31917 2.95000000 1302992620 1302992620 -11.00000000
-16.86080170 19.51964760 2.25663638 24 5 31918 25.89200000 1302992622 1302992622 5.00000000
-2.32382298 2.69122505 -0.56316406 1 6 31919 3.60000000 1302992625 1302992625 -9.00000000
-12.22257519 14.15998936 2.29674959 44 7 31920 18.84600000 1302992627 1302992627 7.00000000
-3.01125765 3.48980665 -0.56596124 2 8 31921 4.64400000 1302992629 1302992629 -7.00000000
-9.40190411 10.89990044 2.27987599 54 9 31922 14.57400000 1302992632 1302992632 9.00000000
-4.19942999 4.86852074 -0.56250316 3 10 31922 6.45400000 1302992634 1302992634 -5.00000000
-8.58718777 9.95888996 2.55607724 50 11 31923 13.39600000 1302992636 1302992636 11.00000000
-6.89421844 7.99831104 -0.55340040 4 12 31924 10.57400000 1302992639 1302992639 -3.00000000
-6.14404535 7.13051605 2.17302728 19 13 31925 9.66000000 1302992641 1302992641 13.00000000
-6.24590206 7.25128508 2.56437922 40 15 31926 9.90800000 1302992645 1302992645 15.00000000
-1.37579691 1.60177207 -0.56577843 4 0 31934 2.18600000 1302992666 1302992666 -15.00000000
-1.59160507 1.85433590 -0.56417722 4 2 31936 2.50800000 1302992671 1302992671 -13.00000000
