# .PCD v0.7 - Point Cloud Data file format
VERSION 0.7
FIELDS x y z intensity laser_id azimuth distance_m adjustedtime timestamp vertical_angle
SIZE 4 4 4 1 1 2 8 8 4 8
TYPE F F F U U U F U U F
COUNT 1 1 1 1 1 1 1 1 1 1
WIDTH 521
HEIGHT 1
VIEWPOINT 0 0 0 1 0 0 0
POINTS 521
DATA ascii
-1.80136657 2.30730367 -0.56899244 3 4 32202 2.98200000 1303093425 1303093425 -11.00000000
-17.77432060 22.77466202 2.52751660 63 5 32203 29.00000000 1303093427 1303093427 5.00000000
-2.22480464 2.85172153 -0.57286298 1 6 32204 3.66200000 1303093429 1303093429 -9.00000000
-9.67467594 12.40531921 1.93162906 12 7 32205 15.85000000 1303093432 1303093432 7.00000000
-2.85842514 3.66652536 -0.57083601 2 8 32206 4.68400000 1303093434 1303093434 -7.00000000
-8.76331902 11.24482727 2.25797510 54 9 32207 14.43400000 1303093436 1303093436 9.00000000
-4.02319956 5.16244888 -0.57261324 8 10 32207 6.57000000 1303093439 1303093439 -5.00000000
-8.03434181 10.31313801 2.54119420 50 11 32208 13.31800000 1303093441 1303093441 11.00000000
-6.62790060 8.51084805 -0.56533301 4 12 32209 10.80200000 1303093443 1303093443 -3.00000000
-6.77548552 8.70349407 2.54644585 57 13 32210 11.32000000 1303093446 1303093446 13.00000000
-20.23184967 25.99831390 -0.57502186 4 14 32211 32.94800000 1303093448 1303093448 -1.00000000
-5.87051392 7.54372311 2.56127334 40 15 32211 9.89600000 1303093450 1303093450 15.00000000
-1.29326856 1.66667116 -0.56526077 3 0 32219 2.18400000 1303093471 1303093471 -15.00000000
-26.08870506 33.63335419 0.74298382 10 1 32220 42.57200000 1303093473 1303093473 1.00000000
-1.52251291 1.96351945 -0.57362521 4 2 32221 2.55000000 1303093475 1303093475 -13.00000000
-27.51356697 35.48306274 2.35312915 41 3 32221 44.96200000 1303093478 1303093478 3.00000000
-1.80051804 2.32288766 -0.57128215 2 4 32222 2.99400000 1303093480 1303093480 -11.00000000
-17.66420555 22.79719353 2.52315879 54 5 32223 28.95000000 1303093482 1303093482 5.00000000
-2.20032120 2.84072995 -0.56910861 1 6 32224 3.63800000 1303093485 1303093485 -9.00000000
-9.67141914 12.49081135 1.93967247 15 7 32225 15.91600000 1303093487 1303093487 7.00000000
-2.85289955 3.68589950 -0.57229841 2 8 32226 4.69600000 1303093489 1303093489 -7.00000000
-8.72280502 11.27378654 2.25766230 50 9 32227 14.43200000 1303093492 1303093492 9.00000000
-3.99783945 5.16700649 -0.57156736 8 10 32227 6.55800000 1303093494 1303093494 -5.00000000
-7.98988533 10.33024883 2.53852296 50 11 32228 13.30400000 1303093496 1303093496 11.00000000
-6.62991476 8.57501411 -0.56805450 4 12 32229 10.85400000 1303093499 1303093499 -3.00000000
-6.74744654 8.73017597 2.54734564 55 13 32230 11.32400000 1303093501 1303093501 13.00000000
-5.84060240 7.55958319 2.55972028 40 15 32231 9.89000000 1303093505 1303093505 15.00000000
-1.29215884 1.67729688 -0.56733137 4 0 32239 2.19200000 1303093526 1303093526 -15.00000000
-25.90281868 33.63549423 0.74102920 10 1 32240 42.46000000 1303093528 1303093528 1.00000000
-1.51089478 1.96264529 -0.57182556 4 2 32241 2.54200000 1303093531 1303093531 -13.00000000
-27.41743660 35.62798691 2.35606003 61 3 32242 45.01800000 1303093533 1303093533 3.00000000
-1.79000401 2.32604671 -0.57051891 2 4 32242 2.99000000 1303093535 1303093535 -11.00000000
-17.57115746 22.84134293 2.52124143 54 5 32243 28.92800000 1303093538 1303093538 5.00000000
-2.19520855 2.85465670 -0.57036006 1 6 32244 3.64600000 1303093540 1303093540 -9.00000000
-9.65679550 12.56226635 1.94552219 15 7 32245 15.96400000 1303093542 1303093542 7.00000000
-2.83759689 3.69268751 -0.57181096 2 8 32246 4.69200000 1303093545 1303093545 -7.00000000
-8.68537235 11.30265045 2.25766230 50 9 32246 14.43200000 1303093547 1303093547 9.00000000
-3.98827505 5.19198990 -0.57278752 4 10 32247 6.57200000 1303093549 1303093549 -5.00000000
-7.94540739 10.34717655 2.53585148 50 11 32248 13.29000000 1303093552 1303093552 11.00000000
-6.60602283 8.60602570 -0.56857783 4 12 32249 10.86400000 1303093554 1303093554 -3.00000000
-6.71930408 8.75676727 2.54824543 57 13 32250 11.32800000 1303093556 1303093556 13.00000000
-5.81285572 7.58093929 2.55972028 42 15 32252 9.89000000 1303093561 1303093561 15.00000000
-1.29333794 1.69100404 -0.57043719 4 0 32259 2.20400000 1303093581 1303093581 -15.00000000
-1.49456787 1.95552087 -0.56822634 4 2 32261 2.52600000 1303093586 1303093586 -13.00000000
-27.21181679 35.60445786 2.34852362 61 3 32261 44.87400000 1303093588 1303093588 3.00000000
-1.78902507 2.34164119 -0.57280862 2 4 32262 3.00200000 1303093591 1303093591 -11.00000000
-17.48769188 22.89778900 2.52071834 36 5 32263 28.92200000 1303093593 1303093593 5.00000000
-2.19242263 2.87172270 -0.57223725 1 6 32264 3.65800000 1303093595 1303093595 -9.00000000
-9.64540291 12.63850594 1.95210314 17 7 32265 16.01800000 1303093598 1303093598 7.00000000
-2.83432198 3.71519589 -0.57376087 2 8 32266 4.70800000 1303093600 1303093600 -7.00000000
-8.64268970 11.33283710 2.25734925 54 9 32267 14.43000000 1303093602 1303093602 9.00000000
-3.98462558 5.22489119 -0.57487929 4 10 32267 6.59600000 1303093605 1303093605 -5.00000000
-7.90328932 10.36704159 2.53394341 46 11 32268 13.28000000 1303093607 1303093607 11.00000000
-6.58804750 8.64491844 -0.56962454 4 12 32269 10.88400000 1303093609 1303093609 -3.00000000
-6.68397284 8.77396870 2.54644585 59 13 32270 11.32000000 1303093611 1303093611 13.00000000
-20.32194519 26.68602753 -0.58549333 4 14 32271 33.54800000 1303093614 1303093614 -1.00000000
-5.78752804 7.60272074 2.56023788 40 15 32272 9.89200000 1303093616 1303093616 15.00000000
-1.29006028 1.69836032 -0.57147247 4 0 32278 2.20800000 1303093637 1303093637 -15.00000000
-27.58878899 36.33371735 0.79631841 11 1 32279 45.62800000 1303093639 1303093639 1.00000000
-1.50221336 1.97909296 -0.57362521 4 2 32280 2.55000000 1303093641 1303093641 -13.00000000
-27.01873207 35.59586334 2.34203410 50 3 32280 44.75000000 1303093644 1303093644 3.00000000
-1.77650321 2.34130502 -0.57128215 2 4 32281 2.99400000 1303093646 1303093646 -11.00000000
-17.38998985 22.92708015 2.51758075 54 5 32282 28.88600000 1303093648 1303093648 5.00000000
-2.19004869 2.88842177 -0.57411450 1 6 32283 3.67000000 1303093651 1303093651 -9.00000000
-9.64540672 12.72579193 1.96063399 15 7 32284 16.08800000 1303093653 1303093653 7.00000000
-2.80999827 3.70875216 -0.57132345 2 8 32285 4.68800000 1303093655 1303093655 -7.00000000
-8.60346508 11.35520935 2.25641084 47 9 32285 14.42400000 1303093658 1303093658 9.00000000
-3.96848035 5.23966408 -0.57505357 4 10 32286 6.59800000 1303093660 1303093660 -5.00000000
-7.86886787 10.39319229 2.53394341 43 11 32287 13.28000000 1303093662 1303093662 11.00000000
-6.55813837 8.66512489 -0.56951988 4 12 32288 10.88200000 1303093664 1303093664 -3.00000000
-6.65013742 8.78986835 2.54464626 56 13 32289 11.31200000 1303093667 1303093667 13.00000000
-20.42874908 27.01164818 -0.59114790 4 14 32290 33.87200000 1303093669 1303093669 -1.00000000
-5.76345015 7.62341213 2.56075573 40 15 32291 9.89400000 1303093671 1303093671 15.00000000
-1.27830827 1.69514096 -0.56888425 4 0 32298 2.19800000 1303093692 1303093692 -15.00000000
-1.49060476 1.97809935 -0.57182556 4 2 32300 2.54200000 1303093697 1303093697 -13.00000000
-24.05643845 31.92397118 2.09490371 18 3 32300 40.02800000 1303093699 1303093699 3.00000000
-1.76123226 2.33808303 -0.56899244 3 4 32301 2.98200000 1303093701 1303093701 -11.00000000
-17.30146408 22.97650146 2.51636052 63 5 32302 28.87200000 1303093704 1303093704 5.00000000
-2.16807294 2.88026643 -0.57098579 1 6 32303 3.65000000 1303093706 1303093706 -9.00000000
-9.64389420 12.81648636 1.96940863 17 7 32304 16.16000000 1303093708 1303093708 7.00000000
-2.81016135 3.73598886 -0.57400459 2 8 32305 4.71000000 1303093711 1303093711 -7.00000000
-8.55665112 11.37570000 2.25453353 47 9 32305 14.41200000 1303093713 1303093713 9.00000000
-3.93819237 5.23756027 -0.57331049 4 10 32306 6.57800000 1303093715 1303093715 -5.00000000
-7.83489990 10.42373562 2.53470659 50 11 32307 13.28400000 1303093717 1303093717 11.00000000
-6.53864956 8.70233536 -0.57046193 4 12 32308 10.90000000 1303093720 1303093720 -3.00000000
-6.62409592 8.81926155 2.54644585 56 13 32309 11.32000000 1303093722 1303093722 13.00000000
-20.47961617 27.27628708 -0.59537137 8 14 32310 34.11400000 1303093724 1303093724 -1.00000000
-5.73448467 7.64039373 2.55972028 40 15 32311 9.89000000 1303093727 1303093727 15.00000000
-1.26716113 1.69384921 -0.56681371 4 0 32320 2.19000000 1303093747 1303093747 -15.00000000
-20.47271919 27.37640953 0.59669775 7 1 32321 34.19000000 1303093750 1303093750 1.00000000
-1.48533201 1.98692989 -0.57272536 4 2 32322 2.54600000 1303093752 1303093752 -13.00000000
-20.46692085 27.37861824 1.79145980 6 3 32322 34.23000000 1303093754 1303093754 3.00000000
-1.76869464 2.36684561 -0.57433510 2 4 32323 3.01000000 1303093757 1303093757 -11.00000000
-17.20119095 23.02680397 2.51461744 63 5 32324 28.85200000 1303093759 1303093759 5.00000000
-2.16054320 2.89331841 -0.57192439 1 6 32325 3.65600000 1303093761 1303093761 -9.00000000
-9.63735962 12.91068935 1.97818315 14 7 32326 16.23200000 1303093763 1303093763 7.00000000
-2.79816985 3.74993348 -0.57449210 2 8 32327 4.71400000 1303093766 1303093766 -7.00000000
-8.50582027 11.39897251 2.25265622 47 9 32327 14.40000000 1303093768 1303093768 9.00000000
-3.92520022 5.26222563 -0.57435632 4 10 32328 6.59000000 1303093770 1303093770 -5.00000000
-7.79012394 10.44744682 2.53318024 46 11 32329 13.27600000 1303093773 1303093773 11.00000000
-6.51831627 8.74499226 -0.57161331 4 12 32330 10.92200000 1303093775 1303093775 -3.00000000
-6.58901930 8.84306812 2.54599595 53 13 32331 11.31800000 1303093777 1303093777 13.00000000
-20.34009171 27.30821419 -0.59435916 12 14 32332 34.05600000 1303093780 1303093780 -1.00000000
-5.69721127 7.64896584 2.55557919 42 15 32332 9.87400000 1303093782 1303093782 15.00000000
-1.27506256 1.71687317 -0.57302535 4 0 32340 2.21400000 1303093803 1303093803 -15.00000000
-20.30908966 27.35618591 0.59470820 14 1 32341 34.07600000 1303093805 1303093805 1.00000000
-1.48071003 1.99523234 -0.57362521 4 2 32342 2.55000000 1303093807 1303093807 -13.00000000
-20.32480812 27.38734436 1.78737760 6 3 32342 34.15200000 1303093810 1303093810 3.00000000
-1.75106430 2.36039114 -0.57128215 2 4 32343 2.99400000 1303093812 1303093812 -11.00000000
-17.10646439 23.06750107 2.51252580 63 5 32344 28.82800000 1303093814 1303093814 5.00000000
-2.14337230 2.89132118 -0.57004720 1 6 32345 3.64400000 1303093816 1303093816 -9.00000000
-9.63241863 12.99847889 1.98647034 15 7 32346 16.30000000 1303093819 1303093819 7.00000000
-2.79097104 3.76765370 -0.57571077 2 8 32347 4.72400000 1303093821 1303093821 -7.00000000
-8.47773647 11.44446659 2.25578499 43 9 32347 14.42000000 1303093823 1303093823 9.00000000
-3.91273618 5.28390074 -0.57522792 8 10 32348 6.60000000 1303093826 1303093826 -5.00000000
-7.74893570 10.46826363 2.53165364 46 11 32349 13.26800000 1303093828 1303093828 11.00000000
-6.50438309 8.79016972 -0.57307869 4 12 32350 10.95000000 1303093830 1303093830 -3.00000000
-6.56274652 8.87228107 2.54779553 54 13 32351 11.32600000 1303093833 1303093833 13.00000000
-20.21016502 27.33242035 -0.59334689 8 14 32352 33.99800000 1303093835 1303093835 -1.00000000
-5.67373133 7.67600965 2.55764985 42 15 32353 9.88200000 1303093837 1303093837 15.00000000
-1.26966250 1.72087038 -0.57302535 4 0 32358 2.21400000 1303093858 1303093858 -15.00000000
-20.16726112 27.34421539 0.59306765 14 1 32359 33.98200000 1303093860 1303093860 1.00000000
-1.46633959 1.98889458 -0.57047588 4 2 32360 2.53600000 1303093863 1303093863 -13.00000000
-20.18292427 27.38545799 1.78287673 6 3 32361 34.06600000 1303093865 1303093865 3.00000000
-1.75528789 2.38168478 -0.57509834 4 4 32361 3.01400000 1303093867 1303093867 -11.00000000
-17.03509331 23.12273407 2.51270008 45 5 32362 28.83000000 1303093869 1303093869 5.00000000
-2.15302062 2.92348981 -0.57505310 1 6 32363 3.67600000 1303093872 1303093872 -9.00000000
-9.64096451 13.09581757 1.99670732 15 7 32364 16.38400000 1303093874 1303093874 7.00000000
-2.78147411 3.77960062 -0.57619828 2 8 32365 4.72800000 1303093876 1303093876 -7.00000000
-8.43939972 11.46786118 2.25515914 47 9 32365 14.41600000 1303093879 1303093879 9.00000000
-3.90202022 5.30419159 -0.57609946 4 10 32366 6.61000000 1303093881 1303093881 -5.00000000
-7.72066307 10.49888229 2.53318024 46 11 32367 13.27600000 1303093883 1303093883 11.00000000
-6.46963835 8.80090523 -0.57245070 4 12 32368 10.93800000 1303093886 1303093886 -3.00000000
-6.53599501 8.89442539 2.54824543 55 13 32369 11.32800000 1303093888 1303093888 13.00000000
-20.06855774 27.32003021 -0.59170640 12 14 32370 33.90400000 1303093890 1303093890 -1.00000000
-5.64864349 7.68969631 2.55661464 42 15 32370 9.87800000 1303093893 1303093893 15.00000000
-1.26136482 1.72217476 -0.57199007 4 0 32378 2.21000000 1303093913 1303093913 -15.00000000
-20.01262474 27.33377266 0.59132242 14 1 32379 33.88200000 1303093916 1303093916 1.00000000
-1.46514273 2.00186372 -0.57272536 4 2 32380 2.54600000 1303093918 1303093918 -13.00000000
-20.01055336 27.35096741 1.77607298 6 3 32381 33.93600000 1303093920 1303093920 3.00000000
-1.74000823 2.37829041 -0.57280862 2 4 32381 3.00200000 1303093922 1303093922 -11.00000000
-16.96250916 23.19331360 2.51392031 36 5 32382 28.84400000 1303093925 1303093925 5.00000000
-2.12648106 2.90866208 -0.57067293 1 6 32383 3.64800000 1303093927 1303093927 -9.00000000
-9.65024281 13.20471764 2.00816298 8 7 32384 16.47800000 1303093929 1303093929 7.00000000
-2.76123786 3.77966928 -0.57473582 2 8 32385 4.71600000 1303093932 1303093932 -7.00000000
-8.39498138 11.49552631 2.25453353 43 9 32386 14.41200000 1303093934 1303093934 9.00000000
-3.91403222 5.35961390 -0.58063155 4 10 32386 6.66200000 1303093936 1303093936 -5.00000000
-7.68512535 10.52735424 2.53356194 50 11 32387 13.27800000 1303093939 1303093939 11.00000000
-6.47184372 8.86860847 -0.57538152 4 12 32388 10.99400000 1303093941 1303093941 -3.00000000
-6.49572039 8.90459061 2.54464626 57 13 32389 11.31200000 1303093943 1303093943 13.00000000
-19.91887283 27.31559372 -0.59010077 12 14 32390 33.81200000 1303093946 1303093946 -1.00000000
-5.62383556 7.71503162 2.55816746 40 15 32391 9.88400000 1303093948 1303093948 15.00000000
-1.25618005 1.72834909 -0.57250774 4 0 32399 2.21200000 1303093969 1303093969 -15.00000000
-19.87704468 27.35840607 0.59027529 14 1 32400 33.82200000 1303093971 1303093971 1.00000000
-1.45779574 2.00722027 -0.57272536 4 2 32401 2.54600000 1303093973 1303093973 -13.00000000
-19.86323547 27.35947800 1.77188611 6 3 32402 33.85600000 1303093975 1303093975 3.00000000
-1.73127961 2.38465190 -0.57280862 4 4 32402 3.00200000 1303093978 1303093978 -11.00000000
-16.86685562 23.24081612 2.51235151 36 5 32403 28.82600000 1303093980 1303093980 5.00000000
-2.13668561 2.94521713 -0.57630455 1 6 32404 3.68400000 1303093982 1303093982 -9.00000000
-11.80206680 16.27399826 2.46834159 52 7 32405 20.25400000 1303093985 1303093985 7.00000000
-2.75901747 3.80583644 -0.57717323 2 8 32406 4.73600000 1303093987 1303093987 -7.00000000
-8.34088993 11.50556755 2.25077915 43 9 32406 14.38800000 1303093989 1303093989 9.00000000
-3.89085460 5.36908388 -0.58010864 4 10 32407 6.65600000 1303093992 1303093992 -5.00000000
-7.65109634 10.56181145 2.53508830 50 11 32408 13.28600000 1303093994 1303093994 11.00000000
-6.44632339 8.90197563 -0.57600951 4 12 32409 11.00600000 1303093996 1303093996 -3.00000000
-6.46532488 8.93149662 2.54554605 57 13 32410 11.31600000 1303093999 1303093999 13.00000000
-19.76352501 27.31227303 -0.58846027 8 14 32411 33.71800000 1303094001 1303094001 -1.00000000
-5.59573793 7.73305035 2.55764985 42 15 32411 9.88200000 1303094003 1303094003 15.00000000
-1.24448776 1.72489011 -0.56991953 4 0 32419 2.20200000 1303094024 1303094024 -15.00000000
-19.72995758 27.35626030 0.58873945 14 1 32420 33.73400000 1303094026 1303094026 1.00000000
-1.45419931 2.01703906 -0.57407510 4 2 32421 2.55200000 1303094028 1303094028 -13.00000000
-19.71156120 27.35087204 1.76686192 6 3 32422 33.76000000 1303094031 1303094031 3.00000000
-1.72753656 2.39705157 -0.57433510 4 4 32422 3.01000000 1303094033 1303094033 -11.00000000
-16.76466370 23.27045250 2.50921392 36 5 32423 28.79000000 1303094035 1303094035 5.00000000
-2.11715674 2.93983388 -0.57380164 1 6 32424 3.66800000 1303094038 1303094038 -9.00000000
-11.79853916 16.38920403 2.47955370 54 7 32425 20.34600000 1303094040 1303094040 7.00000000
-2.74571562 3.81544399 -0.57717323 2 8 32426 4.73600000 1303094042 1303094042 -7.00000000
-8.29866409 11.53606129 2.25077915 43 9 32427 14.38800000 1303094045 1303094045 9.00000000
-3.84998298 5.35190248 -0.57679671 4 10 32427 6.61800000 1303094047 1303094047 -5.00000000
-7.60615873 10.57729626 2.53241706 50 11 32428 13.27200000 1303094049 1303094049 11.00000000
-6.43619442 8.95361423 -0.57789361 4 12 32429 11.04200000 1303094051 1303094051 -3.00000000
-6.43638325 8.95717525 2.54644585 60 13 32430 11.32000000 1303094054 1303094054 13.00000000
-19.68440056 27.40383339 -0.58894891 8 14 32431 33.74600000 1303094056 1303094056 -1.00000000
-5.56285048 7.74723101 2.55557919 42 15 32432 9.87400000 1303094058 1303094058 15.00000000
-1.24070883 1.73236489 -0.57095480 4 0 32439 2.20600000 1303094079 1303094079 -15.00000000
-19.65064240 27.44772720 0.58922815 7 1 32440 33.76200000 1303094081 1303094081 1.00000000
-1.44828379 2.02368760 -0.57452500 4 2 32441 2.55400000 1303094084 1303094084 -13.00000000
-19.64269638 27.45687103 1.76926935 57 3 32442 33.80600000 1303094086 1303094086 3.00000000
-1.71687412 2.39987373 -0.57357186 2 4 32442 3.00600000 1303094088 1303094088 -11.00000000
-16.66363144 23.30127907 2.50625062 36 5 32443 28.75600000 1303094091 1303094091 5.00000000
-2.10803056 2.94881320 -0.57411450 1 6 32444 3.67000000 1303094093 1303094093 -9.00000000
-11.78511620 16.49166298 2.48881578 59 7 32445 20.42200000 1303094095 1303094095 7.00000000
-2.74161148 3.83792734 -0.57912314 2 8 32446 4.75200000 1303094098 1303094098 -7.00000000
-8.25577068 11.55708790 2.24952769 47 9 32446 14.38000000 1303094100 1303094100 9.00000000
-3.83938265 5.37665892 -0.57801688 4 10 32447 6.63200000 1303094102 1303094102 -5.00000000
-7.56576872 10.59898853 2.53127217 50 11 32448 13.26600000 1303094104 1303094104 11.00000000
-6.41070175 8.98415470 -0.57841700 4 12 32449 11.05200000 1303094107 1303094107 -3.00000000
-6.40960407 8.98593330 2.54824543 59 13 32450 11.32800000 1303094109 1303094109 13.00000000
-19.68614197 27.60914421 -0.59188092 8 14 32451 33.91400000 1303094111 1303094111 -1.00000000
-5.53937244 7.76878119 2.55661464 40 15 32451 9.87800000 1303094114 1303094114 15.00000000
-1.24137032 1.74613225 -0.57406062 4 0 32459 2.21800000 1303094134 1303094134 -15.00000000
-19.63579941 27.63025284 0.59167147 7 1 32460 33.90200000 1303094137 1303094137 1.00000000
-1.43556798 2.02078724 -0.57227546 4 2 32461 2.54400000 1303094139 1303094139 -13.00000000
-19.61380577 27.61971855 1.77534032 65 3 32462 33.92200000 1303094141 1303094141 3.00000000
-1.71758032 2.41865778 -0.57662481 4 4 32462 3.02200000 1303094144 1303094144 -11.00000000
-16.55912590 23.32681274 2.50276423 36 5 32463 28.71600000 1303094146 1303094146 5.00000000
-2.08743596 2.94165492 -0.57129866 1 6 32464 3.65200000 1303094148 1303094148 -9.00000000
-2.73279095 3.85395122 -0.58009809 2 8 32466 4.76000000 1303094153 1303094153 -7.00000000
-8.21335602 11.58726883 2.24952769 47 9 32467 14.38000000 1303094155 1303094155 9.00000000
-3.82519984 5.39653015 -0.57871413 4 10 32467 6.64000000 1303094157 1303094157 -5.00000000
-7.52759027 10.62373161 2.53089046 50 11 32468 13.26400000 1303094160 1303094160 11.00000000
-6.38507414 9.01462746 -0.57894033 4 12 32469 11.06200000 1303094162 1303094162 -3.00000000
-6.36693764 8.99234772 2.54374647 57 13 32470 11.30800000 1303094164 1303094164 13.00000000
-19.67051697 27.79195023 -0.59432423 8 14 32471 34.05400000 1303094167 1303094167 -1.00000000
-4.85031652 6.85542059 2.25017285 36 15 32472 8.69400000 1303094169 1303094169 15.00000000
-1.23557317 1.75023925 -0.57406062 4 0 32478 2.21800000 1303094190 1303094190 -15.00000000
-19.63169289 27.81938744 0.59432423 7 1 32479 34.05400000 1303094192 1303094192 1.00000000
-1.42548895 2.02075958 -0.57092577 4 2 32480 2.53800000 1303094194 1303094194 -13.00000000
-19.60728264 27.80539513 1.78308606 65 3 32481 34.07000000 1303094197 1303094197 3.00000000
-1.70502472 2.41792250 -0.57509834 4 4 32481 3.01400000 1303094199 1303094199 -11.00000000
-16.45183563 23.33925629 2.49823213 36 5 32482 28.66400000 1303094201 1303094201 5.00000000
-2.09815049 2.97762656 -0.57693028 1 6 32483 3.68800000 1303094204 1303094204 -9.00000000
-10.70206356 15.19365025 2.28188157 25 7 32484 18.72400000 1303094206 1303094206 7.00000000
-2.69713855 3.83053017 -0.57522333 2 8 32485 4.72000000 1303094208 1303094208 -7.00000000
-8.16099167 11.59040260 2.24514747 47 9 32485 14.35200000 1303094210 1303094210 9.00000000
-3.81989789 5.42710733 -0.58063155 4 10 32486 6.66200000 1303094213 1303094213 -5.00000000
-7.49118948 10.64702988 2.53050900 50 11 32487 13.26200000 1303094215 1303094215 11.00000000
-6.35859251 9.04065228 -0.57925439 4 12 32488 11.06800000 1303094217 1303094217 -3.00000000
-6.33259964 9.00703526 2.54194689 55 13 32489 11.30000000 1303094220 1303094220 13.00000000
-19.67598343 27.99609184 -0.59729117 4 14 32490 34.22400000 1303094222 1303094222 -1.00000000
-4.82542324 6.86588240 2.24861979 42 15 32490 8.68800000 1303094224 1303094224 15.00000000
-1.22723889 1.75137734 -0.57302535 4 0 32498 2.21400000 1303094245 1303094245 -15.00000000
-19.62509918 28.01713753 0.59708172 7 1 32499 34.21200000 1303094247 1303094247 1.00000000
-1.42736852 2.03849363 -0.57452500 4 2 32500 2.55400000 1303094250 1303094250 -13.00000000
-19.60516357 28.00947762 1.79177380 66 3 32501 34.23600000 1303094252 1303094252 3.00000000
-1.69207096 2.41742563 -0.57357186 2 4 32501 3.00600000 1303094254 1303094254 -11.00000000
-16.33828354 23.35083199 2.49335146 35 5 32502 28.60800000 1303094257 1303094257 5.00000000
-2.09000826 2.98816991 -0.57755607 1 6 32503 3.69200000 1303094259 1303094259 -9.00000000
-11.78756714 16.85942841 2.52586412 54 7 32504 20.72600000 1303094261 1303094261 7.00000000
-2.68375111 3.83992147 -0.57522333 2 8 32505 4.72000000 1303094263 1303094263 -7.00000000
-8.11393070 11.61375904 2.24389601 47 9 32506 14.34400000 1303094266 1303094266 9.00000000
-3.79522514 5.43224144 -0.57976002 8 10 32506 6.65200000 1303094268 1303094268 -5.00000000
-7.45173073 10.66989517 2.52974558 50 11 32507 13.25800000 1303094270 1303094270 11.00000000
-6.34871864 9.09390831 -0.58124316 8 12 32508 11.10600000 1303094273 1303094273 -3.00000000
-6.30335093 9.03228188 2.54284668 57 13 32509 11.30400000 1303094275 1303094275 13.00000000
-20.40876770 29.25528145 -0.62263203 4 14 32510 35.67600000 1303094277 1303094277 -1.00000000
-4.79470110 6.87559938 2.24603176 42 15 32511 8.67800000 1303094280 1303094280 15.00000000
-1.21891177 1.75247860 -0.57199007 4 0 32518 2.21000000 1303094300 1303094300 -15.00000000
-50.82934570 73.10661316 1.55420661 78 1 32519 89.05400000 1303094303 1303094303 1.00000000
-1.42246854 2.04666400 -0.57542479 4 2 32520 2.55800000 1303094305 1303094305 -13.00000000
-24.69462395 35.54414368 2.26824045 49 3 32521 43.34000000 1303094307 1303094307 3.00000000
-1.69258368 2.43621588 -0.57662481 2 4 32521 3.02200000 1303094310 1303094310 -11.00000000
-16.22485161 23.36190033 2.48847079 35 5 32522 28.55200000 1303094312 1303094312 5.00000000
-2.07280564 2.98571110 -0.57567883 1 6 32523 3.68000000 1303094314 1303094314 -9.00000000
-11.78976059 16.98853874 2.53902578 59 7 32524 20.83400000 1303094316 1303094316 7.00000000
-2.68164587 3.86557674 -0.57766068 2 8 32525 4.74000000 1303094319 1303094319 -7.00000000
-8.07762527 11.64384842 2.24452162 43 9 32525 14.34800000 1303094321 1303094321 9.00000000
-3.78305197 5.45527983 -0.58080590 8 10 32526 6.66400000 1303094323 1303094323 -5.00000000
-7.41220331 10.69261456 2.52898240 50 11 32527 13.25400000 1303094326 1303094326 11.00000000
-6.32148647 9.12258053 -0.58166182 8 12 32528 11.11400000 1303094328 1303094328 -3.00000000
-6.27178383 9.05422974 2.54284668 55 13 32529 11.30400000 1303094330 1303094330 13.00000000
-20.30652237 29.32634354 -0.62263203 4 14 32530 35.67600000 1303094333 1303094333 -1.00000000
-4.76967478 6.88828516 2.24499631 40 15 32530 8.67400000 1303094335 1303094335 15.00000000
-1.21498215 1.75990236 -0.57302535 4 0 32538 2.21400000 1303094356 1303094356 -15.00000000
-35.97538757 52.12982178 1.10557508 15 1 32539 63.34800000 1303094358 1303094358 1.00000000
-1.41642225 2.05322099 -0.57587469 3 2 32540 2.56000000 1303094360 1303094360 -13.00000000
-23.90256691 34.66168594 2.20658851 9 3 32541 42.16200000 1303094363 1303094363 3.00000000
-1.68406940 2.44210935 -0.57662481 2 4 32541 3.02200000 1303094365 1303094365 -11.00000000
-16.10701942 23.36590004 2.48289275 35 5 32542 28.48800000 1303094367 1303094367 5.00000000
-2.07133770 3.00594115 -0.57818180 1 6 32543 3.69600000 1303094369 1303094369 -9.00000000
-11.77768326 17.09824944 2.54926300 52 7 32544 20.91800000 1303094372 1303094372 7.00000000
-2.67939425 3.89126372 -0.58009809 6 8 32545 4.76000000 1303094374 1303094374 -7.00000000
-8.03581047 11.67034626 2.24420881 36 9 32545 14.34600000 1303094376 1303094376 9.00000000
-3.76737547 5.47337532 -0.58132881 8 10 32546 6.67000000 1303094379 1303094379 -5.00000000
-7.36147976 10.69901371 2.52440310 53 11 32547 13.23000000 1303094381 1303094381 11.00000000
-6.28960419 9.14459133 -0.58166182 8 12 32548 11.11400000 1303094383 1303094383 -3.00000000
-6.24014044 9.07606697 2.54284668 56 13 32549 11.30400000 1303094386 1303094386 13.00000000
-20.43962097 29.73983192 -0.62989223 4 14 32550 36.09200000 1303094388 1303094388 -1.00000000
-4.74560118 6.90489244 2.24499631 42 15 32550 8.67400000 1303094390 1303094390 15.00000000
-1.21101558 1.76731992 -0.57406062 4 0 32558 2.21800000 1303094411 1303094411 -15.00000000
-35.72765732 52.15939713 1.10355055 15 1 32559 63.23200000 1303094413 1303094413 1.00000000
-1.40153968 2.04689717 -0.57272536 4 2 32560 2.54600000 1303094416 1303094416 -13.00000000
-24.31953239 35.53108215 2.25651717 58 3 32561 43.11600000 1303094418 1303094418 3.00000000
-1.67553461 2.44797301 -0.57662481 4 4 32561 3.02200000 1303094420 1303094420 -11.00000000
-16.02085876 23.41540527 2.48219562 35 5 32562 28.48000000 1303094422 1303094422 5.00000000
-2.04968071 2.99684811 -0.57505310 1 6 32563 3.67600000 1303094425 1303094425 -9.00000000
-11.74145508 17.17366982 2.55438137 47 7 32564 20.96000000 1303094427 1303094427 7.00000000
-2.66355467 3.89731503 -0.57961059 8 8 32565 4.75600000 1303094429 1303094429 -7.00000000
-7.97403955 11.67199230 2.23889017 21 9 32566 14.31200000 1303094432 1303094432 9.00000000
-3.75161862 5.49142790 -0.58185172 4 10 32566 6.67600000 1303094434 1303094434 -5.00000000
-7.31301641 10.70843315 2.52058673 56 11 32567 13.21000000 1303094436 1303094436 11.00000000
-6.27453661 9.19123363 -0.58323193 4 12 32568 11.14400000 1303094439 1303094439 -3.00000000
-6.20842123 9.09779358 2.54284668 57 13 32569 11.30400000 1303094441 1303094441 13.00000000
-20.42358208 29.93984985 -0.63261485 4 14 32570 36.24800000 1303094443 1303094443 -1.00000000
-4.72255802 6.92301130 2.24551415 40 15 32570 8.67600000 1303094445 1303094445 15.00000000
-1.20266628 1.76834154 -0.57302535 4 0 32578 2.21400000 1303094466 1303094466 -15.00000000
-35.45542526 52.15149307 1.10075819 15 1 32579 63.07200000 1303094469 1303094469 1.00000000
-1.39438617 2.05177689 -0.57272536 4 2 32580 2.54600000 1303094471 1303094471 -13.00000000
-24.12801743 35.51663208 2.25023675 48 3 32581 42.99600000 1303094473 1303094473 3.00000000
-1.66697931 2.45380688 -0.57662481 4 4 32581 3.02200000 1303094475 1303094475 -11.00000000
-15.93119144 23.45964813 2.48097539 35 5 32582 28.46600000 1303094478 1303094478 5.00000000
-2.04586411 3.01379085 -0.57693028 1 6 32583 3.68800000 1303094480 1303094480 -9.00000000
-11.66248798 17.18662643 2.55023789 47 7 32584 20.92600000 1303094482 1303094482 7.00000000
-2.64770555 3.90330315 -0.57912314 6 8 32585 4.75200000 1303094485 1303094485 -7.00000000
-8.91991520 13.15486813 2.51734352 16 9 32586 16.09200000 1303094487 1303094487 9.00000000
-3.75255394 5.53417301 -0.58498937 8 10 32586 6.71200000 1303094489 1303094489 -5.00000000
-7.27559233 10.73389435 2.52058673 56 11 32587 13.21000000 1303094492 1303094492 11.00000000
-6.26034021 9.23953438 -0.58490664 4 12 32588 11.17600000 1303094494 1303094494 -3.00000000
-6.17444038 9.11618328 2.54194689 56 13 32589 11.30000000 1303094496 1303094496 13.00000000
-20.59698105 30.42161560 -0.64127123 4 14 32590 36.74400000 1303094498 1303094498 -1.00000000
-4.69823503 6.94187403 2.24603176 42 15 32591 8.67800000 1303094501 1303094501 15.00000000
-1.20112002 1.77872407 -0.57509589 4 0 32597 2.22200000 1303094522 1303094522 -15.00000000
-35.20397568 52.15275955 1.09831488 46 1 32598 62.93200000 1303094524 1303094524 1.00000000
-1.39629459 2.06931281 -0.57632458 4 2 32599 2.56200000 1303094526 1303094526 -13.00000000
-23.95314789 35.51200104 2.24489856 39 3 32600 42.89400000 1303094528 1303094528 3.00000000
-1.65444171 2.45281076 -0.57509834 2 4 32600 3.01400000 1303094531 1303094531 -11.00000000
-15.82546329 23.47104836 2.47661757 35 5 32601 28.41600000 1303094533 1303094533 5.00000000
-2.04910731 3.04021525 -0.58068472 1 6 32602 3.71200000 1303094535 1303094535 -9.00000000
-11.58213806 17.19063377 2.54511929 42 7 32603 20.88400000 1303094538 1303094538 7.00000000
-2.63474727 3.91206193 -0.57912314 2 8 32604 4.75200000 1303094540 1303094540 -7.00000000
-3.72750521 5.53666973 -0.58394349 4 10 32605 6.70000000 1303094545 1303094545 -5.00000000
-7.23338079 10.74818993 2.51829720 56 11 32606 13.19800000 1303094547 1303094547 11.00000000
-6.24304438 9.28013039 -0.58616269 8 12 32607 11.20000000 1303094549 1303094549 -3.00000000
-6.14308882 9.13499069 2.54149699 52 13 32608 11.29800000 1303094551 1303094551 13.00000000
-20.45582390 30.43000412 -0.64001465 4 14 32609 36.67200000 1303094554 1303094554 -1.00000000
-4.66993713 6.94698000 2.24292588 42 15 32609 8.66600000 1303094556 1303094556 15.00000000
-1.18845069 1.77327728 -0.57199007 4 0 32617 2.21000000 1303094577 1303094577 -15.00000000
-35.16974258 52.49628448 1.10295713 31 1 32618 63.19800000 1303094579 1303094579 1.00000000
-1.39448464 2.08227015 -0.57857412 4 2 32619 2.57200000 1303094581 1303094581 -13.00000000
-23.77793312 35.51905441 2.24008369 68 3 32620 42.80200000 1303094584 1303094584 3.00000000
-1.64586973 2.45857096 -0.57509834 2 4 32620 3.01400000 1303094586 1303094586 -11.00000000
-15.73124886 23.50793266 2.47470021 53 5 32621 28.39400000 1303094588 1303094588 5.00000000
-2.03628588 3.04406571 -0.58005899 1 6 32622 3.70800000 1303094591 1303094591 -9.00000000
-11.51323318 17.21775818 2.54316950 42 7 32623 20.86800000 1303094593 1303094593 7.00000000
-2.63651943 3.94433999 -0.58253545 2 8 32624 4.78000000 1303094595 1303094595 -7.00000000
-8.78736591 13.15122318 2.50514150 16 9 32625 16.01400000 1303094598 1303094598 9.00000000
-3.70815611 5.54964781 -0.58394349 4 10 32625 6.70000000 1303094600 1303094600 -5.00000000
-7.18491411 10.75704765 2.51448083 62 11 32626 13.17800000 1303094602 1303094602 11.00000000
-6.22059393 9.31681538 -0.58710474 8 12 32627 11.21800000 1303094604 1303094604 -3.00000000
-6.11981869 9.16934586 2.54509616 59 13 32628 11.31400000 1303094607 1303094607 13.00000000
-12.68402100 19.01169777 -0.39892709 8 14 32629 22.85800000 1303094609 1303094609 -1.00000000
-4.64565897 6.96323872 2.24292588 45 15 32629 8.66600000 1303094611 1303094611 15.00000000
-1.18439341 1.78063202 -0.57302535 4 0 32637 2.21400000 1303094632 1303094632 -15.00000000
-12.64971256 19.02493668 0.39878750 18 1 32638 22.85000000 1303094634 1303094634 1.00000000
-1.38073552 2.07738733 -0.57587469 4 2 32639 2.56000000 1303094637 1303094637 -13.00000000
-23.61468887 35.52951050 2.23579216 29 3 32639 42.72000000 1303094639 1303094639 3.00000000
-1.64162350 2.47084188 -0.57662481 4 4 32640 3.02200000 1303094641 1303094641 -11.00000000
-15.62815094 23.53116798 2.47138834 26 5 32641 28.35600000 1303094644 1303094644 5.00000000
-2.01909232 3.04128075 -0.57818180 1 6 32642 3.69600000 1303094646 1303094646 -9.00000000
-11.43769455 17.23468590 2.53975701 40 7 32643 20.84000000 1303094648 1303094648 7.00000000
-2.62273526 3.95351911 -0.58253545 2 8 32644 4.78000000 1303094650 1303094650 -7.00000000
-8.75135040 13.19181347 2.50733161 48 9 32644 16.02800000 1303094653 1303094653 9.00000000
-3.70087385 5.58082294 -0.58586091 4 10 32645 6.72200000 1303094655 1303094655 -5.00000000
-7.13105011 10.75751686 2.50875664 68 11 32646 13.14800000 1303094657 1303094657 11.00000000
-6.19355011 9.34679699 -0.58762813 8 12 32647 11.22800000 1303094660 1303094660 -3.00000000
-6.08885050 9.19227695 2.54554605 57 13 32648 11.31600000 1303094662 1303094662 13.00000000
-12.61095619 19.04585266 -0.39871767 11 14 32649 22.84600000 1303094664 1303094664 -1.00000000
-4.61705828 6.97296953 2.24085522 45 15 32649 8.65800000 1303094667 1303094667 15.00000000
-1.18242776 1.79120445 -0.57509589 4 0 32657 2.22200000 1303094687 1303094687 -15.00000000
-12.56670570 19.04394150 0.39826390 13 1 32658 22.82000000 1303094690 1303094690 1.00000000
-1.37347567 2.08219433 -0.57587469 4 2 32659 2.56000000 1303094692 1303094692 -13.00000000
-12.57444000 19.07013893 1.19713271 14 3 32660 22.87400000 1303094694 1303094694 3.00000000
-1.64163446 2.48966932 -0.57967770 4 4 32660 3.03800000 1303094697 1303094697 -11.00000000
-12.56458378 19.06242943 1.99743533 21 5 32661 22.91800000 1303094699 1303094699 5.00000000
-2.00846386 3.04831004 -0.57818180 1 6 32662 3.69600000 1303094701 1303094701 -9.00000000
-11.37200546 17.26621628 2.53853846 42 7 32663 20.83000000 1303094703 1303094703 7.00000000
-2.59691119 3.94441175 -0.57985431 2 8 32664 4.75800000 1303094706 1303094706 -7.00000000
-8.69642544 13.21389961 2.50545430 48 9 32665 16.01600000 1303094708 1303094708 9.00000000
-3.69122839 5.60868597 -0.58742970 4 10 32665 6.74000000 1303094710 1303094710 -5.00000000
-7.07942867 10.76102161 2.50379562 65 11 32666 13.12200000 1303094713 1303094713 11.00000000
-6.16856813 9.38004112 -0.58836085 8 12 32667 11.24200000 1303094715 1303094715 -3.00000000
-6.05244446 9.20696068 2.54374647 55 13 32668 11.30800000 1303094717 1303094717 13.00000000
-12.51584435 19.04630661 -0.39781016 17 14 32669 22.79400000 1303094720 1303094720 -1.00000000
-4.59571266 6.99630356 2.24292588 45 15 32670 8.66600000 1303094722 1303094722 15.00000000
-1.17616808 1.79532099 -0.57509589 4 0 32677 2.22200000 1303094743 1303094743 -15.00000000
-12.47166920 19.04419518 0.39735639 13 1 32678 22.76800000 1303094745 1303094745 1.00000000
-1.36192966 2.08045411 -0.57407510 4 2 32679 2.55200000 1303094747 1303094747 -13.00000000
-12.47393894 19.05491638 1.19357383 10 3 32679 22.80600000 1303094750 1303094750 3.00000000
-1.62003386 2.47567129 -0.57509834 2 4 32680 3.01400000 1303094752 1303094752 -11.00000000
-12.46960926 19.06282043 1.99290323 20 5 32681 22.86600000 1303094754 1303094754 5.00000000
-2.01078391 3.07514215 -0.58193618 2 6 32682 3.72000000 1303094756 1303094756 -9.00000000
-11.31057930 17.30414581 2.53829479 38 7 32683 20.82800000 1303094759 1303094759 7.00000000
-2.58638430 3.95843816 -0.58058554 2 8 32684 4.76400000 1303094761 1303094761 -7.00000000
-8.65240765 13.24748230 2.50608015 48 9 32685 16.02000000 1303094763 1303094763 9.00000000
-3.66618061 5.61319590 -0.58655816 4 10 32685 6.73000000 1303094766 1303094766 -5.00000000
-7.02679682 10.76265240 2.49845290 62 11 32686 13.09400000 1303094768 1303094768 11.00000000
-6.14452076 9.41489601 -0.58919817 8 12 32687 11.25800000 1303094770 1303094770 -3.00000000
-6.01601028 9.22150326 2.54194689 56 13 32688 11.30000000 1303094773 1303094773 13.00000000
-12.40996075 19.02957916 -0.39655358 11 14 32689 22.72200000 1303094775 1303094775 -1.00000000
-4.57248688 7.01150513 2.24292588 42 15 32689 8.66600000 1303094777 1303094777 15.00000000
-1.16778815 1.79617631 -0.57406062 4 0 32697 2.21800000 1303094798 1303094798 -15.00000000
-12.38114357 19.05072594 0.39658847 18 1 32698 22.72400000 1303094800 1303094800 1.00000000
-1.36209071 2.09663463 -0.57722443 4 2 32699 2.56600000 1303094802 1303094802 -13.00000000
-12.37252998 19.04474831 1.19022429 10 3 32699 22.74200000 1303094805 1303094805 3.00000000
-1.61993647 2.49448323 -0.57815129 4 4 32700 3.03000000 1303094807 1303094807 -11.00000000
-12.33030701 18.99426460 1.98122430 6 5 32701 22.73200000 1303094809 1303094809 5.00000000
-1.98928440 3.06557155 -0.57880753 1 6 32702 3.70000000 1303094812 1303094812 -9.00000000
-11.24362564 17.33352852 2.53683233 35 7 32703 20.81600000 1303094814 1303094814 7.00000000
-2.57255101 3.96744227 -0.58058554 2 8 32704 4.76400000 1303094816 1303094816 -7.00000000
-8.60181522 13.27097416 2.50482869 48 9 32705 16.01200000 1303094819 1303094819 9.00000000
-3.65523386 5.63933468 -0.58795261 4 10 32705 6.74600000 1303094821 1303094821 -5.00000000
-6.98064518 10.77393436 2.49539995 62 11 32706 13.07800000 1303094823 1303094823 11.00000000
-6.12573385 9.45808029 -0.59055895 8 12 32707 11.28400000 1303094826 1303094826 -3.00000000
-5.98590279 9.24571896 2.54284668 57 13 32708 11.30400000 1303094828 1303094828 13.00000000
-12.31629753 19.03081322 -0.39568096 8 14 32709 22.67200000 1303094830 1303094830 -1.00000000
-4.54693460 7.02580166 2.24240828 45 15 32709 8.66400000 1303094832 1303094832 15.00000000
-1.16213953 1.79983616 -0.57406062 4 0 32715 2.21800000 1303094853 1303094853 -15.00000000
-12.28870010 19.03912544 0.39554134 13 1 32716 22.66400000 1303094855 1303094855 1.00000000
-1.35549724 2.10090351 -0.57722443 4 2 32717 2.56600000 1303094858 1303094858 -13.00000000
-12.28874016 19.05378151 1.18823552 14 3 32718 22.70400000 1303094860 1303094860 3.00000000
-1.60570729 2.48966098 -0.57586157 4 4 32718 3.01800000 1303094862 1303094862 -11.00000000
-12.26409626 19.02286148 1.98017848 13 5 32719 22.72000000 1303094865 1303094865 5.00000000
-1.98820448 3.08508945 -0.58131045 2 6 32720 3.71600000 1303094867 1303094867 -9.00000000
-11.18481541 17.36209106 2.53585720 35 7 32721 20.80800000 1303094869 1303094869 7.00000000
-2.56222367 3.97884250 -0.58107305 2 8 32722 4.76800000 1303094872 1303094872 -7.00000000
-8.55812359 13.28979397 2.50357723 48 9 32722 16.00400000 1303094874 1303094874 9.00000000
-3.64289141 5.65916634 -0.58882421 4 10 32723 6.75600000 1303094876 1303094876 -5.00000000
-6.92976570 10.76939583 2.48929405 62 11 32724 13.04600000 1303094879 1303094879 11.00000000
-6.10463381 9.49071598 -0.59139633 8 12 32725 11.30000000 1303094881 1303094881 -3.00000000
-5.96315050 9.27431297 2.54554605 56 13 32726 11.31600000 1303094883 1303094883 13.00000000
-12.23266315 19.03240395 -0.39491305 11 14 32727 22.62800000 1303094885 1303094885 -1.00000000
-4.51525736 7.02783871 2.23826718 45 15 32728 8.64800000 1303094888 1303094888 15.00000000
-1.15376532 1.80062866 -0.57302535 4 0 32735 2.21400000 1303094908 1303094908 -15.00000000
-12.19196606 19.03475571 0.39456400 13 1 32736 22.60800000 1303094911 1303094911 1.00000000
-1.35130787 2.11054564 -0.57857412 3 2 32737 2.57200000 1303094913 1303094913 -13.00000000
-12.20287132 19.05910492 1.18603742 14 3 32737 22.66200000 1303094915 1303094915 3.00000000
-1.59912360 2.49855781 -0.57662481 4 4 32738 3.02200000 1303094918 1303094918 -11.00000000
-12.16433430 19.01352692 1.97477484 20 5 32739 22.65800000 1303094920 1303094920 5.00000000
-1.97103775 3.08202577 -0.57943326 1 6 32740 3.70400000 1303094922 1303094922 -9.00000000
-11.10917377 17.37761116 2.53244495 35 7 32741 20.78000000 1303094925 1303094925 7.00000000
-2.58680081 4.04797983 -0.58984762 2 8 32742 4.84000000 1303094927 1303094927 -7.00000000
-8.50722980 13.31774235 2.50295138 48 9 32743 16.00000000 1303094929 1303094929 9.00000000
-3.63384080 5.68863869 -0.59056729 4 10 32743 6.77600000 1303094932 1303094932 -5.00000000
-6.86994267 10.75877094 2.48128009 65 11 32744 13.00400000 1303094934 1303094934 11.00000000
-6.08113909 9.52711964 -0.59233832 8 12 32745 11.31800000 1303094936 1303094936 -3.00000000
-5.93493366 9.30164337 2.54734564 60 13 32746 11.32400000 1303094938 1303094938 13.00000000
-12.13389397 19.02440834 -0.39386591 14 14 32747 22.56800000 1303094941 1303094941 -1.00000000
-4.49485207 7.05007267 2.24033761 47 15 32748 8.65600000 1303094943 1303094943 15.00000000
-1.14715791 1.80484533 -0.57302535 4 0 32756 2.21400000 1303094964 1303094964 -15.00000000
-12.09638214 19.03880501 0.39372629 13 1 32757 22.56000000 1303094966 1303094966 1.00000000
-1.33938420 2.10890436 -0.57677448 3 2 32758 2.56400000 1303094968 1303094968 -13.00000000
-12.09759903 19.04806519 1.18258321 14 3 32758 22.59600000 1303094971 1303094971 3.00000000
-1.60047770 2.52097678 -0.58044094 4 4 32759 3.04200000 1303094973 1303094973 -11.00000000
-12.08495617 19.04284286 1.97320604 20 5 32760 22.64000000 1303094975 1303094975 5.00000000
-1.96607733 3.09923768 -0.58131045 2 6 32761 3.71600000 1303094978 1303094978 -9.00000000
-11.03264999 17.39809418 2.52952003 38 7 32762 20.75600000 1303094980 1303094980 7.00000000
-2.54856539 4.02054834 -0.58448535 2 8 32763 4.79600000 1303094982 1303094982 -7.00000000
-8.45328712 13.33567810 2.50076127 56 9 32763 15.98600000 1303094985 1303094985 9.00000000
-3.61829829 5.71033382 -0.59143889 4 10 32764 6.78600000 1303094987 1303094987 -5.00000000
-6.81470585 10.75899982 2.47555590 62 11 32765 12.97400000 1303094989 1303094989 11.00000000
-6.03763247 9.53584385 -0.59150100 8 12 32766 11.30200000 1303094991 1303094991 -3.00000000
-5.89663267 9.31674671 2.54554605 57 13 32767 11.31600000 1303094994 1303094994 13.00000000
-12.03628635 19.02481651 -0.39295837 11 14 32768 22.51600000 1303094996 1303094996 -1.00000000
-4.47104740 7.06976557 2.24137282 45 15 32769 8.66000000 1303094998 1303094998 15.00000000
-1.14909554 1.82191062 -0.57716650 4 0 32776 2.23000000 1303095019 1303095019 -15.00000000
-11.99785614 19.03016663 0.39267915 13 1 32777 22.50000000 1303095021 1303095021 1.00000000
-1.34032667 2.12675595 -0.58037370 3 2 32778 2.58000000 1303095024 1303095024 -13.00000000
-12.00441360 19.04793549 1.17996645 10 3 32778 22.54600000 1303095026 1303095026 3.00000000
-1.58538938 2.51658130 -0.57815129 4 4 32779 3.03000000 1303095028 1303095028 -11.00000000
-11.99292946 19.04444885 1.96902251 20 5 32780 22.59200000 1303095031 1303095031 5.00000000
-1.94998527 3.09772301 -0.57974613 1 6 32781 3.70600000 1303095033 1303095033 -9.00000000
-10.96973705 17.43313980 2.52903271 35 7 32782 20.75200000 1303095035 1303095035 7.00000000
-2.52817392 4.01933765 -0.58302295 2 8 32783 4.78400000 1303095038 1303095038 -7.00000000
-8.39932346 13.35340023 2.49857116 52 9 32783 15.97200000 1303095040 1303095040 9.00000000
-3.61319089 5.74654293 -0.59387922 4 10 32784 6.81400000 1303095042 1303095042 -5.00000000
-6.76039314 10.75612736 2.46945000 62 11 32785 12.94200000 1303095044 1303095044 11.00000000
-6.02237225 9.58561134 -0.59328038 4 12 32786 11.33600000 1303095047 1303095047 -3.00000000
-5.86407566 9.33727360 2.54554605 59 13 32787 11.31600000 1303095049 1303095049 13.00000000
-11.94322395 19.02437401 -0.39208576 8 14 32788 22.46600000 1303095051 1303095051 -1.00000000
-4.44634199 7.08532906 2.24137282 45 15 32789 8.66000000 1303095054 1303095054 15.00000000
-1.14067912 1.82263541 -0.57613117 4 0 32796 2.22600000 1303095074 1303095074 -15.00000000
-11.90802288 19.03463554 0.39191124 13 1 32797 22.45600000 1303095077 1303095077 1.00000000
-1.32669520 2.12150788 -0.57767433 3 2 32798 2.56800000 1303095079 1303095079 -13.00000000
-11.91031647 19.04569435 1.17724502 14 3 32798 22.49400000 1303095081 1303095081 3.00000000
-1.57659519 2.52209997 -0.57815129 4 4 32799 3.03000000 1303095084 1303095084 -11.00000000
-11.89787197 19.04057693 1.96431613 20 5 32800 22.53800000 1303095086 1303095086 5.00000000
-1.94229984 3.10953712 -0.58068472 1 6 32801 3.71200000 1303095088 1303095088 -9.00000000
-10.89304733 17.44606781 2.52537656 42 7 32802 20.72200000 1303095090 1303095090 7.00000000
-2.51833272 4.03487444 -0.58399791 2 8 32803 4.79200000 1303095093 1303095093 -7.00000000
-8.34638500 13.37258339 2.49669409 46 9 32803 15.96000000 1303095095 1303095095 9.00000000
-3.58256340 5.74221659 -0.59213614 4 10 32804 6.79400000 1303095097 1303095097 -5.00000000
-6.71657228 10.76966476 2.46716022 59 11 32805 12.93000000 1303095100 1303095100 11.00000000
-6.01634741 9.65064240 -0.59600186 8 12 32806 11.38800000 1303095102 1303095102 -3.00000000
-5.83144665 9.35768604 2.54554605 55 13 32807 11.31600000 1303095104 1303095104 13.00000000
-11.84502411 19.01502800 -0.39103863 11 14 32808 22.40600000 1303095107 1303095107 -1.00000000
-4.41873598 7.09347582 2.23930240 45 15 32808 8.65200000 1303095109 1303095109 15.00000000
-1.13125253 1.82168257 -0.57457829 4 0 32816 2.22000000 1303095130 1303095130 -15.00000000
-11.81619549 19.03531075 0.39107352 18 1 32817 22.40800000 1303095132 1303095132 1.00000000
-1.32441914 2.13440537 -0.57992381 4 2 32818 2.57800000 1303095134 1303095134 -13.00000000
-11.82480717 19.05660629 1.17536092 14 3 32818 22.45800000 1303095137 1303095137 3.00000000
-1.56985152 2.53092480 -0.57891446 2 4 32819 3.03400000 1303095139 1303095139 -11.00000000
-11.80508804 19.03965759 1.95995831 20 5 32820 22.48800000 1303095141 1303095141 5.00000000
-1.93663692 3.12469316 -0.58224910 2 6 32821 3.72200000 1303095143 1303095143 -9.00000000
-10.82162762 17.46710968 2.52293921 42 7 32822 20.70200000 1303095146 1303095146 7.00000000
-2.50005221 4.03688955 -0.58302295 2 8 32823 4.78400000 1303095148 1303095148 -7.00000000
-8.29341412 13.39155960 2.49481678 46 9 32823 15.94800000 1303095150 1303095150 9.00000000
-3.55410767 5.74113464 -0.59074163 4 10 32824 6.77800000 1303095153 1303095153 -5.00000000
-6.00363731 9.70555496 -0.59809530 4 12 32826 11.42800000 1303095157 1303095157 -3.00000000
-5.80079651 9.38129902 2.54644585 62 13 32827 11.32000000 1303095160 1303095160 13.00000000
-11.79960442 19.09028053 -0.39173672 11 14 32828 22.44600000 1303095162 1303095162 -1.00000000
-4.38661480 7.09976292 2.23619652 47 15 32829 8.64000000 1303095164 1303095164 15.00000000
-1.12590015 1.82726502 -0.57509589 4 0 32836 2.22200000 1303095185 1303095185 -15.00000000
-11.77065182 19.11049461 0.39177161 18 1 32837 22.44800000 1303095187 1303095187 1.00000000
-1.31389546 2.13403726 -0.57857412 4 2 32838 2.57200000 1303095190 1303095190 -13.00000000
-11.77686596 19.13553810 1.17755902 47 3 32839 22.50000000 1303095192 1303095192 3.00000000
-1.55894935 2.53304529 -0.57815129 4 4 32839 3.03000000 1303095194 1303095194 -11.00000000
-11.76674366 19.12656784 1.96466470 61 5 32840 22.54200000 1303095196 1303095196 5.00000000
-1.92157876 3.12470365 -0.58099759 1 6 32841 3.71400000 1303095199 1303095199 -9.00000000
-10.74915504 17.48617554 2.52025795 45 7 32842 20.68000000 1303095201 1303095201 7.00000000
-2.48386717 4.04220915 -0.58253545 2 8 32843 4.78000000 1303095203 1303095203 -7.00000000
-8.23834515 13.40696335 2.49231386 50 9 32843 15.93200000 1303095206 1303095206 9.00000000
-3.54030252 5.76369190 -0.59178752 4 10 32844 6.79000000 1303095208 1303095208 -5.00000000
-5.97494602 9.73496342 -0.59861869 4 12 32846 11.43800000 1303095213 1303095213 -3.00000000
-5.77412891 9.41145706 2.54914546 62 13 32847 11.33200000 1303095215 1303095215 13.00000000
-11.78098488 19.20976639 -0.39334235 8 14 32848 22.53800000 1303095217 1303095217 -1.00000000
-4.36506701 7.11756420 2.23723173 45 15 32848 8.64400000 1303095220 1303095220 15.00000000
-1.12153029 1.83448052 -0.57613117 4 0 32856 2.22600000 1303095240 1303095240 -15.00000000
-11.76747990 19.25554848 0.39390081 13 1 32857 22.57000000 1303095243 1303095243 1.00000000
-1.30135882 2.13029552 -0.57632458 4 2 32858 2.56200000 1303095245 1303095245 -13.00000000
-11.77453327 19.28221321 1.18404865 61 3 32859 22.62400000 1303095247 1303095247 3.00000000
-1.55623686 2.54852486 -0.58044094 2 4 32859 3.04200000 1303095249 1303095249 -11.00000000
