# .PCD v0.7 - Point Cloud Data file format
VERSION 0.7
FIELDS x y z intensity laser_id azimuth distance_m adjustedtime timestamp vertical_angle
SIZE 4 4 4 1 1 2 8 8 4 8
TYPE F F F U U U F U U F
COUNT 1 1 1 1 1 1 1 1 1 1
WIDTH 528
HEIGHT 1
VIEWPOINT 0 0 0 1 0 0 0
POINTS 528
DATA ascii
1.89208722 -1.02945852 -0.57716650 4 0 11855 2.23000000 1302736977 1302736977 -15.00000000
5.88207102 -3.20168400 0.11689622 48 1 11856 6.69800000 1302736979 1302736979 1.00000000
2.20776892 -1.20221555 -0.58037370 3 2 11857 2.58000000 1302736981 1302736981 -13.00000000
2.61708045 -1.42569363 -0.57929611 5 4 11858 3.03600000 1302736986 1302736986 -11.00000000
8.04047394 -4.38198853 0.80113560 37 5 11859 9.19200000 1302736988 1302736988 5.00000000
3.23629165 -1.76448345 -0.58381343 4 6 11860 3.73200000 1302736990 1302736990 -9.00000000
8.04087067 -4.38584566 1.12461030 38 7 11861 9.22800000 1302736993 1302736993 7.00000000
4.22741508 -2.30677629 -0.59131008 6 8 11862 4.85200000 1302736995 1302736995 -7.00000000
6.06038904 -3.30697632 1.09347689 17 9 11862 6.99000000 1302736997 1302736997 9.00000000
6.32885075 -3.45490146 -0.63083327 12 10 11863 7.23800000 1302737000 1302737000 -5.00000000
5.04335976 -2.75429821 1.11699581 12 11 11864 5.85400000 1302737002 1302737002 11.00000000
5.22136641 -2.85269499 -0.31181762 9 12 11865 5.95800000 1302737004 1302737004 -3.00000000
8.21133804 -4.48812819 2.16042995 56 13 11866 9.60400000 1302737007 1302737007 13.00000000
5.33551884 -2.91748118 -0.10614554 33 14 11867 6.08200000 1302737009 1302737009 -1.00000000
8.09024334 -4.42377472 2.47068667 47 15 11867 9.54600000 1302737011 1302737011 15.00000000
1.87831998 -1.03048158 -0.57406062 4 0 11875 2.21800000 1302737032 1302737032 -15.00000000
5.87787104 -3.22604537 0.11703584 37 1 11876 6.70600000 1302737034 1302737034 1.00000000
2.19672632 -1.20616317 -0.57857412 3 2 11877 2.57200000 1302737036 1302737036 -13.00000000
5.14135742 -2.82414842 0.30742142 2 3 11878 5.87400000 1302737039 1302737039 3.00000000
2.60348415 -1.43009424 -0.57738805 8 4 11878 3.02600000 1302737041 1302737041 -11.00000000
8.03385925 -4.41482592 0.80200714 37 5 11879 9.20200000 1302737043 1302737043 5.00000000
3.24049902 -1.78147936 -0.58569062 4 6 11880 3.74400000 1302737046 1302737046 -9.00000000
8.04638481 -4.42536640 1.12753522 35 7 11881 9.25200000 1302737048 1302737048 7.00000000
4.22629404 -2.32534647 -0.59228504 6 8 11882 4.86000000 1302737050 1302737050 -7.00000000
6.04822779 -3.32916641 1.09347689 20 9 11883 6.99000000 1302737053 1302737053 9.00000000
6.30104303 -3.46832538 -0.62926447 12 10 11883 7.22000000 1302737055 1302737055 -5.00000000
5.00791836 -2.75768113 1.11127162 30 11 11884 5.82400000 1302737057 1302737057 11.00000000
5.19038391 -2.85933900 -0.31056157 9 12 11885 5.93400000 1302737059 1302737059 -3.00000000
8.20927525 -4.52428818 2.16402912 56 13 11886 9.62000000 1302737062 1302737062 13.00000000
5.28502560 -2.91388130 -0.10534272 29 14 11887 6.03600000 1302737064 1302737064 -1.00000000
8.07905006 -4.45619631 2.47223949 45 15 11888 9.55200000 1302737066 1302737066 15.00000000
1.87809241 -1.03890216 -0.57509589 4 0 11895 2.22200000 1302737087 1302737087 -15.00000000
5.88232136 -3.25525761 0.11734998 37 1 11896 6.72400000 1302737089 1302737089 1.00000000
2.20614195 -1.22137475 -0.58217335 3 2 11897 2.58800000 1302737092 1302737092 -13.00000000
2.60534596 -1.44297826 -0.57891446 6 4 11898 3.03400000 1302737096 1302737096 -11.00000000
8.02711391 -4.44767046 0.80287868 37 5 11899 9.21200000 1302737099 1302737099 5.00000000
3.23771620 -1.79469538 -0.58631635 4 6 11900 3.74800000 1302737101 1302737101 -9.00000000
8.04304028 -4.46016550 1.12924135 42 7 11901 9.26600000 1302737103 1302737103 7.00000000
4.21815157 -2.34008479 -0.59228504 6 8 11902 4.86000000 1302737106 1302737106 -7.00000000
6.05097342 -3.35687113 1.09597981 25 9 11902 7.00600000 1302737108 1302737108 9.00000000
6.27670336 -3.48353100 -0.62804431 12 10 11903 7.20600000 1302737110 1302737110 -5.00000000
4.98281384 -2.76656818 1.10783708 33 11 11904 5.80600000 1302737112 1302737112 11.00000000
5.16465759 -2.86871123 -0.30961952 9 12 11905 5.91600000 1302737115 1302737115 -3.00000000
8.19343185 -4.55291653 2.16402912 57 13 11906 9.62000000 1302737117 1302737117 13.00000000
5.24860525 -2.91773772 -0.10481916 33 14 11907 6.00600000 1302737119 1302737119 -1.00000000
8.06591702 -4.48390150 2.47275710 42 15 11907 9.55400000 1302737122 1302737122 15.00000000
1.87108016 -1.04356956 -0.57406062 4 0 11915 2.21800000 1302737142 1302737142 -15.00000000
5.88314629 -3.28259134 0.11759432 40 1 11916 6.73800000 1302737145 1302737145 1.00000000
2.19505858 -1.22526896 -0.58037370 3 2 11917 2.58000000 1302737147 1302737147 -13.00000000
4.99421883 -2.78888726 0.29978037 2 3 11918 5.72800000 1302737149 1302737149 3.00000000
2.60886383 -1.45684981 -0.58082259 6 4 11918 3.04400000 1302737152 1302737152 -11.00000000
8.04284859 -4.49315405 0.80601633 41 5 11919 9.24800000 1302737154 1302737154 5.00000000
3.21073961 -1.79442167 -0.58256197 4 6 11920 3.72400000 1302737156 1302737156 -9.00000000
8.03781796 -4.49402618 1.13070381 42 7 11921 9.27800000 1302737159 1302737159 7.00000000
4.20649242 -2.35285640 -0.59179753 6 8 11922 4.85600000 1302737161 1302737161 -7.00000000
6.05931568 -3.39060187 1.09973431 25 9 11923 7.03000000 1302737163 1302737163 9.00000000
6.26450539 -3.50541973 -0.62804431 12 10 11923 7.20600000 1302737165 1302737165 -5.00000000
4.94400358 -2.76764178 1.10134947 20 11 11924 5.77200000 1302737168 1302737168 11.00000000
5.13892889 -2.87793851 -0.30867746 12 12 11925 5.89800000 1302737170 1302737170 -3.00000000
8.19449043 -4.59101391 2.16852808 56 13 11926 9.64000000 1302737172 1302737172 13.00000000
5.21047831 -2.92039776 -0.10426068 36 14 11927 5.97400000 1302737175 1302737175 -1.00000000
8.05785370 -4.51815891 2.47534537 45 15 11928 9.56400000 1302737177 1302737177 15.00000000
1.87771356 -1.05544806 -0.57716650 4 0 11934 2.23000000 1302737198 1302737198 -15.00000000
5.87571430 -3.30404282 0.11766412 46 1 11935 6.74200000 1302737200 1302737200 1.00000000
2.18758655 -1.23063040 -0.57947391 3 2 11936 2.57600000 1302737202 1302737202 -13.00000000
4.98320293 -2.80445385 0.29967567 9 3 11937 5.72600000 1302737205 1302737205 3.00000000
2.59888554 -1.46260440 -0.57967770 5 4 11937 3.03800000 1302737207 1302737207 -11.00000000
8.04873753 -4.53152990 0.80810803 41 5 11938 9.27200000 1302737209 1302737209 5.00000000
3.20132899 -1.80312014 -0.58193618 4 6 11939 3.72000000 1302737212 1302737212 -9.00000000
8.03843594 -4.52942610 1.13289738 40 7 11940 9.29600000 1302737214 1302737214 7.00000000
4.19520855 -2.36484313 -0.59131008 6 8 11941 4.85200000 1302737216 1302737216 -7.00000000
6.06756258 -3.42029119 1.10317588 32 9 11941 7.05200000 1302737218 1302737218 9.00000000
6.24590492 -3.52225947 -0.62734705 12 10 11942 7.19800000 1302737221 1302737221 -5.00000000
5.11718178 -2.88809228 -0.30794477 21 12 11944 5.88400000 1302737225 1302737225 -3.00000000
8.18261528 -4.62007904 2.16942787 55 13 11945 9.64400000 1302737228 1302737228 13.00000000
5.16942453 -2.91995764 -0.10363239 38 14 11946 5.93800000 1302737230 1302737230 -1.00000000
8.04866600 -4.54630136 2.47689819 33 15 11946 9.57000000 1302737232 1302737232 15.00000000
1.87401795 -1.06199610 -0.57716650 4 0 11954 2.23000000 1302737253 1302737253 -15.00000000
5.88154125 -3.33439493 0.11801317 51 1 11955 6.76200000 1302737255 1302737255 1.00000000
2.18666768 -1.24018168 -0.58037370 3 2 11956 2.58000000 1302737258 1302737258 -13.00000000
4.96817160 -2.81887460 0.29936168 38 3 11957 5.72000000 1302737260 1302737260 3.00000000
2.58864164 -1.46876085 -0.57853287 5 4 11957 3.03200000 1302737262 1302737262 -11.00000000
8.04153442 -4.56451511 0.80897963 37 5 11958 9.28200000 1302737265 1302737265 5.00000000
3.19845104 -1.81623471 -0.58256197 4 6 11959 3.72400000 1302737267 1302737267 -9.00000000
8.03983688 -4.56726313 1.13533485 40 7 11960 9.31600000 1302737269 1302737269 7.00000000
4.18692780 -2.37947273 -0.59131008 6 8 11961 4.85200000 1302737271 1302737271 -7.00000000
6.06357193 -3.44738841 1.10474014 25 9 11962 7.06200000 1302737274 1302737274 9.00000000
6.23703575 -3.54600978 -0.62769568 16 10 11962 7.20200000 1302737276 1302737276 -5.00000000
5.15201950 -2.93032360 1.15210474 3 11 11963 6.03800000 1302737278 1302737278 11.00000000
5.10186148 -2.90297389 -0.30763075 25 12 11964 5.87800000 1302737281 1302737281 -3.00000000
8.16643810 -4.64861345 2.16942787 56 13 11965 9.64400000 1302737283 1302737283 13.00000000
5.13834858 -2.92610979 -0.10321353 45 14 11966 5.91400000 1302737285 1302737285 -1.00000000
6.96437931 -3.96758032 2.14768052 13 15 11967 8.29800000 1302737288 1302737288 15.00000000
1.86358988 -1.06469786 -0.57509589 4 0 11974 2.22200000 1302737308 1302737308 -15.00000000
5.89417219 -3.36879683 0.11850184 46 1 11975 6.79000000 1302737311 1302737311 1.00000000
2.18232536 -1.24780703 -0.58037370 3 2 11976 2.58000000 1302737313 1302737313 -13.00000000
2.58179474 -1.47681308 -0.57815129 5 4 11977 3.03000000 1302737318 1302737318 -11.00000000
8.03419876 -4.59750557 0.80985117 37 5 11978 9.29200000 1302737320 1302737320 5.00000000
3.20580626 -1.83523965 -0.58506489 6 6 11979 3.74000000 1302737322 1302737322 -9.00000000
8.04968452 -4.61009741 1.13899088 38 7 11980 9.34600000 1302737324 1302737324 7.00000000
4.16137218 -2.38420510 -0.58887267 6 8 11981 4.83200000 1302737327 1302737327 -7.00000000
7.25704336 -4.15783024 1.32468700 7 9 11981 8.46800000 1302737329 1302737329 9.00000000
6.20041990 -3.55388880 -0.62525529 16 10 11982 7.17400000 1302737331 1302737331 -5.00000000
5.11110258 -2.93071127 1.14523554 3 11 11983 6.00200000 1302737334 1302737334 11.00000000
5.06744289 -2.90685177 -0.30616534 28 12 11984 5.85000000 1302737336 1302737336 -3.00000000
8.16030312 -4.68291092 2.17212749 55 13 11985 9.65600000 1302737338 1302737338 13.00000000
5.11249495 -2.93506765 -0.10289939 60 14 11986 5.89600000 1302737341 1302737341 -1.00000000
8.01840591 -4.60334206 2.47741580 29 15 11986 9.57200000 1302737343 1302737343 15.00000000
1.84479558 -1.06251895 -0.57043719 4 0 11994 2.20400000 1302737364 1302737364 -15.00000000
5.88930750 -3.39334416 0.11864146 37 1 11995 6.79800000 1302737366 1302737366 1.00000000
2.19483972 -1.26514912 -0.58487272 3 2 11996 2.60000000 1302737368 1302737368 -13.00000000
4.97605467 -2.86945343 0.30103642 2 3 11997 5.75200000 1302737371 1302737371 3.00000000
2.58002543 -1.48777771 -0.57891446 5 4 11997 3.03400000 1302737373 1302737373 -11.00000000
8.03190804 -4.63348675 0.81124568 37 5 11998 9.30800000 1302737375 1302737375 5.00000000
3.18227172 -1.83654487 -0.58193618 4 6 11999 3.72000000 1302737377 1302737377 -9.00000000
8.06276798 -4.65504122 1.14313447 36 7 12000 9.38000000 1302737380 1302737380 7.00000000
4.17021418 -2.40864491 -0.59131008 6 8 12001 4.85200000 1302737382 1302737382 -7.00000000
7.24932766 -4.18708849 1.32593858 7 9 12001 8.47600000 1302737384 1302737384 9.00000000
6.18280125 -3.57252026 -0.62473238 16 10 12002 7.16800000 1302737387 1302737387 -5.00000000
5.03965187 -2.91316366 1.13149738 3 11 12003 5.93000000 1302737389 1302737389 11.00000000
5.07974195 -2.93752050 -0.30752608 37 12 12004 5.87600000 1302737391 1302737391 -3.00000000
8.14728069 -4.71331882 2.17302728 55 13 12005 9.66000000 1302737394 1302737394 13.00000000
5.09702635 -2.94989061 -0.10279468 69 14 12006 5.89000000 1302737396 1302737396 -1.00000000
7.99727249 -4.62840033 2.47586298 40 15 12006 9.56600000 1302737398 1302737398 15.00000000
1.84274614 -1.06992209 -0.57095480 4 0 12014 2.20600000 1302737419 1302737419 -15.00000000
5.86705160 -3.40785480 0.11843203 34 1 12015 6.78600000 1302737421 1302737421 1.00000000
2.17356086 -1.26301205 -0.58037370 3 2 12016 2.58000000 1302737424 1302737424 -13.00000000
4.90730000 -2.85267782 0.29747757 9 3 12017 5.68400000 1302737426 1302737426 3.00000000
2.57142186 -1.49480128 -0.57815129 5 4 12017 3.03000000 1302737428 1302737428 -11.00000000
8.03290844 -4.67151117 0.81298876 38 5 12018 9.32800000 1302737430 1302737430 5.00000000
3.16901183 -1.84366846 -0.58068472 3 6 12019 3.71200000 1302737433 1302737433 -9.00000000
8.04646969 -4.68315744 1.14313447 38 7 12020 9.38000000 1302737435 1302737435 7.00000000
4.16178083 -2.42318702 -0.59131008 6 8 12021 4.85200000 1302737437 1302737437 -7.00000000
7.22710514 -4.20965338 1.32468700 7 9 12022 8.46800000 1302737440 1302737440 9.00000000
6.17201471 -3.59508324 -0.62490666 16 10 12022 7.17000000 1302737442 1302737442 -5.00000000
5.00570440 -2.91689944 1.12615466 3 11 12023 5.90200000 1302737444 1302737444 11.00000000
5.07463360 -2.95825195 -0.30784011 62 12 12024 5.88200000 1302737447 1302737447 -3.00000000
8.13919544 -4.74663830 2.17527676 51 13 12025 9.67000000 1302737449 1302737449 13.00000000
5.08669853 -2.96766472 -0.10279468 78 14 12026 5.89000000 1302737451 1302737451 -1.00000000
7.98440504 -4.65823507 2.47689819 13 15 12026 9.57000000 1302737453 1302737453 15.00000000
1.84900379 -1.08220291 -0.57406062 4 0 12034 2.21800000 1302737474 1302737474 -15.00000000
4.81800652 -2.82105875 0.09745423 13 1 12035 5.58400000 1302737477 1302737477 1.00000000
2.15232396 -1.26074195 -0.57587469 3 2 12036 2.56000000 1302737479 1302737479 -13.00000000
4.83527756 -2.83343816 0.29370940 27 3 12037 5.61200000 1302737481 1302737481 3.00000000
2.57296371 -1.50773847 -0.57967770 5 4 12037 3.03800000 1302737483 1302737483 -11.00000000
3.16255689 -1.85471916 -0.58068472 3 6 12039 3.71200000 1302737488 1302737488 -9.00000000
8.04034710 -4.71724367 1.14459682 36 7 12040 9.39200000 1302737490 1302737490 7.00000000
4.14644909 -2.43368030 -0.59033507 6 8 12041 4.84400000 1302737493 1302737493 -7.00000000
7.22599411 -4.24285698 1.32719004 10 9 12042 8.48400000 1302737495 1302737495 9.00000000
6.15771008 -3.61559701 -0.62473238 16 10 12042 7.16800000 1302737497 1302737497 -5.00000000
4.98872089 -2.93037748 1.12462819 9 11 12043 5.89400000 1302737500 1302737500 11.00000000
5.04877853 -2.96684074 -0.30689806 28 12 12044 5.86400000 1302737502 1302737502 -3.00000000
8.11921692 -4.77304506 2.17437696 48 13 12045 9.66600000 1302737504 1302737504 13.00000000
5.08147955 -2.98844361 -0.10289939 72 14 12046 5.89600000 1302737506 1302737506 -1.00000000
6.72681379 -3.95765328 2.09125781 9 15 12047 8.08000000 1302737509 1302737509 15.00000000
1.84873295 -1.09029126 -0.57509589 4 0 12053 2.22200000 1302737530 1302737530 -15.00000000
4.77934599 -2.81974626 0.09686086 45 1 12054 5.55000000 1302737532 1302737532 1.00000000
2.15484428 -1.27183449 -0.57767433 3 2 12055 2.56800000 1302737534 1302737534 -13.00000000
4.80177689 -2.83524013 0.29224399 11 3 12056 5.58400000 1302737536 1302737536 3.00000000
2.56456876 -1.51426601 -0.57891446 5 4 12056 3.03400000 1302737539 1302737539 -11.00000000
4.92166662 -2.90718818 0.50009966 9 5 12057 5.73800000 1302737541 1302737541 5.00000000
3.16319156 -1.86921620 -0.58193618 4 6 12058 3.72000000 1302737543 1302737543 -9.00000000
8.04174805 -4.75398207 1.14703429 36 7 12059 9.41200000 1302737546 1302737546 7.00000000
4.12810421 -2.44135404 -0.58887267 6 8 12060 4.83200000 1302737548 1302737548 -7.00000000
7.21358442 -4.26780176 1.32750285 10 9 12061 8.48600000 1302737550 1302737550 9.00000000
6.14568663 -3.63599682 -0.62473238 16 10 12061 7.16800000 1302737553 1302737553 -5.00000000
5.00938702 -2.96490383 1.13149738 3 11 12062 5.93000000 1302737555 1302737555 11.00000000
5.04063129 -2.98458433 -0.30700272 28 12 12063 5.86600000 1302737557 1302737557 -3.00000000
8.10669708 -4.80192947 2.17527676 50 13 12064 9.67000000 1302737559 1302737559 13.00000000
5.07154131 -3.00527787 -0.10289939 63 14 12065 5.89600000 1302737562 1302737562 -1.00000000
6.68110752 -3.95906973 2.08090520 9 15 12065 8.04000000 1302737564 1302737564 15.00000000
1.83993411 -1.09377635 -0.57354301 4 0 12073 2.21600000 1302737585 1302737585 -15.00000000
4.72994328 -2.81290317 0.09605805 15 1 12074 5.50400000 1302737587 1302737587 1.00000000
2.15039158 -1.27934849 -0.57767433 3 2 12075 2.56800000 1302737589 1302737589 -13.00000000
2.54914498 -1.51718426 -0.57662481 5 4 12076 3.02200000 1302737594 1302737594 -11.00000000
4.89779329 -2.91619611 0.49870515 36 5 12077 5.72200000 1302737596 1302737596 5.00000000
3.16683030 -1.88631177 -0.58381343 4 6 12078 3.73200000 1302737599 1302737599 -9.00000000
8.04556751 -4.79421806 1.14995909 33 7 12079 9.43600000 1302737601 1302737601 7.00000000
4.11614704 -2.45371604 -0.58838516 6 8 12080 4.82800000 1302737603 1302737603 -7.00000000
7.20033979 -4.29396725 1.32781577 10 9 12081 8.48800000 1302737606 1302737606 9.00000000
6.11926746 -3.64926314 -0.62333786 16 10 12081 7.15200000 1302737608 1302737608 -5.00000000
5.01249504 -2.99041867 1.13455033 3 11 12082 5.94600000 1302737610 1302737610 11.00000000
5.01989222 -2.99601984 -0.30637470 15 12 12083 5.85400000 1302737612 1302737612 -3.00000000
8.10327148 -4.83819008 2.17887592 50 13 12084 9.68600000 1302737615 1302737615 13.00000000
5.07132053 -3.02911520 -0.10310882 63 14 12085 5.90800000 1302737617 1302737617 -1.00000000
6.64402819 -3.96849799 2.07365823 6 15 12085 8.01200000 1302737619 1302737619 15.00000000
1.83425593 -1.09951949 -0.57302535 4 0 12094 2.21400000 1302737640 1302737640 -15.00000000
4.63213825 -2.77777076 0.09427790 12 1 12095 5.40200000 1302737642 1302737642 1.00000000
2.15237236 -1.29123151 -0.57947391 3 2 12096 2.57600000 1302737645 1302737645 -13.00000000
4.56949139 -2.74128747 0.27926466 2 3 12096 5.33600000 1302737647 1302737647 3.00000000
2.54356694 -1.52651715 -0.57662481 5 4 12097 3.02200000 1302737649 1302737649 -11.00000000
4.88878012 -2.93515325 0.49887946 33 5 12098 5.72400000 1302737652 1302737652 5.00000000
3.14296126 -1.88773513 -0.58068472 3 6 12099 3.71200000 1302737654 1302737654 -9.00000000
8.04836082 -4.83594322 1.15288401 38 7 12100 9.46000000 1302737656 1302737656 7.00000000
4.11393118 -2.47287679 -0.58936012 6 8 12101 4.83600000 1302737658 1302737658 -7.00000000
7.20562363 -4.33128738 1.33157015 10 9 12101 8.51200000 1302737661 1302737661 9.00000000
6.08706903 -3.66037250 -0.62142044 16 10 12102 7.13000000 1302737663 1302737663 -5.00000000
5.01495934 -3.01686668 1.13760328 3 11 12103 5.96200000 1302737665 1302737665 11.00000000
4.99689865 -3.00718951 -0.30564198 15 12 12104 5.84000000 1302737668 1302737668 -3.00000000
8.10551834 -4.87991905 2.18427467 57 13 12105 9.71000000 1302737670 1302737670 13.00000000
5.07388830 -3.05593586 -0.10338806 67 14 12106 5.92400000 1302737672 1302737672 -1.00000000
7.90369368 -4.76029015 2.47223949 29 15 12106 9.55200000 1302737675 1302737675 15.00000000
1.83206022 -1.10691452 -0.57354301 4 0 12114 2.21600000 1302737695 1302737695 -15.00000000
4.69942570 -2.84047103 0.09584861 30 1 12115 5.49200000 1302737698 1302737698 1.00000000
2.15118718 -1.30075347 -0.58037370 3 2 12116 2.58000000 1302737700 1302737700 -13.00000000
4.56795788 -2.76318574 0.27978802 2 3 12117 5.34600000 1302737702 1302737702 3.00000000
2.53990293 -1.53640270 -0.57700640 5 4 12117 3.02400000 1302737705 1302737705 -11.00000000
4.90577793 -2.96870470 0.50166845 36 5 12118 5.75600000 1302737707 1302737707 5.00000000
3.11945415 -1.88846457 -0.57755607 3 6 12119 3.69200000 1302737709 1302737709 -9.00000000
8.02463913 -4.85989428 1.15190899 27 7 12120 9.45200000 1302737711 1302737711 7.00000000
4.10866976 -2.48927927 -0.58984762 6 8 12121 4.84000000 1302737714 1302737714 -7.00000000
7.19307899 -4.35971594 1.33219588 12 9 12122 8.51600000 1302737716 1302737716 9.00000000
6.07936621 -3.68469620 -0.62194335 16 10 12122 7.13600000 1302737718 1302737718 -5.00000000
4.98761034 -3.02417469 1.13378704 3 11 12123 5.94200000 1302737721 1302737721 11.00000000
4.97612524 -3.01839852 -0.30501395 12 12 12124 5.82800000 1302737723 1302737723 -3.00000000
8.10342884 -4.91728163 2.18832397 62 13 12125 9.72800000 1302737725 1302737725 13.00000000
5.07686520 -3.08192992 -0.10366730 65 14 12126 5.94000000 1302737728 1302737728 -1.00000000
7.90600777 -4.80125999 2.47845125 40 15 12127 9.57600000 1302737730 1302737730 15.00000000
1.83002961 -1.11398828 -0.57406062 4 0 12133 2.21800000 1302737751 1302737751 -15.00000000
4.70364380 -2.86435986 0.09612785 27 1 12134 5.50800000 1302737753 1302737753 1.00000000
2.12356257 -1.29368591 -0.57407510 3 2 12135 2.55200000 1302737755 1302737755 -13.00000000
4.82704449 -2.94066191 0.29622152 20 3 12135 5.66000000 1302737758 1302737758 3.00000000
2.54149985 -1.54890370 -0.57853287 5 4 12136 3.03200000 1302737760 1302737760 -11.00000000
4.91121674 -2.99429107 0.50323725 30 5 12137 5.77400000 1302737762 1302737762 5.00000000
3.11992049 -1.90291309 -0.57880753 3 6 12138 3.70000000 1302737764 1302737764 -9.00000000
7.90680599 -4.82444096 1.13728476 6 7 12139 9.33200000 1302737767 1302737767 7.00000000
4.09022617 -2.49668479 -0.58838516 6 8 12140 4.82800000 1302737769 1302737769 -7.00000000
7.19038343 -4.39075136 1.33438599 15 9 12141 8.53000000 1302737771 1302737771 9.00000000
6.04670906 -3.69237566 -0.61985165 16 10 12141 7.11200000 1302737774 1302737774 -5.00000000
5.00771141 -3.05911994 1.14065623 3 11 12142 5.97800000 1302737776 1302737776 11.00000000
4.94734192 -3.02342701 -0.30386257 12 12 12143 5.80600000 1302737778 1302737778 -3.00000000
8.09372902 -4.94819212 2.19012356 62 13 12144 9.73600000 1302737781 1302737781 13.00000000
5.09732389 -3.11752868 -0.10429558 65 14 12145 5.97600000 1302737783 1302737783 -1.00000000
7.87934875 -4.81901789 2.47482777 40 15 12145 9.56200000 1302737785 1302737785 15.00000000
1.83600986 -1.12643099 -0.57716650 4 0 12153 2.23000000 1302737806 1302737806 -15.00000000
4.70384264 -2.88703752 0.09633728 25 1 12154 5.52000000 1302737808 1302737808 1.00000000
2.13231945 -1.30924797 -0.57767433 4 2 12155 2.56800000 1302737810 1302737810 -13.00000000
4.81675053 -2.95749354 0.29622152 20 3 12155 5.66000000 1302737813 1302737813 3.00000000
2.52269459 -1.54954541 -0.57547992 6 4 12156 3.01600000 1302737815 1302737815 -11.00000000
4.91940737 -3.02289009 0.50515467 36 5 12157 5.79600000 1302737817 1302737817 5.00000000
3.12672186 -1.92206788 -0.58131045 4 6 12158 3.71600000 1302737820 1302737820 -9.00000000
8.02688313 -4.93624067 1.15702760 22 7 12159 9.49400000 1302737822 1302737822 7.00000000
4.07810497 -2.50886679 -0.58789772 6 8 12160 4.82400000 1302737824 1302737824 -7.00000000
7.17669535 -4.41685915 1.33469880 12 9 12161 8.53200000 1302737827 1302737827 9.00000000
6.04057074 -3.71763730 -0.62054890 16 10 12161 7.12000000 1302737829 1302737829 -5.00000000
5.01706409 -3.08893299 1.14523554 3 11 12162 6.00200000 1302737831 1302737831 11.00000000
4.86703444 -2.99773359 -0.29957101 9 12 12163 5.72400000 1302737834 1302737834 -3.00000000
8.08304310 -4.98050356 2.19192314 56 13 12164 9.74400000 1302737836 1302737836 13.00000000
5.08641100 -3.13530278 -0.10429558 60 14 12165 5.97600000 1302737838 1302737838 -1.00000000
7.86741304 -4.84953403 2.47638059 40 15 12165 9.56800000 1302737840 1302737840 15.00000000
1.81727862 -1.12368906 -0.57250774 4 0 12173 2.21200000 1302737861 1302737861 -15.00000000
4.70393991 -2.90975118 0.09654671 25 1 12174 5.53200000 1302737863 1302737863 1.00000000
2.13436484 -1.32078505 -0.57947391 3 2 12175 2.57600000 1302737866 1302737866 -13.00000000
4.81776571 -2.98248696 0.29695421 23 3 12176 5.67400000 1302737868 1302737868 3.00000000
2.51059318 -1.55420828 -0.57395345 6 4 12176 3.00800000 1302737870 1302737870 -11.00000000
4.91051960 -3.04109263 0.50532901 36 5 12177 5.79800000 1302737873 1302737873 5.00000000
3.12335181 -1.93505120 -0.58193618 4 6 12178 3.72000000 1302737875 1302737875 -9.00000000
8.02141476 -4.97154999 1.15873373 11 7 12179 9.50800000 1302737877 1302737877 7.00000000
4.06594801 -2.52099466 -0.58741021 6 8 12180 4.82000000 1302737880 1302737880 -7.00000000
6.01062536 -3.72819805 -0.61880577 16 10 12181 7.10000000 1302737884 1302737884 -5.00000000
5.00625134 -3.10642695 1.14523554 3 11 12182 6.00200000 1302737887 1302737887 11.00000000
4.54091644 -2.81878042 -0.28010204 22 12 12183 5.35200000 1302737889 1302737889 -3.00000000
7.92323589 -4.92027569 2.15323138 15 13 12184 9.57200000 1302737891 1302737891 13.00000000
4.48092318 -2.78370667 -0.09207889 12 14 12185 5.27600000 1302737893 1302737893 -1.00000000
7.84630394 -4.87629747 2.47534537 36 15 12186 9.56400000 1302737896 1302737896 15.00000000
1.80514741 -1.12491715 -0.56991953 4 0 12193 2.20200000 1302737916 1302737916 -15.00000000
4.69884539 -2.92932701 0.09665143 25 1 12194 5.53800000 1302737919 1302737919 1.00000000
2.11982012 -1.32203984 -0.57677448 3 2 12195 2.56400000 1302737921 1302737921 -13.00000000
4.82310104 -3.00795889 0.29789627 23 3 12195 5.69200000 1302737923 1302737923 3.00000000
2.52180934 -1.57335436 -0.57776964 6 4 12196 3.02800000 1302737926 1302737926 -11.00000000
4.90494490 -3.06137991 0.50585192 39 5 12197 5.80400000 1302737928 1302737928 5.00000000
3.10652471 -1.93966472 -0.58005899 3 6 12198 3.70800000 1302737930 1302737930 -9.00000000
7.96023703 -4.97217655 1.15239656 6 7 12199 9.45600000 1302737933 1302737933 7.00000000
4.05375671 -2.53306818 -0.58692276 6 8 12200 4.81600000 1302737935 1302737935 -7.00000000
5.76210928 -3.60196376 1.07626915 2 9 12201 6.88000000 1302737937 1302737937 9.00000000
5.98743820 -3.74281979 -0.61775988 16 10 12201 7.08800000 1302737940 1302737940 -5.00000000
5.01202297 -3.13429260 1.14905179 3 11 12202 6.02200000 1302737942 1302737942 11.00000000
4.50395823 -2.81766558 -0.27842727 38 12 12203 5.32000000 1302737944 1302737944 -3.00000000
8.00182343 -5.00786495 2.17932582 24 13 12204 9.68800000 1302737946 1302737946 13.00000000
4.46609449 -2.79614758 -0.09197418 40 14 12205 5.27000000 1302737949 1302737949 -1.00000000
7.83250904 -4.90570736 2.47638059 38 15 12206 9.56800000 1302737951 1302737951 15.00000000
1.81102562 -1.13737607 -0.57302535 4 0 12213 2.21400000 1302737972 1302737972 -15.00000000
4.69875097 -2.95209408 0.09686086 27 1 12214 5.55000000 1302737974 1302737974 1.00000000
2.12179208 -1.33357942 -0.57857412 3 2 12215 2.57200000 1302737976 1302737976 -13.00000000
4.82440901 -3.03221607 0.29862896 23 3 12215 5.70600000 1302737979 1302737979 3.00000000
2.50632977 -1.57587755 -0.57547992 5 4 12216 3.01600000 1302737981 1302737981 -11.00000000
4.91109371 -3.08909082 0.50759506 39 5 12217 5.82400000 1302737983 1302737983 5.00000000
3.07967210 -1.93787205 -0.57630455 5 6 12218 3.68400000 1302737986 1302737986 -9.00000000
7.89747381 -4.97137976 1.14581561 6 7 12219 9.40200000 1302737988 1302737988 7.00000000
4.05496836 -2.55355000 -0.58838516 6 8 12220 4.82800000 1302737990 1302737990 -7.00000000
5.74846125 -3.61999917 1.07595623 5 9 12220 6.87800000 1302737993 1302737993 9.00000000
5.95747948 -3.75307727 -0.61601681 16 10 12221 7.06800000 1302737995 1302737995 -5.00000000
5.00769520 -3.15595579 1.15057826 3 11 12222 6.03000000 1302737997 1302737997 11.00000000
4.46368408 -2.81419706 -0.27654320 44 12 12223 5.28400000 1302737999 1302737999 -3.00000000
8.03539085 -5.06799316 2.19327283 32 13 12224 9.75000000 1302738002 1302738002 13.00000000
4.42755651 -2.79358006 -0.09138080 40 14 12225 5.23600000 1302738004 1302738004 -1.00000000
7.81043625 -4.92992449 2.47482777 40 15 12226 9.56200000 1302738006 1302738006 15.00000000
1.80377960 -1.14162445 -0.57199007 4 0 12233 2.21000000 1302738027 1302738027 -15.00000000
4.59718323 -2.91071272 0.09497599 30 1 12234 5.44200000 1302738029 1302738029 1.00000000
2.09736872 -1.32846463 -0.57317531 3 2 12235 2.54800000 1302738032 1302738032 -13.00000000
4.81379509 -3.04903793 0.29862896 21 3 12235 5.70600000 1302738034 1302738034 3.00000000
2.50744700 -1.58881986 -0.57700640 5 4 12236 3.02400000 1302738036 1302738036 -11.00000000
4.91037750 -3.11261511 0.50864089 39 5 12237 5.83600000 1302738039 1302738039 5.00000000
3.08289838 -1.95495760 -0.57818180 3 6 12238 3.69600000 1302738041 1302738041 -9.00000000
7.82307959 -4.96276236 1.13752842 6 7 12239 9.33400000 1302738043 1302738043 7.00000000
4.03765011 -2.56237054 -0.58716649 6 8 12240 4.81800000 1302738046 1302738046 -7.00000000
5.73412228 -3.63898468 1.07564342 10 9 12240 6.87600000 1302738048 1302738048 9.00000000
5.93761396 -3.76957822 -0.61531955 16 10 12241 7.06000000 1302738050 1302738050 -5.00000000
4.99996281 -3.17552185 1.15134144 3 11 12242 6.03400000 1302738052 1302738052 11.00000000
4.42348957 -2.81048179 -0.27465910 44 12 12243 5.24800000 1302738055 1302738055 -3.00000000
8.00284863 -5.08660316 2.18922377 41 13 12244 9.73200000 1302738057 1302738057 13.00000000
4.39584112 -2.79506969 -0.09092703 40 14 12245 5.21000000 1302738059 1302738059 -1.00000000
7.81111050 -4.96856308 2.48052168 42 15 12246 9.58400000 1302738062 1302738062 15.00000000
1.80304110 -1.14999151 -0.57302535 4 0 12253 2.21400000 1302738082 1302738082 -15.00000000
4.36447287 -2.78476119 0.09036856 49 1 12254 5.17800000 1302738085 1302738085 1.00000000
2.09928942 -1.33997178 -0.57497489 3 2 12255 2.55600000 1302738087 1302738087 -13.00000000
4.80143929 -3.06474805 0.29852429 7 3 12255 5.70400000 1302738089 1302738089 3.00000000
2.49526715 -1.59333646 -0.57547992 5 4 12256 3.01600000 1302738092 1302738092 -11.00000000
4.91795206 -3.14153457 0.51055837 40 5 12257 5.85800000 1302738094 1302738094 5.00000000
3.07272649 -1.96357965 -0.57755607 5 6 12258 3.69200000 1302738096 1302738096 -9.00000000
7.84584951 -5.01570082 1.14337814 6 7 12259 9.38200000 1302738098 1302738098 7.00000000
4.03035307 -2.57751846 -0.58741021 8 8 12260 4.82000000 1302738101 1302738101 -7.00000000
5.72138500 -3.65897822 1.07564342 10 9 12260 6.87600000 1302738103 1302738103 9.00000000
5.93113279 -3.79457641 -0.61601681 16 10 12261 7.06800000 1302738105 1302738105 -5.00000000
5.00207663 -3.20142221 1.15439439 3 11 12262 6.05000000 1302738108 1302738108 11.00000000
4.40019560 -2.81728983 -0.27382171 44 12 12263 5.23200000 1302738110 1302738110 -3.00000000
7.96043015 -5.09874105 2.18247509 16 13 12264 9.70200000 1302738112 1302738112 13.00000000
4.35238361 -2.78882003 -0.09022894 40 14 12265 5.17000000 1302738115 1302738115 -1.00000000
7.79784441 -4.99652290 2.48155689 42 15 12265 9.58800000 1302738117 1302738117 15.00000000
1.78926516 -1.15001130 -0.56991953 4 0 12273 2.20200000 1302738138 1302738138 -15.00000000
4.32781315 -2.78267527 0.08981008 49 1 12274 5.14600000 1302738140 1302738140 1.00000000
2.10115504 -1.35150838 -0.57677448 3 2 12275 2.56400000 1302738142 1302738142 -13.00000000
4.80415010 -3.09013319 0.29936168 9 3 12275 5.72000000 1302738145 1302738145 3.00000000
2.47978425 -1.59566271 -0.57319021 6 4 12276 3.00400000 1302738147 1302738147 -11.00000000
4.90863180 -3.15976071 0.51073265 43 5 12277 5.86000000 1302738149 1302738149 5.00000000
3.07249689 -1.97857153 -0.57880753 5 6 12278 3.70000000 1302738151 1302738151 -9.00000000
7.84498167 -5.05380774 1.14581561 6 7 12279 9.40200000 1302738154 1302738154 7.00000000
4.01132011 -2.58511925 -0.58594781 8 8 12280 4.80800000 1302738156 1302738156 -7.00000000
5.72352171 -3.68855810 1.07845914 25 9 12280 6.89400000 1302738158 1302738158 9.00000000
5.89440775 -3.80014253 -0.61357641 16 10 12281 7.04000000 1302738161 1302738161 -5.00000000
5.39344025 -3.47850037 1.24750924 6 11 12282 6.53800000 1302738163 1302738163 11.00000000
4.37523031 -2.82288694 -0.27287969 76 12 12283 5.21400000 1302738165 1302738165 -3.00000000
7.92784786 -5.11698627 2.17842603 13 13 12284 9.68400000 1302738168 1302738168 13.00000000
4.32750273 -2.79423308 -0.08991480 68 14 12285 5.15200000 1302738170 1302738170 -1.00000000
7.77461052 -5.02192545 2.48000407 38 15 12286 9.58200000 1302738172 1302738172 15.00000000
1.79496884 -1.16255105 -0.57302535 4 0 12293 2.21400000 1302738193 1302738193 -15.00000000
4.29290009 -2.78145504 0.08928651 54 1 12294 5.11600000 1302738195 1302738195 1.00000000
2.10296559 -1.36307418 -0.57857412 3 2 12295 2.57200000 1302738198 1302738198 -13.00000000
4.81457758 -3.12184668 0.30072239 21 3 12296 5.74600000 1302738200 1302738200 3.00000000
2.48078823 -1.60858154 -0.57471669 5 4 12296 3.01200000 1302738202 1302738202 -11.00000000
4.91094446 -3.18554997 0.51212716 43 5 12297 5.87600000 1302738204 1302738204 5.00000000
3.06225753 -1.98713386 -0.57818180 5 6 12298 3.69600000 1302738207 1302738207 -9.00000000
7.84727287 -5.09413147 1.14874041 6 7 12299 9.42600000 1302738209 1302738209 7.00000000
4.00560141 -2.60126805 -0.58643526 8 8 12300 4.81200000 1302738211 1302738211 -7.00000000
5.71889496 -3.71389365 1.08002353 27 9 12300 6.90400000 1302738214 1302738214 9.00000000
5.87108183 -3.81418228 -0.61253059 16 10 12301 7.02800000 1302738216 1302738216 -5.00000000
5.43558836 -3.53261042 1.26010263 12 11 12302 6.60400000 1302738218 1302738218 11.00000000
4.37874603 -2.84685159 -0.27371705 68 12 12303 5.23000000 1302738221 1302738221 -3.00000000
4.36010408 -2.83581424 1.20078874 9 13 12304 5.33800000 1302738223 1302738223 13.00000000
4.33280802 -2.81913710 -0.09022894 70 14 12305 5.17000000 1302738225 1302738225 -1.00000000
7.74819899 -5.04135799 2.47689819 40 15 12305 9.57000000 1302738228 1302738228 15.00000000
1.79089975 -1.16880953 -0.57302535 6 0 12313 2.21400000 1302738248 1302738248 -15.00000000
4.26139736 -2.78221130 0.08883275 54 1 12314 5.09000000 1302738251 1302738251 1.00000000
2.08514237 -1.36188161 -0.57497489 3 2 12315 2.55600000 1302738253 1302738253 -13.00000000
4.82538700 -3.15283561 0.30208313 26 3 12316 5.77200000 1302738255 1302738255 3.00000000
2.48337579 -1.62260056 -0.57662481 5 4 12316 3.02200000 1302738257 1302738257 -11.00000000
4.90479803 -3.20594311 0.51265007 40 5 12317 5.88200000 1302738260 1302738260 5.00000000
3.03546286 -1.98483825 -0.57442737 5 6 12318 3.67200000 1302738262 1302738262 -9.00000000
5.95722151 -3.89681149 0.87404692 10 7 12319 7.17200000 1302738264 1302738264 7.00000000
3.99815798 -2.61632133 -0.58667904 8 8 12320 4.81400000 1302738267 1302738267 -7.00000000
5.71350813 -3.74023914 1.08158791 25 9 12321 6.91400000 1302738269 1302738269 9.00000000
5.84773064 -3.82810545 -0.61148471 12 10 12321 7.01600000 1302738271 1302738271 -5.00000000
5.31482553 -3.48057461 1.23491585 18 11 12322 6.47200000 1302738274 1302738274 11.00000000
7.74259233 -5.07819843 2.48103929 40 15 12326 9.58600000 1302738283 1302738283 15.00000000
1.78378546 -1.17261958 -0.57199007 4 0 12332 2.21000000 1302738304 1302738304 -15.00000000
4.22374439 -2.77764845 0.08823936 58 1 12333 5.05600000 1302738306 1302738306 1.00000000
2.07410264 -1.36450446 -0.57317531 3 2 12334 2.54800000 1302738308 1302738308 -13.00000000
4.81156826 -3.16662383 0.30187380 23 3 12335 5.76800000 1302738310 1302738310 3.00000000
2.47470140 -1.62866819 -0.57586157 5 4 12335 3.01800000 1302738313 1302738313 -11.00000000
4.90079594 -3.22657299 0.51334733 37 5 12336 5.89000000 1302738315 1302738315 5.00000000
3.02886415 -1.99489331 -0.57442737 5 6 12337 3.67200000 1302738317 1302738317 -9.00000000
5.90945578 -3.89360929 0.86892843 25 7 12338 7.13000000 1302738320 1302738320 7.00000000
3.98283005 -2.62519526 -0.58570409 8 8 12339 4.80600000 1302738322 1302738322 -7.00000000
5.72646952 -3.77447701 1.08628094 25 9 12339 6.94400000 1302738324 1302738324 9.00000000
5.81171703 -3.83212137 -0.60904431 12 10 12340 6.98800000 1302738327 1302738327 -5.00000000
5.40650034 -3.56628418 1.25895774 18 11 12341 6.59800000 1302738329 1302738329 11.00000000
4.27889967 -2.82463002 1.18369246 41 13 12343 5.26200000 1302738334 1302738334 13.00000000
7.72982502 -5.10462666 2.48207474 38 15 12344 9.59000000 1302738338 1302738338 15.00000000
1.79256594 -1.18737364 -0.57613117 4 0 12352 2.22600000 1302738359 1302738359 -15.00000000
4.19902039 -2.78243399 0.08792523 67 1 12353 5.03800000 1302738361 1302738361 1.00000000
2.07582402 -1.37604296 -0.57497489 3 2 12354 2.55600000 1302738363 1302738363 -13.00000000
4.80880833 -3.18891907 0.30239716 23 3 12355 5.77800000 1302738366 1302738366 3.00000000
2.46409273 -1.63404155 -0.57471669 5 4 12355 3.01200000 1302738368 1302738368 -11.00000000
4.90112543 -3.25137019 0.51456749 31 5 12356 5.90400000 1302738370 1302738370 5.00000000
3.03340364 -2.01309991 -0.57661742 5 6 12357 3.68600000 1302738373 1302738373 -9.00000000
5.87763691 -3.90213585 0.86624730 45 7 12358 7.10800000 1302738375 1302738375 7.00000000
3.96372056 -2.63249254 -0.58424163 8 8 12359 4.79400000 1302738377 1302738377 -7.00000000
5.71588755 -3.79762650 1.08690667 15 9 12360 6.94800000 1302738380 1302738380 9.00000000
5.79498625 -3.85017943 -0.60869569 12 10 12360 6.98400000 1302738382 1302738382 -5.00000000
5.40219402 -3.59056830 1.26086581 18 11 12361 6.60800000 1302738384 1302738384 11.00000000
4.30262995 -2.86082602 -0.27078623 2 12 12362 5.17400000 1302738386 1302738386 -3.00000000
4.24954271 -2.82659769 1.17829359 44 13 12363 5.23800000 1302738389 1302738389 13.00000000
4.41509151 -2.93782473 -0.09256756 2 14 12364 5.30400000 1302738391 1302738391 -1.00000000
7.71910429 -5.13827610 2.48466277 40 15 12365 9.60000000 1302738393 1302738393 15.00000000
1.76772738 -1.17937338 -0.56940192 4 0 12371 2.20000000 1302738414 1302738414 -15.00000000
4.19808722 -2.80189371 0.08809975 65 1 12372 5.04800000 1302738416 1302738416 1.00000000
2.07449102 -1.38508332 -0.57587469 3 2 12373 2.56000000 1302738419 1302738419 -13.00000000
4.81315470 -3.21483207 0.30333921 26 3 12374 5.79600000 1302738421 1302738421 3.00000000
2.44396734 -1.63238978 -0.57128215 5 4 12374 2.99400000 1302738423 1302738423 -11.00000000
4.23264170 -2.82816076 0.44536585 37 5 12375 5.11000000 1302738426 1302738426 5.00000000
3.03163791 -2.02644110 -0.57755607 5 6 12376 3.69200000 1302738428 1302738428 -9.00000000
5.84651279 -3.90946770 0.86356616 75 7 12377 7.08600000 1302738430 1302738430 7.00000000
3.97476864 -2.65886688 -0.58716649 10 8 12378 4.81800000 1302738433 1302738433 -7.00000000
5.71377993 -3.82215476 1.08878386 5 9 12378 6.96000000 1302738435 1302738435 9.00000000
4.25550365 -2.84773612 -0.44798052 9 10 12379 5.14000000 1302738437 1302738437 -5.00000000
4.23357105 -2.83412862 0.99029869 10 11 12380 5.19000000 1302738439 1302738439 11.00000000
4.23835611 -2.83840346 -0.26733208 7 12 12381 5.10800000 1302738442 1302738442 -3.00000000
4.24338388 -2.84284353 1.17919338 43 13 12382 5.24200000 1302738444 1302738444 13.00000000
4.46512604 -2.99252820 -0.09382414 2 14 12383 5.37600000 1302738446 1302738446 -1.00000000
7.70613337 -5.16465187 2.48569822 45 15 12383 9.60400000 1302738449 1302738449 15.00000000
1.76520300 -1.18661451 -0.56991953 4 0 12391 2.20200000 1302738469 1302738469 -15.00000000
4.16836834 -2.80313993 0.08768089 51 1 12392 5.02400000 1302738472 1302738472 1.00000000
2.07287717 -1.39449167 -0.57677448 3 2 12393 2.56400000 1302738474 1302738474 -13.00000000
4.81018829 -3.23718905 0.30386257 21 3 12394 5.80600000 1302738476 1302738476 3.00000000
2.44151187 -1.64310324 -0.57204539 5 4 12394 2.99800000 1302738479 1302738479 -11.00000000
4.18142557 -2.81510091 0.44100806 23 5 12395 5.06000000 1302738481 1302738481 5.00000000
3.01307702 -2.02928686 -0.57536596 5 6 12396 3.67800000 1302738483 1302738483 -9.00000000
5.82295275 -3.92319679 0.86210376 15 7 12397 7.07400000 1302738486 1302738486 7.00000000
3.95887899 -2.66828728 -0.58619153 8 8 12398 4.81000000 1302738488 1302738488 -7.00000000
4.17489052 -2.81493926 0.79750288 31 9 12399 5.09800000 1302738490 1302738490 9.00000000
4.22075796 -2.84586549 -0.44536585 12 10 12399 5.11000000 1302738492 1302738492 -5.00000000
4.21714163 -2.84449792 0.98877221 36 11 12400 5.18200000 1302738495 1302738495 11.00000000
4.22014427 -2.84759521 -0.26680872 10 12 12401 5.09800000 1302738497 1302738497 -3.00000000
4.23020458 -2.85545778 1.17829359 37 13 12402 5.23800000 1302738499 1302738499 13.00000000
7.67114401 -5.18204784 2.48052168 45 15 12404 9.58400000 1302738504 1302738504 15.00000000
1.76404071 -1.19524360 -0.57095480 4 0 12412 2.20600000 1302738525 1302738525 -15.00000000
4.12661600 -2.79708147 0.08701770 47 1 12413 4.98600000 1302738527 1302738527 1.00000000
2.05807471 -1.39551783 -0.57407510 3 2 12414 2.55200000 1302738529 1302738529 -13.00000000
4.11565447 -2.79174852 0.26063305 34 3 12415 4.98000000 1302738532 1302738532 3.00000000
2.44684625 -1.65975535 -0.57471669 5 4 12415 3.01200000 1302738534 1302738534 -11.00000000
4.13810635 -2.80803299 0.43752182 47 5 12416 5.02000000 1302738536 1302738536 5.00000000
3.00071573 -2.03698826 -0.57442737 5 6 12417 3.67200000 1302738539 1302738539 -9.00000000
4.12690067 -2.80253339 0.61251533 63 7 12418 5.02600000 1302738541 1302738541 7.00000000
3.95728254 -2.68835688 -0.58741021 8 8 12419 4.82000000 1302738543 1302738543 -7.00000000
4.15523529 -2.82283473 0.79562569 51 9 12419 5.08600000 1302738545 1302738545 9.00000000
4.19546843 -2.85123730 -0.44379705 12 10 12420 5.09200000 1302738548 1302738548 -5.00000000
4.17421627 -2.83785963 0.98113984 39 11 12421 5.14200000 1302738550 1302738550 11.00000000
4.20802784 -2.86192036 -0.26670402 28 12 12422 5.09600000 1302738552 1302738552 -3.00000000
4.22454357 -2.87423158 1.17964327 28 13 12423 5.24400000 1302738555 1302738555 13.00000000
4.44194460 -3.02327776 -0.09378923 2 14 12424 5.37400000 1302738557 1302738557 -1.00000000
7.64502335 -5.20335865 2.47793365 45 15 12424 9.57400000 1302738559 1302738559 15.00000000
1.76145327 -1.20248318 -0.57147247 4 0 12432 2.20800000 1302738580 1302738580 -15.00000000
4.10691929 -2.80470252 0.08680827 47 1 12433 4.97400000 1302738582 1302738582 1.00000000
2.05319095 -1.40269339 -0.57407510 3 2 12434 2.55200000 1302738585 1302738585 -13.00000000
4.08115005 -2.78919363 0.25906298 52 3 12435 4.95000000 1302738587 1302738587 3.00000000
2.44590044 -1.67160964 -0.57586157 5 4 12435 3.01800000 1302738589 1302738589 -11.00000000
4.08058214 -2.78985047 0.43246680 54 5 12436 4.96200000 1302738592 1302738592 5.00000000
2.99358726 -2.04745030 -0.57442737 5 6 12437 3.67200000 1302738594 1302738594 -9.00000000
4.08432627 -2.79450297 0.60764056 53 7 12438 4.98600000 1302738596 1302738596 7.00000000
3.94132185 -2.69766927 -0.58643526 8 8 12439 4.81200000 1302738598 1302738598 -7.00000000
4.12530231 -2.82465339 0.79187125 60 9 12440 5.06200000 1302738601 1302738601 9.00000000
4.18384600 -2.86473918 -0.44362274 15 10 12440 5.09000000 1302738603 1302738603 -5.00000000
4.15294695 -2.84464693 0.97846854 55 11 12441 5.12800000 1302738605 1302738605 11.00000000
4.18153620 -2.86530209 -0.26565731 15 12 12442 5.07600000 1302738608 1302738608 -3.00000000
4.20966291 -2.88565516 1.17829359 42 13 12443 5.23800000 1302738610 1302738610 13.00000000
4.37199354 -2.99805188 -0.09253266 2 14 12444 5.30200000 1302738612 1302738612 -1.00000000
7.58926058 -5.20620918 2.46602798 45 15 12445 9.52800000 1302738615 1302738615 15.00000000
1.75406170 -1.20643485 -0.57043719 4 0 12452 2.20400000 1302738635 1302738635 -15.00000000
4.07898235 -2.80655265 0.08642431 49 1 12453 4.95200000 1302738638 1302738638 1.00000000
2.04828215 -1.40985179 -0.57407510 3 2 12454 2.55200000 1302738640 1302738640 -13.00000000
4.03848886 -2.78076863 0.25696954 46 3 12455 4.91000000 1302738642 1302738642 3.00000000
2.43034840 -1.67345679 -0.57357186 5 4 12455 3.00600000 1302738645 1302738645 -11.00000000
4.05112934 -2.79051471 0.43037507 47 5 12456 4.93800000 1302738647 1302738647 5.00000000
2.98316884 -2.05564570 -0.57380164 3 6 12457 3.66800000 1302738649 1302738649 -9.00000000
4.05656862 -2.79634976 0.60495943 53 7 12458 4.96400000 1302738651 1302738651 7.00000000
3.93351555 -2.71253753 -0.58667904 8 8 12459 4.81400000 1302738654 1302738654 -7.00000000
4.10290289 -2.82934642 0.78936833 76 9 12459 5.04600000 1302738656 1302738656 9.00000000
4.13282061 -2.85104203 -0.43926495 12 10 12460 5.04000000 1302738658 1302738658 -5.00000000
4.15915012 -2.87027693 0.98228472 55 11 12461 5.14800000 1302738661 1302738661 11.00000000
4.17315245 -2.88101578 -0.26576197 10 12 12462 5.07800000 1302738663 1302738663 -3.00000000
4.20597839 -2.90476179 1.18009329 7 13 12463 5.24600000 1302738665 1302738665 13.00000000
4.37137318 -3.02011466 -0.09274209 2 14 12464 5.31400000 1302738668 1302738668 -1.00000000
7.53698778 -5.20718908 2.45463991 42 15 12464 9.48400000 1302738670 1302738670 15.00000000
1.74666393 -1.21034968 -0.56940192 4 0 12472 2.20000000 1302738691 1302738691 -15.00000000
4.05272627 -2.80938148 0.08607527 49 1 12473 4.93200000 1302738693 1302738693 1.00000000
2.04334831 -1.41699302 -0.57407510 3 2 12474 2.55200000 1302738695 1302738695 -13.00000000
4.01070595 -2.78232574 0.25581816 44 3 12475 4.88800000 1302738698 1302738698 3.00000000
2.40997434 -1.67185867 -0.57013726 5 4 12475 2.98800000 1302738700 1302738700 -11.00000000
4.02008486 -2.78987169 0.42810902 63 5 12476 4.91200000 1302738702 1302738702 5.00000000
2.97597504 -2.06604648 -0.57380164 3 6 12477 3.66800000 1302738704 1302738704 -9.00000000
4.05004358 -2.81275749 0.60544688 59 7 12478 4.96800000 1302738707 1302738707 7.00000000
3.92076254 -2.72398615 -0.58619153 8 8 12479 4.81000000 1302738709 1302738709 -7.00000000
4.08651257 -2.83914256 0.78811681 47 9 12479 5.03800000 1302738711 1302738711 9.00000000
4.11139107 -2.85749125 -0.43804476 9 10 12480 5.02600000 1302738714 1302738714 -5.00000000
4.08928633 -2.84424543 -0.26105174 7 12 12482 4.98800000 1302738718 1302738718 -3.00000000
4.28858900 -2.98508954 -0.09120627 2 14 12484 5.22600000 1302738723 1302738723 -1.00000000
7.48388243 -5.20918608 2.44325185 45 15 12484 9.44000000 1302738725 1302738725 15.00000000
1.73134029 -1.20869839 -0.56577843 4 0 12492 2.18600000 1302738746 1302738746 -15.00000000
4.02322149 -2.80977130 0.08565641 51 1 12493 4.90800000 1302738748 1302738748 1.00000000
2.04158473 -1.42634916 -0.57497489 3 2 12494 2.55600000 1302738751 1302738751 -13.00000000
3.98951030 -2.78829980 0.25508544 62 3 12495 4.87400000 1302738753 1302738753 3.00000000
2.41216969 -1.68588424 -0.57204539 5 4 12495 2.99800000 1302738755 1302738755 -11.00000000
4.00542355 -2.80046248 0.42758608 69 5 12496 4.90600000 1302738757 1302738757 5.00000000
2.96874499 -2.07642198 -0.57380164 5 6 12497 3.66800000 1302738760 1302738760 -9.00000000
4.05809212 -2.83939600 0.60812801 38 7 12498 4.99000000 1302738762 1302738762 7.00000000
3.90797758 -2.73537898 -0.58570409 8 8 12499 4.80600000 1302738764 1302738764 -7.00000000
5.63919640 -3.94860792 1.09034824 45 9 12500 6.97000000 1302738767 1302738767 9.00000000
4.09649515 -2.86839700 -0.43752182 12 10 12500 5.02000000 1302738769 1302738769 -5.00000000
5.28069592 -3.69895673 1.25323343 25 11 12501 6.56800000 1302738771 1302738771 11.00000000
4.05806971 -2.84360242 -0.25969100 22 12 12502 4.96200000 1302738774 1302738774 -3.00000000
4.23506451 -2.96873021 1.19404018 2 13 12503 5.30800000 1302738776 1302738776 13.00000000
4.08822203 -2.86685920 -0.08715732 2 14 12504 4.99400000 1302738778 1302738778 -1.00000000
7.41345739 -5.19867563 2.42616963 45 15 12504 9.37400000 1302738780 1302738780 15.00000000
1.73817170 -1.22251415 -0.56940192 4 0 12512 2.20000000 1302738801 1302738801 -15.00000000
3.99539924 -2.81114006 0.08527246 51 1 12513 4.88600000 1302738804 1302738804 1.00000000
2.03978062 -1.43571019 -0.57587469 3 2 12514 2.56000000 1302738806 1302738806 -13.00000000
3.98791814 -2.80795813 0.25560880 76 3 12515 4.88400000 1302738808 1302738808 3.00000000
2.41269112 -1.69881511 -0.57357186 5 4 12515 3.00600000 1302738810 1302738810 -11.00000000
4.04286098 -2.84769964 0.43264112 49 5 12516 4.96400000 1302738813 1302738813 5.00000000
2.95179033 -2.07994533 -0.57192439 3 6 12517 3.65600000 1302738815 1302738815 -9.00000000
7.59008932 -5.35025215 1.14020956 49 7 12518 9.35600000 1302738817 1302738817 7.00000000
3.89353848 -2.74557185 -0.58497286 8 8 12519 4.80000000 1302738820 1302738820 -7.00000000
5.60923719 -3.95688152 1.08721948 45 9 12520 6.95000000 1302738822 1302738822 9.00000000
4.06529284 -2.86774874 -0.43525577 9 10 12520 4.99400000 1302738824 1302738824 -5.00000000
5.24208689 -3.69925594 1.24712765 25 11 12521 6.53600000 1302738827 1302738827 11.00000000
4.05301380 -2.86120605 -0.26000503 10 12 12522 4.96800000 1302738829 1302738829 -3.00000000
4.22785997 -2.98574352 1.19493997 2 13 12523 5.31200000 1302738831 1302738831 13.00000000
4.05205774 -2.86265111 -0.08659884 2 14 12524 4.96200000 1302738833 1302738833 -1.00000000
