# .PCD v0.7 - Point Cloud Data file format
VERSION 0.7
FIELDS x y z intensity laser_id azimuth distance_m adjustedtime timestamp vertical_angle
SIZE 4 4 4 1 1 2 8 8 4 8
TYPE F F F U U U F U U F
COUNT 1 1 1 1 1 1 1 1 1 1
WIDTH 540
HEIGHT 1
VIEWPOINT 0 0 0 1 0 0 0
POINTS 540
DATA ascii
0.50401503 3.72288179 0.19688787 71 3 771 3.76200000 1303106141 1303106141 3.00000000
0.42958668 3.17312050 -0.62241894 2 4 771 3.26200000 1303106143 1303106143 -11.00000000
0.50691366 3.73938322 0.33014596 63 5 772 3.78800000 1303106145 1303106145 5.00000000
0.54414976 4.00880909 -0.64075559 2 6 773 4.09600000 1303106148 1303106148 -9.00000000
0.51090246 3.75895023 0.46578464 56 7 774 3.82200000 1303106150 1303106150 7.00000000
0.72812098 5.35013199 -0.66296923 2 8 775 5.44000000 1303106152 1303106152 -7.00000000
1.67607164 12.31554127 1.96857131 19 9 775 12.58400000 1303106154 1303106154 9.00000000
0.66663188 4.89192820 -0.43194386 15 10 776 4.95600000 1303106157 1303106157 -5.00000000
1.43940365 10.54897785 2.06951427 53 11 777 10.84600000 1303106159 1303106159 11.00000000
0.50748152 3.71434760 -0.19646917 4 12 778 3.75400000 1303106161 1303106161 -3.00000000
1.39623034 10.20597744 2.37818265 60 13 779 10.57200000 1303106164 1303106164 13.00000000
0.50804174 3.70879507 -0.06534181 19 14 780 3.74400000 1303106166 1303106166 -1.00000000
1.20263040 8.77941608 2.37440586 45 15 780 9.17400000 1303106168 1303106168 15.00000000
0.30935007 2.23509645 -0.60460126 4 0 788 2.33600000 1303106189 1303106189 -15.00000000
0.51414132 3.70997310 0.06537671 6 1 789 3.74600000 1303106191 1303106191 1.00000000
0.36935645 2.66180849 -0.62041503 3 2 790 2.75800000 1303106194 1303106194 -13.00000000
0.51865637 3.73296928 0.19751590 97 3 791 3.77400000 1303106196 1303106196 3.00000000
0.44174102 3.17937994 -0.62394542 2 4 791 3.27000000 1303106198 1303106198 -11.00000000
0.51941437 3.73364401 0.32979733 63 5 792 3.78400000 1303106201 1303106201 5.00000000
0.56032002 4.02253723 -0.64325851 2 6 793 4.11200000 1303106203 1303106203 -9.00000000
0.52456897 3.76107621 0.46627212 61 7 794 3.82600000 1303106205 1303106205 7.00000000
0.75228316 5.38687801 -0.66784400 2 8 795 5.48000000 1303106207 1303106207 -7.00000000
1.72147262 12.31127262 1.96888423 19 9 796 12.58600000 1303106210 1303106210 9.00000000
0.58520412 4.18514156 -0.36971465 4 10 796 4.24200000 1303106212 1303106212 -5.00000000
1.47567320 10.54000092 2.06875110 53 11 797 10.84200000 1303106214 1303106214 11.00000000
0.52127576 3.71848726 -0.19678320 3 12 798 3.76000000 1303106217 1303106217 -3.00000000
1.43184733 10.20104122 2.37818265 60 13 799 10.57200000 1303106219 1303106219 13.00000000
0.52098471 3.70699906 -0.06534181 6 14 800 3.74400000 1303106221 1303106221 -1.00000000
1.23318541 8.76347160 2.37129998 45 15 801 9.16200000 1303106224 1303106224 15.00000000
0.31687859 2.23209023 -0.60408366 3 0 808 2.33400000 1303106244 1303106244 -15.00000000
0.52821410 3.71607494 0.06551633 6 1 809 3.75400000 1303106247 1303106247 1.00000000
0.37727275 2.65085649 -0.61816549 3 2 810 2.74800000 1303106249 1303106249 -13.00000000
0.53083843 3.72520423 0.19720188 61 3 811 3.76800000 1303106251 1303106251 3.00000000
0.45228252 3.17393136 -0.62318218 2 4 811 3.26600000 1303106254 1303106254 -11.00000000
0.53300691 3.73575306 0.33014596 67 5 812 3.78800000 1303106256 1303106256 5.00000000
0.57268178 4.00882339 -0.64138132 2 6 813 4.10000000 1303106258 1303106258 -9.00000000
0.53685117 3.75332689 0.46554089 63 7 814 3.82000000 1303106260 1303106260 7.00000000
0.76883090 5.36849880 -0.66589409 2 8 815 5.46400000 1303106263 1303106263 -7.00000000
1.76480925 12.32309437 1.97169995 13 9 815 12.60400000 1303106265 1303106265 9.00000000
0.59471911 4.14757347 -0.36657706 9 10 816 4.20600000 1303106267 1303106267 -5.00000000
1.51245570 10.53478527 2.06875110 53 11 817 10.84200000 1303106270 1303106270 11.00000000
0.53453666 3.71862197 -0.19688787 3 12 818 3.76200000 1303106272 1303106272 -3.00000000
1.46911252 10.20755386 2.38088202 56 13 819 10.58400000 1303106274 1303106274 13.00000000
0.53791440 3.73286724 -0.06583048 8 14 820 3.77200000 1303106277 1303106277 -1.00000000
1.26306593 8.76506996 2.37285304 42 15 820 9.16800000 1303106279 1303106279 15.00000000
0.32522452 2.23479390 -0.60511893 3 0 828 2.33800000 1303106300 1303106300 -15.00000000
0.54060572 3.71025085 0.06544653 6 1 829 3.75000000 1303106302 1303106302 1.00000000
0.38539842 2.64181018 -0.61636591 3 2 830 2.74000000 1303106304 1303106304 -13.00000000
0.54441589 3.72728109 0.19741122 66 3 831 3.77200000 1303106307 1303106307 3.00000000
0.46562883 3.18787432 -0.62623513 2 4 831 3.28200000 1303106309 1303106309 -11.00000000
0.54662049 3.73781276 0.33049458 63 5 832 3.79200000 1303106311 1303106311 5.00000000
0.58838874 4.01852703 -0.64325851 2 6 833 4.11200000 1303106313 1303106313 -9.00000000
0.54937357 3.74750185 0.46505341 63 7 834 3.81600000 1303106316 1303106316 7.00000000
0.78698927 5.36185455 -0.66540664 2 8 835 5.46000000 1303106318 1303106318 -7.00000000
1.80924845 12.32663155 1.97326434 13 9 835 12.61400000 1303106320 1303106320 9.00000000
0.60253060 4.10013437 -0.36256790 19 10 836 4.16000000 1303106323 1303106323 -5.00000000
1.55036283 10.53721142 2.07027769 53 11 837 10.85000000 1303106325 1303106325 11.00000000
0.54518521 3.70092607 -0.19605049 3 12 838 3.74600000 1303106327 1303106327 -3.00000000
1.50132251 10.17922974 2.37548304 60 13 839 10.56000000 1303106330 1303106330 13.00000000
0.55035704 3.72701049 -0.06576066 8 14 840 3.76800000 1303106332 1303106332 -1.00000000
1.29421842 8.76443005 2.37388825 42 15 840 9.17200000 1303106334 1303106334 15.00000000
0.33387807 2.23937726 -0.60667187 3 0 848 2.34400000 1303106355 1303106355 -15.00000000
0.55443937 3.71427464 0.06555124 6 1 849 3.75600000 1303106357 1303106357 1.00000000
0.39461771 2.64044881 -0.61636591 3 2 850 2.74000000 1303106360 1303106360 -13.00000000
0.55624098 3.71745682 0.19699255 66 3 851 3.76400000 1303106362 1303106362 3.00000000
0.47326744 3.16293001 -0.62165570 2 4 851 3.25800000 1303106364 1303106364 -11.00000000
0.56084526 3.74376345 0.33119181 61 5 852 3.80000000 1303106366 1303106366 5.00000000
0.83007514 5.53433847 -0.88635767 9 6 853 5.66600000 1303106369 1303106369 -9.00000000
0.56333584 3.75145054 0.46578464 58 7 854 3.82200000 1303106371 1303106371 7.00000000
1.05154288 6.99427938 -0.86844093 4 8 855 7.12600000 1303106373 1303106373 -7.00000000
1.85500371 12.32382393 1.97389007 13 9 856 12.61800000 1303106376 1303106376 9.00000000
0.62099087 4.12558889 -0.36500826 100 10 856 4.18800000 1303106378 1303106378 -5.00000000
1.58830535 10.53950119 2.07180405 56 11 857 10.85800000 1303106380 1303106380 11.00000000
0.55839854 3.70097542 -0.19615516 3 12 858 3.74800000 1303106383 1303106383 -3.00000000
1.53568125 10.16621971 2.37368345 59 13 859 10.55200000 1303106385 1303106385 13.00000000
0.56306434 3.72308946 -0.06572577 6 14 860 3.76600000 1303106387 1303106387 -1.00000000
1.32509303 8.76176929 2.37440586 45 15 860 9.17400000 1303106389 1303106389 15.00000000
0.34198448 2.24010801 -0.60718948 4 0 868 2.34600000 1303106410 1303106410 -15.00000000
0.57012039 3.73010731 0.06586538 6 1 869 3.77400000 1303106413 1303106413 1.00000000
0.40619034 2.65446591 -0.61996508 3 2 870 2.75600000 1303106415 1303106415 -13.00000000
0.57133108 3.72931218 0.19772524 81 3 871 3.77800000 1303106417 1303106417 3.00000000
0.48608905 3.17290235 -0.62394542 2 4 871 3.27000000 1303106419 1303106419 -11.00000000
0.57330590 3.73784423 0.33084321 66 5 872 3.79600000 1303106422 1303106422 5.00000000
0.84968835 5.53335953 -0.88667053 6 6 873 5.66800000 1303106424 1303106424 -9.00000000
0.57793558 3.75927162 0.46700332 61 7 874 3.83200000 1303106426 1303106426 7.00000000
1.07564902 6.98860407 -0.86819720 6 8 875 7.12400000 1303106429 1303106429 -7.00000000
1.89650631 12.30751228 1.97232568 13 9 876 12.60800000 1303106431 1303106431 9.00000000
0.63083661 4.09385872 -0.36239359 79 10 876 4.15800000 1303106433 1303106433 -5.00000000
1.62628281 10.54165363 2.07333064 56 11 877 10.86600000 1303106436 1303106436 11.00000000
0.57649660 3.73255920 -0.19793458 3 12 878 3.78200000 1303106438 1303106438 -3.00000000
1.57115865 10.16079712 2.37368345 59 13 879 10.55200000 1303106440 1303106440 13.00000000
0.57483321 3.71319652 -0.06558614 8 14 880 3.75800000 1303106442 1303106442 -1.00000000
1.35631001 8.75112629 2.37285304 42 15 881 9.16800000 1303106445 1303106445 15.00000000
0.34902027 2.23902249 -0.60718948 3 0 886 2.34600000 1303106466 1303106466 -15.00000000
0.57936931 3.71249151 0.06558614 8 1 887 3.75800000 1303106468 1303106468 1.00000000
0.41452757 2.65317655 -0.61996508 3 2 888 2.75600000 1303106470 1303106470 -13.00000000
0.58335292 3.72947216 0.19782992 73 3 889 3.78000000 1303106472 1303106472 3.00000000
0.49605459 3.17135954 -0.62394542 2 4 889 3.27000000 1303106475 1303106475 -11.00000000
0.58442938 3.73208785 0.33049458 67 5 890 3.79200000 1303106477 1303106477 5.00000000
0.62720138 4.00065613 -0.64138132 2 6 891 4.10000000 1303106479 1303106479 -9.00000000
0.59035844 3.76135945 0.46749079 65 7 892 3.83600000 1303106482 1303106482 7.00000000
1.09513390 6.96950245 -0.86624730 4 8 893 7.10800000 1303106484 1303106484 -7.00000000
2.25195885 14.31531715 2.29520655 15 9 894 14.67200000 1303106486 1303106486 9.00000000
0.64338511 4.08988857 -0.36221927 100 10 894 4.15600000 1303106489 1303106489 -5.00000000
1.65878141 10.53261375 2.07256722 56 11 895 10.86200000 1303106491 1303106491 11.00000000
0.58697569 3.72283792 -0.19751590 3 12 896 3.77400000 1303106493 1303106493 -3.00000000
1.60367954 10.15966034 2.37458324 57 13 897 10.55600000 1303106495 1303106495 13.00000000
0.58899277 3.72717381 -0.06586538 6 14 898 3.77400000 1303106498 1303106498 -1.00000000
1.38166595 8.74324703 2.37181783 45 15 898 9.16400000 1303106500 1303106500 15.00000000
0.35622540 2.23397517 -0.60615420 3 0 906 2.34200000 1303106521 1303106521 -15.00000000
0.59200954 3.70847178 0.06555124 11 1 907 3.75600000 1303106523 1303106523 1.00000000
0.42378637 2.65171337 -0.61996508 3 2 908 2.75600000 1303106525 1303106525 -13.00000000
0.59762979 3.73530197 0.19824859 73 3 909 3.78800000 1303106528 1303106528 3.00000000
0.50898266 3.18124032 -0.62623513 2 4 909 3.28200000 1303106530 1303106530 -11.00000000
0.59871370 3.73789430 0.33119181 66 5 910 3.80000000 1303106532 1303106532 5.00000000
0.63991141 3.99064040 -0.64012980 2 6 911 4.09200000 1303106535 1303106535 -9.00000000
0.60285515 3.75535583 0.46700332 66 7 912 3.83200000 1303106537 1303106537 7.00000000
1.12575507 7.00483608 -0.87112206 2 8 913 7.14800000 1303106539 1303106539 -7.00000000
2.30317020 14.31517029 2.29645801 15 9 914 14.68000000 1303106542 1303106542 9.00000000
0.66018945 4.10335445 -0.36361375 100 10 914 4.17200000 1303106544 1303106544 -5.00000000
1.69491255 10.52288246 2.07180405 56 11 915 10.85800000 1303106546 1303106546 11.00000000
0.59837753 3.71090746 -0.19699255 1 12 916 3.76400000 1303106548 1303106548 -3.00000000
1.63913357 10.15400028 2.37458324 59 13 917 10.55600000 1303106551 1303106551 13.00000000
0.60231847 3.72706938 -0.06590029 6 14 918 3.77600000 1303106553 1303106553 -1.00000000
1.41279364 8.74218559 2.37285304 42 15 918 9.16800000 1303106555 1303106555 15.00000000
0.36371037 2.23081136 -0.60563654 4 0 926 2.34000000 1303106576 1303106576 -15.00000000
0.60623944 3.71427703 0.06569086 13 1 927 3.76400000 1303106578 1303106578 1.00000000
0.43052596 2.63483214 -0.61636591 3 2 928 2.74000000 1303106581 1303106581 -13.00000000
0.60808074 3.72147274 0.19762057 76 3 928 3.77600000 1303106583 1303106583 3.00000000
0.52071804 3.18331933 -0.62699836 2 4 929 3.28600000 1303106585 1303106585 -11.00000000
0.61240166 3.73971415 0.33154044 66 5 930 3.80400000 1303106588 1303106588 5.00000000
0.88935953 5.42505789 -0.87071425 2 6 931 5.56600000 1303106590 1303106590 -9.00000000
0.61628157 3.75518751 0.46724707 71 7 932 3.83400000 1303106592 1303106592 7.00000000
1.15663612 7.04004002 -0.87599683 4 8 933 7.18800000 1303106594 1303106594 -7.00000000
2.35190940 14.31525040 2.29770947 15 9 933 14.68800000 1303106597 1303106597 9.00000000
0.67515546 4.10495710 -0.36396238 83 10 934 4.17600000 1303106599 1303106599 -5.00000000
1.73290980 10.52465153 2.07333064 56 11 935 10.86600000 1303106601 1303106601 11.00000000
0.61165220 3.71076679 -0.19709721 1 12 936 3.76600000 1303106604 1303106604 -3.00000000
1.67266405 10.13668060 2.37188387 57 13 937 10.54400000 1303106606 1303106606 13.00000000
0.61662835 3.73283601 -0.06603990 6 14 938 3.78400000 1303106608 1303106608 -1.00000000
1.44487524 8.74673080 2.37544131 45 15 938 9.17800000 1303106611 1303106611 15.00000000
0.37308273 2.23905611 -0.60822475 4 0 946 2.35000000 1303106631 1303106631 -15.00000000
0.61953002 3.71411085 0.06572577 14 1 947 3.76600000 1303106634 1303106634 1.00000000
0.44100448 2.64100170 -0.61816549 3 2 948 2.74800000 1303106636 1303106636 -13.00000000
0.62138724 3.71724916 0.19751590 71 3 949 3.77400000 1303106638 1303106638 3.00000000
0.53117937 3.17760944 -0.62623513 2 4 949 3.28200000 1303106641 1303106641 -11.00000000
0.62676734 3.74541378 0.33223769 66 5 950 3.81200000 1303106643 1303106643 5.00000000
0.90796477 5.41997194 -0.87040138 2 6 951 5.56400000 1303106645 1303106645 -9.00000000
0.62971419 3.75497127 0.46749079 65 7 952 3.83600000 1303106647 1303106647 7.00000000
1.17824543 7.01834059 -0.87380320 2 8 953 7.17000000 1303106650 1303106650 -7.00000000
2.07074976 12.32146358 1.97889602 13 9 954 12.65000000 1303106652 1303106652 9.00000000
1.77028859 10.52241039 2.07409382 53 11 955 10.87000000 1303106657 1303106657 11.00000000
0.62294292 3.69876146 -0.19657385 3 12 956 3.75600000 1303106659 1303106659 -3.00000000
1.70609367 10.11925030 2.36918449 55 13 957 10.53200000 1303106661 1303106661 13.00000000
0.62932181 3.72868896 -0.06600500 6 14 958 3.78200000 1303106664 1303106664 -1.00000000
1.47756755 8.74518585 2.37647653 42 15 959 9.18200000 1303106666 1303106666 15.00000000
0.37959957 2.23012233 -0.60615420 3 0 966 2.34200000 1303106687 1303106687 -15.00000000
0.63349855 3.71783948 0.06583048 14 1 967 3.77200000 1303106689 1303106689 1.00000000
0.45087597 2.64328837 -0.61906528 3 2 968 2.75200000 1303106691 1303106691 -13.00000000
0.63337481 3.71319938 0.19741122 73 3 968 3.77200000 1303106694 1303106694 3.00000000
0.54094625 3.16799498 -0.62470865 2 4 969 3.27400000 1303106696 1303106696 -11.00000000
0.63950175 3.74123931 0.33206338 72 5 970 3.81000000 1303106698 1303106698 5.00000000
0.92754477 5.42066383 -0.87102711 2 6 971 5.56800000 1303106700 1303106700 -9.00000000
0.64382309 3.75862002 0.46822202 61 7 972 3.84200000 1303106703 1303106703 7.00000000
1.20844018 7.04744625 -0.87794673 2 8 973 7.20400000 1303106705 1303106705 -7.00000000
2.45294929 14.29026699 2.29645801 33 9 974 14.68000000 1303106707 1303106707 9.00000000
0.67447191 3.92930436 -0.34879729 13 10 974 4.00200000 1303106710 1303106710 -5.00000000
1.80966771 10.53164577 2.07714677 59 11 975 10.88600000 1303106712 1303106712 11.00000000
0.63889742 3.71427965 -0.19751590 1 12 976 3.77400000 1303106714 1303106714 -3.00000000
1.74206734 10.11707497 2.37008429 56 13 977 10.53600000 1303106717 1303106717 13.00000000
0.64267319 3.72844005 -0.06603990 6 14 978 3.78400000 1303106719 1303106719 -1.00000000
1.50426245 8.72691154 2.37285304 45 15 978 9.16800000 1303106721 1303106721 15.00000000
0.38605857 2.22117043 -0.60408366 4 0 986 2.33400000 1303106742 1303106742 -15.00000000
0.64647239 3.71560550 0.06583048 13 1 987 3.77200000 1303106744 1303106744 1.00000000
0.46010002 2.64169836 -0.61906528 3 2 988 2.75200000 1303106746 1303106746 -13.00000000
0.64804596 3.72080398 0.19793458 68 3 988 3.78200000 1303106749 1303106749 3.00000000
0.55132693 3.16221929 -0.62394542 2 4 989 3.27000000 1303106751 1303106751 -11.00000000
0.65084445 3.72917056 0.33119181 63 5 990 3.80000000 1303106753 1303106753 5.00000000
0.69964665 4.00466776 -0.64388424 2 6 991 4.11600000 1303106756 1303106756 -9.00000000
0.65728116 3.75830507 0.46846575 66 7 992 3.84400000 1303106758 1303106758 7.00000000
0.93795407 5.35766983 -0.66784400 2 8 993 5.48000000 1303106760 1303106760 -7.00000000
2.50179362 14.27577972 2.29551935 45 9 994 14.67400000 1303106763 1303106763 9.00000000
0.68715191 3.92103863 -0.34827435 14 10 994 3.99600000 1303106765 1303106765 -5.00000000
1.84506202 10.51752949 2.07562017 56 11 995 10.87800000 1303106767 1303106767 11.00000000
0.65945858 3.75530434 -0.19981869 1 12 996 3.81800000 1303106770 1303106770 -3.00000000
1.77669716 10.10709381 2.36918449 59 13 997 10.53200000 1303106772 1303106772 13.00000000
0.65776330 3.73799062 -0.06624933 6 14 998 3.79600000 1303106774 1303106774 -1.00000000
1.53371143 8.71589947 2.37129998 45 15 998 9.16200000 1303106776 1303106776 15.00000000
0.39752156 2.24073291 -0.60977769 4 0 1006 2.35600000 1303106797 1303106797 -15.00000000
0.65803975 3.70545053 0.06569086 13 1 1007 3.76400000 1303106799 1303106799 1.00000000
0.46863630 2.63623881 -0.61816549 3 2 1008 2.74800000 1303106802 1303106802 -13.00000000
0.66202897 3.72037005 0.19803926 65 3 1009 3.78400000 1303106804 1303106804 3.00000000
0.56373757 3.16800714 -0.62547189 2 4 1009 3.27800000 1303106806 1303106806 -11.00000000
0.66455650 3.73079896 0.33154044 51 5 1010 3.80400000 1303106809 1303106809 5.00000000
0.96640551 5.41989040 -0.87196571 2 6 1011 5.57400000 1303106811 1303106811 -9.00000000
0.67109370 3.75989628 0.46895322 65 7 1012 3.84800000 1303106813 1303106813 7.00000000
3.38109469 18.92396164 -2.36036539 3 8 1013 19.36800000 1303106816 1303106816 -7.00000000
2.54807782 14.26157188 2.29458070 45 9 1013 14.66800000 1303106818 1303106818 9.00000000
0.71942538 4.02256346 -0.35751286 22 10 1014 4.10200000 1303106820 1303106820 -5.00000000
1.88245583 10.51488972 2.07638359 56 11 1015 10.88200000 1303106823 1303106823 11.00000000
0.67256302 3.75297952 -0.19981869 1 12 1016 3.81800000 1303106825 1303106825 -3.00000000
1.81334305 10.10850239 2.37098408 56 13 1017 10.54000000 1303106827 1303106827 13.00000000
0.67010051 3.73173547 -0.06617953 6 14 1018 3.79200000 1303106829 1303106829 -1.00000000
1.56667185 8.71592426 2.37285304 45 15 1019 9.16800000 1303106832 1303106832 15.00000000
0.40430847 2.23362875 -0.60822475 3 0 1026 2.35000000 1303106852 1303106852 -15.00000000
0.67810059 3.74248433 0.06638896 6 1 1027 3.80400000 1303106855 1303106855 1.00000000
0.47714010 2.63075209 -0.61726570 3 2 1028 2.74400000 1303106857 1303106857 -13.00000000
0.67222393 3.70636320 0.19741122 47 3 1028 3.77200000 1303106859 1303106859 3.00000000
0.57409114 3.16215658 -0.62470865 2 4 1029 3.27400000 1303106862 1303106862 -11.00000000
0.68541276 3.77158284 0.33537531 91 5 1030 3.84800000 1303106864 1303106864 5.00000000
0.98567212 5.41842747 -0.87227857 6 6 1031 5.57600000 1303106866 1303106866 -9.00000000
0.68243599 3.74776602 0.46773455 43 7 1032 3.83800000 1303106869 1303106869 7.00000000
0.97675836 5.35880280 -0.66881895 2 8 1033 5.48800000 1303106871 1303106871 -7.00000000
2.59962273 14.24825001 2.29395509 45 9 1034 14.66400000 1303106873 1303106873 9.00000000
0.75241584 4.12390947 -0.36675137 9 10 1034 4.20800000 1303106876 1303106876 -5.00000000
1.91985357 10.51211739 2.07714677 56 11 1035 10.88600000 1303106878 1303106878 11.00000000
0.68422258 3.74275017 -0.19939999 1 12 1036 3.81000000 1303106880 1303106880 -3.00000000
1.84651256 10.09060955 2.36828470 56 13 1037 10.52800000 1303106882 1303106882 13.00000000
0.68672556 3.74904323 -0.06652857 6 14 1038 3.81200000 1303106885 1303106885 -1.00000000
1.59813178 8.71610260 2.37440586 42 15 1039 9.17400000 1303106887 1303106887 15.00000000
0.41175210 2.23030400 -0.60770714 3 0 1046 2.34800000 1303106908 1303106908 -15.00000000
0.69225031 3.74599361 0.06649367 32 1 1047 3.81000000 1303106910 1303106910 1.00000000
0.48702917 2.63290286 -0.61816549 3 2 1048 2.74800000 1303106912 1303106912 -13.00000000
0.69242316 3.74327302 0.19950466 58 3 1048 3.81200000 1303106915 1303106915 3.00000000
0.58512563 3.16013336 -0.62470865 2 4 1049 3.27400000 1303106917 1303106917 -11.00000000
0.69748461 3.76329017 0.33485237 85 5 1050 3.84200000 1303106919 1303106919 5.00000000
1.00241804 5.40330029 -0.87040138 2 6 1051 5.56400000 1303106922 1303106922 -9.00000000
0.69551402 3.74536085 0.46773455 48 7 1052 3.83800000 1303106924 1303106924 7.00000000
0.99183035 5.33584404 -0.66638160 2 8 1053 5.46800000 1303106926 1303106926 -7.00000000
2.64541340 14.23178291 2.29270363 41 9 1053 14.65600000 1303106929 1303106929 9.00000000
0.86630172 4.65600252 -0.41433841 11 10 1054 4.75400000 1303106931 1303106931 -5.00000000
1.95833337 10.51500225 2.07905483 59 11 1055 10.89600000 1303106933 1303106933 11.00000000
0.70240748 3.76782703 -0.20086540 1 12 1056 3.83800000 1303106935 1303106935 -3.00000000
1.88029420 10.07643986 2.36648512 55 13 1057 10.52000000 1303106938 1303106938 13.00000000
0.69907367 3.74269199 -0.06645876 4 14 1058 3.80800000 1303106940 1303106940 -1.00000000
1.63032210 8.71996593 2.37699413 45 15 1059 9.18400000 1303106942 1303106942 15.00000000
0.41846275 2.22315764 -0.60615420 3 0 1066 2.34200000 1303106963 1303106963 -15.00000000
0.70421129 3.73765898 0.06638896 26 1 1067 3.80400000 1303106965 1303106965 1.00000000
0.49693903 2.63501692 -0.61906528 3 2 1068 2.75200000 1303106968 1303106968 -13.00000000
0.70918679 3.76045966 0.20055139 100 3 1068 3.83200000 1303106970 1303106970 3.00000000
0.59615296 3.15807176 -0.62470865 2 4 1069 3.27400000 1303106972 1303106972 -11.00000000
0.71024680 3.75887489 0.33467805 55 5 1070 3.84000000 1303106975 1303106975 5.00000000
0.75989759 4.01780033 -0.64763868 2 6 1071 4.14000000 1303106977 1303106977 -9.00000000
0.70895278 3.74486089 0.46797827 43 7 1072 3.84000000 1303106979 1303106979 7.00000000
1.00453651 5.30114317 -0.66248173 2 8 1073 5.43600000 1303106982 1303106982 -7.00000000
2.69433999 14.21858025 2.29207778 41 9 1073 14.65200000 1303106984 1303106984 9.00000000
0.87994987 4.63924789 -0.41311821 11 10 1074 4.74000000 1303106986 1303106986 -5.00000000
1.99832141 10.52546215 2.08248949 59 11 1075 10.91400000 1303106988 1303106988 11.00000000
0.71480960 3.76142788 -0.20065606 1 12 1076 3.83400000 1303106991 1303106991 -3.00000000
1.91545606 10.06981468 2.36648512 55 13 1077 10.52000000 1303106993 1303106993 13.00000000
0.71063775 3.73237133 -0.06631915 4 14 1078 3.80000000 1303106995 1303106995 -1.00000000
1.65966558 8.70852852 2.37544131 45 15 1079 9.17800000 1303106998 1303106998 15.00000000
0.42619634 2.22365499 -0.60667187 4 0 1085 2.34400000 1303107018 1303107018 -15.00000000
0.71471816 3.72548389 0.06621443 22 1 1086 3.79400000 1303107021 1303107021 1.00000000
0.50787932 2.64483714 -0.62176472 3 2 1087 2.76400000 1303107023 1303107023 -13.00000000
0.72052312 3.75220299 0.20023736 66 3 1087 3.82600000 1303107025 1303107025 3.00000000
0.60662228 3.15607738 -0.62470865 2 4 1088 3.27400000 1303107028 1303107028 -11.00000000
0.71743798 3.72910786 0.33223769 40 5 1089 3.81200000 1303107030 1303107030 5.00000000
0.76873446 3.99198151 -0.64388424 2 6 1090 4.11600000 1303107032 1303107032 -9.00000000
0.72174299 3.74443841 0.46822202 48 7 1091 3.84200000 1303107034 1303107034 7.00000000
1.03790438 5.37964725 -0.67271876 2 8 1092 5.52000000 1303107037 1303107037 -7.00000000
2.74072719 14.20568752 2.29145193 45 9 1092 14.64800000 1303107039 1303107039 9.00000000
0.89268494 4.62261057 -0.41189805 13 10 1093 4.72600000 1303107041 1303107041 -5.00000000
2.03321409 10.51877689 2.08248949 59 11 1094 10.91400000 1303107044 1303107044 11.00000000
0.72462332 3.74531054 -0.19992335 1 12 1095 3.82000000 1303107046 1303107046 -3.00000000
1.87325597 9.67311573 2.27470517 50 13 1096 10.11200000 1303107048 1303107048 13.00000000
0.72529399 3.74177313 -0.06652857 4 14 1097 3.81200000 1303107051 1303107051 -1.00000000
1.68407500 8.68809986 2.37129998 42 15 1097 9.16200000 1303107053 1303107053 15.00000000
0.43358549 2.22025776 -0.60615420 3 0 1105 2.34200000 1303107074 1303107074 -15.00000000
0.72695094 3.71904111 0.06614462 34 1 1106 3.79000000 1303107076 1303107076 1.00000000
0.51411504 2.62774825 -0.61816549 3 2 1107 2.74800000 1303107078 1303107078 -13.00000000
0.73323286 3.74770498 0.20013270 60 3 1107 3.82400000 1303107081 1303107081 3.00000000
0.61914450 3.16164732 -0.62623513 2 4 1108 3.28200000 1303107083 1303107083 -11.00000000
0.73236686 3.73635674 0.33310926 46 5 1109 3.82200000 1303107085 1303107085 5.00000000
0.78266442 3.98927379 -0.64388424 2 6 1110 4.11600000 1303107087 1303107087 -9.00000000
0.73366159 3.73605251 0.46749079 34 7 1111 3.83600000 1303107090 1303107090 7.00000000
1.05514514 5.36820030 -0.67174381 2 8 1112 5.51200000 1303107092 1303107092 -7.00000000
2.41655636 12.29457188 1.98452759 10 9 1112 12.68600000 1303107094 1303107094 9.00000000
0.91496903 4.65074492 -0.41468704 11 10 1113 4.75800000 1303107097 1303107097 -5.00000000
2.06802249 10.50198460 2.08058119 59 11 1114 10.90400000 1303107099 1303107099 11.00000000
0.74039608 3.75647521 -0.20065606 1 12 1115 3.83400000 1303107101 1303107101 -3.00000000
1.98584020 10.06610298 2.36873460 59 13 1116 10.53000000 1303107104 1303107104 13.00000000
0.73563915 3.72548604 -0.06628424 4 14 1117 3.79800000 1303107106 1303107106 -1.00000000
1.71590710 8.68186855 2.37129998 42 15 1118 9.16200000 1303107108 1303107108 15.00000000
0.44208676 2.22252035 -0.60718948 4 0 1125 2.34600000 1303107129 1303107129 -15.00000000
0.74383301 3.73609304 0.06649367 92 1 1126 3.81000000 1303107131 1303107131 1.00000000
0.52290362 2.62402654 -0.61771560 3 2 1127 2.74600000 1303107134 1303107134 -13.00000000
0.74266660 3.72344685 0.19898130 40 3 1128 3.80200000 1303107136 1303107136 3.00000000
0.63017696 3.15946674 -0.62623513 2 4 1128 3.28200000 1303107138 1303107138 -11.00000000
0.74657488 3.73963904 0.33363217 57 5 1129 3.82800000 1303107140 1303107140 5.00000000
0.79813308 3.99426579 -0.64513576 2 6 1130 4.12400000 1303107143 1303107143 -9.00000000
0.74591970 3.72957587 0.46700332 32 7 1131 3.83200000 1303107145 1303107145 7.00000000
1.07543576 5.37227011 -0.67271876 2 8 1132 5.52000000 1303107147 1303107147 -7.00000000
2.84216046 14.19782925 2.29332924 22 9 1132 14.66000000 1303107150 1303107150 9.00000000
0.94528884 4.71785116 -0.42096224 11 10 1133 4.83000000 1303107152 1303107152 -5.00000000
2.10621285 10.50240135 2.08210778 59 11 1134 10.91200000 1303107154 1303107154 11.00000000
0.75389719 3.75582623 -0.20076072 3 12 1135 3.83600000 1303107157 1303107157 -3.00000000
2.02058148 10.05719948 2.36828470 55 13 1136 10.52800000 1303107159 1303107159 13.00000000
0.75297552 3.74446034 -0.06666819 6 14 1137 3.82000000 1303107161 1303107161 -1.00000000
1.74697292 8.68749428 2.37440586 45 15 1137 9.17400000 1303107164 1303107164 15.00000000
0.45137611 2.22853708 -0.60926002 3 0 1145 2.35400000 1303107184 1303107184 -15.00000000
0.75567794 3.72759438 0.06638896 61 1 1146 3.80400000 1303107187 1303107187 1.00000000
0.53244752 2.62409520 -0.61816549 3 2 1147 2.74800000 1303107189 1303107189 -13.00000000
0.75486428 3.71691728 0.19877197 50 3 1148 3.79800000 1303107191 1303107191 3.00000000
0.63963878 3.14955187 -0.62470865 2 4 1148 3.27400000 1303107193 1303107193 -11.00000000
0.75565535 3.71748543 0.33188906 54 5 1149 3.80800000 1303107196 1303107196 5.00000000
0.81128317 3.98758411 -0.64450997 2 6 1150 4.12000000 1303107198 1303107198 -9.00000000
0.76091433 3.73667526 0.46822202 24 7 1151 3.84200000 1303107200 1303107200 7.00000000
0.97009540 4.75966644 -0.59642857 2 8 1152 4.89400000 1303107203 1303107203 -7.00000000
2.89220476 14.17763996 2.29176497 48 9 1153 14.65000000 1303107205 1303107205 9.00000000
0.96175146 4.71452284 -0.42096224 11 10 1153 4.83000000 1303107207 1303107207 -5.00000000
2.14443111 10.50267982 2.08363414 59 11 1154 10.92000000 1303107210 1303107210 11.00000000
0.76500338 3.74338770 -0.20023736 5 12 1155 3.82600000 1303107212 1303107212 -3.00000000
2.05255127 10.03481102 2.36468554 55 13 1156 10.51200000 1303107214 1303107214 13.00000000
0.76283300 3.72613668 -0.06638896 6 14 1157 3.80400000 1303107217 1303107217 -1.00000000
1.77802682 8.67724800 2.37337065 42 15 1158 9.17000000 1303107219 1303107219 15.00000000
0.45681179 2.21559572 -0.60615420 3 0 1165 2.34200000 1303107240 1303107240 -15.00000000
0.76949334 3.72885060 0.06645876 52 1 1166 3.80800000 1303107242 1303107242 1.00000000
0.54318076 2.62985444 -0.61996508 3 2 1167 2.75600000 1303107244 1303107244 -13.00000000
0.76742983 3.71230364 0.19866729 61 3 1168 3.79600000 1303107246 1303107246 3.00000000
0.65062886 3.14730000 -0.62470865 2 4 1168 3.27400000 1303107249 1303107249 -11.00000000
0.76862717 3.71482515 0.33188906 51 5 1169 3.80800000 1303107251 1303107251 5.00000000
0.82920331 4.00407124 -0.64763868 2 6 1170 4.14000000 1303107253 1303107253 -9.00000000
3.10387039 14.97486115 1.87776279 8 7 1171 15.40800000 1303107256 1303107256 7.00000000
0.97581661 4.70377111 -0.58984762 6 8 1172 4.84000000 1303107258 1303107258 -7.00000000
2.93519115 14.14862919 2.28863621 43 9 1172 14.63000000 1303107260 1303107260 9.00000000
0.91015351 4.38340569 -0.39167792 7 10 1173 4.49400000 1303107263 1303107263 -5.00000000
2.18427515 10.51050758 2.08668709 59 11 1174 10.93600000 1303107265 1303107265 11.00000000
0.78009921 3.75047159 -0.20076072 7 12 1175 3.83600000 1303107267 1303107267 -3.00000000
2.08756661 10.02758598 2.36468554 62 13 1176 10.51200000 1303107270 1303107270 13.00000000
0.77746665 3.73128176 -0.06652857 6 14 1177 3.81200000 1303107272 1303107272 -1.00000000
1.80600381 8.66752148 2.37233543 42 15 1177 9.16600000 1303107274 1303107274 15.00000000
0.46652639 2.22344089 -0.60874242 4 0 1185 2.35200000 1303107295 1303107295 -15.00000000
0.77839500 3.70657182 0.06610972 39 1 1186 3.78800000 1303107297 1303107297 1.00000000
0.55195653 2.62603521 -0.61951518 3 2 1187 2.75400000 1303107299 1303107299 -13.00000000
0.78202814 3.71742010 0.19908598 61 3 1188 3.80400000 1303107302 1303107302 3.00000000
0.66080266 3.14116740 -0.62394542 2 4 1188 3.27000000 1303107304 1303107304 -11.00000000
0.77994764 3.70432091 0.33119181 55 5 1189 3.80000000 1303107306 1303107306 5.00000000
0.84154570 3.99342060 -0.64638722 2 6 1190 4.13200000 1303107309 1303107309 -9.00000000
3.15817189 14.97364712 1.87898159 15 7 1191 15.41800000 1303107311 1303107311 7.00000000
0.97500938 4.61876011 -0.57961059 6 8 1192 4.75600000 1303107313 1303107313 -7.00000000
2.98825383 14.14357376 2.28957486 39 9 1193 14.63600000 1303107316 1303107316 9.00000000
0.91844726 4.34706306 -0.38871461 2 10 1193 4.46000000 1303107318 1303107318 -5.00000000
2.22216868 10.50858116 2.08783197 62 11 1194 10.94200000 1303107320 1303107320 11.00000000
0.79359961 3.74967957 -0.20086540 7 12 1195 3.83800000 1303107322 1303107322 -3.00000000
2.12417221 10.02786350 2.36648512 56 13 1196 10.52000000 1303107325 1303107325 13.00000000
0.79090124 3.73050141 -0.06656348 6 14 1197 3.81400000 1303107327 1303107327 -1.00000000
1.83535373 8.64950562 2.36922956 42 15 1198 9.15400000 1303107329 1303107329 15.00000000
0.47307491 2.21613121 -0.60718948 4 0 1205 2.34600000 1303107350 1303107350 -15.00000000
0.78715050 3.68427658 0.06576066 45 1 1206 3.76800000 1303107352 1303107352 1.00000000
0.56152725 2.62599826 -0.61996508 3 2 1207 2.75600000 1303107355 1303107355 -13.00000000
0.79583555 3.71857381 0.19929533 61 3 1208 3.80800000 1303107357 1303107357 3.00000000
0.67587203 3.15803933 -0.62776160 2 4 1208 3.29000000 1303107359 1303107359 -11.00000000
0.79203880 3.69767952 0.33084321 51 5 1209 3.79600000 1303107362 1303107362 5.00000000
0.90020043 4.19905949 -0.68017703 2 6 1210 4.34800000 1303107364 1303107364 -9.00000000
3.21416855 14.97999954 1.88117516 15 7 1211 15.43600000 1303107366 1303107366 7.00000000
0.97445434 4.53769493 -0.56986105 6 8 1212 4.67600000 1303107369 1303107369 -7.00000000
3.03430963 14.12972450 2.28894901 43 9 1212 14.63200000 1303107371 1303107371 9.00000000
0.93403441 4.34577847 -0.38888893 5 10 1213 4.46200000 1303107373 1303107373 -5.00000000
2.25883698 10.50076103 2.08783197 62 11 1214 10.94200000 1303107375 1303107375 11.00000000
0.80458176 3.73712397 -0.20034204 10 12 1215 3.82800000 1303107378 1303107378 -3.00000000
2.16039443 10.02610207 2.36783481 53 13 1216 10.52600000 1303107380 1303107380 13.00000000
0.80686921 3.74140120 -0.06680781 6 14 1217 3.82800000 1303107382 1303107382 -1.00000000
1.86606276 8.65281391 2.37181783 45 15 1217 9.16400000 1303107385 1303107385 15.00000000
0.48244733 2.22201777 -0.60926002 3 0 1225 2.35400000 1303107405 1303107405 -15.00000000
0.79788309 3.67173600 0.06558614 50 1 1226 3.75800000 1303107408 1303107408 1.00000000
0.56820542 2.61259675 -0.61726570 3 2 1227 2.74400000 1303107410 1303107410 -13.00000000
0.80413818 3.69430590 0.19814393 55 3 1228 3.78600000 1303107412 1303107412 3.00000000
0.68438613 3.14415073 -0.62547189 2 4 1228 3.27800000 1303107415 1303107415 -11.00000000
0.80578947 3.69878554 0.33119181 42 5 1229 3.80000000 1303107417 1303107417 5.00000000
0.89170754 4.08973980 -0.66296929 2 6 1230 4.23800000 1303107419 1303107419 -9.00000000
3.28252125 15.04238796 1.89043725 19 7 1231 15.51200000 1303107422 1303107422 7.00000000
0.98266381 4.49935675 -0.56547374 6 8 1232 4.64000000 1303107424 1303107424 -7.00000000
3.08607721 14.11850739 2.28894901 43 9 1233 14.63200000 1303107426 1303107426 9.00000000
0.94919837 4.34249163 -0.38888893 5 10 1233 4.46200000 1303107428 1303107428 -5.00000000
2.29631686 10.49664783 2.08859515 62 11 1234 10.94600000 1303107431 1303107431 11.00000000
0.81591308 3.72648859 -0.19992335 14 12 1235 3.82000000 1303107433 1303107433 -3.00000000
2.19162464 10.00136757 2.36378574 59 13 1236 10.50800000 1303107435 1303107435 13.00000000
0.82206613 3.74832821 -0.06698234 4 14 1237 3.83800000 1303107438 1303107438 -1.00000000
1.89735019 8.64402962 2.37129998 42 15 1238 9.16200000 1303107440 1303107440 15.00000000
0.49100500 2.22212100 -0.60977769 4 0 1246 2.35600000 1303107461 1303107461 -15.00000000
0.81133533 3.66878700 0.06558614 48 1 1247 3.75800000 1303107463 1303107463 1.00000000
0.58030397 2.62191272 -0.61996508 3 2 1248 2.75600000 1303107465 1303107465 -13.00000000
0.81767315 3.69133377 0.19814393 66 3 1249 3.78600000 1303107468 1303107468 3.00000000
0.69760382 3.14928842 -0.62699836 2 4 1249 3.28600000 1303107470 1303107470 -11.00000000
0.82624048 3.72693014 0.33398080 49 5 1250 3.83200000 1303107472 1303107472 5.00000000
0.90155655 4.06330252 -0.65921485 2 6 1251 4.21400000 1303107475 1303107475 -9.00000000
3.39271450 15.27830601 1.92163587 21 7 1252 15.76800000 1303107477 1303107477 7.00000000
0.99398017 4.47247124 -0.56254888 6 8 1253 4.61600000 1303107479 1303107479 -7.00000000
3.13448405 14.10379314 2.28832340 43 9 1253 14.62800000 1303107481 1303107481 9.00000000
0.96251243 4.32731390 -0.38784304 7 10 1254 4.45000000 1303107484 1303107484 -5.00000000
2.33733320 10.49965858 2.09088492 62 11 1255 10.95800000 1303107486 1303107486 11.00000000
0.83347481 3.74101806 -0.20086540 14 12 1256 3.83800000 1303107488 1303107488 -3.00000000
2.22826672 9.99326801 2.36378574 57 13 1257 10.50800000 1303107491 1303107491 13.00000000
0.83623451 3.74724174 -0.06701724 4 14 1258 3.84000000 1303107493 1303107493 -1.00000000
1.92793262 8.63923931 2.37181783 45 15 1258 9.16400000 1303107495 1303107495 15.00000000
0.49833527 2.21850848 -0.60926002 3 0 1266 2.35400000 1303107516 1303107516 -15.00000000
0.82150519 3.65422654 0.06537671 52 1 1267 3.74600000 1303107518 1303107518 1.00000000
0.59073585 2.62557483 -0.62131482 4 2 1268 2.76200000 1303107521 1303107521 -13.00000000
0.82660455 3.67092085 0.19720188 58 3 1269 3.76800000 1303107523 1303107523 3.00000000
0.70600492 3.13534236 -0.62470865 2 4 1269 3.27400000 1303107525 1303107525 -11.00000000
0.84012091 3.72791052 0.33432943 52 5 1270 3.83600000 1303107528 1303107528 5.00000000
0.89965385 3.98883271 -0.64763868 2 6 1271 4.14000000 1303107530 1303107530 -9.00000000
3.48448920 15.43677044 1.94308484 29 7 1272 15.94400000 1303107532 1303107532 7.00000000
1.01046073 4.47284698 -0.56303638 6 8 1273 4.62000000 1303107534 1303107534 -7.00000000
3.18920541 14.10569668 2.29051352 36 9 1274 14.64200000 1303107537 1303107537 9.00000000
0.96970296 4.28894806 -0.38470545 2 10 1274 4.41400000 1303107539 1303107539 -5.00000000
2.37613606 10.50100994 2.09279299 53 11 1275 10.96800000 1303107541 1303107541 11.00000000
0.84873402 3.74782562 -0.20138876 15 12 1276 3.84800000 1303107544 1303107544 -3.00000000
2.26313615 9.98542881 2.36378574 60 13 1277 10.50800000 1303107546 1303107546 13.00000000
0.84842503 3.74039960 -0.06694743 4 14 1278 3.83600000 1303107548 1303107548 -1.00000000
1.95915639 8.63023090 2.37129998 42 15 1279 9.16200000 1303107551 1303107551 15.00000000
0.50478637 2.21110535 -0.60770714 4 0 1286 2.34800000 1303107571 1303107571 -15.00000000
0.83247417 3.64353871 0.06523710 57 1 1287 3.73800000 1303107574 1303107574 1.00000000
0.60033160 2.62539649 -0.62176472 3 2 1288 2.76400000 1303107576 1303107576 -13.00000000
0.83941340 3.66801310 0.19720188 43 3 1289 3.76800000 1303107578 1303107578 3.00000000
0.71957278 3.14434171 -0.62699836 2 4 1289 3.28600000 1303107581 1303107581 -11.00000000
0.85090464 3.71524477 0.33345786 46 5 1290 3.82600000 1303107583 1303107583 5.00000000
0.91180664 3.97796631 -0.64638722 2 6 1291 4.13200000 1303107585 1303107585 -9.00000000
3.55299926 15.48836327 1.95112824 31 7 1292 16.01000000 1303107587 1303107587 7.00000000
1.02695620 4.47316217 -0.56352383 6 8 1293 4.62400000 1303107590 1303107590 -7.00000000
3.22623992 14.05268669 2.28363037 43 9 1293 14.59800000 1303107592 1303107592 9.00000000
0.97663748 4.25058460 -0.38156784 2 10 1294 4.37800000 1303107594 1303107594 -5.00000000
2.41497684 10.50221920 2.09470105 50 11 1295 10.97800000 1303107597 1303107597 11.00000000
0.86360288 3.75262570 -0.20180745 17 12 1296 3.85600000 1303107599 1303107599 -3.00000000
2.29885292 9.98126698 2.36468554 59 13 1297 10.51200000 1303107601 1303107601 13.00000000
0.86417121 3.74910688 -0.06715686 4 14 1298 3.84800000 1303107604 1303107604 -1.00000000
1.98516107 8.61239147 2.36819434 42 15 1298 9.15000000 1303107606 1303107606 15.00000000
0.51337457 2.21309352 -0.60874242 4 0 1306 2.35200000 1303107627 1303107627 -15.00000000
0.84563965 3.64255857 0.06527200 48 1 1307 3.74000000 1303107629 1303107629 1.00000000
0.60684615 2.61189580 -0.61906528 3 2 1308 2.75200000 1303107631 1303107631 -13.00000000
0.85764015 3.68840504 0.19845794 52 3 1309 3.79200000 1303107634 1303107634 3.00000000
0.72965497 3.13798618 -0.62623513 2 4 1309 3.28200000 1303107636 1303107636 -11.00000000
0.86296493 3.70837069 0.33310926 33 5 1310 3.82200000 1303107638 1303107638 5.00000000
0.93330377 4.00746536 -0.65170598 2 6 1311 4.16600000 1303107640 1303107640 -9.00000000
3.60749269 15.47779942 1.95137191 36 7 1312 16.01200000 1303107643 1303107643 7.00000000
1.04256415 4.46955013 -0.56352383 6 8 1313 4.62400000 1303107645 1303107645 -7.00000000
3.24072099 13.89321232 2.25953937 43 9 1313 14.44400000 1303107647 1303107647 9.00000000
0.98965710 4.23938847 -0.38087061 2 10 1314 4.37000000 1303107650 1303107650 -5.00000000
2.45162153 10.49372482 2.09470105 53 11 1315 10.97800000 1303107652 1303107652 11.00000000
0.87897032 3.75931239 -0.20233081 24 12 1316 3.86600000 1303107654 1303107654 -3.00000000
2.33456802 9.97697639 2.36558533 59 13 1317 10.51600000 1303107657 1303107657 13.00000000
0.87816465 3.74996161 -0.06722667 4 14 1318 3.85200000 1303107659 1303107659 -1.00000000
2.01521182 8.60540962 2.36819434 42 15 1318 9.15000000 1303107661 1303107661 15.00000000
0.51943976 2.20770884 -0.60770714 4 0 1324 2.34800000 1303107682 1303107682 -15.00000000
0.86212057 3.66129494 0.06565595 13 1 1325 3.76200000 1303107684 1303107684 1.00000000
0.61415470 2.60618281 -0.61816549 3 2 1326 2.74800000 1303107687 1303107687 -13.00000000
0.73860830 3.13185668 -0.62547189 2 4 1327 3.27800000 1303107691 1303107691 -11.00000000
0.89291769 3.78320575 0.34008172 37 5 1328 3.90200000 1303107693 1303107693 5.00000000
0.94588894 4.00451374 -0.65170598 2 6 1329 4.16600000 1303107696 1303107696 -9.00000000
3.65792632 15.47411728 1.95234692 43 7 1330 16.02000000 1303107698 1303107698 7.00000000
1.05751455 4.47011614 -0.56401134 6 8 1331 4.62800000 1303107700 1303107700 -7.00000000
3.23580289 13.66709900 2.22449803 43 9 1332 14.22000000 1303107703 1303107703 9.00000000
0.98828179 4.17421722 -0.37529263 2 10 1332 4.30600000 1303107705 1303107705 -5.00000000
2.48548174 10.48979187 2.09546447 53 11 1333 10.98200000 1303107707 1303107707 11.00000000
0.88801122 3.74487233 -0.20170277 29 12 1334 3.85400000 1303107710 1303107710 -3.00000000
2.36410022 9.96200848 2.36378574 59 13 1335 10.50800000 1303107712 1303107712 13.00000000
0.89548594 3.77053118 -0.06764553 4 14 1336 3.87600000 1303107714 1303107714 -1.00000000
2.04402208 8.60655499 2.37026477 42 15 1336 9.15800000 1303107716 1303107716 15.00000000
0.52983701 2.21715593 -0.61081296 4 0 1344 2.36000000 1303107737 1303107737 -15.00000000
0.62506264 2.61160398 -0.61996508 3 2 1346 2.75600000 1303107742 1303107742 -13.00000000
0.95605576 3.99146461 0.21510078 17 3 1347 4.11000000 1303107744 1303107744 3.00000000
0.74953604 3.12925935 -0.62547189 2 4 1347 3.27800000 1303107746 1303107746 -11.00000000
0.96861690 4.03768396 -0.65765047 2 6 1349 4.20400000 1303107751 1303107751 -9.00000000
3.71099210 15.45739460 1.95185935 36 7 1350 16.01600000 1303107753 1303107753 7.00000000
1.07125664 4.45867682 -0.56303638 6 8 1351 4.62000000 1303107756 1303107756 -7.00000000
3.22899628 13.42908573 2.18757963 42 9 1352 13.98400000 1303107758 1303107758 9.00000000
0.99166757 4.12424994 -0.37110916 2 10 1352 4.25800000 1303107760 1303107760 -5.00000000
0.90248072 3.74757481 -0.20201679 31 12 1354 3.86000000 1303107765 1303107765 -3.00000000
2.39612031 9.94232845 2.36108637 56 13 1355 10.49600000 1303107767 1303107767 13.00000000
0.90770441 3.76349449 -0.06757572 4 14 1356 3.87200000 1303107769 1303107769 -1.00000000
2.07645941 8.60276127 2.37129998 45 15 1357 9.16200000 1303107772 1303107772 15.00000000
0.53666198 2.21153808 -0.60977769 4 0 1364 2.35600000 1303107793 1303107793 -15.00000000
0.91503066 3.76789355 0.06768043 4 1 1365 3.87800000 1303107795 1303107795 1.00000000
0.63463527 2.61129999 -0.62041503 3 2 1366 2.75800000 1303107797 1303107797 -13.00000000
0.96337456 3.96093345 0.21363537 3 3 1367 4.08200000 1303107799 1303107799 3.00000000
0.76045460 3.12662411 -0.62547189 2 4 1367 3.27800000 1303107802 1303107802 -11.00000000
0.94145381 3.86786580 0.34827435 1 5 1368 3.99600000 1303107804 1303107804 5.00000000
1.00140548 4.11104870 -0.67016524 2 6 1369 4.28400000 1303107806 1303107806 -9.00000000
3.76680636 15.45206070 1.95283437 36 7 1370 16.02400000 1303107809 1303107809 7.00000000
1.08775485 4.45876741 -0.56352383 6 8 1371 4.62400000 1303107811 1303107811 -7.00000000
3.22337937 13.20280266 2.15253830 45 9 1372 13.76000000 1303107813 1303107813 9.00000000
0.99849701 4.08979464 -0.36832017 4 10 1372 4.22600000 1303107816 1303107816 -5.00000000
2.35082960 9.62159348 1.92526281 6 11 1373 10.09000000 1303107818 1303107818 11.00000000
0.92030048 3.76380301 -0.20306350 36 12 1374 3.88000000 1303107820 1303107820 -3.00000000
2.43127394 9.93579674 2.36153626 54 13 1375 10.49800000 1303107822 1303107822 13.00000000
0.92036027 3.75836062 -0.06754081 4 14 1376 3.87000000 1303107825 1303107825 -1.00000000
2.10221887 8.58456898 2.36819434 42 15 1376 9.15000000 1303107827 1303107827 15.00000000
0.54252994 2.20214844 -0.60770714 4 0 1384 2.34800000 1303107848 1303107848 -15.00000000
0.93104964 3.77632594 0.06788986 4 1 1385 3.89000000 1303107850 1303107850 1.00000000
0.64608067 2.61852884 -0.62266451 3 2 1386 2.76800000 1303107852 1303107852 -13.00000000
0.97863132 3.96336341 0.21394938 1 3 1387 4.08800000 1303107855 1303107855 3.00000000
0.77230519 3.12776256 -0.62623513 2 4 1387 3.28200000 1303107857 1303107857 -11.00000000
0.95542741 3.86649013 0.34844866 4 5 1388 3.99800000 1303107859 1303107859 5.00000000
1.00579131 4.06725836 -0.66359502 2 6 1389 4.24200000 1303107862 1303107862 -9.00000000
3.82072115 15.43881798 1.95283437 38 7 1390 16.02400000 1303107864 1303107864 7.00000000
1.10808432 4.47421217 -0.56596124 6 8 1391 4.64400000 1303107866 1303107866 -7.00000000
3.21907377 12.98822975 2.11937404 45 9 1392 13.54800000 1303107869 1303107869 9.00000000
1.01995659 4.11529255 -0.37093484 4 10 1392 4.25600000 1303107871 1303107871 -5.00000000
2.38629150 9.62095070 1.92678928 9 11 1393 10.09800000 1303107873 1303107873 11.00000000
0.93583876 3.77025962 -0.20358688 40 12 1394 3.89000000 1303107875 1303107875 -3.00000000
2.46688128 9.93103218 2.36243606 52 13 1395 10.50200000 1303107878 1303107878 13.00000000
0.93443865 3.75900650 -0.06761062 4 14 1396 3.87400000 1303107880 1303107880 -1.00000000
2.13123965 8.57342911 2.36715889 45 15 1396 9.14600000 1303107882 1303107882 15.00000000
0.54974490 2.19836712 -0.60718948 4 0 1404 2.34600000 1303107903 1303107903 -15.00000000
0.94519675 3.77693272 0.06795967 3 1 1405 3.89400000 1303107905 1303107905 1.00000000
0.65237653 2.60491538 -0.61996508 3 2 1406 2.75600000 1303107908 1303107908 -13.00000000
0.99128371 3.95815897 0.21384472 1 3 1406 4.08600000 1303107910 1303107910 3.00000000
0.78321844 3.12504768 -0.62623513 2 4 1407 3.28200000 1303107912 1303107912 -11.00000000
5.74904346 22.92176247 2.06750846 21 5 1408 23.72200000 1303107915 1303107915 5.00000000
0.99738044 3.97367311 -0.64889014 2 6 1409 4.14800000 1303107917 1303107917 -9.00000000
3.87168789 15.41383553 1.95137191 38 7 1410 16.01200000 1303107919 1303107919 7.00000000
1.12369549 4.47031689 -0.56596124 6 8 1411 4.64400000 1303107921 1303107921 -7.00000000
3.21445155 12.78782177 2.08840013 35 9 1411 13.35000000 1303107924 1303107924 9.00000000
1.05035508 4.17546940 -0.37668711 5 10 1412 4.32200000 1303107926 1303107926 -5.00000000
2.42033958 9.61446667 1.92717087 12 11 1413 10.10000000 1303107928 1303107928 11.00000000
0.95045745 3.77278018 -0.20390089 38 12 1414 3.89600000 1303107931 1303107931 -3.00000000
2.50296116 9.92802906 2.36378574 57 13 1415 10.50800000 1303107933 1303107933 13.00000000
0.94853270 3.75959969 -0.06768043 4 14 1416 3.87800000 1303107935 1303107935 -1.00000000
2.16162610 8.56781101 2.36767673 45 15 1416 9.14800000 1303107938 1303107938 15.00000000
0.55979133 2.20579720 -0.60977769 4 0 1424 2.35600000 1303107958 1303107958 -15.00000000
0.96034384 3.78136301 0.06809929 3 1 1425 3.90200000 1303107961 1303107961 1.00000000
0.65762526 2.58751273 -0.61636591 3 2 1426 2.74000000 1303107963 1303107963 -13.00000000
1.00824594 3.96417737 0.21436808 1 3 1427 4.09600000 1303107965 1303107965 3.00000000
0.79605782 3.12990522 -0.62776160 2 4 1427 3.29000000 1303107968 1303107968 -11.00000000
5.83049488 22.90734673 2.06803155 50 5 1428 23.72800000 1303107970 1303107970 5.00000000
1.00929475 3.96251035 -0.64763868 2 6 1429 4.14000000 1303107972 1303107972 -9.00000000
3.92252660 15.38868523 1.94990945 36 7 1430 16.00000000 1303107974 1303107974 7.00000000
1.13683963 4.45674944 -0.56474257 4 8 1431 4.63400000 1303107977 1303107977 -7.00000000
3.21292996 12.58646870 2.05742598 10 9 1432 13.15200000 1303107979 1303107979 9.00000000
1.07477963 4.21038723 -0.38017336 7 10 1432 4.36200000 1303107981 1303107981 -5.00000000
2.45631504 9.61546993 1.92907894 12 11 1433 10.11000000 1303107984 1303107984 11.00000000
0.96461052 3.77330971 -0.20411023 47 12 1434 3.90000000 1303107986 1303107986 -3.00000000
2.53566909 9.91168022 2.36198616 57 13 1435 10.50000000 1303107988 1303107988 13.00000000
0.96710581 3.77757502 -0.06806438 4 14 1436 3.90000000 1303107991 1303107991 -1.00000000
2.19349360 8.56170177 2.36819434 42 15 1437 9.15000000 1303107993 1303107993 15.00000000
0.56700581 2.20195889 -0.60926002 4 0 1444 2.35400000 1303108014 1303108014 -15.00000000
0.98052335 3.80509782 0.06858796 4 1 1445 3.93000000 1303108016 1303108016 1.00000000
0.66859978 2.59274936 -0.61816549 3 2 1446 2.74800000 1303108018 1303108018 -13.00000000
0.80501610 3.11950350 -0.62623513 2 4 1447 3.28200000 1303108023 1303108023 -11.00000000
