# .PCD v0.7 - Point Cloud Data file format
VERSION 0.7
FIELDS x y z intensity laser_id azimuth distance_m adjustedtime timestamp vertical_angle
SIZE 4 4 4 1 1 2 8 8 4 8
TYPE F F F U U U F U U F
COUNT 1 1 1 1 1 1 1 1 1 1
WIDTH 527
HEIGHT 1
VIEWPOINT 0 0 0 1 0 0 0
POINTS 527
DATA ascii
-4.14205933 2.81705475 0.08743656 22 1 30422 5.01000000 1409288212 1409288212 1.00000000
-1.97370946 1.34284282 -0.55113006 3 2 30423 2.45000000 1409288214 1409288214 -13.00000000
-4.14263487 2.81956172 0.26262182 8 3 30424 5.01800000 1409288216 1409288216 3.00000000
-2.32413411 1.58185303 -0.54647696 3 4 30424 2.86400000 1409288219 1409288219 -11.00000000
-2.83751440 1.93271983 -0.54376620 1 6 30426 3.47600000 1409288223 1409288223 -9.00000000
-3.71193504 2.53021216 -0.55158067 10 8 30428 4.52600000 1409288228 1409288228 -7.00000000
-2.67166519 1.82180321 0.51216644 61 9 30429 3.27400000 1409288230 1409288230 9.00000000
-3.77781200 2.57608247 -0.40004486 39 10 30429 4.59000000 1409288233 1409288233 -5.00000000
-2.71009636 1.84870243 0.63768369 26 11 30430 3.34200000 1409288235 1409288235 11.00000000
-4.15568447 2.83587885 -0.26366854 10 12 30431 5.03800000 1409288237 1409288237 -3.00000000
-4.10092306 2.79955816 1.14635062 65 13 30432 5.09600000 1409288239 1409288239 13.00000000
-4.14159775 2.82838511 -0.08754127 14 14 30433 5.01600000 1409288242 1409288242 -1.00000000
-4.09201908 2.79452705 1.32774174 80 15 30433 5.13000000 1409288244 1409288244 15.00000000
-1.69580996 1.16158009 -0.55076694 4 0 30441 2.12800000 1409288265 1409288265 -15.00000000
-4.13385057 2.83262658 0.08747146 18 1 30442 5.01200000 1409288267 1409288267 1.00000000
-1.96901000 1.34972417 -0.55113006 3 2 30443 2.45000000 1409288269 1409288269 -13.00000000
-4.14100361 2.83965278 0.26314518 8 3 30444 5.02800000 1409288272 1409288272 3.00000000
-2.31536007 1.58773553 -0.54571372 3 4 30444 2.86000000 1409288274 1409288274 -11.00000000
-2.61888528 1.79654706 0.27785251 11 5 30445 3.18800000 1409288276 1409288276 5.00000000
-2.82912207 1.94149506 -0.54345334 1 6 30446 3.47400000 1409288279 1409288279 -9.00000000
-2.64630961 1.81671882 0.39412546 11 7 30447 3.23400000 1409288281 1409288281 7.00000000
-3.72435284 2.55776310 -0.55474925 20 8 30448 4.55200000 1409288283 1409288283 -7.00000000
-2.64737988 1.81881356 0.50872487 42 9 30449 3.25200000 1409288286 1409288286 9.00000000
-3.76551247 2.58699751 -0.39969623 44 10 30449 4.58600000 1409288288 1409288288 -5.00000000
-2.68421102 1.84480715 0.63310426 39 11 30450 3.31800000 1409288290 1409288290 11.00000000
-4.14576006 2.85036755 -0.26366854 10 12 30451 5.03800000 1409288292 1409288292 -3.00000000
-4.09915400 2.81937766 1.14860010 34 13 30452 5.10600000 1409288295 1409288295 13.00000000
-4.15146828 2.85642672 -0.08796013 14 14 30453 5.04000000 1409288297 1409288297 -1.00000000
-4.09178877 2.81536412 1.33084750 72 15 30453 5.14200000 1409288299 1409288299 15.00000000
-1.70148981 1.17377913 -0.55387276 4 0 30460 2.14000000 1409288320 1409288320 -15.00000000
-4.12937212 2.84972668 0.08757617 15 1 30461 5.01800000 1409288322 1409288322 1.00000000
-1.95810854 1.35181761 -0.54933047 3 2 30462 2.44200000 1409288325 1409288325 -13.00000000
-4.13206196 2.85264802 0.26314518 8 3 30462 5.02800000 1409288327 1409288327 3.00000000
-2.31977487 1.60209882 -0.54800344 3 4 30463 2.87200000 1409288329 1409288329 -11.00000000
-2.59652114 1.79389668 0.27610940 21 5 30464 3.16800000 1409288332 1409288332 5.00000000
-2.81454301 1.94525051 -0.54188901 1 6 30465 3.46400000 1409288334 1409288334 -9.00000000
-2.62720799 1.81645274 0.39217556 26 7 30466 3.21800000 1409288336 1409288336 7.00000000
-3.70115709 2.55993652 -0.55255562 8 8 30467 4.53400000 1409288338 1409288338 -7.00000000
-2.64490223 1.82936895 0.50935060 57 9 30467 3.25600000 1409288341 1409288341 9.00000000
-3.76510501 2.60513830 -0.40056780 44 10 30468 4.59600000 1409288343 1409288343 -5.00000000
-2.66032171 1.84140730 0.62890643 45 11 30469 3.29600000 1409288345 1409288345 11.00000000
-4.14449549 2.86978459 -0.26419190 10 12 30470 5.04800000 1409288348 1409288348 -3.00000000
-2.67045307 1.84979904 0.74998683 21 13 30471 3.33400000 1409288350 1409288350 13.00000000
-4.14526033 2.87245584 -0.08802994 14 14 30472 5.04400000 1409288352 1409288352 -1.00000000
-4.09830904 2.83992052 1.33602393 72 15 30472 5.16200000 1409288355 1409288355 15.00000000
-1.70055485 1.18191636 -0.55490804 4 0 30480 2.14400000 1409288375 1409288375 -15.00000000
-4.13417578 2.87439728 0.08789032 13 1 30481 5.03600000 1409288378 1409288378 1.00000000
-1.95657754 1.36086988 -0.55023026 3 2 30482 2.44600000 1409288380 1409288380 -13.00000000
-4.13141584 2.87461805 0.26377323 8 3 30483 5.04000000 1409288382 1409288382 3.00000000
-2.31416845 1.61018658 -0.54800344 3 4 30483 2.87200000 1409288385 1409288385 -11.00000000
-2.58533764 1.79953456 0.27558646 28 5 30484 3.16200000 1409288387 1409288387 5.00000000
-2.80935693 1.95619202 -0.54220188 1 6 30485 3.46600000 1409288389 1409288389 -9.00000000
-2.61433578 1.82107389 0.39120060 36 7 30486 3.21000000 1409288391 1409288391 7.00000000
-3.69545603 2.57511020 -0.55304307 8 8 30487 4.53800000 1409288394 1409288394 -7.00000000
-2.62359476 1.82888401 0.50653481 56 9 30488 3.23800000 1409288396 1409288396 9.00000000
-3.77396750 2.63079810 -0.40248522 30 10 30488 4.61800000 1409288398 1409288398 -5.00000000
-2.64260530 1.84282136 0.62623513 61 11 30489 3.28200000 1409288401 1409288401 11.00000000
-4.13936710 2.88766241 -0.26450592 10 12 30490 5.05400000 1409288403 1409288403 -3.00000000
-2.65279341 1.85130262 0.74683750 56 13 30491 3.32000000 1409288405 1409288405 13.00000000
-4.14176702 2.89148664 -0.08816956 8 14 30492 5.05200000 1409288408 1409288408 -1.00000000
-4.10371065 2.86598396 1.34120023 72 15 30493 5.18200000 1409288410 1409288410 15.00000000
-1.68671775 1.18149126 -0.55180222 4 0 30501 2.13200000 1409288431 1409288431 -15.00000000
-4.13507652 2.89756346 0.08813465 11 1 30502 5.05000000 1409288433 1409288433 1.00000000
-1.95476806 1.37026918 -0.55113006 3 2 30503 2.45000000 1409288435 1409288435 -13.00000000
-4.14098167 2.90277910 0.26502928 12 3 30503 5.06400000 1409288438 1409288438 3.00000000
-2.35165143 1.64909196 -0.55830711 3 4 30504 2.92600000 1409288440 1409288440 -11.00000000
-2.56730723 1.80098879 0.27436629 29 5 30505 3.14800000 1409288442 1409288442 5.00000000
-2.80863595 1.97101450 -0.54345334 3 6 30506 3.47400000 1409288444 1409288444 -9.00000000
-2.61089301 1.83292484 0.39168808 27 7 30507 3.21400000 1409288447 1409288447 7.00000000
-2.86561990 2.01249743 -0.42995504 4 8 30508 3.52800000 1409288449 1409288449 -7.00000000
-2.62010670 1.84075880 0.50716054 57 9 30509 3.24200000 1409288451 1409288451 9.00000000
-3.76429987 2.64461279 -0.40248522 27 10 30509 4.61800000 1409288454 1409288454 -5.00000000
-2.64065194 1.85588133 0.62737995 65 11 30510 3.28800000 1409288456 1409288456 11.00000000
-4.14345980 2.91315293 -0.26544797 10 12 30511 5.07200000 1409288458 1409288458 -3.00000000
-2.63802028 1.85540771 0.74458802 39 13 30512 3.31000000 1409288461 1409288461 13.00000000
-4.13604784 2.91009974 -0.08827427 8 14 30513 5.05800000 1409288463 1409288463 -1.00000000
-4.08894157 2.87695599 1.33964741 68 15 30513 5.17600000 1409288465 1409288465 15.00000000
-1.67942643 1.18514407 -0.55076694 4 0 30521 2.12800000 1409288486 1409288486 -15.00000000
-4.12820435 2.91428638 0.08820447 11 1 30522 5.05400000 1409288488 1409288488 1.00000000
-1.95952392 1.38382912 -0.55382949 3 2 30523 2.46200000 1409288490 1409288490 -13.00000000
-4.15040112 2.93104172 0.26628536 14 3 30523 5.08800000 1409288493 1409288493 3.00000000
-2.65695453 1.87705457 -0.63234103 16 4 30524 3.31400000 1409288495 1409288495 -11.00000000
-2.55449677 1.80533981 0.27366903 24 5 30525 3.14000000 1409288497 1409288497 5.00000000
-2.80657768 1.98422754 -0.54439193 3 6 30526 3.48000000 1409288500 1409288500 -9.00000000
-2.62554836 1.85692871 0.39485666 20 7 30527 3.24000000 1409288502 1409288502 7.00000000
-2.84399295 2.01216912 -0.42776141 27 8 30528 3.51000000 1409288504 1409288504 -7.00000000
-2.61689019 1.85217583 0.50778627 66 9 30529 3.24600000 1409288507 1409288507 9.00000000
-3.74366164 2.64967942 -0.40126503 28 10 30529 4.60400000 1409288509 1409288509 -5.00000000
-2.61813474 1.85374284 0.62356383 68 11 30530 3.26800000 1409288511 1409288511 11.00000000
-4.14630461 2.93683386 -0.26628536 10 12 30531 5.08800000 1409288514 1409288514 -3.00000000
-2.62039733 1.85671830 0.74143869 36 13 30532 3.29600000 1409288516 1409288516 13.00000000
-4.14381027 2.93723965 -0.08865822 8 14 30533 5.08000000 1409288518 1409288518 -1.00000000
-4.08360243 2.89456320 1.34120023 29 15 30533 5.18200000 1409288520 1409288520 15.00000000
-1.67884481 1.19265187 -0.55180222 4 0 30539 2.13200000 1409288541 1409288541 -15.00000000
-4.12880850 2.93419147 0.08841389 15 1 30540 5.06600000 1409288543 1409288543 1.00000000
-1.94881368 1.38546181 -0.55202991 3 2 30541 2.45400000 1409288546 1409288546 -13.00000000
-4.14228630 2.94594646 0.26639003 14 3 30542 5.09000000 1409288548 1409288548 3.00000000
-2.79343605 1.98665965 -0.66630501 24 4 30542 3.49200000 1409288550 1409288550 -11.00000000
-2.56180000 1.82259607 0.27506351 33 5 30543 3.15600000 1409288553 1409288553 5.00000000
-2.79228330 1.98730779 -0.54282761 1 6 30544 3.47000000 1409288555 1409288555 -9.00000000
-2.66983175 1.90085936 0.40241256 5 7 30545 3.30200000 1409288557 1409288557 7.00000000
-2.83118987 2.01648736 -0.42678645 37 8 30546 3.50200000 1409288560 1409288560 -7.00000000
-2.62425494 1.86909997 0.51028925 70 9 30546 3.26200000 1409288562 1409288562 9.00000000
-2.89641356 2.06370449 -0.31114599 7 10 30547 3.57000000 1409288564 1409288564 -5.00000000
-2.59790969 1.85170317 0.62012923 66 11 30548 3.25000000 1409288567 1409288567 11.00000000
-4.14193630 2.95332408 -0.26659936 10 12 30549 5.09400000 1409288569 1409288569 -3.00000000
-2.61137819 1.86267805 0.74053890 58 13 30550 3.29200000 1409288571 1409288571 13.00000000
-4.13456202 2.95024347 -0.08865822 6 14 30551 5.08000000 1409288573 1409288573 -1.00000000
-4.08656025 2.91706800 1.34534144 21 15 30552 5.19800000 1409288576 1409288576 15.00000000
-1.68409729 1.20525074 -0.55490804 4 0 30559 2.14400000 1409288596 1409288596 -15.00000000
-4.12829685 2.95557022 0.08862332 15 1 30560 5.07800000 1409288599 1409288599 1.00000000
-1.94396567 1.39225590 -0.55202991 3 2 30561 2.45400000 1409288601 1409288601 -13.00000000
-4.14223719 2.96664405 0.26701805 12 3 30561 5.10200000 1409288603 1409288603 3.00000000
-2.79446387 2.00211549 -0.66821313 13 4 30562 3.50200000 1409288606 1409288606 -11.00000000
-2.55542231 1.83152735 0.27506351 29 5 30563 3.15600000 1409288608 1409288608 5.00000000
-2.78532934 1.99704254 -0.54282761 1 6 30564 3.47000000 1409288610 1409288610 -9.00000000
-2.68576336 1.92636490 0.40582490 42 7 30565 3.33000000 1409288613 1409288613 7.00000000
-2.81445646 2.01941419 -0.42532402 60 8 30566 3.49000000 1409288615 1409288615 -7.00000000
-2.62059617 1.88100958 0.51091498 66 9 30567 3.26600000 1409288617 1409288617 9.00000000
-2.82444859 2.02733040 -0.30417353 19 10 30567 3.49000000 1409288620 1409288620 -5.00000000
-2.59621453 1.86419547 0.62127411 78 11 30568 3.25600000 1409288622 1409288622 11.00000000
-4.13322449 2.96892929 -0.26670402 7 12 30569 5.09600000 1409288624 1409288624 -3.00000000
-2.60960817 1.87519360 0.74188858 86 13 30570 3.29800000 1409288626 1409288626 13.00000000
-2.66289425 1.91418850 -0.05724389 1 14 30571 3.28000000 1409288629 1409288629 -1.00000000
-4.09360552 2.94372129 1.35103536 17 15 30572 5.22000000 1409288631 1409288631 15.00000000
-1.67987990 1.21112204 -0.55490804 4 0 30579 2.14400000 1409288652 1409288652 -15.00000000
-1.94541538 1.40359402 -0.55382949 3 2 30581 2.46200000 1409288656 1409288656 -13.00000000
-2.72537327 1.96704769 -0.65333003 12 4 30582 3.42400000 1409288661 1409288661 -11.00000000
-2.60070467 1.87775815 0.28064150 24 5 30583 3.22000000 1409288663 1409288663 5.00000000
-2.78634810 2.01253629 -0.54439193 3 6 30584 3.48000000 1409288666 1409288666 -9.00000000
-2.68063164 1.93689084 0.40606865 75 7 30585 3.33200000 1409288668 1409288668 7.00000000
-2.79934621 2.02341175 -0.42410532 73 8 30586 3.48000000 1409288670 1409288670 -7.00000000
-2.61754608 1.89200389 0.51154071 66 9 30586 3.27000000 1409288673 1409288673 9.00000000
-2.79798031 2.02316809 -0.30208179 22 10 30587 3.46600000 1409288675 1409288675 -5.00000000
-2.59923577 1.88015044 0.62356383 79 11 30588 3.26800000 1409288677 1409288677 11.00000000
-2.67628336 1.93659437 -0.17312734 5 12 30589 3.30800000 1409288679 1409288679 -3.00000000
-2.59515381 1.87857795 0.73963904 70 13 30590 3.28800000 1409288682 1409288682 13.00000000
-2.62542319 1.90118790 -0.05658070 13 14 30591 3.24200000 1409288684 1409288684 -1.00000000
-2.62207651 1.89946210 0.86756146 4 15 30592 3.35200000 1409288686 1409288686 15.00000000
-1.66938972 1.21243751 -0.55283749 4 0 30599 2.13600000 1409288707 1409288707 -15.00000000
-2.65640712 1.92999279 0.05731370 16 1 30600 3.28400000 1409288709 1409288709 1.00000000
-1.93419850 1.40579331 -0.55202991 3 2 30601 2.45400000 1409288712 1409288712 -13.00000000
-2.68029976 1.94806647 0.17365070 23 3 30601 3.31800000 1409288714 1409288714 3.00000000
-2.71690249 1.97539449 -0.65294838 9 4 30602 3.42200000 1409288716 1409288716 -11.00000000
-2.61185813 1.89971626 0.28255892 50 5 30603 3.24200000 1409288719 1409288719 5.00000000
-2.77611136 2.01992559 -0.54376620 3 6 30604 3.47600000 1409288721 1409288721 -9.00000000
-2.65459490 1.93221772 0.40314379 61 7 30605 3.30800000 1409288723 1409288723 7.00000000
-2.78745198 2.02966547 -0.42337409 73 8 30606 3.47400000 1409288726 1409288726 -7.00000000
-2.61252284 1.90229201 0.51185358 81 9 30606 3.27200000 1409288728 1409288728 9.00000000
-2.76030254 2.01063418 -0.29876989 16 10 30607 3.42800000 1409288730 1409288730 -5.00000000
-2.59900379 1.89383686 0.62509024 74 11 30608 3.27600000 1409288732 1409288732 11.00000000
-2.65336752 1.93415964 -0.17208062 13 12 30609 3.28800000 1409288735 1409288735 -3.00000000
-2.59487867 1.89221811 0.74143869 68 13 30610 3.29600000 1409288737 1409288737 13.00000000
-2.59453797 1.89266336 -0.05605713 18 14 30611 3.21200000 1409288739 1409288739 -1.00000000
-2.62479329 1.91543591 0.87066728 21 15 30612 3.36400000 1409288742 1409288742 15.00000000
-1.65891087 1.21369457 -0.55076694 4 0 30619 2.12800000 1409288762 1409288762 -15.00000000
-2.64319944 1.93452954 0.05717408 27 1 30620 3.27600000 1409288765 1409288765 1.00000000
-1.93871379 1.41944373 -0.55472928 3 2 30621 2.46600000 1409288767 1409288767 -13.00000000
-2.66703725 1.95269120 0.17323202 27 3 30621 3.31000000 1409288769 1409288769 3.00000000
-2.66405845 1.95122445 -0.64188147 12 4 30622 3.36400000 1409288772 1409288772 -11.00000000
-2.58592486 1.89469099 0.28046718 50 5 30623 3.21800000 1409288774 1409288774 5.00000000
-2.77541661 2.03427482 -0.54501766 3 6 30624 3.48400000 1409288776 1409288776 -9.00000000
-2.59980798 1.90625811 0.39583161 27 7 30625 3.24800000 1409288778 1409288778 7.00000000
-2.78355145 2.04173136 -0.42386156 74 8 30626 3.47800000 1409288781 1409288781 -7.00000000
-2.61223793 1.91607320 0.51310503 47 9 30626 3.28000000 1409288783 1409288783 9.00000000
-2.72114062 1.99668372 -0.29528365 16 10 30627 3.38800000 1409288785 1409288785 -5.00000000
-2.60345578 1.91102958 0.62776160 55 11 30628 3.29000000 1409288788 1409288788 11.00000000
-2.62889147 1.93040645 -0.17092924 19 12 30629 3.26600000 1409288790 1409288790 -3.00000000
-2.58668733 1.90011072 0.74098879 64 13 30630 3.29400000 1409288792 1409288792 13.00000000
-2.59436107 1.90644491 -0.05619675 23 14 30631 3.22000000 1409288795 1409288795 -1.00000000
-2.61220002 1.91955376 0.86859673 34 15 30631 3.35600000 1409288797 1409288797 15.00000000
-1.66710520 1.22864687 -0.55490804 4 0 30639 2.14400000 1409288818 1409288818 -15.00000000
-2.61389685 1.92713094 0.05668542 25 1 30640 3.24800000 1409288820 1409288820 1.00000000
-1.92433727 1.41926229 -0.55202991 3 2 30641 2.45400000 1409288822 1409288822 -13.00000000
-2.63127208 1.94065011 0.17134792 24 3 30641 3.27400000 1409288825 1409288825 3.00000000
-2.71884346 2.00596952 -0.65676457 9 4 30642 3.44200000 1409288827 1409288827 -11.00000000
-2.55524993 1.88595867 0.27785251 42 5 30643 3.18800000 1409288829 1409288829 5.00000000
-2.76194215 2.03925729 -0.54376620 3 6 30644 3.47600000 1409288831 1409288831 -9.00000000
-2.55481577 1.88701630 0.38998190 45 7 30645 3.20000000 1409288834 1409288834 7.00000000
-2.77960062 2.05379462 -0.42434904 79 8 30646 3.48200000 1409288836 1409288836 -7.00000000
-2.55787134 1.88996327 0.50371897 47 9 30646 3.22000000 1409288838 1409288838 9.00000000
-2.70133638 1.99669588 -0.29388916 16 10 30647 3.37200000 1409288841 1409288841 -5.00000000
-2.55730462 1.89092469 0.61822116 63 11 30648 3.24000000 1409288843 1409288843 11.00000000
-2.59805131 1.92175519 -0.16935915 16 12 30649 3.23600000 1409288845 1409288845 -3.00000000
-2.58160543 1.91028750 0.74143869 73 13 30650 3.29600000 1409288848 1409288848 13.00000000
-2.59411955 1.92024827 -0.05633637 21 14 30651 3.22800000 1409288850 1409288850 -1.00000000
-2.57409644 1.90612197 0.85824394 66 15 30652 3.31600000 1409288852 1409288852 15.00000000
-1.66280627 1.23445868 -0.55490804 4 0 30659 2.14400000 1409288873 1409288873 -15.00000000
-2.60715413 1.93624341 0.05668542 27 1 30660 3.24800000 1409288875 1409288875 1.00000000
-1.91624284 1.42364645 -0.55113006 3 2 30661 2.45000000 1409288878 1409288878 -13.00000000
-2.59208131 1.92645371 0.16925448 20 3 30662 3.23400000 1409288880 1409288880 3.00000000
-2.63618994 1.95923555 -0.63844693 9 4 30662 3.34600000 1409288882 1409288882 -11.00000000
-2.55504680 1.89962161 0.27854976 55 5 30663 3.19600000 1409288884 1409288884 5.00000000
-2.76114726 2.05360126 -0.54501766 3 6 30664 3.48400000 1409288887 1409288887 -9.00000000
-2.54343534 1.89236784 0.38925070 62 7 30665 3.19400000 1409288889 1409288889 7.00000000
-2.76604486 2.05874395 -0.42337409 52 8 30666 3.47400000 1409288891 1409288891 -7.00000000
-2.55918169 1.90477753 0.50528330 73 9 30666 3.23000000 1409288894 1409288894 9.00000000
-2.67996764 1.99540436 -0.29232037 19 10 30667 3.35400000 1409288896 1409288896 -5.00000000
-2.55856085 1.90570354 0.62012923 75 11 30668 3.25000000 1409288898 1409288898 11.00000000
-2.58812404 1.92842567 -0.16914982 15 12 30669 3.23200000 1409288901 1409288901 -3.00000000
-2.57492161 1.91928732 0.74143869 82 13 30670 3.29600000 1409288903 1409288903 13.00000000
-2.59381342 1.93407321 -0.05647599 18 14 30671 3.23600000 1409288905 1409288905 -1.00000000
-2.57085872 1.91695714 0.85927922 63 15 30671 3.32000000 1409288908 1409288908 15.00000000
-1.66158128 1.24256933 -0.55594331 4 0 30679 2.14800000 1409288928 1409288928 -15.00000000
-2.58596849 1.93455148 0.05637127 17 1 30680 3.23000000 1409288931 1409288931 1.00000000
-1.91750252 1.43499720 -0.55292970 3 2 30681 2.45800000 1409288933 1409288933 -13.00000000
-2.56935239 1.92352033 0.16820776 26 3 30682 3.21400000 1409288935 1409288935 3.00000000
-2.53503728 1.89783061 -0.61554980 5 4 30682 3.22600000 1409288937 1409288937 -11.00000000
-2.54521084 1.90614021 0.27820113 57 5 30683 3.19200000 1409288940 1409288940 5.00000000
-2.75712371 2.06559563 -0.54564339 3 6 30684 3.48800000 1409288942 1409288942 -9.00000000
-2.54157972 1.90480614 0.38998190 81 7 30685 3.20000000 1409288944 1409288944 7.00000000
-2.76837134 2.07553124 -0.42483652 45 8 30686 3.48600000 1409288947 1409288947 -7.00000000
-2.55376363 1.91532981 0.50559622 81 9 30687 3.23200000 1409288949 1409288949 9.00000000
-2.66342258 1.99757433 -0.29127449 22 10 30687 3.34200000 1409288951 1409288951 -5.00000000
-2.55974507 1.92051411 0.62203735 82 11 30688 3.26000000 1409288954 1409288954 11.00000000
-2.57658482 1.93385148 -0.16883579 13 12 30689 3.22600000 1409288956 1409288956 -3.00000000
-2.56197286 1.92358351 0.73963904 68 13 30690 3.28800000 1409288958 1409288958 13.00000000
-2.54067779 1.90828836 -0.05546375 23 14 30691 3.17800000 1409288961 1409288961 -1.00000000
-2.58698249 1.94377387 0.86704379 58 15 30692 3.35000000 1409288963 1409288963 15.00000000
-1.65106165 1.24371243 -0.55387276 4 0 30699 2.14000000 1409288984 1409288984 -15.00000000
-2.55524445 1.92551482 0.05584770 22 1 30700 3.20000000 1409288986 1409288986 1.00000000
-1.91248178 1.44168174 -0.55292970 3 2 30701 2.45800000 1409288988 1409288988 -13.00000000
-2.54508114 1.91924942 0.16705637 27 3 30702 3.19200000 1409288990 1409288990 3.00000000
-2.25094748 1.69744277 -0.54800344 3 4 30702 2.87200000 1409288993 1409288993 -11.00000000
-2.54172277 1.91741276 0.27854976 70 5 30703 3.19600000 1409288995 1409288995 5.00000000
-2.77827859 2.09662580 -0.55127507 3 6 30704 3.52400000 1409288997 1409288997 -9.00000000
-2.54283690 1.91964650 0.39120060 71 7 30705 3.21000000 1409289000 1409289000 7.00000000
-2.53636360 1.91545463 0.50340611 62 9 30706 3.21800000 1409289004 1409289004 9.00000000
-2.64689517 1.99965334 -0.29022864 24 10 30707 3.33000000 1409289007 1409289007 -5.00000000
-2.56242323 1.93653989 0.62432700 82 11 30708 3.27200000 1409289009 1409289009 11.00000000
-2.58256412 1.95246947 -0.16967317 20 12 30709 3.24200000 1409289011 1409289011 -3.00000000
-2.53969979 1.92075980 0.73514003 67 13 30710 3.26800000 1409289014 1409289014 13.00000000
-2.51964879 1.90628672 -0.05514960 23 14 30711 3.16000000 1409289016 1409289016 -1.00000000
-2.57127881 1.94534838 0.86393797 47 15 30711 3.33800000 1409289018 1409289018 15.00000000
-1.64671016 1.24946809 -0.55387276 4 0 30719 2.14000000 1409289039 1409289039 -15.00000000
-2.52620816 1.91749632 0.05535903 23 1 30720 3.17200000 1409289041 1409289041 1.00000000
-1.91054177 1.45070577 -0.55382949 3 2 30721 2.46200000 1409289043 1409289043 -13.00000000
-2.53518534 1.92570555 0.16684704 27 3 30722 3.18800000 1409289046 1409289046 3.00000000
-2.23875499 1.70053959 -0.54647696 3 4 30722 2.86400000 1409289048 1409289048 -11.00000000
-2.51597786 1.91180825 0.27645802 64 5 30723 3.17200000 1409289050 1409289050 5.00000000
-2.74420881 2.08598900 -0.54595625 3 6 30724 3.49000000 1409289053 1409289053 -9.00000000
-2.53612065 1.92851090 0.39120060 53 7 30725 3.21000000 1409289055 1409289055 7.00000000
-3.38736510 2.57674551 -0.52257574 68 8 30726 4.28800000 1409289057 1409289057 -7.00000000
-2.53246999 1.92713046 0.50403184 56 9 30727 3.22200000 1409289060 1409289060 9.00000000
-2.64465547 2.01250005 -0.29075155 18 10 30727 3.33600000 1409289062 1409289062 -5.00000000
-2.55252361 1.94309425 0.62356383 73 11 30728 3.26800000 1409289064 1409289064 11.00000000
-2.58208895 1.96631265 -0.17009185 17 12 30729 3.25000000 1409289066 1409289066 -3.00000000
-2.53607988 1.93197513 0.73603988 66 13 30730 3.27200000 1409289069 1409289069 13.00000000
-2.50661707 1.91022205 -0.05500998 25 14 30731 3.15200000 1409289071 1409289071 -1.00000000
-2.55798626 1.95007467 0.86186743 47 15 30732 3.33000000 1409289073 1409289073 15.00000000
-1.63598084 1.25080180 -0.55180222 4 0 30740 2.13200000 1409289094 1409289094 -15.00000000
-2.49851418 1.91094947 0.05490527 26 1 30741 3.14600000 1409289096 1409289096 1.00000000
-1.90830719 1.46006680 -0.55472928 3 2 30742 2.46600000 1409289099 1409289099 -13.00000000
-2.52493811 1.93255663 0.16663769 26 3 30743 3.18400000 1409289101 1409289101 3.00000000
-2.24497938 1.71827960 -0.54952991 3 4 30743 2.88000000 1409289103 1409289103 -11.00000000
-2.50262594 1.91617203 0.27576077 52 5 30744 3.16400000 1409289106 1409289106 5.00000000
-2.73811293 2.09723425 -0.54626918 3 6 30745 3.49200000 1409289108 1409289108 -9.00000000
-2.52115655 1.93175662 0.38998190 45 7 30746 3.20000000 1409289110 1409289110 7.00000000
-3.37317157 2.58552051 -0.52184451 76 8 30747 4.28200000 1409289113 1409289113 -7.00000000
-2.52259207 1.93355525 0.50340611 50 9 30747 3.21800000 1409289115 1409289115 9.00000000
-2.64042377 2.02460432 -0.29110017 15 10 30748 3.34000000 1409289117 1409289117 -5.00000000
-2.53603816 1.94526732 0.62127411 71 11 30749 3.25600000 1409289119 1409289119 11.00000000
-2.56377292 1.96725225 -0.16935915 15 12 30750 3.23600000 1409289122 1409289122 -3.00000000
-2.53207350 1.94363058 0.73693967 70 13 30751 3.27600000 1409289124 1409289124 13.00000000
-2.50277114 1.92183220 -0.05507980 25 14 30752 3.15600000 1409289126 1409289126 -1.00000000
-2.55422807 1.96134496 0.86290270 55 15 30752 3.33400000 1409289129 1409289129 15.00000000
-1.64384937 1.26593447 -0.55594331 4 0 30760 2.14800000 1409289149 1409289149 -15.00000000
-2.48549199 1.91477776 0.05476565 25 1 30761 3.13800000 1409289152 1409289152 1.00000000
-1.90011191 1.46434009 -0.55382949 3 2 30762 2.46200000 1409289154 1409289154 -13.00000000
-2.51026797 1.93526137 0.16611433 26 3 30763 3.17400000 1409289156 1409289156 3.00000000
-2.23896766 1.72610557 -0.54952991 3 4 30763 2.88000000 1409289159 1409289159 -11.00000000
-2.49907756 1.92732966 0.27610940 28 5 30764 3.16800000 1409289161 1409289161 5.00000000
-2.73390365 2.10919237 -0.54689491 3 6 30765 3.49600000 1409289163 1409289163 -9.00000000
-2.49396873 1.92477834 0.38681328 51 7 30766 3.17400000 1409289166 1409289166 7.00000000
-3.33741379 2.57665634 -0.51770097 70 8 30767 4.24800000 1409289168 1409289168 -7.00000000
-2.51548815 1.94278800 0.50340611 60 9 30768 3.21800000 1409289170 1409289170 9.00000000
-2.67118478 2.06303740 -0.29528365 4 10 30768 3.38800000 1409289172 1409289172 -5.00000000
-2.50437522 1.93490291 0.61516821 63 11 30769 3.22400000 1409289175 1409289175 11.00000000
-2.54108763 1.96397567 -0.16831243 15 12 30770 3.21600000 1409289177 1409289177 -3.00000000
-2.52527356 1.95245731 0.73693967 68 13 30771 3.27600000 1409289179 1409289179 13.00000000
-2.48972034 1.92566311 -0.05494018 26 14 30772 3.14800000 1409289182 1409289182 -1.00000000
-2.56688499 1.98606193 0.86963201 65 15 30773 3.36000000 1409289184 1409289184 15.00000000
-1.63964236 1.27137876 -0.55594331 4 0 30779 2.14800000 1409289205 1409289205 -15.00000000
-2.48702908 1.92913759 0.05494018 25 1 30780 3.14800000 1409289207 1409289207 1.00000000
-1.89370584 1.46943831 -0.55337960 4 2 30781 2.46000000 1409289209 1409289209 -13.00000000
-2.49910355 1.93990099 0.16580030 26 3 30782 3.16800000 1409289212 1409289212 3.00000000
-2.23012972 1.73111308 -0.54876667 3 4 30782 2.87600000 1409289214 1409289214 -11.00000000
-2.49424601 1.93682826 0.27628371 58 5 30783 3.17000000 1409289216 1409289216 5.00000000
-2.74249434 2.13036489 -0.55002356 3 6 30784 3.51600000 1409289219 1409289219 -9.00000000
-2.49384212 1.93791020 0.38778824 62 7 30785 3.18200000 1409289221 1409289221 7.00000000
-3.31631303 2.57796288 -0.51575106 70 8 30786 4.23200000 1409289223 1409289223 -7.00000000
-2.50937247 1.95068109 0.50340611 57 9 30786 3.21800000 1409289225 1409289225 9.00000000
-4.15062809 3.22768688 -0.46000800 13 10 30787 5.27800000 1409289228 1409289228 -5.00000000
-2.50724244 1.95042980 0.61745793 60 11 30788 3.23600000 1409289230 1409289230 11.00000000
-2.52983212 1.96871161 -0.16799842 16 12 30789 3.21000000 1409289232 1409289232 -3.00000000
-2.51263428 1.95603240 0.73514003 67 13 30790 3.26800000 1409289235 1409289235 13.00000000
-2.47385454 1.92653680 -0.05473075 26 14 30791 3.13600000 1409289237 1409289237 -1.00000000
-2.58806825 2.01548171 0.87894946 65 15 30791 3.39600000 1409289239 1409289239 15.00000000
-1.63214946 1.27471614 -0.55490804 4 0 30799 2.14400000 1409289260 1409289260 -15.00000000
-2.48185587 1.93903828 0.05497508 25 1 30800 3.15000000 1409289262 1409289262 1.00000000
-1.89010048 1.47723961 -0.55382949 3 2 30801 2.46200000 1409289265 1409289265 -13.00000000
-2.49703717 1.95230329 0.16611433 30 3 30802 3.17400000 1409289267 1409289267 3.00000000
-2.22407341 1.73888719 -0.54876667 3 4 30802 2.87600000 1409289269 1409289269 -11.00000000
-2.48276210 1.94184065 0.27576077 63 5 30803 3.16400000 1409289272 1409289272 5.00000000
-2.73659706 2.14114237 -0.55033642 3 6 30804 3.51800000 1409289274 1409289274 -9.00000000
-2.50738406 1.96250916 0.39095685 57 7 30805 3.20800000 1409289276 1409289276 7.00000000
-3.30573106 2.58829951 -0.51550734 82 8 30806 4.23000000 1409289278 1409289278 -7.00000000
-2.48976493 1.95012081 0.50090313 56 9 30807 3.20200000 1409289281 1409289281 9.00000000
-4.14874744 3.24952698 -0.46105388 13 10 30807 5.29000000 1409289283 1409289283 -5.00000000
-2.51432729 1.97006762 0.62089247 78 11 30808 3.25400000 1409289285 1409289285 11.00000000
-2.52451658 1.97876251 -0.16810310 15 12 30809 3.21200000 1409289288 1409289288 -3.00000000
-2.50732470 1.96599364 0.73558992 64 13 30810 3.27000000 1409289290 1409289290 13.00000000
-2.45295382 1.92405295 -0.05441660 33 14 30811 3.11800000 1409289292 1409289292 -1.00000000
-2.56394577 2.01183581 0.87325543 53 15 30812 3.37400000 1409289295 1409289295 15.00000000
-1.62161636 1.27562809 -0.55283749 4 0 30819 2.13600000 1409289315 1409289315 -15.00000000
-2.47192931 1.94521654 0.05490527 30 1 30820 3.14600000 1409289318 1409289318 1.00000000
-1.89411974 1.49106061 -0.55652893 4 2 30821 2.47400000 1409289320 1409289320 -13.00000000
-2.49334526 1.96347892 0.16632366 27 3 30822 3.17800000 1409289322 1409289322 3.00000000
-2.22724438 1.75392783 -0.55105639 3 4 30822 2.88800000 1409289325 1409289325 -11.00000000
-2.46501303 1.94186473 0.27454060 47 5 30823 3.15000000 1409289327 1409289327 5.00000000
-2.70893669 2.13478708 -0.54626918 3 6 30824 3.49200000 1409289329 1409289329 -9.00000000
-2.48492908 1.95896006 0.38851947 61 7 30825 3.18800000 1409289331 1409289331 7.00000000
-3.28732371 2.59244752 -0.51404488 86 8 30826 4.21800000 1409289334 1409289334 -7.00000000
-2.48018217 1.95591998 0.50027740 60 9 30826 3.19800000 1409289336 1409289336 9.00000000
-4.13425064 3.26152086 -0.46070525 13 10 30827 5.28600000 1409289338 1409289338 -5.00000000
-2.50281191 1.97518349 0.61974764 72 11 30828 3.24800000 1409289341 1409289341 11.00000000
-2.53640556 2.00241375 -0.16935915 15 12 30829 3.23600000 1409289343 1409289343 -3.00000000
-2.50809336 1.98077273 0.73783946 59 13 30830 3.28000000 1409289345 1409289345 13.00000000
-2.45406818 1.93880188 -0.05459113 23 14 30831 3.12800000 1409289348 1409289348 -1.00000000
-2.54968071 2.01433921 0.87066728 48 15 30831 3.36400000 1409289350 1409289350 15.00000000
-1.62018216 1.28368020 -0.55387276 4 0 30839 2.14000000 1409289371 1409289371 -15.00000000
-2.46042275 1.95010698 0.05480056 25 1 30840 3.14000000 1409289373 1409289373 1.00000000
-1.88432240 1.49403107 -0.55517918 4 2 30841 2.46800000 1409289375 1409289375 -13.00000000
-2.50055957 1.98334062 0.16726571 28 3 30842 3.19600000 1409289378 1409289378 3.00000000
-2.22418499 1.76413167 -0.55181962 3 4 30842 2.89200000 1409289380 1409289380 -11.00000000
-2.46290183 1.95417249 0.27506351 63 5 30843 3.15600000 1409289382 1409289382 5.00000000
-2.71075177 2.15159845 -0.54814637 3 6 30844 3.50400000 1409289384 1409289384 -9.00000000
-2.47185731 1.96268463 0.38754451 61 7 30845 3.18000000 1409289387 1409289387 7.00000000
-3.27514553 2.60143733 -0.51355743 100 8 30846 4.21400000 1409289389 1409289389 -7.00000000
-2.48571396 1.97439444 0.50278038 55 9 30846 3.21400000 1409289391 1409289391 9.00000000
-4.13531971 3.28584814 -0.46209976 9 10 30847 5.30200000 1409289394 1409289394 -5.00000000
-2.50512314 1.99123764 0.62203735 73 11 30848 3.26000000 1409289396 1409289396 11.00000000
-2.54815984 2.02617168 -0.17061521 15 12 30849 3.26000000 1409289398 1409289398 -3.00000000
-2.50268888 1.99072874 0.73828936 52 13 30850 3.28200000 1409289401 1409289401 13.00000000
-2.45354462 1.95233679 -0.05473075 22 14 30851 3.13600000 1409289403 1409289403 -1.00000000
-2.54716897 2.02683568 0.87222016 61 15 30851 3.37000000 1409289405 1409289405 15.00000000
-1.61871135 1.29173779 -0.55490804 4 0 30859 2.14400000 1409289426 1409289426 -15.00000000
-2.45516324 1.95993114 0.05483546 26 1 30860 3.14200000 1409289428 1409289428 1.00000000
-1.87148201 1.49451935 -0.55292970 3 2 30861 2.45800000 1409289431 1409289431 -13.00000000
-2.49674201 1.99455035 0.16747506 28 3 30862 3.20000000 1409289433 1409289433 3.00000000
-2.21187782 1.76698327 -0.55029315 3 4 30862 2.88400000 1409289435 1409289435 -11.00000000
-2.46073484 1.96648920 0.27558646 45 5 30863 3.16200000 1409289437 1409289437 5.00000000
-2.70168185 2.15981412 -0.54783350 1 6 30864 3.50200000 1409289440 1409289440 -9.00000000
-2.47429299 1.97873986 0.38900694 62 7 30865 3.19200000 1409289442 1409289442 7.00000000
-3.26294470 2.61037374 -0.51306993 92 8 30866 4.21000000 1409289444 1409289444 -7.00000000
-2.48154545 1.98596036 0.50340611 62 9 30867 3.21800000 1409289447 1409289447 9.00000000
-4.14560270 3.31769180 -0.46454009 13 10 30867 5.33000000 1409289449 1409289449 -5.00000000
-2.48896146 1.99260819 0.61974764 69 11 30868 3.24800000 1409289451 1409289451 11.00000000
-2.55042529 2.04254508 -0.17124325 13 12 30869 3.27200000 1409289454 1409289454 -3.00000000
-2.49572468 1.99945259 0.73828936 55 13 30870 3.28200000 1409289456 1409289456 13.00000000
-2.45295644 1.96589172 -0.05487037 25 14 30871 3.14400000 1409289458 1409289458 -1.00000000
-2.54158592 2.03692269 0.87273782 66 15 30871 3.37200000 1409289460 1409289460 15.00000000
-1.62623870 1.30706227 -0.55904913 4 0 30879 2.16000000 1409289481 1409289481 -15.00000000
-2.46077442 1.97851348 0.05511470 25 1 30880 3.15800000 1409289484 1409289484 1.00000000
-1.87840188 1.51081371 -0.55652893 3 2 30881 2.47400000 1409289486 1409289486 -13.00000000
-2.49443293 2.00700951 0.16778907 30 3 30882 3.20600000 1409289488 1409289488 3.00000000
-2.19957805 1.76977062 -0.54876667 3 4 30882 2.87600000 1409289490 1409289490 -11.00000000
-2.47092867 1.98880863 0.27750388 51 5 30883 3.18400000 1409289493 1409289493 5.00000000
-2.67720151 2.15560436 -0.54439193 3 6 30884 3.48000000 1409289495 1409289495 -9.00000000
-2.49210644 2.00728822 0.39290676 66 7 30885 3.22400000 1409289497 1409289497 7.00000000
-3.24762988 2.61676574 -0.51209497 84 8 30886 4.20200000 1409289500 1409289500 -7.00000000
-2.46844602 1.98965180 0.50215465 60 9 30887 3.21000000 1409289502 1409289502 9.00000000
-4.15726519 3.35089755 -0.46715477 13 10 30887 5.36000000 1409289504 1409289504 -5.00000000
-2.48963237 2.00744581 0.62165570 55 11 30888 3.25800000 1409289507 1409289507 11.00000000
-4.12272501 3.32543182 -0.27758992 11 12 30889 5.30400000 1409289509 1409289509 -3.00000000
-2.49176335 2.01059961 0.73918915 51 13 30890 3.28600000 1409289511 1409289511 13.00000000
-2.44607925 1.97444212 -0.05487037 23 14 30891 3.14400000 1409289513 1409289513 -1.00000000
-2.54462433 2.05471992 0.87636131 68 15 30892 3.38600000 1409289516 1409289516 15.00000000
-1.60988140 1.30272603 -0.55490804 4 0 30898 2.14400000 1409289537 1409289537 -15.00000000
-2.45420003 1.98666275 0.05511470 26 1 30899 3.15800000 1409289539 1409289539 1.00000000
-1.87186706 1.51580799 -0.55607903 4 2 30900 2.47200000 1409289541 1409289541 -13.00000000
-2.49552345 2.02155638 0.16831243 27 3 30901 3.21600000 1409289543 1409289543 3.00000000
-2.19674826 1.77952647 -0.54952991 3 4 30901 2.88000000 1409289546 1409289546 -11.00000000
-2.48599100 2.01455307 0.27994424 51 5 30902 3.21200000 1409289548 1409289548 5.00000000
-2.64395189 2.14332318 -0.53907317 36 6 30903 3.44600000 1409289550 1409289550 -9.00000000
-2.48543620 2.01554132 0.39290676 62 7 30904 3.22400000 1409289553 1409289553 7.00000000
-3.24664259 2.63377380 -0.51331365 76 8 30905 4.21200000 1409289555 1409289555 -7.00000000
-2.46797013 2.00280547 0.50340611 57 9 30906 3.21800000 1409289557 1409289557 9.00000000
-4.15695953 3.37345338 -0.46837497 13 10 30906 5.37400000 1409289560 1409289560 -5.00000000
-2.49667978 2.02682710 0.62509024 58 11 30907 3.27600000 1409289562 1409289562 11.00000000
-4.11477566 3.34160328 -0.27779925 11 12 30908 5.30800000 1409289564 1409289564 -3.00000000
-2.48810744 2.02130914 0.74008894 55 13 30909 3.29000000 1409289566 1409289566 13.00000000
-2.44572568 1.98758733 -0.05500998 22 14 30910 3.15200000 1409289569 1409289569 -1.00000000
-2.52316451 2.05052018 0.87118489 78 15 30910 3.36600000 1409289571 1409289571 15.00000000
-1.60532415 1.30833757 -0.55490804 4 0 30918 2.14400000 1409289592 1409289592 -15.00000000
-2.46119905 2.00658989 0.05542884 23 1 30919 3.17600000 1409289594 1409289594 1.00000000
-1.86807466 1.52356446 -0.55652893 3 2 30920 2.47400000 1409289596 1409289596 -13.00000000
-2.49309421 2.03404284 0.16862646 23 3 30921 3.22200000 1409289599 1409289599 3.00000000
-2.19356537 1.78966594 -0.55029315 3 4 30921 2.88400000 1409289601 1409289601 -11.00000000
-2.47585654 2.02069902 0.27959561 55 5 30922 3.20800000 1409289603 1409289603 5.00000000
-2.61962247 2.13879704 -0.53563160 40 6 30923 3.42400000 1409289606 1409289606 -9.00000000
-2.48146057 2.02671623 0.39339423 61 7 30924 3.22800000 1409289608 1409289608 7.00000000
-3.23896646 2.64634657 -0.51355743 40 8 30925 4.21400000 1409289610 1409289610 -7.00000000
-2.46402287 2.01390839 0.50403184 60 9 30926 3.22200000 1409289613 1409289613 9.00000000
-4.14978695 3.39172602 -0.46889791 13 10 30926 5.38000000 1409289615 1409289615 -5.00000000
-2.49262953 2.03801513 0.62585348 65 11 30927 3.28000000 1409289617 1409289617 11.00000000
-4.12627649 3.37491345 -0.27936932 16 12 30928 5.33800000 1409289619 1409289619 -3.00000000
-2.49008584 2.03738594 0.74278837 57 13 30929 3.30200000 1409289622 1409289622 13.00000000
-2.48983860 2.03790927 -0.05616184 20 14 30930 3.21800000 1409289624 1409289624 -1.00000000
-2.51300168 2.05686808 0.87014961 78 15 30930 3.36200000 1409289626 1409289626 15.00000000
-1.60947621 1.32156825 -0.55801386 4 0 30939 2.15600000 1409289647 1409289647 -15.00000000
-2.48936844 2.04479027 0.05623166 23 1 30940 3.22200000 1409289649 1409289649 1.00000000
-1.85946667 1.52792668 -0.55562907 3 2 30941 2.47000000 1409289652 1409289652 -13.00000000
-2.49523783 2.05034089 0.16925448 26 3 30941 3.23400000 1409289654 1409289654 3.00000000
-2.30377245 1.89368713 -0.57967770 5 4 30942 3.03800000 1409289656 1409289656 -11.00000000
-2.47766733 2.03735232 0.28064150 65 5 30943 3.22000000 1409289659 1409289659 5.00000000
-2.59345913 2.13332534 -0.53187716 32 6 30944 3.40000000 1409289661 1409289661 -9.00000000
-2.46328568 2.02696824 0.39168808 51 7 30945 3.21400000 1409289663 1409289663 7.00000000
-2.61925983 2.15608168 -0.41654941 16 8 30946 3.41800000 1409289665 1409289665 -7.00000000
-2.46002841 2.02500796 0.50465757 60 9 30946 3.22600000 1409289668 1409289668 9.00000000
-4.14501762 3.41324544 -0.46976945 10 10 30947 5.39000000 1409289670 1409289670 -5.00000000
-2.48059702 2.04339266 0.62470865 71 11 30948 3.27400000 1409289672 1409289672 11.00000000
-2.58485389 2.13003159 -0.17553480 2 12 30949 3.35400000 1409289675 1409289675 -3.00000000
-2.48560905 2.04897809 0.74368817 60 13 30950 3.30600000 1409289677 1409289677 13.00000000
-2.50857997 2.06864929 -0.05675523 20 14 30951 3.25200000 1409289679 1409289679 -1.00000000
-2.51140785 2.07098103 0.87222016 79 15 30951 3.37000000 1409289682 1409289682 15.00000000
-1.60187578 1.32471609 -0.55697858 4 0 30959 2.15200000 1409289702 1409289702 -15.00000000
-2.51611304 2.08150959 0.05699956 22 1 30960 3.26600000 1409289705 1409289705 1.00000000
-1.85412192 1.53440821 -0.55562907 3 2 30961 2.47000000 1409289707 1409289707 -13.00000000
-2.50001383 2.06966162 0.17009185 30 3 30962 3.25000000 1409289709 1409289709 3.00000000
-2.36217594 1.95555115 -0.59608728 9 4 30962 3.12400000 1409289712 1409289712 -11.00000000
-2.46747160 2.04344702 0.28029287 66 5 30963 3.21600000 1409289714 1409289714 5.00000000
-2.58903885 2.14488554 -0.53250289 27 6 30964 3.40400000 1409289716 1409289716 -9.00000000
-2.44396782 2.02542090 0.38973817 50 7 30965 3.19800000 1409289718 1409289718 7.00000000
-2.58726621 2.14494038 -0.41264960 30 8 30966 3.38600000 1409289721 1409289721 -7.00000000
-2.45867181 2.03905487 0.50590909 46 9 30967 3.23400000 1409289723 1409289723 9.00000000
-2.59026670 2.14819074 -0.29441211 6 10 30967 3.37800000 1409289725 1409289725 -5.00000000
-2.47798204 2.05579972 0.62585348 69 11 30968 3.28000000 1409289728 1409289728 11.00000000
-2.56664443 2.13011265 -0.17480209 16 12 30969 3.34000000 1409289730 1409289730 -3.00000000
-2.48144054 2.06013155 0.74458802 60 13 30970 3.31000000 1409289732 1409289732 13.00000000
-2.56441569 2.12977505 -0.05818632 26 14 30971 3.33400000 1409289735 1409289735 -1.00000000
-2.51568794 2.09004807 0.87636131 78 15 30972 3.38600000 1409289737 1409289737 15.00000000
-1.59895873 1.33125687 -0.55749625 4 0 30978 2.15400000 1409289758 1409289758 -15.00000000
-2.53070831 2.10775852 0.05748823 28 1 30979 3.29400000 1409289760 1409289760 1.00000000
-1.84902334 1.54054821 -0.55562907 3 2 30980 2.47000000 1409289762 1409289762 -13.00000000
-2.50270629 2.08517623 0.17071989 23 3 30980 3.26200000 1409289765 1409289765 3.00000000
-2.37679172 1.98097122 -0.60142994 8 4 30981 3.15200000 1409289767 1409289767 -11.00000000
-2.46833301 2.05799770 0.28116444 74 5 30982 3.22600000 1409289769 1409289769 5.00000000
-2.56977606 2.14333725 -0.52999997 32 6 30983 3.38800000 1409289771 1409289771 -9.00000000
-2.44181037 2.03732944 0.39046937 56 7 30984 3.20400000 1409289774 1409289774 7.00000000
-2.56185126 2.13824415 -0.40972474 28 8 30985 3.36200000 1409289776 1409289776 -7.00000000
-2.45341277 2.04846311 0.50622195 46 9 30986 3.23600000 1409289778 1409289778 9.00000000
-2.58007002 2.15421462 -0.29406348 31 10 30986 3.37400000 1409289781 1409289781 -5.00000000
-2.48621917 2.07659101 0.62966967 69 11 30987 3.30000000 1409289783 1409289783 11.00000000
-2.54730535 2.12836742 -0.17396472 20 12 30988 3.32400000 1409289785 1409289785 -3.00000000
-2.47309995 2.06709933 0.74413806 64 13 30989 3.30800000 1409289788 1409289788 13.00000000
-2.53739572 2.12159228 -0.05773256 26 14 30990 3.30800000 1409289790 1409289790 -1.00000000
-2.51800179 2.10537624 0.87946713 65 15 30990 3.39800000 1409289792 1409289792 15.00000000
-1.59134138 1.33434772 -0.55646098 4 0 30998 2.15000000 1409289813 1409289813 -15.00000000
-2.51873922 2.11272430 0.05738351 31 1 30999 3.28800000 1409289815 1409289815 1.00000000
-1.84960592 1.55200362 -0.55742872 3 2 31000 2.47800000 1409289817 1409289817 -13.00000000
-2.49847245 2.09646726 0.17092924 26 3 31000 3.26600000 1409289820 1409289820 3.00000000
-2.35933638 1.98042011 -0.59875864 11 4 31001 3.13800000 1409289822 1409289822 -11.00000000
-2.45655680 2.06275749 0.28064150 69 5 31002 3.22000000 1409289824 1409289824 5.00000000
-2.55017829 2.14213014 -0.52749699 47 6 31003 3.37200000 1409289827 1409289827 -9.00000000
-2.43772340 2.04839468 0.39095685 56 7 31004 3.20800000 1409289829 1409289829 7.00000000
-2.54829335 2.14206433 -0.40874979 28 8 31005 3.35400000 1409289831 1409289831 -7.00000000
-2.45380688 2.06337118 0.50778627 50 9 31006 3.24600000 1409289834 1409289834 9.00000000
-2.54508615 2.14012671 -0.29092586 30 10 31006 3.33800000 1409289836 1409289836 -5.00000000
-2.46994090 2.07767415 0.62737995 69 11 31007 3.28800000 1409289838 1409289838 11.00000000
-2.53680396 2.13467431 -0.17375538 26 12 31008 3.32000000 1409289841 1409289841 -3.00000000
-2.47332358 2.08199430 0.74638760 64 13 31009 3.31800000 1409289843 1409289843 13.00000000
-2.51773763 2.12013197 -0.05745332 27 14 31010 3.29200000 1409289845 1409289845 -1.00000000
-2.50915956 2.11290860 0.87894946 60 15 31010 3.39600000 1409289847 1409289847 15.00000000
-1.58372200 1.33740151 -0.55542564 4 0 31018 2.14600000 1409289868 1409289868 -15.00000000
-2.50829411 2.11892247 0.05731370 30 1 31019 3.28400000 1409289870 1409289870 1.00000000
-1.85310781 1.56599748 -0.56012815 3 2 31020 2.49000000 1409289873 1409289873 -13.00000000
-2.49534750 2.10947871 0.17124325 27 3 31021 3.27200000 1409289875 1409289875 3.00000000
-2.38389444 2.01526022 -0.60677260 9 4 31021 3.18000000 1409289877 1409289877 -11.00000000
-2.43260694 2.05716825 0.27872407 48 5 31022 3.19800000 1409289880 1409289880 5.00000000
-2.53363657 2.14336395 -0.52561980 52 6 31023 3.36000000 1409289882 1409289882 -9.00000000
-2.43207383 2.05817389 0.39120060 50 7 31024 3.21000000 1409289884 1409289884 7.00000000
-2.50292349 2.11888123 -0.40265632 28 8 31025 3.30400000 1409289887 1409289887 -7.00000000
-2.44996643 2.07404971 0.50841200 47 9 31025 3.25000000 1409289889 1409289889 9.00000000
-2.52695727 2.13998437 -0.28970569 26 10 31026 3.32400000 1409289891 1409289891 -5.00000000
-2.46716738 2.09009027 0.62852484 71 11 31027 3.29400000 1409289894 1409289894 11.00000000
-2.53086090 2.14480782 -0.17386004 27 12 31028 3.32200000 1409289896 1409289896 -3.00000000
-2.46901393 2.09313536 0.74728739 63 13 31029 3.32200000 1409289898 1409289898 13.00000000
-2.50727153 2.12632084 -0.05738351 27 14 31030 3.28800000 1409289900 1409289900 -1.00000000
-2.49992537 2.12084103 0.87843186 55 15 31031 3.39400000 1409289903 1409289903 15.00000000
-1.57904398 1.34292161 -0.55542564 4 0 31038 2.14600000 1409289923 1409289923 -15.00000000
-2.49479008 2.12248206 0.05717408 30 1 31039 3.27600000 1409289926 1409289926 1.00000000
-1.83872592 1.56487834 -0.55742872 3 2 31040 2.47800000 1409289928 1409289928 -13.00000000
-2.50050640 2.12809777 0.17208062 28 3 31040 3.28800000 1409289930 1409289930 3.00000000
-2.38880444 2.03375077 -0.60982555 11 4 31041 3.19600000 1409289933 1409289933 -11.00000000
-2.42844486 2.06823063 0.27907270 59 5 31042 3.20200000 1409289935 1409289935 5.00000000
-2.49907374 2.12913561 -0.51998818 100 6 31043 3.32400000 1409289937 1409289937 -9.00000000
-2.42638540 2.06793833 0.39144433 38 7 31044 3.21200000 1409289940 1409289940 7.00000000
-2.49702263 2.12889314 -0.40290004 30 8 31045 3.30600000 1409289942 1409289942 -7.00000000
-2.45737791 2.09583378 0.51154071 52 9 31046 3.27000000 1409289944 1409289944 9.00000000
-2.51947188 2.14879227 -0.28970569 27 10 31046 3.32400000 1409289947 1409289947 -5.00000000
-2.46135020 2.09996390 0.62890643 69 11 31047 3.29600000 1409289949 1409289949 11.00000000
-2.51424360 2.14584947 -0.17323202 27 12 31048 3.31000000 1409289951 1409289951 -3.00000000
-2.46910286 2.10806775 0.74953693 61 13 31049 3.33200000 1409289953 1409289953 13.00000000
-2.49679279 2.13246250 -0.05731370 24 14 31050 3.28400000 1409289956 1409289956 -1.00000000
-2.50719476 2.14210343 0.88360822 56 15 31051 3.41400000 1409289958 1409289958 15.00000000
-1.58021569 1.35345209 -0.55749625 4 0 31058 2.15400000 1409289979 1409289979 -15.00000000
-2.48888445 2.13247871 0.05720899 28 1 31059 3.27800000 1409289981 1409289981 1.00000000
-1.83325219 1.57128716 -0.55742872 3 2 31060 2.47800000 1409289983 1409289983 -13.00000000
-2.49154615 2.13551331 0.17197596 34 3 31060 3.28600000 1409289986 1409289986 3.00000000
-2.37721944 2.03824329 -0.60868067 11 4 31061 3.19000000 1409289988 1409289988 -11.00000000
-2.41969824 2.07539773 0.27889839 63 5 31062 3.20000000 1409289990 1409289990 5.00000000
-2.49162650 2.13784623 -0.51998818 107 6 31063 3.32400000 1409289993 1409289993 -9.00000000
-2.42517734 2.08156705 0.39241928 37 7 31064 3.22000000 1409289995 1409289995 7.00000000
-2.48053956 2.12983727 -0.40143761 30 8 31065 3.29400000 1409289997 1409289997 -7.00000000
-2.45640945 2.10911870 0.51279217 60 9 31065 3.27800000 1409290000 1409290000 9.00000000
-2.50439882 2.15108275 -0.28883412 24 10 31066 3.31400000 1409290002 1409290002 -5.00000000
-2.46145034 2.11493993 0.63081455 78 11 31067 3.30600000 1409290004 1409290004 11.00000000
-2.50067925 2.14940524 -0.17281333 26 12 31068 3.30200000 1409290006 1409290006 -3.00000000
-2.45581865 2.11159158 0.74773729 57 13 31069 3.32400000 1409290009 1409290009 13.00000000
-2.49994612 2.15029287 -0.05755804 28 14 31070 3.29800000 1409290011 1409290011 -1.00000000
-2.51727462 2.16596222 0.88981986 61 15 31071 3.43800000 1409290013 1409290013 15.00000000
-1.57548153 1.35895979 -0.55749625 4 0 31078 2.15400000 1409290034 1409290034 -15.00000000
-2.47839761 2.13854074 0.05713918 27 1 31079 3.27400000 1409290036 1409290036 1.00000000
-1.82480586 1.57513022 -0.55652893 3 2 31080 2.47400000 1409290039 1409290039 -13.00000000
-2.47500515 2.13636732 0.17134792 30 3 31080 3.27400000 1409290041 1409290041 3.00000000
-2.35374475 2.03241491 -0.60448289 9 4 31081 3.16800000 1409290043 1409290043 -11.00000000
