# .PCD v0.7 - Point Cloud Data file format
VERSION 0.7
FIELDS x y z intensity laser_id azimuth distance_m adjustedtime timestamp vertical_angle
SIZE 4 4 4 1 1 2 8 8 4 8
TYPE F F F U U U F U U F
COUNT 1 1 1 1 1 1 1 1 1 1
WIDTH 519
HEIGHT 1
VIEWPOINT 0 0 0 1 0 0 0
POINTS 519
DATA ascii
-12.78797913 -0.46667901 2.48738599 43 11 26791 13.03600000 1409178140 1409178140 11.00000000
-7.65444183 -0.27800018 -0.40141678 16 12 26792 7.67000000 1409178142 1409178142 -3.00000000
-12.05482960 -0.43571028 2.78489399 56 13 26793 12.38000000 1409178145 1409178145 13.00000000
-25.75341988 -0.92633206 -0.44981831 9 14 26794 25.77400000 1409178147 1409178147 -1.00000000
-10.23991871 -0.36832255 2.74555254 47 15 26794 10.60800000 1409178149 1409178149 15.00000000
-1.93842101 -0.06701370 -0.51970863 4 0 26802 2.00800000 1409178170 1409178170 -15.00000000
-25.75684166 -0.88594627 0.44985324 100 1 26803 25.77600000 1409178172 1409178172 1.00000000
-2.24753046 -0.07691454 -0.51918703 4 2 26804 2.30800000 1409178175 1409178175 -13.00000000
-58.47946548 -2.00127268 3.06657290 58 3 26804 58.59400000 1409178177 1409178177 3.00000000
-2.61354041 -0.08898339 -0.50831515 3 4 26805 2.66400000 1409178179 1409178179 -11.00000000
-36.61904144 -1.24037230 3.20558810 83 5 26806 36.78000000 1409178182 1409178182 5.00000000
-3.13117027 -0.10551292 -0.49621013 3 6 26807 3.17200000 1409178184 1409178184 -9.00000000
-24.45649529 -0.81985193 3.00456691 42 7 26808 24.65400000 1409178186 1409178186 7.00000000
-3.94020295 -0.13139845 -0.48406503 3 8 26809 3.97200000 1409178188 1409178188 -7.00000000
-18.27195358 -0.60933572 2.89560199 41 9 26809 18.51000000 1409178191 1409178191 9.00000000
-5.15944290 -0.17115635 -0.45164105 3 10 26810 5.18200000 1409178193 1409178193 -5.00000000
-12.78560638 -0.42190829 2.48662281 43 11 26811 13.03200000 1409178195 1409178195 11.00000000
-7.66335058 -0.25154158 -0.40183547 16 12 26812 7.67800000 1409178198 1409178198 -3.00000000
-12.06406784 -0.39388278 2.78669357 62 13 26813 12.38800000 1409178200 1409178200 13.00000000
-25.75449753 -0.83636528 -0.44978341 71 14 26814 25.77200000 1409178202 1409178202 -1.00000000
-10.22569561 -0.33207470 2.74141121 47 15 26814 10.59200000 1409178205 1409178205 15.00000000
-1.94829774 -0.06054698 -0.52229685 5 0 26822 2.01800000 1409178225 1409178225 -15.00000000
-25.73579216 -0.79529154 0.44943437 100 1 26823 25.75200000 1409178228 1409178228 1.00000000
-2.23220253 -0.06858992 -0.51558781 4 2 26824 2.29200000 1409178230 1409178230 -13.00000000
-58.48041916 -1.78673840 3.06625891 43 3 26825 58.58800000 1409178232 1409178232 3.00000000
-2.61775970 -0.07997979 -0.50907838 3 4 26825 2.66800000 1409178235 1409178235 -11.00000000
-36.61119843 -1.11217749 3.20454240 83 5 26826 36.76800000 1409178237 1409178237 5.00000000
-3.14336634 -0.09494027 -0.49808735 3 6 26827 3.18400000 1409178239 1409178239 -9.00000000
-24.44730186 -0.73412031 3.00310445 33 7 26828 24.64200000 1409178241 1409178241 7.00000000
-3.95651126 -0.11811767 -0.48601493 3 8 26829 3.98800000 1409178244 1409178244 -7.00000000
-18.27603912 -0.54242015 2.89591479 49 9 26830 18.51200000 1409178246 1409178246 9.00000000
-5.17992401 -0.15373655 -0.45338416 3 10 26830 5.20200000 1409178248 1409178248 -5.00000000
-12.78307629 -0.37715983 2.48585963 43 11 26831 13.02800000 1409178251 1409178251 11.00000000
-7.65220356 -0.22443864 -0.40120745 24 12 26832 7.66600000 1409178253 1409178253 -3.00000000
-12.06147385 -0.35165533 2.78579378 59 13 26833 12.38400000 1409178255 1409178255 13.00000000
-25.73127556 -0.74570715 -0.44932964 62 14 26834 25.74600000 1409178258 1409178258 -1.00000000
-10.21912003 -0.29437092 2.73934078 45 15 26835 10.58400000 1409178260 1409178260 15.00000000
-1.95235944 -0.05385231 -0.52333212 5 0 26842 2.02200000 1409178281 1409178281 -15.00000000
-25.72441864 -0.70506853 0.44919005 42 1 26843 25.73800000 1409178283 1409178283 1.00000000
-2.23437643 -0.06085071 -0.51603770 4 2 26844 2.29400000 1409178285 1409178285 -13.00000000
-58.46605682 -1.59225678 3.06521225 14 3 26844 58.56800000 1409178288 1409178288 3.00000000
-2.62194800 -0.07094783 -0.50984162 3 4 26845 2.67200000 1409178290 1409178290 -11.00000000
-36.61883926 -0.98448086 3.20489097 83 5 26846 36.77200000 1409178292 1409178292 5.00000000
-3.13972926 -0.08386181 -0.49746159 3 6 26847 3.18000000 1409178294 1409178294 -9.00000000
-24.58267021 -0.65230680 3.01943493 12 7 26848 24.77600000 1409178297 1409178297 7.00000000
-3.94697738 -0.10404459 -0.48479626 3 8 26849 3.97800000 1409178299 1409178299 -7.00000000
-18.26004791 -0.47815621 2.89309907 45 9 26850 18.49400000 1409178301 1409178301 9.00000000
-5.17246199 -0.13544568 -0.45268694 3 10 26850 5.19400000 1409178304 1409178304 -5.00000000
-12.77646446 -0.33233207 2.48433304 46 11 26851 13.02000000 1409178306 1409178306 11.00000000
-7.64096069 -0.19741659 -0.40057942 24 12 26852 7.65400000 1409178308 1409178308 -3.00000000
-12.05873108 -0.30945081 2.78489399 57 13 26853 12.38000000 1409178311 1409178311 13.00000000
-25.72372627 -0.65562892 -0.44915512 75 14 26854 25.73600000 1409178313 1409178313 -1.00000000
-10.22390270 -0.26057991 2.74037600 45 15 26854 10.58800000 1409178315 1409178315 15.00000000
-1.95446682 -0.04708350 -0.52384973 5 0 26862 2.02400000 1409178336 1409178336 -15.00000000
-25.72672462 -0.61526924 0.44919005 44 1 26863 25.73800000 1409178338 1409178338 1.00000000
-2.22483420 -0.05281965 -0.51378822 4 2 26864 2.28400000 1409178340 1409178340 -13.00000000
-58.51918030 -1.38930011 3.06772447 14 3 26864 58.61600000 1409178343 1409178343 3.00000000
-2.61432886 -0.06161008 -0.50831515 3 4 26865 2.66400000 1409178345 1409178345 -11.00000000
-36.62404633 -0.85669786 3.20506525 72 5 26866 36.77400000 1409178347 1409178347 5.00000000
-3.14395237 -0.07299330 -0.49808735 3 6 26867 3.18400000 1409178350 1409178350 -9.00000000
-24.55899811 -0.56589884 3.01626635 15 7 26868 24.75000000 1409178352 1409178352 7.00000000
-3.93144011 -0.08990338 -0.48284635 3 8 26869 3.96200000 1409178354 1409178354 -7.00000000
-18.24185753 -0.41396567 2.88997030 49 9 26870 18.47400000 1409178357 1409178357 9.00000000
-5.17290354 -0.11738960 -0.45268694 3 10 26870 5.19400000 1409178359 1409178359 -5.00000000
-12.79324913 -0.28808543 2.48738599 43 11 26871 13.03600000 1409178361 1409178361 11.00000000
-7.65358353 -0.17101115 -0.40120745 24 12 26872 7.66600000 1409178364 1409178364 -3.00000000
-12.04804897 -0.26709697 2.78219461 57 13 26873 12.36800000 1409178366 1409178366 13.00000000
-25.72385979 -0.56578845 -0.44912022 78 14 26874 25.73400000 1409178368 1409178368 -1.00000000
-10.22088718 -0.22480528 2.73934078 45 15 26874 10.58400000 1409178370 1409178370 15.00000000
-1.95655072 -0.04030063 -0.52436739 5 0 26882 2.02600000 1409178391 1409178391 -15.00000000
-25.72471619 -0.52538079 0.44912022 51 1 26883 25.73400000 1409178393 1409178393 1.00000000
-2.24643683 -0.04548717 -0.51873714 4 2 26884 2.30600000 1409178396 1409178396 -13.00000000
-2.61060238 -0.05240519 -0.50755191 3 4 26885 2.66000000 1409178400 1409178400 -11.00000000
-36.61087799 -0.72853374 3.20367074 62 5 26886 36.75800000 1409178403 1409178403 5.00000000
-3.16788793 -0.06248589 -0.50184178 3 6 26887 3.20800000 1409178405 1409178405 -9.00000000
-24.54891586 -0.47993568 3.01480389 18 7 26888 24.73800000 1409178407 1409178407 7.00000000
-3.92974520 -0.07614109 -0.48260260 3 8 26889 3.96000000 1409178410 1409178410 -7.00000000
-18.23325539 -0.35327989 2.88840604 49 9 26889 18.46400000 1409178412 1409178412 9.00000000
-5.18523407 -0.09956158 -0.45373279 6 10 26890 5.20600000 1409178414 1409178414 -5.00000000
-12.78632450 -0.24327753 2.48585963 43 11 26891 13.02800000 1409178417 1409178417 11.00000000
-7.64614630 -0.14414354 -0.40078875 24 12 26892 7.65800000 1409178419 1409178419 -3.00000000
-12.04111385 -0.22489423 2.78039503 57 13 26893 12.36000000 1409178421 1409178421 13.00000000
-25.70968246 -0.47569600 -0.44884098 81 14 26894 25.71800000 1409178423 1409178423 -1.00000000
-10.19460106 -0.18684673 2.73209381 45 15 26895 10.55600000 1409178426 1409178426 15.00000000
-1.93736374 -0.03314034 -0.51919103 5 0 26902 2.00600000 1409178446 1409178446 -15.00000000
-25.71439743 -0.43537846 0.44891080 58 1 26903 25.72200000 1409178449 1409178449 1.00000000
-2.25242734 -0.03774332 -0.52008682 4 2 26904 2.31200000 1409178451 1409178451 -13.00000000
-2.61076951 -0.04329216 -0.50755191 3 4 26905 2.66000000 1409178456 1409178456 -11.00000000
-36.59925079 -0.60050470 3.20245051 72 5 26906 36.74400000 1409178458 1409178458 5.00000000
-3.15623617 -0.05123514 -0.49996457 3 6 26907 3.19600000 1409178460 1409178460 -9.00000000
-24.53853226 -0.39404979 3.01334143 24 7 26908 24.72600000 1409178463 1409178463 7.00000000
-3.94983554 -0.06273852 -0.48503998 3 8 26909 3.98000000 1409178465 1409178465 -7.00000000
-18.24035263 -0.28654236 2.88934445 45 9 26910 18.47000000 1409178467 1409178467 9.00000000
-5.16562843 -0.08114818 -0.45198968 6 10 26910 5.18600000 1409178470 1409178470 -5.00000000
-12.78709602 -0.19864345 2.48585963 46 11 26911 13.02800000 1409178472 1409178472 11.00000000
-7.65459108 -0.11757533 -0.40120745 16 12 26912 7.66600000 1409178474 1409178474 -3.00000000
-12.03403187 -0.18274316 2.77859545 57 13 26913 12.35200000 1409178476 1409178476 13.00000000
-25.70918655 -0.38591954 -0.44880608 50 14 26914 25.71600000 1409178479 1409178479 -1.00000000
-10.18746471 -0.15114516 2.73002338 42 15 26915 10.54800000 1409178481 1409178481 15.00000000
-1.94905770 -0.02653527 -0.52229685 5 0 26922 2.01800000 1409178502 1409178502 -15.00000000
-25.71376038 -0.34558895 0.44887590 62 1 26923 25.72000000 1409178504 1409178504 1.00000000
-2.24085402 -0.02972556 -0.51738745 4 2 26924 2.30000000 1409178506 1409178506 -13.00000000
-2.61875701 -0.03428141 -0.50907838 3 4 26925 2.66800000 1409178511 1409178511 -11.00000000
-36.59315491 -0.47264287 3.20175338 41 5 26926 36.73600000 1409178513 1409178513 5.00000000
-3.14454436 -0.04006651 -0.49808735 3 6 26927 3.18400000 1409178516 1409178516 -9.00000000
-24.51593971 -0.30809259 3.01041651 27 7 26928 24.70200000 1409178518 1409178518 7.00000000
-3.93613577 -0.04877845 -0.48333383 3 8 26929 3.96600000 1409178520 1409178520 -7.00000000
-18.23527718 -0.22598016 2.88840604 53 9 26929 18.46400000 1409178523 1409178523 9.00000000
-5.16986465 -0.06316496 -0.45233831 6 10 26930 5.19000000 1409178525 1409178525 -5.00000000
-12.77200699 -0.15381780 2.48280668 43 11 26931 13.01200000 1409178527 1409178527 11.00000000
-7.64097500 -0.09068917 -0.40047473 16 12 26932 7.65200000 1409178529 1409178529 -3.00000000
-12.05018520 -0.14091775 2.78219461 56 13 26933 12.36800000 1409178532 1409178532 13.00000000
-10.18599796 -0.11556144 2.72950554 42 15 26935 10.54600000 1409178536 1409178536 15.00000000
-1.95686543 -0.01980985 -0.52436739 5 0 26942 2.02600000 1409178557 1409178557 -15.00000000
-25.72480774 -0.25592852 0.44905043 58 1 26943 25.73000000 1409178559 1409178559 1.00000000
-2.22925234 -0.02178906 -0.51468801 4 2 26944 2.28800000 1409178562 1409178562 -13.00000000
-58.48493958 -0.57164091 3.06521225 14 3 26944 58.56800000 1409178564 1409178564 3.00000000
-2.62475014 -0.02519657 -0.51022327 3 4 26945 2.67400000 1409178566 1409178566 -11.00000000
-36.59259033 -0.34488726 3.20157909 31 5 26946 36.73400000 1409178569 1409178569 5.00000000
-3.15256619 -0.02916284 -0.49933881 4 6 26947 3.19200000 1409178571 1409178571 -9.00000000
-24.51488113 -0.22249611 3.01017284 27 7 26948 24.70000000 1409178573 1409178573 7.00000000
-3.94819212 -0.03514449 -0.48479626 3 8 26949 3.97800000 1409178576 1409178576 -7.00000000
-18.22805405 -0.16225547 2.88715458 45 9 26949 18.45600000 1409178578 1409178578 9.00000000
-5.19396114 -0.04532702 -0.45443004 6 10 26950 5.21400000 1409178580 1409178580 -5.00000000
-12.78031826 -0.10930140 2.48433304 43 11 26951 13.02000000 1409178582 1409178582 11.00000000
-7.63525343 -0.06396645 -0.40016073 16 12 26952 7.64600000 1409178585 1409178585 -3.00000000
-12.03891182 -0.09875797 2.77949524 56 13 26953 12.35600000 1409178587 1409178587 13.00000000
-25.80123901 -0.20715007 -0.45037681 3 14 26954 25.80600000 1409178589 1409178589 -1.00000000
-10.19599819 -0.08008083 2.73209381 45 15 26955 10.55600000 1409178592 1409178592 15.00000000
-1.96464527 -0.01371603 -0.52643794 5 0 26960 2.03400000 1409178612 1409178612 -15.00000000
-25.74148178 -0.17521942 0.44932964 40 1 26961 25.74600000 1409178615 1409178615 1.00000000
-2.24295044 -0.01487603 -0.51783735 4 2 26962 2.30200000 1409178617 1409178617 -13.00000000
-58.44250870 -0.38761109 3.06290960 14 3 26962 58.52400000 1409178619 1409178619 3.00000000
-2.61892676 -0.01691253 -0.50907838 3 4 26963 2.66800000 1409178622 1409178622 -11.00000000
-36.59947205 -0.22996429 3.20210195 51 5 26964 36.74000000 1409178624 1409178624 5.00000000
-3.15264225 -0.01925864 -0.49933881 3 6 26965 3.19200000 1409178626 1409178626 -9.00000000
-24.48568153 -0.14530267 3.00651670 21 7 26966 24.67000000 1409178628 1409178628 7.00000000
-3.93835783 -0.02268356 -0.48357755 3 8 26967 3.96800000 1409178631 1409178631 -7.00000000
-18.22057152 -0.10494412 2.88590312 45 9 26967 18.44800000 1409178633 1409178633 9.00000000
-5.18212414 -0.02894274 -0.45338416 9 10 26968 5.20200000 1409178635 1409178635 -5.00000000
-12.78845215 -0.06919286 2.48585963 40 11 26969 13.02800000 1409178638 1409178638 11.00000000
-7.64740038 -0.04004206 -0.40078875 24 12 26970 7.65800000 1409178640 1409178640 -3.00000000
-12.02162361 -0.06084742 2.77544618 54 13 26971 12.33800000 1409178642 1409178642 13.00000000
-15.20350266 -0.07429892 -0.26538131 2 14 26972 15.20600000 1409178645 1409178645 -1.00000000
-10.19619083 -0.04982839 2.73209381 45 15 26972 10.55600000 1409178647 1409178647 15.00000000
-1.95309007 -0.00681760 -0.52333212 5 0 26980 2.02200000 1409178668 1409178668 -15.00000000
-25.76593399 -0.08544338 0.44974852 100 1 26981 25.77000000 1409178670 1409178670 1.00000000
-2.23324513 -0.00701597 -0.51558781 4 2 26982 2.29200000 1409178672 1409178672 -13.00000000
-58.44750214 -0.18361884 3.06311893 43 3 26982 58.52800000 1409178675 1409178675 3.00000000
-2.62289619 -0.00778231 -0.50984162 3 4 26983 2.67200000 1409178677 1409178677 -11.00000000
-36.57415009 -0.10213456 3.19983602 72 5 26984 36.71400000 1409178679 1409178679 5.00000000
-3.15664101 -0.00826409 -0.49996457 3 6 26985 3.19600000 1409178681 1409178681 -9.00000000
-24.40465164 -0.05963193 2.99652338 45 7 26986 24.58800000 1409178684 1409178684 7.00000000
-3.94436836 -0.00894950 -0.48430878 3 8 26987 3.97400000 1409178686 1409178686 -7.00000000
-18.19514847 -0.04128355 2.88183570 45 9 26987 18.42200000 1409178688 1409178688 9.00000000
-5.18617821 -0.01086192 -0.45373279 9 10 26988 5.20600000 1409178691 1409178691 -5.00000000
-12.78272533 -0.02454110 2.48471475 37 11 26989 13.02200000 1409178693 1409178693 11.00000000
-7.64349890 -0.01334044 -0.40057942 24 12 26990 7.65400000 1409178695 1409178695 -3.00000000
-12.01981449 -0.01888070 2.77499628 56 13 26991 12.33600000 1409178698 1409178698 13.00000000
-15.23566437 -0.02127302 -0.26593977 2 14 26992 15.23800000 1409178700 1409178700 -1.00000000
-10.17698669 -0.01243354 2.72691751 45 15 26993 10.53600000 1409178702 1409178702 15.00000000
-1.94151092 -0.00000000 -0.52022630 5 0 27000 2.01000000 1409178723 1409178723 -15.00000000
-25.78807068 0.00450087 0.45013246 40 1 27001 25.79200000 1409178725 1409178725 1.00000000
-2.24299979 0.00078295 -0.51783735 4 2 27002 2.30200000 1409178728 1409178728 -13.00000000
-58.44378662 0.03060110 3.06290960 58 3 27003 58.52400000 1409178730 1409178730 3.00000000
-2.62094426 0.00137232 -0.50946003 3 4 27003 2.67000000 1409178732 1409178732 -11.00000000
-36.57229233 0.02553228 3.19966173 62 5 27004 36.71200000 1409178734 1409178734 5.00000000
-3.15665078 0.00275470 -0.49996457 3 6 27005 3.19600000 1409178737 1409178737 -9.00000000
-24.35905457 0.02550875 2.99091744 34 7 27006 24.54200000 1409178739 1409178739 7.00000000
-3.95231581 0.00482867 -0.48528373 3 8 27007 3.98200000 1409178741 1409178741 -7.00000000
-18.19320488 0.02222721 2.88152289 49 9 27007 18.42000000 1409178744 1409178744 9.00000000
-5.18618441 0.00724128 -0.45373279 9 10 27008 5.20600000 1409178746 1409178746 -5.00000000
-12.78469658 0.02008217 2.48509645 40 11 27009 13.02400000 1409178748 1409178748 11.00000000
-7.65947676 0.01336832 -0.40141678 24 12 27010 7.67000000 1409178751 1409178751 -3.00000000
-12.02370453 0.02308388 2.77589607 56 13 27011 12.34000000 1409178753 1409178753 13.00000000
-15.24364471 0.03192626 -0.26607940 2 14 27012 15.24600000 1409178755 1409178755 -1.00000000
-10.16924477 0.02129845 2.72484684 45 15 27012 10.52800000 1409178758 1409178758 15.00000000
-1.95888567 0.00683783 -0.52488500 5 0 27020 2.02800000 1409178778 1409178778 -15.00000000
-25.81389427 0.09461329 0.45058623 15 1 27021 25.81800000 1409178781 1409178781 1.00000000
-2.23323965 0.00857507 -0.51558781 4 2 27022 2.29200000 1409178783 1409178783 -13.00000000
-58.44332504 0.23460780 3.06290960 58 3 27023 58.52400000 1409178785 1409178785 3.00000000
-2.63466620 0.01057628 -0.51213133 3 4 27023 2.68400000 1409178787 1409178787 -11.00000000
-36.56201553 0.15315151 3.19879007 62 5 27024 36.70200000 1409178790 1409178790 5.00000000
-3.14872050 0.01373897 -0.49871308 3 6 27025 3.18800000 1409178792 1409178792 -9.00000000
-24.35286140 0.11051054 2.99018621 37 7 27026 24.53600000 1409178794 1409178794 7.00000000
-3.94830465 0.01860609 -0.48479626 3 8 27027 3.97800000 1409178797 1409178797 -7.00000000
-18.20682907 0.08897606 2.88371301 41 9 27028 18.43400000 1409178799 1409178799 9.00000000
-5.19011259 0.02536388 -0.45408142 6 10 27028 5.21000000 1409178801 1409178801 -5.00000000
-12.78454876 0.06470897 2.48509645 46 11 27029 13.02400000 1409178804 1409178804 11.00000000
-7.65339184 0.04007343 -0.40110278 16 12 27030 7.66400000 1409178806 1409178806 -3.00000000
-12.03134537 0.06509648 2.77769566 59 13 27031 12.34800000 1409178808 1409178808 13.00000000
-15.27543449 0.08531501 -0.26663786 2 14 27032 15.27800000 1409178811 1409178811 -1.00000000
-10.16137123 0.05852594 2.72277641 42 15 27033 10.52000000 1409178813 1409178813 15.00000000
-1.95305204 0.01397599 -0.52333212 5 0 27041 2.02200000 1409178834 1409178834 -15.00000000
-25.86936378 0.18963574 0.45156357 10 1 27042 25.87400000 1409178836 1409178836 1.00000000
-2.23903942 0.01680412 -0.51693749 4 2 27043 2.29800000 1409178838 1409178838 -13.00000000
-58.43408203 0.44875038 3.06249070 43 3 27044 58.51600000 1409178840 1409178840 3.00000000
-2.62086725 0.02012721 -0.50946003 3 4 27044 2.67000000 1409178843 1409178843 -11.00000000
-36.56917953 0.28721958 3.19948721 72 5 27045 36.71000000 1409178845 1409178845 5.00000000
-3.13679719 0.02518436 -0.49683586 3 6 27046 3.17600000 1409178847 1409178847 -9.00000000
-24.33244324 0.19960466 2.98774886 43 7 27047 24.51600000 1409178850 1409178850 7.00000000
-3.95615005 0.03314374 -0.48577121 5 8 27048 3.98600000 1409178852 1409178852 -7.00000000
-18.20245743 0.15249611 2.88308716 57 9 27048 18.43000000 1409178854 1409178854 9.00000000
-5.20990753 0.04455681 -0.45582452 6 10 27049 5.23000000 1409178857 1409178857 -5.00000000
-12.79600430 0.11166904 2.48738599 43 11 27050 13.03600000 1409178859 1409178859 11.00000000
-7.63521910 0.06796425 -0.40016073 16 12 27051 7.64600000 1409178861 1409178861 -3.00000000
-12.03102589 0.10919312 2.77769566 55 13 27052 12.34800000 1409178864 1409178864 13.00000000
-15.27501965 0.14130171 -0.26663786 2 14 27053 15.27800000 1409178866 1409178866 -1.00000000
-10.15917301 0.09397752 2.72225881 42 15 27053 10.51800000 1409178868 1409178868 15.00000000
-1.95685482 0.02083446 -0.52436739 4 0 27061 2.02600000 1409178889 1409178889 -15.00000000
-25.98252106 0.28116891 0.45355314 5 1 27062 25.98800000 1409178891 1409178891 1.00000000
-2.22532678 0.02446973 -0.51378822 4 2 27063 2.28400000 1409178893 1409178893 -13.00000000
-58.42617035 0.65265369 3.06217670 58 3 27064 58.51000000 1409178896 1409178896 3.00000000
-2.62078118 0.02927562 -0.50946003 3 4 27064 2.67000000 1409178898 1409178898 -11.00000000
-36.56994629 0.41489068 3.19966173 62 5 27065 36.71200000 1409178900 1409178900 5.00000000
-3.16829395 0.03649774 -0.50184178 3 6 27066 3.20800000 1409178903 1409178903 -9.00000000
-24.32762718 0.28449309 2.98726130 37 7 27067 24.51200000 1409178905 1409178905 7.00000000
-3.94211578 0.04678817 -0.48406503 5 8 27068 3.97200000 1409178907 1409178907 -7.00000000
-18.19585037 0.21913907 2.88214850 45 9 27069 18.42400000 1409178910 1409178910 9.00000000
-5.20175171 0.06264654 -0.45512730 6 10 27069 5.22200000 1409178912 1409178912 -5.00000000
-12.80338955 0.15643069 2.48891258 43 11 27070 13.04400000 1409178914 1409178914 11.00000000
-7.64691782 0.09476422 -0.40078875 16 12 27071 7.65800000 1409178916 1409178916 -3.00000000
-12.02667427 0.15113960 2.77679586 57 13 27072 12.34400000 1409178919 1409178919 13.00000000
-15.27843189 0.19467157 -0.26670769 2 14 27073 15.28200000 1409178921 1409178921 -1.00000000
-10.15682888 0.13118717 2.72174096 40 15 27074 10.51600000 1409178923 1409178923 15.00000000
-1.95483851 0.02763772 -0.52384973 5 0 27081 2.02400000 1409178944 1409178944 -15.00000000
-26.21732140 0.37524006 0.45767191 5 1 27082 26.22400000 1409178946 1409178946 1.00000000
-2.23302197 0.03235034 -0.51558781 4 2 27083 2.29200000 1409178949 1409178949 -13.00000000
-58.42553329 0.85662442 3.06228137 58 3 27084 58.51200000 1409178951 1409178951 3.00000000
-2.61673689 0.03836611 -0.50869679 3 4 27084 2.66600000 1409178953 1409178953 -11.00000000
-36.55034637 0.54227507 3.19809294 62 5 27085 36.69400000 1409178956 1409178956 5.00000000
-3.14839578 0.04726044 -0.49871308 3 6 27086 3.18800000 1409178958 1409178958 -9.00000000
-24.32053185 0.36932021 2.98653007 43 7 27087 24.50600000 1409178960 1409178960 7.00000000
-3.94589806 0.06060941 -0.48455250 7 8 27088 3.97600000 1409178963 1409178963 -7.00000000
-18.16539574 0.27902240 2.87745547 41 9 27088 18.39400000 1409178965 1409178965 9.00000000
-5.18157959 0.08049418 -0.45338416 9 10 27089 5.20200000 1409178967 1409178967 -5.00000000
-12.80669117 0.20118359 2.48967576 46 11 27090 13.04800000 1409178969 1409178969 11.00000000
-7.65253162 0.12155152 -0.40110278 16 12 27091 7.66400000 1409178972 1409178972 -3.00000000
-12.04166126 0.19336993 2.78039503 56 13 27092 12.36000000 1409178974 1409178974 13.00000000
-15.31764793 0.24865119 -0.26740578 2 14 27093 15.32200000 1409178976 1409178976 -1.00000000
-10.15054321 0.16477364 2.72018814 45 15 27093 10.51000000 1409178979 1409178979 15.00000000
-1.94507241 0.03429095 -0.52126157 4 0 27101 2.01400000 1409178999 1409178999 -15.00000000
-2.24068904 0.04028496 -0.51738745 4 2 27103 2.30000000 1409179004 1409179004 -13.00000000
-58.41020584 1.06034482 3.06165338 58 3 27104 58.50000000 1409179006 1409179006 3.00000000
-2.62443876 0.04764253 -0.51022327 3 4 27104 2.67400000 1409179009 1409179009 -11.00000000
-36.54225540 0.66974676 3.19756985 62 5 27105 36.68800000 1409179011 1409179011 5.00000000
-3.14821148 0.05825010 -0.49871308 3 6 27106 3.18800000 1409179013 1409179013 -9.00000000
-24.31115532 0.45406419 2.98555517 40 7 27107 24.49800000 1409179016 1409179016 7.00000000
-3.95360136 0.07453246 -0.48552746 7 8 27108 3.98400000 1409179018 1409179018 -7.00000000
-18.15635109 0.34544972 2.87620401 41 9 27109 18.38600000 1409179020 1409179020 9.00000000
-5.19321918 0.09880818 -0.45443004 6 10 27109 5.21400000 1409179022 1409179022 -5.00000000
-12.80198574 0.24581067 2.48891258 50 11 27110 13.04400000 1409179025 1409179025 11.00000000
-7.65206051 0.14826310 -0.40110278 12 12 27111 7.66400000 1409179027 1409179027 -3.00000000
-12.04286194 0.23544009 2.78084493 53 13 27112 12.36200000 1409179029 1409179029 13.00000000
-15.30469131 0.30188164 -0.26719636 2 14 27113 15.31000000 1409179032 1409179032 -1.00000000
-10.14214516 0.20182240 2.71811771 42 15 27114 10.50200000 1409179034 1409179034 15.00000000
-1.94880366 0.04116190 -0.52229685 4 0 27121 2.01800000 1409179055 1409179055 -15.00000000
-2.23274159 0.04793886 -0.51558781 4 2 27123 2.29200000 1409179059 1409179059 -13.00000000
-58.40614700 1.26422811 3.06165338 58 3 27124 58.50000000 1409179062 1409179062 3.00000000
-2.61836791 0.05667578 -0.50907838 3 4 27124 2.66800000 1409179064 1409179064 -11.00000000
-36.53371811 0.79716855 3.19704700 62 5 27125 36.68200000 1409179066 1409179066 5.00000000
-3.15588856 0.06941281 -0.49996457 3 6 27126 3.19600000 1409179069 1409179069 -9.00000000
-24.29949951 0.53870320 2.98433638 46 7 27127 24.48800000 1409179071 1409179071 7.00000000
-3.94934797 0.08824396 -0.48503998 7 8 27128 3.98000000 1409179073 1409179073 -7.00000000
-18.15510559 0.40565646 2.87620401 41 9 27128 18.38600000 1409179075 1409179075 9.00000000
-5.18089151 0.11666618 -0.45338416 9 10 27129 5.20200000 1409179078 1409179078 -5.00000000
-12.79123592 0.29027373 2.48700452 50 11 27130 13.03400000 1409179080 1409179080 11.00000000
-7.63951588 0.17469890 -0.40047473 12 12 27131 7.65200000 1409179082 1409179082 -3.00000000
-12.05170727 0.27770054 2.78309441 56 13 27132 12.37200000 1409179085 1409179085 13.00000000
-15.40350246 0.35762388 -0.26894158 2 14 27133 15.41000000 1409179087 1409179087 -1.00000000
-10.14528275 0.23554353 2.71915293 40 15 27133 10.50600000 1409179089 1409179089 15.00000000
-1.96216702 0.04829700 -0.52592027 5 0 27141 2.03200000 1409179110 1409179110 -15.00000000
-58.43914413 1.44863331 1.02037239 14 1 27142 58.46600000 1409179112 1409179112 1.00000000
-2.22866440 0.05563502 -0.51468801 4 2 27143 2.28800000 1409179115 1409179115 -13.00000000
-58.40137863 1.46809590 3.06165338 58 3 27144 58.50000000 1409179117 1409179117 3.00000000
-2.62207961 0.06591392 -0.50984162 3 4 27144 2.67200000 1409179119 1409179119 -11.00000000
-36.53469467 0.92479104 3.19739556 62 5 27145 36.68600000 1409179122 1409179122 5.00000000
-3.16747546 0.08073048 -0.50184178 3 6 27146 3.20800000 1409179124 1409179124 -9.00000000
-24.25778198 0.62250251 2.97946167 37 7 27147 24.44800000 1409179126 1409179126 7.00000000
-3.94901586 0.10202922 -0.48503998 7 8 27148 3.98000000 1409179128 1409179128 -7.00000000
-18.16139603 0.47240099 2.87745547 41 9 27149 18.39400000 1409179131 1409179131 9.00000000
-5.20435333 0.13537183 -0.45547593 9 10 27149 5.22600000 1409179133 1409179133 -5.00000000
-12.80780792 0.33538425 2.49043894 46 11 27150 13.05200000 1409179135 1409179135 11.00000000
-7.65083885 0.20168051 -0.40110278 12 12 27151 7.66400000 1409179138 1409179138 -3.00000000
-12.03897667 0.31945699 2.78039503 55 13 27152 12.36000000 1409179140 1409179140 13.00000000
-15.43414402 0.41224423 -0.26950005 2 14 27153 15.44200000 1409179142 1409179142 -1.00000000
-10.15207577 0.27293393 2.72122335 45 15 27154 10.51400000 1409179145 1409179145 15.00000000
-1.96200562 0.05446108 -0.52592027 4 0 27159 2.03200000 1409179165 1409179165 -15.00000000
-58.43630219 1.63227367 1.02040732 29 1 27160 58.46800000 1409179168 1409179168 1.00000000
-2.23432255 0.06280055 -0.51603770 4 2 27161 2.29400000 1409179170 1409179170 -13.00000000
-58.39048767 1.65139222 3.06133938 58 3 27162 58.49400000 1409179172 1409179172 3.00000000
-2.62578440 0.07426210 -0.51060486 3 4 27162 2.67600000 1409179175 1409179175 -11.00000000
-36.52762604 1.03945005 3.19704700 51 5 27163 36.68200000 1409179177 1409179177 5.00000000
-3.15535879 0.09034177 -0.49996457 3 6 27164 3.19600000 1409179179 1409179179 -9.00000000
-24.23983192 0.69825011 2.97751188 43 7 27165 24.43200000 1409179181 1409179181 7.00000000
-3.93875456 0.11414737 -0.48382130 7 8 27166 3.97000000 1409179184 1409179184 -7.00000000
-16.75798607 0.48565608 2.65531850 12 9 27166 16.97400000 1409179186 1409179186 9.00000000
-5.19991922 0.15160497 -0.45512730 9 10 27167 5.22200000 1409179188 1409179188 -5.00000000
-12.80669117 0.37561944 2.49043894 46 11 27168 13.05200000 1409179191 1409179191 11.00000000
-7.65016747 0.22571529 -0.40110278 12 12 27169 7.66400000 1409179193 1409179193 -3.00000000
-12.03401756 0.35716131 2.77949524 55 13 27170 12.35600000 1409179195 1409179195 13.00000000
-15.33683014 0.45786563 -0.26782462 2 14 27171 15.34600000 1409179198 1409179198 -1.00000000
-10.15508366 0.30316982 2.72225881 42 15 27171 10.51800000 1409179200 1409179200 15.00000000
-1.95214891 0.06100770 -0.52333212 4 0 27179 2.02200000 1409179221 1409179221 -15.00000000
-58.40626526 1.83549082 1.01998842 14 1 27180 58.44400000 1409179223 1409179223 1.00000000
-2.24188066 0.07084561 -0.51783735 4 2 27181 2.30200000 1409179225 1409179225 -13.00000000
-58.38436890 1.85520303 3.06133938 58 3 27182 58.49400000 1409179228 1409179228 3.00000000
-2.62158465 0.08330264 -0.50984162 3 4 27182 2.67200000 1409179230 1409179230 -11.00000000
-36.50784683 1.16643989 3.19565248 51 5 27183 36.66600000 1409179232 1409179232 5.00000000
-3.15897298 0.10148233 -0.50059026 3 6 27184 3.20000000 1409179234 1409179234 -9.00000000
-24.22137451 0.78234601 2.97556186 34 7 27185 24.41600000 1409179237 1409179237 7.00000000
-3.94825244 0.12821765 -0.48503998 7 8 27186 3.98000000 1409179239 1409179239 -7.00000000
-18.14414597 0.58922267 2.87526536 53 9 27186 18.38000000 1409179241 1409179241 9.00000000
-5.19537544 0.16962512 -0.45477867 9 10 27187 5.21800000 1409179244 1409179244 -5.00000000
-12.80530167 0.42032084 2.49043894 46 11 27188 13.05200000 1409179246 1409179246 11.00000000
-7.66530275 0.25294498 -0.40194014 16 12 27189 7.68000000 1409179248 1409179248 -3.00000000
-12.02685452 0.39897186 2.77814555 54 13 27190 12.35000000 1409179251 1409179251 13.00000000
-15.47903633 0.51619709 -0.27033779 2 14 27191 15.49000000 1409179253 1409179253 -1.00000000
-10.14624023 0.33835825 2.72018814 40 15 27191 10.51000000 1409179255 1409179255 15.00000000
-1.94805086 0.06802744 -0.52229685 5 0 27200 2.01800000 1409179276 1409179276 -15.00000000
-58.41113663 2.04996896 1.02019787 14 1 27201 58.45600000 1409179278 1409179278 1.00000000
-2.24355364 0.07913073 -0.51828724 4 2 27202 2.30400000 1409179281 1409179281 -13.00000000
-58.37917328 2.06925082 3.06144404 58 3 27203 58.49600000 1409179283 1409179283 3.00000000
-2.61929965 0.09284112 -0.50946003 3 4 27203 2.67000000 1409179285 1409179285 -11.00000000
-36.49735260 1.30002725 3.19512963 51 5 27204 36.66000000 1409179287 1409179287 5.00000000
-3.16647625 0.11334252 -0.50184178 3 6 27205 3.20800000 1409179290 1409179290 -9.00000000
-24.20644188 0.87068838 2.97409940 37 7 27206 24.40400000 1409179292 1409179292 7.00000000
-3.95172358 0.14283127 -0.48552746 7 8 27207 3.98400000 1409179294 1409179294 -7.00000000
-18.13385391 0.65859991 2.87401390 45 9 27208 18.37200000 1409179297 1409179297 9.00000000
-5.18675470 0.18837672 -0.45408142 6 10 27208 5.21000000 1409179299 1409179299 -5.00000000
-12.79386520 0.46689379 2.48853087 50 11 27209 13.04200000 1409179301 1409179301 11.00000000
-7.66232824 0.28096482 -0.40183547 16 12 27210 7.67800000 1409179304 1409179304 -3.00000000
-12.02531147 0.44304979 2.77814555 54 13 27211 12.35000000 1409179306 1409179306 13.00000000
-15.54897976 0.57559019 -0.27159435 2 14 27212 15.56200000 1409179308 1409179308 -1.00000000
-10.14107037 0.37540090 2.71915293 42 15 27212 10.50600000 1409179310 1409179310 15.00000000
-1.94587111 0.07475283 -0.52177918 4 0 27220 2.01600000 1409179331 1409179331 -15.00000000
-2.23742175 0.08673525 -0.51693749 4 2 27222 2.29800000 1409179336 1409179336 -13.00000000
-58.38157272 2.27340794 3.06196737 58 3 27223 58.50600000 1409179338 1409179338 3.00000000
-2.61699796 0.10190722 -0.50907838 3 4 27223 2.66800000 1409179340 1409179340 -11.00000000
-36.47069168 1.42656231 3.19321203 62 5 27224 36.63800000 1409179343 1409179343 5.00000000
-3.16211367 0.12423979 -0.50121605 3 6 27225 3.20400000 1409179345 1409179345 -9.00000000
-24.18937111 0.95463133 2.97239327 34 7 27226 24.39000000 1409179347 1409179347 7.00000000
-3.96310210 0.15709624 -0.48698989 7 8 27227 3.99600000 1409179350 1409179350 -7.00000000
-18.13933945 0.72220922 2.87526536 45 9 27228 18.38000000 1409179352 1409179352 9.00000000
-5.19801044 0.20695631 -0.45512730 9 10 27228 5.22200000 1409179354 1409179354 -5.00000000
-12.78431034 0.51123607 2.48700452 50 11 27229 13.03400000 1409179357 1409179357 11.00000000
-7.65331793 0.30738899 -0.40141678 16 12 27230 7.67000000 1409179359 1409179359 -3.00000000
-12.02758598 0.48518038 2.77904534 51 13 27231 12.35400000 1409179361 1409179361 13.00000000
-15.53089142 0.62921518 -0.27131510 2 14 27232 15.54600000 1409179363 1409179363 -1.00000000
-10.13769627 0.41248873 2.71863532 42 15 27233 10.50400000 1409179366 1409179366 15.00000000
-1.95524919 0.08194922 -0.52436739 4 0 27240 2.02600000 1409179387 1409179387 -15.00000000
-41.84857178 1.76129174 0.73111624 31 1 27241 41.89200000 1409179389 1409179389 1.00000000
-2.22737050 0.09413335 -0.51468801 4 2 27242 2.28800000 1409179391 1409179391 -13.00000000
-58.37527847 2.47726870 3.06207204 58 3 27243 58.50800000 1409179393 1409179393 3.00000000
-2.64016414 0.11204050 -0.51365781 3 4 27243 2.69200000 1409179396 1409179396 -11.00000000
-36.47942352 1.55445385 3.19443226 51 5 27244 36.65200000 1409179398 1409179398 5.00000000
-3.16955495 0.13561463 -0.50246751 3 6 27245 3.21200000 1409179400 1409179400 -9.00000000
-24.16605759 1.03821015 2.96995592 34 7 27246 24.37000000 1409179403 1409179403 7.00000000
-3.95459652 0.17058688 -0.48601493 7 8 27247 3.98800000 1409179405 1409179405 -7.00000000
-18.13868141 0.78560841 2.87557840 45 9 27248 18.38200000 1409179407 1409179407 9.00000000
-5.20919943 0.22561677 -0.45617315 6 10 27248 5.23400000 1409179410 1409179410 -5.00000000
-12.78244877 0.55585855 2.48700452 50 11 27249 13.03400000 1409179412 1409179412 11.00000000
-7.64022636 0.33357948 -0.40078875 24 12 27250 7.65800000 1409179414 1409179414 -3.00000000
-12.01219082 0.52656412 2.77589607 53 13 27251 12.34000000 1409179416 1409179416 13.00000000
-15.54458237 0.68412763 -0.27159435 2 14 27252 15.56200000 1409179419 1409179419 -1.00000000
-10.14013290 0.44627413 2.71967053 45 15 27252 10.50800000 1409179421 1409179421 15.00000000
-1.95302129 0.08868618 -0.52384973 4 0 27260 2.02400000 1409179442 1409179442 -15.00000000
-41.68435669 1.90016592 0.72835875 71 1 27261 41.73400000 1409179444 1409179444 1.00000000
-2.22897506 0.10199684 -0.51513791 4 2 27262 2.29000000 1409179446 1409179446 -13.00000000
-58.35829163 2.68065476 3.06165338 58 3 27263 58.50000000 1409179449 1409179449 3.00000000
-2.61622262 0.12017468 -0.50907838 3 4 27263 2.66800000 1409179451 1409179451 -11.00000000
-36.47178650 1.68168950 3.19425797 62 5 27264 36.65000000 1409179453 1409179453 5.00000000
-3.15327621 0.14594698 -0.49996457 3 6 27265 3.19600000 1409179456 1409179456 -9.00000000
-24.13452530 1.12126935 2.96654367 34 7 27266 24.34200000 1409179458 1409179458 7.00000000
-3.94604516 0.18402009 -0.48503998 7 8 27267 3.98000000 1409179460 1409179460 -7.00000000
-18.12596321 0.84845763 2.87401390 45 9 27268 18.37200000 1409179463 1409179463 9.00000000
-5.21236038 0.24398521 -0.45652178 6 10 27268 5.23800000 1409179465 1409179465 -5.00000000
-12.78239155 0.60056639 2.48738599 50 11 27269 13.03600000 1409179467 1409179467 11.00000000
-7.65298080 0.36090541 -0.40152144 32 12 27270 7.67200000 1409179469 1409179469 -3.00000000
-11.99276066 0.56766206 2.77184701 51 13 27271 12.32200000 1409179472 1409179472 13.00000000
-15.59802818 0.74104130 -0.27257168 2 14 27272 15.61800000 1409179474 1409179474 -1.00000000
-10.13851357 0.48166710 2.71967053 42 15 27272 10.50800000 1409179476 1409179476 15.00000000
-1.95077026 0.09540858 -0.52333212 4 0 27280 2.02200000 1409179497 1409179497 -15.00000000
-41.60356903 2.04203272 0.72706723 30 1 27281 41.66000000 1409179499 1409179499 1.00000000
-2.23639083 0.11016029 -0.51693749 4 2 27282 2.29800000 1409179502 1409179502 -13.00000000
-58.34908295 2.87416291 3.06165338 58 3 27282 58.50000000 1409179504 1409179504 3.00000000
-2.61578727 0.12930627 -0.50907838 3 4 27283 2.66800000 1409179506 1409179506 -11.00000000
-36.45375443 1.80839729 3.19321203 51 5 27284 36.63800000 1409179509 1409179509 5.00000000
-3.16853094 0.15773882 -0.50246751 3 6 27285 3.21200000 1409179511 1409179511 -9.00000000
-24.11460304 1.20471537 2.96459365 34 7 27286 24.32600000 1409179513 1409179513 7.00000000
-3.95727444 0.19838959 -0.48650241 7 8 27287 3.99200000 1409179515 1409179515 -7.00000000
-18.11121178 0.90796739 2.87213683 49 9 27287 18.36000000 1409179518 1409179518 9.00000000
-5.20351791 0.26177785 -0.45582452 6 10 27288 5.23000000 1409179520 1409179520 -5.00000000
-12.78806019 0.64557755 2.48891258 50 11 27289 13.04400000 1409179522 1409179522 11.00000000
-7.64967966 0.38751605 -0.40141678 24 12 27290 7.67000000 1409179525 1409179525 -3.00000000
-11.99459839 0.60971898 2.77274680 50 13 27291 12.32600000 1409179527 1409179527 13.00000000
-15.61132336 0.79629898 -0.27285093 2 14 27292 15.63400000 1409179529 1409179529 -1.00000000
-10.13291168 0.51685733 2.71863532 45 15 27292 10.50400000 1409179532 1409179532 15.00000000
-1.94270849 0.10181304 -0.52126157 4 0 27300 2.01400000 1409179552 1409179552 -15.00000000
-41.52629471 2.18356872 0.72584558 10 1 27301 41.59000000 1409179555 1409179555 1.00000000
-2.24183083 0.11827409 -0.51828724 4 2 27302 2.30400000 1409179557 1409179557 -13.00000000
-58.35411072 3.08884835 3.06249070 58 3 27303 58.51600000 1409179559 1409179559 3.00000000
-2.62316203 0.13885139 -0.51060486 3 4 27303 2.67600000 1409179562 1409179562 -11.00000000
-36.41936493 1.93415427 3.19077182 51 5 27304 36.61000000 1409179564 1409179564 5.00000000
-3.15612555 0.16816747 -0.50059026 3 6 27305 3.20000000 1409179566 1409179566 -9.00000000
-24.12611008 1.28973138 2.96654367 28 7 27306 24.34200000 1409179568 1409179568 7.00000000
-3.96845126 0.21283972 -0.48796484 6 8 27307 4.00400000 1409179571 1409179571 -7.00000000
-18.11170769 0.97455448 2.87276244 49 9 27308 18.36400000 1409179573 1409179573 9.00000000
-5.17869806 0.27865529 -0.45373279 6 10 27308 5.20600000 1409179575 1409179575 -5.00000000
-12.77592659 0.68968314 2.48700452 50 11 27309 13.03400000 1409179578 1409179578 11.00000000
-7.65825176 0.41475609 -0.40194014 28 12 27310 7.68000000 1409179580 1409179580 -3.00000000
-12.00990963 0.65253580 2.77679586 51 13 27311 12.34400000 1409179582 1409179582 13.00000000
-23.91485023 1.30355453 -0.41805494 3 14 27312 23.95400000 1409179585 1409179585 -1.00000000
-10.12516212 0.55367643 2.71708226 42 15 27313 10.49800000 1409179587 1409179587 15.00000000
-1.93657362 0.10793222 -0.51970863 4 0 27319 2.00800000 1409179608 1409179608 -15.00000000
-41.52281952 2.32148600 0.72591537 20 1 27320 41.59400000 1409179610 1409179610 1.00000000
-2.23948073 0.12559849 -0.51783735 4 2 27321 2.30200000 1409179612 1409179612 -13.00000000
-58.35807800 3.27294040 3.06322360 72 3 27321 58.53000000 1409179615 1409179615 3.00000000
-2.63052773 0.14799045 -0.51213133 3 4 27322 2.68400000 1409179617 1409179617 -11.00000000
-36.38888168 2.05356741 3.18867993 41 5 27323 36.58600000 1409179619 1409179619 5.00000000
-3.15949512 0.17885593 -0.50121605 3 6 27324 3.20400000 1409179621 1409179621 -9.00000000
-24.12566376 1.36995447 2.96703100 28 7 27325 24.34600000 1409179624 1409179624 7.00000000
-3.97961497 0.22667573 -0.48942727 6 8 27326 4.01600000 1409179626 1409179626 -7.00000000
-18.11232185 1.03483498 2.87338829 45 9 27327 18.36800000 1409179628 1409179628 9.00000000
-5.20559359 0.29741803 -0.45617315 6 10 27327 5.23400000 1409179631 1409179631 -5.00000000
-12.76572895 0.73159653 2.48547792 50 11 27328 13.02600000 1409179633 1409179633 11.00000000
-7.65284634 0.43992025 -0.40173081 28 12 27329 7.67600000 1409179635 1409179635 -3.00000000
-12.01546192 0.69280720 2.77859545 53 13 27330 12.35200000 1409179638 1409179638 13.00000000
-15.59356308 0.90184987 -0.27264148 2 14 27331 15.62200000 1409179640 1409179640 -1.00000000
-10.12337303 0.58548278 2.71708226 42 15 27331 10.49800000 1409179642 1409179642 15.00000000
-1.94389904 0.11514841 -0.52177918 4 0 27339 2.01600000 1409179663 1409179663 -15.00000000
-41.48851395 2.46487188 0.72546160 41 1 27340 41.56800000 1409179665 1409179665 1.00000000
-2.23902845 0.13341497 -0.51783735 4 2 27341 2.30200000 1409179667 1409179667 -13.00000000
-58.35826111 3.47734118 3.06385159 58 3 27341 58.54200000 1409179670 1409179670 3.00000000
-2.62999511 0.15717180 -0.51213133 3 4 27342 2.68400000 1409179672 1409179672 -11.00000000
-36.36359024 2.17950296 3.18711114 41 5 27343 36.56800000 1409179674 1409179674 5.00000000
-3.16673875 0.19035764 -0.50246751 3 6 27344 3.21200000 1409179677 1409179677 -9.00000000
-24.12073517 1.45416045 2.96703100 25 7 27345 24.34600000 1409179679 1409179679 7.00000000
-3.97087359 0.24008659 -0.48845232 6 8 27346 4.00800000 1409179681 1409179681 -7.00000000
-18.11648560 1.09853077 2.87463975 49 9 27347 18.37600000 1409179684 1409179684 9.00000000
-5.21247864 0.31606948 -0.45687041 6 10 27347 5.24200000 1409179686 1409179686 -5.00000000
-12.75917816 0.77591443 2.48471475 50 11 27348 13.02200000 1409179688 1409179688 11.00000000
-7.64528370 0.46626624 -0.40141678 36 12 27349 7.67000000 1409179691 1409179691 -3.00000000
-11.99935436 0.73391199 2.77544618 54 13 27350 12.33800000 1409179693 1409179693 13.00000000
-15.64221478 0.95945919 -0.27354902 2 14 27351 15.67400000 1409179695 1409179695 -1.00000000
-10.12898064 0.62128943 2.71915293 42 15 27351 10.50600000 1409179697 1409179697 15.00000000
-1.95310414 0.12287889 -0.52436739 4 0 27360 2.02600000 1409179718 1409179718 -15.00000000
-41.49716187 2.61805153 0.72577578 20 1 27361 41.58600000 1409179720 1409179720 1.00000000
-2.24046946 0.14174357 -0.51828724 4 2 27362 2.30400000 1409179723 1409179723 -13.00000000
-58.33850098 3.70101523 3.06353760 58 3 27363 58.53600000 1409179725 1409179725 3.00000000
-2.61764550 0.16606437 -0.50984162 3 4 27363 2.67200000 1409179727 1409179727 -11.00000000
-36.38319397 2.31453848 3.18955159 41 5 27364 36.59600000 1409179730 1409179730 5.00000000
-3.15813422 0.20146002 -0.50121605 3 6 27365 3.20400000 1409179732 1409179732 -9.00000000
-24.11326218 1.54243088 2.96678734 23 7 27366 24.34400000 1409179734 1409179734 7.00000000
-3.96204281 0.25413069 -0.48747736 6 8 27367 4.00000000 1409179737 1409179737 -7.00000000
-18.09282684 1.16049802 2.87151098 49 9 27367 18.35600000 1409179739 1409179739 9.00000000
-5.21128511 0.33517206 -0.45687041 6 10 27368 5.24200000 1409179741 1409179741 -5.00000000
-12.75820827 0.82280028 2.48509645 50 11 27369 13.02400000 1409179744 1409179744 11.00000000
-7.64153004 0.49415559 -0.40131211 28 12 27370 7.66800000 1409179746 1409179746 -3.00000000
-12.00630760 0.77851737 2.77769566 56 13 27371 12.34800000 1409179748 1409179748 13.00000000
-15.65854836 1.01808167 -0.27389807 2 14 27372 15.69400000 1409179750 1409179750 -1.00000000
-10.12844753 0.66030294 2.71967053 42 15 27373 10.50800000 1409179753 1409179753 15.00000000
-1.94880807 0.12943968 -0.52333212 4 0 27380 2.02200000 1409179773 1409179773 -15.00000000
-41.51969528 2.76501369 0.72633427 20 1 27381 41.61800000 1409179776 1409179776 1.00000000
-2.23607206 0.14930375 -0.51738745 4 2 27382 2.30000000 1409179778 1409179778 -13.00000000
-58.33387756 3.89498448 3.06395626 58 3 27382 58.54400000 1409179780 1409179780 3.00000000
-2.61704993 0.17520064 -0.50984162 3 4 27383 2.67200000 1409179783 1409179783 -11.00000000
-36.36097717 2.44059157 3.18833137 41 5 27384 36.58200000 1409179785 1409179785 5.00000000
-3.16529560 0.21301329 -0.50246751 3 6 27385 3.21200000 1409179787 1409179787 -9.00000000
-21.19230461 1.42988324 2.60800385 17 7 27386 21.40000000 1409179790 1409179790 7.00000000
-3.96905398 0.26849517 -0.48845232 6 8 27387 4.00800000 1409179792 1409179792 -7.00000000
-18.08451080 1.22653639 2.87088537 49 9 27388 18.35200000 1409179794 1409179794 9.00000000
-5.20610762 0.35309115 -0.45652178 9 10 27388 5.23800000 1409179797 1409179797 -5.00000000
-12.75917530 0.86759609 2.48585963 46 11 27389 13.02800000 1409179799 1409179799 11.00000000
-7.64374399 0.52109820 -0.40152144 32 12 27390 7.67200000 1409179801 1409179801 -3.00000000
-11.99573994 0.81989092 2.77589607 55 13 27391 12.34000000 1409179803 1409179803 13.00000000
-15.63494873 1.07136703 -0.27354902 2 14 27392 15.67400000 1409179806 1409179806 -1.00000000
-10.11644459 0.69499177 2.71708226 40 15 27393 10.49800000 1409179808 1409179808 15.00000000
-1.93678153 0.13543296 -0.52022630 4 0 27400 2.01000000 1409179829 1409179829 -15.00000000
-41.53971100 2.91202521 0.72685784 10 1 27401 41.64800000 1409179831 1409179831 1.00000000
-2.23942518 0.15738142 -0.51828724 4 2 27402 2.30400000 1409179833 1409179833 -13.00000000
-58.33586502 4.09970427 3.06479359 72 3 27402 58.56000000 1409179836 1409179836 3.00000000
-2.61446404 0.18419680 -0.50946003 3 4 27403 2.67000000 1409179838 1409179838 -11.00000000
-36.14355850 2.55276132 3.17002869 41 5 27404 36.37200000 1409179840 1409179840 5.00000000
-3.16453266 0.22406094 -0.50246751 3 6 27405 3.21200000 1409179843 1409179843 -9.00000000
-21.18124390 1.50342786 2.60727262 22 7 27406 21.39400000 1409179845 1409179845 7.00000000
-3.97007251 0.28248900 -0.48869607 6 8 27407 4.01000000 1409179847 1409179847 -7.00000000
-18.05669975 1.28481758 2.86713076 49 9 27407 18.32800000 1409179850 1409179850 9.00000000
-5.20484352 0.37126172 -0.45652178 6 10 27408 5.23800000 1409179852 1409179852 -5.00000000
-12.74823666 0.91156858 2.48433304 46 11 27409 13.02000000 1409179854 1409179854 11.00000000
-7.65781546 0.54891902 -0.40235883 28 12 27410 7.68800000 1409179856 1409179856 -3.00000000
-11.98308659 0.86106050 2.77364659 53 13 27411 12.33000000 1409179859 1409179859 13.00000000
-15.70291710 1.13110876 -0.27480561 2 14 27412 15.74600000 1409179861 1409179861 -1.00000000
-10.11395741 0.73030055 2.71708226 42 15 27413 10.49800000 1409179863 1409179863 15.00000000
-1.94207692 0.14261721 -0.52177918 4 0 27420 2.01600000 1409179884 1409179884 -15.00000000
-2.23886228 0.16519751 -0.51828724 4 2 27422 2.30400000 1409179889 1409179889 -13.00000000
-58.31721497 4.30301523 3.06458426 43 3 27422 58.55600000 1409179891 1409179891 3.00000000
-2.62946844 0.19448034 -0.51251298 3 4 27423 2.68600000 1409179893 1409179893 -11.00000000
-36.22582626 2.68568635 3.17804694 31 5 27424 36.46400000 1409179896 1409179896 5.00000000
-3.14797163 0.23393472 -0.49996457 4 6 27425 3.19600000 1409179898 1409179898 -9.00000000
-21.17388725 1.57720757 2.60702896 22 7 27426 21.39200000 1409179900 1409179900 7.00000000
-3.96510315 0.29604983 -0.48820859 4 8 27427 4.00600000 1409179903 1409179903 -7.00000000
-18.04816437 1.34754527 2.86650515 49 9 27427 18.32400000 1409179905 1409179905 9.00000000
-5.21941042 0.39061728 -0.45791626 6 10 27428 5.25400000 1409179907 1409179907 -5.00000000
-12.72539902 0.95459408 2.48051691 46 11 27429 13.00000000 1409179909 1409179909 11.00000000
-7.65186977 0.57534695 -0.40214950 52 12 27430 7.68400000 1409179912 1409179912 -3.00000000
-11.98972416 0.90361631 2.77589607 55 13 27431 12.34000000 1409179914 1409179914 13.00000000
-15.72678852 1.18802404 -0.27529424 2 14 27432 15.77400000 1409179916 1409179916 -1.00000000
-10.11712551 0.76603794 2.71863532 42 15 27433 10.50400000 1409179919 1409179919 15.00000000
-1.94737184 0.14950021 -0.52333212 4 0 27439 2.02200000 1409179939 1409179939 -15.00000000
-41.61064529 3.20176458 0.72846347 20 1 27440 41.74000000 1409179942 1409179942 1.00000000
-2.23247313 0.17217140 -0.51693749 4 2 27441 2.29800000 1409179944 1409179944 -13.00000000
-52.73083878 4.06667471 2.77171230 87 3 27441 52.96000000 1409179946 1409179946 3.00000000
-2.63468122 0.20365281 -0.51365781 3 4 27442 2.69200000 1409179949 1409179949 -11.00000000
-36.10150528 2.79687500 3.16793704 10 5 27443 36.34800000 1409179951 1409179951 5.00000000
-3.14717865 0.24437247 -0.49996457 3 6 27444 3.19600000 1409179953 1409179953 -9.00000000
-21.15468597 1.64633596 2.60532284 22 7 27445 21.37800000 1409179955 1409179955 7.00000000
-3.97795320 0.31027752 -0.48991477 6 8 27446 4.02000000 1409179958 1409179958 -7.00000000
-18.05935287 1.40861666 2.86900806 53 9 27446 18.34000000 1409179960 1409179960 9.00000000
