# .PCD v0.7 - Point Cloud Data file format
VERSION 0.7
FIELDS x y z intensity laser_id azimuth distance_m adjustedtime timestamp vertical_angle
SIZE 4 4 4 1 1 2 8 8 4 8
TYPE F F F U U U F U U F
COUNT 1 1 1 1 1 1 1 1 1 1
WIDTH 516
HEIGHT 1
VIEWPOINT 0 0 0 1 0 0 0
POINTS 516
DATA ascii
-2.48369527 -0.71876055 -0.50259089 3 4 25386 2.63400000 1409074223 1409074223 -11.00000000
-36.85897827 -10.65970707 3.35689068 42 5 25387 38.51600000 1409074225 1409074225 5.00000000
-2.96042657 -0.85560286 -0.48807552 2 6 25388 3.12000000 1409074228 1409074228 -9.00000000
-20.68292427 -5.97373009 2.64334607 7 7 25389 21.69000000 1409074230 1409074230 7.00000000
-3.68477869 -1.06355667 -0.47090313 5 8 25390 3.86400000 1409074232 1409074232 -7.00000000
-15.98222256 -4.61303139 2.63466930 48 9 25390 16.84200000 1409074234 1409074234 9.00000000
-4.87774515 -1.40696657 -0.44414568 3 10 25391 5.09600000 1409074237 1409074237 -5.00000000
-10.21131992 -2.94348526 2.06569815 9 11 25392 10.82600000 1409074239 1409074239 11.00000000
-7.09917498 -2.04504538 -0.38718140 3 12 25393 7.39800000 1409074241 1409074241 -3.00000000
-10.38216972 -2.98880887 2.49425721 26 13 25394 11.08800000 1409074244 1409074244 13.00000000
-13.50797272 -3.88610911 -0.24534594 2 14 25395 14.05800000 1409074246 1409074246 -1.00000000
-9.93625355 -2.85856128 2.77039909 40 15 25395 10.70400000 1409074248 1409074248 15.00000000
-1.85915089 -0.53204960 -0.51815575 5 0 25403 2.00200000 1409074269 1409074269 -15.00000000
-2.13416409 -0.60994661 -0.51243848 4 2 25405 2.27800000 1409074274 1409074274 -13.00000000
-56.34065628 -16.09159088 3.07076001 29 3 25406 58.67400000 1409074276 1409074276 3.00000000
-2.48618889 -0.71008646 -0.50259089 3 4 25406 2.63400000 1409074278 1409074278 -11.00000000
-36.86147690 -10.52113724 3.35375309 53 5 25407 38.48000000 1409074281 1409074281 5.00000000
-2.97479296 -0.84851480 -0.48995274 2 6 25408 3.13200000 1409074283 1409074283 -9.00000000
-24.34420967 -6.93922424 3.10815573 34 7 25409 25.50400000 1409074285 1409074285 7.00000000
-3.71137834 -1.05721390 -0.47382802 5 8 25410 3.88800000 1409074287 1409074287 -7.00000000
-16.01042175 -4.55766773 2.63654637 40 9 25411 16.85400000 1409074290 1409074290 9.00000000
-4.89412403 -1.39320445 -0.44519153 3 10 25411 5.10800000 1409074292 1409074292 -5.00000000
-10.34049797 -2.94166613 2.08974004 12 11 25412 10.95200000 1409074294 1409074294 11.00000000
-7.10242796 -2.01915979 -0.38697207 3 12 25413 7.39400000 1409074297 1409074297 -3.00000000
-10.38879013 -2.95148492 2.49335742 30 13 25414 11.08400000 1409074299 1409074299 13.00000000
-13.55031013 -3.84712625 -0.24586950 2 14 25415 14.08800000 1409074301 1409074301 -1.00000000
-9.94480515 -2.82159638 2.76988149 40 15 25416 10.70200000 1409074304 1409074304 15.00000000
-1.86285591 -0.52608174 -0.51867336 5 0 25423 2.00400000 1409074324 1409074324 -15.00000000
-57.03514862 -16.09632301 1.03443909 14 1 25424 59.27200000 1409074327 1409074327 1.00000000
-2.11564875 -0.59667468 -0.50748956 4 2 25425 2.25600000 1409074329 1409074329 -13.00000000
-56.97127151 -16.05682564 3.10205674 29 3 25426 59.27200000 1409074331 1409074331 3.00000000
-2.49243188 -0.70246887 -0.50335413 3 4 25426 2.63800000 1409074334 1409074334 -11.00000000
-36.86729431 -10.38376045 3.35096407 63 5 25427 38.44800000 1409074336 1409074336 5.00000000
-2.96632767 -0.83491451 -0.48807552 2 6 25428 3.12000000 1409074338 1409074338 -9.00000000
-24.37401581 -6.85581732 3.10888696 40 7 25429 25.51000000 1409074340 1409074340 7.00000000
-3.69975781 -1.03995502 -0.47187811 7 8 25430 3.87200000 1409074343 1409074343 -7.00000000
-16.02925110 -4.50561905 2.63717222 48 9 25430 16.85800000 1409074345 1409074345 9.00000000
-4.88553047 -1.37234068 -0.44397137 3 10 25431 5.09400000 1409074347 1409074347 -5.00000000
-10.39228725 -2.91722631 2.09813571 18 11 25432 10.99600000 1409074350 1409074350 11.00000000
-7.11712503 -1.99651325 -0.38739076 3 12 25433 7.40200000 1409074352 1409074352 -3.00000000
-10.39152431 -2.91309929 2.49155784 26 13 25434 11.07600000 1409074354 1409074354 13.00000000
-13.60216808 -3.81059217 -0.24656759 4 14 25435 14.12800000 1409074357 1409074357 -1.00000000
-9.95038700 -2.78756046 2.76884604 38 15 25435 10.69800000 1409074359 1409074359 15.00000000
-1.86840284 -0.52061301 -0.51970863 5 0 25443 2.00800000 1409074380 1409074380 -15.00000000
-45.06250381 -12.54777241 0.81649339 11 1 25444 46.78400000 1409074382 1409074382 1.00000000
-2.13837028 -0.59503263 -0.51243848 4 2 25445 2.27800000 1409074384 1409074384 -13.00000000
-45.02544403 -12.52051926 2.44921803 42 3 25446 46.79800000 1409074387 1409074387 3.00000000
-2.49486876 -0.69376439 -0.50335413 3 4 25446 2.63800000 1409074389 1409074389 -11.00000000
-36.86300278 -10.24380398 3.34730339 63 5 25447 38.40600000 1409074391 1409074391 5.00000000
-2.98064423 -0.82772636 -0.48995274 2 6 25448 3.13200000 1409074393 1409074393 -9.00000000
-24.39779854 -6.77069473 3.10888696 43 7 25449 25.51000000 1409074396 1409074396 7.00000000
-3.70336556 -1.02703416 -0.47187811 7 8 25450 3.87200000 1409074398 1409074398 -7.00000000
-16.04487991 -4.44963932 2.63717222 40 9 25450 16.85800000 1409074400 1409074400 9.00000000
-4.89989090 -1.35793912 -0.44484290 3 10 25451 5.10400000 1409074403 1409074403 -5.00000000
-12.60851955 -3.49191260 2.54310226 31 11 25452 13.32800000 1409074405 1409074405 11.00000000
-7.12020111 -1.97059214 -0.38718140 3 12 25453 7.39800000 1409074407 1409074407 -3.00000000
-11.78588390 -3.25965548 2.82313561 44 13 25454 12.55000000 1409074410 1409074410 13.00000000
-13.61153221 -3.76202297 -0.24649779 4 14 25455 14.12400000 1409074412 1409074412 -1.00000000
-9.96378040 -2.75383949 2.76988149 40 15 25455 10.70200000 1409074414 1409074414 15.00000000
-1.85903215 -0.51101565 -0.51660281 5 0 25463 1.99600000 1409074435 1409074435 -15.00000000
-45.07710648 -12.38245296 0.81596982 22 1 25464 46.75400000 1409074437 1409074437 1.00000000
-2.14419270 -0.58859640 -0.51333833 4 2 25465 2.28200000 1409074440 1409074440 -13.00000000
-45.04961395 -12.35799122 2.44817138 95 3 25466 46.77800000 1409074442 1409074442 3.00000000
-2.48591518 -0.68193519 -0.50106442 3 4 25466 2.62600000 1409074444 1409074444 -11.00000000
-36.85241699 -10.10242367 3.34312010 63 5 25467 38.35800000 1409074446 1409074446 5.00000000
-2.98732567 -0.81836075 -0.49057847 2 6 25468 3.13600000 1409074449 1409074449 -9.00000000
-24.42702866 -6.68706131 3.10961819 40 7 25469 25.51600000 1409074451 1409074451 7.00000000
-3.70692801 -1.01410067 -0.47187811 7 8 25470 3.87200000 1409074453 1409074453 -7.00000000
-16.06298637 -4.39132261 2.63748503 52 9 25471 16.86000000 1409074456 1409074456 9.00000000
-4.88922644 -1.33662379 -0.44344842 3 10 25471 5.08800000 1409074458 1409074458 -5.00000000
-12.60926819 -3.44477510 2.54081249 46 11 25472 13.31600000 1409074460 1409074460 11.00000000
-7.13859653 -1.94888210 -0.38780943 3 12 25473 7.41000000 1409074463 1409074463 -3.00000000
-11.79343033 -3.21746945 2.82223582 47 13 25474 12.54600000 1409074465 1409074465 13.00000000
-13.65544891 -3.72290277 -0.24705626 7 14 25475 14.15600000 1409074467 1409074467 -1.00000000
-9.96774101 -2.71751809 2.76832843 33 15 25475 10.69600000 1409074469 1409074469 15.00000000
-1.85894001 -0.50401777 -0.51608515 5 0 25483 1.99400000 1409074490 1409074490 -15.00000000
-45.05829239 -12.20829487 0.81485283 11 1 25484 46.69000000 1409074493 1409074493 1.00000000
-2.14435315 -0.58059889 -0.51288843 4 2 25485 2.28000000 1409074495 1409074495 -13.00000000
-45.05199051 -12.18970871 2.44597316 42 3 25486 46.73600000 1409074497 1409074497 3.00000000
-2.48449039 -0.67222804 -0.50030118 3 4 25486 2.62200000 1409074499 1409074499 -11.00000000
-36.84129715 -9.96124268 3.33893657 31 5 25487 38.31000000 1409074502 1409074502 5.00000000
-2.99016404 -0.80792803 -0.49057847 2 6 25488 3.13600000 1409074504 1409074504 -9.00000000
-24.46747017 -6.60641146 3.11181188 31 7 25489 25.53400000 1409074506 1409074506 7.00000000
-3.71811152 -1.00322342 -0.47285306 7 8 25490 3.88000000 1409074509 1409074509 -7.00000000
-16.08584785 -4.33728266 2.63873649 52 9 25491 16.86800000 1409074511 1409074511 9.00000000
-4.90155697 -1.32162380 -0.44414568 3 10 25491 5.09600000 1409074513 1409074513 -5.00000000
-12.60225964 -3.39563179 2.53699636 40 11 25492 13.29600000 1409074516 1409074516 11.00000000
-7.14921331 -1.92499053 -0.38801879 3 12 25493 7.41400000 1409074518 1409074518 -3.00000000
-11.80835247 -3.17729592 2.82313561 47 13 25494 12.55000000 1409074520 1409074520 13.00000000
-13.68767262 -3.68040609 -0.24740532 4 14 25495 14.17600000 1409074522 1409074522 -1.00000000
-9.98323154 -2.68247032 2.76988149 26 15 25496 10.70200000 1409074525 1409074525 15.00000000
-1.86815321 -0.49952191 -0.51815575 5 0 25503 2.00200000 1409074546 1409074546 -15.00000000
-45.04460526 -12.03596783 0.81384063 22 1 25504 46.63200000 1409074548 1409074548 1.00000000
-2.14260125 -0.57210469 -0.51198858 4 2 25505 2.27600000 1409074550 1409074550 -13.00000000
-45.03830338 -12.01744080 2.44293785 42 3 25506 46.67800000 1409074552 1409074552 3.00000000
-2.49820304 -0.66658831 -0.50259089 3 4 25506 2.63400000 1409074555 1409074555 -11.00000000
-36.83734131 -9.82231522 3.33545017 10 5 25507 38.27000000 1409074557 1409074557 5.00000000
-2.99678349 -0.79850268 -0.49120423 2 6 25508 3.14000000 1409074559 1409074559 -9.00000000
-24.48654556 -6.51994228 3.11132431 40 7 25509 25.53000000 1409074562 1409074562 7.00000000
-3.73310065 -0.99330133 -0.47431549 5 8 25510 3.89200000 1409074564 1409074564 -7.00000000
-16.19252396 -4.30547094 2.65375423 52 9 25511 16.96400000 1409074566 1409074566 9.00000000
-4.91384220 -1.30655408 -0.44484290 3 10 25511 5.10400000 1409074569 1409074569 -5.00000000
-12.60454845 -3.34910035 2.53508830 37 11 25512 13.28600000 1409074571 1409074571 11.00000000
-7.14237642 -1.89643550 -0.38728607 3 12 25513 7.40000000 1409074573 1409074573 -3.00000000
-11.81937122 -3.13605762 2.82313561 48 13 25514 12.55000000 1409074575 1409074575 13.00000000
-13.71589947 -3.63670492 -0.24768455 4 14 25515 14.19200000 1409074578 1409074578 -1.00000000
-9.98647022 -2.64786458 2.76832843 28 15 25515 10.69600000 1409074580 1409074580 15.00000000
-1.87548959 -0.49447531 -0.51970863 5 0 25523 2.00800000 1409074601 1409074601 -15.00000000
-45.05347061 -11.86999798 0.81324726 11 1 25524 46.59800000 1409074603 1409074603 1.00000000
-2.13327813 -0.56164521 -0.50928921 4 2 25525 2.26400000 1409074605 1409074605 -13.00000000
-45.03941727 -11.84948349 2.44073963 85 3 25526 46.63600000 1409074608 1409074608 3.00000000
-2.51190662 -0.66086102 -0.50488061 3 4 25526 2.64600000 1409074610 1409074610 -11.00000000
-36.84635544 -9.68708324 3.33318424 63 5 25527 38.24400000 1409074612 1409074612 5.00000000
-2.96898389 -0.78000617 -0.48619831 2 6 25528 3.10800000 1409074615 1409074615 -9.00000000
-24.50723457 -6.43392467 3.11108065 46 7 25529 25.52800000 1409074617 1409074617 7.00000000
-3.74038553 -0.98127174 -0.47480297 5 8 25530 3.89600000 1409074619 1409074619 -7.00000000
-16.36031723 -4.28899717 2.67878389 52 9 25531 17.12400000 1409074622 1409074622 9.00000000
-4.93379116 -1.29343557 -0.44623742 3 10 25531 5.12000000 1409074624 1409074624 -5.00000000
-12.61806202 -3.30557919 2.53547001 40 11 25532 13.28800000 1409074626 1409074626 11.00000000
-7.16247797 -1.87503302 -0.38801879 3 12 25533 7.41400000 1409074628 1409074628 -3.00000000
-11.83024693 -3.09478116 2.82313561 47 13 25534 12.55000000 1409074631 1409074631 13.00000000
-13.74011803 -3.59183979 -0.24789397 4 14 25535 14.20400000 1409074633 1409074633 -1.00000000
-9.99752140 -2.61347771 2.76884604 30 15 25535 10.69800000 1409074635 1409074635 15.00000000
-1.88281333 -0.48938355 -0.52126157 5 0 25543 2.01400000 1409074656 1409074656 -15.00000000
-45.21656799 -11.74433041 0.81544626 11 1 25544 46.72400000 1409074658 1409074658 1.00000000
-2.14277053 -0.55615360 -0.51108879 4 2 25545 2.27200000 1409074661 1409074661 -13.00000000
-2.50659657 -0.65011728 -0.50335413 3 4 25546 2.63800000 1409074665 1409074665 -11.00000000
-36.84522629 -9.54940891 3.33004665 63 5 25547 38.20800000 1409074668 1409074668 5.00000000
-2.99081135 -0.77459031 -0.48932701 2 6 25548 3.12800000 1409074670 1409074670 -9.00000000
-24.53146553 -6.34883642 3.11132431 43 7 25549 25.53000000 1409074672 1409074672 7.00000000
-3.71688199 -0.96125102 -0.47139063 5 8 25550 3.86800000 1409074674 1409074674 -7.00000000
-16.57717133 -4.28714800 2.71194792 53 9 25550 17.33600000 1409074677 1409074677 9.00000000
-4.91898584 -1.27122033 -0.44449428 6 10 25551 5.10000000 1409074679 1409074679 -5.00000000
-12.62572193 -3.26053214 2.53470659 40 11 25552 13.28400000 1409074681 1409074681 11.00000000
-7.18251657 -1.85351336 -0.38875148 3 12 25553 7.42800000 1409074684 1409074684 -3.00000000
-11.82588100 -3.04957414 2.81953645 46 13 25554 12.53400000 1409074686 1409074686 13.00000000
-13.76225471 -3.54635096 -0.24806851 7 14 25555 14.21400000 1409074688 1409074688 -1.00000000
-9.99722958 -2.57615376 2.76625800 35 15 25555 10.68800000 1409074691 1409074691 15.00000000
-1.86766744 -0.47849327 -0.51660281 4 0 25563 1.99600000 1409074711 1409074711 -15.00000000
-2.14658666 -0.54915351 -0.51153868 4 2 25565 2.27400000 1409074716 1409074716 -13.00000000
-58.80170822 -15.03209400 3.18077016 15 3 25566 60.77600000 1409074718 1409074718 3.00000000
-2.50504637 -0.64039111 -0.50259089 3 4 25566 2.63400000 1409074721 1409074721 -11.00000000
-36.83007812 -9.40840912 3.32568884 63 5 25567 38.15800000 1409074723 1409074723 5.00000000
-3.01263714 -0.76903158 -0.49245569 3 6 25568 3.14800000 1409074725 1409074725 -9.00000000
-24.55732536 -6.26414871 3.11181188 46 7 25569 25.53400000 1409074727 1409074727 7.00000000
-3.71252036 -0.94630957 -0.47041565 5 8 25570 3.86000000 1409074730 1409074730 -7.00000000
-16.79185486 -4.27706909 2.74448633 53 9 25571 17.54400000 1409074732 1409074732 9.00000000
-4.92725515 -1.25502574 -0.44484290 6 10 25571 5.10400000 1409074734 1409074734 -5.00000000
-12.63512325 -3.21595597 2.53432512 43 11 25572 13.28200000 1409074737 1409074737 11.00000000
-7.17539358 -1.82498419 -0.38801879 3 12 25573 7.41400000 1409074739 1409074739 -3.00000000
-11.83645439 -3.00827551 2.81953645 47 13 25574 12.53400000 1409074741 1409074741 13.00000000
-13.75129223 -3.49238324 -0.24764965 7 14 25575 14.19000000 1409074744 1409074744 -1.00000000
-10.00285912 -2.53854418 2.76522279 28 15 25576 10.68400000 1409074746 1409074746 15.00000000
-1.86737096 -0.47182399 -0.51608515 5 0 25582 1.99400000 1409074767 1409074767 -15.00000000
-58.83640289 -14.85512352 1.05922151 15 1 25583 60.69200000 1409074769 1409074769 1.00000000
-2.15028548 -0.54250884 -0.51198858 4 2 25584 2.27600000 1409074771 1409074771 -13.00000000
-58.81378555 -14.83849430 3.17888594 61 3 25584 60.74000000 1409074774 1409074774 3.00000000
-2.50334883 -0.63112068 -0.50182766 3 4 25585 2.63000000 1409074776 1409074776 -11.00000000
-36.82243347 -9.27648926 3.32220268 42 5 25586 38.11800000 1409074778 1409074778 5.00000000
-3.00750828 -0.75710815 -0.49120423 2 6 25587 3.14000000 1409074780 1409074780 -9.00000000
-24.58951378 -6.18558455 3.11327434 46 7 25588 25.54600000 1409074783 1409074783 7.00000000
-3.73874044 -0.93980044 -0.47334054 5 8 25589 3.88400000 1409074785 1409074785 -7.00000000
-17.00328064 -4.27092886 2.77671170 61 9 25590 17.75000000 1409074787 1409074787 9.00000000
-4.91786289 -1.23528183 -0.44362274 6 10 25590 5.09000000 1409074790 1409074790 -5.00000000
-12.63619804 -3.17164898 2.53241706 40 11 25591 13.27200000 1409074792 1409074792 11.00000000
-7.20271540 -1.80652452 -0.38917017 3 12 25592 7.43600000 1409074794 1409074794 -3.00000000
-11.85770702 -2.97185040 2.82223582 47 13 25593 12.54600000 1409074797 1409074797 13.00000000
-13.79383373 -3.45453596 -0.24820812 7 14 25594 14.22200000 1409074799 1409074799 -1.00000000
-9.99766731 -2.50382161 2.76159930 33 15 25594 10.67000000 1409074801 1409074801 15.00000000
-1.87463045 -0.46670288 -0.51763809 5 0 25602 2.00000000 1409074822 1409074822 -15.00000000
-2.15027499 -0.53452957 -0.51153868 4 2 25604 2.27400000 1409074826 1409074826 -13.00000000
-58.81676483 -14.62106037 3.17626929 61 3 25604 60.69000000 1409074829 1409074829 3.00000000
-2.52077937 -0.62616485 -0.50488061 3 4 25605 2.64600000 1409074831 1409074831 -11.00000000
-36.81784821 -9.13877964 3.31889057 31 5 25606 38.08000000 1409074833 1409074833 5.00000000
-2.99862909 -0.74375212 -0.48932701 2 6 25607 3.12800000 1409074836 1409074836 -9.00000000
-24.60132217 -6.09732580 3.11205554 40 7 25608 25.53600000 1409074838 1409074838 7.00000000
-3.75355935 -0.92960733 -0.47480297 5 8 25609 3.89600000 1409074840 1409074840 -7.00000000
-17.26544571 -4.27276611 2.81707191 49 9 25610 18.00800000 1409074843 1409074843 9.00000000
-4.91247463 -1.21571457 -0.44275117 6 10 25610 5.08000000 1409074845 1409074845 -5.00000000
-12.64338017 -3.12657857 2.53165364 43 11 25611 13.26800000 1409074847 1409074847 11.00000000
-7.63942242 -1.88773620 -0.41240734 12 12 25612 7.88000000 1409074850 1409074850 -3.00000000
-11.86800766 -2.93044138 2.82223582 47 13 25613 12.54600000 1409074852 1409074852 13.00000000
-13.82910633 -3.41211367 -0.24862698 7 14 25614 14.24600000 1409074854 1409074854 -1.00000000
-10.01197338 -2.47029638 2.76315212 28 15 25614 10.67600000 1409074856 1409074856 15.00000000
-1.88195741 -0.46120837 -0.51919103 5 0 25623 2.00600000 1409074877 1409074877 -15.00000000
-20.56512833 -5.03605938 0.36957216 13 1 25624 21.17600000 1409074879 1409074879 1.00000000
-2.14086223 -0.52386564 -0.50883931 4 2 25625 2.26200000 1409074882 1409074882 -13.00000000
-20.55734825 -5.02654839 1.10910356 43 3 25626 21.19200000 1409074884 1409074884 3.00000000
-2.51161504 -0.61412370 -0.50259089 3 4 25626 2.63400000 1409074886 1409074886 -11.00000000
-20.53519630 -5.01733398 1.84944487 76 5 25627 21.22000000 1409074889 1409074889 5.00000000
-3.00901079 -0.73463064 -0.49057847 2 6 25628 3.13600000 1409074891 1409074891 -9.00000000
-20.51572990 -5.00498962 2.59289217 92 7 25629 21.27600000 1409074893 1409074893 7.00000000
-3.75308418 -0.91490328 -0.47431549 5 8 25630 3.89200000 1409074896 1409074896 -7.00000000
-17.51055717 -4.26861382 2.85461617 53 9 25630 18.24800000 1409074898 1409074898 9.00000000
-4.95174170 -1.20618904 -0.44588879 3 10 25631 5.11600000 1409074900 1409074900 -5.00000000
-12.65475464 -3.08021712 2.53165364 43 11 25632 13.26800000 1409074903 1409074903 11.00000000
-11.85973263 -2.88232112 2.81773686 45 13 25634 12.52600000 1409074907 1409074907 13.00000000
-13.84346294 -3.36187649 -0.24866189 7 14 25635 14.24800000 1409074909 1409074909 -1.00000000
-10.01199722 -2.42955709 2.76056385 33 15 25636 10.66600000 1409074912 1409074912 15.00000000
-1.89106750 -0.45644939 -0.52126157 5 0 25643 2.01400000 1409074932 1409074932 -15.00000000
-20.56702995 -4.96049213 0.36929291 18 1 25644 21.16000000 1409074935 1409074935 1.00000000
-2.14267778 -0.51638949 -0.50883931 5 2 25645 2.26200000 1409074937 1409074937 -13.00000000
-20.55448723 -4.95367098 1.10805690 60 3 25645 21.17200000 1409074939 1409074939 3.00000000
-2.51756096 -0.60627210 -0.50335413 3 4 25646 2.63800000 1409074942 1409074942 -11.00000000
-20.54483795 -4.94375753 1.84874761 100 5 25647 21.21200000 1409074944 1409074944 5.00000000
-3.02308083 -0.72689366 -0.49245569 3 6 25648 3.14800000 1409074946 1409074946 -9.00000000
-20.50798416 -4.92731714 2.58972359 97 7 25649 21.25000000 1409074949 1409074949 7.00000000
-3.74853396 -0.89994335 -0.47334054 5 8 25650 3.88400000 1409074951 1409074951 -7.00000000
-17.74506378 -4.25693750 2.89028311 49 9 25651 18.47600000 1409074953 1409074953 9.00000000
-4.95979691 -1.18982637 -0.44623742 3 10 25651 5.12000000 1409074956 1409074956 -5.00000000
-12.66924763 -3.03694034 2.53241706 40 11 25652 13.27200000 1409074958 1409074958 11.00000000
-11.86214066 -2.83909082 2.81593728 47 13 25654 12.51800000 1409074962 1409074962 13.00000000
-13.85316849 -3.31306815 -0.24862698 7 14 25655 14.24600000 1409074965 1409074965 -1.00000000
-10.02041721 -2.39459395 2.76056385 33 15 25656 10.66600000 1409074967 1409074967 15.00000000
-1.88513136 -0.44805869 -0.51919103 5 0 25663 2.00600000 1409074988 1409074988 -15.00000000
-20.56476402 -4.88404894 0.36894387 18 1 25664 21.14000000 1409074990 1409074990 1.00000000
-2.15584373 -0.51160675 -0.51153868 5 2 25665 2.27400000 1409074992 1409074992 -13.00000000
-20.54639053 -4.87589693 1.10669613 50 3 25665 21.14600000 1409074995 1409074995 3.00000000
-2.50820017 -0.59476262 -0.50106442 3 4 25666 2.62600000 1409074997 1409074997 -11.00000000
-20.52125549 -4.86236620 1.84508705 100 5 25667 21.17000000 1409074999 1409074999 5.00000000
-3.02175522 -0.71542650 -0.49182996 3 6 25668 3.14400000 1409075002 1409075002 -9.00000000
-20.49801254 -4.84930277 2.58631110 85 7 25669 21.22200000 1409075004 1409075004 7.00000000
-3.75165248 -0.88685304 -0.47334054 5 8 25670 3.88400000 1409075006 1409075006 -7.00000000
-17.99938393 -4.25487375 2.92939186 59 9 25670 18.72600000 1409075009 1409075009 9.00000000
-4.94452953 -1.16792607 -0.44449428 6 10 25671 5.10000000 1409075011 1409075011 -5.00000000
-12.67212868 -2.99089408 2.53089046 43 11 25672 13.26400000 1409075013 1409075013 11.00000000
-11.88335991 -2.80034876 2.81863666 48 13 25674 12.53000000 1409075018 1409075018 13.00000000
-13.89384556 -3.27156639 -0.24915056 4 14 25675 14.27600000 1409075020 1409075020 -1.00000000
-10.02307320 -2.35827422 2.75901103 28 15 25676 10.66000000 1409075022 1409075022 15.00000000
-1.88292181 -0.44059530 -0.51815575 5 0 25683 2.00200000 1409075043 1409075043 -15.00000000
-20.54663849 -4.80403948 0.36831558 18 1 25684 21.10400000 1409075045 1409075045 1.00000000
-2.16330957 -0.50540835 -0.51288843 4 2 25685 2.28000000 1409075048 1409075048 -13.00000000
-20.54967117 -4.80096626 1.10596347 47 3 25685 21.13200000 1409075050 1409075050 3.00000000
-2.51026106 -0.58600372 -0.50106442 3 4 25686 2.62600000 1409075052 1409075052 -11.00000000
-20.50899887 -4.78391504 1.84247243 38 5 25687 21.14000000 1409075055 1409075055 5.00000000
-3.00884366 -0.70128709 -0.48932701 2 6 25688 3.12800000 1409075057 1409075057 -9.00000000
-20.49934959 -4.77411938 2.58436131 85 7 25689 21.20600000 1409075059 1409075059 7.00000000
-3.75279188 -0.87330204 -0.47309679 7 8 25690 3.88200000 1409075062 1409075062 -7.00000000
-18.21037102 -4.23768616 2.96130443 59 9 25690 18.93000000 1409075064 1409075064 9.00000000
-4.96021986 -1.15336680 -0.44554016 6 10 25691 5.11200000 1409075066 1409075066 -5.00000000
-12.68631649 -2.94753051 2.53165364 43 11 25692 13.26800000 1409075068 1409075068 11.00000000
-11.89306259 -2.75885105 2.81863666 48 13 25694 12.53000000 1409075073 1409075073 13.00000000
-13.91686916 -3.22575712 -0.24935998 4 14 25695 14.28800000 1409075075 1409075075 -1.00000000
-10.01618767 -2.31978583 2.75486994 35 15 25696 10.64400000 1409075078 1409075078 15.00000000
-1.87488461 -0.43250656 -0.51556754 4 0 25701 1.99200000 1409075098 1409075098 -15.00000000
-20.54604149 -4.73587370 0.36803636 18 1 25702 21.08800000 1409075101 1409075101 1.00000000
-2.15349245 -0.49598539 -0.51018900 4 2 25703 2.26800000 1409075103 1409075103 -13.00000000
-20.54908180 -4.73279762 1.10512602 40 3 25703 21.11600000 1409075105 1409075105 3.00000000
-2.52739549 -0.58163702 -0.50411737 3 4 25704 2.64200000 1409075108 1409075108 -11.00000000
-20.52975273 -4.72079992 1.84299529 63 5 25705 21.14600000 1409075110 1409075110 5.00000000
-3.03028393 -0.69625455 -0.49245569 3 6 25706 3.14800000 1409075112 1409075112 -9.00000000
-20.50070190 -4.70658636 2.58265519 87 7 25707 21.19200000 1409075114 1409075114 7.00000000
-3.75551701 -0.86150801 -0.47309679 7 8 25708 3.88200000 1409075117 1409075117 -7.00000000
-18.27557945 -4.19238091 2.96975183 51 9 25708 18.98400000 1409075119 1409075119 9.00000000
-4.95993471 -1.13688791 -0.44519153 6 10 25709 5.10800000 1409075121 1409075121 -5.00000000
-12.68785858 -2.90590763 2.53012729 43 11 25710 13.26000000 1409075124 1409075124 11.00000000
-7.48788691 -1.71357965 -0.40256816 8 12 25711 7.69200000 1409075126 1409075126 -3.00000000
-11.89027214 -2.71886802 2.81593728 47 13 25712 12.51800000 1409075128 1409075128 13.00000000
-13.94253063 -3.18558335 -0.24963923 4 14 25713 14.30400000 1409075131 1409075131 -1.00000000
-10.03056049 -2.29177809 2.75694036 33 15 25713 10.65200000 1409075133 1409075133 15.00000000
-1.88768637 -0.42852536 -0.51867336 4 0 25721 2.00400000 1409075154 1409075154 -15.00000000
-20.54684639 -4.66058683 0.36775711 18 1 25722 21.07200000 1409075156 1409075156 1.00000000
-2.15140963 -0.48760378 -0.50928921 4 2 25723 2.26400000 1409075158 1409075158 -13.00000000
-20.54210281 -4.65574169 1.10387003 40 3 25723 21.09200000 1409075161 1409075161 3.00000000
-2.52941036 -0.57281125 -0.50411737 3 4 25724 2.64200000 1409075163 1409075163 -11.00000000
-20.52473068 -4.64427233 1.84107792 76 5 25725 21.12400000 1409075165 1409075165 5.00000000
-3.00572157 -0.67957389 -0.48807552 2 6 25726 3.12000000 1409075167 1409075167 -9.00000000
-20.49570656 -4.63018513 2.57997394 85 7 25727 21.17000000 1409075170 1409075170 7.00000000
-3.76624680 -0.85014188 -0.47407174 7 8 25728 3.89000000 1409075172 1409075172 -7.00000000
-18.31515121 -4.13421583 2.97381926 17 9 25728 19.01000000 1409075174 1409075174 9.00000000
-4.96387339 -1.11956751 -0.44519153 6 10 25729 5.10800000 1409075177 1409075177 -5.00000000
-12.69026375 -2.85987449 2.52860069 43 11 25730 13.25200000 1409075179 1409075179 11.00000000
-7.55617380 -1.70147157 -0.40591767 12 12 25731 7.75600000 1409075181 1409075181 -3.00000000
-11.89969063 -2.67734671 2.81593728 47 13 25732 12.51800000 1409075184 1409075184 13.00000000
-13.98478127 -3.14391327 -0.25019771 4 14 25733 14.33600000 1409075186 1409075186 -1.00000000
-10.03889275 -2.25499892 2.75694036 28 15 25734 10.65200000 1409075188 1409075188 15.00000000
-1.89490080 -0.42286608 -0.52022630 5 0 25742 2.01000000 1409075209 1409075209 -15.00000000
-20.55403137 -4.58307171 0.36758259 18 1 25743 21.06200000 1409075211 1409075211 1.00000000
-2.15698647 -0.48056275 -0.51018900 4 2 25744 2.26800000 1409075214 1409075214 -13.00000000
-20.53643417 -4.57162380 1.10261393 43 3 25745 21.06800000 1409075216 1409075216 3.00000000
-2.52766013 -0.56268340 -0.50335413 3 4 25745 2.63800000 1409075218 1409075218 -11.00000000
-20.51827621 -4.56382322 1.83898616 25 5 25746 21.10000000 1409075220 1409075220 5.00000000
-3.01976204 -0.67112416 -0.48995274 2 6 25747 3.13200000 1409075223 1409075223 -9.00000000
-20.50285149 -4.55288172 2.57875538 87 7 25748 21.16000000 1409075225 1409075225 7.00000000
-3.76158547 -0.83461225 -0.47309679 7 8 25749 3.88200000 1409075227 1409075227 -7.00000000
-15.49531841 -3.43806696 2.51390195 8 9 25749 16.07000000 1409075230 1409075230 9.00000000
-4.99517536 -1.10740376 -0.44763190 6 10 25750 5.13600000 1409075232 1409075232 -5.00000000
-12.70449448 -2.81419230 2.52936411 40 11 25751 13.25600000 1409075234 1409075234 11.00000000
-7.67156315 -1.69793522 -0.41177931 28 12 25752 7.86800000 1409075237 1409075237 -3.00000000
-11.90181255 -2.63203096 2.81413770 47 13 25753 12.51000000 1409075239 1409075239 13.00000000
-13.96692181 -3.08616352 -0.24967413 7 14 25754 14.30600000 1409075241 1409075241 -1.00000000
-10.05613422 -2.22202682 2.75952864 33 15 25754 10.66200000 1409075244 1409075244 15.00000000
-1.89259148 -0.41542068 -0.51919103 5 0 25762 2.00600000 1409075264 1409075264 -15.00000000
-20.55623055 -4.50829840 0.36733824 18 1 25763 21.04800000 1409075267 1409075267 1.00000000
-2.16436148 -0.47428194 -0.51153868 4 2 25764 2.27400000 1409075269 1409075269 -13.00000000
-20.53861046 -4.49692011 1.10188127 40 3 25765 21.05400000 1409075271 1409075271 3.00000000
-2.52960896 -0.55385685 -0.50335413 4 4 25765 2.63800000 1409075273 1409075273 -11.00000000
-20.51851082 -4.48876667 1.83759165 82 5 25766 21.08400000 1409075276 1409075276 5.00000000
-3.04138446 -0.66479743 -0.49308142 3 6 25767 3.15200000 1409075278 1409075278 -9.00000000
-20.51473999 -4.48043871 2.57826781 90 7 25768 21.15600000 1409075280 1409075280 7.00000000
-3.76835489 -0.82232320 -0.47358426 7 8 25769 3.88600000 1409075283 1409075283 -7.00000000
-18.30829430 -3.99185348 2.96787477 29 9 25770 18.97200000 1409075285 1409075285 9.00000000
-4.96007776 -1.08147180 -0.44414568 6 10 25770 5.09600000 1409075287 1409075287 -5.00000000
-12.69313908 -2.76523137 2.52516627 37 11 25771 13.23400000 1409075290 1409075290 11.00000000
-11.91473579 -2.59129810 2.81503749 48 13 25773 12.51400000 1409075294 1409075294 13.00000000
-13.98737907 -3.03951430 -0.24984865 4 14 25774 14.31600000 1409075297 1409075297 -1.00000000
-10.04722023 -2.18146539 2.75486994 33 15 25775 10.64400000 1409075299 1409075299 15.00000000
-1.88081145 -0.40595865 -0.51556754 4 0 25782 1.99200000 1409075320 1409075320 -15.00000000
-20.54447556 -4.43061399 0.36684957 18 1 25783 21.02000000 1409075322 1409075322 1.00000000
-2.16600394 -0.46672401 -0.51153868 4 2 25784 2.27400000 1409075324 1409075324 -13.00000000
-20.54051399 -4.42225695 1.10114849 40 3 25785 21.04000000 1409075326 1409075326 3.00000000
-2.52576900 -0.54378384 -0.50220925 4 4 25785 2.63200000 1409075329 1409075329 -11.00000000
-20.51847267 -4.41376448 1.83619714 87 5 25786 21.06800000 1409075331 1409075331 5.00000000
-3.02051115 -0.64919591 -0.48932701 2 6 25787 3.12800000 1409075333 1409075333 -9.00000000
-20.49920082 -4.40213299 2.57436800 87 7 25788 21.12400000 1409075336 1409075336 7.00000000
-3.78090692 -0.81124645 -0.47480297 7 8 25789 3.89600000 1409075338 1409075338 -7.00000000
-18.32143021 -3.93111920 2.96787477 42 9 25789 18.97200000 1409075340 1409075340 9.00000000
-4.95992613 -1.06331599 -0.44379705 6 10 25790 5.09200000 1409075343 1409075343 -5.00000000
-12.70463467 -2.72131848 2.52554798 40 11 25791 13.23600000 1409075345 1409075345 11.00000000
-11.92370892 -2.54969215 2.81503749 50 13 25793 12.51400000 1409075350 1409075350 13.00000000
-14.00963783 -2.99317741 -0.25005808 4 14 25794 14.32800000 1409075352 1409075352 -1.00000000
-10.06006718 -2.14934659 2.75642276 30 15 25794 10.65000000 1409075354 1409075354 15.00000000
-1.88977611 -0.40099490 -0.51763809 4 0 25802 2.00000000 1409075375 1409075375 -15.00000000
-20.55199051 -4.35721445 0.36670998 13 1 25803 21.01200000 1409075377 1409075377 1.00000000
-2.17524552 -0.46077573 -0.51333833 4 2 25804 2.28200000 1409075379 1409075379 -13.00000000
-20.54019356 -4.34722185 1.10031116 37 3 25805 21.02400000 1409075382 1409075382 3.00000000
-2.53917599 -0.53740299 -0.50449896 4 4 25805 2.64400000 1409075384 1409075384 -11.00000000
-20.52400780 -4.34005356 1.83532560 93 5 25806 21.05800000 1409075386 1409075386 5.00000000
-3.01889348 -0.63783169 -0.48870125 2 6 25807 3.12400000 1409075389 1409075389 -9.00000000
-20.48919296 -4.32522011 2.57119942 95 7 25808 21.09800000 1409075391 1409075391 7.00000000
-3.78177333 -0.79763401 -0.47455922 7 8 25809 3.89400000 1409075393 1409075393 -7.00000000
-18.34538078 -3.86597800 2.96943903 42 9 25810 18.98200000 1409075396 1409075396 9.00000000
-4.98700237 -1.05092621 -0.44588879 6 10 25810 5.11600000 1409075398 1409075398 -5.00000000
-12.70252895 -2.67452741 2.52325821 43 11 25811 13.22400000 1409075400 1409075400 11.00000000
-11.93253613 -2.50805521 2.81503749 47 13 25813 12.51400000 1409075405 1409075405 13.00000000
-14.05131245 -2.95083213 -0.25061655 4 14 25814 14.36000000 1409075407 1409075407 -1.00000000
-10.06598663 -2.11206341 2.75590515 35 15 25815 10.64800000 1409075409 1409075409 15.00000000
-1.89676881 -0.39591017 -0.51919103 4 0 25821 2.00600000 1409075430 1409075430 -15.00000000
-20.54087830 -4.28373051 0.36625621 17 1 25822 20.98600000 1409075432 1409075432 1.00000000
-2.16149950 -0.45037976 -0.50973910 4 2 25823 2.26600000 1409075435 1409075435 -13.00000000
-20.52907753 -4.27379227 1.09895039 13 3 25824 20.99800000 1409075437 1409075437 3.00000000
-2.54286623 -0.52937996 -0.50488061 3 4 25824 2.64600000 1409075439 1409075439 -11.00000000
-20.51292801 -4.26669502 1.83305955 18 5 25825 21.03200000 1409075442 1409075442 5.00000000
-3.02872825 -0.62942493 -0.48995274 2 6 25826 3.13200000 1409075444 1409075444 -9.00000000
-20.50147820 -4.25684834 2.57095575 20 7 25827 21.09600000 1409075446 1409075446 7.00000000
-3.78051019 -0.78428239 -0.47407174 7 8 25828 3.89000000 1409075449 1409075449 -7.00000000
-18.36323738 -3.80952907 2.97037768 29 9 25828 18.98800000 1409075451 1409075451 9.00000000
-5.00216532 -1.03680921 -0.44693464 6 10 25829 5.12800000 1409075453 1409075453 -5.00000000
-12.71517372 -2.63318586 2.52402139 43 11 25830 13.22800000 1409075455 1409075455 11.00000000
-11.92933750 -2.46610451 2.81233811 47 13 25832 12.50200000 1409075460 1409075460 13.00000000
-14.07277107 -2.90664697 -0.25082597 4 14 25833 14.37200000 1409075462 1409075462 -1.00000000
-10.07257175 -2.08042979 2.75590515 35 15 25833 10.64800000 1409075465 1409075465 15.00000000
-1.90192413 -0.39006305 -0.52022630 5 0 25841 2.01000000 1409075485 1409075485 -15.00000000
-20.77315521 -4.25656033 0.37013063 4 1 25842 21.20800000 1409075488 1409075488 1.00000000
-2.17451334 -0.44517705 -0.51243848 4 2 25843 2.27800000 1409075490 1409075490 -13.00000000
-20.81781387 -4.25814009 1.11360443 3 3 25844 21.27800000 1409075492 1409075492 3.00000000
-2.53123450 -0.51774651 -0.50220925 4 4 25844 2.63200000 1409075495 1409075495 -11.00000000
-20.82245636 -4.25530291 1.85938060 6 5 25845 21.33400000 1409075497 1409075497 5.00000000
-3.03864861 -0.62042958 -0.49120423 2 6 25846 3.14000000 1409075499 1409075499 -9.00000000
-3.77349925 -0.76909894 -0.47285306 7 8 25848 3.88000000 1409075504 1409075504 -7.00000000
-18.34610558 -3.73589206 2.96537161 42 9 25849 18.95600000 1409075506 1409075506 9.00000000
-4.99794483 -1.01775181 -0.44623742 6 10 25849 5.12000000 1409075508 1409075508 -5.00000000
-12.73583031 -2.59113407 2.52631116 46 11 25850 13.24000000 1409075511 1409075511 11.00000000
-7.41008425 -1.50625181 -0.39628786 12 12 25851 7.57200000 1409075513 1409075513 -3.00000000
-11.92641449 -2.42212129 2.80963874 48 13 25852 12.49000000 1409075515 1409075515 13.00000000
-14.06323338 -2.85352969 -0.25047693 4 14 25853 14.35200000 1409075518 1409075518 -1.00000000
-10.08580971 -2.04464936 2.75745821 38 15 25854 10.65400000 1409075520 1409075520 15.00000000
-1.90334105 -0.38308951 -0.52022630 5 0 25862 2.01000000 1409075541 1409075541 -15.00000000
-21.17678642 -4.25845146 0.37704179 4 1 25863 21.60400000 1409075543 1409075543 1.00000000
-2.17995143 -0.43797177 -0.51333833 4 2 25864 2.28200000 1409075545 1409075545 -13.00000000
-21.14659309 -4.24470043 1.13035202 3 3 25865 21.59800000 1409075548 1409075548 3.00000000
-2.53888988 -0.50962472 -0.50335413 3 4 25865 2.63800000 1409075550 1409075550 -11.00000000
-21.15437889 -4.24242210 1.88761902 6 5 25866 21.65800000 1409075552 1409075552 5.00000000
-3.04090214 -0.60928816 -0.49120423 2 6 25867 3.14000000 1409075555 1409075555 -9.00000000
-21.17375183 -4.23861980 2.65138936 5 7 25868 21.75600000 1409075557 1409075557 7.00000000
-3.78213239 -0.75643110 -0.47358426 7 8 25869 3.88600000 1409075559 1409075559 -7.00000000
-18.34934998 -3.66989255 2.96380734 42 9 25869 18.94600000 1409075561 1409075561 9.00000000
-5.00554895 -1.00020742 -0.44658601 6 10 25870 5.12400000 1409075564 1409075564 -5.00000000
-12.74139118 -2.54366875 2.52554798 43 11 25871 13.23600000 1409075566 1409075566 11.00000000
-7.32349730 -1.46072090 -0.39136827 7 12 25872 7.47800000 1409075568 1409075568 -3.00000000
-11.93903446 -2.37915421 2.81053853 48 13 25873 12.49400000 1409075571 1409075571 13.00000000
-14.11282158 -2.80977559 -0.25117505 4 14 25874 14.39200000 1409075573 1409075573 -1.00000000
-10.08151722 -2.00716758 2.75435233 40 15 25874 10.64200000 1409075575 1409075575 15.00000000
-1.89708591 -0.37494498 -0.51815575 5 0 25882 2.00200000 1409075596 1409075596 -15.00000000
-22.60991287 -4.46458197 0.40227798 4 1 25883 23.05000000 1409075598 1409075598 1.00000000
-2.18146706 -0.43035966 -0.51333833 4 2 25884 2.28200000 1409075601 1409075601 -13.00000000
-22.63682938 -4.46168756 1.20916998 3 3 25885 23.10400000 1409075603 1409075603 3.00000000
-2.54835796 -0.50227785 -0.50488061 3 4 25885 2.64600000 1409075605 1409075605 -11.00000000
-22.66451645 -4.46303558 2.02096725 28 5 25886 23.18800000 1409075608 1409075608 5.00000000
-3.04301047 -0.59866977 -0.49120423 2 6 25887 3.14000000 1409075610 1409075610 -9.00000000
-22.42918205 -4.40856171 2.80665088 52 7 25888 23.03000000 1409075612 1409075612 7.00000000
-3.79643726 -0.74551952 -0.47504669 7 8 25889 3.89800000 1409075614 1409075614 -7.00000000
-18.35880089 -3.60185361 2.96318173 42 9 25890 18.94200000 1409075617 1409075617 9.00000000
-4.98945904 -0.97889292 -0.44484290 6 10 25890 5.10400000 1409075619 1409075619 -5.00000000
-12.73478031 -2.49615645 2.52249503 43 11 25891 13.22000000 1409075621 1409075621 11.00000000
-7.57551527 -1.48351097 -0.40455693 16 12 25892 7.73000000 1409075624 1409075624 -3.00000000
-11.94726658 -2.33746481 2.81053853 47 13 25893 12.49400000 1409075626 1409075626 13.00000000
-14.13824368 -2.76356435 -0.25145426 4 14 25894 14.40800000 1409075628 1409075628 -1.00000000
-10.08501434 -1.96946299 2.75331712 40 15 25895 10.63800000 1409075631 1409075631 15.00000000
-1.90407264 -0.36942452 -0.51970863 5 0 25902 2.00800000 1409075651 1409075651 -15.00000000
-22.95320702 -4.44918013 0.40810707 4 1 25903 23.38400000 1409075654 1409075654 1.00000000
-2.17912960 -0.42200130 -0.51243848 4 2 25904 2.27800000 1409075656 1409075656 -13.00000000
-22.94836235 -4.43993044 1.22497535 3 3 25905 23.40600000 1409075658 1409075658 3.00000000
-2.54624081 -0.49263349 -0.50411737 3 4 25905 2.64200000 1409075661 1409075661 -11.00000000
-22.99490356 -4.44477129 2.04903150 28 5 25906 23.51000000 1409075663 1409075663 5.00000000
-3.03732347 -0.58654583 -0.48995274 2 6 25907 3.13200000 1409075665 1409075665 -9.00000000
-22.74460220 -4.38815451 2.84418678 49 7 25908 23.33800000 1409075667 1409075667 7.00000000
-3.80876255 -0.73414147 -0.47626540 7 8 25909 3.90800000 1409075670 1409075670 -7.00000000
-18.38228226 -3.54319692 2.96505880 42 9 25909 18.95400000 1409075672 1409075672 9.00000000
-5.00458431 -0.96373099 -0.44588879 6 10 25910 5.11600000 1409075674 1409075674 -5.00000000
-12.73570442 -2.45020485 2.52096844 46 11 25911 13.21200000 1409075677 1409075677 11.00000000
-11.95535278 -2.29574680 2.81053853 46 13 25913 12.49400000 1409075681 1409075681 13.00000000
-14.16351604 -2.71720982 -0.25173351 4 14 25914 14.42400000 1409075684 1409075684 -1.00000000
-10.09528351 -1.93673706 2.75435233 40 15 25914 10.64200000 1409075686 1409075686 15.00000000
-1.90345275 -0.36241448 -0.51919103 5 0 25922 2.00600000 1409075707 1409075707 -15.00000000
-23.35559845 -4.44264603 0.41498333 4 1 25923 23.77800000 1409075709 1409075709 1.00000000
-2.18058944 -0.41439214 -0.51243848 4 2 25924 2.27800000 1409075711 1409075711 -13.00000000
-23.35027504 -4.43318796 1.24559581 11 3 25925 23.80000000 1409075714 1409075714 3.00000000
-2.55180240 -0.48447484 -0.50488061 3 4 25925 2.64600000 1409075716 1409075716 -11.00000000
-23.39003181 -4.43650675 2.08284783 29 5 25926 23.89800000 1409075718 1409075718 5.00000000
-3.03158903 -0.57446891 -0.48870125 2 6 25927 3.12400000 1409075720 1409075720 -9.00000000
-23.12646675 -4.37815237 2.89000964 43 7 25928 23.71400000 1409075723 1409075723 7.00000000
-3.79179668 -0.71715289 -0.47382802 7 8 25929 3.88800000 1409075725 1409075725 -7.00000000
-18.39842033 -3.47974348 2.96568465 42 9 25929 18.95800000 1409075727 1409075727 9.00000000
-5.01379108 -0.94736564 -0.44641173 6 10 25930 5.12200000 1409075730 1409075730 -5.00000000
-12.74417973 -2.40573406 2.52096844 46 11 25931 13.21200000 1409075732 1409075732 11.00000000
-7.70540953 -1.45316672 -0.41094193 70 12 25932 7.85200000 1409075734 1409075734 -3.00000000
-11.94797325 -2.25111437 2.80693936 44 13 25933 12.47800000 1409075737 1409075737 13.00000000
-14.18274021 -2.66960311 -0.25190803 7 14 25934 14.43400000 1409075739 1409075739 -1.00000000
-10.10577965 -1.90220082 2.75538754 38 15 25934 10.64600000 1409075741 1409075741 15.00000000
-1.91793680 -0.35858566 -0.52281445 4 0 25941 2.02000000 1409075762 1409075762 -15.00000000
-23.77513695 -4.44080687 0.42217371 4 1 25942 24.19000000 1409075764 1409075764 1.00000000
-2.18578291 -0.40787372 -0.51333833 4 2 25943 2.28200000 1409075767 1409075767 -13.00000000
-23.75753403 -4.42893696 1.26653016 19 3 25944 24.20000000 1409075769 1409075769 3.00000000
-2.55339503 -0.47601008 -0.50488061 3 4 25944 2.64600000 1409075771 1409075771 -11.00000000
-23.79243851 -4.43114758 2.11736155 29 5 25945 24.29400000 1409075773 1409075773 5.00000000
-3.06066608 -0.56947136 -0.49308142 3 6 25946 3.15200000 1409075776 1409075776 -9.00000000
-23.52338219 -4.37254238 2.93778229 46 7 25947 24.10600000 1409075778 1409075778 7.00000000
-3.79415417 -0.70457488 -0.47382802 7 8 25948 3.88800000 1409075780 1409075780 -7.00000000
-18.39491653 -3.41261721 2.96318173 42 9 25949 18.94200000 1409075783 1409075783 9.00000000
-5.01298714 -0.93000722 -0.44606310 6 10 25949 5.11800000 1409075785 1409075785 -5.00000000
-12.76173878 -2.36524844 2.52287650 50 11 25950 13.22200000 1409075787 1409075787 11.00000000
-11.94004250 -2.20864534 2.80333996 44 13 25952 12.46200000 1409075792 1409075792 13.00000000
-14.19741440 -2.62364674 -0.25201276 2 14 25953 14.44000000 1409075794 1409075794 -1.00000000
-10.10823250 -1.86797631 2.75435233 40 15 25953 10.64200000 1409075796 1409075796 15.00000000
-1.90587556 -0.34944978 -0.51919103 5 0 25961 2.00600000 1409075817 1409075817 -15.00000000
-24.16814995 -4.42696571 0.42887545 4 1 25962 24.57400000 1409075820 1409075820 1.00000000
-2.18719339 -0.40024140 -0.51333833 4 2 25963 2.28200000 1409075822 1409075822 -13.00000000
-24.16382408 -4.41745615 1.28735983 27 3 25964 24.59800000 1409075824 1409075824 3.00000000
-2.55504107 -0.46709418 -0.50488061 3 4 25964 2.64600000 1409075826 1409075826 -11.00000000
-24.18995667 -4.41787052 2.15135241 30 5 25965 24.68400000 1409075829 1409075829 5.00000000
-3.06263518 -0.55878419 -0.49308142 3 6 25966 3.15200000 1409075831 1409075831 -9.00000000
-23.92908669 -4.36159611 2.98653007 46 7 25967 24.50600000 1409075833 1409075833 7.00000000
-3.80440235 -0.69274902 -0.47480297 7 8 25968 3.89600000 1409075836 1409075836 -7.00000000
-18.39894295 -3.34697199 2.96193027 46 9 25969 18.93400000 1409075838 1409075838 9.00000000
-5.00836182 -0.91107661 -0.44536585 6 10 25969 5.11000000 1409075840 1409075840 -5.00000000
-12.76798534 -2.32033634 2.52249503 50 11 25970 13.22000000 1409075843 1409075843 11.00000000
-7.40463114 -1.34431458 -0.39440376 8 12 25971 7.53600000 1409075845 1409075845 -3.00000000
-11.94767952 -2.16695333 2.80333996 45 13 25972 12.46200000 1409075847 1409075847 13.00000000
-14.20648575 -2.57407260 -0.25201276 4 14 25973 14.44000000 1409075849 1409075849 -1.00000000
-10.11501122 -1.83091521 2.75435233 38 15 25974 10.64200000 1409075852 1409075852 15.00000000
-1.90328097 -0.34211138 -0.51815575 5 0 25981 2.00200000 1409075873 1409075873 -15.00000000
-24.55938530 -4.41008091 0.43554226 4 1 25982 24.95600000 1409075875 1409075875 1.00000000
-2.19624949 -0.39398059 -0.51513791 4 2 25983 2.29000000 1409075877 1409075877 -13.00000000
-24.58407974 -4.40565777 1.30892229 28 3 25984 25.01000000 1409075879 1409075879 3.00000000
-2.54506111 -0.45609468 -0.50259089 3 4 25984 2.63400000 1409075882 1409075882 -11.00000000
-24.59747124 -4.40362692 2.18621469 23 5 25985 25.08400000 1409075884 1409075884 5.00000000
-3.05678916 -0.54669911 -0.49182996 3 6 25986 3.14400000 1409075886 1409075886 -9.00000000
-24.35453606 -4.35136127 3.03771520 42 7 25987 24.92600000 1409075889 1409075889 7.00000000
-3.80679727 -0.67946494 -0.47480297 7 8 25988 3.89600000 1409075891 1409075891 -7.00000000
-18.40273476 -3.28134036 2.96067858 42 9 25989 18.92600000 1409075893 1409075893 9.00000000
-4.99974298 -0.89149016 -0.44431996 9 10 25989 5.09800000 1409075896 1409075896 -5.00000000
-12.76441002 -2.27368784 2.52020526 50 11 25990 13.20800000 1409075898 1409075898 11.00000000
-7.38961458 -1.31496024 -0.39335704 8 12 25991 7.51600000 1409075900 1409075900 -3.00000000
-11.96284485 -2.12659931 2.80513954 45 13 25992 12.47000000 1409075902 1409075902 13.00000000
-14.23507309 -2.52796364 -0.25236180 4 14 25993 14.46000000 1409075905 1409075905 -1.00000000
-10.10771275 -1.79499805 2.75072885 40 15 25993 10.62800000 1409075907 1409075907 15.00000000
-1.91587889 -0.33747637 -0.52126157 5 0 26001 2.01400000 1409075928 1409075928 -15.00000000
-24.99805832 -4.39883566 0.44304678 5 1 26002 25.38600000 1409075930 1409075930 1.00000000
-2.18609548 -0.38428751 -0.51243848 4 2 26003 2.27800000 1409075932 1409075932 -13.00000000
-25.02814865 -4.39512396 1.33174074 24 3 26004 25.44600000 1409075935 1409075935 3.00000000
-2.54663777 -0.44720799 -0.50259089 3 4 26004 2.63400000 1409075937 1409075937 -11.00000000
-25.02872658 -4.39072227 2.22316861 31 5 26005 25.50800000 1409075939 1409075939 5.00000000
-3.06646156 -0.53738952 -0.49308142 3 6 26006 3.15200000 1409075942 1409075942 -9.00000000
-24.77042389 -4.33649731 3.08768177 48 7 26007 25.33600000 1409075944 1409075944 7.00000000
-3.82283378 -0.66856647 -0.47650912 7 8 26008 3.91000000 1409075946 1409075946 -7.00000000
-18.39461899 -3.21368313 2.95755005 42 9 26009 18.90600000 1409075949 1409075949 9.00000000
-5.02637625 -0.87814713 -0.44641173 6 10 26009 5.12200000 1409075951 1409075951 -5.00000000
-12.76646709 -2.22810531 2.51906037 50 11 26010 13.20200000 1409075953 1409075953 11.00000000
-7.38038683 -1.28675640 -0.39262435 8 12 26011 7.50200000 1409075955 1409075955 -3.00000000
-11.97019577 -2.08482814 2.80513954 43 13 26012 12.47000000 1409075958 1409075958 13.00000000
-14.25563145 -2.48031521 -0.25257123 4 14 26013 14.47200000 1409075960 1409075960 -1.00000000
-10.12152958 -1.76102924 2.75279927 40 15 26013 10.63600000 1409075962 1409075962 15.00000000
-1.90568030 -0.32848313 -0.51815575 4 0 26022 2.00200000 1409075983 1409075983 -15.00000000
-25.46924400 -4.38557005 0.45110980 5 1 26023 25.84800000 1409075985 1409075985 1.00000000
-2.19133043 -0.37693319 -0.51333833 4 2 26024 2.28200000 1409075988 1409075988 -13.00000000
-25.47440720 -4.38188124 1.35466385 20 3 26024 25.88400000 1409075990 1409075990 3.00000000
-2.56373882 -0.44053090 -0.50564384 3 4 26025 2.65000000 1409075992 1409075992 -11.00000000
-25.51200485 -4.37917995 2.26465487 32 5 26026 25.98400000 1409075995 1409075995 5.00000000
-3.07619858 -0.52748215 -0.49433291 3 6 26027 3.16000000 1409075997 1409075997 -9.00000000
-24.88789558 -4.26310778 3.10035610 39 7 26028 25.44000000 1409075999 1409075999 7.00000000
-3.81938863 -0.65354615 -0.47577792 7 8 26029 3.90400000 1409076001 1409076001 -7.00000000
-16.85000801 -2.88325167 2.70756769 8 9 26029 17.30800000 1409076004 1409076004 9.00000000
-5.03545284 -0.86072570 -0.44693464 6 10 26030 5.12800000 1409076006 1409076006 -5.00000000
-12.76487160 -2.17964649 2.51715231 46 11 26031 13.19200000 1409076008 1409076008 11.00000000
-7.36536503 -1.25633895 -0.39157763 7 12 26032 7.48200000 1409076011 1409076011 -3.00000000
-11.96238804 -2.03832245 2.80154037 43 13 26033 12.45400000 1409076013 1409076013 13.00000000
-14.30011082 -2.43408895 -0.25319952 4 14 26034 14.50800000 1409076015 1409076015 -1.00000000
-10.12220287 -1.72294760 2.75124645 40 15 26034 10.63000000 1409076018 1409076018 15.00000000
-1.92205465 -0.32440114 -0.52229685 5 0 26042 2.01800000 1409076038 1409076038 -15.00000000
-25.90637589 -4.36778402 0.45857942 5 1 26043 26.27600000 1409076041 1409076041 1.00000000
-2.18878961 -0.36863443 -0.51243848 4 2 26044 2.27800000 1409076043 1409076043 -13.00000000
-25.91966629 -4.36072063 1.37748241 17 3 26045 26.32000000 1409076045 1409076045 3.00000000
-2.56138897 -0.43092766 -0.50488061 3 4 26045 2.64600000 1409076048 1409076048 -11.00000000
-25.97511673 -4.36538792 2.30439782 24 5 26046 26.44000000 1409076050 1409076050 5.00000000
-3.06633234 -0.51477867 -0.49245569 3 6 26047 3.14800000 1409076052 1409076052 -9.00000000
