# .PCD v0.7 - Point Cloud Data file format
VERSION 0.7
FIELDS x y z intensity laser_id azimuth distance_m adjustedtime timestamp vertical_angle
SIZE 4 4 4 1 1 2 8 8 4 8
TYPE F F F U U U F U U F
COUNT 1 1 1 1 1 1 1 1 1 1
WIDTH 528
HEIGHT 1
VIEWPOINT 0 0 0 1 0 0 0
POINTS 528
DATA ascii
4.40238285 -5.30081320 -0.36111811 10 12 14029 6.90000000 1409442789 1409442789 -3.00000000
4.37420082 -5.26875019 1.58095598 68 13 14030 7.02800000 1409442792 1409442792 13.00000000
4.39185238 -5.29189062 -0.12003765 8 14 14031 6.87800000 1409442794 1409442794 -1.00000000
4.35420465 -5.24839163 1.82726240 47 15 14032 7.06000000 1409442796 1409442796 15.00000000
1.34072101 -1.62122929 -0.56370789 22 0 14041 2.17800000 1409442817 1409442817 -15.00000000
4.37149143 -5.28798294 0.11975841 11 1 14042 6.86200000 1409442819 1409442819 1.00000000
1.41269875 -1.70948112 -0.51198858 1 2 14043 2.27600000 1409442822 1409442822 -13.00000000
4.38340235 -5.30616093 0.36069942 10 3 14044 6.89200000 1409442824 1409442824 3.00000000
1.80803370 -2.18864655 -0.55181962 3 4 14044 2.89200000 1409442826 1409442826 -11.00000000
4.36671591 -5.28784180 0.59998012 20 5 14045 6.88400000 1409442828 1409442828 5.00000000
2.22336245 -2.69332099 -0.55315226 3 6 14046 3.53600000 1409442831 1409442831 -9.00000000
2.87885237 -3.48984456 -0.55548048 8 8 14048 4.55800000 1409442835 1409442835 -7.00000000
4.35685253 -5.28152704 1.08440375 57 9 14048 6.93200000 1409442838 1409442838 9.00000000
3.97514272 -4.82051945 -0.54664081 11 10 14049 6.27200000 1409442840 1409442840 -5.00000000
4.34201956 -5.26729107 1.32688570 65 11 14050 6.95400000 1409442842 1409442842 11.00000000
4.36929512 -5.30226421 -0.36007139 10 12 14051 6.88000000 1409442845 1409442845 -3.00000000
4.34650373 -5.27648258 1.57825661 68 13 14052 7.01600000 1409442847 1409442847 13.00000000
4.36387348 -5.29945326 -0.11982822 8 14 14053 6.86600000 1409442849 1409442849 -1.00000000
4.32265902 -5.24940205 1.82208610 47 15 14053 7.04000000 1409442852 1409442852 15.00000000
1.34731317 -1.64082968 -0.56888425 21 0 14061 2.19800000 1409442872 1409442872 -15.00000000
4.34285688 -5.29084444 0.11947917 11 1 14062 6.84600000 1409442875 1409442875 1.00000000
1.39065325 -1.69481742 -0.50613987 1 2 14063 2.25000000 1409442877 1409442877 -13.00000000
4.34712029 -5.29981041 0.35923401 10 3 14064 6.86400000 1409442879 1409442879 3.00000000
1.80536318 -2.20101619 -0.55334610 3 4 14064 2.90000000 1409442881 1409442881 -11.00000000
4.34317827 -5.29688931 0.59928286 13 5 14065 6.87600000 1409442884 1409442884 5.00000000
2.22772193 -2.71787095 -0.55659384 1 6 14066 3.55800000 1409442886 1409442886 -9.00000000
3.02075481 -3.68670106 0.58521658 6 7 14067 4.80200000 1409442888 1409442888 7.00000000
2.85784793 -3.48912239 -0.55377430 8 8 14068 4.54400000 1409442891 1409442891 -7.00000000
4.32870531 -5.28676176 1.08221364 65 9 14069 6.91800000 1409442893 1409442893 9.00000000
3.95702958 -4.83282423 -0.54646653 11 10 14069 6.27000000 1409442895 1409442895 -5.00000000
4.31117201 -5.26722288 1.32306957 62 11 14070 6.93400000 1409442898 1409442898 11.00000000
4.33558321 -5.29893446 -0.35881531 10 12 14071 6.85600000 1409442900 1409442900 -3.00000000
4.30585098 -5.26447058 1.57015836 68 13 14072 6.98000000 1409442902 1409442902 13.00000000
4.33142519 -5.29762459 -0.11944427 8 14 14073 6.84400000 1409442905 1409442905 -1.00000000
4.29116440 -5.25025225 1.81690967 49 15 14074 7.02000000 1409442907 1409442907 15.00000000
1.33820164 -1.64079726 -0.56733137 14 0 14080 2.19200000 1409442928 1409442928 -15.00000000
4.31896973 -5.29746771 0.11930465 8 1 14081 6.83600000 1409442930 1409442930 1.00000000
1.44658208 -1.77494943 -0.52863497 1 2 14082 2.35000000 1409442932 1409442932 -13.00000000
4.30807590 -5.28787374 0.35745457 7 3 14083 6.83000000 1409442934 1409442934 3.00000000
1.79805434 -2.20699072 -0.55334610 3 4 14083 2.90000000 1409442937 1409442937 -11.00000000
4.30420065 -5.28499985 0.59631962 10 5 14084 6.84200000 1409442939 1409442939 5.00000000
2.20996690 -2.71451998 -0.55440372 1 6 14085 3.54400000 1409442941 1409442941 -9.00000000
2.99222350 -3.67668271 0.58204800 6 7 14086 4.77600000 1409442944 1409442944 7.00000000
2.83623981 -3.48626113 -0.55182439 8 8 14087 4.52800000 1409442946 1409442946 -7.00000000
4.29088259 -5.27428484 1.07689488 65 9 14087 6.88400000 1409442948 1409442948 9.00000000
3.92086816 -4.82118797 -0.54367751 11 10 14088 6.23800000 1409442951 1409442951 -5.00000000
4.28377390 -5.26930332 1.32001662 62 11 14089 6.91800000 1409442953 1409442953 11.00000000
4.31294918 -5.30708265 -0.35839662 10 12 14090 6.84800000 1409442955 1409442955 -3.00000000
4.26625204 -5.25149441 1.56206012 70 13 14091 6.94400000 1409442958 1409442958 13.00000000
3.05573726 -3.76276684 -0.08460927 2 14 14092 4.84800000 1409442960 1409442960 -1.00000000
4.26490593 -5.25171041 1.81276858 49 15 14092 7.00400000 1409442962 1409442962 15.00000000
1.32030845 -1.63044512 -0.56215495 5 0 14100 2.17200000 1409442983 1409442983 -15.00000000
3.03975773 -3.75512791 0.08433003 6 1 14101 4.83200000 1409442985 1409442985 1.00000000
1.47837889 -1.82694948 -0.54258192 3 2 14102 2.41200000 1409442987 1409442987 -13.00000000
3.02595210 -3.74074268 0.25215465 6 3 14103 4.81800000 1409442990 1409442990 3.00000000
1.78787017 -2.21020103 -0.55258286 3 4 14103 2.89600000 1409442992 1409442992 -11.00000000
3.02418685 -3.73989511 0.42078793 6 5 14104 4.82800000 1409442994 1409442994 5.00000000
2.19302702 -2.71300030 -0.55252653 1 6 14105 3.53200000 1409442997 1409442997 -9.00000000
4.27192926 -5.28670359 0.83456129 42 7 14106 6.84800000 1409442999 1409442999 7.00000000
2.83777452 -3.51312685 -0.55450553 8 8 14107 4.55000000 1409443001 1409443001 -7.00000000
4.25663042 -5.27153349 1.07314038 62 9 14108 6.86000000 1409443004 1409443004 9.00000000
3.86646461 -4.78834105 -0.53844815 11 10 14108 6.17800000 1409443006 1409443006 -5.00000000
4.25795603 -5.27505875 1.31772697 59 11 14109 6.90600000 1409443008 1409443008 11.00000000
4.28687239 -5.31277943 -0.35776860 10 12 14110 6.83600000 1409443010 1409443010 -3.00000000
4.23810720 -5.25422001 1.55846095 68 13 14111 6.92800000 1409443013 1409443013 13.00000000
3.04132915 -3.77185369 -0.08457436 8 14 14112 4.84600000 1409443015 1409443015 -1.00000000
4.23471785 -5.25376987 1.80810988 51 15 14113 6.98600000 1409443017 1409443017 15.00000000
1.30008304 -1.61697721 -0.55594331 4 0 14120 2.14800000 1409443038 1409443038 -15.00000000
3.02537847 -3.76415706 0.08429512 8 1 14121 4.83000000 1409443040 1409443040 1.00000000
1.48175716 -1.84425211 -0.54618114 3 2 14122 2.42800000 1409443043 1409443043 -13.00000000
3.02413201 -3.76529717 0.25309667 8 3 14123 4.83600000 1409443045 1409443045 3.00000000
1.77522671 -2.21030569 -0.55105639 3 4 14123 2.88800000 1409443047 1409443047 -11.00000000
3.00986624 -3.74887514 0.42061362 9 5 14124 4.82600000 1409443050 1409443050 5.00000000
2.19343495 -2.73296332 -0.55502951 1 6 14125 3.54800000 1409443052 1409443052 -9.00000000
4.24475336 -5.29074430 0.83285511 63 7 14126 6.83400000 1409443054 1409443054 7.00000000
2.81680012 -3.51217103 -0.55279934 8 8 14127 4.53600000 1409443057 1409443057 -7.00000000
4.22800303 -5.27175093 1.07032466 52 9 14127 6.84200000 1409443059 1409443059 9.00000000
3.83477139 -4.78315449 -0.53635645 11 10 14128 6.15400000 1409443061 1409443061 -5.00000000
4.22723866 -5.27456999 1.31391072 59 11 14129 6.88600000 1409443063 1409443063 11.00000000
4.25081825 -5.30588865 -0.35630319 10 12 14130 6.80800000 1409443066 1409443066 -3.00000000
4.20634079 -5.25225019 1.55351198 68 13 14131 6.90600000 1409443068 1409443068 13.00000000
3.01439714 -3.76527524 -0.08419041 6 14 14132 4.82400000 1409443070 1409443070 -1.00000000
4.19554043 -5.24063826 1.79879236 51 15 14132 6.95000000 1409443073 1409443073 15.00000000
1.29563606 -1.62301528 -0.55646098 4 0 14140 2.15000000 1409443093 1409443093 -15.00000000
3.00473690 -3.76531672 0.08408570 6 1 14141 4.81800000 1409443096 1409443096 1.00000000
1.52027464 -1.90577912 -0.56282753 4 2 14142 2.50200000 1409443098 1409443098 -13.00000000
2.99727273 -3.75865340 0.25194529 6 3 14143 4.81400000 1409443100 1409443100 3.00000000
1.76750052 -2.21648884 -0.55105639 3 4 14143 2.88800000 1409443103 1409443103 -11.00000000
2.98682666 -3.74689507 0.41921914 4 5 14144 4.81000000 1409443105 1409443105 5.00000000
2.17403340 -2.72824430 -0.55252653 1 6 14145 3.53200000 1409443107 1409443107 -9.00000000
4.21265411 -5.28844976 0.83017397 68 7 14146 6.81200000 1409443110 1409443110 7.00000000
2.80946946 -3.52819371 -0.55377430 8 8 14147 4.54400000 1409443112 1409443112 -7.00000000
4.19881058 -5.27484798 1.06782162 55 9 14148 6.82600000 1409443114 1409443114 9.00000000
3.82549667 -4.80586433 -0.53740233 11 10 14148 6.16600000 1409443116 1409443116 -5.00000000
4.18435287 -5.25856829 1.30627835 56 11 14149 6.84600000 1409443119 1409443119 11.00000000
4.22481155 -5.31131601 -0.35567516 10 12 14150 6.79600000 1409443121 1409443121 -3.00000000
4.18313026 -5.26079988 1.55171239 66 13 14151 6.89800000 1409443123 1409443123 13.00000000
4.20695543 -5.29265928 -0.11801317 8 14 14152 6.76200000 1409443126 1409443126 -1.00000000
4.16909313 -5.24690533 1.79568648 56 15 14153 6.93800000 1409443128 1409443128 15.00000000
1.29504776 -1.63335788 -0.55853152 4 0 14159 2.15800000 1409443149 1409443149 -15.00000000
4.19210911 -5.28912497 0.11780374 11 1 14160 6.75000000 1409443151 1409443151 1.00000000
1.51152611 -1.90775526 -0.56192774 10 2 14161 2.49800000 1409443153 1409443153 -13.00000000
4.19011736 -5.29040527 0.35368639 10 3 14162 6.75800000 1409443156 1409443156 3.00000000
1.76989210 -2.23465014 -0.55410933 3 4 14162 2.90400000 1409443158 1409443158 -11.00000000
4.18640041 -5.28760815 0.59004438 10 5 14163 6.77000000 1409443160 1409443160 5.00000000
2.16374850 -2.73388982 -0.55221367 1 6 14164 3.53000000 1409443163 1409443163 -9.00000000
4.17785025 -5.28059530 0.82676160 60 7 14165 6.78400000 1409443165 1409443165 7.00000000
2.79036570 -3.52814889 -0.55231184 8 8 14166 4.53200000 1409443167 1409443167 -7.00000000
4.17486620 -5.27871656 1.06594443 55 9 14166 6.81400000 1409443169 1409443169 9.00000000
3.86143661 -4.88416672 -0.54472339 11 10 14167 6.25000000 1409443172 1409443172 -5.00000000
4.15715313 -5.26009321 1.30322540 59 11 14168 6.83000000 1409443174 1409443174 11.00000000
4.19231796 -5.30649042 -0.35441908 10 12 14169 6.77200000 1409443176 1409443176 -3.00000000
4.15116835 -5.25629091 1.54631352 66 13 14170 6.87400000 1409443179 1409443179 13.00000000
4.17699051 -5.29088545 -0.11766412 8 14 14171 6.74200000 1409443181 1409443181 -1.00000000
4.14301252 -5.24784660 1.79154539 51 15 14171 6.92200000 1409443183 1409443183 15.00000000
1.29053330 -1.63938642 -0.55904913 4 0 14179 2.16000000 1409443204 1409443204 -15.00000000
4.16743755 -5.29586887 0.11762922 11 1 14180 6.74000000 1409443206 1409443206 1.00000000
1.50365269 -1.91148818 -0.56147784 13 2 14181 2.49600000 1409443209 1409443209 -13.00000000
4.15927935 -5.28929901 0.35263968 10 3 14182 6.73800000 1409443211 1409443211 3.00000000
1.74509120 -2.21920896 -0.54876667 3 4 14182 2.87600000 1409443213 1409443213 -11.00000000
4.15067959 -5.28025961 0.58760405 10 5 14183 6.74200000 1409443216 1409443216 5.00000000
2.15785360 -2.74608564 -0.55315226 1 6 14184 3.53600000 1409443218 1409443218 -9.00000000
4.14713001 -5.27953577 0.82432425 60 7 14185 6.76400000 1409443220 1409443220 7.00000000
2.77558136 -3.53474498 -0.55182439 8 8 14186 4.52800000 1409443222 1409443222 -7.00000000
4.13597584 -5.26912117 1.06093860 55 9 14187 6.78200000 1409443225 1409443225 9.00000000
3.85420561 -4.91015387 -0.54611790 11 10 14187 6.26600000 1409443227 1409443227 -5.00000000
4.13513088 -5.26993847 1.30208063 59 11 14188 6.82400000 1409443229 1409443229 11.00000000
4.15158129 -5.29280519 -0.35253501 10 12 14189 6.73600000 1409443232 1409443232 -3.00000000
4.11836576 -5.25234652 1.54091477 66 13 14190 6.85000000 1409443234 1409443234 13.00000000
4.14245939 -5.28497362 -0.11721036 8 14 14191 6.71600000 1409443236 1409443236 -1.00000000
4.11540985 -5.25235176 1.78792191 49 15 14192 6.90800000 1409443239 1409443239 15.00000000
1.27975845 -1.63801622 -0.55697858 4 0 14200 2.15200000 1409443259 1409443259 -15.00000000
4.12830591 -5.28589153 0.11707074 11 1 14201 6.70800000 1409443262 1409443262 1.00000000
1.49903512 -1.92005861 -0.56237763 19 2 14202 2.50000000 1409443264 1409443264 -13.00000000
4.13494968 -5.29821014 0.35222098 10 3 14203 6.73000000 1409443266 1409443266 3.00000000
1.74660873 -2.23797154 -0.55181962 3 4 14203 2.89200000 1409443269 1409443269 -11.00000000
4.12639666 -5.28915358 0.58690679 10 5 14204 6.73400000 1409443271 1409443271 5.00000000
2.15627789 -2.76487994 -0.55534238 1 6 14205 3.55000000 1409443273 1409443273 -9.00000000
4.11920786 -5.28374147 0.82261807 68 7 14206 6.75000000 1409443275 1409443275 7.00000000
2.76504755 -3.54802585 -0.55231184 6 8 14207 4.53200000 1409443278 1409443278 -7.00000000
4.10541534 -5.26794529 1.05780983 55 9 14207 6.76200000 1409443280 1409443280 9.00000000
3.82883644 -4.91481686 -0.54507202 11 10 14208 6.25400000 1409443282 1409443282 -5.00000000
4.10131264 -5.26647186 1.29750121 59 11 14209 6.80000000 1409443285 1409443285 11.00000000
4.12479305 -5.29853010 -0.35190696 10 12 14210 6.72400000 1409443287 1409443287 -3.00000000
4.08951283 -5.25510263 1.53731549 62 13 14211 6.83400000 1409443289 1409443289 13.00000000
4.11323833 -5.28749418 -0.11693113 8 14 14212 6.70000000 1409443292 1409443292 -1.00000000
4.07925844 -5.24381304 1.78015745 45 15 14212 6.87800000 1409443294 1409443294 15.00000000
1.27166486 -1.63942051 -0.55594331 4 0 14220 2.14800000 1409443315 1409443315 -15.00000000
4.09389973 -5.27972603 0.11661698 11 1 14221 6.68200000 1409443317 1409443317 1.00000000
1.49351764 -1.92681968 -0.56282753 36 2 14222 2.50200000 1409443319 1409443319 -13.00000000
4.10786724 -5.30155993 0.35148829 10 3 14223 6.71600000 1409443322 1409443322 3.00000000
1.73397624 -2.23784709 -0.55029315 3 4 14223 2.88400000 1409443324 1409443324 -11.00000000
4.08594799 -5.27517271 0.58376914 10 5 14224 6.69800000 1409443326 1409443326 5.00000000
2.12968254 -2.75052309 -0.55096221 1 6 14225 3.52200000 1409443328 1409443328 -9.00000000
4.09223413 -5.28709936 0.82091188 63 7 14226 6.73600000 1409443331 1409443331 7.00000000
2.74535728 -3.54823589 -0.55084944 6 8 14227 4.52000000 1409443333 1409443333 -7.00000000
4.07491350 -5.26662064 1.05468118 57 9 14227 6.74200000 1409443335 1409443335 9.00000000
3.80434346 -4.91869593 -0.54402614 15 10 14228 6.24200000 1409443338 1409443338 -5.00000000
4.06849432 -5.26211786 1.29292178 43 11 14229 6.77600000 1409443340 1409443340 11.00000000
4.09650135 -5.30025387 -0.35106960 10 12 14230 6.70800000 1409443342 1409443342 -3.00000000
3.98893499 -5.16294098 1.50627232 19 13 14231 6.69600000 1409443345 1409443345 13.00000000
4.08497810 -5.28915882 -0.11665189 8 14 14232 6.68400000 1409443347 1409443347 -1.00000000
1.26829195 -1.64691055 -0.55697858 4 0 14240 2.15200000 1409443370 1409443370 -15.00000000
4.06812620 -5.28447723 0.11640755 11 1 14241 6.67000000 1409443372 1409443372 1.00000000
1.47370946 -1.91503310 -0.55787861 42 2 14242 2.48000000 1409443375 1409443375 -13.00000000
4.07715845 -5.30003643 0.35044158 10 3 14243 6.69600000 1409443377 1409443377 3.00000000
1.73094237 -2.25011063 -0.55181962 2 4 14243 2.89200000 1409443379 1409443379 -11.00000000
4.06143665 -5.28150606 0.58289760 10 5 14244 6.68800000 1409443381 1409443381 5.00000000
2.11886454 -2.75637412 -0.55064934 3 6 14245 3.52000000 1409443384 1409443384 -9.00000000
4.05561066 -5.27774143 0.81725580 68 7 14246 6.70600000 1409443386 1409443386 7.00000000
2.74021053 -3.56724286 -0.55231184 6 8 14247 4.53200000 1409443388 1409443388 -7.00000000
3.78715086 -4.93194580 -0.54402614 15 10 14248 6.24200000 1409443393 1409443393 -5.00000000
3.97120309 -5.17350292 1.26773500 9 11 14249 6.64400000 1409443395 1409443395 11.00000000
4.06095314 -5.29233742 -0.34960419 10 12 14250 6.68000000 1409443398 1409443398 -3.00000000
3.96021414 -5.16291714 1.50222313 33 13 14251 6.67800000 1409443400 1409443400 13.00000000
4.05797338 -5.29227781 -0.11640755 8 14 14252 6.67000000 1409443402 1409443402 -1.00000000
3.95321226 -5.15565157 1.74081695 9 15 14252 6.72600000 1409443404 1409443404 15.00000000
1.26370871 -1.65286243 -0.55749625 4 0 14260 2.15400000 1409443425 1409443425 -15.00000000
4.03386927 -5.27799082 0.11595379 11 1 14261 6.64400000 1409443428 1409443428 1.00000000
1.45755112 -1.90777755 -0.55427939 39 2 14262 2.46400000 1409443430 1409443430 -13.00000000
4.03923702 -5.28883934 0.34876680 10 3 14263 6.66400000 1409443432 1409443432 3.00000000
1.72307742 -2.25613904 -0.55181962 3 4 14263 2.89200000 1409443434 1409443434 -11.00000000
4.02846766 -5.27664757 0.58080590 9 5 14264 6.66400000 1409443437 1409443437 5.00000000
2.11522222 -2.77160525 -0.55221367 1 6 14265 3.53000000 1409443439 1409443439 -9.00000000
4.01910210 -5.26819229 0.81359977 63 7 14266 6.67600000 1409443441 1409443441 7.00000000
2.71690798 -3.56258011 -0.55011821 6 8 14267 4.51400000 1409443444 1409443444 -7.00000000
3.95927811 -5.19353342 1.03434467 10 9 14268 6.61200000 1409443446 1409443446 9.00000000
3.76991224 -4.94513512 -0.54402614 15 10 14268 6.24200000 1409443448 1409443448 -5.00000000
3.94717002 -5.17952585 1.26582682 12 11 14269 6.63400000 1409443451 1409443451 11.00000000
4.03035164 -5.29059267 -0.34855747 10 12 14270 6.66000000 1409443453 1409443453 -3.00000000
3.93036175 -5.16120577 1.49772418 25 13 14271 6.65800000 1409443455 1409443455 13.00000000
4.03220749 -5.29686356 -0.11619812 9 14 14272 6.65800000 1409443457 1409443457 -1.00000000
3.92493033 -5.15780783 1.73667574 9 15 14273 6.71000000 1409443460 1409443460 15.00000000
1.25354767 -1.65088964 -0.55542564 2 0 14279 2.14600000 1409443481 1409443481 -15.00000000
4.01392651 -5.28815317 0.11588398 11 1 14280 6.64000000 1409443483 1409443483 1.00000000
1.45003879 -1.91104805 -0.55382949 30 2 14281 2.46200000 1409443485 1409443485 -13.00000000
4.00357151 -5.27833557 0.34719673 10 3 14282 6.63400000 1409443487 1409443487 3.00000000
1.71321344 -2.25871205 -0.55105639 3 4 14282 2.88800000 1409443490 1409443490 -11.00000000
4.00492859 -5.28203917 0.57993430 9 5 14283 6.65400000 1409443492 1409443492 5.00000000
2.10840607 -2.78175282 -0.55283940 1 6 14284 3.53400000 1409443494 1409443494 -9.00000000
3.99561620 -5.27357960 0.81238103 57 7 14285 6.66600000 1409443497 1409443497 7.00000000
2.70388055 -3.56998777 -0.54987448 6 8 14286 4.51200000 1409443499 1409443499 -7.00000000
3.91937852 -5.17671156 1.02840018 10 9 14287 6.57400000 1409443501 1409443501 9.00000000
3.75589800 -4.96078634 -0.54437476 15 10 14287 6.24600000 1409443504 1409443504 -5.00000000
3.91575480 -5.17380142 1.26124752 12 11 14288 6.61000000 1409443506 1409443506 11.00000000
4.00555515 -5.29437208 -0.34792945 10 12 14289 6.64800000 1409443508 1409443508 -3.00000000
3.89676785 -5.15245104 1.49142551 29 13 14290 6.63000000 1409443510 1409443510 13.00000000
3.99894285 -5.28946924 -0.11574436 9 14 14291 6.63200000 1409443513 1409443513 -1.00000000
3.89938688 -5.15778446 1.73253465 9 15 14291 6.69400000 1409443515 1409443515 15.00000000
1.25242889 -1.66142583 -0.55749625 4 0 14299 2.15400000 1409443536 1409443536 -15.00000000
3.98701906 -5.29095316 0.11563964 11 1 14300 6.62600000 1409443538 1409443538 1.00000000
1.44570410 -1.91921103 -0.55472928 12 2 14301 2.46600000 1409443540 1409443540 -13.00000000
3.97671223 -5.28110981 0.34646404 10 3 14302 6.62000000 1409443543 1409443543 3.00000000
1.70295668 -2.26154184 -0.55029315 3 4 14302 2.88400000 1409443545 1409443545 -11.00000000
3.97088957 -5.27529335 0.57766825 9 5 14303 6.62800000 1409443547 1409443547 5.00000000
2.09749532 -2.78751707 -0.55252653 1 6 14304 3.53200000 1409443550 1409443550 -9.00000000
3.96883082 -5.27639008 0.81067485 60 7 14305 6.65200000 1409443552 1409443552 7.00000000
2.69378853 -3.58257747 -0.55036193 6 8 14306 4.51600000 1409443554 1409443554 -7.00000000
3.88585520 -5.16983318 1.02433288 10 9 14307 6.54800000 1409443557 1409443557 9.00000000
3.73137617 -4.96431065 -0.54332888 15 10 14307 6.23400000 1409443559 1409443559 -5.00000000
3.89649177 -5.18586874 1.26086581 12 11 14308 6.60800000 1409443561 1409443561 11.00000000
3.98704982 -5.30832195 -0.34792945 10 12 14309 6.64800000 1409443563 1409443563 -3.00000000
3.86939836 -5.15355444 1.48782623 30 13 14310 6.61400000 1409443566 1409443566 13.00000000
3.96725082 -5.28580284 -0.11536041 9 14 14311 6.61000000 1409443568 1409443568 -1.00000000
3.87556076 -5.16363907 1.72994649 9 15 14311 6.68400000 1409443570 1409443570 15.00000000
1.23591602 -1.65208304 -0.55283749 4 0 14320 2.13600000 1409443592 1409443592 -15.00000000
3.95203137 -5.28471184 0.11518588 11 1 14321 6.60000000 1409443594 1409443594 1.00000000
1.44566095 -1.93386185 -0.55742872 6 2 14322 2.47800000 1409443597 1409443597 -13.00000000
3.94988251 -5.28376150 0.34573132 10 3 14322 6.60600000 1409443599 1409443599 3.00000000
1.69230592 -2.26462317 -0.54952991 3 4 14323 2.88000000 1409443601 1409443601 -11.00000000
3.93960428 -5.27384996 0.57592517 9 5 14324 6.60800000 1409443604 1409443604 5.00000000
2.08844638 -2.79676890 -0.55283940 1 6 14325 3.53400000 1409443606 1409443606 -9.00000000
3.93996549 -5.27817488 0.80872494 60 7 14326 6.63600000 1409443608 1409443608 7.00000000
2.67351651 -3.58288074 -0.54889953 6 8 14327 4.50400000 1409443610 1409443610 -7.00000000
3.86069727 -5.17386675 1.02245569 10 9 14327 6.53600000 1409443613 1409443613 9.00000000
3.70600843 -4.96837139 -0.54228306 15 10 14328 6.22200000 1409443615 1409443615 -5.00000000
3.85985494 -5.17650700 1.25514162 15 11 14329 6.57800000 1409443617 1409443617 11.00000000
3.95921183 -5.31169033 -0.34719673 14 12 14330 6.63400000 1409443620 1409443620 -3.00000000
3.84116888 -5.15520096 1.48422706 30 13 14331 6.59800000 1409443622 1409443622 13.00000000
3.93829465 -5.28747845 -0.11508117 9 14 14332 6.59400000 1409443624 1409443624 -1.00000000
3.84276128 -5.15921736 1.72373486 9 15 14332 6.66000000 1409443627 1409443627 15.00000000
1.23474896 -1.66259086 -0.55490804 4 0 14340 2.14400000 1409443647 1409443647 -15.00000000
3.92283225 -5.28402472 0.11487174 11 1 14341 6.58200000 1409443650 1409443650 1.00000000
1.42496562 -1.92011774 -0.55202991 6 2 14342 2.45400000 1409443652 1409443652 -13.00000000
3.92335033 -5.28857851 0.34510329 10 3 14343 6.59400000 1409443654 1409443654 3.00000000
1.68673003 -2.27366996 -0.55029315 3 4 14343 2.88400000 1409443657 1409443657 -11.00000000
3.90811634 -5.26996565 0.57400775 9 5 14344 6.58600000 1409443659 1409443659 5.00000000
2.06455445 -2.78499913 -0.54908496 1 6 14345 3.51000000 1409443661 1409443661 -9.00000000
3.91324401 -5.28073168 0.80701882 55 7 14346 6.62200000 1409443663 1409443663 7.00000000
2.67280984 -3.60814238 -0.55133688 6 8 14347 4.52400000 1409443666 1409443666 -7.00000000
3.83700585 -5.18163204 1.02120423 15 9 14348 6.52800000 1409443668 1409443668 9.00000000
3.68390036 -4.97487259 -0.54158580 15 10 14348 6.21400000 1409443670 1409443670 -5.00000000
3.81022429 -5.14734364 1.24483788 12 11 14349 6.52400000 1409443673 1409443673 11.00000000
3.92995429 -5.31102848 -0.34625468 14 12 14350 6.61600000 1409443675 1409443675 -3.00000000
3.71305656 -5.01974010 1.44148636 11 13 14351 6.40800000 1409443677 1409443677 13.00000000
3.91030264 -5.28833055 -0.11480193 9 14 14352 6.57800000 1409443680 1409443680 -1.00000000
3.65272999 -4.94179058 1.64660680 9 15 14353 6.36200000 1409443682 1409443682 15.00000000
1.23123062 -1.67000067 -0.55594331 4 0 14360 2.14800000 1409443703 1409443703 -15.00000000
3.89487267 -5.28480768 0.11459250 11 1 14361 6.56600000 1409443705 1409443705 1.00000000
1.41131926 -1.91566646 -0.54933047 16 2 14362 2.44200000 1409443707 1409443707 -13.00000000
3.89157534 -5.28226376 0.34384724 10 3 14362 6.57000000 1409443710 1409443710 3.00000000
1.68576837 -2.28902888 -0.55258286 3 4 14363 2.89600000 1409443712 1409443712 -11.00000000
3.88024735 -5.27073956 0.57261324 9 5 14364 6.57000000 1409443714 1409443714 5.00000000
2.05716205 -2.79537082 -0.54971069 1 6 14365 3.51400000 1409443716 1409443716 -9.00000000
3.86067367 -5.24798775 0.79995036 31 7 14366 6.56400000 1409443719 1409443719 7.00000000
2.65549445 -3.61105347 -0.55036193 6 8 14367 4.51600000 1409443721 1409443721 -7.00000000
3.67147470 -4.99445200 0.98178267 10 9 14368 6.27600000 1409443723 1409443723 9.00000000
3.66769242 -4.98930693 -0.54176009 15 10 14368 6.21600000 1409443726 1409443726 -5.00000000
3.64342737 -4.95811129 1.19599080 12 11 14369 6.26800000 1409443728 1409443728 11.00000000
3.88656092 -5.29091167 -0.34405658 14 12 14370 6.57400000 1409443730 1409443730 -3.00000000
3.63438129 -4.94942093 1.41764152 9 13 14371 6.30200000 1409443733 1409443733 13.00000000
3.87998629 -5.28582716 -0.11445288 9 14 14372 6.55800000 1409443735 1409443735 -1.00000000
3.62832022 -4.94297504 1.64298332 9 15 14372 6.34800000 1409443737 1409443737 15.00000000
1.22767568 -1.67740607 -0.55697858 4 0 14380 2.15200000 1409443758 1409443758 -15.00000000
3.83743668 -5.24511290 0.11344064 8 1 14381 6.50000000 1409443760 1409443760 1.00000000
1.40922523 -1.92687309 -0.55113006 6 2 14382 2.45000000 1409443762 1409443762 -13.00000000
3.66206670 -5.00724602 0.32511097 7 3 14382 6.21200000 1409443765 1409443765 3.00000000
1.66386378 -2.27588081 -0.54800344 2 4 14383 2.87200000 1409443767 1409443767 -11.00000000
3.63728714 -4.97700930 0.53931975 9 5 14384 6.18800000 1409443769 1409443769 5.00000000
2.04389620 -2.79774952 -0.54877210 1 6 14385 3.50800000 1409443772 1409443772 -9.00000000
3.62457585 -4.96325207 0.75461495 7 7 14386 6.19200000 1409443774 1409443774 7.00000000
2.64053249 -3.61709404 -0.54987448 6 8 14387 4.51200000 1409443776 1409443776 -7.00000000
3.62374282 -4.96574974 0.97364813 10 9 14388 6.22400000 1409443779 1409443779 9.00000000
3.64907956 -5.00046968 -0.54158580 15 10 14388 6.21400000 1409443781 1409443781 -5.00000000
3.62031293 -4.96286869 1.19408274 12 11 14389 6.25800000 1409443783 1409443783 11.00000000
3.83982587 -5.26571560 -0.34154445 10 12 14390 6.52600000 1409443786 1409443786 -3.00000000
3.60101175 -4.94003057 1.41134286 9 13 14391 6.27400000 1409443788 1409443788 13.00000000
3.64600182 -5.00358438 -0.10806530 6 14 14392 6.19200000 1409443790 1409443790 -1.00000000
3.60308003 -4.94468069 1.63935983 9 15 14392 6.33400000 1409443792 1409443792 15.00000000
1.21642756 -1.67365444 -0.55439037 4 0 14399 2.14200000 1409443813 1409443813 -15.00000000
3.61903024 -4.98116779 0.10747192 11 1 14400 6.15800000 1409443815 1409443815 1.00000000
1.42115045 -1.95676386 -0.55832851 4 2 14401 2.48200000 1409443818 1409443818 -13.00000000
3.61171079 -4.97474432 0.32218015 10 3 14402 6.15600000 1409443820 1409443820 3.00000000
1.66553485 -2.29409552 -0.55105639 3 4 14402 2.88800000 1409443822 1409443822 -11.00000000
3.61140060 -4.97614384 0.53792524 9 5 14403 6.17200000 1409443825 1409443825 5.00000000
2.04388714 -2.81730318 -0.55127507 1 6 14404 3.52400000 1409443827 1409443827 -9.00000000
3.61275887 -4.98167229 0.75558990 10 7 14405 6.20000000 1409443829 1409443829 7.00000000
2.63201857 -3.63065219 -0.55060571 4 8 14406 4.51800000 1409443832 1409443832 -7.00000000
3.59421158 -4.95791769 0.96989369 10 9 14406 6.20000000 1409443834 1409443834 9.00000000
3.61610961 -4.98995686 -0.53914541 15 10 14407 6.18600000 1409443836 1409443836 -5.00000000
3.59346986 -4.96053743 1.19064808 12 11 14408 6.24000000 1409443839 1409443839 11.00000000
3.61383033 -4.99047661 -0.32291284 13 12 14409 6.17000000 1409443841 1409443841 -3.00000000
3.58003950 -4.94563055 1.40954328 9 13 14410 6.26600000 1409443843 1409443843 13.00000000
3.58718705 -4.95732594 -0.10680873 9 14 14411 6.12000000 1409443845 1409443845 -1.00000000
3.57787228 -4.94627094 1.63573635 9 15 14412 6.32000000 1409443848 1409443848 15.00000000
1.20718694 -1.67319047 -0.55283749 4 0 14419 2.13600000 1409443868 1409443868 -15.00000000
3.57939577 -4.96295452 0.10680873 11 1 14420 6.12000000 1409443871 1409443871 1.00000000
1.42342865 -1.97435868 -0.56192774 4 2 14421 2.49800000 1409443873 1409443873 -13.00000000
3.58935404 -4.97859335 0.32165679 10 3 14421 6.14600000 1409443875 1409443875 3.00000000
1.65062964 -2.29033899 -0.54876667 3 4 14422 2.87600000 1409443878 1409443878 -11.00000000
3.57770395 -4.96608734 0.53548491 9 5 14423 6.14400000 1409443880 1409443880 5.00000000
2.03173161 -2.82121468 -0.55064934 1 6 14424 3.52000000 1409443882 1409443882 -9.00000000
3.58490944 -4.97975349 0.75339627 10 7 14425 6.18200000 1409443885 1409443885 7.00000000
2.61816978 -3.63820624 -0.55036193 6 8 14426 4.51600000 1409443887 1409443887 -7.00000000
3.56678748 -4.95822954 0.96739072 10 9 14427 6.18400000 1409443889 1409443889 9.00000000
3.58238053 -4.97990561 -0.53670508 15 10 14427 6.15800000 1409443892 1409443892 -5.00000000
3.56352425 -4.95551777 1.18645036 12 11 14428 6.21800000 1409443894 1409443894 11.00000000
3.58123326 -4.98197842 -0.32155213 13 12 14429 6.14400000 1409443896 1409443896 -3.00000000
3.55593109 -4.94860172 1.40684390 9 13 14430 6.25400000 1409443898 1409443898 13.00000000
3.56636119 -4.96494484 -0.10670401 9 14 14431 6.11400000 1409443901 1409443901 -1.00000000
3.54593682 -4.93833017 1.62900710 9 15 14432 6.29400000 1409443903 1409443903 15.00000000
1.20808816 -1.68681765 -0.55594331 4 0 14439 2.14800000 1409443924 1409443924 -15.00000000
3.55855775 -4.97054100 0.10670401 11 1 14440 6.11400000 1409443926 1409443926 1.00000000
1.41312575 -1.97456121 -0.56057805 4 2 14441 2.49200000 1409443928 1409443928 -13.00000000
3.56614184 -4.98297119 0.32113343 7 3 14441 6.13600000 1409443931 1409443931 3.00000000
1.64719391 -2.30247378 -0.55029315 2 4 14442 2.88400000 1409443933 1409443933 -11.00000000
3.55802941 -4.97530460 0.53513628 13 5 14443 6.14000000 1409443935 1409443935 5.00000000
2.01038337 -2.81221962 -0.54752064 1 6 14444 3.50000000 1409443938 1409443938 -9.00000000
3.54673004 -4.96316481 0.74900901 10 7 14445 6.14600000 1409443940 1409443940 7.00000000
2.61699295 -3.66347599 -0.55279934 6 8 14446 4.53600000 1409443942 1409443942 -7.00000000
3.54573274 -4.96360064 0.96613926 10 9 14446 6.17600000 1409443945 1409443945 9.00000000
3.56497574 -4.99238014 -0.53670508 11 10 14447 6.15800000 1409443947 1409443947 -5.00000000
3.52795458 -4.94235992 1.18034446 12 11 14448 6.18600000 1409443949 1409443949 11.00000000
3.54989982 -4.97493935 -0.32029605 13 12 14449 6.12000000 1409443951 1409443951 -3.00000000
3.53297734 -4.95305157 1.40459442 9 13 14450 6.24400000 1409443954 1409443954 13.00000000
3.54784751 -4.97573566 -0.10666911 9 14 14451 6.11200000 1409443956 1409443956 -1.00000000
3.52307081 -4.94281197 1.62641883 9 15 14452 6.28400000 1409443958 1409443958 15.00000000
1.20107341 -1.68944991 -0.55542564 4 0 14459 2.14600000 1409443979 1409443979 -15.00000000
3.52960181 -4.96663237 0.10635497 11 1 14460 6.09400000 1409443981 1409443981 1.00000000
1.38703859 -1.95247447 -0.55292970 4 2 14461 2.45800000 1409443984 1409443984 -13.00000000
3.53715920 -4.97910690 0.32008672 7 3 14461 6.11600000 1409443986 1409443986 3.00000000
1.64369369 -2.31461239 -0.55181962 2 4 14462 2.89200000 1409443988 1409443988 -11.00000000
3.52680111 -4.96819830 0.53304452 13 5 14463 6.11600000 1409443991 1409443991 5.00000000
2.01198649 -2.83533001 -0.55064934 1 6 14464 3.52000000 1409443993 1409443993 -9.00000000
3.51789880 -4.95932388 0.74657160 10 7 14465 6.12600000 1409443995 1409443995 7.00000000
2.58122444 -3.64020276 -0.54792458 6 8 14466 4.49600000 1409443998 1409443998 -7.00000000
3.51924396 -4.96305609 0.96363628 10 9 14466 6.16000000 1409444000 1409444000 9.00000000
3.53370118 -4.98528814 -0.53461331 11 10 14467 6.13400000 1409444002 1409444002 -5.00000000
3.50727582 -4.94983864 1.17919958 12 11 14468 6.18000000 1409444004 1409444004 11.00000000
3.52212286 -4.97263193 -0.31935400 9 12 14469 6.10200000 1409444007 1409444007 -3.00000000
3.49990129 -4.94308758 1.39829576 10 13 14470 6.21600000 1409444009 1409444009 13.00000000
3.52468109 -4.97992849 -0.10649458 9 14 14471 6.10200000 1409444011 1409444011 -1.00000000
3.49798536 -4.94404030 1.62279546 9 15 14472 6.27000000 1409444014 1409444014 15.00000000
1.20044112 -1.70173371 -0.55801386 4 0 14480 2.15600000 1409444034 1409444034 -15.00000000
3.50906968 -4.97626686 0.10628515 11 1 14481 6.09000000 1409444037 1409444037 1.00000000
1.38211858 -1.96073067 -0.55382949 3 2 14482 2.46200000 1409444039 1409444039 -13.00000000
3.50392699 -4.97081566 0.31872597 10 3 14482 6.09000000 1409444041 1409444041 3.00000000
1.62841403 -2.31099200 -0.54952991 3 4 14483 2.88000000 1409444044 1409444044 -11.00000000
3.49479985 -4.96154499 0.53095281 13 5 14484 6.09200000 1409444046 1409444046 5.00000000
1.99248278 -2.82976389 -0.54814637 3 6 14485 3.50400000 1409444048 1409444048 -9.00000000
3.49170017 -4.96082163 0.74486542 10 7 14486 6.11200000 1409444050 1409444050 7.00000000
2.57471871 -3.65937996 -0.54938698 6 8 14487 4.50800000 1409444053 1409444053 -7.00000000
3.49079967 -4.96138144 0.96082050 10 9 14487 6.14200000 1409444055 1409444055 9.00000000
3.51082063 -4.99168777 -0.53391606 11 10 14488 6.12600000 1409444057 1409444057 -5.00000000
3.47781873 -4.94659996 1.17538345 12 11 14489 6.16000000 1409444060 1409444060 11.00000000
3.49468613 -4.97243547 -0.31851664 9 12 14490 6.08600000 1409444062 1409444062 -3.00000000
3.46831727 -4.93674755 1.39289689 9 13 14491 6.19200000 1409444064 1409444064 13.00000000
3.49146461 -4.97153950 -0.10604082 9 14 14492 6.07600000 1409444067 1409444067 -1.00000000
3.47626495 -4.94989681 1.62072492 9 15 14492 6.26200000 1409444069 1409444069 15.00000000
1.18784523 -1.69641876 -0.55490804 4 0 14500 2.14400000 1409444090 1409444090 -15.00000000
3.48594451 -4.98029423 0.10611063 11 1 14501 6.08000000 1409444092 1409444092 1.00000000
1.37750041 -1.96873665 -0.55472928 3 2 14502 2.46600000 1409444094 1409444094 -13.00000000
3.47395897 -4.96501541 0.31757459 7 3 14502 6.06800000 1409444097 1409444097 3.00000000
1.61808681 -2.31344461 -0.54876667 3 4 14503 2.87600000 1409444099 1409444099 -11.00000000
3.47060966 -4.96391630 0.52990693 9 5 14504 6.08000000 1409444101 1409444101 5.00000000
1.99730396 -2.85775042 -0.55221367 1 6 14505 3.53000000 1409444103 1409444103 -9.00000000
3.46981478 -4.96647024 0.74389046 10 7 14506 6.10400000 1409444106 1409444106 7.00000000
2.55965614 -3.66509008 -0.54889953 6 8 14507 4.50400000 1409444108 1409444108 -7.00000000
3.45988727 -4.95410204 0.95706606 10 9 14507 6.11800000 1409444110 1409444110 9.00000000
3.47512698 -4.97777367 -0.53112710 11 10 14508 6.09400000 1409444113 1409444113 -5.00000000
3.46053052 -4.95870972 1.17538345 12 11 14509 6.16000000 1409444115 1409444115 11.00000000
3.47045135 -4.97477531 -0.31788859 9 12 14510 6.07400000 1409444117 1409444117 -3.00000000
3.44214630 -4.93603659 1.38929772 9 13 14511 6.17600000 1409444120 1409444120 13.00000000
3.46265388 -4.96729231 -0.10569178 9 14 14512 6.05600000 1409444122 1409444122 -1.00000000
3.43932343 -4.93565989 1.61192501 9 15 14513 6.22800000 1409444124 1409444124 15.00000000
1.17199361 -1.68627775 -0.55024928 4 0 14520 2.12600000 1409444145 1409444145 -15.00000000
3.45712900 -4.97600985 0.10576158 11 1 14521 6.06000000 1409444147 1409444147 1.00000000
1.36839652 -1.97033191 -0.55382949 3 2 14522 2.46200000 1409444150 1409444150 -13.00000000
3.45118213 -4.97115231 0.31715590 10 3 14523 6.06000000 1409444152 1409444152 3.00000000
1.60776234 -2.31585336 -0.54800344 3 4 14523 2.87200000 1409444154 1409444154 -11.00000000
3.44190192 -4.95963240 0.52816379 9 5 14524 6.06000000 1409444156 1409444156 5.00000000
1.97267902 -2.84360504 -0.54814637 1 6 14525 3.50400000 1409444159 1409444159 -9.00000000
3.44453907 -4.96713352 0.74218428 10 7 14526 6.09000000 1409444161 1409444161 7.00000000
2.55137086 -3.68052840 -0.54987448 6 8 14527 4.51200000 1409444163 1409444163 -7.00000000
3.43131924 -4.94991493 0.95393735 10 9 14527 6.09800000 1409444166 1409444166 9.00000000
3.45092130 -4.98004818 -0.53008121 11 10 14528 6.08200000 1409444168 1409444168 -5.00000000
3.42978525 -4.95139217 1.17080402 12 11 14529 6.13600000 1409444170 1409444170 11.00000000
3.45079112 -4.98357534 -0.31767926 9 12 14530 6.07000000 1409444173 1409444173 -3.00000000
3.41824079 -4.93840790 1.38659835 9 13 14531 6.16400000 1409444175 1409444175 13.00000000
3.44074249 -4.97277117 -0.10555215 9 14 14532 6.04800000 1409444177 1409444177 -1.00000000
3.40974665 -4.92797422 1.60571337 9 15 14532 6.20400000 1409444180 1409444180 15.00000000
1.17597318 -1.70467007 -0.55490804 4 0 14540 2.14400000 1409444200 1409444200 -15.00000000
3.42384529 -4.96500015 0.10527292 11 1 14541 6.03200000 1409444203 1409444203 1.00000000
1.36372256 -1.97830546 -0.55472928 3 2 14542 2.46600000 1409444205 1409444205 -13.00000000
3.42927527 -4.97659063 0.31673720 10 3 14543 6.05200000 1409444207 1409444207 3.00000000
1.60412455 -2.32791781 -0.54952991 3 4 14543 2.88000000 1409444209 1409444209 -11.00000000
3.40874553 -4.94864559 0.52572346 9 5 14544 6.03200000 1409444212 1409444212 5.00000000
1.95825982 -2.84396577 -0.54689491 1 6 14545 3.49600000 1409444214 1409444214 -9.00000000
3.41704988 -4.96441031 0.73999065 10 7 14546 6.07200000 1409444216 1409444216 7.00000000
2.53400683 -3.68287039 -0.54889953 6 8 14547 4.50400000 1409444219 1409444219 -7.00000000
3.40867615 -4.95594740 0.95268589 10 9 14548 6.09000000 1409444221 1409444221 9.00000000
3.42448401 -4.97893095 -0.52868676 11 10 14548 6.06600000 1409444223 1409444223 -5.00000000
3.40135813 -4.94715643 1.16698778 12 11 14549 6.11600000 1409444226 1409444226 11.00000000
3.42432404 -4.98242235 -0.31684187 9 12 14550 6.05400000 1409444228 1409444228 -3.00000000
3.39656758 -4.94388485 1.38479865 10 13 14551 6.15600000 1409444230 1409444230 13.00000000
3.41883516 -4.97815752 -0.10541254 9 14 14552 6.04000000 1409444233 1409444233 -1.00000000
3.38510156 -4.93088245 1.60260749 9 15 14553 6.19200000 1409444235 1409444235 15.00000000
1.17249727 -1.71174800 -0.55594331 4 0 14559 2.14800000 1409444256 1409444256 -15.00000000
3.40058327 -4.96642685 0.10506348 11 1 14560 6.02000000 1409444258 1409444258 1.00000000
1.35055053 -1.97316802 -0.55202991 3 2 14561 2.45400000 1409444260 1409444260 -13.00000000
3.39809203 -4.96650648 0.31537646 10 3 14562 6.02600000 1409444262 1409444262 3.00000000
1.60637355 -2.34780717 -0.55296445 3 4 14562 2.89800000 1409444265 1409444265 -11.00000000
3.39794016 -4.96814489 0.52659500 13 5 14563 6.04200000 1409444267 1409444267 5.00000000
1.95662224 -2.86185861 -0.54908496 1 6 14564 3.51000000 1409444269 1409444269 -9.00000000
3.39160776 -4.96260309 0.73804075 10 7 14565 6.05600000 1409444272 1409444272 7.00000000
2.51730108 -3.68469691 -0.54792458 6 8 14566 4.49600000 1409444274 1409444274 -7.00000000
3.38974690 -4.96173859 0.95174730 22 9 14566 6.08400000 1409444276 1409444276 9.00000000
3.39896560 -4.97709703 -0.52729225 11 10 14567 6.05000000 1409444279 1409444279 -5.00000000
3.38161325 -4.95354462 1.16584301 12 11 14568 6.11000000 1409444281 1409444281 11.00000000
3.40102816 -4.98385191 -0.31621385 9 12 14569 6.04200000 1409444283 1409444283 -3.00000000
3.37136912 -4.94224215 1.38119948 9 13 14570 6.14000000 1409444286 1409444286 13.00000000
3.39667511 -4.98120689 -0.10523801 9 14 14571 6.03000000 1409444288 1409444288 -1.00000000
3.36959410 -4.94149256 1.60260749 9 15 14571 6.19200000 1409444290 1409444290 15.00000000
1.16651499 -1.71583033 -0.55594331 4 0 14579 2.14800000 1409444311 1409444311 -15.00000000
3.37873054 -4.97165108 0.10492387 11 1 14580 6.01200000 1409444313 1409444313 1.00000000
1.34365475 -1.97787035 -0.55202991 3 2 14581 2.45400000 1409444315 1409444315 -13.00000000
3.37288070 -4.96677160 0.31464377 10 3 14582 6.01200000 1409444318 1409444318 3.00000000
1.58162427 -2.32903767 -0.54724020 2 4 14582 2.86800000 1409444320 1409444320 -11.00000000
3.36826825 -4.96184254 0.52467757 9 5 14583 6.02000000 1409444322 1409444322 5.00000000
1.93774712 -2.85559464 -0.54658204 1 6 14584 3.49400000 1409444325 1409444325 -9.00000000
3.36646414 -4.96291208 0.73633456 10 7 14585 6.04200000 1409444327 1409444327 7.00000000
2.49885321 -3.68524647 -0.54670590 6 8 14586 4.48600000 1409444329 1409444329 -7.00000000
3.36599684 -4.96595335 0.95018291 65 9 14587 6.07400000 1409444332 1409444332 9.00000000
3.38157153 -4.98893166 -0.52729225 11 10 14587 6.05000000 1409444334 1409444334 -5.00000000
3.36209893 -4.96206760 1.16507971 12 11 14588 6.10600000 1409444336 1409444336 11.00000000
3.36905003 -4.97419596 -0.31485310 13 12 14589 6.01600000 1409444338 1409444338 -3.00000000
3.34207892 -4.93623018 1.37625051 9 13 14590 6.11800000 1409444341 1409444341 13.00000000
3.36133385 -4.96653605 -0.10467953 9 14 14591 5.99800000 1409444343 1409444343 -1.00000000
3.33955240 -4.93620872 1.59691346 9 15 14592 6.17000000 1409444345 1409444345 15.00000000
1.15619624 -1.71348631 -0.55387276 4 0 14599 2.14000000 1409444366 1409444366 -15.00000000
3.36023760 -4.98175716 0.10488896 11 1 14600 6.01000000 1409444368 1409444368 1.00000000
1.34327912 -1.99224317 -0.55472928 3 2 14601 2.46600000 1409444371 1409444371 -13.00000000
3.34770894 -4.96692133 0.31391108 9 3 14602 5.99800000 1409444373 1409444373 3.00000000
1.57129025 -2.33128858 -0.54647696 3 4 14602 2.86400000 1409444375 1409444375 -11.00000000
3.34202147 -4.96035099 0.52328306 9 5 14603 6.00400000 1409444378 1409444378 5.00000000
1.93659520 -2.87544870 -0.54908496 3 6 14604 3.51000000 1409444380 1409444380 -9.00000000
3.34801102 -4.97298622 0.73609084 10 7 14605 6.04000000 1409444382 1409444382 7.00000000
2.49594903 -3.70876837 -0.54889953 6 8 14606 4.50400000 1409444385 1409444385 -7.00000000
3.33296704 -4.95250607 0.94548988 60 9 14606 6.04400000 1409444387 1409444387 9.00000000
3.35301518 -4.98417377 -0.52554911 15 10 14607 6.03000000 1409444389 1409444389 -5.00000000
3.33489752 -4.95911121 1.16164517 12 11 14608 6.08800000 1409444391 1409444391 11.00000000
3.34832358 -4.98095322 -0.31453910 9 12 14609 6.01000000 1409444394 1409444394 -3.00000000
3.31830645 -4.93816090 1.37355113 9 13 14610 6.10600000 1409444396 1409444396 13.00000000
3.33728671 -4.96827936 -0.10447010 9 14 14611 5.98600000 1409444398 1409444398 -1.00000000
3.31454730 -4.93442678 1.59277236 9 15 14611 6.15400000 1409444401 1409444401 15.00000000
1.15235794 -1.72072196 -0.55490804 4 0 14619 2.14400000 1409444421 1409444421 -15.00000000
3.33170319 -4.97683907 0.10453992 11 1 14620 5.99000000 1409444424 1409444424 1.00000000
1.33414912 -1.99368083 -0.55382949 3 2 14621 2.46200000 1409444426 1409444426 -13.00000000
3.32479835 -4.97027636 0.31338769 9 3 14622 5.98800000 1409444428 1409444428 3.00000000
1.44852698 -2.16541862 -0.50640708 3 4 14622 2.65400000 1409444431 1409444431 -11.00000000
3.31361151 -4.95542431 0.52153999 9 5 14623 5.98400000 1409444433 1409444433 5.00000000
1.92105746 -2.87397981 -0.54752064 3 6 14624 3.50000000 1409444435 1409444435 -9.00000000
3.32732320 -4.97969103 0.73535961 10 7 14625 6.03400000 1409444438 1409444438 7.00000000
2.47857761 -3.71085548 -0.54792458 6 8 14626 4.49600000 1409444440 1409444440 -7.00000000
3.30711460 -4.95318890 0.94329983 52 9 14627 6.03000000 1409444442 1409444442 9.00000000
3.32674599 -4.98259163 -0.52415466 15 10 14627 6.01400000 1409444444 1409444444 -5.00000000
3.30775785 -4.95602512 1.15821064 12 11 14628 6.07000000 1409444447 1409444447 11.00000000
3.32759118 -4.98762608 -0.31422508 13 12 14629 6.00400000 1409444449 1409444449 -3.00000000
3.29348016 -4.93836498 1.37040186 9 13 14630 6.09200000 1409444451 1409444451 13.00000000
3.30661297 -4.95993233 -0.10405125 9 14 14631 5.96200000 1409444454 1409444454 -1.00000000
3.28358364 -4.92725134 1.58656073 9 15 14632 6.13000000 1409444456 1409444456 15.00000000
1.17704654 -1.77159739 -0.56991953 6 0 14640 2.20200000 1409444477 1409444477 -15.00000000
3.29573870 -4.96236420 0.10398144 11 1 14641 5.95800000 1409444479 1409444479 1.00000000
1.32683289 -1.99855733 -0.55382949 3 2 14642 2.46200000 1409444481 1409444481 -13.00000000
3.30766344 -4.98409319 0.31349239 9 3 14643 5.99000000 1409444484 1409444484 3.00000000
1.33636379 -2.01367593 -0.46977174 10 4 14643 2.46200000 1409444486 1409444486 -11.00000000
3.28551388 -4.95259380 0.51997113 9 5 14644 5.96600000 1409444488 1409444488 5.00000000
1.91378605 -2.88594031 -0.54845923 1 6 14645 3.50600000 1409444491 1409444491 -9.00000000
3.29150057 -4.96537971 0.73145980 10 7 14646 6.00200000 1409444493 1409444493 7.00000000
2.46934605 -3.72653389 -0.54889953 6 8 14647 4.50400000 1409444495 1409444495 -7.00000000
3.27998424 -4.94988251 0.94048399 52 9 14647 6.01200000 1409444497 1409444497 9.00000000
3.29965949 -4.98146296 -0.52276015 15 10 14648 5.99800000 1409444500 1409444500 -5.00000000
3.27656436 -4.94847202 1.15363121 12 11 14649 6.04600000 1409444502 1409444502 11.00000000
3.30046940 -4.98646498 -0.31338769 12 12 14650 5.98800000 1409444504 1409444504 -3.00000000
3.27213216 -4.94552755 1.36905217 9 13 14651 6.08600000 1409444507 1409444507 13.00000000
3.29613352 -4.98369360 -0.10429558 9 14 14652 5.97600000 1409444509 1409444509 -1.00000000
3.26210165 -4.93223763 1.58449018 9 15 14652 6.12200000 1409444511 1409444511 15.00000000
1.15596700 -1.75311601 -0.56267262 5 0 14660 2.17400000 1409444532 1409444532 -15.00000000
3.27399468 -4.96715975 0.10384182 11 1 14661 5.95000000 1409444534 1409444534 1.00000000
1.31127119 -1.99015844 -0.55023026 3 2 14662 2.44600000 1409444537 1409444537 -13.00000000
3.27266812 -4.96892118 0.31181762 9 3 14663 5.95800000 1409444539 1409444539 3.00000000
1.31744802 -2.00029302 -0.46557394 15 4 14663 2.44000000 1409444541 1409444541 -11.00000000
3.26272798 -4.95571136 0.51909959 9 5 14664 5.95600000 1409444544 1409444544 5.00000000
1.89718485 -2.88270259 -0.54658204 1 6 14665 3.49400000 1409444546 1409444546 -9.00000000
3.26323795 -4.96025515 0.72902238 10 7 14666 5.98200000 1409444548 1409444548 7.00000000
2.45414138 -3.73181367 -0.54841202 6 8 14667 4.50000000 1409444550 1409444550 -7.00000000
3.26616049 -4.96847343 0.94173551 37 9 14668 6.02000000 1409444553 1409444553 9.00000000
3.28006196 -4.98962069 -0.52241153 15 10 14668 5.99400000 1409444555 1409444555 -5.00000000
3.25280213 -4.95003510 1.15134144 12 11 14669 6.03400000 1409444557 1409444557 11.00000000
3.26549840 -4.97124624 -0.31171295 12 12 14670 5.95600000 1409444560 1409444560 -3.00000000
3.24201369 -4.93737173 1.36365330 9 13 14671 6.06200000 1409444562 1409444562 13.00000000
3.26116037 -4.96842098 -0.10373710 9 14 14672 5.94400000 1409444564 1409444564 -1.00000000
3.24294233 -4.94254541 1.58397257 9 15 14673 6.12000000 1409444567 1409444567 15.00000000
1.13850808 -1.73916018 -0.55697858 4 0 14679 2.15200000 1409444587 1409444587 -15.00000000
3.24874520 -4.96460342 0.10356258 11 1 14680 5.93400000 1409444590 1409444590 1.00000000
1.30466437 -1.99449575 -0.55023026 3 2 14681 2.44600000 1409444592 1409444592 -13.00000000
3.25070739 -4.97138834 0.31129426 9 3 14682 5.94800000 1409444594 1409444594 3.00000000
1.29791427 -1.98493290 -0.46099454 11 4 14682 2.41600000 1409444597 1409444597 -11.00000000
3.24845648 -4.96983957 0.51944822 12 5 14683 5.96000000 1409444599 1409444599 5.00000000
1.89950037 -2.90716839 -0.55002356 1 6 14684 3.51600000 1409444601 1409444601 -9.00000000
3.24460006 -4.96772480 0.72853494 10 7 14685 5.97800000 1409444603 1409444603 7.00000000
2.44175291 -3.73993134 -0.54841202 6 8 14686 4.50000000 1409444606 1409444606 -7.00000000
3.23433661 -4.95389938 0.93704247 7 9 14686 5.99000000 1409444608 1409444608 9.00000000
3.25696421 -4.99045944 -0.52136564 15 10 14687 5.98200000 1409444610 1409444610 -5.00000000
3.22778773 -4.94764042 1.14828849 12 11 14688 6.01800000 1409444613 1409444613 11.00000000
3.24681330 -4.97870207 -0.31150362 12 12 14689 5.95200000 1409444615 1409444615 -3.00000000
3.21817350 -4.93666792 1.36050403 9 13 14690 6.04800000 1409444617 1409444617 13.00000000
3.23920798 -4.97083139 -0.10356258 9 14 14691 5.93400000 1409444620 1409444620 -1.00000000
