# .PCD v0.7 - Point Cloud Data file format
VERSION 0.7
FIELDS x y z intensity laser_id azimuth distance_m adjustedtime timestamp vertical_angle
SIZE 4 4 4 1 1 2 8 8 4 8
TYPE F F F U U U F U U F
COUNT 1 1 1 1 1 1 1 1 1 1
WIDTH 516
HEIGHT 1
VIEWPOINT 0 0 0 1 0 0 0
POINTS 516
DATA ascii
-1.93711746 -1.67680061 -0.49801147 3 4 22912 2.61000000 1409567408 1409567408 -11.00000000
-29.04495239 -25.13292122 3.36037683 42 5 22913 38.55600000 1409567411 1409567411 5.00000000
-2.33362460 -2.01859927 -0.48870125 2 6 22914 3.12400000 1409567413 1409567413 -9.00000000
-19.64657593 -16.98841095 3.18907690 25 7 22915 26.16800000 1409567415 1409567415 7.00000000
-2.88495612 -2.49374413 -0.46822202 1 8 22916 3.84200000 1409567418 1409567418 -7.00000000
-12.90157700 -11.15207005 2.70099759 60 9 22916 17.26600000 1409567420 1409567420 9.00000000
-3.80806398 -3.29051352 -0.44031081 9 10 22917 5.05200000 1409567422 1409567422 -5.00000000
-11.39403248 -9.84200764 2.92662835 35 11 22918 15.33800000 1409567424 1409567424 11.00000000
-5.57812643 -4.81660891 -0.38623935 3 12 22919 7.38000000 1409567427 1409567427 -3.00000000
-7.93207836 -6.84678650 2.41912365 12 13 22920 10.75400000 1409567429 1409567429 13.00000000
-9.86060047 -8.50844002 -0.22733505 6 14 22921 13.02600000 1409567431 1409567431 -1.00000000
-7.94762421 -6.85536528 2.81232786 42 15 22922 10.86600000 1409567434 1409567434 15.00000000
-1.46438313 -1.26001298 -0.51763809 5 0 22929 2.00000000 1409567454 1409567454 -15.00000000
-1.68154132 -1.44584322 -0.51198858 4 2 22931 2.27600000 1409567459 1409567459 -13.00000000
-1.94593656 -1.67258799 -0.49877471 3 4 22932 2.61400000 1409567464 1409567464 -11.00000000
-29.04485893 -24.95607185 3.35026670 63 5 22933 38.44000000 1409567466 1409567466 5.00000000
-2.33166575 -2.00271845 -0.48682407 2 6 22934 3.11200000 1409567468 1409567468 -9.00000000
-19.77353096 -16.97792053 3.20004511 9 7 22935 26.25800000 1409567470 1409567470 7.00000000
-2.91021299 -2.49788046 -0.47090313 1 8 22936 3.86400000 1409567473 1409567473 -7.00000000
-12.93443108 -11.10182095 2.69974589 60 9 22936 17.25800000 1409567475 1409567475 9.00000000
-3.81650257 -3.27460623 -0.43996218 6 10 22937 5.04800000 1409567477 1409567477 -5.00000000
-11.42980862 -9.80345345 2.92701006 35 11 22938 15.34000000 1409567480 1409567480 11.00000000
-5.60551929 -4.80620861 -0.38697207 3 12 22939 7.39400000 1409567482 1409567482 -3.00000000
-8.00031853 -6.85710239 2.43262076 9 13 22940 10.81400000 1409567484 1409567484 13.00000000
-9.86898136 -8.45575237 -0.22684638 6 14 22941 12.99800000 1409567487 1409567487 -1.00000000
-7.97324800 -6.83148623 2.81336308 40 15 22941 10.87000000 1409567489 1409567489 15.00000000
-1.46142864 -1.24861920 -0.51504987 5 0 22949 1.99000000 1409567510 1409567510 -15.00000000
-1.67916775 -1.43363798 -0.50973910 4 2 22951 2.26600000 1409567514 1409567514 -13.00000000
-1.96072304 -1.67343235 -0.50106442 3 4 22952 2.62600000 1409567519 1409567519 -11.00000000
-29.03327370 -24.77047920 3.33893657 53 5 22953 38.31000000 1409567521 1409567521 5.00000000
-2.32361245 -1.98174870 -0.48369536 2 6 22954 3.09200000 1409567523 1409567523 -9.00000000
-16.67400932 -14.21580219 2.69038773 7 7 22955 22.07600000 1409567526 1409567526 7.00000000
-2.89474130 -2.46710467 -0.46700332 1 8 22956 3.83200000 1409567528 1409567528 -7.00000000
-12.97611141 -11.05916691 2.70037174 56 9 22956 17.26200000 1409567530 1409567530 9.00000000
-3.81881022 -3.25351143 -0.43891633 6 10 22957 5.03600000 1409567533 1409567533 -5.00000000
-11.45798016 -9.75840473 2.92548347 35 11 22958 15.33200000 1409567535 1409567535 11.00000000
-5.61161661 -4.77754927 -0.38623935 7 12 22959 7.38000000 1409567537 1409567537 -3.00000000
-8.06279087 -6.86197281 2.44431806 9 13 22960 10.86600000 1409567540 1409567540 13.00000000
-9.87863731 -8.40440655 -0.22639261 9 14 22961 12.97200000 1409567542 1409567542 -1.00000000
-7.99087477 -6.79595947 2.81077480 35 15 22962 10.86000000 1409567544 1409567544 15.00000000
-1.47461712 -1.25100875 -0.51815575 6 0 22969 2.00200000 1409567565 1409567565 -15.00000000
-1.67970240 -1.42398739 -0.50838935 4 2 22971 2.26000000 1409567570 1409567570 -13.00000000
-48.91981888 -41.45767212 3.36059642 16 3 22972 64.21200000 1409567572 1409567572 3.00000000
-1.96655238 -1.66657794 -0.50106442 3 4 22972 2.62600000 1409567574 1409567574 -11.00000000
-29.03746986 -24.59943771 3.32952380 63 5 22973 38.20200000 1409567576 1409567576 5.00000000
-2.33654571 -1.97873211 -0.48494685 2 6 22974 3.10000000 1409567579 1409567579 -9.00000000
-16.78867722 -14.21266460 2.70086837 10 7 22975 22.16200000 1409567581 1409567581 7.00000000
-2.90939665 -2.46211457 -0.46797827 1 8 22976 3.84000000 1409567583 1409567583 -7.00000000
-13.01011276 -11.00997543 2.69943309 52 9 22976 17.25600000 1409567586 1409567586 9.00000000
-3.84231257 -3.25045609 -0.44031081 9 10 22977 5.05200000 1409567588 1409567588 -5.00000000
-11.49347305 -9.71961689 2.92586517 35 11 22978 15.33400000 1409567590 1409567590 11.00000000
-5.63741112 -4.76566839 -0.38686737 3 12 22979 7.39200000 1409567593 1409567593 -3.00000000
-8.11795139 -6.86020088 2.45376611 14 13 22980 10.90800000 1409567595 1409567595 13.00000000
-9.88347244 -8.34922600 -0.22583415 15 14 22981 12.94000000 1409567597 1409567597 -1.00000000
-8.01336765 -6.76942348 2.81077480 40 15 22981 10.86000000 1409567600 1409567600 15.00000000
-1.48193002 -1.24834299 -0.51919103 8 0 22989 2.00600000 1409567620 1409567620 -15.00000000
-1.68764460 -1.42062533 -0.50928921 4 2 22991 2.26400000 1409567625 1409567625 -13.00000000
-49.21705246 -41.41525269 3.37106371 16 3 22992 64.41200000 1409567627 1409567627 3.00000000
-1.96935356 -1.65717506 -0.50030118 3 4 22992 2.62200000 1409567629 1409567629 -11.00000000
-29.03320503 -24.42225838 3.31923938 42 5 22993 38.08400000 1409567632 1409567632 5.00000000
-2.35553360 -1.98073459 -0.48744980 2 6 22994 3.11600000 1409567634 1409567634 -9.00000000
-16.90048981 -14.20634556 2.71086168 10 7 22995 22.24400000 1409567636 1409567636 7.00000000
-2.90885472 -2.44428134 -0.46651584 1 8 22996 3.82800000 1409567639 1409567639 -7.00000000
-13.04432869 -10.95713520 2.69818163 52 9 22997 17.24800000 1409567641 1409567641 9.00000000
-3.85668659 -3.23958707 -0.44065943 6 10 22997 5.05600000 1409567643 1409567643 -5.00000000
-11.53484821 -9.68575001 2.92777324 35 11 22998 15.34400000 1409567646 1409567646 11.00000000
-5.65554142 -4.74724531 -0.38697207 3 12 22999 7.39400000 1409567648 1409567648 -3.00000000
-8.17469120 -6.85938025 2.46366405 14 13 23000 10.95200000 1409567650 1409567650 13.00000000
-9.87578678 -8.28383255 -0.22499642 18 14 23001 12.89200000 1409567653 1409567653 -1.00000000
-8.04256535 -6.74373102 2.81232786 42 15 23002 10.86600000 1409567655 1409567655 15.00000000
-1.48331475 -1.24068367 -0.51815575 9 0 23009 2.00200000 1409567676 1409567676 -15.00000000
-1.69408846 -1.41597545 -0.50973910 4 2 23011 2.26600000 1409567680 1409567680 -13.00000000
-49.51458740 -41.37126160 3.38153076 16 3 23012 64.61200000 1409567682 1409567682 3.00000000
-1.96307349 -1.64022028 -0.49724823 3 4 23012 2.60600000 1409567685 1409567685 -11.00000000
-29.03417397 -24.25051880 3.30965209 52 5 23013 37.97400000 1409567687 1409567687 5.00000000
-2.36546612 -1.97503233 -0.48807552 2 6 23014 3.12000000 1409567689 1409567689 -9.00000000
-17.02312660 -14.20832157 2.72256112 10 7 23015 22.34000000 1409567692 1409567692 7.00000000
-2.92651439 -2.44174314 -0.46797827 1 8 23016 3.84000000 1409567694 1409567694 -7.00000000
-13.06845760 -10.90369415 2.69567871 48 9 23016 17.23200000 1409567696 1409567696 9.00000000
-3.86185122 -3.22100019 -0.43996218 9 10 23017 5.04800000 1409567699 1409567699 -5.00000000
-11.57461929 -9.65045643 2.92929959 35 11 23018 15.35200000 1409567701 1409567701 11.00000000
-5.66287279 -4.71980238 -0.38634402 3 12 23019 7.38200000 1409567703 1409567703 -3.00000000
-9.50263309 -7.91729498 2.85552859 32 13 23020 12.69400000 1409567706 1409567706 13.00000000
-9.87544823 -8.22499371 -0.22433323 9 14 23021 12.85400000 1409567708 1409567708 -1.00000000
-8.06340027 -6.71578741 2.81181002 40 15 23021 10.86400000 1409567710 1409567710 15.00000000
-1.47426116 -1.22438991 -0.51349699 9 0 23029 1.98400000 1409567731 1409567731 -15.00000000
-1.70501912 -1.41503143 -0.51153868 4 2 23031 2.27400000 1409567735 1409567735 -13.00000000
-53.83816910 -44.66557312 3.66613364 17 3 23032 70.05000000 1409567738 1409567738 3.00000000
-1.97180891 -1.63586497 -0.49801147 3 4 23032 2.61000000 1409567740 1409567740 -11.00000000
-29.01896286 -24.06635094 3.29832196 52 5 23033 37.84400000 1409567742 1409567742 5.00000000
-2.36017990 -1.95667732 -0.48557258 2 6 23034 3.10400000 1409567745 1409567745 -9.00000000
-17.14904213 -14.21214676 2.73474813 10 7 23035 22.44000000 1409567747 1409567747 7.00000000
-2.94113445 -2.43657851 -0.46895322 1 8 23036 3.84800000 1409567749 1409567749 -7.00000000
-13.10224819 -10.85068321 2.69442725 44 9 23037 17.22400000 1409567752 1409567752 9.00000000
-3.87307096 -3.20750022 -0.43996218 9 10 23037 5.04800000 1409567754 1409567754 -5.00000000
-11.60521030 -9.60749054 2.92853642 35 11 23038 15.34800000 1409567756 1409567756 11.00000000
-5.68085194 -4.70128012 -0.38644871 3 12 23039 7.38400000 1409567758 1409567758 -3.00000000
-9.53171253 -7.88531876 2.85597849 44 13 23040 12.69600000 1409567761 1409567761 13.00000000
-9.87944221 -8.17008114 -0.22377476 6 14 23041 12.82200000 1409567763 1409567763 -1.00000000
-8.07753754 -6.67757225 2.80818653 38 15 23042 10.85000000 1409567765 1409567765 15.00000000
-1.47703564 -1.21800733 -0.51297933 7 0 23049 1.98200000 1409567786 1409567786 -15.00000000
-1.70092463 -1.40163553 -0.50883931 4 2 23051 2.26200000 1409567791 1409567791 -13.00000000
-53.85963821 -44.36688995 3.65702724 17 3 23052 69.87600000 1409567793 1409567793 3.00000000
-1.98962975 -1.63895810 -0.50106442 3 4 23052 2.62600000 1409567795 1409567795 -11.00000000
-29.02589035 -23.90158272 3.28960633 52 5 23053 37.74400000 1409567798 1409567798 5.00000000
-2.35784483 -1.94089425 -0.48369536 2 6 23054 3.09200000 1409567800 1409567800 -9.00000000
-17.19241524 -14.14715385 2.73377299 7 7 23055 22.43200000 1409567802 1409567802 7.00000000
-2.96801853 -2.44143009 -0.47187811 1 8 23056 3.87200000 1409567805 1409567805 -7.00000000
-13.14426136 -10.81219387 2.69567871 52 9 23056 17.23200000 1409567807 1409567807 9.00000000
-3.88424373 -3.19396114 -0.43996218 6 10 23057 5.04800000 1409567809 1409567809 -5.00000000
-11.63564301 -9.56442833 2.92777324 35 11 23058 15.34400000 1409567811 1409567811 11.00000000
-5.69105530 -4.67634964 -0.38603002 3 12 23059 7.37600000 1409567814 1409567814 -3.00000000
-9.56821537 -7.85942030 2.85867810 43 13 23060 12.70800000 1409567816 1409567816 13.00000000
-9.88317394 -8.11524200 -0.22321628 6 14 23061 12.79000000 1409567818 1409567818 -1.00000000
-8.10560894 -6.65565348 2.81025720 38 15 23061 10.85800000 1409567821 1409567821 15.00000000
-1.49024677 -1.22018719 -0.51608515 6 0 23069 1.99400000 1409567841 1409567841 -15.00000000
-1.70429862 -1.39445555 -0.50838935 4 2 23071 2.26000000 1409567846 1409567846 -13.00000000
-53.87503815 -44.06481171 3.64760685 17 3 23072 69.69600000 1409567848 1409567848 3.00000000
-1.99533868 -1.63200307 -0.50106442 3 4 23072 2.62600000 1409567851 1409567851 -11.00000000
-29.02585411 -23.73201752 3.28019357 52 5 23073 37.63600000 1409567853 1409567853 5.00000000
-2.37378240 -1.94015265 -0.48557258 2 6 23074 3.10400000 1409567855 1409567855 -9.00000000
-20.06867981 -16.39679909 3.18200850 21 7 23075 26.11000000 1409567858 1409567858 7.00000000
-2.97037292 -2.42603207 -0.47090313 1 8 23076 3.86400000 1409567860 1409567860 -7.00000000
-13.17462063 -10.75644970 2.69380140 48 9 23077 17.22000000 1409567862 1409567862 9.00000000
-3.90462899 -3.18794346 -0.44100806 6 10 23077 5.06000000 1409567864 1409567864 -5.00000000
-11.66743660 -9.52251339 2.92739153 35 11 23078 15.34200000 1409567867 1409567867 11.00000000
-5.71043968 -4.65898085 -0.38623935 3 12 23079 7.38000000 1409567869 1409567869 -3.00000000
-9.58652973 -7.81858301 2.85597849 39 13 23080 12.69600000 1409567871 1409567871 13.00000000
-9.88509274 -8.05921268 -0.22262290 6 14 23081 12.75600000 1409567874 1409567874 -1.00000000
-8.13444138 -6.62956142 2.81181002 35 15 23082 10.86400000 1409567876 1409567876 15.00000000
-1.50070572 -1.21959043 -0.51815575 5 0 23090 2.00200000 1409567897 1409567897 -15.00000000
-1.71091080 -1.38942814 -0.50883931 4 2 23092 2.26200000 1409567901 1409567901 -13.00000000
-54.15713120 -43.96524048 3.65577126 17 3 23093 69.85200000 1409567904 1409567904 3.00000000
-1.98911309 -1.61477971 -0.49801147 3 4 23093 2.61000000 1409567906 1409567906 -11.00000000
-29.02909851 -23.55767822 3.27078080 42 5 23094 37.52800000 1409567908 1409567908 5.00000000
-2.38087749 -1.93143916 -0.48557258 2 6 23095 3.10400000 1409567911 1409567911 -9.00000000
-20.14714432 -16.33813667 3.18493342 31 7 23096 26.13400000 1409567913 1409567913 7.00000000
-2.96228218 -2.40137815 -0.46822202 1 8 23097 3.84200000 1409567915 1409567915 -7.00000000
-13.20594883 -10.70542049 2.69254994 44 9 23097 17.21200000 1409567917 1409567917 9.00000000
-3.91938305 -3.17611980 -0.44135669 9 10 23098 5.06400000 1409567920 1409567920 -5.00000000
-11.71599007 -9.49080753 2.93082619 35 11 23099 15.36000000 1409567922 1409567922 11.00000000
-5.71350765 -4.62670708 -0.38529730 3 12 23100 7.36200000 1409567924 1409567924 -3.00000000
-9.60603428 -7.77603769 2.85327911 41 13 23101 12.68400000 1409567927 1409567927 13.00000000
-9.86793041 -7.98519087 -0.22157575 6 14 23102 12.69600000 1409567929 1409567929 -1.00000000
-8.15903473 -6.60234165 2.81232786 38 15 23102 10.86600000 1409567931 1409567931 15.00000000
-1.49593306 -1.20706582 -0.51504987 5 0 23110 1.99000000 1409567952 1409567952 -15.00000000
-1.71878445 -1.38589394 -0.50973910 4 2 23112 2.26600000 1409567957 1409567957 -13.00000000
-45.47936630 -36.65792465 3.06133938 43 3 23113 58.49400000 1409567959 1409567959 3.00000000
-1.99168050 -1.60536253 -0.49724823 3 4 23113 2.60600000 1409567961 1409567961 -11.00000000
-29.02272224 -23.38495064 3.26084495 63 5 23114 37.41400000 1409567964 1409567964 5.00000000
-2.40298915 -1.93550789 -0.48870125 2 6 23115 3.12400000 1409567966 1409567966 -9.00000000
-20.21178246 -16.27393532 3.18615222 31 7 23116 26.14400000 1409567968 1409567968 7.00000000
-2.96910000 -2.38977838 -0.46797827 1 8 23117 3.84000000 1409567970 1409567970 -7.00000000
-13.24817562 -10.65942287 2.69317579 32 9 23118 17.21600000 1409567973 1409567973 9.00000000
-3.91802740 -3.15242743 -0.43996218 9 10 23118 5.04800000 1409567975 1409567975 -5.00000000
-11.51957417 -9.26528645 2.87358356 32 11 23119 15.06000000 1409567977 1409567977 11.00000000
-5.74363184 -4.61799860 -0.38623935 3 12 23120 7.38000000 1409567980 1409567980 -3.00000000
-9.63615704 -7.74490070 2.85417891 40 13 23121 12.68800000 1409567982 1409567982 13.00000000
-9.88950825 -7.94568682 -0.22143613 4 14 23122 12.68800000 1409567984 1409567984 -1.00000000
-8.17866039 -6.56876421 2.81077480 35 15 23123 10.86000000 1409567987 1409567987 15.00000000
-1.49540520 -1.19847405 -0.51349699 5 0 23129 1.98400000 1409568007 1409568007 -15.00000000
-45.50621033 -36.45734787 1.01778948 14 1 23130 58.31800000 1409568010 1409568010 1.00000000
-1.72945511 -1.38505924 -0.51153868 4 2 23131 2.27400000 1409568012 1409568012 -13.00000000
-45.46971130 -36.40205383 3.05254698 43 3 23132 58.32600000 1409568014 1409568014 3.00000000
-2.00312352 -1.60365689 -0.49877471 3 4 23132 2.61400000 1409568017 1409568017 -11.00000000
-29.01144218 -23.21761894 3.25090909 51 5 23133 37.30000000 1409568019 1409568019 5.00000000
-2.39551163 -1.91642249 -0.48588544 2 6 23134 3.10600000 1409568021 1409568021 -9.00000000
-20.26408768 -16.20558167 3.18590832 28 7 23135 26.14200000 1409568023 1409568023 7.00000000
-2.98476124 -2.38611722 -0.46919698 1 8 23136 3.85000000 1409568026 1409568026 -7.00000000
-13.25382519 -10.59554768 2.68754411 48 9 23136 17.18000000 1409568028 1409568028 9.00000000
-3.92223406 -3.13444209 -0.43926495 6 10 23137 5.04000000 1409568030 1409568030 -5.00000000
-11.77418423 -9.40593910 2.92929959 35 11 23138 15.35200000 1409568033 1409568033 11.00000000
-5.75735331 -4.59768057 -0.38613468 7 12 23139 7.37800000 1409568035 1409568035 -3.00000000
-9.67092514 -7.72019815 2.85687828 42 13 23140 12.70000000 1409568037 1409568037 13.00000000
-9.95018959 -7.94028854 -0.22220404 4 14 23141 12.73200000 1409568040 1409568040 -1.00000000
-8.19170666 -6.53701258 2.80818653 38 15 23141 10.85000000 1409568042 1409568042 15.00000000
-1.50411463 -1.19685543 -0.51504987 5 0 23149 1.99000000 1409568063 1409568063 -15.00000000
-45.47669220 -36.17379379 1.01429892 14 1 23150 58.11800000 1409568065 1409568065 1.00000000
-1.72817802 -1.37416255 -0.50973910 4 2 23151 2.26600000 1409568067 1409568067 -13.00000000
-45.47923660 -36.14990616 3.04469657 14 3 23152 58.17600000 1409568070 1409568070 3.00000000
-2.01485682 -1.60154140 -0.50030118 3 4 23152 2.62200000 1409568072 1409568072 -11.00000000
-29.00651550 -23.04803658 3.24132204 51 5 23153 37.19000000 1409568074 1409568074 5.00000000
-2.39599943 -1.90313447 -0.48463398 2 6 23154 3.09800000 1409568076 1409568076 -9.00000000
-20.31120491 -16.12734222 3.18444586 28 7 23155 26.13000000 1409568079 1409568079 7.00000000
-2.99462700 -2.37691784 -0.46944070 1 8 23156 3.85200000 1409568081 1409568081 -7.00000000
-13.28918266 -10.54799080 2.68723130 44 9 23156 17.17800000 1409568083 1409568083 9.00000000
-3.93315125 -3.12073183 -0.43926495 6 10 23157 5.04000000 1409568086 1409568086 -5.00000000
-11.80540752 -9.36356163 2.92891812 35 11 23158 15.35000000 1409568088 1409568088 11.00000000
-5.76710701 -4.57259178 -0.38571599 7 12 23159 7.37000000 1409568090 1409568090 -3.00000000
-9.70086861 -7.68881416 2.85777831 39 13 23160 12.70400000 1409568093 1409568093 13.00000000
-10.33833885 -8.19112968 -0.23023215 4 14 23161 13.19200000 1409568095 1409568095 -1.00000000
-8.22204590 -6.51437712 2.81077480 28 15 23161 10.86000000 1409568097 1409568097 15.00000000
-1.50979912 -1.19279540 -0.51556754 4 0 23169 1.99200000 1409568118 1409568118 -15.00000000
-45.74706268 -36.12885284 1.01751018 14 1 23170 58.30200000 1409568120 1409568120 1.00000000
-1.72684610 -1.36329162 -0.50793946 4 2 23171 2.25800000 1409568123 1409568123 -13.00000000
-45.79328918 -36.13941193 3.05725718 14 3 23172 58.41600000 1409568125 1409568125 3.00000000
-2.02351713 -1.59693098 -0.50106442 3 4 23172 2.62600000 1409568127 1409568127 -11.00000000
-29.01640129 -22.89111328 3.23347807 51 5 23173 37.10000000 1409568129 1409568129 5.00000000
-2.40107703 -1.89353597 -0.48432112 2 6 23174 3.09600000 1409568132 1409568132 -9.00000000
-20.35802269 -16.04897118 3.18298340 31 7 23175 26.11800000 1409568134 1409568134 7.00000000
-2.99978733 -2.36399293 -0.46895322 1 8 23176 3.84800000 1409568136 1409568136 -7.00000000
-13.31844330 -10.49187756 2.68535399 44 9 23177 17.16600000 1409568139 1409568139 9.00000000
-3.94558573 -3.10821652 -0.43943927 6 10 23177 5.04200000 1409568141 1409568141 -5.00000000
-11.29509068 -8.89474583 2.79458857 13 11 23178 14.64600000 1409568143 1409568143 11.00000000
-5.77047873 -4.54255009 -0.38487864 7 12 23179 7.35400000 1409568146 1409568146 -3.00000000
-9.72458553 -7.65249443 2.85687828 43 13 23180 12.70000000 1409568148 1409568148 13.00000000
-9.87178612 -7.76554012 -0.21923713 2 14 23181 12.56200000 1409568150 1409568150 -1.00000000
-8.24777222 -6.48802567 2.81181002 35 15 23181 10.86400000 1409568152 1409568152 15.00000000
-1.52155364 -1.19347942 -0.51815575 5 0 23189 2.00200000 1409568173 1409568173 -15.00000000
-1.73312807 -1.35845768 -0.50838935 4 2 23191 2.26000000 1409568178 1409568178 -13.00000000
-46.07637405 -36.10252762 3.06772447 14 3 23192 58.61600000 1409568180 1409568180 3.00000000
-2.01671624 -1.58017099 -0.49801147 3 4 23192 2.61000000 1409568182 1409568182 -11.00000000
-29.00986099 -22.72211838 3.22389102 41 5 23193 36.99000000 1409568185 1409568185 5.00000000
-2.41078258 -1.88757873 -0.48494685 2 6 23194 3.10000000 1409568187 1409568187 -9.00000000
-20.39985085 -15.96679878 3.18078995 28 7 23195 26.10000000 1409568189 1409568189 7.00000000
-2.98300624 -2.33393550 -0.46505341 1 8 23196 3.81600000 1409568192 1409568192 -7.00000000
-11.34154606 -8.87055397 2.28050160 14 9 23197 14.57800000 1409568194 1409568194 9.00000000
-3.96896648 -3.10424447 -0.44083375 3 10 23197 5.05800000 1409568196 1409568196 -5.00000000
-11.87667561 -9.28575420 2.93044448 32 11 23198 15.35800000 1409568199 1409568199 11.00000000
-5.79574203 -4.52975893 -0.38550666 3 12 23199 7.36600000 1409568201 1409568201 -3.00000000
-9.74509621 -7.61370373 2.85507870 43 13 23200 12.69200000 1409568203 1409568203 13.00000000
-9.85312939 -7.69533920 -0.21822488 4 14 23201 12.50400000 1409568205 1409568205 -1.00000000
-8.27606487 -6.46131897 2.81336308 38 15 23202 10.87000000 1409568208 1409568208 15.00000000
-1.51046860 -1.17629111 -0.51297933 5 0 23209 1.98200000 1409568229 1409568229 -15.00000000
-37.20595932 -28.96405029 0.82302058 11 1 23210 47.15800000 1409568231 1409568231 1.00000000
-1.74862492 -1.36077726 -0.51153868 4 2 23211 2.27400000 1409568233 1409568233 -13.00000000
-37.18333817 -28.92559814 2.46889639 43 3 23212 47.17400000 1409568235 1409568235 3.00000000
-2.02531886 -1.57553267 -0.49877471 3 4 23212 2.61400000 1409568238 1409568238 -11.00000000
-28.41741180 -22.09846497 3.14945984 41 5 23213 36.13600000 1409568240 1409568240 5.00000000
-2.42047596 -1.88157678 -0.48557258 2 6 23214 3.10400000 1409568242 1409568242 -9.00000000
-20.44135475 -15.88453007 3.17859626 12 7 23215 26.08200000 1409568245 1409568245 7.00000000
-3.01465034 -2.34177518 -0.46870950 1 8 23216 3.84600000 1409568247 1409568247 -7.00000000
-13.36016083 -10.37441158 2.67909670 20 9 23217 17.12600000 1409568249 1409568249 9.00000000
-3.97977829 -3.09037137 -0.44083375 3 10 23217 5.05800000 1409568252 1409568252 -5.00000000
-11.91677094 -9.25025940 2.93235254 35 11 23218 15.36800000 1409568254 1409568254 11.00000000
-5.81625223 -4.51317358 -0.38582066 7 12 23219 7.37200000 1409568256 1409568256 -3.00000000
-9.77469349 -7.58202934 2.85597849 39 13 23220 12.69600000 1409568258 1409568258 13.00000000
-9.85464573 -7.64129257 -0.21766642 6 14 23221 12.47200000 1409568261 1409568261 -1.00000000
-8.29286575 -6.43028784 2.81181002 35 15 23221 10.86400000 1409568263 1409568263 15.00000000
-1.51762199 -1.17337477 -0.51401460 5 0 23229 1.98600000 1409568284 1409568284 -15.00000000
-37.24671173 -28.78753090 0.82169420 11 1 23230 47.08200000 1409568286 1409568286 1.00000000
-1.75028014 -1.35228229 -0.51063889 4 2 23231 2.27000000 1409568288 1409568288 -13.00000000
-37.20820618 -28.73702812 2.46387219 32 3 23232 47.07800000 1409568291 1409568291 3.00000000
-2.03702140 -1.57325351 -0.50030118 3 4 23232 2.62200000 1409568293 1409568293 -11.00000000
-28.99588203 -22.38632393 3.20489097 51 5 23233 36.77200000 1409568295 1409568295 5.00000000
-2.43328452 -1.87794387 -0.48682407 2 6 23234 3.11200000 1409568298 1409568298 -9.00000000
-20.48410225 -15.80337906 3.17664623 9 7 23235 26.06600000 1409568300 1409568300 7.00000000
-3.02752209 -2.33487463 -0.46944070 1 8 23236 3.85200000 1409568302 1409568302 -7.00000000
-15.21730042 -11.73159695 3.04327607 42 9 23237 19.45400000 1409568305 1409568305 9.00000000
-3.96845055 -3.05942988 -0.43839338 3 10 23237 5.03000000 1409568307 1409568307 -5.00000000
-11.94898796 -9.20860577 2.93235254 35 11 23238 15.36800000 1409568309 1409568309 11.00000000
-5.83197069 -4.49284363 -0.38582066 7 12 23239 7.37200000 1409568311 1409568311 -3.00000000
-9.86858273 -7.59708834 -0.21738717 6 14 23241 12.45600000 1409568316 1409568316 -1.00000000
-8.31219959 -6.39894438 2.81077480 35 15 23241 10.86000000 1409568318 1409568318 15.00000000
-1.52783835 -1.17277539 -0.51608515 5 0 23249 1.99400000 1409568340 1409568340 -15.00000000
-37.19467163 -28.54047585 0.81834334 11 1 23250 46.89000000 1409568342 1409568342 1.00000000
-1.75189734 -1.34379232 -0.50973910 4 2 23251 2.26600000 1409568345 1409568345 -13.00000000
-37.18602753 -28.52353096 2.45612645 32 3 23251 46.93000000 1409568347 1409568347 3.00000000
-2.03938460 -1.56374419 -0.49953794 3 4 23252 2.61800000 1409568349 1409568349 -11.00000000
-28.99478340 -22.22436905 3.19617534 51 5 23253 36.67200000 1409568352 1409568352 5.00000000
-2.43512082 -1.86583436 -0.48588544 2 6 23254 3.10600000 1409568354 1409568354 -9.00000000
-17.05317688 -13.06173515 2.63749623 2 7 23255 21.64200000 1409568356 1409568356 7.00000000
-3.02934933 -2.31946540 -0.46846575 1 8 23256 3.84400000 1409568358 1409568358 -7.00000000
-15.23886681 -11.66786003 3.03983450 46 9 23256 19.43200000 1409568361 1409568361 9.00000000
-4.00125599 -3.06251216 -0.44083375 3 10 23257 5.05800000 1409568363 1409568363 -5.00000000
-11.97170353 -9.15968227 2.93006301 35 11 23258 15.35600000 1409568365 1409568365 11.00000000
-5.84444523 -4.47003222 -0.38561133 3 12 23259 7.36800000 1409568368 1409568368 -3.00000000
-8.23438454 -6.29566240 2.39302921 11 13 23260 10.63800000 1409568370 1409568370 13.00000000
-9.87120914 -7.54438019 -0.21686360 9 14 23261 12.42600000 1409568372 1409568372 -1.00000000
-8.33448505 -6.36989021 2.81077480 35 15 23261 10.86000000 1409568375 1409568375 15.00000000
-1.53038633 -1.16626406 -0.51556754 4 0 23269 1.99200000 1409568395 1409568395 -15.00000000
-37.20817184 -28.34503174 0.81645846 11 1 23270 46.78200000 1409568398 1409568398 1.00000000
-1.75657737 -1.33766890 -0.50973910 4 2 23271 2.26600000 1409568400 1409568400 -13.00000000
-37.19496918 -28.31446075 2.44984603 42 3 23272 46.81000000 1409568402 1409568402 3.00000000
-2.04795504 -1.55899417 -0.50030118 3 4 23272 2.62200000 1409568405 1409568405 -11.00000000
-28.99290848 -22.06269646 3.18745971 41 5 23273 36.57200000 1409568407 1409568407 5.00000000
-2.43847466 -1.85493088 -0.48525971 1 6 23274 3.10200000 1409568409 1409568409 -9.00000000
-17.06864548 -12.97929859 2.63286519 2 7 23275 21.60400000 1409568411 1409568411 7.00000000
-3.04058790 -2.31127930 -0.46895322 1 8 23276 3.84800000 1409568414 1409568414 -7.00000000
-15.30040359 -11.62627029 3.04358888 46 9 23277 19.45600000 1409568416 1409568416 9.00000000
-4.00398970 -3.04249930 -0.43996218 6 10 23277 5.04800000 1409568418 1409568418 -5.00000000
-12.00985718 -9.12258720 2.93158937 35 11 23278 15.36400000 1409568421 1409568421 11.00000000
-5.86160374 -4.45081186 -0.38571599 3 12 23279 7.37000000 1409568423 1409568423 -3.00000000
-8.28269863 -6.28691006 2.40067768 14 13 23280 10.67200000 1409568425 1409568425 13.00000000
-9.86880970 -7.48811960 -0.21623531 20 14 23281 12.39000000 1409568428 1409568428 -1.00000000
-8.36393261 -6.34396982 2.81284547 35 15 23282 10.86800000 1409568430 1409568430 15.00000000
-1.53927302 -1.16414309 -0.51712048 4 0 23290 1.99800000 1409568451 1409568451 -15.00000000
-37.34052658 -28.23017311 0.81708676 11 1 23291 46.81800000 1409568453 1409568453 1.00000000
-1.76146829 -1.33122170 -0.50973910 4 2 23292 2.26600000 1409568455 1409568455 -13.00000000
-37.28879929 -28.18083954 2.44953203 10 3 23292 46.80400000 1409568458 1409568458 3.00000000
-2.04738927 -1.54674387 -0.49877471 3 4 23293 2.61400000 1409568460 1409568460 -11.00000000
-29.00520897 -21.90465355 3.17996454 31 5 23294 36.48600000 1409568462 1409568462 5.00000000
-2.45471621 -1.85312212 -0.48713693 2 6 23295 3.11400000 1409568464 1409568464 -9.00000000
-20.71932411 -15.63582134 3.18712711 12 7 23296 26.15200000 1409568467 1409568467 7.00000000
-3.03319144 -2.28816462 -0.46651584 1 8 23297 3.82800000 1409568469 1409568469 -7.00000000
-15.33975887 -11.56773472 3.04296327 46 9 23298 19.45200000 1409568471 1409568471 9.00000000
-4.02147722 -3.03260207 -0.44065943 6 10 23298 5.05600000 1409568474 1409568474 -5.00000000
-12.05889034 -9.09032536 2.93540549 35 11 23299 15.38400000 1409568476 1409568476 11.00000000
-5.87309217 -4.42569208 -0.38540199 3 12 23300 7.36400000 1409568478 1409568478 -3.00000000
-8.32280731 -6.26940775 2.40562654 15 13 23301 10.69400000 1409568481 1409568481 13.00000000
-9.86583710 -7.42904377 -0.21557212 20 14 23302 12.35200000 1409568483 1409568483 -1.00000000
-8.40763187 -6.33100510 2.82009220 11 15 23302 10.89600000 1409568485 1409568485 15.00000000
-1.53869259 -1.15528309 -0.51556754 4 0 23310 1.99200000 1409568506 1409568506 -15.00000000
-37.61156845 -28.22929955 0.82085651 11 1 23311 47.03400000 1409568508 1409568508 1.00000000
-1.76454568 -1.32389545 -0.50928921 4 2 23312 2.26400000 1409568510 1409568510 -13.00000000
-37.61380005 -28.22071266 2.46439552 10 3 23312 47.08800000 1409568513 1409568513 3.00000000
-2.05277610 -1.53958774 -0.49877471 3 4 23313 2.61400000 1409568515 1409568515 -11.00000000
-22.83095741 -17.11705589 2.49648905 9 5 23314 28.64400000 1409568517 1409568517 5.00000000
-2.46433139 -1.84691167 -0.48776266 2 6 23315 3.11800000 1409568520 1409568520 -9.00000000
-20.72611618 -15.52769566 3.17981482 25 7 23316 26.09200000 1409568522 1409568522 7.00000000
-3.03798223 -2.27518296 -0.46602836 1 8 23317 3.82400000 1409568524 1409568524 -7.00000000
-15.35790539 -11.49754429 3.03858304 46 9 23318 19.42400000 1409568527 1409568527 9.00000000
-4.02565861 -3.01376987 -0.43996218 6 10 23318 5.04800000 1409568529 1409568529 -5.00000000
-12.09683514 -9.05288219 2.93693209 35 11 23319 15.39200000 1409568531 1409568531 11.00000000
-5.90769577 -4.41952133 -0.38665804 3 12 23320 7.38800000 1409568534 1409568534 -3.00000000
-8.38209534 -6.26832724 2.41642427 14 13 23321 10.74200000 1409568536 1409568536 13.00000000
-9.86608315 -7.37540340 -0.21501365 20 14 23322 12.32000000 1409568538 1409568538 -1.00000000
-1.53652036 -1.14528692 -0.51349699 4 0 23330 1.98400000 1409568561 1409568561 -15.00000000
-37.85098648 -28.20298004 0.82392812 11 1 23331 47.21000000 1409568563 1409568563 1.00000000
-1.77697051 -1.32354832 -0.51153868 4 2 23332 2.27400000 1409568566 1409568566 -13.00000000
-37.89319611 -28.21386719 2.47590947 10 3 23333 47.30800000 1409568568 1409568568 3.00000000
-2.06128716 -1.53475773 -0.49953794 3 4 23333 2.61800000 1409568570 1409568570 -11.00000000
-22.82184219 -16.98610497 2.48899364 17 5 23334 28.55800000 1409568573 1409568573 5.00000000
-2.46442389 -1.83358169 -0.48651120 1 6 23335 3.11000000 1409568575 1409568575 -9.00000000
-20.71966362 -15.41023540 3.17055273 25 7 23336 26.01600000 1409568577 1409568577 7.00000000
-3.07139444 -2.28351498 -0.46992818 1 8 23337 3.85600000 1409568580 1409568580 -7.00000000
-15.38643646 -11.43948078 3.03670573 46 9 23337 19.41200000 1409568582 1409568582 9.00000000
-4.02975798 -2.99494529 -0.43926495 6 10 23338 5.04000000 1409568584 1409568584 -5.00000000
-12.12205791 -9.00591755 2.93540549 35 11 23339 15.38400000 1409568587 1409568587 11.00000000
-5.93270779 -4.40601730 -0.38728607 3 12 23340 7.40000000 1409568589 1409568589 -3.00000000
-8.44930077 -6.27271700 2.42947149 14 13 23341 10.80000000 1409568591 1409568591 13.00000000
-9.86607552 -7.32185173 -0.21445517 15 14 23342 12.28800000 1409568593 1409568593 -1.00000000
-7.44267559 -5.52137470 2.48310995 2 15 23343 9.59400000 1409568596 1409568596 15.00000000
-1.53740287 -1.13761830 -0.51246172 5 0 23350 1.98000000 1409568616 1409568616 -15.00000000
-38.14212418 -28.21338654 0.82811671 11 1 23351 47.45000000 1409568619 1409568619 1.00000000
-1.77217817 -1.31038582 -0.50883931 4 2 23352 2.26200000 1409568621 1409568621 -13.00000000
-38.13750839 -28.19967461 2.48574853 10 3 23352 47.49600000 1409568623 1409568623 3.00000000
-2.06978941 -1.52988708 -0.50030118 3 4 23353 2.62200000 1409568626 1409568626 -11.00000000
-28.67535782 -21.18768311 3.11930394 10 5 23354 35.79000000 1409568628 1409568628 5.00000000
-2.46922040 -1.82379448 -0.48619831 2 6 23355 3.10800000 1409568630 1409568630 -9.00000000
-20.72222710 -15.30008507 3.16275311 37 7 23356 25.95200000 1409568633 1409568633 7.00000000
-3.06337476 -2.26099157 -0.46749079 1 8 23357 3.83600000 1409568635 1409568635 -7.00000000
-15.41713428 -11.37480068 3.03451586 42 9 23358 19.39800000 1409568637 1409568637 9.00000000
-4.03698111 -2.97849488 -0.43891633 9 10 23358 5.03600000 1409568640 1409568640 -5.00000000
-12.14078045 -8.95422649 2.93235254 35 11 23359 15.36800000 1409568642 1409568642 11.00000000
-5.93197536 -4.37342930 -0.38623935 3 12 23360 7.38000000 1409568644 1409568644 -3.00000000
-8.52448273 -6.28249407 2.44476795 10 13 23361 10.86800000 1409568646 1409568646 13.00000000
-9.87225342 -7.27313519 -0.21403632 6 14 23362 12.26400000 1409568649 1409568649 -1.00000000
-8.43411350 -6.21135092 2.80663371 30 15 23363 10.84400000 1409568651 1409568651 15.00000000
-1.55070615 -1.13910687 -0.51556754 5 0 23370 1.99200000 1409568672 1409568672 -15.00000000
-1.77359962 -1.30188549 -0.50793946 4 2 23372 2.25800000 1409568676 1409568676 -13.00000000
-59.43859100 -43.63005066 3.86417294 18 3 23372 73.83400000 1409568679 1409568679 3.00000000
-2.07828283 -1.52497578 -0.50106442 3 4 23373 2.62600000 1409568681 1409568681 -11.00000000
-28.57402802 -20.95901299 3.10030413 30 5 23374 35.57200000 1409568683 1409568683 5.00000000
-2.46282721 -1.80581963 -0.48369536 2 6 23375 3.09200000 1409568686 1409568686 -9.00000000
-20.71306610 -15.18189049 3.15324736 43 7 23376 25.87400000 1409568688 1409568688 7.00000000
-3.06804609 -2.24793816 -0.46700332 1 8 23377 3.83200000 1409568690 1409568690 -7.00000000
-15.44202232 -11.31427288 3.03201270 42 9 23377 19.38200000 1409568693 1409568693 9.00000000
-4.06664181 -2.97851229 -0.44100806 9 10 23378 5.06000000 1409568695 1409568695 -5.00000000
-12.18146706 -8.91875172 2.93464231 35 11 23379 15.38000000 1409568697 1409568697 11.00000000
-5.92786503 -4.33854151 -0.38498330 3 12 23380 7.35600000 1409568699 1409568699 -3.00000000
-9.87337017 -7.22092342 -0.21351273 9 14 23382 12.23400000 1409568704 1409568704 -1.00000000
-8.46198177 -6.18643284 2.80870438 35 15 23383 10.85200000 1409568706 1409568706 15.00000000
-1.55467296 -1.13368702 -0.51556754 4 0 23390 1.99200000 1409568727 1409568727 -15.00000000
-28.93985558 -21.09556961 0.62511027 8 1 23391 35.81800000 1409568729 1409568729 1.00000000
-1.78758299 -1.30257237 -0.51063889 4 2 23392 2.27000000 1409568732 1409568732 -13.00000000
-28.90988922 -21.06599998 1.87467396 29 3 23392 35.82000000 1409568734 1409568734 3.00000000
-2.07407188 -1.51077640 -0.49877471 3 4 23393 2.61400000 1409568736 1409568736 -11.00000000
-28.64379311 -20.85679817 3.09995556 30 5 23394 35.56800000 1409568739 1409568739 5.00000000
-2.48189259 -1.80651176 -0.48619831 2 6 23395 3.10800000 1409568741 1409568741 -9.00000000
-20.71296501 -15.07095432 3.14520407 40 7 23396 25.80800000 1409568743 1409568743 7.00000000
-3.08390093 -2.24305320 -0.46822202 1 8 23397 3.84200000 1409568746 1409568746 -7.00000000
-15.46065426 -11.24519634 3.02794552 46 9 23397 19.35600000 1409568748 1409568748 9.00000000
-4.07056808 -2.95961237 -0.44031081 9 10 23398 5.05200000 1409568750 1409568750 -5.00000000
-12.21570110 -8.87848473 2.93540549 35 11 23399 15.38400000 1409568752 1409568752 11.00000000
-5.95913124 -4.32956219 -0.38603002 3 12 23400 7.37600000 1409568755 1409568755 -3.00000000
-10.00456619 -7.26607513 2.85462880 43 13 23401 12.69000000 1409568757 1409568757 13.00000000
-9.87747860 -7.17114210 -0.21305898 9 14 23402 12.20800000 1409568759 1409568759 -1.00000000
-8.48977852 -6.16139603 2.81077480 35 15 23403 10.86000000 1409568762 1409568762 15.00000000
-1.55842388 -1.12852526 -0.51556754 4 0 23409 1.99200000 1409568782 1409568782 -15.00000000
-28.95619774 -20.96079063 0.62395841 8 1 23410 35.75200000 1409568785 1409568785 1.00000000
-1.78084135 -1.28864050 -0.50748956 4 2 23411 2.25600000 1409568787 1409568787 -13.00000000
-28.92780876 -20.93254852 1.87132442 58 3 23411 35.75600000 1409568789 1409568789 3.00000000
-2.07588911 -1.50158894 -0.49801147 3 4 23412 2.61000000 1409568792 1409568792 -11.00000000
-28.79675484 -20.82240295 3.10901976 30 5 23413 35.67200000 1409568794 1409568794 5.00000000
-2.48466754 -1.79595721 -0.48557258 2 6 23414 3.10400000 1409568796 1409568796 -9.00000000
-20.71133804 -14.96498108 3.13740444 34 7 23415 25.74400000 1409568798 1409568798 7.00000000
-3.07040215 -2.21770406 -0.46505341 1 8 23416 3.81600000 1409568801 1409568801 -7.00000000
-15.49465752 -11.19155216 3.02731967 46 9 23416 19.35200000 1409568803 1409568803 9.00000000
-4.07874489 -2.94493127 -0.44013649 9 10 23417 5.05000000 1409568805 1409568805 -5.00000000
-12.25144386 -8.84252262 2.93693209 35 11 23418 15.39200000 1409568808 1409568808 11.00000000
-5.97993469 -4.31445169 -0.38644871 3 12 23419 7.38400000 1409568810 1409568810 -3.00000000
-10.03176785 -7.23513889 2.85552859 40 13 23420 12.69400000 1409568812 1409568812 13.00000000
-9.86227512 -7.11028099 -0.21222126 9 14 23421 12.16000000 1409568815 1409568815 -1.00000000
-8.50282478 -6.13017511 2.80870438 35 15 23421 10.85200000 1409568817 1409568817 15.00000000
-1.55607915 -1.11856818 -0.51349699 4 0 23429 1.98400000 1409568838 1409568838 -15.00000000
-28.92363358 -20.78373909 0.62168962 8 1 23430 35.62200000 1409568840 1409568840 1.00000000
-1.79957330 -1.29264843 -0.51153868 4 2 23431 2.27400000 1409568842 1409568842 -13.00000000
-28.92445946 -20.77667809 1.86640489 29 3 23431 35.66200000 1409568845 1409568845 3.00000000
-2.07792830 -1.49204350 -0.49724823 3 4 23432 2.60600000 1409568847 1409568847 -11.00000000
-28.82070541 -20.68690300 3.10379028 10 5 23433 35.61200000 1409568849 1409568849 5.00000000
-2.50376129 -1.79648590 -0.48807552 2 6 23434 3.12000000 1409568851 1409568851 -9.00000000
-20.71828461 -14.86019897 3.13057971 46 7 23435 25.68800000 1409568854 1409568854 7.00000000
-3.10716367 -2.22779346 -0.46944070 1 8 23436 3.85200000 1409568856 1409568856 -7.00000000
-15.52720737 -11.13279343 3.02606821 46 9 23436 19.34400000 1409568858 1409568858 9.00000000
-4.07280588 -2.91906929 -0.43839338 9 10 23437 5.03000000 1409568861 1409568861 -5.00000000
-12.27904415 -8.79741669 2.93616891 35 11 23438 15.38800000 1409568863 1409568863 11.00000000
-5.99820614 -4.29587746 -0.38665804 3 12 23439 7.38800000 1409568865 1409568865 -3.00000000
-10.06330013 -7.20461512 2.85732818 8 13 23440 12.70200000 1409568868 1409568868 13.00000000
-9.86426830 -7.05951881 -0.21173260 6 14 23441 12.13200000 1409568870 1409568870 -1.00000000
-7.56995726 -5.41556120 2.49398041 11 15 23442 9.63600000 1409568872 1409568872 15.00000000
-1.56469178 -1.11649597 -0.51504987 4 0 23449 1.99000000 1409568893 1409568893 -15.00000000
-28.94228172 -20.64432907 0.62053776 8 1 23450 35.55600000 1409568895 1409568895 1.00000000
-1.80248785 -1.28522754 -0.51108879 4 2 23451 2.27200000 1409568898 1409568898 -13.00000000
-28.92722702 -20.61836052 1.86169469 28 3 23452 35.57200000 1409568900 1409568900 3.00000000
-2.09271622 -1.49161816 -0.49953794 3 4 23452 2.61800000 1409568902 1409568902 -11.00000000
-28.54062653 -20.33529282 3.06596470 10 5 23453 35.17800000 1409568904 1409568904 5.00000000
-2.48910022 -1.77283740 -0.48400822 1 6 23454 3.09400000 1409568907 1409568907 -9.00000000
-20.71828270 -14.75094509 3.12278008 40 7 23455 25.62400000 1409568909 1409568909 7.00000000
-3.10521746 -2.21002746 -0.46797827 1 8 23456 3.84000000 1409568911 1409568911 -7.00000000
-15.55470753 -11.07050705 3.02387810 46 9 23456 19.33000000 1409568914 1409568914 9.00000000
-4.09758139 -2.91522980 -0.43996218 9 10 23457 5.04800000 1409568916 1409568916 -5.00000000
-12.30967808 -8.75450134 2.93616891 35 11 23458 15.38800000 1409568918 1409568918 11.00000000
-6.00014257 -4.26565552 -0.38582066 3 12 23459 7.37200000 1409568921 1409568921 -3.00000000
-8.81760979 -6.26634884 2.49740672 3 13 23460 11.10200000 1409568923 1409568923 13.00000000
-9.93938732 -7.06094408 -0.21281464 6 14 23461 12.19400000 1409568925 1409568925 -1.00000000
-7.57999992 -5.38483477 2.49139214 31 15 23461 9.62600000 1409568928 1409568928 15.00000000
-1.56857955 -1.11102736 -0.51504987 4 0 23469 1.99000000 1409568948 1409568948 -15.00000000
-28.93256760 -20.48539925 0.61879253 7 1 23470 35.45600000 1409568951 1409568951 1.00000000
-1.79582870 -1.27104712 -0.50793946 4 2 23471 2.25800000 1409568953 1409568953 -13.00000000
-28.91913223 -20.46073532 1.85656571 49 3 23472 35.47400000 1409568955 1409568955 3.00000000
-2.10111547 -1.48657191 -0.50030118 3 4 23472 2.62200000 1409568957 1409568957 -11.00000000
-28.77084923 -20.34828949 3.08304715 10 5 23473 35.37400000 1409568960 1409568960 5.00000000
-2.51624203 -1.77896261 -0.48807552 2 6 23474 3.12000000 1409568962 1409568962 -9.00000000
-20.69831848 -14.62812519 3.11205554 43 7 23475 25.53600000 1409568964 1409568964 7.00000000
-3.10642767 -2.19459319 -0.46700332 1 8 23476 3.83200000 1409568967 1409568967 -7.00000000
-15.59517860 -11.01342201 3.02387810 46 9 23477 19.33000000 1409568969 1409568969 9.00000000
-4.11424208 -2.90550613 -0.44065943 9 10 23477 5.05600000 1409568971 1409568971 -5.00000000
-12.33535004 -8.70808220 2.93502402 35 11 23478 15.38200000 1409568974 1409568974 11.00000000
-6.00194120 -4.23547268 -0.38498330 3 12 23479 7.35600000 1409568976 1409568976 -3.00000000
-7.61073828 -5.36480761 2.49501562 38 15 23482 9.64000000 1409568983 1409568983 15.00000000
-1.58054388 -1.11082482 -0.51763809 5 0 23490 2.00000000 1409569004 1409569004 -15.00000000
-28.94200516 -20.33323669 0.61739635 7 1 23491 35.37600000 1409569006 1409569006 1.00000000
-1.80366480 -1.26669645 -0.50883931 4 2 23492 2.26200000 1409569008 1409569008 -13.00000000
-28.92854309 -20.30870056 1.85237885 21 3 23493 35.39400000 1409569010 1409569010 3.00000000
-2.09690905 -1.47209275 -0.49801147 3 4 23493 2.61000000 1409569013 1409569013 -11.00000000
-28.85176086 -20.24728012 3.08374453 10 5 23494 35.38200000 1409569015 1409569015 5.00000000
-2.51627684 -1.76519048 -0.48682407 2 6 23495 3.11200000 1409569017 1409569017 -9.00000000
-20.71116066 -14.52367020 3.10596204 36 7 23496 25.48600000 1409569020 1409569020 7.00000000
-3.11770129 -2.18547177 -0.46749079 1 8 23497 3.83600000 1409569022 1409569022 -7.00000000
-15.63514519 -10.96005154 3.02419114 46 9 23497 19.33200000 1409569024 1409569024 9.00000000
-4.12160063 -2.88812041 -0.44031081 9 10 23498 5.05200000 1409569027 1409569027 -5.00000000
-12.38326359 -8.67407608 2.93884015 35 11 23499 15.40200000 1409569029 1409569029 11.00000000
-6.03378487 -4.22490168 -0.38603002 3 12 23500 7.37600000 1409569031 1409569031 -3.00000000
-10.14422131 -7.10042191 2.85867810 40 13 23501 12.70800000 1409569034 1409569034 13.00000000
-10.88589382 -7.61672354 -0.23190758 4 14 23502 13.28800000 1409569036 1409569036 -1.00000000
-7.62941837 -5.33820868 2.49501562 38 15 23502 9.64000000 1409569038 1409569038 15.00000000
-1.58599615 -1.10640621 -0.51815575 5 0 23510 2.00200000 1409569059 1409569059 -15.00000000
-29.10958099 -20.29957199 0.61945570 8 1 23511 35.49400000 1409569061 1409569061 1.00000000
-1.81766725 -1.26707923 -0.51153868 4 2 23512 2.27400000 1409569063 1409569063 -13.00000000
-29.11232567 -20.28638649 1.85960114 7 3 23513 35.53200000 1409569066 1409569066 3.00000000
-2.09881330 -1.46251929 -0.49724823 3 4 23513 2.60600000 1409569068 1409569068 -11.00000000
-29.01708221 -20.21249580 3.09385467 40 5 23514 35.49800000 1409569070 1409569070 5.00000000
-2.52242303 -1.75639629 -0.48682407 2 6 23515 3.11200000 1409569073 1409569073 -9.00000000
-18.97931480 -13.21062756 2.83931208 24 7 23516 23.29800000 1409569075 1409569075 7.00000000
-3.11227536 -2.16550541 -0.46554089 1 8 23517 3.82000000 1409569077 1409569077 -7.00000000
-15.66710281 -10.89703274 3.02262664 42 9 23518 19.32200000 1409569080 1409569080 9.00000000
-4.13165665 -2.87371564 -0.44031081 9 10 23518 5.05200000 1409569082 1409569082 -5.00000000
-12.41830254 -8.63416004 2.93998504 39 11 23519 15.40800000 1409569084 1409569084 11.00000000
-6.03537560 -4.19469547 -0.38519263 3 12 23520 7.36000000 1409569086 1409569086 -3.00000000
-10.17054558 -7.06608105 2.85912800 37 13 23521 12.71000000 1409569089 1409569089 13.00000000
-10.89927578 -7.56955290 -0.23162834 2 14 23522 13.27200000 1409569091 1409569091 -1.00000000
-7.64258528 -5.30580235 2.49294496 40 15 23523 9.63200000 1409569093 1409569093 15.00000000
-1.57536376 -1.09124041 -0.51349699 5 0 23529 1.98400000 1409569114 1409569114 -15.00000000
-29.31812286 -20.30083084 0.62245750 8 1 23530 35.66600000 1409569116 1409569116 1.00000000
-1.81705213 -1.25771737 -0.51018900 4 2 23531 2.26800000 1409569119 1409569119 -13.00000000
-29.34532166 -20.30451393 1.87017310 7 3 23532 35.73400000 1409569121 1409569121 3.00000000
-2.10688066 -1.45778549 -0.49801147 3 4 23532 2.61000000 1409569123 1409569123 -11.00000000
-2.51036048 -1.73566449 -0.48338249 2 6 23534 3.09000000 1409569128 1409569128 -9.00000000
-19.03934860 -13.15890408 2.84174943 33 7 23535 23.31800000 1409569130 1409569130 7.00000000
-3.13740468 -2.16758490 -0.46822202 3 8 23536 3.84200000 1409569133 1409569133 -7.00000000
-15.69963360 -10.84663582 3.02231383 46 9 23536 19.32000000 1409569135 1409569135 9.00000000
-4.13788509 -2.85773444 -0.43996218 9 10 23537 5.04800000 1409569137 1409569137 -5.00000000
-12.44363499 -8.59070110 2.93922186 26 11 23538 15.40400000 1409569139 1409569139 11.00000000
-6.06240320 -4.18373346 -0.38603002 3 12 23539 7.37600000 1409569142 1409569142 -3.00000000
-10.17627621 -7.02014303 2.85417891 35 13 23540 12.68800000 1409569144 1409569144 13.00000000
-10.92760944 -7.53563833 -0.23169814 4 14 23541 13.27600000 1409569146 1409569146 -1.00000000
-7.64490271 -5.27189636 2.48828626 40 15 23541 9.61400000 1409569149 1409569149 15.00000000
-1.58075523 -1.08682930 -0.51401460 4 0 23549 1.98600000 1409569169 1409569169 -15.00000000
-29.52064896 -20.28897858 0.62524992 8 1 23550 35.82600000 1409569172 1409569172 1.00000000
-1.81340027 -1.24584949 -0.50793946 4 2 23551 2.25800000 1409569174 1409569174 -13.00000000
-29.54608345 -20.29127884 1.87844217 21 3 23552 35.89200000 1409569176 1409569176 3.00000000
-2.11842990 -1.45486796 -0.49953794 3 4 23552 2.61800000 1409569179 1409569179 -11.00000000
-2.52454758 -1.73247969 -0.48494685 2 6 23554 3.10000000 1409569183 1409569183 -9.00000000
-19.05570221 -13.07215118 2.83736205 33 7 23555 23.28200000 1409569186 1409569186 7.00000000
-3.14658904 -2.15774274 -0.46846575 1 8 23556 3.84400000 1409569188 1409569188 -7.00000000
-15.73765373 -10.78790474 3.02200103 42 9 23557 19.31800000 1409569190 1409569190 9.00000000
-4.14454842 -2.84102011 -0.43961358 6 10 23557 5.04400000 1409569192 1409569192 -5.00000000
-12.43953609 -8.52390766 2.93120790 42 11 23558 15.36200000 1409569195 1409569195 11.00000000
-6.06378794 -4.15351677 -0.38519263 3 12 23559 7.36000000 1409569197 1409569197 -3.00000000
-10.22323036 -6.99999189 2.86047769 41 13 23560 12.71600000 1409569199 1409569199 13.00000000
-10.96044827 -7.50196600 -0.23183776 4 14 23561 13.28400000 1409569202 1409569202 -1.00000000
-7.68171215 -5.25584030 2.49398041 42 15 23562 9.63600000 1409569204 1409569204 15.00000000
-1.59251785 -1.08674943 -0.51660281 5 0 23569 1.99600000 1409569225 1409569225 -15.00000000
-29.73666191 -20.28497505 0.62832153 8 1 23570 36.00200000 1409569227 1409569227 1.00000000
-1.81934810 -1.24060988 -0.50838935 4 2 23571 2.26000000 1409569229 1409569229 -13.00000000
-29.74545860 -20.27576637 1.88660657 7 3 23572 36.04800000 1409569232 1409569232 3.00000000
-2.12349534 -1.44746447 -0.49953794 3 4 23572 2.61800000 1409569234 1409569234 -11.00000000
-29.01128006 -19.76790237 3.07136846 40 5 23573 35.24000000 1409569236 1409569236 5.00000000
-2.53057957 -1.72365689 -0.48494685 2 6 23574 3.10000000 1409569239 1409569239 -9.00000000
-19.08480644 -12.99438286 2.83492470 33 7 23575 23.26200000 1409569241 1409569241 7.00000000
-3.14917874 -2.14339495 -0.46773455 1 8 23576 3.83800000 1409569243 1409569243 -7.00000000
-15.77660751 -10.73787975 3.02262664 46 9 23576 19.32200000 1409569245 1409569245 9.00000000
-4.16267633 -2.83213925 -0.44048512 6 10 23577 5.05400000 1409569248 1409569248 -5.00000000
-12.44648743 -8.46497631 2.92586517 55 11 23578 15.33400000 1409569250 1409569250 11.00000000
-6.08485603 -4.13681650 -0.38561133 3 12 23579 7.36800000 1409569252 1409569252 -3.00000000
