# .PCD v0.7 - Point Cloud Data file format
VERSION 0.7
FIELDS x y z intensity laser_id azimuth distance_m adjustedtime timestamp vertical_angle
SIZE 4 4 4 1 1 2 8 8 4 8
TYPE F F F U U U F U U F
COUNT 1 1 1 1 1 1 1 1 1 1
WIDTH 516
HEIGHT 1
VIEWPOINT 0 0 0 1 0 0 0
POINTS 516
DATA ascii
-3.54714847 -1.44251168 -0.47017193 1 8 24787 3.85800000 1409772567 1409772567 -7.00000000
-12.38715839 -5.03494120 2.11780977 80 9 24788 13.53800000 1409772569 1409772569 9.00000000
-4.69741869 -1.90933418 -0.44362274 3 10 24788 5.09000000 1409772571 1409772571 -5.00000000
-12.25926781 -4.98046494 2.57210517 37 11 24789 13.48000000 1409772574 1409772574 11.00000000
-6.81360626 -2.76671863 -0.38540199 3 12 24790 7.36400000 1409772576 1409772576 -3.00000000
-10.91721058 -4.43079996 2.72010803 48 13 24791 12.09200000 1409772578 1409772578 13.00000000
-12.46353054 -5.05584764 -0.23476978 6 14 24792 13.45200000 1409772580 1409772580 -1.00000000
-9.64253521 -3.90954757 2.78799868 40 15 24793 10.77200000 1409772583 1409772583 15.00000000
-1.78222573 -0.72006595 -0.51504987 4 0 24800 1.99000000 1409772604 1409772604 -15.00000000
-12.44735241 -5.02652979 0.23431601 14 1 24801 13.42600000 1409772606 1409772606 1.00000000
-2.06189561 -0.83222276 -0.51333833 4 2 24802 2.28200000 1409772608 1409772608 -13.00000000
-12.45060825 -5.02279043 0.70360458 10 3 24803 13.44400000 1409772610 1409772610 3.00000000
-2.38145280 -0.96071923 -0.49915633 3 4 24803 2.61600000 1409772613 1409772613 -11.00000000
-12.43036556 -5.01210165 1.17259336 83 5 24804 13.45400000 1409772615 1409772615 5.00000000
-2.85820460 -1.15188920 -0.48807552 2 6 24805 3.12000000 1409772617 1409772617 -9.00000000
-12.42340755 -5.00425577 1.64450490 35 7 24806 13.49400000 1409772620 1409772620 7.00000000
-3.55584502 -1.43160379 -0.47065940 3 8 24807 3.86200000 1409772622 1409772622 -7.00000000
-12.38999748 -4.98577166 2.11530685 77 9 24808 13.52200000 1409772624 1409772624 9.00000000
-4.68557119 -1.88548779 -0.44187963 3 10 24808 5.07000000 1409772627 1409772627 -5.00000000
-10.11633778 -4.06879282 2.11950636 9 11 24809 11.10800000 1409772629 1409772629 11.00000000
-6.82692862 -2.74440765 -0.38561133 3 12 24810 7.36800000 1409772631 1409772631 -3.00000000
-11.03025532 -4.43189812 2.74440289 51 13 24811 12.20000000 1409772633 1409772633 13.00000000
-12.47182465 -5.00858498 -0.23459525 9 14 24812 13.44200000 1409772636 1409772636 -1.00000000
-9.64289761 -3.87251067 2.78437519 40 15 24812 10.75800000 1409772638 1409772638 15.00000000
-1.79010952 -0.71599269 -0.51660281 5 0 24820 1.99600000 1409772659 1409772659 -15.00000000
-12.45553780 -4.97933817 0.23414148 14 1 24821 13.41600000 1409772661 1409772661 1.00000000
-2.05393004 -0.82068193 -0.51063889 4 2 24822 2.27000000 1409772663 1409772663 -13.00000000
-12.46435547 -4.97781801 0.70339525 10 3 24823 13.44000000 1409772666 1409772666 3.00000000
-2.39573121 -0.95676935 -0.50144607 3 4 24823 2.62800000 1409772668 1409772668 -11.00000000
-12.43483162 -4.96351099 1.17137313 87 5 24824 13.44000000 1409772670 1409772670 5.00000000
-2.85486913 -1.13897729 -0.48682407 2 6 24825 3.11200000 1409772673 1409772673 -9.00000000
-12.42973709 -4.95644760 1.64304245 60 7 24826 13.48200000 1409772675 1409772675 7.00000000
-3.57004094 -1.42285752 -0.47187811 3 8 24827 3.87200000 1409772677 1409772677 -7.00000000
-12.40182018 -4.94029903 2.11436820 84 9 24828 13.51600000 1409772680 1409772680 9.00000000
-4.70693159 -1.87501919 -0.44327411 3 10 24828 5.08600000 1409772682 1409772682 -5.00000000
-12.29191494 -4.89403248 2.57172370 12 11 24829 13.47800000 1409772684 1409772684 11.00000000
-6.82533264 -2.71612978 -0.38498330 3 12 24830 7.35600000 1409772686 1409772686 -3.00000000
-11.12895298 -4.42649841 2.76509833 47 13 24831 12.29200000 1409772689 1409772689 13.00000000
-12.47622395 -4.95984840 -0.23435092 9 14 24832 13.42800000 1409772691 1409772691 -1.00000000
-9.66892338 -3.84382272 2.78799868 42 15 24832 10.77200000 1409772693 1409772693 15.00000000
-1.79606605 -0.71147549 -0.51763809 5 0 24839 2.00000000 1409772714 1409772714 -15.00000000
-12.46082592 -4.93358994 0.23393206 14 1 24840 13.40400000 1409772716 1409772716 1.00000000
-2.04576826 -0.80956393 -0.50793946 4 2 24841 2.25800000 1409772719 1409772719 -13.00000000
-12.45578957 -4.92908144 0.70203453 12 3 24841 13.41400000 1409772721 1409772721 3.00000000
-2.40254211 -0.95026374 -0.50220925 3 4 24842 2.63200000 1409772723 1409772723 -11.00000000
-12.43269444 -4.91492319 1.16963005 83 5 24843 13.42000000 1409772726 1409772726 5.00000000
-2.88435054 -1.13966656 -0.49120423 2 6 24844 3.14000000 1409772728 1409772728 -9.00000000
-12.40917778 -4.90061903 1.63816774 24 7 24845 13.44200000 1409772730 1409772730 7.00000000
-3.54888916 -1.40080738 -0.46846575 3 8 24846 3.84400000 1409772732 1409772732 -7.00000000
-12.39706802 -4.89333534 2.11092663 80 9 24846 13.49400000 1409772735 1409772735 9.00000000
-4.72053719 -1.86232483 -0.44397137 3 10 24847 5.09400000 1409772737 1409772737 -5.00000000
-12.31355572 -4.85540438 2.57286859 43 11 24848 13.48400000 1409772739 1409772739 11.00000000
-6.83801842 -2.69494581 -0.38519263 3 12 24849 7.36000000 1409772742 1409772742 -3.00000000
-11.23241520 -4.42456579 2.78714347 50 13 24850 12.39000000 1409772744 1409772744 13.00000000
-12.48515987 -4.91551828 -0.23421130 9 14 24851 13.42000000 1409772746 1409772746 -1.00000000
-9.67981911 -3.81103063 2.78748107 42 15 24851 10.77000000 1409772749 1409772749 15.00000000
-1.80573285 -0.70802253 -0.51970863 5 0 24859 2.00800000 1409772769 1409772769 -15.00000000
-12.45562935 -4.88130760 0.23351319 14 1 24860 13.38000000 1409772772 1409772772 1.00000000
-2.06309772 -0.80810380 -0.51153868 4 2 24861 2.27400000 1409772774 1409772774 -13.00000000
-12.44401550 -4.87174606 0.70035976 10 3 24862 13.38200000 1409772776 1409772776 3.00000000
-2.39487553 -0.93757725 -0.49991956 3 4 24862 2.62000000 1409772779 1409772779 -11.00000000
-12.44235325 -4.86859131 1.16893280 87 5 24863 13.41200000 1409772781 1409772781 5.00000000
-2.85519695 -1.11664057 -0.48557258 2 6 24864 3.10400000 1409772783 1409772783 -9.00000000
-12.42990685 -4.85871840 1.63865519 73 7 24865 13.44600000 1409772785 1409772785 7.00000000
-3.56670022 -1.39346766 -0.47017193 3 8 24866 3.85800000 1409772788 1409772788 -7.00000000
-12.40019894 -4.84211683 2.10842371 77 9 24867 13.47800000 1409772790 1409772790 9.00000000
-4.70844984 -1.83858860 -0.44222823 3 10 24867 5.07400000 1409772792 1409772792 -5.00000000
-12.32494259 -4.81025124 2.57172370 43 11 24868 13.47800000 1409772795 1409772795 11.00000000
-6.84738350 -2.67106032 -0.38519263 3 12 24869 7.36000000 1409772797 1409772797 -3.00000000
-11.33494091 -4.41930866 2.80873895 48 13 24870 12.48600000 1409772799 1409772799 13.00000000
-12.47056770 -4.85956383 -0.23361792 9 14 24871 13.38600000 1409772802 1409772802 -1.00000000
-9.31749439 -3.62899280 2.67929482 28 15 24872 10.35200000 1409772804 1409772804 15.00000000
-1.80291235 -0.69930363 -0.51815575 5 0 24880 2.00200000 1409772825 1409772825 -15.00000000
-12.46970749 -4.83417702 0.23344339 14 1 24881 13.37600000 1409772827 1409772827 1.00000000
-2.05877733 -0.79772043 -0.50973910 4 2 24882 2.26600000 1409772829 1409772829 -13.00000000
-12.44977093 -4.82394886 0.69973171 12 3 24882 13.37000000 1409772832 1409772832 3.00000000
-2.40195751 -0.93021131 -0.50068283 3 4 24883 2.62400000 1409772834 1409772834 -11.00000000
-12.42852688 -4.81072855 1.16596949 83 5 24884 13.37800000 1409772836 1409772836 5.00000000
-2.86295509 -1.10759377 -0.48619831 2 6 24885 3.10800000 1409772838 1409772838 -9.00000000
-12.42911625 -4.80596876 1.63621783 24 7 24886 13.42600000 1409772841 1409772841 7.00000000
-3.57363510 -1.38110125 -0.47041565 3 8 24887 3.86000000 1409772843 1409772843 -7.00000000
-12.39206505 -4.78667068 2.10404348 80 9 24888 13.45000000 1409772845 1409772845 9.00000000
-4.73002577 -1.82706213 -0.44362274 3 10 24888 5.09000000 1409772848 1409772848 -5.00000000
-12.35897350 -4.77140951 2.57515812 43 11 24889 13.49600000 1409772850 1409772850 11.00000000
-6.87203455 -2.65169740 -0.38603002 3 12 24890 7.37600000 1409772852 1409772852 -3.00000000
-11.44742775 -4.41489935 2.83258367 51 13 24891 12.59200000 1409772855 1409772855 13.00000000
-12.46403885 -4.80447435 -0.23316415 9 14 24892 13.36000000 1409772857 1409772857 -1.00000000
-9.71946049 -3.74653006 2.79110456 38 15 24892 10.78400000 1409772859 1409772859 15.00000000
-1.79993176 -0.69092911 -0.51660281 4 0 24900 1.99600000 1409772880 1409772880 -15.00000000
-12.45476723 -4.77844334 0.23285000 14 1 24901 13.34200000 1409772882 1409772882 1.00000000
-2.05609083 -0.78843594 -0.50838935 4 2 24902 2.26000000 1409772884 1409772884 -13.00000000
-12.45534420 -4.77617121 0.69910371 10 3 24902 13.35800000 1409772887 1409772887 3.00000000
-2.40885639 -0.92322648 -0.50144607 3 4 24903 2.62800000 1409772889 1409772889 -11.00000000
-12.42105675 -4.75805044 1.16370344 78 5 24904 13.35200000 1409772891 1409772891 5.00000000
-2.88156199 -1.10324383 -0.48870125 2 6 24905 3.12400000 1409772894 1409772894 -9.00000000
-12.43098450 -4.75687790 1.63426793 63 7 24906 13.41000000 1409772896 1409772896 7.00000000
-3.57101798 -1.36578202 -0.46944070 3 8 24907 3.85200000 1409772898 1409772898 -7.00000000
-12.39393711 -4.73774242 2.10154057 80 9 24908 13.43400000 1409772901 1409772901 9.00000000
-4.71032000 -1.80058038 -0.44118237 3 10 24908 5.06200000 1409772903 1409772903 -5.00000000
-12.36088181 -4.72263384 2.57210517 46 11 24909 13.48000000 1409772905 1409772905 11.00000000
-6.88871193 -2.63054347 -0.38644871 3 12 24910 7.38400000 1409772908 1409772908 -3.00000000
-11.53741550 -4.40340328 2.85102963 51 13 24911 12.67400000 1409772910 1409772910 13.00000000
-12.45457649 -4.75095940 -0.23267548 9 14 24912 13.33200000 1409772912 1409772912 -1.00000000
-9.71442890 -3.70569468 2.78592825 40 15 24912 10.76400000 1409772914 1409772914 15.00000000
-1.79883993 -0.68295598 -0.51556754 5 0 24921 1.99200000 1409772935 1409772935 -15.00000000
-12.44228363 -4.72141075 0.23229153 14 1 24922 13.31000000 1409772937 1409772937 1.00000000
-2.06807709 -0.78434998 -0.51063889 4 2 24923 2.27000000 1409772940 1409772940 -13.00000000
-12.45865154 -4.72264719 0.69826633 10 3 24924 13.34200000 1409772942 1409772942 3.00000000
-2.40855241 -0.91299963 -0.50068283 3 4 24924 2.62400000 1409772944 1409772944 -11.00000000
-12.43095970 -4.70966959 1.16300619 83 5 24925 13.34400000 1409772947 1409772947 5.00000000
-2.88558626 -1.09267497 -0.48870125 2 6 24926 3.12400000 1409772949 1409772949 -9.00000000
-12.42048740 -4.70074463 1.63061178 80 7 24927 13.38000000 1409772951 1409772951 7.00000000
-3.59456682 -1.35970771 -0.47187811 3 8 24928 3.87200000 1409772954 1409772954 -7.00000000
-12.39931393 -4.69025707 2.09966350 77 9 24928 13.42200000 1409772956 1409772956 9.00000000
-4.72993326 -1.78823626 -0.44240254 3 10 24929 5.07600000 1409772958 1409772958 -5.00000000
-12.36525249 -4.67243958 2.56943393 50 11 24930 13.46600000 1409772961 1409772961 11.00000000
-6.86093855 -2.59116411 -0.38435528 3 12 24931 7.34400000 1409772963 1409772963 -3.00000000
-11.58264732 -4.37209797 2.85822821 44 13 24932 12.70600000 1409772965 1409772965 13.00000000
-12.45319557 -4.69822073 -0.23232643 9 14 24933 13.31200000 1409772967 1409772967 -1.00000000
-9.73039341 -3.66904831 2.78644586 42 15 24934 10.76600000 1409772970 1409772970 15.00000000
-1.81206369 -0.68074900 -0.51867336 5 0 24941 2.00400000 1409772990 1409772990 -15.00000000
-12.44558430 -4.67302990 0.23204720 14 1 24942 13.29600000 1409772993 1409772993 1.00000000
-2.06167984 -0.77370280 -0.50838935 4 2 24943 2.26000000 1409772995 1409772995 -13.00000000
-12.44619465 -4.67078114 0.69669622 10 3 24943 13.31200000 1409772997 1409772997 3.00000000
-2.41907740 -0.90734452 -0.50220925 3 4 24944 2.63200000 1409773000 1409773000 -11.00000000
-12.43053341 -4.65995407 1.16143739 74 5 24945 13.32600000 1409773002 1409773002 5.00000000
-2.88198376 -1.07982337 -0.48744980 2 6 24946 3.11600000 1409773004 1409773004 -9.00000000
-12.40893555 -4.64691782 1.62695575 76 7 24947 13.35000000 1409773007 1409773007 7.00000000
-3.58441806 -1.34158528 -0.46992818 3 8 24948 3.85600000 1409773009 1409773009 -7.00000000
-12.39791965 -4.63785887 2.09653473 77 9 24949 13.40200000 1409773011 1409773011 9.00000000
-4.74174452 -1.77380908 -0.44292548 3 10 24949 5.08200000 1409773014 1409773014 -5.00000000
-12.37045383 -4.62512302 2.56714416 53 11 24950 13.45400000 1409773016 1409773016 11.00000000
-6.87555408 -2.56929660 -0.38466927 3 12 24951 7.35000000 1409773018 1409773018 -3.00000000
-12.46577358 -4.65332365 -0.23225662 9 14 24953 13.30800000 1409773023 1409773023 -1.00000000
-9.75038147 -3.63776183 2.78851628 40 15 24954 10.77400000 1409773025 1409773025 15.00000000
-1.81793249 -0.67608303 -0.51970863 5 0 24960 2.00800000 1409773046 1409773046 -15.00000000
-12.44976521 -4.62755299 0.23183776 14 1 24961 13.28400000 1409773048 1409773048 1.00000000
-2.07336807 -0.77025497 -0.51063889 4 2 24962 2.27000000 1409773050 1409773050 -13.00000000
-12.44289303 -4.62252665 0.69564950 10 3 24962 13.29200000 1409773053 1409773053 3.00000000
-2.42207313 -0.89931756 -0.50220925 3 4 24963 2.63200000 1409773055 1409773055 -11.00000000
-12.43471050 -4.61454821 1.16039157 78 5 24964 13.31400000 1409773057 1409773057 5.00000000
-2.88925290 -1.07163441 -0.48807552 2 6 24965 3.12000000 1409773060 1409773060 -9.00000000
-12.41869259 -4.60367250 1.62622452 80 7 24966 13.34400000 1409773062 1409773062 7.00000000
-3.58140135 -1.32693279 -0.46895322 3 8 24967 3.84800000 1409773064 1409773064 -7.00000000
-12.39390564 -4.59202385 2.09340596 77 9 24967 13.38200000 1409773067 1409773067 9.00000000
-4.72144318 -1.74838877 -0.44048512 3 10 24968 5.05400000 1409773069 1409773069 -5.00000000
-12.37467575 -4.57998705 2.56485462 53 11 24969 13.44200000 1409773071 1409773071 11.00000000
-6.89152908 -2.54925418 -0.38508797 3 12 24970 7.35800000 1409773073 1409773073 -3.00000000
-9.66185570 -3.57211185 2.37818265 16 13 24971 10.57200000 1409773076 1409773076 13.00000000
-12.45487499 -4.60225630 -0.23176795 9 14 24972 13.28000000 1409773078 1409773078 -1.00000000
-9.76782799 -3.60741615 2.79006934 42 15 24973 10.78000000 1409773080 1409773080 15.00000000
-1.81484234 -0.66773194 -0.51815575 5 0 24980 2.00200000 1409773101 1409773101 -15.00000000
-12.45833588 -4.58130646 0.23169814 14 1 24981 13.27600000 1409773103 1409773103 1.00000000
-2.08153152 -0.76502961 -0.51198858 4 2 24982 2.27600000 1409773106 1409773106 -13.00000000
-12.44770432 -4.57493114 0.69502151 10 3 24982 13.28000000 1409773108 1409773108 3.00000000
-2.41598320 -0.88747275 -0.50030118 3 4 24983 2.62200000 1409773110 1409773110 -11.00000000
-12.43390942 -4.56493521 1.15882277 83 5 24984 13.29600000 1409773113 1409773113 5.00000000
-2.91152072 -1.06834722 -0.49120423 2 6 24985 3.14000000 1409773115 1409773115 -9.00000000
-12.42350483 -4.55619431 1.62476206 80 7 24986 13.33200000 1409773117 1409773117 7.00000000
-3.60278583 -1.32057190 -0.47114688 3 8 24987 3.86600000 1409773120 1409773120 -7.00000000
-12.38018417 -4.53785563 2.08840013 80 9 24987 13.35000000 1409773122 1409773122 9.00000000
-4.71816349 -1.72847033 -0.43961358 6 10 24988 5.04400000 1409773124 1409773124 -5.00000000
-12.38321304 -4.53406334 2.56332803 56 11 24989 13.43400000 1409773126 1409773126 11.00000000
-6.89475918 -2.52312350 -0.38477394 3 12 24990 7.35200000 1409773129 1409773129 -3.00000000
-9.72734070 -3.55777597 2.39122963 22 13 24991 10.63000000 1409773131 1409773131 13.00000000
-12.45396137 -4.55257368 -0.23145382 9 14 24992 13.26200000 1409773133 1409773133 -1.00000000
-9.77854633 -3.57263517 2.78955173 40 15 24993 10.77800000 1409773136 1409773136 15.00000000
-1.80275381 -0.65579242 -0.51401460 4 0 25001 1.98600000 1409773156 1409773156 -15.00000000
-12.44121552 -4.52331448 0.23106986 14 1 25002 13.24000000 1409773159 1409773159 1.00000000
-2.08432150 -0.75739527 -0.51198858 4 2 25003 2.27600000 1409773161 1409773161 -13.00000000
-12.45875740 -4.52723074 0.69470751 20 3 25003 13.27400000 1409773163 1409773163 3.00000000
-2.42106509 -0.87928194 -0.50068283 3 4 25004 2.62400000 1409773166 1409773166 -11.00000000
-12.42433834 -4.50981474 1.15638244 74 5 25005 13.26800000 1409773168 1409773168 5.00000000
-2.91170287 -1.05632138 -0.49057847 2 6 25006 3.13600000 1409773170 1409773170 -9.00000000
-12.42892361 -4.50656939 1.62329960 56 7 25007 13.32000000 1409773172 1409773172 7.00000000
-3.58333969 -1.29856575 -0.46797827 7 8 25008 3.84000000 1409773175 1409773175 -7.00000000
-12.39673233 -4.49244976 2.08840013 56 9 25008 13.35000000 1409773177 1409773177 9.00000000
-4.73945332 -1.71659374 -0.44100806 6 10 25009 5.06000000 1409773179 1409773179 -5.00000000
-12.38498020 -4.48330021 2.56027508 56 11 25010 13.41800000 1409773182 1409773182 11.00000000
-6.91522884 -2.50191307 -0.38540199 3 12 25011 7.36400000 1409773184 1409773184 -3.00000000
-9.82644749 -3.55324531 2.41237521 14 13 25012 10.72400000 1409773186 1409773186 13.00000000
-12.46492100 -4.50485802 -0.23134910 9 14 25013 13.25600000 1409773189 1409773189 -1.00000000
-9.77460575 -3.53257036 2.78489304 42 15 25013 10.76000000 1409773191 1409773191 15.00000000
-1.81593847 -0.65342009 -0.51712048 5 0 25021 1.99800000 1409773212 1409773212 -15.00000000
-12.46069241 -4.48121262 0.23113967 10 1 25022 13.24400000 1409773214 1409773214 1.00000000
-2.08328485 -0.74879676 -0.51108879 4 2 25023 2.27200000 1409773216 1409773216 -13.00000000
-12.47260475 -4.48303843 0.69460279 10 3 25023 13.27200000 1409773219 1409773219 3.00000000
-2.42781496 -0.87215298 -0.50144607 3 4 25024 2.62800000 1409773221 1409773221 -11.00000000
-2.90421653 -1.04214811 -0.48870125 2 6 25026 3.12400000 1409773225 1409773225 -9.00000000
-3.60280013 -1.29140818 -0.46992818 7 8 25028 3.85600000 1409773230 1409773230 -7.00000000
-4.76229715 -1.70608711 -0.44257686 3 10 25029 5.07800000 1409773235 1409773235 -5.00000000
-12.43197632 -4.45129204 2.56676269 43 11 25030 13.45200000 1409773237 1409773237 11.00000000
-6.93896389 -2.48314261 -0.38623935 3 12 25031 7.38000000 1409773239 1409773239 -3.00000000
-11.59296513 -4.14631748 2.84248161 33 13 25032 12.63600000 1409773242 1409773242 13.00000000
-12.53894329 -4.48218632 -0.23243114 6 14 25033 13.31800000 1409773244 1409773244 -1.00000000
-9.79840279 -3.50062060 2.78799868 42 15 25034 10.77200000 1409773246 1409773246 15.00000000
-1.82548845 -0.64966822 -0.51919103 5 0 25041 2.00600000 1409773267 1409773267 -15.00000000
-12.57799816 -4.47387695 0.23302454 10 1 25042 13.35200000 1409773269 1409773269 1.00000000
-2.08588600 -0.74152017 -0.51108879 4 2 25043 2.27200000 1409773272 1409773272 -13.00000000
-12.58869839 -4.47273350 0.70015043 7 3 25044 13.37800000 1409773274 1409773274 3.00000000
-2.44194412 -0.86761671 -0.50373572 3 4 25044 2.64000000 1409773276 1409773276 -11.00000000
-12.57755852 -4.46630335 1.16771269 8 5 25045 13.39800000 1409773278 1409773278 5.00000000
-2.88922071 -1.02539718 -0.48557258 2 6 25046 3.10400000 1409773281 1409773281 -9.00000000
-12.60788155 -4.47211552 1.64255500 5 7 25047 13.47800000 1409773283 1409773283 7.00000000
-3.62973785 -1.28678370 -0.47285306 5 8 25048 3.88000000 1409773285 1409773285 -7.00000000
-12.58605003 -4.46189880 2.11499405 10 9 25048 13.52000000 1409773288 1409773288 9.00000000
-4.77010155 -1.69011867 -0.44275117 3 10 25049 5.08000000 1409773290 1409773290 -5.00000000
-12.45299053 -4.40983534 2.56790757 37 11 25050 13.45800000 1409773292 1409773292 11.00000000
-6.91934729 -2.44891047 -0.38466927 3 12 25051 7.35000000 1409773295 1409773295 -3.00000000
-11.60369396 -4.10452557 2.84158182 41 13 25052 12.63200000 1409773297 1409773297 13.00000000
-12.69214344 -4.48704624 -0.23497920 6 14 25053 13.46400000 1409773299 1409773299 -1.00000000
-9.81177902 -3.46875262 2.78851628 42 15 25053 10.77400000 1409773302 1409773302 15.00000000
-1.83685648 -0.64649892 -0.52177918 5 0 25061 2.01600000 1409773322 1409773322 -15.00000000
-12.69351673 -4.46511316 0.23487449 7 1 25062 13.45800000 1409773325 1409773325 1.00000000
-2.07007718 -0.72777122 -0.50658977 4 2 25063 2.25200000 1409773327 1409773327 -13.00000000
-12.70975685 -4.46584082 0.70601207 7 3 25064 13.49000000 1409773329 1409773329 3.00000000
-2.44495797 -0.85908747 -0.50373572 3 4 25064 2.64000000 1409773331 1409773331 -11.00000000
-12.73030090 -4.47056341 1.18043733 4 5 25065 13.54400000 1409773334 1409773334 5.00000000
-2.90769362 -1.02053928 -0.48807552 2 6 25066 3.12000000 1409773336 1409773336 -9.00000000
-12.74891853 -4.47210312 1.65888548 7 7 25067 13.61200000 1409773338 1409773338 7.00000000
-3.62858772 -1.27213550 -0.47212183 5 8 25068 3.87400000 1409773341 1409773341 -7.00000000
-12.71790314 -4.45623827 2.13439178 10 9 25069 13.64400000 1409773343 1409773343 9.00000000
-4.77033138 -1.67148101 -0.44222823 6 10 25069 5.07400000 1409773345 1409773345 -5.00000000
-12.45348454 -4.36114836 2.56485462 34 11 25070 13.44200000 1409773348 1409773348 11.00000000
-6.94481945 -2.43068051 -0.38561133 3 12 25071 7.36800000 1409773350 1409773350 -3.00000000
-11.61979008 -4.06463957 2.84203172 44 13 25072 12.63400000 1409773352 1409773352 13.00000000
-12.82476330 -4.48363113 -0.23714329 6 14 25073 13.58800000 1409773355 1409773355 -1.00000000
-9.83901691 -3.43786526 2.79265761 40 15 25074 10.79000000 1409773357 1409773357 15.00000000
-1.82428420 -0.63563997 -0.51763809 4 0 25079 2.00000000 1409773378 1409773378 -15.00000000
-12.85100460 -4.47519350 0.23752725 7 1 25080 13.61000000 1409773380 1409773380 1.00000000
-2.09443879 -0.72895092 -0.51198858 4 2 25081 2.27600000 1409773382 1409773382 -13.00000000
-12.83879375 -4.46591663 0.71239704 7 3 25082 13.61200000 1409773384 1409773384 3.00000000
-2.42168474 -0.84237218 -0.49839309 3 4 25082 2.61200000 1409773387 1409773387 -11.00000000
-12.86096096 -4.47111130 1.19124472 4 5 25083 13.66800000 1409773389 1409773389 5.00000000
-2.92208099 -1.01528943 -0.48995274 2 6 25084 3.13200000 1409773391 1409773391 -9.00000000
-12.87166977 -4.46979856 1.67302239 7 7 25085 13.72800000 1409773394 1409773394 7.00000000
-3.61943889 -1.25617361 -0.47041565 5 8 25086 3.86000000 1409773396 1409773396 -7.00000000
-12.84303951 -4.45734501 2.15316391 10 9 25086 13.76400000 1409773398 1409773398 9.00000000
-4.77179432 -1.65518045 -0.44187963 6 10 25087 5.07000000 1409773401 1409773401 -5.00000000
-12.46341419 -4.32071686 2.56409121 34 11 25088 13.43800000 1409773403 1409773403 11.00000000
-6.95619583 -2.41015863 -0.38582066 3 12 25089 7.37200000 1409773405 1409773405 -3.00000000
-11.62513638 -4.02556419 2.84023190 45 13 25090 12.62600000 1409773408 1409773408 13.00000000
-12.93894100 -4.47798109 -0.23899326 6 14 25091 13.69400000 1409773410 1409773410 -1.00000000
-9.83456898 -3.40360260 2.78851628 40 15 25091 10.77400000 1409773412 1409773412 15.00000000
-1.82101238 -0.62738037 -0.51608515 4 0 25099 1.99400000 1409773433 1409773433 -15.00000000
-12.97621155 -4.46806765 0.23955174 10 1 25100 13.72600000 1409773435 1409773435 1.00000000
-2.09881330 -0.72226965 -0.51243848 4 2 25101 2.27800000 1409773437 1409773437 -13.00000000
-12.97706795 -4.46329641 0.71920073 7 3 25102 13.74200000 1409773440 1409773440 3.00000000
-2.44503212 -0.84093755 -0.50259089 3 4 25102 2.63400000 1409773442 1409773442 -11.00000000
-12.98200417 -4.46246052 1.20100617 4 5 25103 13.78000000 1409773444 1409773444 5.00000000
-2.92187095 -1.00379968 -0.48932701 2 6 25104 3.12800000 1409773447 1409773447 -9.00000000
-12.99984360 -4.46351957 1.68764663 7 7 25105 13.84800000 1409773449 1409773449 7.00000000
-3.64257765 -1.24997485 -0.47285306 5 8 25106 3.88000000 1409773451 1409773451 -7.00000000
-12.98635101 -4.45381975 2.17443895 10 9 25107 13.90000000 1409773454 1409773454 9.00000000
-4.78319645 -1.64045286 -0.44240254 6 10 25107 5.07600000 1409773456 1409773456 -5.00000000
-12.45984840 -4.27081919 2.56027508 37 11 25108 13.41800000 1409773458 1409773458 11.00000000
-6.97590351 -2.38974595 -0.38644871 3 12 25109 7.38400000 1409773460 1409773460 -3.00000000
-11.64280415 -3.98622298 2.84113193 45 13 25110 12.63000000 1409773463 1409773463 13.00000000
-13.06233692 -4.46969080 -0.24098283 9 14 25111 13.80800000 1409773465 1409773465 -1.00000000
-9.83783817 -3.36440873 2.78592825 40 15 25112 10.76400000 1409773467 1409773467 15.00000000
-1.83072340 -0.62287259 -0.51815575 5 0 25121 2.00200000 1409773488 1409773488 -15.00000000
-13.11065197 -4.45812368 0.24171583 7 1 25122 13.85000000 1409773490 1409773490 1.00000000
-2.09234571 -0.71107024 -0.51018900 4 2 25123 2.26800000 1409773493 1409773493 -13.00000000
-13.14729404 -4.46546412 0.72767913 7 3 25124 13.90400000 1409773495 1409773495 3.00000000
-2.44824314 -0.83154315 -0.50259089 3 4 25124 2.63400000 1409773497 1409773497 -11.00000000
-13.12733555 -4.45613003 1.21285927 4 5 25125 13.91600000 1409773500 1409773500 5.00000000
-2.92196226 -0.99130386 -0.48870125 2 6 25126 3.12400000 1409773502 1409773502 -9.00000000
-13.13720512 -4.45436668 1.70324600 7 7 25127 13.97600000 1409773504 1409773504 7.00000000
-3.64735055 -1.23597920 -0.47285306 5 8 25128 3.88000000 1409773507 1409773507 -7.00000000
-13.12606525 -4.44803524 2.19508839 10 9 25128 14.03200000 1409773509 1409773509 9.00000000
-4.79323435 -1.62335289 -0.44275117 6 10 25129 5.08000000 1409773511 1409773511 -5.00000000
-12.46127796 -4.21790981 2.55722213 34 11 25130 13.40200000 1409773513 1409773513 11.00000000
-6.96989250 -2.35782266 -0.38561133 3 12 25131 7.36800000 1409773516 1409773516 -3.00000000
-11.66171646 -3.94273686 2.84203172 45 13 25132 12.63400000 1409773518 1409773518 13.00000000
-13.14192104 -4.44062662 -0.24213469 9 14 25133 13.87400000 1409773520 1409773520 -1.00000000
-9.84827328 -3.32771015 2.78541064 42 15 25133 10.76200000 1409773523 1409773523 15.00000000
-1.83288658 -0.61647838 -0.51815575 5 0 25141 2.00200000 1409773543 1409773543 -15.00000000
-13.25502586 -4.45565891 0.24408935 7 1 25142 13.98600000 1409773546 1409773546 1.00000000
-2.08373141 -0.70003867 -0.50748956 4 2 25143 2.25600000 1409773548 1409773548 -13.00000000
-13.23474979 -4.44370174 0.73165667 2 3 25144 13.98000000 1409773550 1409773550 3.00000000
-2.45857549 -0.82549167 -0.50411737 3 4 25144 2.64200000 1409773553 1409773553 -11.00000000
-35.59778595 -11.94540596 3.28507423 10 5 25145 37.69200000 1409773555 1409773555 5.00000000
-2.93289614 -0.98361069 -0.48995274 2 6 25146 3.13200000 1409773557 1409773557 -9.00000000
-13.24678230 -4.44002533 1.71543288 5 7 25147 14.07600000 1409773560 1409773560 7.00000000
-3.63281965 -1.21693468 -0.47041565 5 8 25148 3.86000000 1409773562 1409773562 -7.00000000
-17.92639923 -6.00156879 2.99415565 17 9 25149 19.14000000 1409773564 1409773564 9.00000000
-4.81776524 -1.61293674 -0.44449428 3 10 25149 5.10000000 1409773566 1409773566 -5.00000000
-12.45916939 -4.16877985 2.55378771 37 11 25150 13.38400000 1409773569 1409773569 11.00000000
-6.98186874 -2.33474565 -0.38582066 3 12 25151 7.37200000 1409773571 1409773571 -3.00000000
-11.67540836 -3.90200591 2.84203172 44 13 25152 12.63400000 1409773573 1409773573 13.00000000
-13.17061806 -4.39916039 -0.24237902 9 14 25153 13.88800000 1409773576 1409773576 -1.00000000
-9.85857105 -3.29098034 2.78489304 42 15 25154 10.76000000 1409773578 1409773578 15.00000000
-1.84236002 -0.61251450 -0.52022630 5 0 25161 2.01000000 1409773599 1409773599 -15.00000000
-36.96496964 -12.28227997 0.67991084 19 1 25162 38.95800000 1409773601 1409773601 1.00000000
-2.09355998 -0.69521743 -0.50928921 4 2 25163 2.26400000 1409773603 1409773603 -13.00000000
-36.94506454 -12.26134777 2.04005551 77 3 25164 38.98000000 1409773606 1409773606 3.00000000
-2.45771527 -0.81566781 -0.50335413 3 4 25164 2.63800000 1409773608 1409773608 -11.00000000
-35.87376022 -11.89885235 3.30668879 31 5 25165 37.94000000 1409773610 1409773610 5.00000000
-2.94756198 -0.97709632 -0.49182996 3 6 25166 3.14400000 1409773613 1409773613 -9.00000000
-19.92533493 -6.60125017 2.57729292 2 7 25167 21.14800000 1409773615 1409773615 7.00000000
-3.64081454 -1.20549428 -0.47090313 5 8 25168 3.86400000 1409773617 1409773617 -7.00000000
-17.93682671 -5.93898487 2.99259138 42 9 25168 19.13000000 1409773619 1409773619 9.00000000
-4.81958294 -1.59485781 -0.44414568 3 10 25169 5.09600000 1409773622 1409773622 -5.00000000
-12.47364521 -4.12526369 2.55378771 43 11 25170 13.38400000 1409773624 1409773624 11.00000000
-11.67785549 -3.85755968 2.83933210 46 13 25172 12.62200000 1409773629 1409773629 13.00000000
-13.18019772 -4.35127878 -0.24227430 9 14 25173 13.88200000 1409773631 1409773631 -1.00000000
-9.87309933 -3.25948119 2.78592825 40 15 25173 10.76400000 1409773633 1409773633 15.00000000
-1.83714569 -0.60366750 -0.51815575 5 0 25181 2.00200000 1409773654 1409773654 -15.00000000
-36.96772003 -12.14007092 0.67917782 18 1 25182 38.91600000 1409773656 1409773656 1.00000000
-2.10152864 -0.68972838 -0.51063889 4 2 25183 2.27000000 1409773659 1409773659 -13.00000000
-36.93640137 -12.11550331 2.03722954 86 3 25184 38.92600000 1409773661 1409773661 3.00000000
-2.44562387 -0.80218869 -0.50030118 3 4 25184 2.62200000 1409773663 1409773663 -11.00000000
-36.31644821 -11.90513229 3.34364295 42 5 25185 38.36400000 1409773666 1409773666 5.00000000
-2.95095491 -0.96680146 -0.49182996 3 6 25186 3.14400000 1409773668 1409773668 -9.00000000
-20.07276726 -6.57242680 2.59337974 7 7 25187 21.28000000 1409773670 1409773670 7.00000000
-3.64500022 -1.19277811 -0.47090313 5 8 25188 3.86400000 1409773672 1409773672 -7.00000000
-15.81434631 -5.17198038 2.63529491 52 9 25189 16.84600000 1409773675 1409773675 9.00000000
-4.80239630 -1.57059288 -0.44205391 3 10 25189 5.07200000 1409773677 1409773677 -5.00000000
-12.49543381 -4.08413696 2.55531406 40 11 25190 13.39200000 1409773679 1409773679 11.00000000
-11.69865990 -3.81919217 2.84113193 44 13 25192 12.63000000 1409773684 1409773684 13.00000000
-13.21051407 -4.31020689 -0.24255355 6 14 25193 13.89800000 1409773686 1409773686 -1.00000000
-9.87763214 -3.22087717 2.78385758 40 15 25194 10.75600000 1409773689 1409773689 15.00000000
-1.83556688 -0.59605765 -0.51712048 5 0 25201 1.99800000 1409773709 1409773709 -15.00000000
-36.93569183 -11.98688221 0.67781657 18 1 25202 38.83800000 1409773712 1409773712 1.00000000
-2.11133814 -0.68479335 -0.51243848 4 2 25203 2.27800000 1409773714 1409773714 -13.00000000
-36.94426727 -11.97541237 2.03534532 59 3 25204 38.89000000 1409773716 1409773716 3.00000000
-2.44840908 -0.79364699 -0.50030118 3 4 25204 2.62200000 1409773719 1409773719 -11.00000000
-36.69516754 -11.88758945 3.37467027 42 5 25205 38.72000000 1409773721 1409773721 5.00000000
-2.93175960 -0.94919336 -0.48807552 2 6 25206 3.12000000 1409773723 1409773723 -9.00000000
-20.25423622 -6.55365372 2.61385369 7 7 25207 21.44800000 1409773725 1409773725 7.00000000
-3.65291905 -1.18126905 -0.47139063 5 8 25208 3.86800000 1409773728 1409773728 -7.00000000
-15.83329010 -5.12011766 2.63560796 48 9 25208 16.84800000 1409773730 1409773730 9.00000000
-4.81353712 -1.55565786 -0.44257686 3 10 25209 5.07800000 1409773732 1409773732 -5.00000000
-12.49279976 -4.03506422 2.55187941 40 11 25210 13.37400000 1409773735 1409773735 11.00000000
-7.01923943 -2.26579976 -0.38655338 3 12 25211 7.38600000 1409773737 1409773737 -3.00000000
-11.71933842 -3.78072619 2.84293151 45 13 25212 12.63800000 1409773739 1409773739 13.00000000
-13.23118877 -4.26590824 -0.24265826 6 14 25213 13.90400000 1409773742 1409773742 -1.00000000
-9.88090420 -3.18573284 2.78178716 40 15 25213 10.74800000 1409773744 1409773744 15.00000000
-1.83947575 -0.59023696 -0.51763809 4 0 25221 2.00000000 1409773765 1409773765 -15.00000000
-37.26865005 -11.95130634 0.68315703 9 1 25222 39.14400000 1409773767 1409773767 1.00000000
-2.10443687 -0.67444551 -0.51018900 4 2 25223 2.26800000 1409773769 1409773769 -13.00000000
-2.45490384 -0.78629333 -0.50106442 3 4 25224 2.62600000 1409773774 1409773774 -11.00000000
-36.89772797 -11.81105614 3.38948679 42 5 25225 38.89000000 1409773776 1409773776 5.00000000
-2.94258070 -0.94136137 -0.48932701 2 6 25226 3.12800000 1409773778 1409773778 -9.00000000
-20.44338036 -6.53611135 2.63530278 7 7 25227 21.62400000 1409773781 1409773781 7.00000000
-3.67214751 -1.17334437 -0.47334054 5 8 25228 3.88400000 1409773783 1409773783 -7.00000000
-15.85106564 -5.06481791 2.63560796 48 9 25228 16.84800000 1409773785 1409773785 9.00000000
-4.81703997 -1.53823996 -0.44240254 6 10 25229 5.07600000 1409773788 1409773788 -5.00000000
-12.49371624 -3.98725343 2.54920816 43 11 25230 13.36000000 1409773790 1409773790 11.00000000
-7.00617504 -2.23460841 -0.38540199 7 12 25231 7.36400000 1409773792 1409773792 -3.00000000
-11.73617744 -3.74097872 2.84383130 44 13 25232 12.64200000 1409773795 1409773795 13.00000000
-13.28410625 -4.23183632 -0.24335636 6 14 25233 13.94400000 1409773797 1409773797 -1.00000000
-9.88092041 -3.14770436 2.77868128 40 15 25233 10.73600000 1409773799 1409773799 15.00000000
-1.84889102 -0.58614761 -0.51970863 4 0 25241 2.00800000 1409773820 1409773820 -15.00000000
-37.69140244 -11.94193745 0.69013798 9 1 25242 39.54400000 1409773822 1409773822 1.00000000
-2.09934688 -0.66474247 -0.50838935 4 2 25243 2.26000000 1409773825 1409773825 -13.00000000
-37.64202499 -11.91183662 2.06915426 8 3 25244 39.53600000 1409773827 1409773827 3.00000000
-2.46137714 -0.77890396 -0.50182766 3 4 25244 2.63000000 1409773829 1409773829 -11.00000000
-36.90643692 -11.67197418 3.38652349 42 5 25245 38.85600000 1409773831 1409773831 5.00000000
-2.93454766 -0.92751217 -0.48744980 2 6 25246 3.11600000 1409773834 1409773834 -9.00000000
-20.69889832 -6.53825474 2.66528249 10 7 25247 21.87000000 1409773836 1409773836 7.00000000
-3.66486287 -1.15693343 -0.47187811 5 8 25248 3.87200000 1409773838 1409773838 -7.00000000
-15.86575508 -5.00549793 2.63498211 48 9 25249 16.84400000 1409773841 1409773841 9.00000000
-4.81858015 -1.52021706 -0.44205391 6 10 25249 5.07200000 1409773843 1409773843 -5.00000000
-12.49632359 -3.94007587 2.54691839 46 11 25250 13.34800000 1409773845 1409773845 11.00000000
-7.01583719 -2.21073890 -0.38550666 7 12 25251 7.36600000 1409773848 1409773848 -3.00000000
-11.74172974 -3.69764757 2.84203172 45 13 25252 12.63400000 1409773850 1409773850 13.00000000
-13.31405640 -4.19024277 -0.24363559 6 14 25253 13.96000000 1409773852 1409773852 -1.00000000
-9.90106106 -3.11609411 2.78126955 38 15 25253 10.74600000 1409773854 1409773854 15.00000000
-1.85276926 -0.58026761 -0.52022630 4 0 25261 2.01000000 1409773875 1409773875 -15.00000000
-53.29775620 -16.68207550 0.97482163 13 1 25262 55.85600000 1409773878 1409773878 1.00000000
-2.11467361 -0.66148275 -0.51153868 4 2 25263 2.27400000 1409773880 1409773880 -13.00000000
-53.26913452 -16.65270233 2.92495203 54 3 25264 55.88800000 1409773882 1409773882 3.00000000
-2.46033335 -0.76913583 -0.50106442 3 4 25264 2.62600000 1409773884 1409773884 -11.00000000
-36.91082382 -11.53178692 3.38321161 63 5 25265 38.81800000 1409773887 1409773887 5.00000000
-2.95285225 -0.92197299 -0.48995274 2 6 25266 3.13200000 1409773889 1409773889 -9.00000000
-21.07974625 -6.57771969 2.71134925 36 7 25267 22.24800000 1409773891 1409773891 7.00000000
-3.64424300 -1.13645089 -0.46870950 5 8 25268 3.84600000 1409773894 1409773894 -7.00000000
-15.88313103 -4.95008564 2.63498211 48 9 25269 16.84400000 1409773896 1409773896 9.00000000
-4.85619354 -1.51346576 -0.44501722 6 10 25269 5.10600000 1409773898 1409773898 -5.00000000
-12.51749897 -3.89876676 2.54844499 43 11 25270 13.35600000 1409773901 1409773901 11.00000000
-7.03686047 -2.19039083 -0.38623935 7 12 25271 7.38000000 1409773903 1409773903 -3.00000000
-11.74712181 -3.65432334 2.84023190 44 13 25272 12.62600000 1409773905 1409773905 13.00000000
-13.33624077 -4.14611721 -0.24377522 4 14 25273 13.96800000 1409773907 1409773907 -1.00000000
-9.92164040 -3.08264995 2.78385758 42 15 25274 10.75600000 1409773910 1409773910 15.00000000
-1.84535635 -0.57158619 -0.51763809 4 0 25279 2.00000000 1409773931 1409773931 -15.00000000
-53.29450226 -16.49740410 0.97380936 13 1 25280 55.79800000 1409773933 1409773933 1.00000000
-2.11674142 -0.65483606 -0.51153868 4 2 25281 2.27400000 1409773935 1409773935 -13.00000000
-53.26966858 -16.46934319 2.92212582 67 3 25282 55.83400000 1409773937 1409773937 3.00000000
-2.45148373 -0.75792331 -0.49877471 3 4 25282 2.61400000 1409773940 1409773940 -11.00000000
-36.88405228 -11.39636135 3.37745929 31 5 25283 38.75200000 1409773942 1409773942 5.00000000
-2.95573401 -0.91269183 -0.48995274 2 6 25284 3.13200000 1409773944 1409773944 -9.00000000
-24.22438049 -7.47553921 3.11278677 28 7 25285 25.54200000 1409773947 1409773947 7.00000000
-3.66107368 -1.12909174 -0.47041565 5 8 25286 3.86000000 1409773949 1409773949 -7.00000000
-15.89105320 -4.89783573 2.63373065 48 9 25287 16.83600000 1409773951 1409773951 9.00000000
-4.84950018 -1.49468112 -0.44397137 6 10 25287 5.09400000 1409773954 1409773954 -5.00000000
-12.53343773 -3.86057854 2.54920816 40 11 25288 13.36000000 1409773956 1409773956 11.00000000
-7.63927269 -2.35160661 -0.41889700 34 12 25289 8.00400000 1409773958 1409773958 -3.00000000
-9.80096054 -3.01516914 2.36738491 24 13 25290 10.52400000 1409773960 1409773960 13.00000000
-13.35302258 -4.10537529 -0.24384502 4 14 25291 13.97200000 1409773963 1409773963 -1.00000000
-9.81995010 -3.01913500 2.75279927 19 15 25291 10.63600000 1409773965 1409773965 15.00000000
-1.84549296 -0.56457603 -0.51712048 4 0 25299 1.99800000 1409773986 1409773986 -15.00000000
-53.29248428 -16.29314804 0.97272730 13 1 25300 55.73600000 1409773988 1409773988 1.00000000
-2.12460542 -0.64915156 -0.51288843 4 2 25301 2.28000000 1409773990 1409773990 -13.00000000
-53.27907562 -16.26871490 2.91950893 54 3 25302 55.78400000 1409773993 1409773993 3.00000000
-2.46162510 -0.75165480 -0.50030118 3 4 25302 2.62200000 1409773995 1409773995 -11.00000000
-36.87787247 -11.25358582 3.37327576 53 5 25303 38.70400000 1409773997 1409773997 5.00000000
-2.95512295 -0.90121639 -0.48932701 2 6 25304 3.12800000 1409774000 1409774000 -9.00000000
-24.25792313 -7.39324999 3.11376166 34 7 25305 25.55000000 1409774002 1409774002 7.00000000
-3.66879058 -1.11746216 -0.47090313 5 8 25306 3.86400000 1409774004 1409774004 -7.00000000
-15.90616322 -4.84176064 2.63341784 40 9 25307 16.83400000 1409774007 1409774007 9.00000000
-4.84515810 -1.47484314 -0.44309980 3 10 25307 5.08400000 1409774009 1409774009 -5.00000000
-12.54120255 -3.81509113 2.54806328 43 11 25308 13.35400000 1409774011 1409774011 11.00000000
-7.71813822 -2.34642124 -0.42276984 63 12 25309 8.07800000 1409774013 1409774013 -3.00000000
-9.81701946 -2.98263836 2.36873460 34 13 25310 10.53000000 1409774016 1409774016 13.00000000
-13.40554047 -4.07035923 -0.24454312 2 14 25311 14.01200000 1409774018 1409774018 -1.00000000
-9.80270100 -2.97641945 2.74503469 23 15 25311 10.60600000 1409774020 1409774020 15.00000000
-1.84190452 -0.55645460 -0.51556754 4 0 25319 1.99200000 1409774041 1409774041 -15.00000000
-2.12312698 -0.64060551 -0.51198858 4 2 25321 2.27600000 1409774046 1409774046 -13.00000000
-53.76678467 -16.22290993 2.94326949 40 3 25321 56.23800000 1409774048 1409774048 3.00000000
-2.46423388 -0.74305755 -0.50030118 3 4 25322 2.62200000 1409774050 1409774050 -11.00000000
-36.89022064 -11.11674213 3.37083554 53 5 25323 38.67600000 1409774053 1409774053 5.00000000
-2.94311905 -0.88633853 -0.48682407 2 6 25324 3.11200000 1409774055 1409774055 -9.00000000
-24.27598000 -7.30624056 3.11278677 37 7 25325 25.54200000 1409774057 1409774057 7.00000000
-3.68027282 -1.10693598 -0.47187811 5 8 25326 3.87200000 1409774059 1409774059 -7.00000000
-15.93348122 -4.79240084 2.63529491 48 9 25326 16.84600000 1409774062 1409774062 9.00000000
-4.85790873 -1.46021545 -0.44379705 6 10 25327 5.09200000 1409774064 1409774064 -5.00000000
-9.80123901 -2.94051266 2.36243606 21 13 25330 10.50200000 1409774071 1409774071 13.00000000
-13.44073677 -4.02985764 -0.24492708 2 14 25331 14.03400000 1409774073 1409774073 -1.00000000
-9.78527355 -2.93386149 2.73727012 19 15 25331 10.57600000 1409774076 1409774076 15.00000000
-1.85864568 -0.55443960 -0.51970863 4 0 25339 2.00800000 1409774096 1409774096 -15.00000000
-2.12161493 -0.63207769 -0.51108879 4 2 25341 2.27200000 1409774101 1409774101 -13.00000000
-54.35994720 -16.18474579 2.97247291 41 3 25342 56.79600000 1409774103 1409774103 3.00000000
-2.47810221 -0.73781258 -0.50259089 3 4 25342 2.63400000 1409774106 1409774106 -11.00000000
-36.87342072 -10.97142506 3.36578059 53 5 25343 38.61800000 1409774108 1409774108 5.00000000
-2.95376897 -0.87831181 -0.48807552 2 6 25344 3.12000000 1409774110 1409774110 -9.00000000
-24.30514145 -7.22258806 3.11327434 37 7 25345 25.54600000 1409774112 1409774112 7.00000000
-3.69172621 -1.09634316 -0.47285306 5 8 25346 3.88000000 1409774115 1409774115 -7.00000000
-15.95093918 -4.73396969 2.63529491 44 9 25347 16.84600000 1409774117 1409774117 9.00000000
-4.86870670 -1.44494998 -0.44431996 3 10 25347 5.09800000 1409774119 1409774119 -5.00000000
-9.98890018 -2.96264029 2.02524662 3 11 25348 10.61400000 1409774122 1409774122 11.00000000
-7.06794167 -2.09496164 -0.38634402 7 12 25349 7.38200000 1409774124 1409774124 -3.00000000
-11.76588440 -3.48521376 2.83303356 36 13 25350 12.59400000 1409774126 1409774126 13.00000000
-13.45280457 -3.98234844 -0.24489217 2 14 25351 14.03200000 1409774129 1409774129 -1.00000000
-9.94045544 -2.94072318 2.77764606 33 15 25352 10.73200000 1409774131 1409774131 15.00000000
-1.85695875 -0.54653269 -0.51867336 4 0 25360 2.00400000 1409774152 1409774152 -15.00000000
-55.03220367 -16.18642235 1.00127947 14 1 25361 57.37200000 1409774154 1409774154 1.00000000
-2.12578702 -0.62484694 -0.51153868 4 2 25362 2.27400000 1409774156 1409774156 -13.00000000
-54.93923569 -16.14865875 3.00104833 28 3 25362 57.34200000 1409774159 1409774159 3.00000000
-2.47702265 -0.72761828 -0.50182766 3 4 25363 2.63000000 1409774161 1409774161 -11.00000000
-36.87897491 -10.82610226 3.36264277 53 5 25364 38.58200000 1409774163 1409774163 5.00000000
-2.95317721 -0.86636770 -0.48744980 2 6 25365 3.11600000 1409774165 1409774165 -9.00000000
-24.34668922 -7.13792467 3.11522412 28 7 25366 25.56200000 1409774168 1409774168 7.00000000
-3.67666960 -1.07722342 -0.47041565 5 8 25367 3.86000000 1409774170 1409774170 -7.00000000
-15.96818352 -4.67547464 2.63529491 48 9 25368 16.84600000 1409774172 1409774172 9.00000000
-4.87397003 -1.42709553 -0.44431996 3 10 25368 5.09800000 1409774175 1409774175 -5.00000000
-10.06187248 -2.94420362 2.03784013 9 11 25369 10.68000000 1409774177 1409774177 11.00000000
-7.08324051 -2.07128453 -0.38676271 3 12 25370 7.39000000 1409774179 1409774179 -3.00000000
-11.76735687 -3.43878651 2.83033419 44 13 25371 12.58200000 1409774182 1409774182 13.00000000
-13.48266602 -3.93749928 -0.24517141 2 14 25372 14.04800000 1409774184 1409774184 -1.00000000
-9.94695091 -2.90492344 2.77661061 40 15 25372 10.72800000 1409774186 1409774186 15.00000000
-1.85514498 -0.53896946 -0.51763809 6 0 25380 2.00000000 1409774207 1409774207 -15.00000000
-55.93142319 -16.23899460 1.01660264 43 1 25381 58.25000000 1409774209 1409774209 1.00000000
-2.12982678 -0.61796576 -0.51198858 4 2 25382 2.27600000 1409774211 1409774211 -13.00000000
-55.56112289 -16.12096977 3.03192663 14 3 25382 57.93200000 1409774214 1409774214 3.00000000
-2.47954726 -0.71896744 -0.50182766 3 4 25383 2.63000000 1409774216 1409774216 -11.00000000
-36.87252808 -10.68455029 3.35863376 53 5 25384 38.53600000 1409774218 1409774218 5.00000000
-2.98274732 -0.86374629 -0.49182996 3 6 25385 3.14400000 1409774221 1409774221 -9.00000000
-20.66263199 -5.97959232 2.64115238 7 7 25386 21.67200000 1409774223 1409774223 7.00000000
-3.70710468 -1.07210386 -0.47382802 5 8 25387 3.88800000 1409774225 1409774225 -7.00000000
-15.98061085 -4.61860991 2.63466930 40 9 25388 16.84200000 1409774228 1409774228 9.00000000
-4.88083553 -1.41062665 -0.44449428 3 10 25388 5.10000000 1409774230 1409774230 -5.00000000
-10.19091606 -2.94338369 2.06188202 9 11 25389 10.80600000 1409774232 1409774232 11.00000000
-7.10577869 -2.05097771 -0.38760009 3 12 25390 7.40600000 1409774235 1409774235 -3.00000000
-10.37873077 -2.99370456 2.49380732 19 13 25391 11.08600000 1409774237 1409774237 13.00000000
-13.49440765 -3.88985825 -0.24513650 2 14 25392 14.04600000 1409774239 1409774239 -1.00000000
-9.94589329 -2.86697388 2.77350497 40 15 25392 10.71600000 1409774241 1409774241 15.00000000
-1.84596527 -0.52897334 -0.51453227 4 0 25401 1.98800000 1409774262 1409774262 -15.00000000
-56.07707596 -16.05866051 1.01817334 14 1 25402 58.34000000 1409774264 1409774264 1.00000000
-2.14144516 -0.61283624 -0.51423812 4 2 25403 2.28600000 1409774267 1409774267 -13.00000000
-56.22557831 -16.07995415 3.06479359 29 3 25404 58.56000000 1409774269 1409774269 3.00000000
-2.48216581 -0.70987463 -0.50182766 3 4 25404 2.63000000 1409774271 1409774271 -11.00000000
-36.86163330 -10.53509903 3.35410166 53 5 25405 38.48400000 1409774274 1409774274 5.00000000
-2.96309996 -0.84629816 -0.48807552 2 6 25406 3.12000000 1409774276 1409774276 -9.00000000
-24.34942055 -6.94990110 3.10913062 31 7 25407 25.51200000 1409774278 1409774278 7.00000000
-3.69955540 -1.05524242 -0.47236559 5 8 25408 3.87600000 1409774281 1409774281 -7.00000000
-15.99853516 -4.56334066 2.63498211 44 9 25408 16.84400000 1409774283 1409774283 9.00000000
-4.86872864 -1.38781250 -0.44292548 3 10 25409 5.08200000 1409774285 1409774285 -5.00000000
-10.32436466 -2.94097281 2.08668709 12 11 25410 10.93600000 1409774288 1409774288 11.00000000
-7.12477398 -2.02820086 -0.38822812 3 12 25411 7.41800000 1409774290 1409774290 -3.00000000
-10.38588524 -2.95457792 2.49290752 29 13 25412 11.08200000 1409774292 1409774292 13.00000000
-13.54704285 -3.85130906 -0.24583460 2 14 25413 14.08600000 1409774294 1409774294 -1.00000000
-9.94196129 -2.82453966 2.76936388 40 15 25414 10.70000000 1409774297 1409774297 15.00000000
-1.85895419 -0.52568060 -0.51763809 4 0 25421 2.00000000 1409774317 1409774317 -15.00000000
-56.99873734 -16.10753059 1.03388059 14 1 25422 59.24000000 1409774320 1409774320 1.00000000
-2.13231897 -0.60217971 -0.51153868 4 2 25423 2.27400000 1409774322 1409774322 -13.00000000
-56.84753036 -16.05408478 3.09577656 14 3 25423 59.15200000 1409774324 1409774324 3.00000000
-2.49596524 -0.70440531 -0.50411737 3 4 25424 2.64200000 1409774327 1409774327 -11.00000000
-36.86941910 -10.39825153 3.35148692 63 5 25425 38.45400000 1409774329 1409774329 5.00000000
-2.96983862 -0.83702159 -0.48870125 2 6 25426 3.12400000 1409774331 1409774331 -9.00000000
-23.04556084 -6.49083710 2.93973231 8 7 25427 24.12200000 1409774334 1409774334 7.00000000
-3.70130563 -1.04178429 -0.47212183 7 8 25428 3.87400000 1409774336 1409774336 -7.00000000
-16.01705551 -4.50520754 2.63529491 40 9 25429 16.84600000 1409774338 1409774338 9.00000000
-4.89655876 -1.37728274 -0.44501722 3 10 25429 5.10600000 1409774341 1409774341 -5.00000000
-10.38748837 -2.91979122 2.09737253 18 11 25430 10.99200000 1409774343 1409774343 11.00000000
-7.12604189 -2.00169802 -0.38791412 3 12 25431 7.41200000 1409774345 1409774345 -3.00000000
-10.39425850 -2.91777992 2.49245763 28 13 25432 11.08000000 1409774347 1409774347 13.00000000
-13.58543396 -3.81101918 -0.24628836 4 14 25433 14.11200000 1409774350 1409774350 -1.00000000
-9.95176029 -2.78981853 2.76936388 38 15 25434 10.70000000 1409774352 1409774352 15.00000000
-1.86431766 -0.52087760 -0.51867336 5 0 25439 2.00400000 1409774373 1409774373 -15.00000000
-57.56908798 -16.07357788 1.04330480 15 1 25440 59.78000000 1409774375 1409774375 1.00000000
-2.11918378 -0.59128809 -0.50793946 4 2 25441 2.25800000 1409774377 1409774377 -13.00000000
-45.00873184 -12.55819607 2.44890404 10 3 25441 46.79200000 1409774380 1409774380 3.00000000
-2.50194812 -0.69761515 -0.50488061 3 4 25442 2.64600000 1409774382 1409774382 -11.00000000
-36.86351776 -10.27167606 3.34800076 63 5 25443 38.41400000 1409774384 1409774384 5.00000000
-2.98006558 -0.82980704 -0.48995274 2 6 25444 3.13200000 1409774387 1409774387 -9.00000000
