# .PCD v0.7 - Point Cloud Data file format
VERSION 0.7
FIELDS x y z intensity laser_id azimuth distance_m adjustedtime timestamp vertical_angle
SIZE 4 4 4 1 1 2 8 8 4 8
TYPE F F F U U U F U U F
COUNT 1 1 1 1 1 1 1 1 1 1
WIDTH 538
HEIGHT 1
VIEWPOINT 0 0 0 1 0 0 0
POINTS 538
DATA ascii
3.39432240 2.25518250 -0.64544863 9 6 5640 4.12600000 1409619447 1409619447 -9.00000000
3.74587727 2.48687053 -0.55206811 8 8 5642 4.53000000 1409619452 1409619452 -7.00000000
1.69508612 1.12535989 0.32225499 36 9 5642 2.06000000 1409619454 1409619454 9.00000000
3.72854090 2.47442365 -0.39150360 10 10 5643 4.49200000 1409619457 1409619457 -5.00000000
1.72270203 1.14282775 0.40184376 14 11 5644 2.10600000 1409619459 1409619459 11.00000000
3.75849390 2.49241233 -0.23634918 8 12 5645 4.51600000 1409619461 1409619461 -3.00000000
1.81756425 1.20484519 0.50344044 34 13 5646 2.23800000 1409619464 1409619464 13.00000000
3.75561476 2.48861599 -0.07864054 7 14 5647 4.50600000 1409619466 1409619466 -1.00000000
1.81651449 1.20369303 0.58389574 37 15 5647 2.25600000 1409619468 1409619468 15.00000000
1.60059047 1.05740023 -0.51401460 3 0 5655 1.98600000 1409619489 1409619489 -15.00000000
3.77286863 2.49152923 0.07891978 8 1 5656 4.52200000 1409619491 1409619491 1.00000000
8.26176929 5.45177174 0.51875401 47 3 5658 9.91200000 1409619496 1409619496 3.00000000
2.71359015 1.79064238 -0.63195938 6 4 5658 3.31200000 1409619498 1409619498 -11.00000000
8.25255299 5.44362307 0.86493361 62 5 5659 9.92400000 1409619500 1409619500 5.00000000
3.39887547 2.24114537 -0.64482284 9 6 5660 4.12200000 1409619503 1409619503 -9.00000000
3.80216908 2.50611663 0.55913657 6 7 5661 4.58800000 1409619505 1409619505 7.00000000
3.78437257 2.49343896 -0.55645543 8 8 5662 4.56600000 1409619507 1409619507 -7.00000000
1.71569645 1.13000488 0.32538369 16 9 5663 2.08000000 1409619510 1409619510 9.00000000
3.77043390 2.48331141 -0.39498982 10 10 5663 4.53200000 1409619512 1409619512 -5.00000000
8.65799999 5.70023108 2.01494288 43 11 5664 10.56000000 1409619514 1409619514 11.00000000
3.78385472 2.49025750 -0.23739590 6 12 5665 4.53600000 1409619516 1409619516 -3.00000000
1.82989895 1.20384860 0.50568998 32 13 5666 2.24800000 1409619519 1409619519 13.00000000
8.23864079 5.41795301 -0.17211564 8 14 5667 9.86200000 1409619521 1409619521 -1.00000000
1.83867121 1.20870018 0.58958977 38 15 5668 2.27800000 1409619523 1409619523 15.00000000
1.61396515 1.05816197 -0.51712048 3 0 5675 1.99800000 1409619544 1409619544 -15.00000000
8.23041630 5.39404392 0.17176658 13 1 5676 9.84200000 1409619546 1409619546 1.00000000
2.25765705 1.47905827 -0.62311441 3 2 5677 2.77000000 1409619549 1409619549 -13.00000000
8.25568581 5.40648603 0.51718390 91 3 5678 9.88200000 1409619551 1409619551 3.00000000
2.72639370 1.78546154 -0.63348585 9 4 5678 3.32000000 1409619553 1409619553 -11.00000000
8.25816917 5.40605307 0.86353910 81 5 5679 9.90800000 1409619556 1409619556 5.00000000
3.40998363 2.23143077 -0.64544863 9 6 5680 4.12600000 1409619558 1409619558 -9.00000000
8.34110641 5.45618820 1.22381198 2 7 5681 10.04200000 1409619560 1409619560 7.00000000
4.59386444 3.00385070 -0.67393744 4 8 5682 5.53000000 1409619563 1409619563 -7.00000000
19.12705231 12.50685883 3.61958075 49 9 5682 23.13800000 1409619565 1409619565 9.00000000
7.07118082 4.62196493 -0.73908073 13 10 5683 8.48000000 1409619567 1409619567 -5.00000000
8.67455769 5.66782665 2.01417971 46 11 5684 10.55600000 1409619569 1409619569 11.00000000
8.23552990 5.37892151 -0.51550919 12 12 5685 9.85000000 1409619572 1409619572 -3.00000000
1.81287730 1.18360412 0.49984124 18 13 5686 2.22200000 1409619574 1409619574 13.00000000
8.24745560 5.38260412 -0.17190620 14 14 5687 9.85000000 1409619576 1409619576 -1.00000000
1.85884726 1.21315467 0.59476614 32 15 5687 2.29800000 1409619579 1409619579 15.00000000
1.64841521 1.07253969 -0.52695560 2 0 5695 2.03600000 1409619599 1409619599 -15.00000000
8.23746109 5.35764933 0.17152224 13 1 5696 9.82800000 1409619602 1409619602 1.00000000
2.26280618 1.47116852 -0.62311441 3 2 5697 2.77000000 1409619604 1409619604 -13.00000000
8.25273705 5.36348677 0.51582319 94 3 5698 9.85600000 1409619606 1409619606 3.00000000
2.71614790 1.76523542 -0.62966967 9 4 5698 3.30000000 1409619609 1409619609 -11.00000000
8.26362324 5.36851025 0.86214459 81 5 5699 9.89200000 1409619611 1409619611 5.00000000
3.40946865 2.21413469 -0.64388424 6 6 5700 4.11600000 1409619613 1409619613 -9.00000000
8.34511566 5.41731119 1.22161829 2 7 5701 10.02400000 1409619616 1409619616 7.00000000
4.58433914 2.97482991 -0.67101258 6 8 5702 5.50600000 1409619618 1409619618 -7.00000000
7.07389927 4.58857965 -0.73768622 13 10 5703 8.46400000 1409619622 1409619622 -5.00000000
8.68111134 5.62896729 2.01112676 43 11 5704 10.54000000 1409619625 1409619625 11.00000000
8.23079205 5.33493280 -0.51404375 12 12 5705 9.82200000 1409619627 1409619627 -3.00000000
1.69270265 1.09673560 0.46564868 7 13 5706 2.07000000 1409619629 1409619629 13.00000000
8.23598289 5.33421516 -0.17127791 12 14 5707 9.81400000 1409619632 1409619632 -1.00000000
7.40609694 4.79488707 2.36405325 36 15 5708 9.13400000 1409619634 1409619634 15.00000000
1.88931048 1.21944523 -0.60253072 3 0 5716 2.32800000 1409619655 1409619655 -15.00000000
8.24191952 5.31766415 0.17120811 13 1 5717 9.81000000 1409619657 1409619657 1.00000000
2.27473378 1.46708989 -0.62491405 3 2 5718 2.77800000 1409619659 1409619659 -13.00000000
8.25891113 5.32454538 0.51498580 100 3 5719 9.84000000 1409619662 1409619662 3.00000000
2.71929955 1.75314081 -0.62890643 9 4 5719 3.29600000 1409619664 1409619664 -11.00000000
8.25477409 5.31983852 0.85918128 81 5 5720 9.85800000 1409619666 1409619666 5.00000000
3.42420340 2.20590281 -0.64513576 6 6 5721 4.12400000 1409619669 1409619669 -9.00000000
8.35990906 5.38346434 1.22088706 2 7 5722 10.01800000 1409619671 1409619671 7.00000000
4.60522652 2.96445441 -0.67247504 4 8 5723 5.51800000 1409619673 1409619673 -7.00000000
17.80587387 11.46191216 3.35395503 14 9 5723 21.44000000 1409619675 1409619675 9.00000000
7.08899403 4.56154346 -0.73751187 13 10 5724 8.46200000 1409619678 1409619678 -5.00000000
8.69177723 5.59073925 2.00883698 46 11 5725 10.52800000 1409619680 1409619680 11.00000000
8.23013020 5.29176760 -0.51278770 12 12 5726 9.79800000 1409619682 1409619682 -3.00000000
1.66392434 1.06945121 0.45665064 20 13 5727 2.03000000 1409619685 1409619685 13.00000000
8.23192501 5.28886032 -0.17078926 12 14 5728 9.78600000 1409619687 1409619687 -1.00000000
7.42441416 4.77004957 2.36457086 45 15 5728 9.13600000 1409619689 1409619689 15.00000000
1.92771769 1.23472404 -0.61340111 4 0 5736 2.37000000 1409619710 1409619710 -15.00000000
8.23517036 5.27268839 0.17068453 13 1 5737 9.78000000 1409619712 1409619712 1.00000000
2.27327561 1.45493865 -0.62311441 3 2 5738 2.77000000 1409619715 1409619715 -13.00000000
8.24716377 5.27630949 0.51310170 99 3 5739 9.80400000 1409619717 1409619717 3.00000000
2.73036385 1.74681211 -0.63005131 8 4 5739 3.30200000 1409619719 1409619719 -11.00000000
8.24979401 5.27596331 0.85674095 81 5 5740 9.83000000 1409619722 1409619722 5.00000000
3.43521118 2.19606447 -0.64576149 6 6 5741 4.12800000 1409619724 1409619724 -9.00000000
8.35690403 5.34035397 1.21771848 2 7 5742 9.99200000 1409619726 1409619726 7.00000000
4.63562107 2.96118474 -0.67539990 6 8 5743 5.54200000 1409619728 1409619728 -7.00000000
19.26126671 12.29915619 3.61958075 27 9 5744 23.13800000 1409619731 1409619731 9.00000000
7.09983587 4.53355408 -0.73698896 13 10 5744 8.45600000 1409619733 1409619733 -5.00000000
8.70627499 5.55719614 2.00769234 40 11 5745 10.52200000 1409619735 1409619735 11.00000000
8.23171520 5.25226355 -0.51174098 17 12 5746 9.77800000 1409619738 1409619738 -3.00000000
1.67586231 1.06887603 0.45890015 30 13 5747 2.04000000 1409619740 1409619740 13.00000000
8.22504330 5.24396801 -0.17026567 14 14 5748 9.75600000 1409619742 1409619742 -1.00000000
7.43044376 4.73553801 2.36094737 45 15 5749 9.12200000 1409619745 1409619745 15.00000000
1.93180168 1.22832465 -0.61340111 4 0 5755 2.37000000 1409619765 1409619765 -15.00000000
8.22054386 5.22496986 0.17002134 13 1 5756 9.74200000 1409619768 1409619768 1.00000000
2.28466702 1.45157242 -0.62491405 3 2 5757 2.77800000 1409619770 1409619770 -13.00000000
8.24944115 5.23929453 0.51215965 94 3 5758 9.78600000 1409619772 1409619772 3.00000000
2.72951245 1.73353803 -0.62852484 6 4 5758 3.29400000 1409619775 1409619775 -11.00000000
8.24874210 5.23683071 0.85482353 89 5 5759 9.80800000 1409619777 1409619777 5.00000000
3.43413544 2.17936873 -0.64419711 6 6 5760 4.11800000 1409619779 1409619779 -9.00000000
8.35109997 5.29772472 1.21430612 2 7 5761 9.96400000 1409619781 1409619781 7.00000000
4.64541531 2.94579601 -0.67539990 4 8 5762 5.54200000 1409619784 1409619784 -7.00000000
19.31148911 12.24598980 3.62177062 44 9 5762 23.15200000 1409619786 1409619786 9.00000000
7.11483097 4.50998497 -0.73698896 13 10 5763 8.45600000 1409619788 1409619788 -5.00000000
8.71802235 5.52409124 2.00616574 34 11 5764 10.51400000 1409619791 1409619791 11.00000000
8.22715187 5.21104431 -0.51038027 17 12 5765 9.75200000 1409619793 1409619793 -3.00000000
1.70080173 1.07686484 0.46474889 35 13 5766 2.06600000 1409619795 1409619795 13.00000000
8.23562908 5.21238613 -0.17012605 14 14 5767 9.74800000 1409619798 1409619798 -1.00000000
7.44854879 4.71423769 2.36198258 45 15 5767 9.12600000 1409619800 1409619800 15.00000000
1.93771136 1.22260475 -0.61391878 4 0 5775 2.37200000 1409619821 1409619821 -15.00000000
8.22858429 5.18984222 0.16981192 13 1 5776 9.73000000 1409619823 1409619823 1.00000000
2.27653241 1.43527424 -0.62131482 3 2 5777 2.76200000 1409619825 1409619825 -13.00000000
8.23726463 5.19129896 0.51027560 86 3 5778 9.75000000 1409619828 1409619828 3.00000000
2.74551249 1.73028028 -0.63081455 5 4 5778 3.30600000 1409619830 1409619830 -11.00000000
8.25348568 5.19950914 0.85342902 89 5 5779 9.79200000 1409619832 1409619832 5.00000000
3.44172192 2.16736794 -0.64419711 6 6 5780 4.11800000 1409619834 1409619834 -9.00000000
8.34098244 5.25056410 1.21016252 2 7 5781 9.93000000 1409619837 1409619837 7.00000000
4.64222860 2.92110491 -0.67344999 4 8 5782 5.52600000 1409619839 1409619839 -7.00000000
19.33405495 12.16588116 3.61801624 22 9 5782 23.12800000 1409619841 1409619841 9.00000000
7.12884378 4.48406124 -0.73681468 13 10 5783 8.45400000 1409619844 1409619844 -5.00000000
8.72395515 5.48526621 2.00311279 18 11 5784 10.49800000 1409619846 1409619846 11.00000000
8.22669125 5.17060328 -0.50922883 21 12 5785 9.73000000 1409619848 1409619848 -3.00000000
1.70785058 1.07299483 0.46564868 37 13 5786 2.07000000 1409619851 1409619851 13.00000000
8.24530697 5.17828894 -0.16995153 16 14 5787 9.73800000 1409619853 1409619853 -1.00000000
7.46823120 4.69026327 2.36301780 45 15 5787 9.13000000 1409619855 1409619855 15.00000000
1.94032979 1.21480834 -0.61340111 4 0 5795 2.37000000 1409619876 1409619876 -15.00000000
8.23308945 5.15260077 0.16953267 13 1 5796 9.71400000 1409619878 1409619878 1.00000000
2.28483272 1.42938602 -0.62221462 3 2 5797 2.76600000 1409619881 1409619881 -13.00000000
8.24856186 5.15827799 0.50985688 94 3 5798 9.74200000 1409619883 1409619883 3.00000000
2.74321270 1.71548140 -0.62890643 5 4 5798 3.29600000 1409619885 1409619885 -11.00000000
8.24286461 5.15271378 0.85046571 77 5 5799 9.75800000 1409619887 1409619887 5.00000000
3.46099305 2.16266847 -0.64638722 4 6 5800 4.13200000 1409619890 1409619890 -9.00000000
24.09621811 15.05114079 3.48838806 3 7 5801 28.62400000 1409619892 1409619892 7.00000000
4.65913248 2.90908813 -0.67442495 4 8 5802 5.53400000 1409619894 1409619894 -7.00000000
17.85692215 11.14524746 3.33393121 14 9 5803 21.31200000 1409619897 1409619897 9.00000000
7.14952326 4.46231461 -0.73733759 13 10 5803 8.46000000 1409619899 1409619899 -5.00000000
16.29515266 10.16652966 3.73336887 33 11 5804 19.56600000 1409619901 1409619901 11.00000000
8.21588039 5.12388802 -0.50744945 17 12 5805 9.69600000 1409619904 1409619904 -3.00000000
1.71820045 1.07115054 0.46744829 38 13 5806 2.07800000 1409619906 1409619906 13.00000000
8.22769260 5.12726641 -0.16921854 14 14 5807 9.69600000 1409619908 1409619908 -1.00000000
7.49439478 4.67029619 2.36612368 45 15 5807 9.14200000 1409619910 1409619910 15.00000000
1.93471265 1.20191133 -0.61029530 4 0 5815 2.35800000 1409619931 1409619931 -15.00000000
8.23743439 5.11539125 0.16925344 13 1 5816 9.69800000 1409619934 1409619934 1.00000000
2.29643106 1.42551279 -0.62401420 3 2 5817 2.77400000 1409619936 1409619936 -13.00000000
8.24445534 5.11576414 0.50849617 89 3 5818 9.71600000 1409619938 1409619938 3.00000000
2.74751592 1.70486021 -0.62852484 5 4 5818 3.29400000 1409619940 1409619940 -11.00000000
8.24556255 5.11445761 0.84889692 77 5 5819 9.74000000 1409619943 1409619943 5.00000000
3.46516323 2.14849234 -0.64576149 4 6 5820 4.12800000 1409619945 1409619945 -9.00000000
24.12667465 14.95334244 3.48521948 14 7 5821 28.59800000 1409619947 1409619947 7.00000000
4.66250849 2.88862514 -0.67344999 4 8 5822 5.52600000 1409619950 1409619950 -7.00000000
17.86045074 11.06100655 3.32736111 9 9 5823 21.27000000 1409619952 1409619952 9.00000000
7.16166830 4.43523264 -0.73698896 13 10 5823 8.45600000 1409619954 1409619954 -5.00000000
16.34055710 10.11578751 3.73565841 41 11 5824 19.57800000 1409619957 1409619957 11.00000000
8.22862053 5.09202480 -0.50713539 17 12 5825 9.69000000 1409619959 1409619959 -3.00000000
1.72855806 1.06924701 0.46924791 37 13 5826 2.08600000 1409619961 1409619961 13.00000000
8.22683048 5.08694696 -0.16883458 12 14 5827 9.67400000 1409619963 1409619963 -1.00000000
7.50488901 4.63873386 2.36405325 45 15 5828 9.13400000 1409619966 1409619966 15.00000000
1.93868768 1.19548893 -0.61029530 4 0 5834 2.35800000 1409619987 1409619987 -15.00000000
8.23222351 5.07440567 0.16879967 13 1 5835 9.67200000 1409619989 1409619989 1.00000000
2.30446386 1.41993427 -0.62491405 3 2 5836 2.77800000 1409619991 1409619991 -13.00000000
8.25117111 5.08211184 0.50786811 89 3 5837 9.70400000 1409619993 1409619993 3.00000000
2.75315452 1.69573975 -0.62852484 5 4 5837 3.29400000 1409619996 1409619996 -11.00000000
8.23193836 5.06828403 0.84575933 77 5 5838 9.70400000 1409619998 1409619998 5.00000000
3.47563362 2.13906026 -0.64638722 4 6 5839 4.13200000 1409620000 1409620000 -9.00000000
24.16767502 14.86805248 3.48400068 38 7 5840 28.58800000 1409620003 1409620003 7.00000000
4.67882586 2.87730718 -0.67442495 4 8 5841 5.53400000 1409620005 1409620005 -7.00000000
17.86842346 10.98413181 3.32204223 4 9 5842 21.23600000 1409620007 1409620007 9.00000000
7.17294216 4.40937281 -0.73664033 13 10 5842 8.45200000 1409620010 1409620010 -5.00000000
16.36397552 10.05537796 3.73336887 30 11 5843 19.56600000 1409620012 1409620012 11.00000000
8.22674084 5.05321121 -0.50598401 12 12 5844 9.66800000 1409620014 1409620014 -3.00000000
1.72711229 1.06045008 0.46789819 31 13 5845 2.08000000 1409620016 1409620016 13.00000000
8.22661114 5.04917717 -0.16848554 16 14 5846 9.65400000 1409620019 1409620019 -1.00000000
7.51283884 4.61109114 2.36198258 45 15 5846 9.12600000 1409620021 1409620021 15.00000000
1.94614458 1.19073093 -0.61133057 4 0 5854 2.36200000 1409620042 1409620042 -15.00000000
8.21747303 5.02581549 0.16813648 13 1 5855 9.63400000 1409620044 1409620044 1.00000000
2.30608082 1.40984857 -0.62401420 3 2 5856 2.77400000 1409620046 1409620046 -13.00000000
8.24841022 5.04078102 0.50661206 89 3 5857 9.68000000 1409620049 1409620049 3.00000000
2.76575780 1.69021404 -0.63005131 5 4 5857 3.30200000 1409620051 1409620051 -11.00000000
8.24107838 5.03432512 0.84488779 77 5 5858 9.69400000 1409620053 1409620053 5.00000000
3.46622014 2.11662030 -0.64325851 6 6 5859 4.11200000 1409620056 1409620056 -9.00000000
24.20417786 14.77429295 3.48180723 38 7 5860 28.57000000 1409620058 1409620058 7.00000000
4.68036795 2.85578775 -0.67320627 4 8 5861 5.52400000 1409620060 1409620060 -7.00000000
18.00784302 10.98340893 3.34081435 4 9 5862 21.35600000 1409620063 1409620063 9.00000000
7.18658876 4.38327026 -0.73646605 8 10 5862 8.45000000 1409620065 1409620065 -5.00000000
16.36880302 9.97979927 3.72649980 15 11 5863 19.53000000 1409620067 1409620067 11.00000000
8.23239136 5.01718760 -0.50525135 17 12 5864 9.65400000 1409620069 1409620069 -3.00000000
1.69751883 1.03413761 0.45890015 31 13 5865 2.04000000 1409620072 1409620072 13.00000000
8.23223114 5.01314974 -0.16824120 14 14 5866 9.64000000 1409620074 1409620074 -1.00000000
7.53218889 4.58684826 2.36301780 45 15 5866 9.13000000 1409620076 1409620076 15.00000000
1.94698644 1.18192530 -0.61029530 4 0 5874 2.35800000 1409620097 1409620097 -15.00000000
8.21787071 4.98672628 0.16778743 13 1 5875 9.61400000 1409620099 1409620099 1.00000000
2.29765868 1.39370489 -0.62041503 3 2 5876 2.75800000 1409620102 1409620102 -13.00000000
8.24800396 5.00304222 0.50556535 89 3 5876 9.66000000 1409620104 1409620104 3.00000000
2.77331948 1.68156743 -0.63043290 5 4 5877 3.30400000 1409620106 1409620106 -11.00000000
8.24667454 4.99829865 0.84366757 81 5 5878 9.68000000 1409620109 1409620109 5.00000000
3.46345043 2.09836650 -0.64138132 6 6 5879 4.10000000 1409620111 1409620111 -9.00000000
24.26918602 14.69794083 3.48375702 42 7 5880 28.58600000 1409620113 1409620113 7.00000000
4.69200611 2.84046078 -0.67344999 4 8 5881 5.52600000 1409620115 1409620115 -7.00000000
17.96474457 10.87555122 3.32610965 4 9 5881 21.26200000 1409620118 1409620118 9.00000000
6.69217634 4.04973412 -0.68434691 12 10 5882 7.85200000 1409620120 1409620120 -5.00000000
16.41025734 9.92666531 3.72802615 3 11 5883 19.53800000 1409620122 1409620122 11.00000000
8.22592640 4.97395277 -0.50378591 17 12 5884 9.62600000 1409620125 1409620125 -3.00000000
1.67276633 1.01106918 0.45125180 22 13 5885 2.00600000 1409620127 1409620127 13.00000000
8.22914124 4.97197437 -0.16782235 16 14 5886 9.61600000 1409620129 1409620129 -1.00000000
7.55476809 4.56452417 2.36508846 45 15 5886 9.13800000 1409620132 1409620132 15.00000000
1.96102953 1.18110216 -0.61340111 4 0 5894 2.37000000 1409620152 1409620152 -15.00000000
8.22494888 4.95182180 0.16757801 13 1 5895 9.60200000 1409620155 1409620155 1.00000000
2.30918837 1.38969553 -0.62221462 3 2 5896 2.76600000 1409620157 1409620157 -13.00000000
8.23547935 4.95424604 0.50368124 60 3 5897 9.62400000 1409620159 1409620159 3.00000000
2.76571393 1.66378021 -0.62737995 5 4 5897 3.28800000 1409620162 1409620162 -11.00000000
8.24870396 4.96024132 0.84209877 81 5 5898 9.66200000 1409620164 1409620164 5.00000000
3.47413993 2.08829927 -0.64200705 6 6 5899 4.10400000 1409620166 1409620166 -9.00000000
4.69168234 2.81793284 -0.67198753 6 8 5901 5.51400000 1409620171 1409620171 -7.00000000
8.33073616 5.00165462 1.53900230 2 9 5902 9.83800000 1409620173 1409620173 9.00000000
6.69943953 4.02224731 -0.68364966 12 10 5902 7.84400000 1409620175 1409620175 -5.00000000
8.31751442 4.99174166 1.88557446 3 11 5903 9.88200000 1409620178 1409620178 11.00000000
8.22439957 4.93390608 -0.50263453 17 12 5904 9.60400000 1409620180 1409620180 -3.00000000
1.66792905 1.00021291 0.44900230 20 13 5905 1.99600000 1409620182 1409620182 13.00000000
8.23101044 4.93396568 -0.16750820 16 14 5906 9.59800000 1409620185 1409620185 -1.00000000
7.56647587 4.53382492 2.36353540 45 15 5907 9.13200000 1409620187 1409620187 15.00000000
1.95830274 1.17062783 -0.61133057 4 0 5913 2.36200000 1409620208 1409620208 -15.00000000
8.23274136 4.91939116 0.16740349 13 1 5914 9.59200000 1409620210 1409620210 1.00000000
2.32047629 1.38602746 -0.62401420 3 2 5915 2.77400000 1409620212 1409620212 -13.00000000
8.21842480 4.90888977 0.50169247 47 3 5915 9.58600000 1409620215 1409620215 3.00000000
2.78133011 1.66063833 -0.62966967 5 4 5916 3.30000000 1409620217 1409620217 -11.00000000
8.24457741 4.92060709 0.84000707 85 5 5917 9.63800000 1409620219 1409620219 5.00000000
3.50479579 2.09093618 -0.64638722 4 6 5918 4.13200000 1409620221 1409620221 -9.00000000
8.36442184 4.98817539 1.19578195 2 7 5919 9.81200000 1409620224 1409620224 7.00000000
4.69929600 2.80134273 -0.67174381 6 8 5920 5.51200000 1409620226 1409620226 -7.00000000
18.31004524 10.91064739 3.37585568 14 9 5921 21.58000000 1409620228 1409620228 9.00000000
6.69562531 3.98980999 -0.68190652 12 10 5921 7.82400000 1409620231 1409620231 -5.00000000
8.34751606 4.97216940 1.88862741 3 11 5922 9.89800000 1409620233 1409620233 11.00000000
8.22355461 4.89638805 -0.50158781 12 12 5923 9.58400000 1409620235 1409620235 -3.00000000
1.68463337 1.00264966 0.45260152 22 13 5924 2.01200000 1409620238 1409620238 13.00000000
8.22154808 4.89130735 -0.16698462 14 14 5925 9.56800000 1409620240 1409620240 -1.00000000
1.96237707 1.16378486 -0.61133057 4 0 5933 2.36200000 1409620263 1409620263 -15.00000000
8.22062016 4.87328815 0.16681010 13 1 5934 9.55800000 1409620265 1409620265 1.00000000
2.32865334 1.37990594 -0.62491405 3 2 5935 2.77800000 1409620267 1409620267 -13.00000000
8.22863674 4.87609959 0.50127381 26 3 5935 9.57800000 1409620270 1409620270 3.00000000
2.78035307 1.64691734 -0.62814319 5 4 5936 3.29200000 1409620272 1409620272 -11.00000000
8.23941612 4.87860203 0.83774102 89 5 5937 9.61200000 1409620274 1409620274 5.00000000
3.50867343 2.07667708 -0.64576149 4 6 5938 4.12800000 1409620277 1409620277 -9.00000000
24.45341682 14.46747112 3.48863173 24 7 5939 28.62600000 1409620279 1409620279 7.00000000
4.70733738 2.78391147 -0.67150009 4 8 5940 5.51000000 1409620281 1409620281 -7.00000000
18.35822296 10.85269833 3.37773299 14 9 5941 21.59200000 1409620284 1409620284 9.00000000
6.67177916 3.94410753 -0.67807168 42 10 5941 7.78000000 1409620286 1409620286 -5.00000000
8.33777809 4.92702055 1.88252151 3 11 5942 9.86600000 1409620288 1409620288 11.00000000
8.23371696 4.86358976 -0.50116915 12 12 5943 9.57600000 1409620291 1409620291 -3.00000000
1.69651330 1.00171721 0.45485103 23 13 5944 2.02200000 1409620293 1409620293 13.00000000
8.21790695 4.85038185 -0.16656576 14 14 5945 9.54400000 1409620295 1409620295 -1.00000000
7.59970617 4.48550653 2.36457086 40 15 5945 9.13600000 1409620297 1409620297 15.00000000
1.96809244 1.15790749 -0.61184824 4 0 5953 2.36400000 1409620318 1409620318 -15.00000000
8.21689701 4.83239841 0.16639124 13 1 5954 9.53400000 1409620320 1409620320 1.00000000
2.33009601 1.36979389 -0.62401420 3 2 5955 2.77400000 1409620323 1409620323 -13.00000000
8.23439980 4.83882427 0.50054109 21 3 5956 9.56400000 1409620325 1409620325 3.00000000
2.78947020 1.63919127 -0.62890643 5 4 5956 3.29600000 1409620327 1409620327 -11.00000000
8.23749828 4.83871078 0.83582360 96 5 5957 9.59000000 1409620330 1409620330 5.00000000
3.51249409 2.06241655 -0.64513576 4 6 5958 4.12400000 1409620332 1409620332 -9.00000000
8.33227444 4.89047146 1.18627620 20 7 5959 9.73400000 1409620334 1409620334 7.00000000
4.72901154 2.77449465 -0.67320627 6 8 5960 5.52400000 1409620337 1409620337 -7.00000000
8.34345627 4.89507675 1.53211915 2 9 5960 9.79400000 1409620339 1409620339 9.00000000
8.36508751 4.90384340 1.88481128 3 11 5962 9.87800000 1409620344 1409620344 11.00000000
8.21273422 4.81260395 -0.49886635 17 12 5963 9.53200000 1409620346 1409620346 -3.00000000
1.70672560 0.99972898 0.45665064 18 13 5964 2.03000000 1409620348 1409620348 13.00000000
8.22788525 4.81762457 -0.16642615 14 14 5965 9.53600000 1409620350 1409620350 -1.00000000
7.61776257 4.45859814 2.36508846 42 15 5966 9.13800000 1409620353 1409620353 15.00000000
1.97545934 1.15297806 -0.61288351 4 0 5973 2.36800000 1409620373 1409620373 -15.00000000
8.21644306 4.79360962 0.16604219 13 1 5974 9.51400000 1409620376 1409620376 1.00000000
2.32812953 1.35772502 -0.62221462 3 2 5975 2.76600000 1409620378 1409620378 -13.00000000
8.24004841 4.80545425 0.49991307 21 3 5975 9.55200000 1409620380 1409620380 3.00000000
2.79347897 1.62845552 -0.62852484 5 4 5976 3.29400000 1409620383 1409620383 -11.00000000
8.22851658 4.79488039 0.83320892 77 5 5977 9.56000000 1409620385 1409620385 5.00000000
3.51967168 2.05014300 -0.64513576 4 6 5978 4.12400000 1409620387 1409620387 -9.00000000
24.53152084 14.28341866 3.48546314 24 7 5979 28.60000000 1409620390 1409620390 7.00000000
4.74209881 2.75996733 -0.67369372 6 8 5980 5.52800000 1409620392 1409620392 -7.00000000
18.45744514 10.73817730 3.38211322 43 9 5981 21.62000000 1409620394 1409620394 9.00000000
16.61495972 9.66237545 3.73604012 3 11 5982 19.58000000 1409620399 1409620399 11.00000000
8.21221638 4.77386904 -0.49781960 17 12 5983 9.51200000 1409620401 1409620401 -3.00000000
1.69672549 0.98593265 0.45305142 18 13 5984 2.01400000 1409620403 1409620403 13.00000000
8.22908878 4.77983522 -0.16611201 16 14 5985 9.51800000 1409620406 1409620406 -1.00000000
7.63160896 4.43100977 2.36457086 45 15 5986 9.13600000 1409620408 1409620408 15.00000000
1.98575771 1.15064049 -0.61495405 4 0 5991 2.37600000 1409620429 1409620429 -15.00000000
8.22280979 4.76276207 0.16586767 16 1 5992 9.50400000 1409620431 1409620431 1.00000000
2.33575654 1.35235727 -0.62311441 3 2 5993 2.77000000 1409620433 1409620433 -13.00000000
8.23090649 4.76553345 0.49844766 15 3 5993 9.52400000 1409620436 1409620436 3.00000000
2.79518270 1.61770475 -0.62776160 5 4 5994 3.29000000 1409620438 1409620438 -11.00000000
8.23664093 4.76501560 0.83251166 81 5 5995 9.55200000 1409620440 1409620440 5.00000000
3.52609515 2.03907561 -0.64513576 4 6 5996 4.12400000 1409620443 1409620443 -9.00000000
24.54705620 14.18939114 3.48131967 17 7 5997 28.56600000 1409620445 1409620445 7.00000000
4.73355818 2.73512459 -0.67125636 6 8 5998 5.50800000 1409620447 1409620447 -7.00000000
18.49606514 10.68731880 3.38336468 55 9 5998 21.62800000 1409620450 1409620450 9.00000000
16.65373421 9.61503792 3.73794818 15 11 6000 19.59000000 1409620454 1409620454 11.00000000
8.21679401 4.74205637 -0.49719158 17 12 6001 9.50000000 1409620456 1409620456 -3.00000000
1.72007048 0.99228275 0.45845026 11 13 6002 2.03800000 1409620459 1409620459 13.00000000
8.22500896 4.74297094 -0.16572805 16 14 6003 9.49600000 1409620461 1409620461 -1.00000000
7.64883900 4.40894222 2.36560607 45 15 6004 9.14000000 1409620463 1409620463 15.00000000
1.97636306 1.13600028 -0.61081296 4 0 6011 2.36000000 1409620484 1409620484 -15.00000000
8.22898197 4.72805262 0.16565824 19 1 6012 9.49200000 1409620486 1409620486 1.00000000
2.34046292 1.34419560 -0.62311441 3 2 6013 2.77000000 1409620489 1409620489 -13.00000000
8.23190308 4.72782087 0.49750561 13 3 6013 9.50600000 1409620491 1409620491 3.00000000
2.79740739 1.60598290 -0.62699836 5 4 6014 3.28600000 1409620493 1409620493 -11.00000000
8.23767090 4.72731018 0.83094287 81 5 6015 9.53400000 1409620496 1409620496 5.00000000
3.52976441 2.02478886 -0.64450997 4 6 6016 4.12000000 1409620498 1409620498 -9.00000000
8.25564098 4.73379230 1.16848326 9 7 6017 9.58800000 1409620500 1409620500 7.00000000
4.75341034 2.72450757 -0.67271876 6 8 6018 5.52000000 1409620503 1409620503 -7.00000000
18.54696846 10.63054848 3.38586760 50 9 6018 21.64400000 1409620505 1409620505 9.00000000
16.67527008 9.55001736 3.73527694 33 11 6020 19.57600000 1409620509 1409620509 11.00000000
8.21769714 4.70441484 -0.49624953 17 12 6021 9.48200000 1409620512 1409620512 -3.00000000
8.27426720 4.73488235 2.20092106 14 13 6022 9.78400000 1409620514 1409620514 13.00000000
8.21547794 4.69933796 -0.16520448 16 14 6023 9.46600000 1409620516 1409620516 -1.00000000
7.65076590 4.37454462 2.36146498 40 15 6024 9.12400000 1409620519 1409620519 15.00000000
1.97528172 1.12622392 -0.60926002 4 0 6031 2.35400000 1409620539 1409620539 -15.00000000
8.22111225 4.68543720 0.16516958 19 1 6032 9.46400000 1409620542 1409620542 1.00000000
2.35530019 1.34180558 -0.62581384 3 2 6033 2.78200000 1409620544 1409620544 -13.00000000
8.23100281 4.68917084 0.49645889 13 3 6033 9.48600000 1409620546 1409620546 3.00000000
2.80470228 1.59717989 -0.62737995 5 4 6034 3.28800000 1409620549 1409620549 -11.00000000
8.22641850 4.68275642 0.82815385 77 5 6035 9.50200000 1409620551 1409620551 5.00000000
3.52994323 2.00854778 -0.64325851 6 6 6036 4.11200000 1409620553 1409620553 -9.00000000
8.25485897 4.69513130 1.16604590 24 7 6037 9.56800000 1409620555 1409620555 7.00000000
4.76116562 2.70691729 -0.67247504 4 8 6038 5.51800000 1409620558 1409620558 -7.00000000
18.59941864 10.57452965 3.38868332 50 9 6038 21.66200000 1409620560 1409620560 9.00000000
6.67763376 3.79496551 -0.67197078 38 10 6039 7.71000000 1409620562 1409620562 -5.00000000
16.70338440 9.48884296 3.73413205 41 11 6040 19.57000000 1409620565 1409620565 11.00000000
8.22538471 4.67077017 -0.49572617 17 12 6041 9.47200000 1409620567 1409620567 -3.00000000
8.27549171 4.69731331 2.19687200 25 13 6042 9.76600000 1409620569 1409620569 13.00000000
8.22487545 4.66668463 -0.16506486 14 14 6043 9.45800000 1409620572 1409620572 -1.00000000
7.66523027 4.34914970 2.36146498 42 15 6043 9.12400000 1409620574 1409620574 15.00000000
1.98592722 1.12312603 -0.61133057 4 0 6051 2.36200000 1409620595 1409620595 -15.00000000
8.21130562 4.64195013 0.16464600 13 1 6052 9.43400000 1409620597 1409620597 1.00000000
2.35318327 1.32974100 -0.62401420 3 2 6053 2.77400000 1409620599 1409620599 -13.00000000
8.23514843 4.65353251 0.49572617 10 3 6053 9.47200000 1409620602 1409620602 3.00000000
2.80855107 1.58641434 -0.62699836 5 4 6054 3.28600000 1409620604 1409620604 -11.00000000
8.23230457 4.64813471 0.82710803 77 5 6055 9.49000000 1409620606 1409620606 5.00000000
3.53349209 1.99427187 -0.64263278 4 6 6056 4.10800000 1409620608 1409620608 -9.00000000
8.23834801 4.64775562 1.16141486 47 7 6057 9.53000000 1409620611 1409620611 7.00000000
4.77750206 2.69418168 -0.67344999 4 8 6058 5.52600000 1409620613 1409620613 -7.00000000
18.64998245 10.51730347 3.39118624 50 9 6058 21.67800000 1409620615 1409620615 9.00000000
6.68042612 3.76576304 -0.67092490 51 10 6059 7.69800000 1409620618 1409620618 -5.00000000
16.71929932 9.42084122 3.73031592 41 11 6060 19.55000000 1409620620 1409620620 11.00000000
8.21727562 4.62830734 -0.49426076 17 12 6061 9.44400000 1409620622 1409620622 -3.00000000
8.28164864 4.66266155 2.19417262 60 13 6062 9.75400000 1409620625 1409620625 13.00000000
8.22368813 4.62813854 -0.16471581 12 14 6063 9.43800000 1409620627 1409620627 -1.00000000
7.68448687 4.32292032 2.36250019 45 15 6064 9.12800000 1409620629 1409620629 15.00000000
1.99320531 1.11807728 -0.61236584 4 0 6071 2.36600000 1409620650 1409620650 -15.00000000
8.21873856 4.60836935 0.16447148 16 1 6072 9.42400000 1409620652 1409620652 1.00000000
2.34421110 1.31389642 -0.62041503 4 2 6073 2.75800000 1409620655 1409620655 -13.00000000
8.23472500 4.61355591 0.49467945 13 3 6074 9.45200000 1409620657 1409620657 3.00000000
2.82263541 1.58139896 -0.62890643 5 4 6074 3.29600000 1409620659 1409620659 -11.00000000
8.23631096 4.61255550 0.82588780 89 5 6075 9.47600000 1409620661 1409620661 5.00000000
3.53008986 1.97613609 -0.64075559 4 6 6076 4.09600000 1409620664 1409620664 -9.00000000
8.24066353 4.61121511 1.15946496 94 7 6077 9.51400000 1409620666 1409620666 7.00000000
4.77128506 2.66876721 -0.67125636 4 8 6078 5.50800000 1409620668 1409620668 -7.00000000
18.69347763 10.45599651 3.39243770 50 9 6078 21.68600000 1409620671 1409620671 9.00000000
16.74865532 9.36050701 3.72955251 45 11 6080 19.54600000 1409620675 1409620675 11.00000000
8.22117615 4.59277678 -0.49352807 17 12 6081 9.43000000 1409620678 1409620678 -3.00000000
8.28256130 4.62517357 2.19012356 78 13 6082 9.73600000 1409620680 1409620680 13.00000000
8.21883965 4.58770847 -0.16429695 12 14 6083 9.41400000 1409620682 1409620682 -1.00000000
7.70384026 4.30023861 2.36405325 45 15 6083 9.13400000 1409620685 1409620685 15.00000000
2.00047231 1.11299133 -0.61340111 4 0 6091 2.37000000 1409620705 1409620705 -15.00000000
8.20855999 4.56507349 0.16394791 13 1 6092 9.39400000 1409620708 1409620708 1.00000000
2.34537673 1.30381191 -0.61951518 3 2 6093 2.75400000 1409620710 1409620710 -13.00000000
8.23157501 4.57411194 0.49352807 15 3 6094 9.43000000 1409620712 1409620712 3.00000000
2.82298994 1.56867564 -0.62776160 5 4 6094 3.29000000 1409620714 1409620714 -11.00000000
8.23668575 4.57507038 0.82431901 81 5 6095 9.45800000 1409620717 1409620717 5.00000000
3.56459904 1.97914386 -0.64576149 4 6 6096 4.12800000 1409620719 1409620719 -9.00000000
8.24108791 4.57375193 1.15727127 96 7 6097 9.49600000 1409620721 1409620721 7.00000000
4.77536392 2.64920712 -0.67052513 4 8 6098 5.50200000 1409620724 1409620724 -7.00000000
18.73167419 10.38741112 3.39243770 50 9 6099 21.68600000 1409620726 1409620726 9.00000000
16.78809547 9.30579376 3.73107910 41 11 6100 19.55400000 1409620731 1409620731 11.00000000
8.21444607 4.55146790 -0.49216732 17 12 6101 9.40400000 1409620733 1409620733 -3.00000000
8.27138042 4.58112717 2.18292499 76 13 6102 9.70400000 1409620735 1409620735 13.00000000
8.21905899 4.55027437 -0.16398281 14 14 6103 9.39600000 1409620738 1409620738 -1.00000000
7.72293043 4.27384472 2.36508846 45 15 6104 9.13800000 1409620740 1409620740 15.00000000
1.99400449 1.10074961 -0.61029530 4 0 6110 2.35800000 1409620761 1409620761 -15.00000000
8.21840096 4.53492975 0.16384318 16 1 6111 9.38800000 1409620763 1409620763 1.00000000
2.35992551 1.30167437 -0.62221462 3 2 6112 2.76600000 1409620765 1409620765 -13.00000000
8.21871376 4.53136063 0.49185333 15 3 6113 9.39800000 1409620767 1409620767 3.00000000
2.81786084 1.55361819 -0.62547189 4 4 6113 3.27800000 1409620770 1409620770 -11.00000000
8.23610783 4.53907633 0.82275021 89 5 6114 9.44000000 1409620772 1409620772 5.00000000
3.58152366 1.97303128 -0.64763868 4 6 6115 4.14000000 1409620774 1409620774 -9.00000000
8.24229908 4.53873825 1.15532136 94 7 6116 9.48000000 1409620777 1409620777 7.00000000
4.80846977 2.64675808 -0.67393744 4 8 6117 5.53000000 1409620779 1409620779 -7.00000000
18.76767731 10.33041763 3.39306355 50 9 6117 21.69000000 1409620781 1409620781 9.00000000
16.82746506 9.25480175 3.73298717 48 11 6119 19.56400000 1409620786 1409620786 11.00000000
8.22074318 4.51939201 -0.49164397 17 12 6120 9.39400000 1409620788 1409620788 -3.00000000
8.27627945 4.54804182 2.18022561 75 13 6121 9.69200000 1409620791 1409620791 13.00000000
8.20605946 4.50759029 -0.16342433 18 14 6122 9.36400000 1409620793 1409620793 -1.00000000
7.72785282 4.24491072 2.36250019 45 15 6122 9.12800000 1409620795 1409620795 15.00000000
1.99444568 1.09192705 -0.60926002 4 0 6130 2.35400000 1409620816 1409620816 -15.00000000
8.21488476 4.49565458 0.16345924 16 1 6131 9.36600000 1409620818 1409620818 1.00000000
2.37471294 1.29904008 -0.62491405 3 2 6132 2.77800000 1409620820 1409620820 -13.00000000
8.22922421 4.49976969 0.49153930 13 3 6133 9.39200000 1409620823 1409620823 3.00000000
2.82326674 1.54377258 -0.62547189 4 4 6133 3.27800000 1409620825 1409620825 -11.00000000
8.21343899 4.48927689 0.81891537 81 5 6134 9.39600000 1409620827 1409620827 5.00000000
3.57798791 1.95483482 -0.64576149 4 6 6135 4.12800000 1409620830 1409620830 -9.00000000
8.23892689 4.49947357 1.15264022 92 7 6136 9.45800000 1409620832 1409620832 7.00000000
4.81767941 2.62995720 -0.67393744 4 8 6137 5.53000000 1409620834 1409620834 -7.00000000
18.79847717 10.25777626 3.39181209 50 9 6138 21.68200000 1409620837 1409620837 9.00000000
16.85622025 9.19412613 3.73222399 48 11 6139 19.56000000 1409620841 1409620841 11.00000000
8.21542645 4.47919559 -0.49038792 21 12 6140 9.37000000 1409620843 1409620843 -3.00000000
8.27670383 4.51073170 2.17617655 74 13 6141 9.67400000 1409620846 1409620846 13.00000000
8.21296406 4.47413492 -0.16324981 16 14 6142 9.35400000 1409620848 1409620848 -1.00000000
7.73317957 4.21101522 2.35939431 45 15 6143 9.11600000 1409620850 1409620850 15.00000000
2.00201988 1.08610332 -0.61029530 4 0 6152 2.35800000 1409620871 1409620871 -15.00000000
8.20923328 4.45168638 0.16300547 16 1 6153 9.34000000 1409620873 1409620873 1.00000000
2.36940384 1.28434038 -0.62221462 3 2 6154 2.76600000 1409620876 1409620876 -13.00000000
8.24117279 4.46528435 0.49122527 10 3 6155 9.38600000 1409620878 1409620878 3.00000000
2.83607817 1.53666174 -0.62699836 4 4 6155 3.28600000 1409620880 1409620880 -11.00000000
8.20784092 4.44537115 0.81664932 77 5 6156 9.37000000 1409620883 1409620883 5.00000000
3.57157040 1.93355834 -0.64325851 4 6 6157 4.11200000 1409620885 1409620885 -9.00000000
8.23170090 4.45457840 1.14922786 90 7 6158 9.43000000 1409620887 1409620887 7.00000000
4.82774210 2.61143947 -0.67393744 4 8 6159 5.53000000 1409620890 1409620890 -7.00000000
6.68092060 3.61236024 -0.66447538 17 10 6160 7.62400000 1409620894 1409620894 -5.00000000
16.87585449 9.12093449 3.72878933 45 11 6161 19.54200000 1409620896 1409620896 11.00000000
8.21147728 4.43622589 -0.48913184 21 12 6162 9.34600000 1409620899 1409620899 -3.00000000
8.28196049 4.47243643 2.17302728 70 13 6163 9.66000000 1409620901 1409620901 13.00000000
8.20720673 4.43021822 -0.16279605 18 14 6164 9.32800000 1409620903 1409620903 -1.00000000
7.75876188 4.18814945 2.36250019 45 15 6164 9.12800000 1409620906 1409620906 15.00000000
2.00920129 1.08093894 -0.61133057 4 0 6172 2.36200000 1409620926 1409620926 -15.00000000
8.20887280 4.41447973 0.16269134 15 1 6173 9.32200000 1409620929 1409620929 1.00000000
2.37730551 1.27790713 -0.62311441 3 2 6174 2.77000000 1409620931 1409620931 -13.00000000
8.22504044 4.41947365 0.48934120 10 3 6175 9.35000000 1409620933 1409620933 3.00000000
2.84488368 1.52861118 -0.62776160 4 4 6175 3.29000000 1409620936 1409620936 -11.00000000
8.23032951 4.42046452 0.81734657 85 5 6176 9.37800000 1409620938 1409620938 5.00000000
3.57829785 1.92107952 -0.64325851 6 6 6177 4.11200000 1409620940 1409620940 -9.00000000
8.22970867 4.41643047 1.14679050 90 7 6178 9.41000000 1409620943 1409620943 7.00000000
4.82983112 2.59081817 -0.67296249 4 8 6179 5.52200000 1409620945 1409620945 -7.00000000
17.85995674 9.57642555 3.20972228 27 9 6180 20.51800000 1409620947 1409620947 9.00000000
6.68822193 3.58619308 -0.66395247 12 10 6180 7.61800000 1409620949 1409620949 -5.00000000
16.91278076 9.06475353 3.72993422 45 11 6181 19.54800000 1409620952 1409620952 11.00000000
8.20050526 4.39338732 -0.48756176 17 12 6182 9.31600000 1409620954 1409620954 -3.00000000
8.28034210 4.43429995 2.16852808 70 13 6183 9.64000000 1409620956 1409620956 13.00000000
8.22085857 4.40059900 -0.16276114 16 14 6184 9.32600000 1409620959 1409620959 -1.00000000
7.77405977 4.15968370 2.36250019 45 15 6185 9.12800000 1409620961 1409620961 15.00000000
2.01618338 1.07608950 -0.61236584 4 0 6191 2.36600000 1409620982 1409620982 -15.00000000
8.21288013 4.38158607 0.16248190 15 1 6192 9.31000000 1409620984 1409620984 1.00000000
2.37809110 1.26818275 -0.62221462 3 2 6193 2.76600000 1409620986 1409620986 -13.00000000
8.22026348 4.38183975 0.48818979 10 3 6194 9.32800000 1409620989 1409620989 3.00000000
2.84300709 1.51547480 -0.62623513 4 4 6194 3.28200000 1409620991 1409620991 -11.00000000
8.23966789 4.39033651 0.81682360 89 5 6195 9.37200000 1409620993 1409620993 5.00000000
3.59162283 1.91291726 -0.64450997 6 6 6196 4.12000000 1409620996 1409620996 -9.00000000
8.23029137 4.38165283 1.14484060 92 7 6197 9.39400000 1409620998 1409620998 7.00000000
4.83839607 2.57478762 -0.67296249 6 8 6198 5.52200000 1409621000 1409621000 -7.00000000
17.85159111 9.49985313 3.20283914 36 9 6198 20.47400000 1409621002 1409621002 9.00000000
16.93754768 9.00585365 3.72878933 45 11 6200 19.54200000 1409621007 1409621007 11.00000000
8.19915676 4.35773325 -0.48661971 17 12 6201 9.29800000 1409621009 1409621009 -3.00000000
8.27779198 4.39767408 2.16402912 72 13 6202 9.62000000 1409621012 1409621012 13.00000000
8.20891476 4.35924530 -0.16223757 16 14 6203 9.29600000 1409621014 1409621014 -1.00000000
7.79050207 4.13705254 2.36353540 42 15 6203 9.13200000 1409621016 1409621016 15.00000000
2.01651239 1.06723785 -0.61133057 4 0 6211 2.36200000 1409621037 1409621037 -15.00000000
8.21751976 4.34728050 0.16227247 15 1 6212 9.29800000 1409621039 1409621039 1.00000000
2.38594890 1.26169586 -0.62311441 3 2 6213 2.77000000 1409621042 1409621042 -13.00000000
8.22667980 4.34845209 0.48766643 13 3 6214 9.31800000 1409621044 1409621044 3.00000000
2.84480858 1.50370669 -0.62547189 5 4 6214 3.27800000 1409621046 1409621046 -11.00000000
8.21971035 4.34293270 0.81333739 77 5 6215 9.33200000 1409621049 1409621049 5.00000000
3.59129143 1.89667845 -0.64325851 6 6 6216 4.11200000 1409621051 1409621051 -9.00000000
8.23851395 4.34919024 1.14386570 85 7 6217 9.38600000 1409621053 1409621053 7.00000000
4.84384298 2.55602980 -0.67247504 4 8 6218 5.51800000 1409621055 1409621055 -7.00000000
17.84610367 9.41316414 3.19564319 27 9 6219 20.42800000 1409621058 1409621058 9.00000000
16.96887970 8.94667530 3.72878933 45 11 6220 19.54200000 1409621062 1409621062 11.00000000
8.20901680 4.32629299 -0.48630571 21 12 6221 9.29200000 1409621065 1409621065 -3.00000000
8.27585125 4.35967016 2.15953016 75 13 6222 9.60000000 1409621067 1409621067 13.00000000
8.20461750 4.32031584 -0.16185361 16 14 6223 9.27400000 1409621069 1409621069 -1.00000000
7.79535580 4.10307217 2.36042976 42 15 6224 9.12000000 1409621072 1409621072 15.00000000
2.01319861 1.05695295 -0.60926002 4 0 6230 2.35400000 1409621092 1409621092 -15.00000000
8.20887184 4.30792618 0.16181871 15 1 6231 9.27200000 1409621095 1409621095 1.00000000
2.39011979 1.25377679 -0.62311441 3 2 6232 2.77000000 1409621097 1409621097 -13.00000000
8.23044205 4.31558275 0.48703840 13 3 6233 9.30600000 1409621099 1409621099 3.00000000
2.85151792 1.49517632 -0.62585348 5 4 6233 3.28000000 1409621102 1409621102 -11.00000000
8.21818447 4.30732727 0.81176859 78 5 6234 9.31400000 1409621104 1409621104 5.00000000
3.59756112 1.88475883 -0.64325851 6 6 6235 4.11200000 1409621106 1409621106 -9.00000000
8.24585724 4.31816244 1.14289069 85 7 6236 9.37800000 1409621108 1409621108 7.00000000
4.85756826 2.54271483 -0.67320627 6 8 6237 5.52400000 1409621111 1409621111 -7.00000000
17.84758568 9.34239483 3.19063735 18 9 6237 20.39600000 1409621113 1409621113 9.00000000
16.99845505 8.89035511 3.72878933 41 11 6239 19.54200000 1409621118 1409621118 11.00000000
8.20561886 4.28979397 -0.48525900 17 12 6240 9.27200000 1409621120 1409621120 -3.00000000
8.27644539 4.32498217 2.15593100 75 13 6241 9.58400000 1409621122 1409621122 13.00000000
8.19940186 4.28290033 -0.16146967 14 14 6242 9.25200000 1409621125 1409621125 -1.00000000
7.80135822 4.07498455 2.35835910 40 15 6242 9.11200000 1409621127 1409621127 15.00000000
2.02030301 1.05170321 -0.61029530 4 0 6250 2.35800000 1409621148 1409621148 -15.00000000
8.20079803 4.26724625 0.16136494 12 1 6251 9.24600000 1409621150 1409621150 1.00000000
2.38756609 1.24182916 -0.62131482 3 2 6252 2.76200000 1409621152 1409621152 -13.00000000
8.23482323 4.28129911 0.48641038 13 3 6253 9.29400000 1409621155 1409621155 3.00000000
2.85846162 1.48611927 -0.62623513 5 4 6253 3.28200000 1409621157 1409621157 -11.00000000
8.22079468 4.27218294 0.81054842 78 5 6254 9.30000000 1409621159 1409621159 5.00000000
3.60061240 1.87036836 -0.64263278 6 6 6255 4.10800000 1409621161 1409621161 -9.00000000
8.23973846 4.27837563 1.13996589 90 7 6256 9.35400000 1409621164 1409621164 7.00000000
4.88050985 2.53305888 -0.67515618 6 8 6257 5.54000000 1409621166 1409621166 -7.00000000
17.86956787 9.27457809 3.18876004 4 9 6257 20.38400000 1409621168 1409621168 9.00000000
17.01892662 8.82554245 3.72649980 41 11 6259 19.53000000 1409621173 1409621173 11.00000000
8.20635700 4.25377178 -0.48442161 17 12 6260 9.25600000 1409621175 1409621175 -3.00000000
8.27764988 4.28889322 2.15233159 75 13 6261 9.56800000 1409621178 1409621178 13.00000000
8.21785355 4.25609207 -0.16153948 14 14 6262 9.25600000 1409621180 1409621180 -1.00000000
7.81210375 4.04595089 2.35732388 45 15 6262 9.10800000 1409621182 1409621182 15.00000000
2.03064561 1.04854321 -0.61236584 4 0 6269 2.36600000 1409621203 1409621203 -15.00000000
8.20246506 4.23360777 0.16112062 12 1 6270 9.23200000 1409621205 1409621205 1.00000000
2.38474369 1.23033094 -0.61951518 3 2 6271 2.75400000 1409621208 1409621208 -13.00000000
8.22589874 4.24206734 0.48504964 15 3 6272 9.26800000 1409621210 1409621210 3.00000000
2.87558842 1.48293090 -0.62890643 5 4 6272 3.29600000 1409621212 1409621212 -11.00000000
8.22606182 4.24033403 0.80967683 78 5 6273 9.29000000 1409621214 1409621214 5.00000000
3.61733079 1.86384666 -0.64450997 6 6 6274 4.12000000 1409621217 1409621217 -9.00000000
8.22564507 4.23648548 1.13606596 95 7 6275 9.32200000 1409621219 1409621219 7.00000000
4.88182306 2.51322627 -0.67418122 6 8 6276 5.53200000 1409621221 1409621221 -7.00000000
8.34845161 4.29604864 1.48706603 2 9 6277 9.50600000 1409621224 1409621224 9.00000000
6.68065310 3.43781257 -0.65732861 12 10 6277 7.54200000 1409621226 1409621226 -5.00000000
17.05159187 8.77085400 3.72726297 41 11 6278 19.53400000 1409621228 1409621228 11.00000000
8.19910336 4.21557570 -0.48316556 17 12 6279 9.23200000 1409621231 1409621231 -3.00000000
8.26409531 4.24716806 2.14513326 75 13 6280 9.53600000 1409621233 1409621233 13.00000000
8.21591377 4.22059345 -0.16122533 16 14 6281 9.23800000 1409621235 1409621235 -1.00000000
7.83063316 4.02267122 2.35887671 45 15 6281 9.11400000 1409621237 1409621237 15.00000000
2.03429317 1.04144847 -0.61236584 4 0 6289 2.36600000 1409621258 1409621258 -15.00000000
8.20117188 4.19675159 0.16080648 12 1 6290 9.21400000 1409621261 1409621261 1.00000000
2.38902378 1.22199917 -0.61951518 3 2 6291 2.75400000 1409621263 1409621263 -13.00000000
8.21576023 4.20059872 0.48358423 13 3 6292 9.24000000 1409621265 1409621265 3.00000000
2.86676311 1.46573424 -0.62585348 5 4 6292 3.28000000 1409621267 1409621267 -11.00000000
8.22661972 4.20434046 0.80828238 82 5 6293 9.27400000 1409621270 1409621270 5.00000000
3.62029648 1.84941125 -0.64388424 6 6 6294 4.11600000 1409621272 1409621272 -9.00000000
8.22447109 4.19962168 1.13387239 100 7 6295 9.30400000 1409621274 1409621274 7.00000000
4.87642145 2.48895049 -0.67223132 6 8 6296 5.51600000 1409621277 1409621277 -7.00000000
19.92047310 10.16312981 3.54198909 21 9 6297 22.64200000 1409621279 1409621279 9.00000000
6.68551397 3.41084981 -0.65663135 12 10 6297 7.53400000 1409621281 1409621281 -5.00000000
17.08210373 8.71127892 3.72726297 45 11 6298 19.53400000 1409621284 1409621284 11.00000000
8.20309162 4.18148756 -0.48253751 17 12 6299 9.22000000 1409621286 1409621286 -3.00000000
8.25629711 4.20679379 2.13928461 74 13 6300 9.51000000 1409621288 1409621288 13.00000000
8.20564938 4.17918348 -0.16073667 16 14 6301 9.21000000 1409621290 1409621290 -1.00000000
7.85048914 3.99657273 2.36042976 45 15 6302 9.12000000 1409621293 1409621293 15.00000000
2.03447080 1.03259254 -0.61133057 4 0 6309 2.36200000 1409621314 1409621314 -15.00000000
8.20328808 4.16176558 0.16056214 12 1 6310 9.20000000 1409621316 1409621316 1.00000000
2.40891719 1.22158480 -0.62356430 4 2 6311 2.77200000 1409621318 1409621318 -13.00000000
8.21255875 4.16286469 0.48253751 15 3 6312 9.22000000 1409621320 1409621320 3.00000000
2.87711549 1.45838141 -0.62699836 5 4 6312 3.28600000 1409621323 1409621323 -11.00000000
8.22702789 4.16839457 0.80688787 93 5 6313 9.25800000 1409621325 1409621325 5.00000000
3.63377929 1.84033275 -0.64513576 6 6 6314 4.12400000 1409621327 1409621327 -9.00000000
8.22845364 4.16550827 1.13240993 99 7 6315 9.29200000 1409621330 1409621330 7.00000000
4.89570713 2.47729111 -0.67369372 6 8 6316 5.52800000 1409621332 1409621332 -7.00000000
20.07040596 10.15148544 3.56232572 21 9 6317 22.77200000 1409621334 1409621334 9.00000000
6.66893244 3.37310433 -0.65384239 12 10 6317 7.50200000 1409621337 1409621337 -5.00000000
17.11416054 8.65248394 3.72764444 45 11 6318 19.53600000 1409621339 1409621339 11.00000000
8.21407318 4.15102625 -0.48232818 17 12 6319 9.21600000 1409621341 1409621341 -3.00000000
8.25701618 4.17091894 2.13568521 74 13 6320 9.49400000 1409621343 1409621343 13.00000000
8.19519711 4.13789654 -0.16024800 18 14 6321 9.18200000 1409621346 1409621346 -1.00000000
7.85680103 3.96703482 2.35835910 42 15 6321 9.11200000 1409621348 1409621348 15.00000000
2.02770853 1.02027464 -0.60822475 4 0 6329 2.35000000 1409621369 1409621369 -15.00000000
8.19811344 4.12322187 0.16017818 12 1 6330 9.17800000 1409621371 1409621371 1.00000000
