# .PCD v0.7 - Point Cloud Data file format
VERSION 0.7
FIELDS x y z intensity laser_id azimuth distance_m adjustedtime timestamp vertical_angle
SIZE 4 4 4 1 1 2 8 8 4 8
TYPE F F F U U U F U U F
COUNT 1 1 1 1 1 1 1 1 1 1
WIDTH 528
HEIGHT 1
VIEWPOINT 0 0 0 1 0 0 0
POINTS 528
DATA ascii
2.22666168 0.05830719 -0.59683675 4 0 8850 2.30600000 2424225727 2424225727 -15.00000000
8.12001610 0.21121193 0.14178336 15 1 8851 8.12400000 2424225729 2424225729 1.00000000
2.61628485 0.06759596 -0.60421854 5 2 8852 2.68600000 2424225732 2424225732 -13.00000000
8.12413597 0.20990022 0.42591003 13 3 8852 8.13800000 2424225734 2424225734 3.00000000
3.15194893 0.08088522 -0.61287850 5 4 8853 3.21200000 2424225736 2424225736 -11.00000000
8.11236763 0.20676254 0.70997065 76 5 8854 8.14600000 2424225739 2424225739 5.00000000
3.96331143 0.10032203 -0.62792796 6 6 8855 4.01400000 2424225741 2424225741 -9.00000000
8.12638569 0.20428136 0.99810994 90 7 8856 8.19000000 2424225743 2424225743 7.00000000
5.26282501 0.13137797 -0.64639497 6 8 8857 5.30400000 2424225745 2424225745 -7.00000000
8.22093201 0.20522235 1.30247331 10 9 8857 8.32600000 2424225748 2424225748 9.00000000
6.60274267 0.16367374 -0.57784259 20 10 8858 6.63000000 2424225750 2424225750 -5.00000000
8.10046101 0.19797102 -0.42465395 21 12 8860 8.11400000 2424225755 2424225755 -3.00000000
8.11440945 0.19547777 -0.14167863 16 14 8862 8.11800000 2424225759 2424225759 -1.00000000
8.17901897 0.19703421 2.19219732 49 15 8862 8.47000000 2424225762 2424225762 15.00000000
2.23071432 0.05062199 -0.59787202 4 0 8870 2.31000000 2424225782 2424225782 -15.00000000
8.11270714 0.18268642 0.14164373 15 1 8871 8.11600000 2424225785 2424225785 1.00000000
2.62429786 0.05863713 -0.60601813 5 2 8872 2.69400000 2424225787 2424225787 -13.00000000
8.11886024 0.17998956 0.42559600 13 3 8873 8.13200000 2424225789 2424225789 3.00000000
3.14828634 0.06979535 -0.61211526 5 4 8873 3.20800000 2424225792 2424225792 -11.00000000
8.11303997 0.17844383 0.70997065 72 5 8874 8.14600000 2424225794 2424225794 5.00000000
3.96956229 0.08661616 -0.62886655 6 6 8875 4.02000000 2424225796 2424225796 -9.00000000
8.13101864 0.17599966 0.99859738 92 7 8876 8.19400000 2424225798 2424225798 7.00000000
5.26325178 0.11300648 -0.64639497 6 8 8877 5.30400000 2424225801 2424225801 -7.00000000
8.21175385 0.17487945 1.30090904 10 9 8878 8.31600000 2424225803 2424225803 9.00000000
6.62717676 0.14113392 -0.57993430 56 10 8878 6.65400000 2424225805 2424225805 -5.00000000
8.11707783 0.17002854 -0.42549133 21 12 8880 8.13000000 2424225810 2424225810 -3.00000000
8.10504627 0.16694610 -0.14150411 18 14 8882 8.10800000 2424225815 2424225815 -1.00000000
8.18161774 0.16709474 2.19271493 49 15 8883 8.47200000 2424225817 2424225817 15.00000000
2.23473287 0.04329924 -0.59890729 4 0 8889 2.31400000 2424225838 2424225838 -15.00000000
8.12126541 0.15593627 0.14178336 15 1 8890 8.12400000 2424225840 2424225840 1.00000000
2.62058115 0.04986018 -0.60511833 6 2 8891 2.69000000 2424225842 2424225842 -13.00000000
8.12337971 0.15455854 0.42580533 13 3 8891 8.13600000 2424225845 2424225845 3.00000000
3.13279724 0.05905883 -0.60906231 5 4 8892 3.19200000 2424225847 2424225847 -11.00000000
8.10761070 0.15142742 0.70944774 76 5 8893 8.14000000 2424225849 2424225849 5.00000000
3.97575283 0.07356177 -0.62980515 9 6 8894 4.02600000 2424225851 2424225851 -9.00000000
8.13552666 0.14910801 0.99908489 92 7 8895 8.19800000 2424225854 2424225854 7.00000000
5.26359749 0.09555229 -0.64639497 6 8 8896 5.30400000 2424225856 2424225856 -7.00000000
8.21031380 0.14761183 1.30059612 10 9 8897 8.31400000 2424225858 2424225858 9.00000000
6.61964035 0.11901338 -0.57923704 100 10 8897 6.64600000 2424225861 2424225861 -5.00000000
8.11360264 0.14303999 -0.42528197 17 12 8899 8.12600000 2424225865 2424225865 -3.00000000
8.10755444 0.14010243 -0.14153902 18 14 8901 8.11000000 2424225870 2424225870 -1.00000000
8.17437553 0.14125714 2.19064450 49 15 8901 8.46400000 2424225872 2424225872 15.00000000
2.22714400 0.03537558 -0.59683675 4 0 8909 2.30600000 2424225893 2424225893 -15.00000000
8.11776161 0.12752399 0.14171354 15 1 8910 8.12000000 2424225895 2424225895 1.00000000
2.63048172 0.04086369 -0.60736787 6 2 8911 2.70000000 2424225897 2424225897 -13.00000000
8.12786388 0.12626377 0.42601469 13 3 8911 8.14000000 2424225900 2424225900 3.00000000
3.14868855 0.04836419 -0.61211526 5 4 8912 3.20800000 2424225902 2424225902 -11.00000000
8.10809040 0.12312566 0.70944774 79 5 8913 8.14000000 2424225904 2424225904 5.00000000
3.96610951 0.05953511 -0.62824082 9 6 8914 4.01600000 2424225907 2424225907 -9.00000000
8.14393711 0.12082661 1.00005984 90 7 8915 8.20600000 2424225909 2424225909 7.00000000
5.26389885 0.07717832 -0.64639497 6 8 8916 5.30400000 2424225911 2424225911 -7.00000000
8.21275425 0.11898020 1.30090904 10 9 8917 8.31600000 2424225914 2424225914 9.00000000
6.59411716 0.09553060 -0.57697099 80 10 8917 6.62000000 2424225916 2424225916 -5.00000000
8.11804676 0.11477383 -0.42549133 17 12 8919 8.13000000 2424225921 2424225921 -3.00000000
8.10999393 0.11182850 -0.14157392 20 14 8921 8.11200000 2424225925 2424225925 -1.00000000
8.16709232 0.11261583 2.18857384 47 15 8921 8.45600000 2424225927 2424225927 15.00000000
2.22725391 0.02760118 -0.59683675 4 0 8929 2.30600000 2424225948 2424225948 -15.00000000
8.10616016 0.09904036 0.14150411 15 1 8930 8.10800000 2424225950 2424225950 1.00000000
2.61891675 0.03154054 -0.60466844 6 2 8931 2.68800000 2424225953 2424225953 -13.00000000
8.13226604 0.09652021 0.42622402 13 3 8932 8.14400000 2424225955 2424225955 3.00000000
3.14883828 0.03737292 -0.61211526 5 4 8932 3.20800000 2424225957 2424225957 -11.00000000
8.10647774 0.09479909 0.70927346 76 5 8933 8.13800000 2424225960 2424225960 5.00000000
3.95444179 0.04555392 -0.62636358 4 6 8934 4.00400000 2424225962 2424225962 -9.00000000
8.12644482 0.09219555 0.99786621 90 7 8935 8.18800000 2424225964 2424225964 7.00000000
5.26810646 0.05884776 -0.64688247 8 8 8936 5.30800000 2424225967 2424225967 -7.00000000
8.21507931 0.09176713 1.30122185 10 9 8936 8.31800000 2424225969 2424225969 9.00000000
6.59241819 0.07249034 -0.57679671 32 10 8937 6.61800000 2424225971 2424225971 -5.00000000
8.10841179 0.08632954 -0.42496797 17 12 8939 8.12000000 2424225976 2424225976 -3.00000000
8.10833454 0.08349806 -0.14153902 20 14 8941 8.11000000 2424225980 2424225980 -1.00000000
8.16938210 0.08270074 2.18909144 51 15 8942 8.45800000 2424225983 2424225983 15.00000000
2.23506379 0.01989523 -0.59890729 4 0 8949 2.31400000 2424226003 2424226003 -15.00000000
8.11045551 0.07077888 0.14157392 15 1 8950 8.11200000 2424226006 2424226006 1.00000000
2.61511374 0.02236529 -0.60376865 6 2 8951 2.68400000 2424226008 2424226008 -13.00000000
8.12455273 0.06948379 0.42580533 13 3 8951 8.13600000 2424226010 2424226010 3.00000000
3.15483904 0.02643054 -0.61326009 5 4 8952 3.21400000 2424226013 2424226013 -11.00000000
8.11074448 0.06653431 0.70962209 76 5 8953 8.14200000 2424226015 2424226015 5.00000000
3.95852733 0.03178178 -0.62698936 2 6 8954 4.00800000 2424226017 2424226017 -9.00000000
8.12076187 0.06378163 0.99713498 80 7 8955 8.18200000 2424226020 2424226020 7.00000000
5.25239944 0.04033633 -0.64493257 8 8 8956 5.29200000 2424226022 2424226022 -7.00000000
8.22128582 0.06170122 1.30216050 10 9 8957 8.32400000 2424226024 2424226024 9.00000000
6.60259247 0.04955283 -0.57766825 20 10 8957 6.62800000 2424226027 2424226027 -5.00000000
8.10267258 0.05798250 -0.42465395 21 12 8959 8.11400000 2424226031 2424226031 -3.00000000
8.12057495 0.05527585 -0.14174844 18 14 8961 8.12200000 2424226036 2424226036 -1.00000000
8.17541599 0.05422221 2.19064450 47 15 8962 8.46400000 2424226038 2424226038 15.00000000
2.23511958 0.01209328 -0.59890729 4 0 8969 2.31400000 2424226059 2424226059 -15.00000000
8.12265110 0.04253049 0.14178336 15 1 8970 8.12400000 2424226061 2424226061 1.00000000
2.61712456 0.01324657 -0.60421854 7 2 8971 2.68600000 2424226063 2424226063 -13.00000000
8.11875439 0.04109306 0.42549133 13 3 8971 8.13000000 2424226066 2424226066 3.00000000
3.13724303 0.01533158 -0.60982555 5 4 8972 3.19600000 2424226068 2424226068 -11.00000000
8.11690426 0.03825029 0.71014500 79 5 8973 8.14800000 2424226070 2424226070 5.00000000
3.94083595 0.01788307 -0.62417352 2 6 8974 3.99000000 2424226073 2424226073 -9.00000000
8.12887573 0.03546914 0.99810994 90 7 8975 8.19000000 2424226075 2424226075 7.00000000
5.24853802 0.02198515 -0.64444506 6 8 8976 5.28800000 2424226077 2424226077 -7.00000000
8.20169163 0.03435537 1.29903185 10 9 8976 8.30400000 2424226080 2424226080 9.00000000
6.60670996 0.02652118 -0.57801688 20 10 8977 6.63200000 2424226082 2424226082 -5.00000000
8.10682011 0.02971318 -0.42486328 25 12 8979 8.11800000 2424226086 2424226086 -3.00000000
8.11271954 0.02690290 -0.14160882 18 14 8981 8.11400000 2424226091 2424226091 -1.00000000
8.17555618 0.02568435 2.19064450 49 15 8982 8.46400000 2424226093 2424226093 15.00000000
2.23128462 0.00428376 -0.59787202 4 0 8989 2.31000000 2424226114 2424226114 -15.00000000
8.12275028 0.01417689 0.14178336 28 1 8990 8.12400000 2424226116 2424226116 1.00000000
2.61715484 0.00411102 -0.60421854 7 2 8991 2.68600000 2424226119 2424226119 -13.00000000
8.11685085 0.01274993 0.42538664 13 3 8991 8.12800000 2424226121 2424226121 3.00000000
3.13727736 0.00438047 -0.60982555 5 4 8992 3.19600000 2424226123 2424226123 -11.00000000
8.11698818 0.00991678 0.71014500 79 5 8993 8.14800000 2424226126 2424226126 5.00000000
3.95865273 0.00414549 -0.62698936 2 6 8994 4.00800000 2424226128 2424226128 -9.00000000
8.13292027 0.00709731 0.99859738 95 7 8995 8.19400000 2424226130 2424226130 7.00000000
5.24064255 0.00365866 -0.64347011 8 8 8996 5.28000000 2424226133 2424226133 -7.00000000
8.20571232 0.00572867 1.29965758 10 9 8996 8.30800000 2424226135 2424226135 9.00000000
6.60078526 0.00345616 -0.57749397 16 10 8997 6.62600000 2424226137 2424226137 -5.00000000
8.11486340 0.00141631 -0.42528197 17 12 8999 8.12600000 2424226142 2424226142 -3.00000000
-1.94151068 0.00101657 -0.52022630 5 0 27003 2.01000000 2424276047 2424276047 -15.00000000
-2.23520398 0.00195058 -0.51603770 4 2 27005 2.29400000 2424276051 2424276051 -13.00000000
-2.61701655 0.00274053 -0.50869679 3 4 27006 2.66600000 2424276056 2424276056 -11.00000000
-3.14084578 0.00438545 -0.49746159 3 6 27008 3.18000000 2424276060 2424276060 -9.00000000
-3.94834256 0.00689116 -0.48479626 3 8 27010 3.97800000 2424276065 2424276065 -7.00000000
-5.18219519 0.00994911 -0.45338416 6 10 27011 5.20200000 2424276070 2424276070 -5.00000000
-7.64548826 0.01734709 -0.40068409 16 12 27013 7.65600000 2424276074 2424276074 -3.00000000
-10.17889118 0.02664834 2.72743511 47 15 27015 10.53800000 2424276081 2424276081 15.00000000
-1.95308626 0.00784023 -0.52333212 5 0 27023 2.02200000 2424276102 2424276102 -15.00000000
-2.23323488 0.00974439 -0.51558781 4 2 27025 2.29200000 2424276106 2424276106 -13.00000000
-2.62288094 0.01190234 -0.50984162 3 4 27026 2.67200000 2424276111 2424276111 -11.00000000
-3.16056490 0.01544556 -0.50059026 3 6 27028 3.20000000 2424276116 2424276116 -9.00000000
-3.94035411 0.02063183 -0.48382130 3 8 27030 3.97000000 2424276120 2424276120 -7.00000000
-5.18611383 0.02805985 -0.45373279 6 10 27031 5.20600000 2424276125 2424276125 -5.00000000
-7.64538097 0.04403472 -0.40068409 16 12 27033 7.65600000 2424276129 2424276129 -3.00000000
-10.17680454 0.06216734 2.72691751 45 15 27035 10.53600000 2424276136 2424276136 15.00000000
-1.95691061 0.01468673 -0.52436739 5 0 27043 2.02600000 2424276157 2424276157 -15.00000000
-2.24098206 0.01760099 -0.51738745 4 2 27045 2.30000000 2424276162 2424276162 -13.00000000
-2.60711789 0.02093173 -0.50678867 3 4 27046 2.65600000 2424276166 2424276166 -11.00000000
-3.15259051 0.02641170 -0.49933881 3 6 27048 3.19200000 2424276171 2424276171 -9.00000000
-3.94621325 0.03443808 -0.48455250 5 8 27050 3.97600000 2424276175 2424276175 -7.00000000
-5.18598413 0.04616259 -0.45373279 6 10 27051 5.20600000 2424276180 2424276180 -5.00000000
-7.64518070 0.07072181 -0.40068409 16 12 27053 7.65600000 2424276185 2424276185 -3.00000000
-10.15720844 0.09750519 2.72174096 42 15 27055 10.51600000 2424276192 2424276192 15.00000000
-1.94525707 0.02139008 -0.52126157 5 0 27063 2.01400000 2424276212 2424276212 -15.00000000
-2.24870133 0.02551180 -0.51918703 4 2 27065 2.30800000 2424276217 2424276217 -13.00000000
-2.61684442 0.03014522 -0.50869679 3 4 27066 2.66600000 2424276222 2424276222 -11.00000000
-3.14655352 0.03734580 -0.49840021 3 6 27068 3.18600000 2424276226 2424276226 -9.00000000
-3.93812919 0.04811572 -0.48357755 5 8 27070 3.96800000 2424276231 2424276231 -7.00000000
-5.18579149 0.06426477 -0.45373279 6 10 27071 5.20600000 2424276235 2424276235 -5.00000000
-7.65487289 0.09753527 -0.40120745 16 12 27073 7.66600000 2424276240 2424276240 -3.00000000
-10.14132881 0.13452756 2.71759987 40 15 27076 10.50000000 2424276247 2424276247 15.00000000
-1.94710219 0.02820815 -0.52177918 4 0 27083 2.01600000 2424276268 2424276268 -15.00000000
-2.24080443 0.03324544 -0.51738745 4 2 27085 2.30000000 2424276272 2424276272 -13.00000000
-2.61083412 0.03919112 -0.50755191 3 4 27086 2.66000000 2424276277 2424276277 -11.00000000
-3.13652825 0.04817740 -0.49683586 3 6 27088 3.17600000 2424276281 2424276281 -9.00000000
-3.95381594 0.06211150 -0.48552746 5 8 27090 3.98400000 2424276286 2424276286 -7.00000000
-5.18155146 0.08230289 -0.45338416 9 10 27091 5.20200000 2424276291 2424276291 -5.00000000
-7.65248871 0.12422276 -0.40110278 12 12 27093 7.66400000 2424276295 2424276295 -3.00000000
-10.15048504 0.16831684 2.72018814 45 15 27095 10.51000000 2424276302 2424276302 15.00000000
-1.94506025 0.03496990 -0.52126157 4 0 27103 2.01400000 2424276323 2424276323 -15.00000000
-2.22119069 0.04071000 -0.51288843 4 2 27105 2.28000000 2424276327 2424276327 -13.00000000
-2.63227367 0.04870391 -0.51174974 3 4 27106 2.68200000 2424276332 2424276332 -11.00000000
-3.16399121 0.05964689 -0.50121605 3 6 27108 3.20400000 2424276337 2424276337 -9.00000000
-3.93372798 0.07553143 -0.48309007 7 8 27110 3.96400000 2424276341 2424276341 -7.00000000
-5.18123245 0.10038938 -0.45338416 6 10 27111 5.20200000 2424276346 2424276346 -5.00000000
-7.63603354 0.15061906 -0.40026540 12 12 27113 7.64800000 2424276351 2424276351 -3.00000000
-10.14404106 0.20363130 2.71863532 45 15 27115 10.50400000 2424276357 2424276357 15.00000000
-1.95651484 0.04200803 -0.52436739 4 0 27123 2.02600000 2424276378 2424276378 -15.00000000
-2.23856950 0.04884576 -0.51693749 4 2 27125 2.29800000 2424276383 2424276383 -13.00000000
-2.62031078 0.05763293 -0.50946003 3 4 27126 2.67000000 2424276387 2424276387 -11.00000000
-3.15191460 0.07042616 -0.49933881 3 6 27128 3.19200000 2424276392 2424276392 -9.00000000
-3.93740940 0.08935232 -0.48357755 5 8 27130 3.96800000 2424276397 2424276397 -7.00000000
-5.19678545 0.11883904 -0.45477867 9 10 27131 5.21800000 2424276401 2424276401 -5.00000000
-7.64744139 0.17755103 -0.40089342 12 12 27133 7.66000000 2424276406 2424276406 -3.00000000
-10.15095234 0.24099311 2.72070575 47 15 27136 10.51200000 2424276413 2424276413 15.00000000
-1.94863129 0.04864445 -0.52229685 5 0 27143 2.01800000 2424276433 2424276433 -15.00000000
-2.25007415 0.05695540 -0.51963693 4 2 27145 2.31000000 2424276438 2424276438 -13.00000000
-2.62401891 0.06687922 -0.51022327 3 4 27146 2.67400000 2424276443 2424276443 -11.00000000
-3.16744709 0.08183613 -0.50184178 3 6 27148 3.20800000 2424276447 2424276447 -9.00000000
-3.94501114 0.10330375 -0.48455250 7 8 27150 3.97600000 2424276452 2424276452 -7.00000000
-5.17642164 0.13645345 -0.45303556 9 10 27151 5.19800000 2424276457 2424276457 -5.00000000
-7.65476131 0.20445780 -0.40131211 12 12 27153 7.66800000 2424276461 2424276461 -3.00000000
-10.15391159 0.27653027 2.72174096 42 15 27156 10.51600000 2424276468 2424276468 15.00000000
-1.94458747 0.05533624 -0.52126157 4 0 27163 2.01400000 2424276489 2424276489 -15.00000000
-2.25570536 0.06497762 -0.52098662 4 2 27165 2.31600000 2424276493 2424276493 -13.00000000
-2.61003256 0.07564024 -0.50755191 3 4 27166 2.66000000 2424276498 2424276498 -11.00000000
-3.15529513 0.09254461 -0.49996457 3 6 27168 3.19600000 2424276503 2424276503 -9.00000000
-3.94065809 0.11695600 -0.48406503 7 8 27170 3.97200000 2424276507 2424276507 -7.00000000
-5.18786287 0.15487844 -0.45408142 9 10 27171 5.21000000 2424276512 2424276512 -5.00000000
-7.65200472 0.23111637 -0.40120745 12 12 27173 7.66600000 2424276516 2424276516 -3.00000000
-10.13743687 0.31149769 2.71759987 42 15 27176 10.50000000 2424276523 2424276523 15.00000000
-1.94824421 0.06224716 -0.52229685 4 0 27183 2.01800000 2424276544 2424276544 -15.00000000
-2.23598766 0.07222199 -0.51648760 4 2 27185 2.29600000 2424276549 2424276549 -13.00000000
-2.61171484 0.08481421 -0.50793356 3 4 27186 2.66200000 2424276553 2424276553 -11.00000000
-3.15100408 0.10342847 -0.49933881 3 6 27188 3.19200000 2424276558 2424276558 -9.00000000
-3.94816184 0.13097402 -0.48503998 7 8 27190 3.98000000 2424276563 2424276563 -7.00000000
-5.18729067 0.17298651 -0.45408142 9 10 27191 5.21000000 2424276567 2424276567 -5.00000000
-7.65115118 0.25782543 -0.40120745 16 12 27193 7.66600000 2424276572 2424276572 -3.00000000
-10.14014912 0.34701419 2.71863532 42 15 27196 10.50400000 2424276579 2424276579 15.00000000
-1.94803894 0.06836744 -0.52229685 4 0 27201 2.01800000 2424276599 2424276599 -15.00000000
-2.23185468 0.07910813 -0.51558781 4 2 27203 2.29200000 2424276604 2424276604 -13.00000000
-2.61732149 0.09322838 -0.50907838 3 4 27204 2.66800000 2424276609 2424276609 -11.00000000
-3.16645646 0.11389517 -0.50184178 3 6 27206 3.20800000 2424276613 2424276613 -9.00000000
-3.94574714 0.14330482 -0.48479626 7 8 27208 3.97800000 2424276618 2424276618 -7.00000000
-5.19070387 0.18942732 -0.45443004 6 10 27209 5.21400000 2424276622 2424276622 -5.00000000
-7.64631176 0.28171384 -0.40099809 12 12 27211 7.66200000 2424276627 2424276627 -3.00000000
-10.14679718 0.37738624 2.72070575 45 15 27213 10.51200000 2424276634 2424276634 15.00000000
-1.95551014 0.07546493 -0.52436739 4 0 27221 2.02600000 2424276655 2424276655 -15.00000000
-2.23545933 0.08704992 -0.51648760 4 2 27223 2.29600000 2424276659 2424276659 -13.00000000
-2.63071227 0.10290112 -0.51174974 3 4 27224 2.68200000 2424276664 2424276664 -11.00000000
-3.15814424 0.12463588 -0.50059026 3 6 27226 3.20000000 2424276668 2424276668 -9.00000000
-3.94323945 0.15699820 -0.48455250 7 8 27228 3.97600000 2424276673 2424276673 -7.00000000
-5.19001102 0.20754509 -0.45443004 6 10 27229 5.21400000 2424276678 2424276678 -5.00000000
-7.65526009 0.30880526 -0.40152144 16 12 27231 7.67200000 2424276682 2424276682 -3.00000000
-10.14920616 0.41473132 2.72174096 45 15 27234 10.51600000 2424276689 2424276689 15.00000000
-1.95329022 0.08255015 -0.52384973 4 0 27242 2.02400000 2424276710 2424276710 -15.00000000
-2.23707223 0.09532567 -0.51693749 4 2 27244 2.29800000 2424276715 2424276715 -13.00000000
-2.61462593 0.11187108 -0.50869679 3 4 27245 2.66600000 2424276719 2424276719 -11.00000000
-3.15766621 0.13621022 -0.50059026 3 6 27247 3.20000000 2424276724 2424276724 -9.00000000
-3.95453668 0.17196730 -0.48601493 7 8 27249 3.98800000 2424276728 2424276728 -7.00000000
-5.19319630 0.22673985 -0.45477867 6 10 27250 5.21800000 2424276733 2424276733 -5.00000000
-7.65208149 0.33677331 -0.40141678 20 12 27252 7.67000000 2424276738 2424276738 -3.00000000
-10.13225651 0.44947124 2.71759987 42 15 27254 10.50000000 2424276745 2424276745 15.00000000
-1.94141126 0.08883806 -0.52074391 4 0 27262 2.01200000 2424276765 2424276765 -15.00000000
-2.24840593 0.10367249 -0.51963693 4 2 27264 2.31000000 2424276770 2424276770 -13.00000000
-2.61421943 0.12099715 -0.50869679 3 4 27265 2.66600000 2424276774 2424276774 -11.00000000
-3.15717149 0.14723170 -0.50059026 3 6 27267 3.20000000 2424276779 2424276779 -9.00000000
-3.95391226 0.18577015 -0.48601493 7 8 27269 3.98800000 2424276784 2424276784 -7.00000000
-5.18441248 0.24449070 -0.45408142 6 10 27270 5.21000000 2424276788 2424276788 -5.00000000
-7.65883923 0.36386111 -0.40183547 28 12 27272 7.67800000 2424276793 2424276793 -3.00000000
-10.13054085 0.48660478 2.71759987 45 15 27275 10.50000000 2424276800 2424276800 15.00000000
-1.94496500 0.09546494 -0.52177918 4 0 27281 2.01600000 2424276821 2424276821 -15.00000000
-2.24221063 0.11083926 -0.51828724 4 2 27283 2.30400000 2424276825 2424276825 -13.00000000
-2.61772561 0.12986009 -0.50946003 3 4 27284 2.67000000 2424276830 2424276830 -11.00000000
-3.16061187 0.15789758 -0.50121605 3 6 27286 3.20400000 2424276834 2424276834 -9.00000000
-3.96120501 0.19927974 -0.48698989 5 8 27288 3.99600000 2424276839 2424276839 -7.00000000
-5.19153261 0.26208329 -0.45477867 6 10 27289 5.21800000 2424276844 2424276844 -5.00000000
-7.65160656 0.38895255 -0.40152144 28 12 27291 7.67200000 2424276848 2424276848 -3.00000000
-10.13282108 0.51862586 2.71863532 45 15 27293 10.50400000 2424276855 2424276855 15.00000000
-1.95040751 0.10255788 -0.52333212 4 0 27301 2.02200000 2424276876 2424276876 -15.00000000
-2.23791814 0.11845934 -0.51738745 4 2 27303 2.30000000 2424276880 2424276880 -13.00000000
-2.63686109 0.14003804 -0.51327622 3 4 27304 2.69000000 2424276885 2424276885 -11.00000000
-3.16398644 0.16914012 -0.50184178 3 6 27306 3.20800000 2424276890 2424276890 -9.00000000
-3.96048522 0.21310571 -0.48698989 5 8 27308 3.99600000 2424276894 2424276894 -7.00000000
-5.19058609 0.28020352 -0.45477867 6 10 27309 5.21800000 2424276899 2424276899 -5.00000000
-7.65020227 0.41565928 -0.40152144 28 12 27311 7.67200000 2424276903 2424276903 -3.00000000
-10.12699413 0.55554938 2.71759987 45 15 27314 10.50000000 2424276910 2424276910 15.00000000
-1.94810879 0.10925727 -0.52281445 4 0 27321 2.02000000 2424276931 2424276931 -15.00000000
-2.23749113 0.12627041 -0.51738745 4 2 27323 2.30000000 2424276936 2424276936 -13.00000000
-2.62851572 0.14879771 -0.51174974 3 4 27324 2.68200000 2424276940 2424276940 -11.00000000
-3.15154362 0.17950945 -0.49996457 3 6 27326 3.19600000 2424276945 2424276945 -9.00000000
-3.95178986 0.22647478 -0.48601493 5 8 27328 3.98800000 2424276950 2424276950 -7.00000000
-5.19156551 0.29843470 -0.45495299 6 10 27329 5.22000000 2424276954 2424276954 -5.00000000
-7.64471674 0.44213030 -0.40131211 32 12 27331 7.66800000 2424276959 2424276959 -3.00000000
-10.13088226 0.58946532 2.71915293 40 15 27333 10.50600000 2424276966 2424276966 15.00000000
-1.94771552 0.11605677 -0.52281445 4 0 27341 2.02000000 2424276986 2424276986 -15.00000000
-2.23703671 0.13407995 -0.51738745 4 2 27343 2.30000000 2424276991 2424276991 -13.00000000
-2.60838318 0.15679401 -0.50793356 3 4 27344 2.66200000 2424276996 2424276996 -11.00000000
-3.16272855 0.19122460 -0.50184178 3 6 27346 3.20800000 2424277000 2424277000 -9.00000000
-3.96286368 0.24099068 -0.48747736 6 8 27348 4.00000000 2424277005 2424277005 -7.00000000
-5.20043564 0.31716126 -0.45582452 6 10 27349 5.23000000 2424277009 2424277009 -5.00000000
-7.65110064 0.46930176 -0.40173081 32 12 27351 7.67600000 2424277014 2424277014 -3.00000000
-10.12865353 0.62659287 2.71915293 45 15 27354 10.50600000 2424277021 2424277021 15.00000000
-1.94534910 0.12307275 -0.52229685 4 0 27362 2.01800000 2424277042 2424277042 -15.00000000
-2.24430943 0.14277308 -0.51918703 4 2 27364 2.30800000 2424277046 2424277046 -13.00000000
-2.61562824 0.16685310 -0.50946003 3 4 27365 2.67000000 2424277051 2424277051 -11.00000000
-3.15806389 0.20256241 -0.50121605 3 6 27367 3.20400000 2424277056 2424277056 -9.00000000
-3.96195388 0.25551370 -0.48747736 6 8 27369 4.00000000 2424277060 2424277060 -7.00000000
-5.18730879 0.33544824 -0.45477867 6 10 27370 5.21800000 2424277065 2424277065 -5.00000000
-7.66328096 0.49824837 -0.40246350 24 12 27372 7.69000000 2424277069 2424277069 -3.00000000
-10.11291027 0.66106260 2.71552944 42 15 27374 10.49200000 2424277076 2424277076 15.00000000
-1.93912494 0.12947643 -0.52074391 4 0 27382 2.01200000 2424277097 2424277097 -15.00000000
-2.23601985 0.15008427 -0.51738745 4 2 27384 2.30000000 2424277102 2424277102 -13.00000000
-2.62678266 0.17677327 -0.51174974 3 4 27385 2.68200000 2424277106 2424277106 -11.00000000
-3.14945388 0.21305157 -0.49996457 3 6 27387 3.19600000 2424277111 2424277111 -9.00000000
-3.97490144 0.27028462 -0.48918355 4 8 27389 4.01400000 2424277115 2424277115 -7.00000000
-5.20200872 0.35463738 -0.45617315 6 10 27390 5.23400000 2424277120 2424277120 -5.00000000
-7.65551710 0.52458555 -0.40214950 36 12 27392 7.68400000 2424277125 2424277125 -3.00000000
-10.10849285 0.69799072 2.71501184 42 15 27395 10.49000000 2424277132 2424277132 15.00000000
-1.94636953 0.13678616 -0.52281445 4 0 27402 2.02000000 2424277152 2424277152 -15.00000000
-2.22770667 0.15733935 -0.51558781 4 2 27404 2.29200000 2424277157 2424277157 -13.00000000
-2.62223291 0.18566406 -0.51098651 3 4 27405 2.67800000 2424277162 2424277162 -11.00000000
-3.15263200 0.22432433 -0.50059026 3 6 27407 3.20000000 2424277166 2424277166 -9.00000000
-3.95413351 0.28274214 -0.48674616 5 8 27409 3.99400000 2424277171 2424277171 -7.00000000
-5.19477701 0.37236625 -0.45565021 6 10 27410 5.22800000 2424277175 2424277175 -5.00000000
-7.64567089 0.55073112 -0.40173081 32 12 27412 7.67600000 2424277180 2424277180 -3.00000000
-10.11960983 0.73248416 2.71863532 47 15 27414 10.50400000 2424277187 2424277187 15.00000000
-1.94973350 0.14386375 -0.52384973 4 0 27422 2.02400000 2424277208 2424277208 -15.00000000
-2.23880434 0.16597901 -0.51828724 4 2 27424 2.30400000 2424277212 2424277212 -13.00000000
-2.61765313 0.19452523 -0.51022327 3 4 27425 2.67400000 2424277217 2424277217 -11.00000000
-3.16364908 0.23621018 -0.50246751 3 6 27427 3.21200000 2424277221 2424277221 -9.00000000
-3.96499944 0.29743388 -0.48820859 4 8 27429 4.00600000 2424277226 2424277226 -7.00000000
-5.20139265 0.39109468 -0.45634747 6 10 27430 5.23600000 2424277231 2424277231 -5.00000000
-7.65166807 0.57801795 -0.40214950 52 12 27432 7.68400000 2424277235 2424277235 -3.00000000
-10.11699104 0.76780373 2.71863532 45 15 27434 10.50400000 2424277242 2424277242 15.00000000
-1.93958890 0.14992431 -0.52126157 4 0 27442 2.01400000 2424277263 2424277263 -15.00000000
-2.24598289 0.17439634 -0.52008682 4 2 27444 2.31200000 2424277268 2424277268 -13.00000000
-2.61695814 0.20366137 -0.51022327 3 4 27445 2.67400000 2424277272 2424277272 -11.00000000
-3.17068267 0.24786776 -0.50371897 3 6 27447 3.22000000 2424277277 2424277277 -9.00000000
-3.96591616 0.31142792 -0.48845232 6 8 27449 4.00800000 2424277281 2424277281 -7.00000000
-5.21787214 0.41065544 -0.45791626 3 10 27450 5.25400000 2424277286 2424277286 -5.00000000
-7.63168478 0.60330713 -0.40120745 24 12 27452 7.66600000 2424277291 2424277291 -3.00000000
-10.11039829 0.80280811 2.71759987 45 15 27454 10.50000000 2424277297 2424277297 15.00000000
-1.92942584 0.15591580 -0.51867336 4 0 27462 2.00400000 2424277318 2424277318 -15.00000000
-2.24147582 0.18191993 -0.51918703 4 2 27464 2.30800000 2424277323 2424277323 -13.00000000
-2.62405849 0.21343164 -0.51174974 3 4 27465 2.68200000 2424277327 2424277327 -11.00000000
-3.15404773 0.25764737 -0.50121605 3 6 27467 3.20400000 2424277332 2424277332 -9.00000000
-3.96282649 0.32510734 -0.48820859 4 8 27469 4.00600000 2424277337 2424277337 -7.00000000
-5.18662167 0.42641792 -0.45530161 6 10 27470 5.22400000 2424277341 2424277341 -5.00000000
-7.65341806 0.63191515 -0.40246350 20 12 27472 7.69000000 2424277346 2424277346 -3.00000000
-10.10353756 0.83953923 2.71656466 42 15 27475 10.49600000 2424277353 2424277353 15.00000000
-1.94042003 0.16362375 -0.52177918 4 0 27482 2.01600000 2424277374 2424277374 -15.00000000
-2.23694348 0.18941419 -0.51828724 4 2 27484 2.30400000 2424277378 2424277378 -13.00000000
-2.61938500 0.22225805 -0.51098651 3 4 27485 2.67800000 2424277383 2424277383 -11.00000000
-3.15706563 0.26899087 -0.50184178 3 6 27487 3.20800000 2424277387 2424277387 -9.00000000
-3.96562314 0.33927664 -0.48869607 4 8 27489 4.01000000 2424277392 2424277392 -7.00000000
-5.20098257 0.44588149 -0.45669609 6 10 27490 5.24000000 2424277397 2424277397 -5.00000000
-7.64917564 0.65845543 -0.40235883 32 12 27492 7.68800000 2424277401 2424277401 -3.00000000
-10.10839653 0.87370455 2.71863532 47 15 27494 10.50400000 2424277408 2424277408 15.00000000
-1.94945920 0.17124130 -0.52436739 4 0 27502 2.02600000 2424277429 2424277429 -15.00000000
-2.22462153 0.19619423 -0.51558781 4 2 27504 2.29200000 2424277433 2424277433 -13.00000000
-2.62054896 0.23157287 -0.51136810 3 4 27505 2.68000000 2424277438 2424277438 -11.00000000
-5.61053419 0.49677899 0.49277857 2 5 27506 5.65400000 2424277440 2424277440 5.00000000
-3.14823675 0.27931118 -0.50059026 3 6 27507 3.20000000 2424277443 2424277443 -9.00000000
-3.96639204 0.35329330 -0.48893979 6 8 27509 4.01200000 2424277447 2424277447 -7.00000000
-5.20733213 0.46474203 -0.45739335 6 10 27510 5.24800000 2424277452 2424277452 -5.00000000
-7.64484119 0.68497378 -0.40225416 36 12 27512 7.68600000 2424277456 2424277456 -3.00000000
-10.10143661 0.90863800 2.71759987 42 15 27514 10.50000000 2424277463 2424277463 15.00000000
-1.94500196 0.17769362 -0.52333212 4 0 27522 2.02200000 2424277484 2424277484 -15.00000000
-2.22780442 0.20431437 -0.51648760 4 2 27524 2.29600000 2424277489 2424277489 -13.00000000
-2.60017443 0.23892246 -0.50755191 3 4 27525 2.66000000 2424277493 2424277493 -11.00000000
-5.57702208 0.51343793 0.48998958 8 5 27526 5.62200000 2424277496 2424277496 5.00000000
-3.15904474 0.29138750 -0.50246751 3 6 27527 3.21200000 2424277498 2424277498 -9.00000000
-3.96908784 0.36750248 -0.48942727 6 8 27529 4.01600000 2424277502 2424277502 -7.00000000
-5.21559763 0.48383638 -0.45826489 3 10 27530 5.25800000 2424277507 2424277507 -5.00000000
-7.58473253 0.70628482 -0.39921868 12 12 27532 7.62800000 2424277512 2424277512 -3.00000000
-7.28712082 0.68113726 -0.12775162 2 14 27534 7.32000000 2424277516 2424277516 -1.00000000
-10.11359119 0.94533134 2.72174096 45 15 27534 10.51600000 2424277519 2424277519 15.00000000
-1.94629300 0.18466434 -0.52384973 4 0 27542 2.02400000 2424277539 2424277539 -15.00000000
-7.09294224 0.67422765 0.12436585 3 1 27543 7.12600000 2424277542 2424277542 1.00000000
-2.24259734 0.21356758 -0.52008682 4 2 27544 2.31200000 2424277544 2424277544 -13.00000000
-2.61886835 0.24986196 -0.51136810 3 4 27545 2.68000000 2424277549 2424277549 -11.00000000
-5.54544544 0.53005862 0.48737490 11 5 27546 5.59200000 2424277551 2424277551 5.00000000
-3.16980672 0.30354264 -0.50434470 3 6 27547 3.22400000 2424277553 2424277553 -9.00000000
-3.96778083 0.38135493 -0.48942727 6 8 27549 4.01600000 2424277558 2424277558 -7.00000000
-5.20197773 0.50089347 -0.45721903 6 10 27550 5.24600000 2424277562 2424277562 -5.00000000
-7.34167337 0.70950931 -0.38655338 3 12 27552 7.38600000 2424277567 2424277567 -3.00000000
-7.09163427 0.68784386 -0.12436585 4 14 27554 7.12600000 2424277572 2424277572 -1.00000000
-10.10813618 0.98220634 2.72122335 47 15 27555 10.51400000 2424277574 2424277574 15.00000000
-1.93602371 0.19051111 -0.52126157 4 0 27562 2.01400000 2424277595 2424277595 -15.00000000
-2.24571681 0.22177744 -0.52098662 4 2 27564 2.31600000 2424277599 2424277599 -13.00000000
-6.50935841 0.64283657 0.34280053 2 3 27564 6.55000000 2424277602 2424277602 3.00000000
-2.61602664 0.25880870 -0.51098651 3 4 27565 2.67800000 2424277604 2424277604 -11.00000000
-5.53364801 0.54843009 0.48650336 11 5 27566 5.58200000 2424277606 2424277606 5.00000000
-3.15300202 0.31304419 -0.50184178 3 6 27567 3.20800000 2424277608 2424277608 -9.00000000
-3.96642566 0.39520276 -0.48942727 6 8 27569 4.01600000 2424277613 2424277613 -7.00000000
-5.19226742 0.51825720 -0.45652178 6 10 27570 5.23800000 2424277618 2424277618 -5.00000000
-7.28946924 0.73015571 -0.38393658 3 12 27572 7.33600000 2424277622 2424277622 -3.00000000
-6.37887859 0.64119470 -0.11190483 6 14 27574 6.41200000 2424277627 2424277627 -1.00000000
-10.09136772 1.01436818 2.71759987 42 15 27574 10.50000000 2424277629 2424277629 15.00000000
-1.93726885 0.19746383 -0.52177918 4 0 27582 2.01600000 2424277650 2424277650 -15.00000000
-5.70745182 0.58276123 0.10014191 5 1 27583 5.73800000 2424277652 2424277652 1.00000000
-2.23717451 0.22882196 -0.51918703 4 2 27584 2.30800000 2424277654 2424277654 -13.00000000
-5.95471859 0.60905862 0.31370172 4 3 27584 5.99400000 2424277657 2424277657 3.00000000
-2.62682533 0.26913938 -0.51327622 3 4 27585 2.69000000 2424277659 2424277659 -11.00000000
-5.52575445 0.56713253 0.48598042 11 5 27586 5.57600000 2424277661 2424277661 5.00000000
-3.14403009 0.32324019 -0.50059026 3 6 27587 3.20000000 2424277664 2424277664 -9.00000000
-3.96304727 0.40884203 -0.48918355 4 8 27589 4.01400000 2424277668 2424277668 -7.00000000
-5.20033598 0.53740245 -0.45739335 3 10 27590 5.24800000 2424277673 2424277673 -5.00000000
-5.22080421 0.54135960 -0.27507779 2 12 27592 5.25600000 2424277678 2424277678 -3.00000000
-5.11162376 0.53184187 -0.08970537 2 14 27594 5.14000000 2424277682 2424277682 -1.00000000
-10.02243519 1.04279017 2.70000029 45 15 27594 10.43200000 2424277684 2424277684 15.00000000
-1.94425249 0.20503537 -0.52384973 4 0 27602 2.02400000 2424277705 2424277705 -15.00000000
-5.17441797 0.54659265 0.09082232 7 1 27603 5.20400000 2424277707 2424277707 1.00000000
-2.22473454 0.23539945 -0.51648760 4 2 27604 2.29600000 2424277710 2424277710 -13.00000000
-5.57706690 0.59109449 0.29391873 4 3 27605 5.61600000 2424277712 2424277712 3.00000000
-2.61806059 0.27747941 -0.51174974 3 4 27605 2.68200000 2424277714 2424277714 -11.00000000
-5.53166580 0.58725888 0.48667768 14 5 27606 5.58400000 2424277717 2424277717 5.00000000
-3.16252565 0.33630177 -0.50371897 3 6 27607 3.22000000 2424277719 2424277719 -9.00000000
-3.94975257 0.42140958 -0.48772112 4 8 27609 4.00200000 2424277724 2424277724 -7.00000000
-4.82399893 0.51553679 -0.42444846 2 10 27610 4.87000000 2424277728 2424277728 -5.00000000
-5.09178686 0.54595274 -0.26837879 2 12 27612 5.12800000 2424277733 2424277733 -3.00000000
-5.07792473 0.54625940 -0.08914689 2 14 27614 5.10800000 2424277737 2424277737 -1.00000000
-10.09537506 1.08779573 2.72070575 47 15 27615 10.51200000 2424277740 2424277740 15.00000000
-1.95312738 0.21286738 -0.52643794 4 0 27622 2.03400000 2424277760 2424277760 -15.00000000
-5.05320549 0.55163103 0.08872803 6 1 27623 5.08400000 2424277763 2424277763 1.00000000
-2.23164797 0.24401104 -0.51828724 4 2 27624 2.30400000 2424277765 2424277765 -13.00000000
-5.26137877 0.57528543 0.27738056 2 3 27624 5.30000000 2424277767 2424277767 3.00000000
-2.61317301 0.28618899 -0.51098651 3 4 27625 2.67800000 2424277770 2424277770 -11.00000000
-5.52562141 0.60612994 0.48632905 34 5 27626 5.58000000 2424277772 2424277772 5.00000000
-3.14562392 0.34561309 -0.50121605 3 6 27627 3.20400000 2424277774 2424277774 -9.00000000
-3.95615005 0.43606415 -0.48869607 4 8 27629 4.01000000 2424277779 2424277779 -7.00000000
-4.77860212 0.52756256 -0.42061362 5 10 27630 4.82600000 2424277784 2424277784 -5.00000000
-4.69282579 0.51975095 -0.24744441 2 12 27632 4.72800000 2424277788 2424277788 -3.00000000
-4.71029329 0.52334994 -0.08272441 1 14 27634 4.74000000 2424277793 2424277793 -1.00000000
-10.09151649 1.12302852 2.72070575 47 15 27635 10.51200000 2424277795 2424277795 15.00000000
-1.95049095 0.21912733 -0.52592027 4 0 27641 2.03200000 2424277816 2424277816 -15.00000000
-4.59827709 0.51740479 0.08076974 4 1 27642 4.62800000 2424277818 2424277818 1.00000000
-2.24631834 0.25315604 -0.52188647 4 2 27643 2.32000000 2424277820 2424277820 -13.00000000
-4.82876348 0.54419291 0.25466678 6 3 27643 4.86600000 2424277823 2424277823 3.00000000
-2.61220956 0.29485300 -0.51098651 3 4 27644 2.67800000 2424277825 2424277825 -11.00000000
-3.16016316 0.35782045 -0.50371897 3 6 27646 3.22000000 2424277830 2424277830 -9.00000000
-3.96454453 0.45030099 -0.48991477 4 8 27648 4.02000000 2424277834 2424277834 -7.00000000
-4.72139692 0.53710049 -0.41573289 5 10 27649 4.77000000 2424277839 2424277839 -5.00000000
-4.62360764 0.52761102 -0.24388556 4 12 27651 4.66000000 2424277843 2424277843 -3.00000000
-4.60919571 0.52759635 -0.08097917 1 14 27653 4.64000000 2424277848 2424277848 -1.00000000
-10.08006001 1.15560687 2.71863532 42 15 27654 10.50400000 2424277850 2424277850 15.00000000
-1.94011915 0.22482260 -0.52333212 4 0 27661 2.02200000 2424277871 2424277871 -15.00000000
-4.57856560 0.53137779 0.08045559 8 1 27662 4.61000000 2424277873 2424277873 1.00000000
-2.24542117 0.26099560 -0.52188647 4 2 27663 2.32000000 2424277876 2424277876 -13.00000000
-4.73954248 0.55089879 0.25006118 4 3 27663 4.77800000 2424277878 2424277878 3.00000000
-2.61116433 0.30396950 -0.51098651 3 4 27664 2.67800000 2424277880 2424277880 -11.00000000
-3.16281915 0.36930749 -0.50434470 3 6 27666 3.22400000 2424277885 2424277885 -9.00000000
-3.96492004 0.46436799 -0.49015850 4 8 27668 4.02200000 2424277890 2424277890 -7.00000000
-4.71553564 0.55311376 -0.41538426 5 10 27669 4.76600000 2424277894 2424277894 -5.00000000
-4.62768841 0.54444730 -0.24419957 4 12 27671 4.66600000 2424277899 2424277899 -3.00000000
-4.51597357 0.53290230 -0.07937355 5 14 27673 4.54800000 2424277903 2424277903 -1.00000000
-10.06829071 1.18987894 2.71656466 45 15 27674 10.49600000 2424277906 2424277906 15.00000000
-1.93160939 0.23101434 -0.52126157 4 0 27682 2.01400000 2424277926 2424277926 -15.00000000
-4.54879045 0.54482615 0.07996693 6 1 27683 4.58200000 2424277929 2424277929 1.00000000
-2.24444938 0.26922372 -0.52188647 4 2 27684 2.32000000 2424277931 2424277931 -13.00000000
-4.71369505 0.56541198 0.24880514 4 3 27684 4.75400000 2424277933 2424277933 3.00000000
-2.61393118 0.31400618 -0.51174974 3 4 27685 2.68200000 2424277936 2424277936 -11.00000000
-5.38841486 0.64825326 0.47482449 2 5 27686 5.44800000 2424277938 2424277938 5.00000000
-3.14575458 0.37900701 -0.50184178 3 6 27687 3.20800000 2424277940 2424277940 -9.00000000
-3.94742537 0.47699192 -0.48820859 4 8 27689 4.00600000 2424277945 2424277945 -7.00000000
-4.72138882 0.57135081 -0.41608152 5 10 27690 4.77400000 2424277949 2424277949 -5.00000000
-4.60186911 0.55851734 -0.24294351 4 12 27692 4.64200000 2424277954 2424277954 -3.00000000
-4.48024464 0.54534304 -0.07878016 5 14 27694 4.51400000 2424277959 2424277959 -1.00000000
-10.06407642 1.22501659 2.71656466 45 15 27694 10.49600000 2424277961 2424277961 15.00000000
-1.94421279 0.23940824 -0.52488500 4 0 27702 2.02800000 2424277982 2424277982 -15.00000000
-4.53693771 0.55947739 0.07979240 4 1 27703 4.57200000 2424277984 2424277984 1.00000000
-2.23189163 0.27562362 -0.51918703 4 2 27704 2.30800000 2424277986 2424277986 -13.00000000
-4.67006636 0.57672185 0.24660702 4 3 27704 4.71200000 2424277989 2424277989 3.00000000
-2.61866450 0.32385147 -0.51289457 3 4 27705 2.68800000 2424277991 2424277991 -11.00000000
-5.28725481 0.65481430 0.46610892 2 5 27706 5.34800000 2424277993 2424277993 5.00000000
-3.14441252 0.38998544 -0.50184178 3 6 27707 3.20800000 2424277995 2424277995 -9.00000000
-3.95755577 0.49223819 -0.48967102 4 8 27709 4.01800000 2424278000 2424278000 -7.00000000
-4.71936560 0.58782804 -0.41608152 8 10 27710 4.77400000 2424278005 2424278005 -5.00000000
-4.61772823 0.57680547 -0.24388556 2 12 27712 4.66000000 2424278009 2424278009 -3.00000000
-4.48426628 0.56172431 -0.07888488 1 14 27714 4.52000000 2424278014 2424278014 -1.00000000
-10.06718540 1.26285684 2.71863532 47 15 27715 10.50400000 2424278016 2424278016 15.00000000
-1.95486450 0.24765012 -0.52799088 4 0 27722 2.04000000 2424278037 2424278037 -15.00000000
-4.46552420 0.56650251 0.07857073 4 1 27723 4.50200000 2424278039 2424278039 1.00000000
-2.22318316 0.28243032 -0.51738745 4 2 27724 2.30000000 2424278042 2424278042 -13.00000000
-4.59263229 0.58425659 0.24262950 1 3 27725 4.63600000 2424278044 2424278044 3.00000000
-2.60972786 0.33199930 -0.51136810 3 4 27725 2.68000000 2424278046 2424278046 -11.00000000
-5.24936152 0.66873419 0.46297130 7 5 27726 5.31200000 2424278048 2424278048 5.00000000
-3.14499164 0.40120909 -0.50215465 3 6 27727 3.21000000 2424278051 2424278051 -9.00000000
-3.96368957 0.50705725 -0.49064597 4 8 27729 4.02600000 2424278055 2424278055 -7.00000000
-4.72914219 0.60581708 -0.41712737 5 10 27730 4.78600000 2424278060 2424278060 -5.00000000
-4.40294552 0.56715488 -0.07748868 1 14 27734 4.44000000 2424278069 2424278069 -1.00000000
-10.06677437 1.29672754 2.71967053 42 15 27734 10.50800000 2424278072 2424278072 15.00000000
-1.94440973 0.25322494 -0.52540267 4 0 27742 2.03000000 2424278092 2424278092 -15.00000000
-4.42187834 0.57665622 0.07783774 4 1 27743 4.46000000 2424278095 2424278095 1.00000000
-2.22604847 0.29069364 -0.51828724 4 2 27744 2.30400000 2424278097 2424278097 -13.00000000
-4.51134872 0.58992571 0.23844261 1 3 27745 4.55600000 2424278099 2424278099 3.00000000
-2.61828637 0.34237972 -0.51327622 3 4 27745 2.69000000 2424278101 2424278101 -11.00000000
-5.18377829 0.67877603 0.45739335 7 5 27746 5.24800000 2424278104 2424278104 5.00000000
-3.15532351 0.41372558 -0.50403184 3 6 27747 3.22200000 2424278106 2424278106 -9.00000000
-6.31004906 0.82849300 0.78142625 2 7 27748 6.41200000 2424278108 2424278108 7.00000000
-3.95008659 0.51933742 -0.48918355 4 8 27749 4.01400000 2424278111 2424278111 -7.00000000
-4.71119595 0.62024069 -0.41573289 8 10 27750 4.77000000 2424278115 2424278115 -5.00000000
-4.33155489 0.57333672 -0.07626702 1 14 27754 4.37000000 2424278125 2424278125 -1.00000000
-10.05046368 1.33209240 2.71656466 45 15 27755 10.49600000 2424278127 2424278127 15.00000000
-1.93977487 0.25882122 -0.52436739 4 0 27760 2.02600000 2424278148 2424278148 -15.00000000
-4.36058235 0.58260053 0.07679059 3 1 27761 4.40000000 2424278150 2424278150 1.00000000
-2.24830246 0.30078644 -0.52368605 4 2 27762 2.32800000 2424278152 2424278152 -13.00000000
-4.47186136 0.59905702 0.23645385 3 3 27763 4.51800000 2424278154 2424278154 3.00000000
-2.60941434 0.34956092 -0.51174974 3 4 27763 2.68200000 2424278157 2424278157 -11.00000000
-5.11842966 0.68658167 0.45181537 7 5 27764 5.18400000 2424278159 2424278159 5.00000000
-3.15792394 0.42416221 -0.50465757 3 6 27765 3.22600000 2424278161 2424278161 -9.00000000
-5.62080002 0.75596654 0.69636142 2 7 27766 5.71400000 2424278164 2424278164 7.00000000
-3.96220684 0.53359902 -0.49088973 4 8 27767 4.02800000 2424278166 2424278166 -7.00000000
-4.70132589 0.63397324 -0.41503564 5 10 27768 4.76200000 2424278171 2424278171 -5.00000000
-4.29406404 0.58210665 -0.07563873 1 14 27772 4.33400000 2424278180 2424278180 -1.00000000
-10.04263878 1.36138773 2.71552944 45 15 27772 10.49200000 2424278182 2424278182 15.00000000
-1.94268751 0.26611510 -0.52540267 4 0 27780 2.03000000 2424278203 2424278203 -15.00000000
-4.33078623 0.59401399 0.07630192 3 1 27781 4.37200000 2424278205 2424278205 1.00000000
-2.22793269 0.30598116 -0.51918703 4 2 27782 2.30800000 2424278207 2424278207 -13.00000000
-4.43017006 0.60922116 0.23436041 3 3 27783 4.47800000 2424278210 2424278210 3.00000000
-2.60428834 0.35813242 -0.51098651 3 4 27783 2.67800000 2424278212 2424278212 -11.00000000
-5.07652664 0.69900858 0.44832915 7 5 27784 5.14400000 2424278214 2424278214 5.00000000
-3.15446711 0.43491304 -0.50434470 3 6 27785 3.22400000 2424278217 2424278217 -9.00000000
-5.58666372 0.77123874 0.69246161 2 7 27786 5.68200000 2424278219 2424278219 7.00000000
-3.95245457 0.54633921 -0.48991477 6 8 27787 4.02000000 2424278221 2424278221 -7.00000000
-4.70697880 0.65147269 -0.41573289 5 10 27788 4.77000000 2424278226 2424278226 -5.00000000
-4.47888041 0.62149602 -0.23697720 2 12 27790 4.52800000 2424278230 2424278230 -3.00000000
-4.26031590 0.59268355 -0.07508025 3 14 27792 4.30200000 2424278235 2424278235 -1.00000000
-10.03375435 1.39765370 2.71449423 45 15 27793 10.48800000 2424278237 2424278237 15.00000000
-1.94361210 0.27350280 -0.52592027 5 0 27801 2.03200000 2424278258 2424278258 -15.00000000
-4.29293728 0.60486120 0.07567363 5 1 27802 4.33600000 2424278260 2424278260 1.00000000
-2.21521854 0.31251153 -0.51648760 4 2 27803 2.29600000 2424278263 2424278263 -13.00000000
-4.38242197 0.61902952 0.23195297 5 3 27804 4.43200000 2424278265 2424278265 3.00000000
-2.61851001 0.36987191 -0.51403946 3 4 27804 2.69400000 2424278267 2424278267 -11.00000000
-5.05814838 0.71537822 0.44693464 10 5 27805 5.12800000 2424278270 2424278270 5.00000000
-3.15676355 0.44702575 -0.50497043 3 6 27806 3.22800000 2424278272 2424278272 -9.00000000
-5.58969593 0.79254568 0.69319284 2 7 27807 5.68800000 2424278274 2424278274 7.00000000
-3.94649482 0.56026399 -0.48942727 6 8 27808 4.01600000 2424278277 2424278277 -7.00000000
-4.70850468 0.66928101 -0.41608152 5 10 27809 4.77400000 2424278281 2424278281 -5.00000000
-4.35793543 0.62100208 -0.23069690 2 12 27811 4.40800000 2424278286 2424278286 -3.00000000
-4.23040104 0.60433525 -0.07459158 5 14 27813 4.27400000 2424278290 2424278290 -1.00000000
-10.03646469 1.43376231 2.71656466 45 15 27813 10.49600000 2424278293 2424278293 15.00000000
-1.94455767 0.28056148 -0.52643794 5 0 27821 2.03400000 2424278313 2424278313 -15.00000000
-4.26111269 0.61555409 0.07515007 5 1 27822 4.30600000 2424278316 2424278316 1.00000000
-2.22954345 0.32247385 -0.52008682 4 2 27823 2.31200000 2424278318 2424278318 -13.00000000
-4.33279514 0.62745333 0.22944084 5 3 27824 4.38400000 2424278320 2424278320 3.00000000
-2.60943103 0.37788448 -0.51251298 3 4 27824 2.68600000 2424278323 2424278323 -11.00000000
-5.04181814 0.73102885 0.44571447 10 5 27825 5.11400000 2424278325 2424278325 5.00000000
-3.15322924 0.45775840 -0.50465757 3 6 27826 3.22600000 2424278327 2424278327 -9.00000000
-5.60261106 0.81433678 0.69514275 2 7 27827 5.70400000 2424278330 2424278330 7.00000000
-3.93665743 0.57289290 -0.48845232 6 8 27828 4.00800000 2424278332 2424278332 -7.00000000
-4.72585535 0.68858540 -0.41782463 5 10 27829 4.79400000 2424278336 2424278336 -5.00000000
-4.31226254 0.62985975 -0.22839411 4 12 27831 4.36400000 2424278341 2424278341 -3.00000000
-4.21045828 0.61649108 -0.07427744 5 14 27833 4.25600000 2424278346 2424278346 -1.00000000
-10.02923012 1.47025800 2.71604705 47 15 27834 10.49400000 2424278348 2424278348 15.00000000
-1.93783319 0.28649992 -0.52488500 5 0 27841 2.02800000 2424278369 2424278369 -15.00000000
-4.22728777 0.62573940 0.07459158 7 1 27842 4.27400000 2424278371 2424278371 1.00000000
-2.23225975 0.33082581 -0.52098662 4 2 27843 2.31600000 2424278373 2424278373 -13.00000000
-4.30884695 0.63934916 0.22828944 5 3 27844 4.36200000 2424278376 2424278376 3.00000000
-2.59644413 0.38526186 -0.51022327 3 4 27844 2.67400000 2424278378 2424278378 -11.00000000
-5.00967455 0.74423200 0.44309980 10 5 27845 5.08400000 2424278380 2424278380 5.00000000
-3.14575028 0.46789059 -0.50371897 3 6 27846 3.22000000 2424278383 2424278383 -9.00000000
-5.63114929 0.83856678 0.69904256 2 7 27847 5.73600000 2424278385 2424278385 7.00000000
-3.93856049 0.58721638 -0.48893979 6 8 27848 4.01200000 2424278387 2424278387 -7.00000000
-4.71159983 0.70331258 -0.41677877 5 10 27849 4.78200000 2424278392 2424278392 -5.00000000
-4.28040886 0.64047515 -0.22682403 4 12 27851 4.33400000 2424278396 2424278396 -3.00000000
-4.18652725 0.62792188 -0.07389349 7 14 27853 4.23400000 2424278401 2424278401 -1.00000000
-10.02621078 1.50379455 2.71656466 45 15 27853 10.49600000 2424278403 2424278403 15.00000000
-1.93300116 0.29268405 -0.52384973 5 0 27861 2.02400000 2424278424 2424278424 -15.00000000
-4.20926094 0.63809389 0.07431234 7 1 27862 4.25800000 2424278426 2424278426 1.00000000
-2.24650478 0.34095517 -0.52458584 4 2 27863 2.33200000 2424278429 2424278429 -13.00000000
-4.28289366 0.65078551 0.22703338 7 3 27864 4.33800000 2424278431 2424278431 3.00000000
-2.61061120 0.39668226 -0.51327622 3 4 27864 2.69000000 2424278433 2424278433 -11.00000000
-4.97749996 0.75721973 0.44048512 9 5 27865 5.05400000 2424278436 2424278436 5.00000000
-3.13628650 0.47767872 -0.50246751 3 6 27866 3.21200000 2424278438 2424278438 -9.00000000
-5.60463905 0.85462719 0.69611770 2 7 27867 5.71200000 2424278440 2424278440 7.00000000
