# .PCD v0.7 - Point Cloud Data file format
VERSION 0.7
FIELDS x y z intensity laser_id azimuth distance_m adjustedtime timestamp vertical_angle
SIZE 4 4 4 1 1 2 8 8 4 8
TYPE F F F U U U F U U F
COUNT 1 1 1 1 1 1 1 1 1 1
WIDTH 528
HEIGHT 1
VIEWPOINT 0 0 0 1 0 0 0
POINTS 528
DATA ascii
-4.23698473 2.62294841 0.26115641 6 3 30176 4.99000000 2424884807 2424884807 3.00000000
-2.37705112 1.47153759 -0.54342401 3 4 30176 2.84800000 2424884810 2424884810 -11.00000000
-4.21264648 2.60889864 0.43351266 7 5 30177 4.97400000 2424884812 2424884812 5.00000000
-2.87482715 1.78107941 -0.53563160 1 6 30178 3.42400000 2424884814 2424884814 -9.00000000
-4.24186707 2.62904429 0.61275905 9 7 30179 5.02800000 2424884817 2424884817 7.00000000
-3.68128586 2.28249407 -0.53183782 6 8 30180 4.36400000 2424884819 2424884819 -7.00000000
-4.23362207 2.62597990 0.78905547 9 9 30181 5.04400000 2424884821 2424884821 9.00000000
-4.22775555 2.62234116 -0.43525577 9 10 30181 4.99400000 2424884823 2424884823 -5.00000000
-4.22720432 2.62302113 0.96701998 7 11 30182 5.06800000 2424884826 2424884826 11.00000000
-4.19983864 2.60705590 -0.25906298 15 12 30183 4.95000000 2424884828 2424884828 -3.00000000
-4.22153187 2.62154269 1.14725041 7 13 30184 5.10000000 2424884830 2424884830 13.00000000
-4.19895458 2.60853791 -0.08628470 14 14 30185 4.94400000 2424884833 2424884833 -1.00000000
-4.21521425 2.61965871 1.32981229 8 15 30186 5.13800000 2424884835 2424884835 15.00000000
-1.73464668 1.08098304 -0.54766113 4 0 30193 2.11600000 2424884856 2424884856 -15.00000000
-4.18467045 2.60878301 0.08607527 9 1 30194 4.93200000 2424884858 2424884858 1.00000000
-2.00241995 1.24882233 -0.54483145 3 2 30195 2.42200000 2424884860 2424884860 -13.00000000
-4.19391298 2.61657834 0.25906298 16 3 30196 4.95000000 2424884863 2424884863 3.00000000
-2.37189984 1.47982609 -0.54342401 3 4 30196 2.84800000 2424884865 2424884865 -11.00000000
-4.19168282 2.61620331 0.43229249 11 5 30197 4.96000000 2424884867 2424884867 5.00000000
-2.87864590 1.79738081 -0.53750885 1 6 30198 3.43600000 2424884870 2424884870 -9.00000000
-4.20740986 2.62806034 0.60910296 8 7 30199 4.99800000 2424884872 2424884872 7.00000000
-3.66656232 2.29112244 -0.53086287 6 8 30200 4.35600000 2424884874 2424884874 -7.00000000
-4.20813847 2.62953687 0.78592676 9 9 30200 5.02400000 2424884876 2424884876 9.00000000
-4.19830227 2.62440944 -0.43316403 9 10 30201 4.97000000 2424884879 2424884879 -5.00000000
-4.19471836 2.62318754 0.96167731 10 11 30202 5.04000000 2424884881 2424884881 11.00000000
-4.17208767 2.61004806 -0.25791159 2 12 30203 4.92800000 2424884883 2424884883 -3.00000000
-4.18922853 2.62178898 1.14095175 7 13 30204 5.07200000 2424884886 2424884886 13.00000000
-4.17626429 2.61468983 -0.08600546 2 14 30205 4.92800000 2424884888 2424884888 -1.00000000
-4.18685532 2.62132049 1.32360065 8 15 30205 5.11400000 2424884890 2424884890 15.00000000
-1.73740661 1.09114122 -0.54973167 4 0 30213 2.12400000 2424884911 2424884911 -15.00000000
-4.16029930 2.61380005 0.08576112 2 1 30214 4.91400000 2424884913 2424884913 1.00000000
-2.00464821 1.25995255 -0.54663104 3 2 30215 2.43000000 2424884916 2424884916 -13.00000000
-4.14079285 2.60356092 0.25634152 2 3 30216 4.89800000 2424884918 2424884918 3.00000000
-2.37336802 1.49227655 -0.54495049 3 4 30216 2.85600000 2424884920 2424884920 -11.00000000
-4.20107651 2.64248800 0.43420991 2 5 30217 4.98200000 2424884923 2424884923 5.00000000
-2.86901069 1.80531406 -0.53688306 1 6 30218 3.43200000 2424884925 2424884925 -9.00000000
-4.17301083 2.62686825 0.60544688 8 7 30219 4.96800000 2424884927 2424884927 7.00000000
-3.70221639 2.33141017 -0.53720009 8 8 30220 4.40800000 2424884929 2424884929 -7.00000000
-4.17005920 2.62704301 0.78060800 8 9 30221 4.99000000 2424884932 2424884932 9.00000000
-4.16720104 2.62524247 -0.43089798 12 10 30221 4.94400000 2424884934 2424884934 -5.00000000
-4.17224884 2.62943983 0.95862442 10 11 30222 5.02400000 2424884936 2424884936 11.00000000
-4.14098787 2.61074829 -0.25655085 7 12 30223 4.90200000 2424884939 2424884939 -3.00000000
-4.14873409 2.61664391 1.13240361 7 13 30224 5.03400000 2424884941 2424884941 13.00000000
-4.12821436 2.60470939 -0.08520265 8 14 30225 4.88200000 2424884943 2424884943 -1.00000000
-4.16088295 2.62633705 1.31842422 8 15 30226 5.09400000 2424884946 2424884946 15.00000000
-1.73358727 1.09719932 -0.54973167 4 0 30233 2.12400000 2424884966 2424884966 -15.00000000
-4.14777088 2.62616682 0.08569132 9 1 30234 4.91000000 2424884969 2424884969 1.00000000
-2.00846934 1.27215612 -0.54888058 4 2 30235 2.44000000 2424884971 2424884971 -13.00000000
-4.13674068 2.62120605 0.25665554 8 3 30236 4.90400000 2424884973 2424884973 3.00000000
-2.36151099 1.49634886 -0.54342401 3 4 30236 2.84800000 2424884976 2424884976 -11.00000000
-4.12788105 2.61660194 0.42758608 6 5 30237 4.90600000 2424884978 2424884978 5.00000000
-2.86936426 1.81954932 -0.53813457 3 6 30238 3.44000000 2424884980 2424884980 -9.00000000
-4.15543509 2.63610196 0.60422820 19 7 30239 4.95800000 2424884982 2424884982 7.00000000
-3.74433780 2.37622905 -0.54451221 8 8 30240 4.46800000 2424884985 2424884985 -7.00000000
-4.13130331 2.62180471 0.77497631 8 9 30240 4.95400000 2424884987 2424884987 9.00000000
-3.96457696 2.51696777 -0.41085216 16 10 30241 4.71400000 2424884989 2424884989 -5.00000000
-4.14150047 2.63030457 0.95366335 10 11 30242 4.99800000 2424884992 2424884992 11.00000000
-4.16050768 2.64339519 -0.25833029 2 12 30243 4.93600000 2424884994 2424884994 -3.00000000
-4.12806225 2.62379241 1.12925434 11 13 30244 5.02000000 2424884996 2424884996 13.00000000
-4.12247181 2.62124944 -0.08527246 2 14 30245 4.88600000 2424884999 2424884999 -1.00000000
-4.12932777 2.62560868 1.31117725 10 15 30245 5.06600000 2424885001 2424885001 15.00000000
-1.71345913 1.09285557 -0.54455525 4 0 30253 2.10400000 2424885022 2424885022 -15.00000000
-4.13689280 2.63955355 0.08565641 2 1 30254 4.90800000 2424885024 2424885024 1.00000000
-2.00565910 1.28020775 -0.54933047 4 2 30255 2.44200000 2424885026 2424885026 -13.00000000
-4.12924910 2.63670492 0.25676021 2 3 30256 4.90600000 2424885029 2424885029 3.00000000
-2.35296416 1.50246978 -0.54266077 2 4 30256 2.84400000 2424885031 2424885031 -11.00000000
-4.09185696 2.61383414 0.42479709 2 5 30257 4.87400000 2424885033 2424885033 5.00000000
-2.86466002 1.83061790 -0.53844744 3 6 30258 3.44200000 2424885035 2424885035 -9.00000000
-4.15457058 2.65593719 0.60544688 19 7 30259 4.96800000 2424885038 2424885038 7.00000000
-3.76110554 2.40532732 -0.54816830 8 8 30260 4.49800000 2424885040 2424885040 -7.00000000
-4.12545490 2.63833833 0.77560210 14 9 30260 4.95800000 2424885042 2424885042 9.00000000
-3.92387915 2.51039052 -0.40754026 27 10 30261 4.67600000 2424885045 2424885045 -5.00000000
-4.12733316 2.64157009 0.95251852 17 11 30262 4.99200000 2424885047 2424885047 11.00000000
-4.13779879 2.64928651 -0.25749290 25 12 30263 4.92000000 2424885049 2424885049 -3.00000000
-4.12380123 2.64133930 1.13060403 15 13 30264 5.02600000 2424885052 2424885052 13.00000000
-4.13181782 2.64749098 -0.08565641 22 14 30265 4.90800000 2424885054 2424885054 -1.00000000
-4.11037827 2.63375330 1.30807149 17 15 30265 5.05400000 2424885056 2424885056 15.00000000
-1.72263491 1.10718608 -0.54869640 4 0 30273 2.12000000 2424885077 2424885077 -15.00000000
-4.12597227 2.65289640 0.08562151 31 1 30274 4.90600000 2424885079 2424885079 1.00000000
-1.99134421 1.28087568 -0.54663104 3 2 30275 2.43000000 2424885082 2424885082 -13.00000000
-4.14353418 2.66623330 0.25822562 26 3 30276 4.93400000 2424885084 2424885084 3.00000000
-2.35761094 1.51704812 -0.54495049 3 4 30276 2.85600000 2424885086 2424885086 -11.00000000
-4.13799334 2.66368914 0.43054938 26 5 30277 4.94000000 2424885088 2424885088 5.00000000
-2.85659170 1.83953679 -0.53813457 1 6 30278 3.44000000 2424885091 2424885091 -9.00000000
-4.14360523 2.66934800 0.60520315 17 7 30279 4.96600000 2424885093 2424885093 7.00000000
-3.78772712 2.44102359 -0.55328679 8 8 30280 4.54000000 2424885095 2424885095 -7.00000000
-4.13734007 2.66735601 0.77966934 8 9 30281 4.98400000 2424885098 2424885098 9.00000000
-3.90337038 2.51651502 -0.40632007 30 10 30281 4.66200000 2424885100 2424885100 -5.00000000
-4.11973715 2.65702510 0.95290011 80 11 30282 4.99400000 2424885102 2424885102 11.00000000
-4.14866495 2.67670751 -0.25874898 10 12 30283 4.94400000 2424885105 2424885105 -3.00000000
-4.12591124 2.66406703 -0.08572622 8 14 30285 4.91200000 2424885109 2424885109 -1.00000000
-4.12063503 2.66066027 1.31428313 82 15 30285 5.07800000 2424885111 2424885111 15.00000000
-1.72848845 1.11949360 -0.55180222 4 0 30293 2.13200000 2424885132 2424885132 -15.00000000
-1.99013162 1.28993881 -0.54753089 3 2 30295 2.43400000 2424885137 2424885137 -13.00000000
-4.14258099 2.68611383 0.25874898 6 3 30296 4.94400000 2424885139 2424885139 3.00000000
-2.35230112 1.52526855 -0.54495049 3 4 30296 2.85600000 2424885141 2424885141 -11.00000000
-4.13034153 2.67920136 0.43072367 9 5 30297 4.94200000 2424885144 2424885144 5.00000000
-2.85678124 1.85379803 -0.53938603 1 6 30298 3.44800000 2424885146 2424885146 -9.00000000
-4.14425278 2.69028091 0.60666561 14 7 30299 4.97800000 2424885148 2424885148 7.00000000
-3.76087022 2.44233751 -0.55060571 8 8 30300 4.51800000 2424885151 2424885151 -7.00000000
-4.13297367 2.68501019 0.78060800 8 9 30301 4.99000000 2424885153 2424885153 9.00000000
-3.89122081 2.52795410 -0.40597144 30 10 30301 4.65800000 2424885155 2424885155 -5.00000000
-4.11043739 2.67138958 0.95290011 67 11 30302 4.99400000 2424885158 2424885158 11.00000000
-4.16273880 2.70641422 -0.26021439 10 12 30303 4.97200000 2424885160 2424885160 -3.00000000
-4.11179543 2.67431426 1.13240361 60 13 30304 5.03400000 2424885162 2424885162 13.00000000
-4.15849018 2.70571733 -0.08659884 12 14 30305 4.96200000 2424885164 2424885164 -1.00000000
-4.11247444 2.67679906 1.31480074 65 15 30306 5.08000000 2424885167 2424885167 15.00000000
-1.71809900 1.12129700 -0.54973167 4 0 30313 2.12400000 2424885188 2424885188 -15.00000000
-4.14586258 2.70677996 0.08642431 9 1 30314 4.95200000 2424885190 2424885190 1.00000000
-1.98887992 1.29900908 -0.54843068 3 2 30315 2.43800000 2424885192 2424885192 -13.00000000
-4.13652372 2.70274258 0.25895831 8 3 30316 4.94800000 2424885194 2424885194 3.00000000
-2.34367561 1.53132260 -0.54418725 2 4 30316 2.85200000 2424885197 2424885197 -11.00000000
-4.15765429 2.71758461 0.43455854 21 5 30317 4.98600000 2424885199 2424885199 5.00000000
-2.86351943 1.87240732 -0.54188901 1 6 30318 3.46400000 2424885201 2424885201 -9.00000000
-4.14480400 2.71125078 0.60812801 14 7 30319 4.99000000 2424885204 2424885204 7.00000000
-3.76561022 2.46414638 -0.55255562 8 8 30320 4.53400000 2424885206 2424885206 -7.00000000
-4.13349247 2.70591211 0.78248519 9 9 30321 5.00200000 2424885208 2424885208 9.00000000
-3.88237286 2.54152155 -0.40597144 33 10 30321 4.65800000 2424885211 2424885211 -5.00000000
-4.11751127 2.69647717 0.95671630 67 11 30322 5.01400000 2424885213 2424885213 11.00000000
-4.15159559 2.71983385 -0.26010969 15 12 30323 4.97000000 2424885215 2424885215 -3.00000000
-4.10895491 2.69292355 1.13420320 63 13 30324 5.04200000 2424885217 2424885217 13.00000000
-4.14233065 2.71583104 -0.08645922 14 14 30325 4.95400000 2424885220 2424885220 -1.00000000
-4.10680628 2.69254017 1.31583607 76 15 30325 5.08400000 2424885222 2424885222 15.00000000
-1.71740270 1.12941039 -0.55076694 4 0 30333 2.12800000 2424885243 2424885243 -15.00000000
-4.14641237 2.72782969 0.08663374 9 1 30334 4.96400000 2424885245 2424885245 1.00000000
-1.98758900 1.30808628 -0.54933047 3 2 30335 2.44200000 2424885247 2424885247 -13.00000000
-4.14207745 2.72704983 0.25990036 8 3 30336 4.96600000 2424885250 2424885250 3.00000000
-2.33503652 1.53733504 -0.54342401 3 4 30336 2.84800000 2424885252 2424885252 -11.00000000
-4.15147066 2.73427272 0.43490717 21 5 30337 4.99000000 2424885254 2424885254 5.00000000
-2.84871840 1.87695730 -0.54032463 3 6 30338 3.45400000 2424885257 2424885257 -9.00000000
-4.13531494 2.72570229 0.60812801 12 7 30339 4.99000000 2424885259 2424885259 7.00000000
-3.76527214 2.48273945 -0.55377430 8 8 30340 4.54400000 2424885261 2424885261 -7.00000000
-4.12237310 2.71923661 0.78217232 8 9 30341 5.00000000 2424885264 2424885264 9.00000000
-3.85185671 2.54079628 -0.40370539 30 10 30341 4.63200000 2424885266 2424885266 -5.00000000
-4.12118292 2.71948409 0.95976925 67 11 30342 5.03000000 2424885268 2424885268 11.00000000
-4.14874363 2.73871040 -0.26052839 17 12 30343 4.97800000 2424885270 2424885270 -3.00000000
-4.10603428 2.71154547 1.13600278 65 13 30344 5.05000000 2424885273 2424885273 13.00000000
-4.13949919 2.73468280 -0.08659884 14 14 30345 4.96200000 2424885275 2424885275 -1.00000000
-4.10383034 2.71111870 1.31790662 72 15 30345 5.09200000 2424885277 2424885277 15.00000000
-1.70398450 1.12869835 -0.54766113 4 0 30352 2.11600000 2424885298 2424885298 -15.00000000
-4.13734388 2.74156451 0.08663374 9 1 30353 4.96400000 2424885300 2424885300 1.00000000
-1.98648894 1.31682360 -0.55023026 3 2 30354 2.44600000 2424885303 2424885303 -13.00000000
-4.13349009 2.74004912 0.25990036 8 3 30354 4.96600000 2424885305 2424885305 3.00000000
-2.32665324 1.54289985 -0.54266077 2 4 30355 2.84400000 2424885307 2424885307 -11.00000000
-4.12577772 2.73701048 0.43316403 21 5 30356 4.97000000 2424885310 2424885310 5.00000000
-2.83260322 1.87983990 -0.53844744 1 6 30357 3.44200000 2424885312 2424885312 -9.00000000
-4.14775276 2.75367379 0.61129665 11 7 30358 5.01600000 2424885314 2424885314 7.00000000
-3.76032567 2.49740839 -0.55426174 8 8 30359 4.54800000 2424885316 2424885316 -7.00000000
-4.12532854 2.73982406 0.78436244 20 9 30359 5.01400000 2424885319 2424885319 9.00000000
-3.83179355 2.54583740 -0.40248522 35 10 30360 4.61800000 2424885321 2424885321 -5.00000000
-4.11868238 2.73748231 0.96129572 70 11 30361 5.03800000 2424885323 2424885323 11.00000000
-4.15959692 2.76572323 -0.26178446 17 12 30362 5.00200000 2424885326 2424885326 -3.00000000
-4.10513306 2.73054314 1.13825238 69 13 30363 5.06000000 2424885328 2424885328 13.00000000
-4.13373756 2.75061035 -0.08666865 16 14 30364 4.96600000 2424885330 2424885330 -1.00000000
-4.09964228 2.72792315 1.31945944 76 15 30364 5.09800000 2424885333 2424885333 15.00000000
-1.70324790 1.13678432 -0.54869640 4 0 30372 2.12000000 2424885353 2424885353 -15.00000000
-4.13606405 2.76154184 0.08680827 9 1 30373 4.97400000 2424885356 2424885356 1.00000000
-1.97863925 1.32158494 -0.54933047 3 2 30374 2.44200000 2424885358 2424885358 -13.00000000
-4.14832926 2.77182508 0.26147044 8 3 30375 4.99600000 2424885360 2424885360 3.00000000
-2.32451820 1.55319333 -0.54342401 3 4 30375 2.84800000 2424885363 2424885363 -11.00000000
-4.13276291 2.76246738 0.43490717 21 5 30376 4.99000000 2424885365 2424885365 5.00000000
-2.83751845 1.89740229 -0.54063749 3 6 30377 3.45600000 2424885367 2424885367 -9.00000000
-4.13151550 2.76372051 0.61032170 11 7 30378 5.00800000 2424885369 2424885369 7.00000000
-3.73508739 2.49947906 -0.55182439 10 8 30379 4.52800000 2424885372 2424885372 -7.00000000
-4.13495684 2.76811242 0.78811681 33 9 30380 5.03800000 2424885374 2424885374 9.00000000
-3.81791663 2.55587244 -0.40196228 28 10 30380 4.61200000 2424885376 2424885376 -5.00000000
-4.11073303 2.75293493 0.96167731 72 11 30381 5.04000000 2424885379 2424885379 11.00000000
-4.15489531 2.78356099 -0.26209846 17 12 30382 5.00800000 2424885381 2424885381 -3.00000000
-4.10690832 2.75245047 1.14140165 63 13 30383 5.07400000 2424885383 2424885383 13.00000000
-4.14736414 2.78061318 -0.08715732 14 14 30384 4.99400000 2424885386 2424885386 -1.00000000
-4.09924269 2.74938726 1.32256532 76 15 30385 5.11000000 2424885388 2424885388 15.00000000
-1.70568180 1.14703500 -0.55076694 4 0 30392 2.12800000 2424885409 2424885409 -15.00000000
-4.13801384 2.78377604 0.08705261 9 1 30393 4.98800000 2424885411 2424885411 1.00000000
-1.97078049 1.32630765 -0.54843068 4 2 30394 2.43800000 2424885413 2424885413 -13.00000000
-4.13911486 2.78556609 0.26147044 8 3 30394 4.99600000 2424885416 2424885416 3.00000000
-2.33536792 1.57226217 -0.54724020 3 4 30395 2.86800000 2424885418 2424885418 -11.00000000
-4.12970495 2.78132844 0.43560439 19 5 30396 4.99800000 2424885420 2424885420 5.00000000
-2.82432508 1.90288055 -0.53938603 3 6 30397 3.44800000 2424885422 2424885422 -9.00000000
-4.13007355 2.78367281 0.61154038 9 7 30398 5.01800000 2424885425 2424885425 7.00000000
-3.73950720 2.52137995 -0.55377430 14 8 30399 4.54400000 2424885427 2424885427 -7.00000000
-4.13018227 2.78584313 0.78905547 54 9 30400 5.04400000 2424885429 2424885429 9.00000000
-3.80071282 2.56361318 -0.40109074 36 10 30400 4.60200000 2424885432 2424885432 -5.00000000
-4.11249018 2.77495432 0.96434867 70 11 30401 5.05400000 2424885434 2424885434 11.00000000
-4.14846468 2.80028224 -0.26230782 10 12 30402 5.01200000 2424885436 2424885436 -3.00000000
-4.10373545 2.77113175 1.14320123 65 13 30403 5.08200000 2424885439 2424885439 13.00000000
-4.15088892 2.80402827 -0.08743656 14 14 30404 5.01000000 2424885441 2424885441 -1.00000000
-4.09650612 2.76729131 1.32463586 74 15 30404 5.11800000 2424885443 2424885443 15.00000000
-1.69846892 1.15081477 -0.54973167 4 0 30412 2.12400000 2424885464 2424885464 -15.00000000
-4.14647961 2.81054497 0.08743656 20 1 30413 5.01000000 2424885466 2424885466 1.00000000
-1.96936464 1.33536613 -0.54933047 3 2 30414 2.44200000 2424885468 2424885468 -13.00000000
-4.13267231 2.80223918 0.26167977 8 3 30414 5.00000000 2424885471 2424885471 3.00000000
-2.31361818 1.56938362 -0.54342401 3 4 30415 2.84800000 2424885473 2424885473 -11.00000000
-4.12986326 2.80243945 0.43665028 9 5 30416 5.01000000 2424885475 2424885475 5.00000000
-2.82093430 1.91494656 -0.54001176 3 6 30417 3.45200000 2424885478 2424885478 -9.00000000
-4.13511181 2.80810928 0.61373401 11 7 30418 5.03600000 2424885480 2424885480 7.00000000
-3.72904110 2.53330231 -0.55353057 14 8 30419 4.54200000 2424885482 2424885482 -7.00000000
-4.12370014 2.80246377 0.78968120 72 9 30420 5.04800000 2424885485 2424885485 9.00000000
-3.79503679 2.57910419 -0.40143934 44 10 30420 4.60600000 2424885487 2424885487 -5.00000000
-4.11414385 2.79701924 0.96701998 77 11 30421 5.06800000 2424885489 2424885489 11.00000000
-4.15352821 2.82485461 -0.26324987 10 12 30422 5.03000000 2424885492 2424885492 -3.00000000
-4.09725952 2.78763199 1.14410102 65 13 30423 5.08600000 2424885494 2424885494 13.00000000
-4.14107609 2.81850052 -0.08743656 16 14 30424 5.01000000 2424885496 2424885496 -1.00000000
-4.10598612 2.79461765 1.33084750 74 15 30424 5.14200000 2424885498 2424885498 15.00000000
-1.69444144 1.15673649 -0.54973167 4 0 30432 2.12400000 2424885519 2424885519 -15.00000000
-4.15150547 2.83515143 0.08775070 20 1 30433 5.02800000 2424885521 2424885521 1.00000000
-1.96790957 1.34443104 -0.55023026 3 2 30434 2.44600000 2424885524 2424885524 -13.00000000
-4.14051199 2.82976365 0.26283118 8 3 30435 5.02200000 2424885526 2424885526 3.00000000
-2.31136775 1.57966554 -0.54418725 3 4 30435 2.85200000 2424885528 2424885528 -11.00000000
-4.13321352 2.82583404 0.43804476 9 5 30436 5.02600000 2424885531 2424885531 5.00000000
-2.82075477 1.92924249 -0.54126322 1 6 30437 3.46000000 2424885533 2424885533 -9.00000000
-4.14002895 2.83261490 0.61592764 9 7 30438 5.05400000 2424885535 2424885535 7.00000000
-3.73164225 2.55415225 -0.55523676 18 8 30439 4.55600000 2424885538 2424885538 -7.00000000
-4.11275434 2.81500745 0.78936833 78 9 30439 5.04600000 2424885540 2424885540 9.00000000
-3.77450323 2.58445621 -0.40021917 47 10 30440 4.59200000 2424885542 2424885542 -5.00000000
-4.11893272 2.82134819 0.97045457 75 11 30441 5.08600000 2424885545 2424885545 11.00000000
-4.15023232 2.84385180 -0.26366854 10 12 30442 5.03800000 2424885547 2424885547 -3.00000000
-4.09714794 2.80852795 1.14680052 67 13 30443 5.09800000 2424885549 2424885549 13.00000000
-4.13780880 2.83746195 -0.08757617 14 14 30444 5.01800000 2424885551 2424885551 -1.00000000
-4.09571552 2.80964804 1.33084750 74 15 30445 5.14200000 2424885554 2424885554 15.00000000
-1.68720996 1.16045463 -0.54869640 4 0 30452 2.12000000 2424885574 2424885574 -15.00000000
-4.14158392 2.84962583 0.08775070 15 1 30453 5.02800000 2424885577 2424885577 1.00000000
-1.97283602 1.35792148 -0.55292970 3 2 30454 2.45800000 2424885579 2424885579 -13.00000000
-4.13768625 2.84800816 0.26324987 8 3 30454 5.03000000 2424885581 2424885581 3.00000000
-2.31230760 1.59217775 -0.54571372 3 4 30455 2.86000000 2424885584 2424885584 -11.00000000
-4.12332439 2.84024453 0.43804476 9 5 30456 5.02600000 2424885586 2424885586 5.00000000
-2.81562996 1.94019783 -0.54157615 1 6 30457 3.46200000 2424885588 2424885588 -9.00000000
-4.13828802 2.85268235 0.61714637 9 7 30458 5.06400000 2424885591 2424885591 7.00000000
-3.73414326 2.57505107 -0.55694288 14 8 30459 4.57000000 2424885593 2424885593 -7.00000000
-4.11216497 2.83679271 0.79124552 78 9 30460 5.05800000 2424885595 2424885595 9.00000000
-3.76053882 2.59422183 -0.39969623 44 10 30460 4.58600000 2424885598 2424885598 -5.00000000
-4.11552286 2.84016919 0.97198105 75 11 30461 5.09400000 2424885600 2424885600 11.00000000
-4.15507269 2.86853385 -0.26461059 10 12 30462 5.05600000 2424885602 2424885602 -3.00000000
-4.10014772 2.83167195 1.15039968 67 13 30463 5.11400000 2424885604 2424885604 13.00000000
-4.14433146 2.86325502 -0.08792523 14 14 30464 5.03800000 2424885607 2424885607 -1.00000000
-4.09541845 2.83051801 1.33395338 74 15 30465 5.15400000 2424885609 2424885609 15.00000000
-1.69247139 1.17323434 -0.55180222 4 0 30473 2.13200000 2424885630 2424885630 -15.00000000
-4.13111162 2.86478615 0.08775070 15 1 30474 5.02800000 2424885632 2424885632 1.00000000
-1.96144104 1.36070001 -0.55113006 3 2 30475 2.45000000 2424885634 2424885634 -13.00000000
-4.14855385 2.87795401 0.26461059 8 3 30475 5.05600000 2424885637 2424885637 3.00000000
-2.31290817 1.60511947 -0.54724020 3 4 30476 2.86800000 2424885639 2424885639 -11.00000000
-4.13416290 2.87010908 0.44031081 9 5 30477 5.05200000 2424885641 2424885641 5.00000000
-2.79876494 1.94374382 -0.53969890 1 6 30478 3.45000000 2424885644 2424885644 -9.00000000
-4.12943506 2.86896348 0.61739010 9 7 30479 5.06600000 2424885646 2424885646 7.00000000
-3.72305012 2.58758736 -0.55669916 8 8 30480 4.56800000 2424885648 2424885648 -7.00000000
-4.11683655 2.86127591 0.79406136 87 9 30480 5.07600000 2424885651 2424885651 9.00000000
-3.76409197 2.61708641 -0.40109074 39 10 30481 4.60200000 2424885653 2424885653 -5.00000000
-4.10508537 2.85523438 0.97198105 72 11 30482 5.09400000 2424885655 2424885655 11.00000000
-4.15600729 2.89172888 -0.26534331 10 12 30483 5.07000000 2424885657 2424885657 -3.00000000
-4.10573578 2.85781360 1.15489876 67 13 30484 5.13400000 2424885660 2424885660 13.00000000
-4.14201450 2.88413906 -0.08809975 8 14 30485 5.04800000 2424885662 2424885662 -1.00000000
-4.09452772 2.85213447 1.33705914 72 15 30486 5.16600000 2424885664 2424885664 15.00000000
-1.68203044 1.17471051 -0.54973167 4 0 30493 2.12400000 2424885685 2424885685 -15.00000000
-4.13911819 2.89178705 0.08813465 13 1 30494 5.05000000 2424885687 2424885687 1.00000000
-1.95029020 1.36307311 -0.54933047 3 2 30495 2.44200000 2424885690 2424885690 -13.00000000
-4.13357115 2.88898516 0.26429659 8 3 30495 5.05000000 2424885692 2424885692 3.00000000
-2.30085516 1.60868335 -0.54571372 3 4 30496 2.86000000 2424885694 2424885694 -11.00000000
-4.12901735 2.88794827 0.44083375 9 5 30497 5.05800000 2424885697 2424885697 5.00000000
-2.80005550 1.95916378 -0.54126322 3 6 30498 3.46000000 2424885699 2424885699 -9.00000000
-4.12590075 2.88791370 0.61836505 11 7 30499 5.07400000 2424885701 2424885701 7.00000000
-3.70749068 2.59601283 -0.55572420 20 8 30500 4.56000000 2424885704 2424885704 -7.00000000
-4.12300491 2.88695931 0.79719001 83 9 30500 5.09600000 2424885706 2424885706 9.00000000
-3.76635671 2.63821125 -0.40231091 22 10 30501 4.61600000 2424885708 2424885708 -5.00000000
-4.10795641 2.87855935 0.97503394 75 11 30502 5.11000000 2424885710 2424885710 11.00000000
-4.14261723 2.90392542 -0.26513395 10 12 30503 5.06600000 2424885713 2424885713 -3.00000000
-4.09733057 2.87324691 1.15534866 69 13 30504 5.13600000 2424885715 2424885715 13.00000000
-4.14010715 2.90432167 -0.08827427 8 14 30505 5.05800000 2424885717 2424885717 -1.00000000
-4.09719753 2.87528753 1.34120023 72 15 30506 5.18200000 2424885720 2424885720 15.00000000
-1.69055939 1.18946791 -0.55387276 4 0 30513 2.14000000 2424885740 2424885740 -15.00000000
-4.13390446 2.90967059 0.08823936 11 1 30514 5.05600000 2424885743 2424885743 1.00000000
-1.95189381 1.37436020 -0.55113006 3 2 30515 2.45000000 2424885745 2424885745 -13.00000000
-4.13325977 2.91029572 0.26492462 12 3 30515 5.06200000 2424885747 2424885747 3.00000000
-2.29522562 1.61670506 -0.54571372 3 4 30516 2.86000000 2424885750 2424885750 -11.00000000
-4.13845539 2.91611528 0.44292548 10 5 30517 5.08200000 2424885752 2424885752 5.00000000
-2.79481435 1.97006392 -0.54157615 1 6 30518 3.46200000 2424885754 2424885754 -9.00000000
-4.13039541 2.91259408 0.62055868 11 7 30519 5.09200000 2424885756 2424885756 7.00000000
-3.67245269 2.59063029 -0.55182439 20 8 30520 4.52800000 2424885759 2424885759 -7.00000000
-4.11935902 2.90588832 0.79844153 81 9 30520 5.10400000 2424885761 2424885761 9.00000000
-3.77340341 2.66282988 -0.40405402 33 10 30521 4.63600000 2424885763 2424885763 -5.00000000
-4.11071396 2.90193939 0.97808689 76 11 30522 5.12600000 2424885766 2424885766 11.00000000
-4.15692711 2.93565035 -0.26670402 10 12 30523 5.09600000 2424885768 2424885768 -3.00000000
-4.09523439 2.89315391 1.15759814 70 13 30524 5.14600000 2424885770 2424885770 13.00000000
-4.13974190 2.92568040 -0.08848370 8 14 30525 5.07000000 2424885773 2424885773 -1.00000000
-4.10341644 2.90000796 1.34637666 42 15 30525 5.20200000 2424885775 2424885775 15.00000000
-1.68324494 1.19312751 -0.55283749 4 0 30533 2.13600000 2424885796 2424885796 -15.00000000
-4.13840389 2.93449283 0.08855351 18 1 30534 5.07400000 2424885798 2424885798 1.00000000
-1.94708455 1.38116527 -0.55113006 3 2 30535 2.45000000 2424885800 2424885800 -13.00000000
-4.13447905 2.93279457 0.26565731 12 3 30535 5.07600000 2424885803 2424885803 3.00000000
-2.28636622 1.62243474 -0.54495049 2 4 30536 2.85600000 2424885805 2424885805 -11.00000000
-4.13312483 2.93400311 0.44344842 10 5 30537 5.08800000 2424885807 2424885807 5.00000000
-2.81368995 1.99810743 -0.54658204 3 6 30538 3.49400000 2424885809 2424885809 -9.00000000
-4.13476801 2.93734074 0.62275237 9 7 30539 5.11000000 2424885812 2424885812 7.00000000
-3.66985965 2.60803342 -0.55279934 38 8 30540 4.53600000 2424885814 2424885814 -7.00000000
-4.10919046 2.92024994 0.79844153 83 9 30540 5.10400000 2424885816 2424885816 9.00000000
-3.77382851 2.68291187 -0.40509990 19 10 30541 4.64800000 2424885819 2424885819 -5.00000000
-4.12295818 2.93220043 0.98342955 76 11 30542 5.15400000 2424885821 2424885821 11.00000000
-4.14990902 2.95245838 -0.26691338 10 12 30543 5.10000000 2424885823 2424885823 -3.00000000
-4.09939957 2.91760111 1.16164720 69 13 30544 5.16400000 2424885826 2424885826 13.00000000
-4.13439131 2.94359255 -0.08858842 8 14 30545 5.07600000 2424885828 2424885828 -1.00000000
-4.09748030 2.91839051 1.34792960 25 15 30546 5.20800000 2424885830 2424885830 15.00000000
-1.66984499 1.19196856 -0.54973167 4 0 30552 2.12400000 2424885851 2424885851 -15.00000000
-4.13841391 2.95517278 0.08876294 13 1 30553 5.08600000 2424885853 2424885853 1.00000000
-1.95200801 1.39441085 -0.55382949 3 2 30554 2.46200000 2424885856 2424885856 -13.00000000
-4.14046669 2.95882106 0.26670402 10 3 30555 5.09600000 2424885858 2424885858 3.00000000
-2.28736281 1.63457358 -0.54647696 3 4 30555 2.86400000 2424885860 2424885860 -11.00000000
-4.12661457 2.95001030 0.44379705 10 5 30556 5.09200000 2424885862 2424885862 5.00000000
-2.79258728 1.99708533 -0.54376620 3 6 30557 3.47600000 2424885865 2424885865 -9.00000000
-4.13469172 2.95796609 0.62421477 9 7 30558 5.12200000 2424885867 2424885867 7.00000000
-3.65957665 2.61903358 -0.55255562 38 8 30559 4.53400000 2424885869 2424885869 -7.00000000
-4.11876059 2.94765592 0.80219597 81 9 30559 5.12800000 2424885872 2424885872 9.00000000
-3.82971144 2.74180412 -0.41207236 8 10 30560 4.72800000 2424885874 2424885874 -5.00000000
-4.10842371 2.94242716 0.98228472 81 11 30561 5.14800000 2424885876 2424885876 11.00000000
-4.15470791 2.97667289 -0.26785544 10 12 30562 5.11800000 2424885879 2424885879 -3.00000000
-4.11029291 2.94593716 1.16749597 65 13 30563 5.19000000 2424885881 2424885881 13.00000000
-4.14248371 2.97010374 -0.08897237 8 14 30564 5.09800000 2424885883 2424885883 -1.00000000
-4.09143209 2.93350005 1.34896481 21 15 30564 5.21200000 2424885886 2424885886 15.00000000
-1.66567409 1.19779015 -0.54973167 4 0 30572 2.12400000 2424885906 2424885906 -15.00000000
-4.12320375 2.96609712 0.08865822 13 1 30573 5.08000000 2424885909 2424885909 1.00000000
-1.94396520 1.39893961 -0.55292970 3 2 30574 2.45800000 2424885911 2424885911 -13.00000000
-4.13983870 2.98025727 0.26733208 12 3 30575 5.10800000 2424885913 2424885913 3.00000000
-2.28801632 1.64713609 -0.54800344 3 4 30575 2.87200000 2424885915 2424885915 -11.00000000
-4.12275887 2.96905422 0.44449428 10 5 30576 5.10000000 2424885918 2424885918 5.00000000
-2.77437997 1.99873841 -0.54157615 1 6 30577 3.46200000 2424885920 2424885920 -9.00000000
-4.12917280 2.97586274 0.62494600 11 7 30578 5.12800000 2424885922 2424885922 7.00000000
-3.68422723 2.65617108 -0.55767411 28 8 30579 4.57600000 2424885925 2424885925 -7.00000000
-4.12074661 2.97197628 0.80469888 81 9 30580 5.14400000 2424885927 2424885927 9.00000000
-3.93485022 2.83790350 -0.42444846 23 10 30580 4.87000000 2424885929 2424885929 -5.00000000
-4.09812737 2.95675015 0.98228472 28 11 30581 5.14800000 2424885932 2424885932 11.00000000
-4.14267254 2.98998833 -0.26775074 10 12 30582 5.11600000 2424885934 2424885934 -3.00000000
-4.10946417 2.96711135 1.17019534 65 13 30583 5.20200000 2424885936 2424885936 13.00000000
-4.14019632 2.99039984 -0.08914689 8 14 30584 5.10800000 2424885939 2424885939 -1.00000000
-4.08378410 2.95073915 1.35000014 29 15 30585 5.21600000 2424885941 2424885941 15.00000000
-1.67108095 1.21010542 -0.55283749 4 0 30591 2.13600000 2424885962 2424885962 -15.00000000
-4.13439751 2.99500465 0.08911198 9 1 30592 5.10600000 2424885964 2424885964 1.00000000
-1.92669177 1.39623022 -0.54933047 3 2 30593 2.44200000 2424885966 2424885966 -13.00000000
-4.13640118 2.99865818 0.26775074 10 3 30594 5.11600000 2424885968 2424885968 3.00000000
-2.28572083 1.65701902 -0.54876667 3 4 30594 2.87600000 2424885971 2424885971 -11.00000000
-4.12901974 2.99440646 0.44623742 10 5 30595 5.12000000 2424885973 2424885973 5.00000000
-2.78052807 2.01720738 -0.54407907 1 6 30596 3.47800000 2424885975 2424885975 -9.00000000
-4.12570810 2.99420309 0.62592095 9 7 30597 5.13600000 2424885978 2424885978 7.00000000
-3.70913291 2.69286513 -0.56279260 64 8 30598 4.61800000 2424885980 2424885980 -7.00000000
-4.12257910 2.99303102 0.80688900 78 9 30598 5.15800000 2424885982 2424885982 9.00000000
-4.15755749 3.01953387 -0.44954932 12 10 30599 5.15800000 2424885985 2424885985 -5.00000000
-4.10259485 2.98070955 0.98571926 18 11 30600 5.16600000 2424885987 2424885987 11.00000000
-4.15050602 3.01662612 -0.26890215 10 12 30601 5.13800000 2424885989 2424885989 -3.00000000
-4.10275459 2.98301458 1.17109513 63 13 30602 5.20600000 2424885992 2424885992 13.00000000
-4.14481163 3.01469898 -0.08946104 8 14 30603 5.12600000 2424885994 2424885994 -1.00000000
-4.08855486 2.97378111 1.35465884 61 15 30603 5.23400000 2424885996 2424885996 15.00000000
-1.66996813 1.21820819 -0.55387276 4 0 30611 2.14000000 2424886017 2424886017 -15.00000000
-4.13199425 3.01531196 0.08928651 9 1 30612 5.11600000 2424886019 2424886019 1.00000000
-1.93439794 1.41213930 -0.55292970 3 2 30613 2.45800000 2424886021 2424886021 -13.00000000
-4.12590885 3.01307869 0.26775074 12 3 30614 5.11600000 2424886024 2424886024 3.00000000
-2.27040982 1.65804040 -0.54647696 3 4 30614 2.86400000 2424886026 2424886026 -11.00000000
-4.13141251 3.01820374 0.44763190 10 5 30615 5.13600000 2424886028 2424886028 5.00000000
-2.77187490 2.02573538 -0.54376620 3 6 30616 3.47600000 2424886031 2424886031 -9.00000000
-4.12324381 3.01444411 0.62713963 9 7 30617 5.14600000 2424886033 2424886033 7.00000000
-3.67247128 2.68587446 -0.55864906 36 8 30618 4.58400000 2424886035 2424886035 -7.00000000
-4.11795855 3.01278639 0.80814046 76 9 30619 5.16600000 2424886038 2424886038 9.00000000
-4.16628790 3.04814529 -0.45164105 12 10 30619 5.18200000 2424886040 2424886040 -5.00000000
-4.10800791 3.00660729 0.98953545 78 11 30620 5.18600000 2424886042 2424886042 11.00000000
-4.14800835 3.03699517 -0.26942551 10 12 30621 5.14800000 2424886044 2424886044 -3.00000000
-4.09231710 2.99731755 1.17109513 65 13 30622 5.20600000 2424886047 2424886047 13.00000000
-4.13910246 3.03269434 -0.08956575 8 14 30623 5.13200000 2424886049 2424886049 -1.00000000
-4.09788370 3.00359297 1.36138821 21 15 30624 5.26000000 2424886051 2424886051 15.00000000
-1.65926588 1.21974385 -0.55180222 4 0 30632 2.13200000 2424886072 2424886072 -15.00000000
-4.13702488 3.04228306 0.08963556 9 1 30633 5.13600000 2424886074 2424886074 1.00000000
-1.92293024 1.41460061 -0.55113006 3 2 30634 2.45000000 2424886077 2424886077 -13.00000000
-4.13092375 3.04001880 0.26879746 10 3 30635 5.13600000 2424886079 2424886079 3.00000000
-2.25799274 1.66169620 -0.54495049 3 4 30635 2.85600000 2424886081 2424886081 -11.00000000
-4.13315821 3.04277539 0.44902638 10 5 30636 5.15200000 2424886084 2424886084 5.00000000
-2.78510904 2.05110931 -0.54783350 3 6 30637 3.50200000 2424886086 2424886086 -9.00000000
-4.12335491 3.03777838 0.62884581 9 7 30638 5.16000000 2424886088 2424886088 7.00000000
-3.66899443 2.70402765 -0.55962402 28 8 30639 4.59200000 2424886091 2424886091 -7.00000000
-4.11059713 3.02948642 0.80876619 74 9 30639 5.17000000 2424886093 2424886093 9.00000000
-4.15508795 3.06339502 -0.45164105 12 10 30640 5.18200000 2424886095 2424886095 -5.00000000
-4.10328054 3.02630496 0.99106193 57 11 30641 5.19400000 2424886097 2424886097 11.00000000
-4.14970684 3.06166410 -0.27026287 10 12 30642 5.16400000 2424886100 2424886100 -3.00000000
-4.10011911 3.02618337 1.17649400 58 13 30643 5.23000000 2424886102 2424886102 13.00000000
-4.12956762 3.04903221 -0.08960065 8 14 30644 5.13400000 2424886104 2424886104 -1.00000000
-4.09980726 3.02705884 1.36552930 14 15 30644 5.27600000 2424886107 2424886107 15.00000000
-1.64723539 1.21978009 -0.54921401 4 0 30652 2.12200000 2424886127 2424886127 -15.00000000
-4.12637997 3.05670547 0.08963556 9 1 30653 5.13600000 2424886130 2424886130 1.00000000
-1.92737484 1.42826581 -0.55382949 3 2 30654 2.46200000 2424886132 2424886132 -13.00000000
-4.13151789 3.06274581 0.26953018 8 3 30655 5.15000000 2424886134 2424886134 3.00000000
-2.25848722 1.67424452 -0.54647696 3 4 30655 2.86400000 2424886137 2424886137 -11.00000000
-4.13051367 3.06311822 0.44989794 10 5 30656 5.16200000 2424886139 2424886139 5.00000000
-2.77634597 2.05964184 -0.54752064 3 6 30657 3.50000000 2424886141 2424886141 -9.00000000
-4.12707281 3.06280017 0.63103944 9 7 30658 5.17800000 2424886144 2424886144 7.00000000
-3.65475154 2.71326852 -0.55889279 8 8 30659 4.58600000 2424886146 2424886146 -7.00000000
-4.11215305 3.05395436 0.81126916 72 9 30660 5.18600000 2424886148 2424886148 9.00000000
-4.15396643 3.08500767 -0.45268694 12 10 30660 5.19400000 2424886150 2424886150 -5.00000000
-4.10845089 3.05231762 0.99487811 65 11 30661 5.21400000 2424886153 2424886153 11.00000000
-4.15662766 3.08923578 -0.27141428 10 12 30662 5.18600000 2424886155 2424886155 -3.00000000
-4.09578609 3.04512787 1.17829359 62 13 30663 5.23800000 2424886157 2424886157 13.00000000
-4.13975859 3.07894254 -0.09005442 12 14 30664 5.16000000 2424886160 2424886160 -1.00000000
-4.08093548 3.03629923 1.36294115 21 15 30665 5.26600000 2424886162 2424886162 15.00000000
-1.64473009 1.22639060 -0.54973167 4 0 30671 2.12400000 2424886183 2424886183 -15.00000000
-4.12583828 3.07754612 0.08984499 9 1 30672 5.14800000 2424886185 2424886185 1.00000000
-1.91950428 1.43231845 -0.55292970 3 2 30673 2.45800000 2424886187 2424886187 -13.00000000
-4.13414335 3.08598733 0.27036756 10 3 30674 5.16600000 2424886190 2424886190 3.00000000
-2.25292277 1.68172479 -0.54647696 3 4 30674 2.86400000 2424886192 2424886192 -11.00000000
-4.12352610 3.07918286 0.45024657 10 5 30675 5.16600000 2424886194 2424886194 5.00000000
-2.74259686 2.04873991 -0.54220188 3 6 30676 3.46600000 2424886197 2424886197 -9.00000000
-4.12166405 3.08003402 0.63177067 9 7 30677 5.18400000 2424886199 2424886199 7.00000000
-3.57895637 2.67545342 -0.54865581 8 8 30678 4.50200000 2424886201 2424886201 -7.00000000
-4.11361361 3.07513714 0.81345922 69 9 30678 5.20000000 2424886203 2424886203 9.00000000
-4.15328693 3.10592508 -0.45373279 12 10 30679 5.20600000 2424886206 2424886206 -5.00000000
-4.09516239 3.06357288 0.99411488 63 11 30680 5.21000000 2424886208 2424886208 11.00000000
-4.14955854 3.10539603 -0.27162361 10 12 30681 5.19000000 2424886210 2424886210 -3.00000000
-4.10126591 3.07037210 1.18279266 63 13 30682 5.25800000 2424886213 2424886213 13.00000000
-4.13912916 3.09984589 -0.09026384 14 14 30683 5.17200000 2424886215 2424886215 -1.00000000
-4.08683920 3.06068516 1.36811745 63 15 30683 5.28600000 2424886217 2424886217 15.00000000
-1.64970720 1.23908556 -0.55283749 4 0 30691 2.13600000 2424886238 2424886238 -15.00000000
-4.13105774 3.10394144 0.09019404 9 1 30692 5.16800000 2424886240 2424886240 1.00000000
-1.90826178 1.43432653 -0.55113006 3 2 30693 2.45000000 2424886243 2424886243 -13.00000000
-4.12813473 3.10400033 0.27068156 8 3 30694 5.17200000 2424886245 2424886245 3.00000000
-2.26586866 1.70373714 -0.55105639 3 4 30694 2.88800000 2424886247 2424886247 -11.00000000
-4.13663626 3.11152291 0.45286125 10 5 30695 5.19600000 2424886250 2424886250 5.00000000
-2.74174261 2.06305170 -0.54345334 3 6 30696 3.47400000 2424886252 2424886252 -9.00000000
-4.11405945 3.09679008 0.63225818 9 7 30697 5.18800000 2424886254 2424886254 7.00000000
-3.57276702 2.69031835 -0.54914325 14 8 30698 4.50600000 2424886256 2424886256 -7.00000000
-4.11967087 3.10326743 0.81690079 78 9 30699 5.22200000 2424886259 2424886259 9.00000000
-4.14241982 3.12040377 -0.45373279 9 10 30699 5.20600000 2424886261 2424886261 -5.00000000
-4.10325861 3.09202719 0.99869430 57 11 30700 5.23400000 2424886263 2424886263 11.00000000
-4.14347792 3.12346864 -0.27193764 10 12 30701 5.19600000 2424886266 2424886266 -3.00000000
-4.09363508 3.08701611 1.18369246 65 13 30702 5.26200000 2424886268 2424886268 13.00000000
-4.14105511 3.12390947 -0.09054308 14 14 30703 5.18800000 2424886270 2424886270 -1.00000000
-4.08176231 3.08029842 1.37018800 38 15 30704 5.29400000 2424886273 2424886273 15.00000000
-1.65461564 1.25182998 -0.55594331 4 0 30711 2.14800000 2424886293 2424886293 -15.00000000
-4.12976456 3.12558317 0.09040347 9 1 30712 5.18000000 2424886296 2424886296 1.00000000
-1.90790439 1.44450784 -0.55247980 4 2 30713 2.45600000 2424886298 2424886298 -13.00000000
-4.12364340 3.12321472 0.27110025 8 3 30714 5.18000000 2424886300 2424886300 3.00000000
-2.24112725 1.69741201 -0.54647696 3 4 30714 2.86400000 2424886303 2424886303 -11.00000000
-4.13051367 3.12955308 0.45338416 10 5 30715 5.20200000 2424886305 2424886305 5.00000000
-2.75813866 2.09050775 -0.54814637 1 6 30716 3.50400000 2424886307 2424886307 -9.00000000
-4.11904287 3.12312555 0.63469553 9 7 30717 5.20800000 2424886309 2424886309 7.00000000
-3.55702806 2.69797468 -0.54816830 12 8 30718 4.49800000 2424886312 2424886312 -7.00000000
-4.10935736 3.11691165 0.81690079 72 9 30718 5.22200000 2424886314 2424886314 9.00000000
-3.94262457 2.99153066 -0.43298972 12 10 30719 4.96800000 2424886316 2424886316 -5.00000000
-4.09244061 3.10633159 0.99869430 15 11 30720 5.23400000 2424886319 2424886319 11.00000000
-4.14527512 3.14757562 -0.27277499 10 12 30721 5.21200000 2424886321 2424886321 -3.00000000
-4.08593798 3.10364437 1.18459225 63 13 30722 5.26600000 2424886323 2424886323 13.00000000
-4.12694073 3.13592577 -0.09047327 14 14 30723 5.18400000 2424886326 2424886326 -1.00000000
-4.08844471 3.10667396 1.37588203 14 15 30723 5.31600000 2424886328 2424886328 15.00000000
-1.63948011 1.24940145 -0.55231982 4 0 30731 2.13400000 2424886349 2424886349 -15.00000000
-4.13791275 3.15452790 0.09082232 9 1 30732 5.20400000 2424886351 2424886351 1.00000000
-1.90749919 1.45470405 -0.55382949 3 2 30733 2.46200000 2424886353 2424886353 -13.00000000
-4.11906767 3.14243579 0.27151895 8 3 30734 5.18800000 2424886356 2424886356 3.00000000
-2.23362756 1.70403385 -0.54609537 3 4 30734 2.86200000 2424886358 2424886358 -11.00000000
-4.12906742 3.15120459 0.45443004 12 5 30735 5.21400000 2424886360 2424886360 5.00000000
-2.74925447 2.09892416 -0.54783350 1 6 30736 3.50200000 2424886362 2424886362 -9.00000000
-4.12073660 3.14712358 0.63664544 9 7 30737 5.22400000 2424886365 2424886365 7.00000000
-3.54916596 2.71157980 -0.54841202 16 8 30738 4.50000000 2424886367 2424886367 -7.00000000
-4.10159159 3.13363552 0.81752652 76 9 30738 5.22600000 2424886369 2424886369 9.00000000
-4.07621050 3.11537123 -0.44885206 9 10 30739 5.15000000 2424886372 2424886372 -5.00000000
-4.10496712 3.13848448 1.00441849 42 11 30740 5.26400000 2424886374 2424886374 11.00000000
-4.14378166 3.16930628 -0.27340305 10 12 30741 5.22400000 2424886376 2424886376 -3.00000000
-4.08746099 3.12736130 1.18819141 63 13 30742 5.28200000 2424886379 2424886379 13.00000000
-4.13026094 3.16125083 -0.09078742 12 14 30743 5.20200000 2424886381 2424886381 -1.00000000
-4.08984804 3.13031960 1.38002312 14 15 30743 5.33200000 2424886383 2424886383 15.00000000
-1.63357639 1.25394034 -0.55180222 4 0 30751 2.13200000 2424886404 2424886404 -15.00000000
-4.12687588 3.16895270 0.09082232 9 1 30752 5.20400000 2424886406 2424886406 1.00000000
-1.91168225 1.46847630 -0.55652893 3 2 30753 2.47400000 2424886409 2424886409 -13.00000000
-4.12866163 3.17261529 0.27287969 8 3 30754 5.21400000 2424886411 2424886411 3.00000000
-2.23233604 1.71540904 -0.54724020 3 4 30754 2.86800000 2424886413 2424886413 -11.00000000
-4.12594080 3.17166996 0.45530161 15 5 30755 5.22400000 2424886415 2424886415 5.00000000
-2.74504304 2.11091638 -0.54845923 1 6 30756 3.50600000 2424886418 2424886418 -9.00000000
-4.12231350 3.17117143 0.63859534 9 7 30757 5.24000000 2424886420 2424886420 7.00000000
-3.54125237 2.72516274 -0.54865581 12 8 30758 4.50200000 2424886422 2424886422 -7.00000000
-4.09947062 3.15587759 0.81940371 76 9 30759 5.23800000 2424886425 2424886425 9.00000000
-4.13793421 3.18548799 -0.45687041 13 10 30759 5.24200000 2424886427 2424886427 -5.00000000
-4.10798597 3.16357517 1.00785315 70 11 30760 5.28200000 2424886429 2424886429 11.00000000
-4.14851522 3.19594049 -0.27444977 10 12 30761 5.24400000 2424886432 2424886432 -3.00000000
-4.09195518 3.15350556 1.19269049 67 13 30762 5.30200000 2424886434 2424886434 13.00000000
-4.13503790 3.18785834 -0.09113646 10 14 30763 5.22200000 2424886436 2424886436 -1.00000000
-4.08501625 3.14929485 1.38209367 23 15 30763 5.34000000 2424886438 2424886438 15.00000000
-1.62613273 1.25727165 -0.55076694 4 0 30771 2.12800000 2424886459 2424886459 -15.00000000
-4.12211609 3.18823266 0.09096194 9 1 30772 5.21200000 2424886462 2424886462 1.00000000
-1.89267325 1.46440780 -0.55247980 4 2 30773 2.45600000 2424886464 2424886464 -13.00000000
-4.12861776 3.19556499 0.27361238 8 3 30774 5.22800000 2424886466 2424886466 3.00000000
-2.23254466 1.72799754 -0.54876667 3 4 30774 2.87600000 2424886468 2424886468 -11.00000000
-4.11484432 3.18605280 0.45530161 10 5 30775 5.22400000 2424886471 2424886471 5.00000000
-2.71735573 2.10476017 -0.54439193 3 6 30776 3.48000000 2424886473 2424886473 -9.00000000
-4.11906481 3.19162107 0.63981408 9 7 30777 5.25000000 2424886475 2424886475 7.00000000
-3.49720120 2.71075273 -0.54329354 6 8 30778 4.45800000 2424886478 2424886478 -7.00000000
-4.10872316 3.18590403 0.82347101 81 9 30779 5.26400000 2424886480 2424886480 9.00000000
-4.14883280 3.21700501 -0.45931077 13 10 30779 5.27000000 2424886482 2424886482 -5.00000000
-4.09691811 3.17789531 1.00785315 70 11 30780 5.28200000 2424886485 2424886485 11.00000000
-4.14049006 3.21285081 -0.27465910 10 12 30781 5.24800000 2424886487 2424886487 -3.00000000
-4.09631634 3.17971945 1.19718957 67 13 30782 5.32200000 2424886489 2424886489 13.00000000
-4.14283800 3.21699023 -0.09155533 10 14 30783 5.24600000 2424886491 2424886491 -1.00000000
-4.07039499 3.16187596 1.38105845 44 15 30784 5.33600000 2424886494 2424886494 15.00000000
-1.63414967 1.27215087 -0.55490804 4 0 30790 2.14400000 2424886515 2424886515 -15.00000000
-4.11940956 3.20802784 0.09113646 11 1 30791 5.22200000 2424886517 2424886517 1.00000000
-1.89088130 1.47307122 -0.55337960 4 2 30792 2.46000000 2424886519 2424886519 -13.00000000
-4.12745047 3.21660471 0.27424040 8 3 30793 5.24000000 2424886521 2424886521 3.00000000
-2.23299623 1.74021864 -0.55029315 3 4 30793 2.88400000 2424886524 2424886524 -11.00000000
-4.12154055 3.21315551 0.45721903 10 5 30794 5.24600000 2424886526 2424886526 5.00000000
-2.72126484 2.12226343 -0.54658204 1 6 30795 3.49400000 2424886528 2424886528 -9.00000000
-4.11002350 3.20648384 0.64005780 9 7 30796 5.25200000 2424886531 2424886531 7.00000000
-3.45689464 2.69790840 -0.53841877 8 8 30797 4.41800000 2424886533 2424886533 -7.00000000
-4.10903502 3.20802093 0.82566112 76 9 30798 5.27800000 2424886535 2424886535 9.00000000
-4.14756489 3.23810172 -0.46035662 13 10 30798 5.28200000 2424886538 2424886538 -5.00000000
-4.09564066 3.19871426 1.01014280 73 11 30799 5.29400000 2424886540 2424886540 11.00000000
-4.14083004 3.23517084 -0.27539179 10 12 30800 5.26200000 2424886542 2424886542 -3.00000000
-4.09035540 3.19688582 1.19853926 69 13 30801 5.32800000 2424886544 2424886544 13.00000000
-4.13372278 3.23194242 -0.09159023 12 14 30802 5.24800000 2424886547 2424886547 -1.00000000
-4.08631372 3.19487596 1.38985825 63 15 30802 5.37000000 2424886549 2424886549 15.00000000
-1.63273966 1.28023136 -0.55594331 4 0 30810 2.14800000 2424886570 2424886570 -15.00000000
-4.13493443 3.24336839 0.09172985 11 1 30811 5.25600000 2424886572 2424886572 1.00000000
-1.88112843 1.47605371 -0.55202991 3 2 30812 2.45400000 2424886574 2424886574 -13.00000000
-4.12562370 3.23839188 0.27486843 8 3 30813 5.25200000 2424886577 2424886577 3.00000000
-2.21764231 1.74072945 -0.54800344 3 4 30813 2.87200000 2424886579 2424886579 -11.00000000
-4.12126875 3.23613620 0.45843920 10 5 30814 5.26000000 2424886581 2424886581 5.00000000
-2.71694708 2.13418984 -0.54720777 1 6 30815 3.49800000 2424886584 2424886584 -9.00000000
-4.11597490 3.23430252 0.64273894 9 7 30816 5.27400000 2424886586 2424886586 7.00000000
-3.43965292 2.70382476 -0.53720009 10 8 30817 4.40800000 2424886588 2424886588 -7.00000000
-4.10557604 3.22844982 0.82722545 81 9 30818 5.28800000 2424886591 2424886591 9.00000000
-4.16442728 3.27472782 -0.46349424 13 10 30818 5.31800000 2424886593 2424886593 -5.00000000
-4.09988070 3.22512960 1.01395905 70 11 30819 5.31400000 2424886595 2424886595 11.00000000
-4.13578987 3.25454593 -0.27581048 10 12 30820 5.27000000 2424886597 2424886597 -3.00000000
-4.08070278 3.21234965 1.19898915 67 13 30821 5.33000000 2424886600 2424886600 13.00000000
-4.12870026 3.25130081 -0.09172985 8 14 30822 5.25600000 2424886602 2424886602 -1.00000000
-4.09790277 3.22704840 1.39762282 68 15 30822 5.40000000 2424886604 2424886604 15.00000000
-1.62522864 1.28352833 -0.55490804 4 0 30830 2.14400000 2424886625 2424886625 -15.00000000
-4.13457155 3.26645970 0.09197418 9 1 30831 5.27000000 2424886627 2424886627 1.00000000
-1.88972473 1.49348605 -0.55607903 4 2 30832 2.47200000 2424886630 2424886630 -13.00000000
-4.12112999 3.25700879 0.27528712 8 3 30832 5.26000000 2424886632 2424886632 3.00000000
-2.21771288 1.75333023 -0.54952991 3 4 30833 2.88000000 2424886634 2424886634 -11.00000000
