# .PCD v0.7 - Point Cloud Data file format
VERSION 0.7
FIELDS x y z intensity laser_id azimuth distance_m adjustedtime timestamp vertical_angle
SIZE 4 4 4 1 1 2 8 8 4 8
TYPE F F F U U U F U U F
COUNT 1 1 1 1 1 1 1 1 1 1
WIDTH 527
HEIGHT 1
VIEWPOINT 0 0 0 1 0 0 0
POINTS 527
DATA ascii
-1.87636113 0.69632173 -0.53627306 4 0 29036 2.07200000 2425281605 2425281605 -15.00000000
-4.06235170 1.50835431 0.07563873 5 1 29037 4.33400000 2425281608 2425281608 1.00000000
-2.16287923 0.80350822 -0.53268409 4 2 29038 2.36800000 2425281610 2425281610 -13.00000000
-4.11865616 1.53089631 0.23027821 7 3 29039 4.40000000 2425281612 2425281612 3.00000000
-2.55977702 0.95146406 -0.53083062 3 4 29039 2.78200000 2425281615 2425281615 -11.00000000
-3.08807635 1.14905894 -0.52186537 3 6 29041 3.33600000 2425281619 2425281619 -9.00000000
-5.61267471 2.08956552 0.73535961 2 7 29042 6.03400000 2425281622 2425281622 7.00000000
-3.85811424 1.43711984 -0.50551403 6 8 29043 4.14800000 2425281624 2425281624 -7.00000000
-5.13783360 1.91482723 -0.47970521 3 10 29044 5.50400000 2425281628 2425281628 -5.00000000
-9.89664459 3.69036341 2.05310488 21 11 29045 10.76000000 2425281631 2425281631 11.00000000
-4.10929775 1.53313446 -0.22985952 6 12 29046 4.39200000 2425281633 2425281633 -3.00000000
-3.95454359 1.47697008 -0.07368406 63 14 29048 4.22200000 2425281638 2425281638 -1.00000000
-8.29715252 3.10052776 2.37337065 45 15 29049 9.17000000 2425281640 2425281640 15.00000000
-1.88115430 0.70558101 -0.53834361 4 0 29056 2.08000000 2425281661 2425281661 -15.00000000
-4.05706167 1.52252543 0.07563873 5 1 29057 4.33400000 2425281663 2425281663 1.00000000
-2.17100739 0.81516325 -0.53538352 4 2 29058 2.38000000 2425281665 2425281665 -13.00000000
-4.12076616 1.54807329 0.23069690 7 3 29059 4.40800000 2425281668 2425281668 3.00000000
-2.55276465 0.95901269 -0.53006738 3 4 29059 2.77800000 2425281670 2425281670 -11.00000000
-3.09514046 1.16400337 -0.52374262 3 6 29061 3.34800000 2425281675 2425281675 -9.00000000
-3.84935880 1.44917953 -0.50502658 6 8 29063 4.14400000 2425281679 2425281679 -7.00000000
-5.15908623 1.94328463 -0.48231989 6 10 29064 5.53400000 2425281684 2425281684 -5.00000000
-9.90207386 3.73181009 2.05692101 25 11 29065 10.78000000 2425281686 2425281686 11.00000000
-4.08336401 1.53971779 -0.22870813 4 12 29066 4.37000000 2425281688 2425281688 -3.00000000
-3.94749284 1.49005878 -0.07364915 56 14 29068 4.22000000 2425281693 2425281693 -1.00000000
-8.29586220 3.13143611 2.37595892 47 15 29068 9.18000000 2425281695 2425281695 15.00000000
-1.87326062 0.71008891 -0.53679073 4 0 29076 2.07400000 2425281716 2425281716 -15.00000000
-4.06481075 1.54164183 0.07588306 5 1 29077 4.34800000 2425281718 2425281718 1.00000000
-2.18090248 0.82757616 -0.53853285 4 2 29078 2.39400000 2425281721 2425281721 -13.00000000
-4.11533689 1.56244802 0.23069690 7 3 29079 4.40800000 2425281723 2425281723 3.00000000
-2.53471804 0.96234292 -0.52701443 3 4 29079 2.76200000 2425281725 2425281725 -11.00000000
-5.23559093 1.98881435 0.48998958 2 5 29080 5.62200000 2425281728 2425281728 5.00000000
-3.09475136 1.17620385 -0.52436835 3 6 29081 3.35200000 2425281730 2425281730 -9.00000000
-3.84427667 1.46260750 -0.50502658 6 8 29083 4.14400000 2425281734 2425281734 -7.00000000
-5.13737488 1.95561087 -0.48092538 3 10 29084 5.51800000 2425281739 2425281739 -5.00000000
-9.89632607 3.76914716 2.05844736 28 11 29085 10.78800000 2425281741 2425281741 11.00000000
-4.11342525 1.56747472 -0.23069690 6 12 29086 4.40800000 2425281744 2425281744 -3.00000000
-3.94787264 1.50596714 -0.07375387 68 14 29088 4.22600000 2425281748 2425281748 -1.00000000
-8.27530479 3.15837669 2.37337065 47 15 29089 9.17000000 2425281751 2425281751 15.00000000
-1.86007082 0.71215248 -0.53368485 4 0 29095 2.06200000 2425281771 2425281771 -15.00000000
-4.06341076 1.55654335 0.07595287 5 1 29096 4.35200000 2425281774 2425281774 1.00000000
-2.18178558 0.83619857 -0.53943264 4 2 29097 2.39800000 2425281776 2425281776 -13.00000000
-4.12318707 1.58109212 0.23142959 7 3 29098 4.42200000 2425281778 2425281778 3.00000000
-2.53884530 0.97355473 -0.52854091 3 4 29098 2.77000000 2425281781 2425281781 -11.00000000
-5.22896671 2.00616527 0.48998958 2 5 29099 5.62200000 2425281783 2425281783 5.00000000
-3.07239223 1.17938089 -0.52123964 3 6 29100 3.33200000 2425281785 2425281785 -9.00000000
-3.84681749 1.47819567 -0.50600153 6 8 29102 4.15200000 2425281790 2425281790 -7.00000000
-5.13458109 1.97406626 -0.48127401 6 10 29103 5.52200000 2425281794 2425281794 -5.00000000
-9.89110184 3.80476332 2.05997396 28 11 29104 10.79600000 2425281797 2425281797 11.00000000
-4.11938858 1.58541095 -0.23132493 6 12 29105 4.42000000 2425281799 2425281799 -3.00000000
-3.96898103 1.52911520 -0.07424254 24 14 29107 4.25400000 2425281804 2425281804 -1.00000000
-8.24551201 3.17671919 2.36767673 45 15 29107 9.14800000 2425281806 2425281806 15.00000000
-1.87018561 0.72352022 -0.53730834 4 0 29115 2.07600000 2425281827 2425281827 -15.00000000
-4.05795288 1.57071781 0.07595287 3 1 29116 4.35200000 2425281829 2425281829 1.00000000
-2.16795015 0.83958679 -0.53673321 3 2 29117 2.38600000 2425281831 2425281831 -13.00000000
-4.13067913 1.60052633 0.23216230 7 3 29118 4.43600000 2425281834 2425281834 3.00000000
-2.53909278 0.98382968 -0.52930415 3 4 29118 2.77400000 2425281836 2425281836 -11.00000000
-5.24422455 2.03304768 0.49208131 2 5 29119 5.64600000 2425281838 2425281838 5.00000000
-3.07562351 1.19295573 -0.52249110 3 6 29120 3.34000000 2425281840 2425281840 -9.00000000
-3.84903598 1.49448860 -0.50697649 6 8 29122 4.16000000 2425281845 2425281845 -7.00000000
-5.14251614 1.99774897 -0.48266849 6 10 29123 5.53800000 2425281850 2425281850 -5.00000000
-9.88142014 3.84068894 2.06073713 25 11 29124 10.80000000 2425281852 2425281852 11.00000000
-4.11010647 1.59833288 -0.23111558 6 12 29125 4.41600000 2425281854 2425281854 -3.00000000
-3.97107315 1.54586196 -0.07438216 29 14 29127 4.26200000 2425281859 2425281859 -1.00000000
-8.23977375 3.20758438 2.36922956 47 15 29127 9.15400000 2425281861 2425281861 15.00000000
-1.86752117 0.73036999 -0.53730834 4 0 29136 2.07600000 2425281882 2425281882 -15.00000000
-4.06334162 1.58995247 0.07616230 3 1 29137 4.36400000 2425281884 2425281884 1.00000000
-2.16122890 0.84610623 -0.53583342 3 2 29138 2.38200000 2425281887 2425281887 -13.00000000
-4.12478542 1.61565530 0.23216230 7 3 29139 4.43600000 2425281889 2425281889 3.00000000
-2.53546977 0.99312931 -0.52930415 3 4 29139 2.77400000 2425281891 2425281891 -11.00000000
-5.25528812 2.05952477 0.49382445 2 5 29140 5.66600000 2425281893 2425281893 5.00000000
-3.07858658 1.20710480 -0.52374262 3 6 29141 3.34800000 2425281896 2425281896 -9.00000000
-3.83798909 1.50641012 -0.50624526 4 8 29143 4.15400000 2425281900 2425281900 -7.00000000
-5.12959623 2.01439905 -0.48214558 6 10 29144 5.53200000 2425281905 2425281905 -5.00000000
-9.88006783 3.88190603 2.06340837 28 11 29145 10.81400000 2425281907 2425281907 11.00000000
-4.09120893 1.60827160 -0.23038287 6 12 29146 4.40200000 2425281910 2425281910 -3.00000000
-3.98398876 1.56772864 -0.07473120 28 14 29148 4.28200000 2425281914 2425281914 -1.00000000
-8.22616386 3.23705578 2.36871195 47 15 29148 9.15200000 2425281916 2425281916 15.00000000
-1.87574053 0.74114382 -0.54041415 4 0 29156 2.08800000 2425281937 2425281937 -15.00000000
-4.06892490 1.60853744 0.07637173 3 1 29157 4.37600000 2425281940 2425281940 1.00000000
-2.16188669 0.85507864 -0.53673321 3 2 29158 2.38600000 2425281942 2425281942 -13.00000000
-4.11726332 1.62930870 0.23205763 7 3 29159 4.43400000 2425281944 2425281944 3.00000000
-2.53928971 1.00486326 -0.53083062 3 4 29159 2.78200000 2425281946 2425281946 -11.00000000
-5.28141117 2.09105873 0.49696204 3 5 29160 5.70200000 2425281949 2425281949 5.00000000
-3.06333518 1.21347868 -0.52186537 3 6 29161 3.33600000 2425281951 2425281951 -9.00000000
-3.81794477 1.51394427 -0.50429535 6 8 29163 4.13800000 2425281956 2425281956 -7.00000000
-5.13364506 2.03670073 -0.48319143 7 10 29164 5.54400000 2425281960 2425281960 -5.00000000
-9.88288021 3.92288899 2.06684303 28 11 29165 10.83200000 2425281963 2425281963 11.00000000
-4.10227633 1.62917745 -0.23132493 6 12 29166 4.42000000 2425281965 2425281965 -3.00000000
-3.97291732 1.57940960 -0.07462649 24 14 29168 4.27600000 2425281969 2425281969 -1.00000000
-8.21244907 3.26647043 2.36819434 47 15 29169 9.15000000 2425281972 2425281972 15.00000000
-1.86596525 0.74482214 -0.53834361 4 0 29176 2.08000000 2425281993 2425281993 -15.00000000
-4.08185625 1.63014734 0.07672078 3 1 29177 4.39600000 2425281995 2425281995 1.00000000
-2.16612720 0.86551213 -0.53853285 4 2 29178 2.39400000 2425281997 2425281997 -13.00000000
-4.12267828 1.64811909 0.23268566 7 3 29179 4.44600000 2425281999 2425281999 3.00000000
-2.52482867 1.00934839 -0.52854091 3 4 29179 2.77000000 2425282002 2425282002 -11.00000000
-5.26668024 2.10652184 0.49626479 3 5 29180 5.69400000 2425282004 2425282004 5.00000000
-3.08108830 1.23297131 -0.52561980 3 6 29181 3.36000000 2425282006 2425282006 -9.00000000
-3.83290720 1.53538191 -0.50697649 6 8 29183 4.16000000 2425282011 2425282011 -7.00000000
-5.10985994 2.04793739 -0.48162264 6 10 29184 5.52600000 2425282016 2425282016 -5.00000000
-9.87823772 3.96101618 2.06875110 28 11 29185 10.84200000 2425282018 2425282018 11.00000000
-4.09285688 1.64199984 -0.23111558 6 12 29186 4.41600000 2425282020 2425282020 -3.00000000
-3.96552420 1.59252286 -0.07459158 22 14 29188 4.27400000 2425282025 2425282025 -1.00000000
-8.20515728 3.29512572 2.36922956 47 15 29188 9.15400000 2425282027 2425282027 15.00000000
-1.85618711 0.74844134 -0.53627306 4 0 29196 2.07200000 2425282048 2425282048 -15.00000000
-4.06872320 1.64139318 0.07658116 3 1 29197 4.38800000 2425282050 2425282050 1.00000000
-2.16309285 0.87306803 -0.53853285 3 2 29198 2.39400000 2425282052 2425282052 -13.00000000
-4.12430811 1.66549134 0.23310435 5 3 29199 4.45400000 2425282055 2425282055 3.00000000
-2.52857184 1.02109599 -0.53006738 3 4 29199 2.77800000 2425282057 2425282057 -11.00000000
-5.26668453 2.12787867 0.49696204 3 5 29200 5.70200000 2425282059 2425282059 5.00000000
-3.05112600 1.23335445 -0.52123964 3 6 29201 3.33200000 2425282062 2425282062 -9.00000000
-3.82936454 1.54949653 -0.50722021 4 8 29203 4.16200000 2425282066 2425282066 -7.00000000
-5.12668848 2.07548118 -0.48388869 3 10 29204 5.55200000 2425282071 2425282071 -5.00000000
-9.87890816 4.00136995 2.07180405 28 11 29205 10.85800000 2425282073 2425282073 11.00000000
-4.09450436 1.65927696 -0.23153427 6 12 29206 4.42400000 2425282075 2425282075 -3.00000000
-3.97105932 1.61086559 -0.07480101 22 14 29208 4.28600000 2425282080 2425282080 -1.00000000
-8.18107414 3.31866384 2.36560607 45 15 29208 9.14000000 2425282082 2425282082 15.00000000
-1.85714161 0.75637341 -0.53730834 4 0 29216 2.07600000 2425282103 2425282103 -15.00000000
-4.07222795 1.65935874 0.07675568 5 1 29217 4.39800000 2425282105 2425282105 1.00000000
-2.16003203 0.88061333 -0.53853285 3 2 29218 2.39400000 2425282108 2425282108 -13.00000000
-4.14095592 1.68820691 0.23436041 5 3 29218 4.47800000 2425282110 2425282110 3.00000000
-2.53953481 1.03584802 -0.53312033 3 4 29219 2.79400000 2425282112 2425282112 -11.00000000
-5.26660347 2.14926100 0.49765930 3 5 29220 5.71000000 2425282115 2425282115 5.00000000
-3.04863095 1.24474406 -0.52155250 3 6 29221 3.33400000 2425282117 2425282117 -9.00000000
-3.82393241 1.56285405 -0.50722021 6 8 29223 4.16200000 2425282121 2425282121 -7.00000000
-5.11756802 2.09260988 -0.48371437 7 10 29224 5.55000000 2425282126 2425282126 -5.00000000
-9.87033176 4.03805923 2.07294893 31 11 29225 10.86400000 2425282128 2425282128 11.00000000
-4.06465816 1.66372383 -0.23017353 4 12 29226 4.39800000 2425282131 2425282131 -3.00000000
-3.97096348 1.62699175 -0.07490573 19 14 29228 4.29200000 2425282135 2425282135 -1.00000000
-8.17301559 3.34866571 2.36664128 47 15 29228 9.14400000 2425282138 2425282138 15.00000000
-1.85449004 0.76285148 -0.53730834 4 0 29236 2.07600000 2425282158 2425282158 -15.00000000
-4.08490324 1.68117392 0.07710473 5 1 29237 4.41800000 2425282161 2425282161 1.00000000
-2.14973712 0.88517994 -0.53673321 3 2 29238 2.38600000 2425282163 2425282163 -13.00000000
-4.14212751 1.70641601 0.23477910 5 3 29239 4.48600000 2425282165 2425282165 3.00000000
-2.53590369 1.04470634 -0.53312033 3 4 29239 2.79400000 2425282168 2425282168 -11.00000000
-3.04609370 1.25613117 -0.52186537 3 6 29241 3.33600000 2425282172 2425282172 -9.00000000
-3.81478381 1.57467771 -0.50673270 4 8 29243 4.15800000 2425282177 2425282177 -7.00000000
-5.09918308 2.10589767 -0.48266849 6 10 29244 5.53800000 2425282181 2425282181 -5.00000000
-9.86524868 4.07623720 2.07485700 31 11 29245 10.87400000 2425282184 2425282184 11.00000000
-4.02929401 1.66569352 -0.22849879 12 12 29246 4.36600000 2425282186 2425282186 -3.00000000
-3.98558521 1.64925373 -0.07528968 19 14 29248 4.31400000 2425282191 2425282191 -1.00000000
-8.16425705 3.38007665 2.36767673 45 15 29249 9.14800000 2425282193 2425282193 15.00000000
-1.86252010 0.77376711 -0.54041415 4 0 29256 2.08800000 2425282214 2425282214 -15.00000000
-4.07901001 1.69542265 0.07710473 9 1 29257 4.41800000 2425282216 2425282216 1.00000000
-2.15383172 0.89567161 -0.53853285 3 2 29258 2.39400000 2425282218 2425282218 -13.00000000
-4.12538099 1.71554101 0.23415107 5 3 29258 4.47400000 2425282221 2425282221 3.00000000
-2.51592779 1.04676449 -0.52968580 3 4 29259 2.77600000 2425282223 2425282223 -11.00000000
-5.43541002 2.26254272 0.51509047 9 5 29260 5.91000000 2425282225 2425282225 5.00000000
-3.05263186 1.27131307 -0.52374262 3 6 29261 3.34800000 2425282227 2425282227 -9.00000000
-3.82208991 1.59333098 -0.50843889 6 8 29263 4.17200000 2425282232 2425282232 -7.00000000
-4.89688206 2.04238749 -0.46419150 6 10 29264 5.32600000 2425282237 2425282237 -5.00000000
-9.86545467 4.11669683 2.07790995 28 11 29265 10.89000000 2425282239 2425282239 11.00000000
-4.04372883 1.68821239 -0.22965017 8 12 29266 4.38800000 2425282241 2425282241 -3.00000000
-3.98349404 1.66469812 -0.07535949 19 14 29268 4.31800000 2425282246 2425282246 -1.00000000
-8.15656853 3.40862155 2.36871195 45 15 29268 9.15200000 2425282248 2425282248 15.00000000
-1.85624492 0.77876908 -0.53937888 4 0 29276 2.08400000 2425282269 2425282269 -15.00000000
-4.08044243 1.71274650 0.07724435 22 1 29277 4.42600000 2425282271 2425282271 1.00000000
-2.14709854 0.90167534 -0.53763300 3 2 29278 2.39000000 2425282273 2425282273 -13.00000000
-4.13778210 1.73766410 0.23519778 5 3 29278 4.49400000 2425282276 2425282276 3.00000000
-2.51406860 1.05630088 -0.53006738 3 4 29279 2.77800000 2425282278 2425282278 -11.00000000
-5.41645908 2.27686977 0.51404458 12 5 29280 5.89800000 2425282280 2425282280 5.00000000
-3.05545902 1.28502429 -0.52499408 3 6 29281 3.35600000 2425282283 2425282283 -9.00000000
-3.82199359 1.60897350 -0.50917011 6 8 29283 4.17800000 2425282287 2425282287 -7.00000000
-4.80893183 2.02544045 -0.45652178 9 10 29284 5.23800000 2425282292 2425282292 -5.00000000
-9.86549854 4.15720797 2.08096290 28 11 29285 10.90600000 2425282294 2425282294 11.00000000
-4.05069399 1.70774865 -0.23038287 8 12 29286 4.40200000 2425282297 2425282297 -3.00000000
-3.96844721 1.67470551 -0.07518496 17 14 29288 4.30800000 2425282301 2425282301 -1.00000000
-8.12504196 3.42881036 2.36301780 45 15 29288 9.13000000 2425282303 2425282303 15.00000000
-1.85023105 0.78309083 -0.53834361 4 0 29294 2.08000000 2425282324 2425282324 -15.00000000
-4.06030989 1.71931922 0.07696512 54 1 29295 4.41000000 2425282326 2425282326 1.00000000
-2.15681577 0.91373748 -0.54078233 4 2 29296 2.40400000 2425282329 2425282329 -13.00000000
-4.15038586 1.75917029 0.23624450 5 3 29297 4.51400000 2425282331 2425282331 3.00000000
-2.51796818 1.06725848 -0.53159386 3 4 29297 2.78600000 2425282333 2425282333 -11.00000000
-5.40744495 2.29309678 0.51387024 9 5 29298 5.89600000 2425282336 2425282336 5.00000000
-3.04049611 1.28998780 -0.52311683 3 6 29299 3.34400000 2425282338 2425282338 -9.00000000
-3.80778408 1.61709285 -0.50795144 6 8 29301 4.16800000 2425282343 2425282343 -7.00000000
-4.76587009 2.02495551 -0.45303556 6 10 29302 5.19800000 2425282347 2425282347 -5.00000000
-9.86865044 4.19509315 2.08439755 28 11 29303 10.92400000 2425282350 2425282350 11.00000000
-4.08574390 1.73766267 -0.23268566 6 12 29304 4.44600000 2425282352 2425282352 -3.00000000
-3.97788548 1.69343066 -0.07546420 17 14 29306 4.32400000 2425282356 2425282356 -1.00000000
-8.10296249 3.45119309 2.35991216 29 15 29307 9.11800000 2425282359 2425282359 15.00000000
-1.85814488 0.79409963 -0.54144943 4 0 29314 2.09200000 2425282379 2425282379 -15.00000000
-4.04876757 1.73112333 0.07686040 7 1 29315 4.40400000 2425282382 2425282382 1.00000000
-2.14823794 0.91896129 -0.53943264 3 2 29316 2.39800000 2425282384 2425282384 -13.00000000
-4.15187502 1.77606583 0.23666319 5 3 29316 4.52200000 2425282386 2425282386 3.00000000
-2.52505684 1.08067608 -0.53388357 3 4 29317 2.79800000 2425282389 2425282389 -11.00000000
-5.41955471 2.32058501 0.51578766 9 5 29318 5.91800000 2425282391 2425282391 5.00000000
-3.03234315 1.29903746 -0.52249110 3 6 29319 3.34000000 2425282393 2425282393 -9.00000000
-3.82036066 1.63819790 -0.51038879 6 8 29321 4.18800000 2425282398 2425282398 -7.00000000
-4.73496962 2.03136730 -0.45076951 6 10 29322 5.17200000 2425282403 2425282403 -5.00000000
-9.86477089 4.23416185 2.08668709 28 11 29323 10.93600000 2425282405 2425282405 11.00000000
-4.08332348 1.75349009 -0.23289500 6 12 29324 4.45000000 2425282407 2425282407 -3.00000000
-3.98848462 1.71441293 -0.07577835 15 14 29326 4.34200000 2425282412 2425282412 -1.00000000
-8.09086609 3.47945666 2.35991216 6 15 29327 9.11800000 2425282414 2425282414 15.00000000
-1.85167456 0.79937339 -0.54041415 4 0 29335 2.08800000 2425282435 2425282435 -15.00000000
-4.15070677 1.79273188 0.07891978 6 1 29336 4.52200000 2425282437 2425282437 1.00000000
-2.14127779 0.92528278 -0.53853285 3 2 29337 2.39400000 2425282439 2425282439 -13.00000000
-4.16367149 1.79919374 0.23770991 5 3 29337 4.54200000 2425282442 2425282442 3.00000000
-2.52468300 1.09148180 -0.53464681 5 4 29338 2.80200000 2425282444 2425282444 -11.00000000
-5.42381334 2.34596992 0.51700789 9 5 29339 5.93200000 2425282446 2425282446 5.00000000
-3.03118730 1.31171191 -0.52311683 3 6 29340 3.34400000 2425282449 2425282449 -9.00000000
-3.80340123 1.64745522 -0.50892639 6 8 29342 4.17600000 2425282453 2425282453 -7.00000000
-4.69641447 2.03524017 -0.44780621 6 10 29343 5.13800000 2425282458 2425282458 -5.00000000
-9.86359596 4.27653694 2.08974004 28 11 29344 10.95200000 2425282460 2425282460 11.00000000
-4.08786297 1.77321339 -0.23352304 6 12 29345 4.46200000 2425282462 2425282462 -3.00000000
-3.99868250 1.73618770 -0.07609249 14 14 29347 4.36000000 2425282467 2425282467 -1.00000000
-8.01427078 3.48137832 2.34127712 2 15 29348 9.04600000 2425282469 2425282469 15.00000000
-1.85595679 0.80891955 -0.54248470 4 0 29355 2.09600000 2425282490 2425282490 -15.00000000
-4.17008591 1.81839979 0.07940845 8 1 29356 4.55000000 2425282492 2425282492 1.00000000
-2.14160705 0.93431008 -0.53943264 3 2 29357 2.39800000 2425282495 2425282495 -13.00000000
-4.14272070 1.80732763 0.23687254 5 3 29357 4.52600000 2425282497 2425282497 3.00000000
-2.51366043 1.09714651 -0.53312033 3 4 29358 2.79400000 2425282499 2425282499 -11.00000000
-5.43019867 2.37126684 0.51840234 9 5 29359 5.94800000 2425282502 2425282502 5.00000000
-3.03745103 1.32702971 -0.52499408 3 6 29360 3.35600000 2425282504 2425282504 -9.00000000
-3.80126500 1.66231227 -0.50941384 6 8 29362 4.18000000 2425282509 2425282509 -7.00000000
-4.66737795 2.04203820 -0.44571447 6 10 29363 5.11400000 2425282513 2425282513 -5.00000000
-9.85760021 4.31487751 2.09164810 28 11 29364 10.96200000 2425282515 2425282515 11.00000000
-4.07981920 1.78667068 -0.23341836 6 12 29365 4.46000000 2425282518 2425282518 -3.00000000
-3.99442935 1.75093794 -0.07612740 15 14 29367 4.36200000 2425282522 2425282522 -1.00000000
-7.98791647 3.50312519 2.33713603 2 15 29368 9.03000000 2425282525 2425282525 15.00000000
-1.84604883 0.81228089 -0.54041415 4 0 29375 2.08800000 2425282545 2425282545 -15.00000000
-4.22410965 1.85953283 0.08056031 40 1 29376 4.61600000 2425282548 2425282548 1.00000000
-2.13833284 0.94177997 -0.53943264 4 2 29377 2.39800000 2425282550 2425282550 -13.00000000
-4.15100956 1.82821763 0.23770991 5 3 29377 4.54200000 2425282552 2425282552 3.00000000
-2.50622225 1.10433078 -0.53235710 3 4 29378 2.79000000 2425282555 2425282555 -11.00000000
-3.05448914 1.34719026 -0.52874851 3 6 29380 3.38000000 2425282559 2425282559 -9.00000000
-3.78817534 1.67236412 -0.50843889 6 8 29382 4.17200000 2425282564 2425282564 -7.00000000
-4.62377071 2.04221845 -0.44222823 3 10 29383 5.07400000 2425282568 2425282568 -5.00000000
-9.86761856 4.36037016 2.09699082 25 11 29384 10.99000000 2425282571 2425282571 11.00000000
-4.09365129 1.80978429 -0.23456976 4 12 29385 4.48200000 2425282573 2425282573 -3.00000000
-3.99377894 1.76729798 -0.07623211 14 14 29387 4.36800000 2425282578 2425282578 -1.00000000
-7.95328999 3.51943207 2.33040667 2 15 29387 9.00400000 2425282580 2425282580 15.00000000
-1.83260906 0.81401461 -0.53730834 4 0 29395 2.07600000 2425282601 2425282601 -15.00000000
-2.14215493 0.95240521 -0.54123223 3 2 29397 2.40600000 2425282605 2425282605 -13.00000000
-4.15920258 1.84918737 0.23854730 5 3 29397 4.55800000 2425282608 2425282608 3.00000000
-2.50593972 1.11466825 -0.53312033 3 4 29398 2.79400000 2425282610 2425282610 -11.00000000
-3.04254961 1.35463035 -0.52749699 3 6 29400 3.37200000 2425282614 2425282614 -9.00000000
-3.80044651 1.69365764 -0.51087630 6 8 29402 4.19200000 2425282619 2425282619 -7.00000000
-4.60569525 2.05347800 -0.44118237 6 10 29403 5.06200000 2425282624 2425282624 -5.00000000
-9.87206078 4.40358543 2.10118866 25 11 29404 11.01200000 2425282626 2425282626 11.00000000
-4.11284351 1.83545816 -0.23603517 4 12 29405 4.51000000 2425282628 2425282628 -3.00000000
-4.00401783 1.78856838 -0.07654625 14 14 29407 4.38600000 2425282633 2425282633 -1.00000000
-7.95797443 3.55644083 2.33558297 2 15 29408 9.02400000 2425282635 2425282635 15.00000000
-1.83695126 0.82324755 -0.53937888 4 0 29414 2.08400000 2425282656 2425282656 -15.00000000
-2.13542891 0.95790839 -0.54033244 3 2 29416 2.40200000 2425282661 2425282661 -13.00000000
-4.17094374 1.87187219 0.23959401 5 3 29417 4.57800000 2425282663 2425282663 3.00000000
-2.51297641 1.12779522 -0.53541005 3 4 29417 2.80600000 2425282665 2425282665 -11.00000000
-3.03443694 1.36309350 -0.52687126 3 6 29419 3.36800000 2425282670 2425282670 -9.00000000
-3.79480910 1.70625103 -0.51087630 6 8 29421 4.19200000 2425282674 2425282674 -7.00000000
-4.59522629 2.06710505 -0.44083375 6 10 29422 5.05800000 2425282679 2425282679 -5.00000000
-9.86814594 4.44113255 2.10347843 21 11 29423 11.02400000 2425282681 2425282681 11.00000000
-4.10127068 1.84662676 -0.23572114 4 12 29424 4.50400000 2425282684 2425282684 -3.00000000
-4.00353432 1.80430126 -0.07665097 14 14 29426 4.39200000 2425282688 2425282688 -1.00000000
-7.94676208 3.58142400 2.33558297 2 15 29426 9.02400000 2425282691 2425282691 15.00000000
-1.83758664 0.83124709 -0.54041415 4 0 29434 2.08800000 2425282711 2425282711 -15.00000000
-4.21749020 1.90870249 0.08080464 82 1 29435 4.63000000 2425282714 2425282714 1.00000000
-2.12497115 0.96214145 -0.53853285 3 2 29436 2.39400000 2425282716 2425282716 -13.00000000
-4.17530012 1.89136481 0.24022204 5 3 29437 4.59000000 2425282718 2425282718 3.00000000
-2.50187087 1.13331985 -0.53388357 3 4 29437 2.79800000 2425282720 2425282720 -11.00000000
-3.02966022 1.37367737 -0.52687126 3 6 29439 3.36800000 2425282725 2425282725 -9.00000000
-3.79967594 1.72440922 -0.51233870 6 8 29441 4.20400000 2425282730 2425282730 -7.00000000
-4.60612440 2.09136963 -0.44257686 6 10 29442 5.07800000 2425282734 2425282734 -5.00000000
-9.87403297 4.48529530 2.10805774 18 11 29443 11.04800000 2425282737 2425282737 11.00000000
-4.09480000 1.86093163 -0.23572114 4 12 29444 4.50400000 2425282739 2425282739 -3.00000000
-10.63147736 4.83384323 2.69626331 57 13 29445 11.98600000 2425282741 2425282741 13.00000000
-4.02269459 1.82985699 -0.07713964 13 14 29446 4.42000000 2425282744 2425282744 -1.00000000
-7.96347380 3.62412977 2.34438300 2 15 29447 9.05800000 2425282746 2425282746 15.00000000
-1.83804202 0.83958191 -0.54144943 4 0 29455 2.09200000 2425282767 2425282767 -15.00000000
-4.23047304 1.93329036 0.08118860 116 1 29456 4.65200000 2425282769 2425282769 1.00000000
-2.12497497 0.97154397 -0.53943264 3 2 29457 2.39800000 2425282771 2425282771 -13.00000000
-4.15744257 1.90167058 0.23959401 5 3 29458 4.57800000 2425282773 2425282773 3.00000000
-2.49412966 1.14084876 -0.53312033 3 4 29458 2.79400000 2425282776 2425282776 -11.00000000
-3.03178954 1.38806164 -0.52812278 3 6 29460 3.37600000 2425282780 2425282780 -9.00000000
-3.78250241 1.73336220 -0.51087630 6 8 29462 4.19200000 2425282785 2425282785 -7.00000000
-4.60929489 2.11321998 -0.44362274 6 10 29463 5.09000000 2425282790 2425282790 -5.00000000
-9.85752678 4.52145529 2.10805774 28 11 29464 11.04800000 2425282792 2425282792 11.00000000
-4.11154985 1.88675630 -0.23708189 4 12 29465 4.53000000 2425282794 2425282794 -3.00000000
-10.60660553 4.86952496 2.69446373 59 13 29466 11.97800000 2425282797 2425282797 13.00000000
-4.01050949 1.84208465 -0.07703492 11 14 29467 4.41400000 2425282799 2425282799 -1.00000000
-7.96306372 3.65754962 2.34800649 2 15 29467 9.07200000 2425282801 2425282801 15.00000000
-1.83159137 0.84437519 -0.54041415 4 0 29475 2.08800000 2425282822 2425282822 -15.00000000
-2.12510967 0.98058856 -0.54033244 3 2 29477 2.40200000 2425282826 2425282826 -13.00000000
-4.16528606 1.92286813 0.24043138 5 3 29478 4.59400000 2425282829 2425282829 3.00000000
-2.48300219 1.14625645 -0.53159386 3 4 29478 2.78600000 2425282831 2425282831 -11.00000000
-3.03051209 1.40029323 -0.52874851 3 6 29480 3.38000000 2425282836 2425282836 -9.00000000
-3.78003240 1.74822164 -0.51136374 8 8 29482 4.19600000 2425282840 2425282840 -7.00000000
-4.60912323 2.13264322 -0.44431996 6 10 29483 5.09800000 2425282845 2425282845 -5.00000000
-9.87018967 4.56903267 2.11416364 12 11 29484 11.08000000 2425282847 2425282847 11.00000000
-4.11581278 1.90613282 -0.23770991 4 12 29485 4.54200000 2425282849 2425282849 -3.00000000
-10.58600616 4.90488052 2.69356394 59 13 29486 11.97400000 2425282852 2425282852 13.00000000
-4.00768328 1.85775471 -0.07710473 11 14 29487 4.41800000 2425282854 2425282854 -1.00000000
-9.04670620 4.19550323 2.67204785 30 15 29488 10.32400000 2425282856 2425282856 15.00000000
-1.82863283 0.85076350 -0.54041415 4 0 29495 2.08800000 2425282877 2425282877 -15.00000000
-4.25131845 1.97881031 0.08185179 48 1 29496 4.69000000 2425282879 2425282879 1.00000000
-2.12874007 0.99129122 -0.54213202 4 2 29497 2.41000000 2425282882 2425282882 -13.00000000
-4.18027353 1.94751740 0.24168745 5 3 29498 4.61800000 2425282884 2425282884 3.00000000
-2.49322271 1.16154945 -0.53464681 3 4 29498 2.80200000 2425282886 2425282886 -11.00000000
-3.02202511 1.40919352 -0.52812278 3 6 29500 3.37600000 2425282891 2425282891 -9.00000000
-3.77750444 1.76308489 -0.51185125 6 8 29502 4.20000000 2425282896 2425282896 -7.00000000
-4.59442949 2.14534712 -0.44362274 9 10 29503 5.09000000 2425282900 2425282900 -5.00000000
-4.11999035 1.92556202 -0.23833795 6 12 29505 4.55400000 2425282905 2425282905 -3.00000000
-10.56529045 4.94015217 2.69266415 60 13 29506 11.97000000 2425282907 2425282907 13.00000000
-4.02109861 1.88105345 -0.07748868 9 14 29507 4.44000000 2425282909 2425282909 -1.00000000
-9.03449345 4.22629881 2.67256546 45 15 29507 10.32600000 2425282912 2425282912 15.00000000
-1.82565200 0.85714144 -0.54041415 4 0 29515 2.08800000 2425282932 2425282932 -15.00000000
-4.26610518 2.00383997 0.08227064 8 1 29516 4.71400000 2425282935 2425282935 1.00000000
-2.11821198 0.99540061 -0.54033244 3 2 29517 2.40200000 2425282937 2425282937 -13.00000000
-4.20417690 1.97654331 0.24346687 5 3 29518 4.65200000 2425282939 2425282939 3.00000000
-2.49803638 1.17442179 -0.53655487 3 4 29518 2.81200000 2425282942 2425282942 -11.00000000
-3.01530027 1.41889262 -0.52780986 1 6 29520 3.37400000 2425282946 2425282946 -9.00000000
-3.78928590 1.78471839 -0.51428860 8 8 29522 4.22000000 2425282951 2425282951 -7.00000000
-4.61214542 2.17326140 -0.44606310 6 10 29523 5.11800000 2425282955 2425282955 -5.00000000
-4.11324406 1.93993175 -0.23833795 6 12 29525 4.55400000 2425282960 2425282960 -3.00000000
-10.55855560 4.98199129 2.69536352 59 13 29526 11.98200000 2425282962 2425282962 13.00000000
-4.02535820 1.90020001 -0.07769811 9 14 29527 4.45200000 2425282965 2425282965 -1.00000000
-9.01544857 4.25773335 2.67153025 49 15 29528 10.32200000 2425282967 2425282967 15.00000000
-1.83312380 0.86847162 -0.54351997 4 0 29535 2.10000000 2425282988 2425282988 -15.00000000
-2.11120296 1.00111854 -0.53943264 3 2 29537 2.39800000 2425282992 2425282992 -13.00000000
-4.21168804 1.99805510 0.24430424 6 3 29538 4.66800000 2425282995 2425282995 3.00000000
-2.49569559 1.18397593 -0.53693652 3 4 29538 2.81400000 2425282997 2425282997 -11.00000000
-3.01211357 1.43025672 -0.52812278 3 6 29540 3.37600000 2425283002 2425283002 -9.00000000
-3.76868963 1.79111779 -0.51233870 6 8 29542 4.20400000 2425283006 2425283006 -7.00000000
-4.61532736 2.19448090 -0.44710895 6 10 29543 5.13000000 2425283011 2425283011 -5.00000000
-4.10464382 1.95341957 -0.23823327 6 12 29545 4.55200000 2425283015 2425283015 -3.00000000
-10.52350616 5.01043987 2.69086456 59 13 29546 11.96200000 2425283018 2425283018 13.00000000
-4.03675413 1.92283905 -0.07804716 9 14 29547 4.47200000 2425283020 2425283020 -1.00000000
-9.00825596 4.29092932 2.67360067 47 15 29547 10.33000000 2425283022 2425283022 15.00000000
-1.82659531 0.87319875 -0.54248470 4 0 29555 2.09600000 2425283043 2425283043 -15.00000000
-4.25562000 2.03529954 0.08234046 101 1 29556 4.71800000 2425283045 2425283045 1.00000000
-2.10417986 1.00679970 -0.53853285 3 2 29557 2.39400000 2425283048 2425283048 -13.00000000
-4.21189356 2.01619387 0.24472293 4 3 29558 4.67600000 2425283050 2425283050 3.00000000
-2.48269343 1.18844199 -0.53502840 3 4 29558 2.80400000 2425283052 2425283052 -11.00000000
-3.00353980 1.43905509 -0.52749699 3 6 29560 3.37200000 2425283057 2425283057 -9.00000000
-3.75525498 1.80082870 -0.51136374 8 8 29562 4.19600000 2425283061 2425283061 -7.00000000
-4.92918587 2.36484432 -0.47831070 6 10 29563 5.48800000 2425283066 2425283066 -5.00000000
-4.10500193 1.97119379 -0.23865196 9 12 29565 4.56000000 2425283071 2425283071 -3.00000000
-10.50243950 5.04545546 2.68996477 59 13 29566 11.95800000 2425283073 2425283073 13.00000000
-4.03001738 1.93691826 -0.07804716 9 14 29567 4.47200000 2425283075 2425283075 -1.00000000
-8.99595070 4.32559204 2.67463613 47 15 29568 10.33400000 2425283078 2425283078 15.00000000
-1.82368958 0.87925112 -0.54248470 4 0 29574 2.09600000 2425283098 2425283098 -15.00000000
-2.11136007 1.01885343 -0.54123223 4 2 29576 2.40600000 2425283103 2425283103 -13.00000000
-4.24475431 2.04925323 0.24702571 4 3 29577 4.72000000 2425283105 2425283105 3.00000000
-2.47873878 1.19666839 -0.53502840 3 4 29577 2.80400000 2425283108 2425283108 -11.00000000
-3.00942278 1.45416391 -0.52937424 3 6 29579 3.38400000 2425283112 2425283112 -9.00000000
-3.75641084 1.81672883 -0.51233870 8 8 29581 4.20400000 2425283117 2425283117 -7.00000000
-5.03251266 2.43497920 -0.48911804 10 10 29582 5.61200000 2425283121 2425283121 -5.00000000
-4.12181091 1.99611247 -0.24001269 9 12 29584 4.58600000 2425283126 2425283126 -3.00000000
-10.48565006 5.08025503 2.68996477 59 13 29585 11.95800000 2425283128 2425283128 13.00000000
-4.03436899 1.95550489 -0.07825659 7 14 29586 4.48400000 2425283131 2425283131 -1.00000000
-8.96841049 4.34709120 2.67049479 47 15 29586 10.31800000 2425283133 2425283133 15.00000000
-1.82408381 0.88730174 -0.54351997 4 0 29594 2.10000000 2425283154 2425283154 -15.00000000
-2.11830330 1.03133559 -0.54393166 4 2 29596 2.41800000 2425283158 2425283158 -13.00000000
-2.48160648 1.20875227 -0.53655487 3 4 29597 2.81200000 2425283163 2425283163 -11.00000000
-2.99367499 1.45946610 -0.52749699 3 6 29599 3.37200000 2425283167 2425283167 -9.00000000
-3.75718236 1.83331215 -0.51331365 8 8 29601 4.21200000 2425283172 2425283172 -7.00000000
-5.01502991 2.44816089 -0.48824647 10 10 29602 5.60200000 2425283177 2425283177 -5.00000000
-4.14173555 2.02363992 -0.24158278 4 12 29604 4.61600000 2425283181 2425283181 -3.00000000
-10.47135448 5.11853743 2.69086456 60 13 29605 11.96200000 2425283184 2425283184 13.00000000
-4.03829670 1.97484648 -0.07846602 7 14 29606 4.49600000 2425283186 2425283186 -1.00000000
-8.94276810 4.37327814 2.66738915 47 15 29606 10.30600000 2425283188 2425283188 15.00000000
-1.81419373 0.88994253 -0.54144943 4 0 29613 2.09200000 2425283209 2425283209 -15.00000000
-4.15581179 2.03951001 0.08080464 4 1 29614 4.63000000 2425283211 2425283211 1.00000000
-2.10787463 1.03491902 -0.54213202 3 2 29615 2.41000000 2425283214 2425283214 -13.00000000
-2.47406006 1.21524382 -0.53579164 3 4 29616 2.80800000 2425283218 2425283218 -11.00000000
-2.99236417 1.47112846 -0.52812278 3 6 29618 3.37600000 2425283223 2425283223 -9.00000000
-3.75464463 1.84751415 -0.51380116 8 8 29620 4.21600000 2425283227 2425283227 -7.00000000
-5.02118444 2.47181773 -0.48964095 10 10 29621 5.61800000 2425283232 2425283232 -5.00000000
-7.63577986 3.76223683 -0.44611168 4 12 29623 8.52400000 2425283237 2425283237 -3.00000000
-10.45956707 5.15581846 2.69221425 53 13 29624 11.96800000 2425283239 2425283239 13.00000000
-4.04607344 1.99530268 -0.07874526 5 14 29625 4.51200000 2425283241 2425283241 -1.00000000
-8.93688011 4.40718174 2.66997719 47 15 29625 10.31600000 2425283243 2425283243 15.00000000
-1.82146478 0.90141094 -0.54455525 4 0 29633 2.10400000 2425283264 2425283264 -15.00000000
-4.14149857 2.05045485 0.08066502 8 1 29634 4.62200000 2425283267 2425283267 1.00000000
-2.10774183 1.04400051 -0.54303187 3 2 29635 2.41400000 2425283269 2425283269 -13.00000000
-2.48035789 1.22910273 -0.53808135 3 4 29636 2.82000000 2425283273 2425283273 -11.00000000
-3.00313783 1.48946416 -0.53093857 3 6 29638 3.39400000 2425283278 2425283278 -9.00000000
-3.74817276 1.86060905 -0.51380116 6 8 29640 4.21600000 2425283283 2425283283 -7.00000000
-5.01252556 2.48932981 -0.48964095 10 10 29641 5.61800000 2425283287 2425283287 -5.00000000
-7.56536865 3.76042008 -0.44276220 8 12 29643 8.46000000 2425283292 2425283292 -3.00000000
-9.07524586 4.51289129 2.33994079 15 13 29644 10.40200000 2425283294 2425283294 13.00000000
-4.06772995 2.02366495 -0.07930373 5 14 29645 4.54400000 2425283296 2425283296 -1.00000000
-8.91893768 4.43904638 2.66945958 47 15 29646 10.31400000 2425283299 2425283299 15.00000000
-1.81830716 0.90776354 -0.54455525 4 0 29653 2.10400000 2425283320 2425283320 -15.00000000
-4.15936184 2.07740808 0.08115369 2 1 29654 4.65000000 2425283322 2425283322 1.00000000
-2.10582781 1.05222261 -0.54348177 4 2 29655 2.41600000 2425283324 2425283324 -13.00000000
-2.46200371 1.23073065 -0.53502840 3 4 29656 2.80400000 2425283329 2425283329 -11.00000000
-2.98908734 1.49551857 -0.52937424 3 6 29658 3.38400000 2425283333 2425283333 -9.00000000
-3.74875498 1.87723672 -0.51477611 6 8 29660 4.22400000 2425283338 2425283338 -7.00000000
-5.02161932 2.51573586 -0.49138409 14 10 29661 5.63800000 2425283343 2425283343 -5.00000000
-7.56826448 3.79486227 -0.44370425 8 12 29663 8.47800000 2425283347 2425283347 -3.00000000
-10.38151360 5.20774269 2.68141651 43 13 29664 11.92000000 2425283349 2425283349 13.00000000
-4.09102440 2.05309987 -0.07989711 1 14 29665 4.57800000 2425283352 2425283352 -1.00000000
-8.91107464 4.47206450 2.67153025 47 15 29665 10.32200000 2425283354 2425283354 15.00000000
-1.81167662 0.91236722 -0.54351997 4 0 29673 2.10000000 2425283375 2425283375 -15.00000000
-2.09518147 1.05605841 -0.54168212 4 2 29675 2.40800000 2425283379 2425283379 -13.00000000
-2.45769286 1.23931706 -0.53502840 3 4 29676 2.80400000 2425283384 2425283384 -11.00000000
-2.98384881 1.50594342 -0.52937424 3 6 29678 3.38400000 2425283389 2425283389 -9.00000000
-3.75281048 1.89568102 -0.51623851 6 8 29680 4.23600000 2425283393 2425283393 -7.00000000
-5.00569391 2.52965474 -0.49068683 10 10 29681 5.63000000 2425283398 2425283398 -5.00000000
-10.19175529 5.15269232 2.21987176 21 11 29682 11.63400000 2425283400 2425283400 11.00000000
-7.56210089 3.82486320 -0.44412291 8 12 29683 8.48600000 2425283402 2425283402 -3.00000000
-8.84355736 4.47495413 2.28820205 8 13 29684 10.17200000 2425283405 2425283405 13.00000000
-8.88506794 4.49790764 2.66842437 47 15 29685 10.31000000 2425283409 2425283409 15.00000000
-1.80143154 0.91550028 -0.54144943 4 0 29694 2.09200000 2425283430 2425283430 -15.00000000
-2.10519242 1.07079852 -0.54528135 4 2 29696 2.42400000 2425283435 2425283435 -13.00000000
-2.46363235 1.25365901 -0.53731811 3 4 29697 2.81600000 2425283439 2425283439 -11.00000000
-2.99239111 1.52404153 -0.53187716 3 6 29699 3.40000000 2425283444 2425283444 -9.00000000
-3.74583745 1.90942299 -0.51623851 6 8 29701 4.23600000 2425283448 2425283448 -7.00000000
-4.99638891 2.54798460 -0.49068683 10 10 29702 5.63000000 2425283453 2425283453 -5.00000000
-10.16755581 5.18733597 2.21872711 28 11 29703 11.62800000 2425283455 2425283455 11.00000000
-7.55158949 3.85436988 -0.44433227 8 12 29704 8.49000000 2425283458 2425283458 -3.00000000
-8.76635075 4.47631931 2.27245545 15 13 29705 10.10200000 2425283460 2425283460 13.00000000
-8.86164188 4.52692747 2.66635370 47 15 29706 10.30200000 2425283465 2425283465 15.00000000
-1.80510151 0.92530787 -0.54351997 4 0 29714 2.10000000 2425283485 2425283485 -15.00000000
-2.09624004 1.07547176 -0.54393166 3 2 29716 2.41800000 2425283490 2425283490 -13.00000000
-2.46622777 1.26583695 -0.53884459 3 4 29717 2.82400000 2425283495 2425283495 -11.00000000
-2.96421075 1.52274346 -0.52780986 3 6 29719 3.37400000 2425283499 2425283499 -9.00000000
-3.73561859 1.92067146 -0.51575106 6 8 29721 4.23200000 2425283504 2425283504 -7.00000000
-4.99455118 2.56905508 -0.49138409 14 10 29722 5.63800000 2425283508 2425283508 -5.00000000
-7.56294966 3.89350510 -0.44579768 8 12 29724 8.51800000 2425283513 2425283513 -3.00000000
-8.69869900 4.48012400 2.25895858 15 13 29725 10.04200000 2425283515 2425283515 13.00000000
-8.83812141 4.55583572 2.66428328 47 15 29727 10.29400000 2425283520 2425283520 15.00000000
-1.80545557 0.93306261 -0.54455525 4 0 29733 2.10400000 2425283541 2425283541 -15.00000000
-2.08227682 1.07704544 -0.54123223 4 2 29735 2.40600000 2425283545 2425283545 -13.00000000
-2.46376014 1.27491057 -0.53922623 3 4 29736 2.82600000 2425283550 2425283550 -11.00000000
-2.96791530 1.53710699 -0.52937424 3 6 29738 3.38400000 2425283554 2425283554 -9.00000000
-3.72394156 1.93030798 -0.51501983 6 8 29740 4.22600000 2425283559 2425283559 -7.00000000
-5.00192308 2.59385824 -0.49295288 14 10 29741 5.65600000 2425283564 2425283564 -5.00000000
-7.55708742 3.92224360 -0.44621637 4 12 29743 8.52600000 2425283568 2425283568 -3.00000000
-8.62672043 4.47931099 2.24411178 14 13 29744 9.97600000 2425283571 2425283571 13.00000000
-8.82719421 4.58536005 2.66531849 47 15 29745 10.29800000 2425283575 2425283575 15.00000000
-1.80903995 0.94293082 -0.54662585 4 0 29753 2.11200000 2425283596 2425283596 -15.00000000
-2.08368778 1.08701146 -0.54258192 4 2 29755 2.41200000 2425283600 2425283600 -13.00000000
-2.45407343 1.28077793 -0.53808135 3 4 29756 2.82000000 2425283605 2425283605 -11.00000000
-2.98529339 1.55934703 -0.53344154 1 6 29758 3.41000000 2425283610 2425283610 -9.00000000
-3.71542168 1.94237554 -0.51477611 6 8 29760 4.22400000 2425283614 2425283614 -7.00000000
-5.00519657 2.61776614 -0.49417305 14 10 29761 5.67000000 2425283619 2425283619 -5.00000000
-5.04482555 2.64073539 -0.29841962 6 12 29763 5.70200000 2425283624 2425283624 -3.00000000
-8.55751610 4.48137093 2.23016477 12 13 29764 9.91400000 2425283626 2425283626 13.00000000
-5.02525759 2.63272762 -0.09902495 6 14 29765 5.67400000 2425283628 2425283628 -1.00000000
-8.81455708 4.61793804 2.66635370 47 15 29765 10.30200000 2425283630 2425283630 15.00000000
-1.79547763 0.94384640 -0.54351997 4 0 29773 2.10000000 2425283651 2425283651 -15.00000000
-5.03881454 2.64992595 0.09937400 7 1 29774 5.69400000 2425283653 2425283653 1.00000000
-2.07988071 1.09427822 -0.54258192 4 2 29775 2.41200000 2425283656 2425283656 -13.00000000
-5.01937962 2.64194202 0.29726824 7 3 29776 5.68000000 2425283658 2425283658 3.00000000
-2.44611311 1.28750753 -0.53731811 3 4 29776 2.81600000 2425283660 2425283660 -11.00000000
-5.03312540 2.65029907 0.49765930 3 5 29777 5.71000000 2425283663 2425283663 5.00000000
-2.97284126 1.56607544 -0.53219002 3 6 29778 3.40200000 2425283665 2425283665 -9.00000000
-3.72969055 1.96644282 -0.51770097 6 8 29780 4.24800000 2425283670 2425283670 -7.00000000
-4.97488117 2.62406707 -0.49208131 17 10 29781 5.64600000 2425283674 2425283674 -5.00000000
-4.99318695 2.63595104 -0.29590750 9 12 29783 5.65400000 2425283679 2425283679 -3.00000000
-10.25811100 5.41764450 2.67826724 2 13 29784 11.90600000 2425283681 2425283681 13.00000000
-4.98421192 2.63343787 -0.09839667 6 14 29785 5.63800000 2425283683 2425283683 -1.00000000
-8.78049278 4.64118624 2.66117740 26 15 29786 10.28200000 2425283686 2425283686 15.00000000
-1.79217207 0.95010805 -0.54351997 4 0 29793 2.10000000 2425283706 2425283706 -15.00000000
-4.98006916 2.64126396 0.09839667 10 1 29794 5.63800000 2425283709 2425283709 1.00000000
-2.08809829 1.10792530 -0.54573125 3 2 29795 2.42600000 2425283711 2425283711 -13.00000000
-4.98059845 2.64265847 0.29548880 6 3 29795 5.64600000 2425283713 2425283713 3.00000000
-2.45200849 1.30156112 -0.53960782 3 4 29796 2.82800000 2425283716 2425283716 -11.00000000
-4.96577454 2.63701487 0.49190700 8 5 29797 5.64400000 2425283718 2425283718 5.00000000
-2.96386766 1.57458949 -0.53156430 3 6 29798 3.39800000 2425283720 2425283720 -9.00000000
-5.00276279 2.65889621 0.69563019 7 7 29799 5.70800000 2425283723 2425283723 7.00000000
-3.72280383 1.97944987 -0.51770097 8 8 29800 4.24800000 2425283725 2425283725 -7.00000000
-4.97386599 2.64576507 0.89230222 9 9 29801 5.70400000 2425283727 2425283727 9.00000000
-4.94106531 2.62831712 -0.48964095 14 10 29801 5.61800000 2425283730 2425283730 -5.00000000
-4.97927904 2.64975953 1.09638846 8 11 29802 5.74600000 2425283732 2425283732 11.00000000
-4.96456242 2.64303994 -0.29475611 8 12 29803 5.63200000 2425283734 2425283734 -3.00000000
-4.97078943 2.64746857 1.30021715 7 13 29804 5.78000000 2425283736 2425283736 13.00000000
-4.94851685 2.63671494 -0.09787309 6 14 29805 5.60800000 2425283739 2425283739 -1.00000000
-1.79906666 0.96182299 -0.54662585 4 0 29813 2.11200000 2425283762 2425283762 -15.00000000
-4.93555260 2.63976932 0.09769857 7 1 29814 5.59800000 2425283764 2425283764 1.00000000
-2.07734537 1.11152983 -0.54393166 3 2 29815 2.41800000 2425283766 2425283766 -13.00000000
-4.93964481 2.64306712 0.29360470 6 3 29815 5.61000000 2425283769 2425283769 3.00000000
-2.43706512 1.30455315 -0.53731811 3 4 29816 2.81600000 2425283771 2425283771 -11.00000000
-4.92668056 2.63834262 0.48894373 8 5 29817 5.61000000 2425283773 2425283773 5.00000000
-2.95661187 1.58399296 -0.53125143 3 6 29818 3.39600000 2425283776 2425283776 -9.00000000
-4.93571281 2.64539719 0.68758684 7 7 29819 5.64200000 2425283778 2425283778 7.00000000
-3.72636843 1.99806118 -0.51916343 6 8 29820 4.26000000 2425283780 2425283780 -7.00000000
-4.93721008 2.64730883 0.88729626 9 9 29820 5.67200000 2425283783 2425283783 9.00000000
-4.91605902 2.63707232 -0.48807216 10 10 29821 5.60000000 2425283785 2425283785 -5.00000000
-4.92329216 2.64205933 1.08608484 8 11 29822 5.69200000 2425283787 2425283787 11.00000000
-4.93067074 2.64712739 -0.29329070 8 12 29823 5.60400000 2425283789 2425283789 -3.00000000
-4.93233204 2.64912844 1.29256880 8 13 29824 5.74600000 2425283792 2425283792 13.00000000
-4.89700651 2.63125658 -0.09703538 6 14 29825 5.56000000 2425283794 2425283794 -1.00000000
-4.92440319 2.64708495 1.49804461 6 15 29826 5.78800000 2425283796 2425283796 15.00000000
-1.79569829 0.96809709 -0.54662585 4 0 29833 2.11200000 2425283817 2425283817 -15.00000000
-4.90166759 2.64369178 0.09720990 7 1 29834 5.57000000 2425283819 2425283819 1.00000000
-2.07516766 1.11969972 -0.54438156 4 2 29835 2.42000000 2425283822 2425283822 -13.00000000
-4.88644600 2.63658333 0.29098791 6 3 29835 5.56000000 2425283824 2425283824 3.00000000
-2.44631743 1.32051265 -0.54037106 3 4 29836 2.83200000 2425283826 2425283826 -11.00000000
-4.87887287 2.63469625 0.48510885 8 5 29837 5.56600000 2425283829 2425283829 5.00000000
-2.95454073 1.59618163 -0.53187716 3 6 29838 3.40000000 2425283831 2425283831 -9.00000000
-4.89850712 2.64750814 0.68368703 7 7 29839 5.61000000 2425283833 2425283833 7.00000000
-3.71238637 2.00727987 -0.51818848 8 8 29840 4.25200000 2425283836 2425283836 -7.00000000
-4.90361261 2.65137339 0.88291609 9 9 29840 5.64400000 2425283838 2425283838 9.00000000
-4.89455652 2.64758110 -0.48685199 10 10 29841 5.58600000 2425283840 2425283840 -5.00000000
-4.89677334 2.64988494 1.08226860 8 11 29842 5.67200000 2425283842 2425283842 11.00000000
-4.87573433 2.63960004 -0.29056922 11 12 29843 5.55200000 2425283845 2425283845 -3.00000000
-4.87678909 2.64127159 1.28042138 7 13 29844 5.69200000 2425283847 2425283847 13.00000000
-4.86669350 2.63690257 -0.09661652 6 14 29845 5.53600000 2425283849 2425283849 -1.00000000
-4.87776852 2.64400482 1.48665655 6 15 29846 5.74400000 2425283852 2425283852 15.00000000
-1.79230809 0.97435933 -0.54662585 4 0 29853 2.11200000 2425283872 2425283872 -15.00000000
-4.85727549 2.64167762 0.09651181 7 1 29854 5.53000000 2425283875 2425283875 1.00000000
-2.06611133 1.12414253 -0.54303187 3 2 29855 2.41400000 2425283877 2425283877 -13.00000000
-4.84387922 2.63548779 0.28899914 6 3 29855 5.52200000 2425283879 2425283879 3.00000000
-2.43824434 1.32716668 -0.53960782 3 4 29856 2.82800000 2425283882 2425283882 -11.00000000
-4.85389853 2.64313531 0.48354006 8 5 29857 5.54800000 2425283884 2425283884 5.00000000
-2.96456313 1.61499012 -0.53469300 1 6 29858 3.41800000 2425283886 2425283886 -9.00000000
-4.85611820 2.64654207 0.67905599 7 7 29859 5.57200000 2425283888 2425283888 7.00000000
-3.70884275 2.02212667 -0.51867592 8 8 29860 4.25600000 2425283891 2425283891 -7.00000000
-4.85964060 2.64956212 0.87665874 9 9 29860 5.60400000 2425283893 2425283893 9.00000000
-4.84505558 2.64270711 -0.48284280 10 10 29861 5.54000000 2425283895 2425283895 -5.00000000
-4.84957933 2.64627290 1.07387304 8 11 29862 5.62800000 2425283898 2425283898 11.00000000
-4.83318281 2.63842058 -0.28858048 11 12 29863 5.51400000 2425283900 2425283900 -3.00000000
-4.83675385 2.64146590 1.27232313 8 13 29864 5.65600000 2425283902 2425283902 13.00000000
-4.81007814 2.62798762 -0.09567409 12 14 29865 5.48200000 2425283905 2425283905 -1.00000000
-4.83845806 2.64349318 1.47733915 6 15 29865 5.70800000 2425283907 2425283907 15.00000000
-1.78889596 0.98060971 -0.54662585 4 0 29873 2.11200000 2425283928 2425283928 -15.00000000
-4.80945063 2.63746309 0.09574390 7 1 29874 5.48600000 2425283930 2425283930 1.00000000
-2.06900883 1.13509703 -0.54483145 3 2 29875 2.42200000 2425283932 2425283932 -13.00000000
-4.79962921 2.63316679 0.28690571 6 3 29875 5.48200000 2425283935 2425283935 3.00000000
-2.42671275 1.33189118 -0.53808135 3 4 29876 2.82000000 2425283937 2425283937 -11.00000000
-4.80622053 2.63896608 0.47970521 8 5 29877 5.50400000 2425283939 2425283939 5.00000000
-2.95890760 1.62532854 -0.53469300 1 6 29878 3.41800000 2425283941 2425283941 -9.00000000
-4.82771349 2.65296078 0.67637485 10 7 29879 5.55000000 2425283944 2425283944 7.00000000
-3.70524073 2.03697324 -0.51916343 8 8 29880 4.26000000 2425283946 2425283946 -7.00000000
-4.80881739 2.64366984 0.86914986 9 9 29880 5.55600000 2425283948 2425283948 9.00000000
-4.79215670 2.63559961 -0.47848502 10 10 29881 5.49000000 2425283951 2425283951 -5.00000000
