# .PCD v0.7 - Point Cloud Data file format
VERSION 0.7
FIELDS x y z intensity laser_id azimuth distance_m adjustedtime timestamp vertical_angle
SIZE 4 4 4 1 1 2 8 8 4 8
TYPE F F F U U U F U U F
COUNT 1 1 1 1 1 1 1 1 1 1
WIDTH 532
HEIGHT 1
VIEWPOINT 0 0 0 1 0 0 0
POINTS 532
DATA ascii
8.17451859 0.60460252 2.19633842 54 15 8577 8.48600000 2425324881 2425324881 15.00000000
2.21962976 0.16144155 -0.59631908 4 0 8584 2.30400000 2425324902 2425324902 -15.00000000
8.12938690 0.58985287 0.14227201 15 1 8585 8.15200000 2425324904 2425324904 1.00000000
2.62976551 0.19034937 -0.60871756 6 2 8586 2.70600000 2425324906 2425324906 -13.00000000
8.14149761 0.58930314 0.42779410 21 3 8586 8.17400000 2425324909 2425324909 3.00000000
3.16633868 0.22863245 -0.61707628 4 4 8587 3.23400000 2425324911 2425324911 -11.00000000
8.11787796 0.58474505 0.71206242 76 5 8588 8.17000000 2425324913 2425324913 5.00000000
3.97211790 0.28542179 -0.63074374 9 6 8589 4.03200000 2425324916 2425324916 -9.00000000
8.14972973 0.58417988 1.00322843 97 7 8590 8.23200000 2425324918 2425324918 7.00000000
5.28867817 0.37816939 -0.65102601 9 8 8591 5.34200000 2425324920 2425324920 -7.00000000
6.60591841 0.47120041 -0.57941139 44 10 8592 6.64800000 2425324925 2425324925 -5.00000000
8.14629745 0.57821774 -0.42800346 17 12 8594 8.17800000 2425324929 2425324929 -3.00000000
8.12053108 0.57354003 -0.14209749 14 14 8596 8.14200000 2425324934 2425324934 -1.00000000
8.16887093 0.57552135 2.19426775 56 15 8597 8.47800000 2425324936 2425324936 15.00000000
2.22788882 0.15422627 -0.59838963 4 0 8604 2.31200000 2425324957 2425324957 -15.00000000
8.11942673 0.56064588 0.14206259 21 1 8605 8.14000000 2425324959 2425324959 1.00000000
2.62652564 0.18090081 -0.60781777 5 2 8606 2.70200000 2425324962 2425324962 -13.00000000
8.13952065 0.56060594 0.42758477 21 3 8606 8.17000000 2425324964 2425324964 3.00000000
3.15928292 0.21704024 -0.61554980 4 4 8607 3.22600000 2425324966 2425324966 -11.00000000
8.12185764 0.55654097 0.71223670 76 5 8608 8.17200000 2425324969 2425324969 5.00000000
3.96914840 0.27128538 -0.63011801 9 6 8609 4.02800000 2425324971 2425324971 -9.00000000
8.13983631 0.55491835 1.00176597 95 7 8610 8.22000000 2425324973 2425324973 7.00000000
5.28798532 0.35957149 -0.65078229 9 8 8611 5.34000000 2425324976 2425324976 -7.00000000
8.21637249 0.55869538 1.30435061 5 9 8611 8.33800000 2425324978 2425324978 9.00000000
6.62143755 0.44908231 -0.58063155 16 10 8612 6.66200000 2425324980 2425324980 -5.00000000
8.21707249 0.55586147 1.60088742 6 11 8613 8.39000000 2425324982 2425324982 11.00000000
8.13232422 0.54870272 -0.42716607 17 12 8614 8.16200000 2425324985 2425324985 -3.00000000
8.22067928 0.55322289 1.90218616 3 13 8615 8.45600000 2425324987 2425324987 13.00000000
8.12248325 0.54519063 -0.14209749 16 14 8616 8.14200000 2425324989 2425324989 -1.00000000
8.17468452 0.54726124 2.19530320 54 15 8617 8.48200000 2425324992 2425324992 15.00000000
2.23226881 0.14670192 -0.59942490 4 0 8624 2.31600000 2425325012 2425325012 -15.00000000
8.11933899 0.53216958 0.14202769 18 1 8625 8.13800000 2425325015 2425325015 1.00000000
2.61741805 0.17109586 -0.60556823 6 2 8626 2.69200000 2425325017 2425325017 -13.00000000
8.13943481 0.53206003 0.42748010 23 3 8626 8.16800000 2425325019 2425325019 3.00000000
3.16393948 0.20626640 -0.61631304 5 4 8627 3.23000000 2425325022 2425325022 -11.00000000
8.12375069 0.52818704 0.71223670 79 5 8628 8.17200000 2425325024 2425325024 5.00000000
3.97007132 0.25742880 -0.63011801 6 6 8629 4.02800000 2425325026 2425325026 -9.00000000
8.13379955 0.52598923 1.00079107 97 7 8630 8.21200000 2425325028 2425325028 7.00000000
5.27732277 0.34034422 -0.64931989 8 8 8631 5.32800000 2425325031 2425325031 -7.00000000
6.61501169 0.42545494 -0.57993430 24 10 8632 6.65400000 2425325035 2425325035 -5.00000000
8.11625099 0.51916480 -0.42622402 17 12 8634 8.14400000 2425325040 2425325040 -3.00000000
8.12832832 0.51708841 -0.14216730 14 14 8636 8.14600000 2425325045 2425325045 -1.00000000
8.18609428 0.52076328 2.19789124 54 15 8636 8.49200000 2425325047 2425325047 15.00000000
2.24433613 0.13962868 -0.60253072 4 0 8644 2.32800000 2425325068 2425325068 -15.00000000
8.12114716 0.50382459 0.14202769 18 1 8645 8.13800000 2425325070 2425325070 1.00000000
2.62188935 0.16219898 -0.60646802 6 2 8646 2.69600000 2425325072 2425325072 -13.00000000
8.13326836 0.50315160 0.42706141 21 3 8646 8.16000000 2425325075 2425325075 3.00000000
3.14896393 0.19425389 -0.61326009 4 4 8647 3.21400000 2425325077 2425325077 -11.00000000
8.13349915 0.50031590 0.71293396 79 5 8648 8.18000000 2425325079 2425325079 5.00000000
3.97094560 0.24356911 -0.63011801 9 6 8649 4.02800000 2425325081 2425325081 -9.00000000
8.13558578 0.49759376 1.00079107 95 7 8650 8.21200000 2425325084 2425325084 7.00000000
5.28838539 0.32252508 -0.65053856 9 8 8651 5.33800000 2425325086 2425325086 -7.00000000
6.60850191 0.40187791 -0.57923704 20 10 8652 6.64600000 2425325091 2425325091 -5.00000000
8.12997627 0.49155384 -0.42685205 17 12 8654 8.15600000 2425325095 2425325095 -3.00000000
8.12209988 0.48823217 -0.14202769 14 14 8656 8.13800000 2425325100 2425325100 -1.00000000
8.18794823 0.49075621 2.19789124 63 15 8657 8.49200000 2425325102 2425325102 15.00000000
2.22938156 0.13088784 -0.59838963 4 0 8664 2.31200000 2425325123 2425325123 -15.00000000
8.12884521 0.47582397 0.14213240 21 1 8665 8.14400000 2425325125 2425325125 1.00000000
2.62438512 0.15315942 -0.60691792 5 2 8666 2.69800000 2425325128 2425325128 -13.00000000
8.12907600 0.47299024 0.42674738 21 3 8667 8.15400000 2425325130 2425325130 3.00000000
3.14962268 0.18326078 -0.61326009 4 4 8667 3.21400000 2425325132 2425325132 -11.00000000
8.12326145 0.47122937 0.71188813 90 5 8668 8.16800000 2425325134 2425325134 5.00000000
3.97374368 0.22982049 -0.63043088 9 6 8669 4.03000000 2425325137 2425325137 -9.00000000
8.14718246 0.46976358 1.00200975 99 7 8670 8.22200000 2425325139 2425325139 7.00000000
5.27560616 0.30326572 -0.64883238 8 8 8671 5.32400000 2425325141 2425325141 -7.00000000
8.22571659 0.47285143 1.30497634 5 9 8671 8.34200000 2425325144 2425325144 9.00000000
6.63771200 0.38040340 -0.58167744 48 10 8672 6.67400000 2425325146 2425325146 -5.00000000
8.12366581 0.46271762 -0.42643338 17 12 8674 8.14800000 2425325151 2425325151 -3.00000000
8.11177540 0.45919967 -0.14181826 16 14 8676 8.12600000 2425325155 2425325155 -1.00000000
8.18181515 0.46316457 2.19582081 54 15 8676 8.48400000 2425325158 2425325158 15.00000000
2.22596717 0.12289207 -0.59735435 4 0 8684 2.30800000 2425325178 2425325178 -15.00000000
8.13045692 0.44744611 0.14213240 15 1 8685 8.14400000 2425325181 2425325181 1.00000000
2.62295794 0.14389093 -0.60646802 6 2 8686 2.69600000 2425325183 2425325183 -13.00000000
8.13267231 0.44472066 0.42685205 15 3 8687 8.15600000 2425325185 2425325185 3.00000000
3.16200519 0.17290860 -0.61554980 4 4 8687 3.22600000 2425325187 2425325187 -11.00000000
8.11491013 0.44232881 0.71101654 76 5 8688 8.15800000 2425325190 2425325190 5.00000000
3.97057676 0.21573380 -0.62980515 9 6 8689 4.02600000 2425325192 2425325192 -9.00000000
8.14282608 0.44099969 1.00127852 92 7 8690 8.21600000 2425325194 2425325194 7.00000000
5.28059721 0.28506258 -0.64931989 6 8 8691 5.32800000 2425325197 2425325197 -7.00000000
8.21358681 0.44195652 1.30278623 7 9 8692 8.32800000 2425325199 2425325199 9.00000000
6.61512518 0.35594654 -0.57958567 56 10 8692 6.65000000 2425325201 2425325201 -5.00000000
8.12922096 0.43457115 -0.42664272 17 12 8694 8.15200000 2425325206 2425325206 -3.00000000
8.11732292 0.43109357 -0.14188807 16 14 8696 8.13000000 2425325211 2425325211 -1.00000000
8.17188358 0.43256092 2.19271493 51 15 8697 8.47200000 2425325213 2425325213 15.00000000
2.22443318 0.11540972 -0.59683675 4 0 8703 2.30600000 2425325234 2425325234 -15.00000000
8.11591911 0.41965598 0.14185315 21 1 8704 8.12800000 2425325236 2425325236 1.00000000
2.61952829 0.13499151 -0.60556823 6 2 8705 2.69200000 2425325238 2425325238 -13.00000000
8.13609695 0.41785175 0.42695674 15 3 8706 8.15800000 2425325240 2425325240 3.00000000
3.15079713 0.16181789 -0.61326009 4 4 8706 3.21400000 2425325243 2425325243 -11.00000000
8.11434269 0.41531453 0.71084225 79 5 8707 8.15600000 2425325245 2425325245 5.00000000
3.97127032 0.20256570 -0.62980515 9 6 8708 4.02600000 2425325247 2425325247 -9.00000000
8.13631344 0.41359156 1.00030363 97 7 8709 8.20800000 2425325250 2425325250 7.00000000
5.28349590 0.26765037 -0.64956361 6 8 8710 5.33000000 2425325252 2425325252 -7.00000000
8.22677135 0.41675028 1.30466342 10 9 8710 8.34000000 2425325254 2425325254 9.00000000
6.60631990 0.33350578 -0.57871413 68 10 8711 6.64000000 2425325257 2425325257 -5.00000000
8.12862206 0.40751129 -0.42653805 21 12 8713 8.15000000 2425325261 2425325261 -3.00000000
8.11271572 0.40387493 -0.14178336 16 14 8715 8.12400000 2425325266 2425325266 -1.00000000
8.18091965 0.40727031 2.19478559 56 15 8715 8.48000000 2425325268 2425325268 15.00000000
2.23447037 0.10811110 -0.59942490 4 0 8723 2.31600000 2425325289 2425325289 -15.00000000
8.11334038 0.39113101 0.14178336 15 1 8724 8.12400000 2425325291 2425325291 1.00000000
2.61219764 0.12547284 -0.60376865 6 2 8725 2.68400000 2425325293 2425325293 -13.00000000
8.13750553 0.38944891 0.42695674 21 3 8726 8.15800000 2425325296 2425325296 3.00000000
3.15134287 0.15081857 -0.61326009 5 4 8726 3.21400000 2425325298 2425325298 -11.00000000
8.12370300 0.38736725 0.71153951 79 5 8727 8.16400000 2425325300 2425325300 5.00000000
3.97589970 0.18888962 -0.63043088 9 6 8728 4.03000000 2425325303 2425325303 -9.00000000
8.12581062 0.38462487 0.99884117 95 7 8729 8.19600000 2425325305 2425325305 7.00000000
5.28638124 0.24929941 -0.64980733 6 8 8730 5.33200000 2425325307 2425325307 -7.00000000
8.22824383 0.38659486 1.30466342 7 9 8731 8.34000000 2425325310 2425325310 9.00000000
6.62137508 0.31109792 -0.57993430 76 10 8731 6.65400000 2425325312 2425325312 -5.00000000
8.12001991 0.37866944 -0.42601469 17 12 8733 8.14000000 2425325316 2425325316 -3.00000000
8.12006855 0.37583116 -0.14188807 16 14 8735 8.13000000 2425325321 2425325321 -1.00000000
8.18235779 0.37728301 2.19478559 54 15 8736 8.48000000 2425325323 2425325323 15.00000000
2.24064136 0.10017949 -0.60097784 4 0 8744 2.32200000 2425325344 2425325344 -15.00000000
8.12670517 0.36192530 0.14199278 21 1 8745 8.13600000 2425325346 2425325346 1.00000000
2.61848044 0.11615691 -0.60511833 6 2 8746 2.69000000 2425325349 2425325349 -13.00000000
8.12690639 0.35909185 0.42632869 10 3 8747 8.14600000 2425325351 2425325351 3.00000000
3.14991307 0.13918065 -0.61287850 5 4 8747 3.21200000 2425325353 2425325353 -11.00000000
8.12307835 0.35750219 0.71136516 83 5 8748 8.16200000 2425325356 2425325356 5.00000000
3.96472430 0.17379691 -0.62855369 9 6 8749 4.01800000 2425325358 2425325358 -9.00000000
8.13509846 0.35518607 0.99981612 97 7 8750 8.20400000 2425325360 2425325360 7.00000000
5.26742697 0.22905974 -0.64736998 6 8 8751 5.31200000 2425325363 2425325363 -7.00000000
8.21967602 0.35744146 1.30309904 10 9 8751 8.33000000 2425325365 2425325365 9.00000000
6.61450911 0.28648242 -0.57923704 64 10 8752 6.64600000 2425325367 2425325367 -5.00000000
8.11935806 0.34881979 -0.42591003 21 12 8754 8.13800000 2425325372 2425325372 -3.00000000
8.11340046 0.34572655 -0.14174844 18 14 8756 8.12200000 2425325376 2425325376 -1.00000000
8.18748474 0.34888345 2.19582081 56 15 8756 8.48400000 2425325379 2425325379 15.00000000
2.22939610 0.09188028 -0.59787202 4 0 8764 2.31000000 2425325399 2425325399 -15.00000000
8.13191509 0.33371961 0.14206259 21 1 8765 8.14000000 2425325402 2425325402 1.00000000
2.62081695 0.10709556 -0.60556823 6 2 8766 2.69200000 2425325404 2425325404 -13.00000000
8.12611485 0.33064029 0.42622402 13 3 8767 8.14400000 2425325406 2425325406 3.00000000
3.14253330 0.12786528 -0.61135203 5 4 8767 3.20400000 2425325409 2425325409 -11.00000000
8.12029457 0.32898387 0.71101654 83 5 8768 8.15800000 2425325411 2425325411 5.00000000
3.96925426 0.16011561 -0.62917942 9 6 8769 4.02200000 2425325413 2425325413 -9.00000000
8.14025593 0.32694644 1.00030363 97 7 8770 8.20800000 2425325416 2425325416 7.00000000
5.26819468 0.21067160 -0.64736998 6 8 8771 5.31200000 2425325418 2425325418 -7.00000000
8.20711422 0.32676235 1.30090904 10 9 8772 8.31600000 2425325420 2425325420 9.00000000
6.59954214 0.26275763 -0.57784259 48 10 8772 6.63000000 2425325422 2425325422 -5.00000000
8.12052631 0.32047582 -0.42591003 25 12 8774 8.13800000 2425325427 2425325427 -3.00000000
8.11455727 0.31740341 -0.14174844 18 14 8776 8.12200000 2425325432 2425325432 -1.00000000
8.17712593 0.31842145 2.19271493 51 15 8777 8.47200000 2425325434 2425325434 15.00000000
2.22196674 0.08419424 -0.59580141 4 0 8783 2.30200000 2425325455 2425325455 -15.00000000
8.12098789 0.30629915 0.14185315 15 1 8784 8.12800000 2425325457 2425325457 1.00000000
2.62310505 0.09847714 -0.60601813 6 2 8785 2.69400000 2425325459 2425325459 -13.00000000
8.12517071 0.30361670 0.42611936 13 3 8786 8.14200000 2425325462 2425325462 3.00000000
3.15471125 0.11788344 -0.61364174 5 4 8786 3.21600000 2425325464 2425325464 -11.00000000
8.10740376 0.30153582 0.70979637 76 5 8787 8.14400000 2425325466 2425325466 5.00000000
3.96976352 0.14695221 -0.62917942 9 6 8788 4.02200000 2425325469 2425325469 -9.00000000
8.14129543 0.29995057 1.00030363 95 7 8789 8.20800000 2425325471 2425325471 7.00000000
5.28275061 0.19370967 -0.64907610 4 8 8790 5.32600000 2425325473 2425325473 -7.00000000
8.20415211 0.30083260 1.30028331 10 9 8790 8.31200000 2425325475 2425325475 9.00000000
6.60635042 0.24108930 -0.57836550 44 10 8791 6.63600000 2425325478 2425325478 -5.00000000
8.12753201 0.29376185 -0.42622402 21 12 8793 8.14400000 2425325482 2425325482 -3.00000000
8.10757160 0.29020670 -0.14160882 18 14 8795 8.11400000 2425325487 2425325487 -1.00000000
8.16843319 0.29238519 2.19012666 58 15 8795 8.46200000 2425325489 2425325489 15.00000000
2.22610855 0.07657044 -0.59683675 4 0 8803 2.30600000 2425325510 2425325510 -15.00000000
8.11001587 0.27753937 0.14164373 18 1 8804 8.11600000 2425325512 2425325512 1.00000000
2.62732816 0.08945282 -0.60691792 5 2 8805 2.69800000 2425325515 2425325515 -13.00000000
8.14214993 0.27579361 0.42695674 13 3 8806 8.15800000 2425325517 2425325517 3.00000000
3.14333081 0.10647195 -0.61135203 5 4 8806 3.20400000 2425325519 2425325519 -11.00000000
8.10840702 0.27323386 0.70979637 79 5 8807 8.14400000 2425325522 2425325522 5.00000000
3.95050955 0.13243242 -0.62605071 6 6 8808 4.00200000 2425325524 2425325524 -9.00000000
8.13435650 0.27126569 0.99932861 92 7 8809 8.20000000 2425325526 2425325526 7.00000000
5.27545834 0.17500499 -0.64810115 4 8 8810 5.31800000 2425325528 2425325528 -7.00000000
8.21704483 0.27115175 1.30216050 10 9 8811 8.32400000 2425325531 2425325531 9.00000000
6.60316896 0.21789594 -0.57801688 44 10 8811 6.63200000 2425325533 2425325533 -5.00000000
8.12251949 0.26519415 -0.42591003 21 12 8813 8.13800000 2425325538 2425325538 -3.00000000
8.11053467 0.26196876 -0.14164373 20 14 8815 8.11600000 2425325542 2425325542 -1.00000000
8.17717361 0.26269254 2.19219732 49 15 8816 8.47000000 2425325545 2425325545 15.00000000
2.22829318 0.06885907 -0.59735435 4 0 8823 2.30800000 2425325565 2425325565 -15.00000000
8.11293411 0.24928987 0.14167863 18 1 8824 8.11800000 2425325568 2425325568 1.00000000
2.61788511 0.07998363 -0.60466844 6 2 8825 2.68800000 2425325570 2425325570 -13.00000000
8.12310028 0.24676408 0.42591003 13 3 8826 8.13800000 2425325572 2425325572 3.00000000
3.15545750 0.09585670 -0.61364174 5 4 8826 3.21600000 2425325575 2425325575 -11.00000000
8.12126064 0.24528947 0.71084225 79 5 8827 8.15600000 2425325577 2425325577 5.00000000
3.96674371 0.11911609 -0.62855369 6 6 8828 4.01800000 2425325579 2425325579 -9.00000000
8.12731743 0.24263288 0.99835366 92 7 8829 8.19200000 2425325581 2425325581 7.00000000
5.27405310 0.15653025 -0.64785743 6 8 8830 5.31600000 2425325584 2425325584 -7.00000000
8.20605183 0.24354994 1.30028331 10 9 8830 8.31200000 2425325586 2425325586 9.00000000
6.60189772 0.19478650 -0.57784259 16 10 8831 6.63000000 2425325588 2425325588 -5.00000000
8.10343075 0.23625761 -0.42486328 17 12 8833 8.11800000 2425325593 2425325593 -3.00000000
8.10540295 0.23348339 -0.14153902 20 14 8835 8.11000000 2425325598 2425325598 -1.00000000
8.17799950 0.23557460 2.19219732 49 15 8835 8.47000000 2425325600 2425325600 15.00000000
2.23817563 0.06134510 -0.59994256 4 0 8843 2.31800000 2425325621 2425325621 -15.00000000
8.11775303 0.22107780 0.14174844 18 1 8844 8.12200000 2425325623 2425325623 1.00000000
2.62009645 0.07089773 -0.60511833 6 2 8845 2.69000000 2425325625 2425325625 -13.00000000
8.12191486 0.21835400 0.42580533 15 3 8846 8.13600000 2425325628 2425325628 3.00000000
3.15184760 0.08473599 -0.61287850 5 4 8846 3.21200000 2425325630 2425325630 -11.00000000
8.13003445 0.21715228 0.71153951 76 5 8847 8.16400000 2425325632 2425325632 5.00000000
3.96713543 0.10526885 -0.62855369 6 6 8848 4.01800000 2425325634 2425325634 -9.00000000
8.12811470 0.21426177 0.99835366 90 7 8849 8.19200000 2425325637 2425325637 7.00000000
5.25472307 0.13759977 -0.64542001 6 8 8850 5.29600000 2425325639 2425325639 -7.00000000
8.21672535 0.21516253 1.30184758 10 9 8850 8.32200000 2425325641 2425325641 9.00000000
6.61050463 0.17194761 -0.57853985 16 10 8851 6.63800000 2425325644 2425325644 -5.00000000
8.11418915 0.20822610 -0.42538664 17 12 8853 8.12800000 2425325648 2425325648 -3.00000000
8.10017109 0.20503703 -0.14143430 18 14 8855 8.10400000 2425325653 2425325653 -1.00000000
8.18456554 0.20717327 2.19375014 51 15 8855 8.47600000 2425325655 2425325655 15.00000000
2.23065090 0.05334728 -0.59787202 4 0 8863 2.31000000 2425325676 2425325676 -15.00000000
8.12447262 0.19288260 0.14185315 15 1 8864 8.12800000 2425325678 2425325678 1.00000000
2.62422442 0.06184328 -0.60601813 6 2 8865 2.69400000 2425325681 2425325681 -13.00000000
8.12662125 0.19009531 0.42601469 15 3 8866 8.14000000 2425325683 2425325683 3.00000000
3.14427328 0.07354983 -0.61135203 5 4 8866 3.20400000 2425325685 2425325685 -11.00000000
8.11679935 0.18844813 0.71031928 76 5 8867 8.15000000 2425325687 2425325687 5.00000000
3.96747851 0.09142032 -0.62855369 6 6 8868 4.01800000 2425325690 2425325690 -9.00000000
8.13476658 0.18602420 0.99908489 90 7 8869 8.19800000 2425325692 2425325692 7.00000000
5.27104807 0.11961681 -0.64736998 6 8 8870 5.31200000 2425325694 2425325694 -7.00000000
8.20561028 0.18477845 1.29997039 10 9 8871 8.31000000 2425325697 2425325697 9.00000000
6.61903191 0.14905103 -0.57923704 48 10 8871 6.64600000 2425325699 2425325699 -5.00000000
8.10887623 0.17976822 -0.42507264 25 12 8873 8.12200000 2425325704 2425325704 -3.00000000
8.11083317 0.17697902 -0.14160882 18 14 8875 8.11400000 2425325708 2425325708 -1.00000000
8.17558193 0.17839183 2.19116211 49 15 8875 8.46600000 2425325710 2425325710 15.00000000
2.21923470 0.04532386 -0.59476614 4 0 8883 2.29800000 2425325731 2425325731 -15.00000000
8.11310101 0.16427882 0.14164373 18 1 8884 8.11600000 2425325734 2425325734 1.00000000
2.62832093 0.05276087 -0.60691792 5 2 8885 2.69800000 2425325736 2425325736 -13.00000000
8.13522243 0.16188589 0.42643338 13 3 8886 8.14800000 2425325738 2425325738 3.00000000
3.14843678 0.06265194 -0.61211526 5 4 8886 3.20800000 2425325740 2425325740 -11.00000000
8.11342430 0.16003549 0.70997065 76 5 8887 8.14600000 2425325743 2425325743 5.00000000
3.96777368 0.07757068 -0.62855369 9 6 8888 4.01800000 2425325745 2425325745 -9.00000000
8.14132023 0.15774280 0.99981612 95 7 8889 8.20400000 2425325747 2425325747 7.00000000
5.27540302 0.10129291 -0.64785743 6 8 8890 5.31600000 2425325750 2425325750 -7.00000000
8.21607971 0.15632230 1.30153477 10 9 8891 8.32000000 2425325752 2425325752 9.00000000
6.60158348 0.12560427 -0.57766825 84 10 8891 6.62800000 2425325754 2425325754 -5.00000000
8.13142109 0.15187213 -0.42622402 17 12 8893 8.14400000 2425325759 2425325759 -3.00000000
8.10740280 0.14859256 -0.14153902 18 14 8895 8.11000000 2425325763 2425325763 -1.00000000
8.17424965 0.14839056 2.19064450 51 15 8896 8.46400000 2425325766 2425325766 15.00000000
2.22710586 0.03770782 -0.59683675 4 0 8903 2.30600000 2425325787 2425325787 -15.00000000
8.10962582 0.13589081 0.14157392 18 1 8904 8.11200000 2425325789 2425325789 1.00000000
2.61874676 0.04342445 -0.60466844 6 2 8905 2.68800000 2425325791 2425325791 -13.00000000
8.12974739 0.13338938 0.42611936 15 3 8906 8.14200000 2425325793 2425325793 3.00000000
3.15648818 0.05179029 -0.61364174 5 4 8906 3.21600000 2425325796 2425325796 -11.00000000
8.10795689 0.13161635 0.70944774 76 5 8907 8.14000000 2425325798 2425325798 5.00000000
3.96011972 0.06359322 -0.62730223 9 6 8908 4.01000000 2425325800 2425325800 -9.00000000
8.12395763 0.12903959 0.99762243 87 7 8909 8.18600000 2425325803 2425325803 7.00000000
5.27572441 0.08287770 -0.64785743 6 8 8910 5.31600000 2425325805 2425325805 -7.00000000
8.21657562 0.12764187 1.30153477 10 9 8911 8.32000000 2425325807 2425325807 9.00000000
6.60397387 0.10259062 -0.57784259 100 10 8911 6.63000000 2425325810 2425325810 -5.00000000
8.11792183 0.12327497 -0.42549133 17 12 8913 8.13000000 2425325814 2425325814 -3.00000000
8.10987186 0.12032120 -0.14157392 20 14 8915 8.11200000 2425325819 2425325819 -1.00000000
8.17469692 0.12128296 2.19064450 56 15 8915 8.46400000 2425325821 2425325821 15.00000000
2.23108721 0.02998547 -0.59787202 4 0 8923 2.31000000 2425325842 2425325842 -15.00000000
8.11404991 0.10763515 0.14164373 15 1 8924 8.11600000 2425325844 2425325844 1.00000000
2.61498523 0.03423203 -0.60376865 6 2 8925 2.68400000 2425325846 2425325846 -13.00000000
8.12417221 0.10493307 0.42580533 13 3 8926 8.13600000 2425325849 2425325849 3.00000000
3.15272355 0.04072107 -0.61287850 5 4 8926 3.21200000 2425325851 2425325851 -11.00000000
8.11035919 0.10333889 0.70962209 76 5 8927 8.14200000 2425325853 2425325853 5.00000000
3.95439196 0.04969497 -0.62636358 6 6 8928 4.00400000 2425325856 2425325856 -9.00000000
8.12237358 0.10065629 0.99737871 90 7 8929 8.18400000 2425325858 2425325858 7.00000000
5.26804161 0.06436448 -0.64688247 8 8 8930 5.30800000 2425325860 2425325860 -7.00000000
8.22487164 0.09905504 1.30278623 10 9 8931 8.32800000 2425325863 2425325863 9.00000000
6.61026859 0.07960980 -0.57836550 40 10 8931 6.63600000 2425325865 2425325865 -5.00000000
8.09433746 0.09465712 -0.42423525 17 12 8933 8.10600000 2425325869 2425325869 -3.00000000
8.11224174 0.09203441 -0.14160882 20 14 8935 8.11400000 2425325874 2425325874 -1.00000000
8.17893314 0.09279104 2.19167972 54 15 8935 8.46800000 2425325876 2425325876 15.00000000
2.23890138 0.02266497 -0.59994256 4 0 8942 2.31800000 2425325897 2425325897 -15.00000000
8.11836147 0.08076718 0.14171354 15 1 8943 8.12000000 2425325899 2425325899 1.00000000
2.62093019 0.02561738 -0.60511833 7 2 8944 2.69000000 2425325902 2425325902 -13.00000000
8.11048126 0.07927310 0.42507264 15 3 8944 8.12200000 2425325904 2425325904 3.00000000
3.14106226 0.03015296 -0.61058879 5 4 8945 3.20000000 2425325906 2425325906 -11.00000000
8.11464119 0.07648096 0.70997065 76 5 8946 8.14600000 2425325909 2425325909 5.00000000
3.94663382 0.03650837 -0.62511212 2 6 8947 3.99600000 2425325911 2425325911 -9.00000000
8.12861824 0.07377502 0.99810994 90 7 8948 8.19000000 2425325913 2425325913 7.00000000
5.24440622 0.04668263 -0.64395761 8 8 8949 5.28400000 2425325915 2425325915 -7.00000000
8.21131516 0.07309232 1.30059612 10 9 8949 8.31400000 2425325918 2425325918 9.00000000
6.60451937 0.05763677 -0.57784259 24 10 8950 6.63000000 2425325920 2425325920 -5.00000000
8.10858727 0.06793193 -0.42496797 21 12 8952 8.12000000 2425325925 2425325925 -3.00000000
8.10450459 0.06506853 -0.14146921 18 14 8954 8.10600000 2425325929 2425325929 -1.00000000
8.18885517 0.06574576 2.19426775 49 15 8954 8.47800000 2425325932 2425325932 15.00000000
2.23123956 0.01479836 -0.59787202 4 0 8962 2.31000000 2425325952 2425325952 -15.00000000
8.12659264 0.05247997 0.14185315 15 1 8963 8.12800000 2425325955 2425325955 1.00000000
2.62490106 0.01649296 -0.60601813 7 2 8964 2.69400000 2425325957 2425325957 -13.00000000
8.12070370 0.04960717 0.42559600 13 3 8965 8.13200000 2425325959 2425325959 3.00000000
3.13329554 0.01914045 -0.60906231 5 4 8965 3.19200000 2425325962 2425325962 -11.00000000
8.10688972 0.04810782 0.70927346 76 5 8966 8.13800000 2425325964 2425325964 5.00000000
3.95661378 0.02278871 -0.62667644 2 6 8967 4.00600000 2425325966 2425325966 -9.00000000
8.13081169 0.04541149 0.99835366 92 7 8968 8.19200000 2425325968 2425325968 7.00000000
5.25247717 0.02841892 -0.64493257 8 8 8969 5.29200000 2425325971 2425325971 -7.00000000
8.20165157 0.04294414 1.29903185 10 9 8970 8.30400000 2425325973 2425325973 9.00000000
6.60069561 0.03456148 -0.57749397 20 10 8970 6.62600000 2425325975 2425325975 -5.00000000
8.11077213 0.03963703 -0.42507264 25 12 8972 8.12200000 2425325980 2425325980 -3.00000000
8.09668350 0.03674183 -0.14132959 18 14 8974 8.09800000 2425325985 2425325985 -1.00000000
8.17358685 0.03566423 2.19012666 47 15 8975 8.46200000 2425325987 2425325987 15.00000000
2.22355032 0.00698551 -0.59580141 4 0 8982 2.30200000 2425326008 2425326008 -15.00000000
8.11072922 0.02406509 0.14157392 18 1 8983 8.11200000 2425326010 2425326010 1.00000000
2.62884021 0.00734113 -0.60691792 7 2 8984 2.69800000 2425326012 2425326012 -13.00000000
8.12881279 0.02269999 0.42601469 13 3 8984 8.14000000 2425326015 2425326015 3.00000000
3.13726974 0.00821337 -0.60982555 5 4 8985 3.19600000 2425326017 2425326017 -11.00000000
8.10302353 0.01979946 0.70892483 76 5 8986 8.13400000 2425326019 2425326019 5.00000000
3.94086623 0.00894156 -0.62417352 2 6 8987 3.99000000 2425326021 2425326021 -9.00000000
8.13489056 0.01703770 0.99884117 92 7 8988 8.19600000 2425326024 2425326024 7.00000000
5.25254440 0.01008417 -0.64493257 6 8 8989 5.29200000 2425326026 2425326026 -7.00000000
8.20965290 0.01432856 1.30028331 10 9 8990 8.31200000 2425326028 2425326028 9.00000000
6.59081411 0.01150315 -0.57662237 12 10 8990 6.61600000 2425326031 2425326031 -5.00000000
8.11285877 0.01132770 -0.42517731 21 12 8992 8.12400000 2425326035 2425326035 -3.00000000
8.10076141 0.00848310 -0.14139940 18 14 8994 8.10200000 2425326040 2425326040 -1.00000000
8.16593266 0.00855135 2.18805623 47 15 8994 8.45400000 2425326042 2425326042 15.00000000
-1.95696521 0.00136622 -0.52436739 5 0 27004 2.02600000 2425375995 2425375995 -15.00000000
-2.24494743 0.00235090 -0.51828724 4 2 27006 2.30400000 2425376000 2425376000 -13.00000000
-2.60916305 0.00318770 -0.50717032 3 4 27007 2.65800000 2425376005 2425376005 -11.00000000
-3.15664816 0.00495846 -0.49996457 3 6 27009 3.19600000 2425376009 2425376009 -9.00000000
-3.92452025 0.00753455 -0.48187140 3 8 27011 3.95400000 2425376014 2425376014 -7.00000000
-5.18219328 0.01085358 -0.45338416 6 10 27012 5.20200000 2425376018 2425376018 -5.00000000
-7.65746832 0.01871076 -0.40131211 16 12 27014 7.66800000 2425376023 2425376023 -3.00000000
-10.17695522 0.02841949 2.72691751 47 15 27016 10.53600000 2425376030 2425376030 15.00000000
-1.94149387 0.00813256 -0.52022630 5 0 27024 2.01000000 2425376051 2425376051 -15.00000000
-2.23907924 0.01016069 -0.51693749 4 2 27026 2.29800000 2425376055 2425376055 -13.00000000
-2.61109924 0.01230461 -0.50755191 3 4 27027 2.66000000 2425376060 2425376060 -11.00000000
-3.15266085 0.01595719 -0.49933881 3 6 27029 3.19200000 2425376064 2425376064 -9.00000000
-3.95623112 0.02140548 -0.48577121 3 8 27031 3.98600000 2425376069 2425376069 -7.00000000
-5.17415476 0.02889823 -0.45268694 6 10 27032 5.19400000 2425376074 2425376074 -5.00000000
-7.64737034 0.04538094 -0.40078875 16 12 27034 7.65800000 2425376078 2425376078 -3.00000000
-10.16713428 0.06388283 2.72432923 45 15 27036 10.52600000 2425376085 2425376085 15.00000000
-1.94724905 0.01495409 -0.52177918 4 0 27044 2.01600000 2425376106 2425376106 -15.00000000
-2.23708153 0.01796083 -0.51648760 4 2 27046 2.29600000 2425376111 2425376111 -13.00000000
-2.62478280 0.02153170 -0.51022327 3 4 27047 2.67400000 2425376115 2425376115 -11.00000000
-3.14863539 0.02692814 -0.49871308 3 6 27049 3.18800000 2425376120 2425376120 -9.00000000
-3.94620705 0.03512682 -0.48455250 5 8 27051 3.97600000 2425376124 2425376124 -7.00000000
-5.18199158 0.04703155 -0.45338416 6 10 27052 5.20200000 2425376129 2425376129 -5.00000000
-7.64916229 0.07209379 -0.40089342 16 12 27054 7.66000000 2425376134 2425376134 -3.00000000
-10.15719128 0.09927796 2.72174096 42 15 27056 10.51600000 2425376140 2425376140 15.00000000
-1.94911671 0.02177275 -0.52229685 5 0 27064 2.01800000 2425376161 2425376161 -15.00000000
-2.23115945 0.02570225 -0.51513791 4 2 27066 2.29000000 2425376166 2425376166 -13.00000000
-2.61683917 0.03060194 -0.50869679 3 4 27067 2.66600000 2425376170 2425376170 -11.00000000
-3.16037345 0.03806150 -0.50059026 3 6 27069 3.20000000 2425376175 2425376175 -9.00000000
-3.93812084 0.04880305 -0.48357755 5 8 27071 3.96800000 2425376180 2425376180 -7.00000000
-5.18578005 0.06516986 -0.45373279 6 10 27072 5.20600000 2425376184 2425376184 -5.00000000
-7.63488483 0.09861335 -0.40016073 16 12 27074 7.64600000 2425376189 2425376189 -3.00000000
-10.15675831 0.13650526 2.72174096 42 15 27077 10.51600000 2425376196 2425376196 15.00000000
-1.95289218 0.02863295 -0.52333212 5 0 27084 2.02200000 2425376217 2425376217 -15.00000000
-2.23690176 0.03357804 -0.51648760 4 2 27086 2.29600000 2425376221 2425376221 -13.00000000
-2.60886431 0.03961699 -0.50717032 3 4 27087 2.65800000 2425376226 2425376226 -11.00000000
-3.14442039 0.04884756 -0.49808735 3 6 27089 3.18400000 2425376230 2425376230 -9.00000000
-3.94189620 0.06261241 -0.48406503 5 8 27091 3.97200000 2425376235 2425376235 -7.00000000
-5.18552113 0.08327122 -0.45373279 9 10 27092 5.20600000 2425376240 2425376240 -5.00000000
-7.65046978 0.12552559 -0.40099809 12 12 27094 7.66200000 2425376244 2425376244 -3.00000000
-10.15045547 0.17008843 2.72018814 45 15 27096 10.51000000 2425376251 2425376251 15.00000000
-1.95278025 0.03544964 -0.52333212 5 0 27104 2.02200000 2425376272 2425376272 -15.00000000
-2.24456453 0.04153028 -0.51828724 4 2 27106 2.30400000 2425376276 2425376276 -13.00000000
-2.60478425 0.04865006 -0.50640708 3 4 27107 2.65400000 2425376281 2425376281 -11.00000000
-3.16003084 0.06012396 -0.50059026 3 6 27109 3.20000000 2425376286 2425376286 -9.00000000
-3.92974520 0.07614109 -0.48260260 7 8 27111 3.96000000 2425376290 2425376290 -7.00000000
-5.16527891 0.10098211 -0.45198968 9 10 27112 5.18600000 2425376295 2425376295 -5.00000000
-7.63201332 0.15187232 -0.40005606 12 12 27114 7.64400000 2425376299 2425376299 -3.00000000
-10.14593697 0.20544088 2.71915293 42 15 27116 10.50600000 2425376306 2425376306 15.00000000
-1.95070589 0.04256455 -0.52281445 4 0 27125 2.02000000 2425376327 2425376327 -15.00000000
-2.25024199 0.04988632 -0.51963693 4 2 27127 2.31000000 2425376332 2425376332 -13.00000000
-2.61243939 0.05837217 -0.50793356 3 4 27128 2.66200000 2425376336 2425376336 -11.00000000
-3.15188980 0.07152639 -0.49933881 3 6 27130 3.19200000 2425376341 2425376341 -9.00000000
-3.95325446 0.09109256 -0.48552746 7 8 27132 3.98400000 2425376345 2425376345 -7.00000000
-5.17284107 0.12009811 -0.45268694 9 10 27133 5.19400000 2425376350 2425376350 -5.00000000
-7.64737892 0.18022047 -0.40089342 12 12 27135 7.66000000 2425376355 2425376355 -3.00000000
-10.13352776 0.24234909 2.71604705 42 15 27137 10.49400000 2425376362 2425376362 15.00000000
-1.94668293 0.04927576 -0.52177918 4 0 27145 2.01600000 2425376382 2425376382 -15.00000000
-2.24420977 0.05759085 -0.51828724 4 2 27147 2.30400000 2425376387 2425376387 -13.00000000
-2.62007022 0.06769376 -0.50946003 3 4 27148 2.67000000 2425376392 2425376392 -11.00000000
-3.14372206 0.08232126 -0.49808735 3 6 27150 3.18400000 2425376396 2425376396 -9.00000000
-3.96481872 0.10520738 -0.48698989 7 8 27152 3.99600000 2425376401 2425376401 -7.00000000
-5.18035746 0.13836676 -0.45338416 9 10 27153 5.20200000 2425376405 2425376405 -5.00000000
-7.64670324 0.20691371 -0.40089342 12 12 27155 7.66000000 2425376410 2425376410 -3.00000000
-10.14802074 0.27991483 2.72018814 42 15 27158 10.51000000 2425376417 2425376417 15.00000000
-1.95423305 0.05595208 -0.52384973 5 0 27164 2.02400000 2425376438 2425376438 -15.00000000
-2.22452736 0.06446808 -0.51378822 4 2 27166 2.28400000 2425376442 2425376442 -13.00000000
-2.62375617 0.07649628 -0.51022327 3 4 27167 2.67400000 2425376447 2425376447 -11.00000000
-3.15132976 0.09297879 -0.49933881 3 6 27169 3.19200000 2425376451 2425376451 -9.00000000
-3.94460607 0.11776225 -0.48455250 7 8 27171 3.97600000 2425376456 2425376456 -7.00000000
-5.19978476 0.15614270 -0.45512730 9 10 27172 5.22200000 2425376461 2425376461 -5.00000000
-7.64797163 0.23233061 -0.40099809 12 12 27174 7.66200000 2425376465 2425376465 -3.00000000
-10.14516068 0.31173500 2.71967053 47 15 27176 10.50800000 2425376472 2425376472 15.00000000
-1.95788753 0.06289734 -0.52488500 4 0 27184 2.02800000 2425376493 2425376493 -15.00000000
-2.24376583 0.07286525 -0.51828724 4 2 27186 2.30400000 2425376497 2425376497 -13.00000000
-2.61562443 0.08539817 -0.50869679 3 4 27187 2.66600000 2425376502 2425376502 -11.00000000
-3.17072916 0.10462991 -0.50246751 3 6 27189 3.21200000 2425376507 2425376507 -9.00000000
-3.93623495 0.13126613 -0.48357755 7 8 27191 3.96800000 2425376511 2425376511 -7.00000000
-5.18327808 0.17375836 -0.45373279 9 10 27192 5.20600000 2425376516 2425376516 -5.00000000
-7.64312172 0.25889036 -0.40078875 12 12 27194 7.65800000 2425376521 2425376521 -3.00000000
-10.15559483 0.34754276 2.72277641 45 15 27196 10.52000000 2425376527 2425376527 15.00000000
-1.95380688 0.06925272 -0.52384973 4 0 27203 2.02400000 2425376548 2425376548 -15.00000000
-2.24351192 0.08030544 -0.51828724 4 2 27205 2.30400000 2425376553 2425376553 -13.00000000
-2.61532688 0.09407143 -0.50869679 3 4 27206 2.66600000 2425376557 2425376557 -11.00000000
-3.15062404 0.11442690 -0.49933881 3 6 27208 3.19200000 2425376562 2425376562 -9.00000000
-3.94768071 0.14475487 -0.48503998 7 8 27210 3.98000000 2425376567 2425376567 -7.00000000
-5.18665552 0.19109248 -0.45408142 6 10 27211 5.21000000 2425376571 2425376571 -5.00000000
-7.66217995 0.28497675 -0.40183547 12 12 27213 7.67800000 2425376576 2425376576 -3.00000000
-10.14273643 0.38255343 2.71967053 42 15 27216 10.50800000 2425376583 2425376583 15.00000000
-1.93811023 0.07547099 -0.51970863 4 0 27223 2.00800000 2425376603 2425376603 -15.00000000
-2.25490117 0.08859532 -0.52098662 4 2 27225 2.31600000 2425376608 2425376608 -13.00000000
-2.61105895 0.10304521 -0.50793356 3 4 27226 2.66200000 2425376613 2425376613 -11.00000000
-3.15810061 0.12573828 -0.50059026 3 6 27228 3.20000000 2425376617 2425376617 -9.00000000
-3.95111823 0.15869330 -0.48552746 7 8 27230 3.98400000 2425376622 2425376622 -7.00000000
-5.18595648 0.20919612 -0.45408142 6 10 27231 5.21000000 2425376627 2425376627 -5.00000000
-7.66113853 0.31172103 -0.40183547 16 12 27233 7.67800000 2425376631 2425376631 -3.00000000
-10.13361835 0.41763765 2.71759987 45 15 27236 10.50000000 2425376638 2425376638 15.00000000
-1.94940114 0.08306748 -0.52281445 4 0 27244 2.02000000 2425376659 2425376659 -15.00000000
-2.24482679 0.09644113 -0.51873714 4 2 27246 2.30600000 2425376663 2425376663 -13.00000000
-2.61458659 0.11278374 -0.50869679 3 4 27247 2.66600000 2425376668 2425376668 -11.00000000
-3.15761852 0.13731244 -0.50059026 3 6 27249 3.20000000 2425376673 2425376673 -9.00000000
-3.95447636 0.17334768 -0.48601493 7 8 27251 3.98800000 2425376677 2425376677 -7.00000000
-5.18117428 0.22802700 -0.45373279 6 10 27252 5.20600000 2425376682 2425376682 -5.00000000
-7.64797258 0.33926734 -0.40120745 24 12 27254 7.66600000 2425376686 2425376686 -3.00000000
-10.13202000 0.45477641 2.71759987 45 15 27257 10.50000000 2425376693 2425376693 15.00000000
-1.95102906 0.08996064 -0.52333212 4 0 27264 2.02200000 2425376714 2425376714 -15.00000000
-2.23279643 0.10373381 -0.51603770 4 2 27266 2.29400000 2425376719 2425376719 -13.00000000
-2.62594390 0.12245840 -0.51098651 3 4 27267 2.67800000 2425376723 2425376723 -11.00000000
-3.15317345 0.14814834 -0.49996457 3 6 27269 3.19600000 2425376728 2425376728 -9.00000000
-3.94988155 0.18696260 -0.48552746 7 8 27271 3.98400000 2425376733 2425376733 -7.00000000
-5.18830729 0.24648948 -0.45443004 6 10 27272 5.21400000 2425376737 2425376737 -5.00000000
-7.64873695 0.36605716 -0.40131211 28 12 27274 7.66800000 2425376742 2425376742 -3.00000000
-10.13037109 0.49014097 2.71759987 45 15 27277 10.50000000 2425376749 2425376749 15.00000000
-1.95843804 0.09681152 -0.52540267 4 0 27283 2.03000000 2425376769 2425376769 -15.00000000
-2.24022555 0.11152504 -0.51783735 4 2 27285 2.30200000 2425376774 2425376774 -13.00000000
-2.62748408 0.13126363 -0.51136810 3 4 27286 2.68000000 2425376779 2425376779 -11.00000000
-3.15266490 0.15860382 -0.49996457 3 6 27288 3.19600000 2425376783 2425376783 -9.00000000
-3.94527483 0.19985899 -0.48503998 5 8 27290 3.98000000 2425376788 2425376788 -7.00000000
-5.19940042 0.26430005 -0.45547593 6 10 27291 5.22600000 2425376792 2425376792 -5.00000000
-7.64947557 0.39152136 -0.40141678 28 12 27293 7.67000000 2425376797 2425376797 -3.00000000
-10.13263988 0.52216285 2.71863532 47 15 27295 10.50400000 2425376804 2425376804 15.00000000
-1.94072580 0.10272811 -0.52074391 4 0 27303 2.01200000 2425376825 2425376825 -15.00000000
-2.24371457 0.11955158 -0.51873714 4 2 27305 2.30600000 2425376829 2425376829 -13.00000000
-2.61720753 0.13991044 -0.50946003 3 4 27306 2.67000000 2425376834 2425376834 -11.00000000
-3.16787219 0.17045681 -0.50246751 3 6 27308 3.21200000 2425376838 2425376838 -9.00000000
-3.95248175 0.21405876 -0.48601493 5 8 27310 3.98800000 2425376843 2425376843 -7.00000000
-5.19446707 0.28223157 -0.45512730 6 10 27311 5.22200000 2425376848 2425376848 -5.00000000
-7.65005636 0.41832969 -0.40152144 28 12 27313 7.67200000 2425376852 2425376852 -3.00000000
-10.13065720 0.55929732 2.71863532 45 15 27316 10.50400000 2425376859 2425376859 15.00000000
-1.94421303 0.10971958 -0.52177918 4 0 27323 2.01600000 2425376880 2425376880 -15.00000000
-2.24912047 0.12771432 -0.52008682 4 2 27325 2.31200000 2425376885 2425376885 -13.00000000
-2.62062335 0.14926864 -0.51022327 3 4 27326 2.67400000 2425376889 2425376889 -11.00000000
-3.16331363 0.18128766 -0.50184178 3 6 27328 3.20800000 2425376894 2425376894 -9.00000000
-3.95963764 0.22831127 -0.48698989 5 8 27330 3.99600000 2425376898 2425376898 -7.00000000
-5.19543934 0.30047694 -0.45530161 6 10 27331 5.22400000 2425376903 2425376903 -5.00000000
-7.66450071 0.44595891 -0.40235883 28 12 27333 7.68800000 2425376908 2425376908 -3.00000000
-10.11717606 0.59221143 2.71552944 42 15 27335 10.49200000 2425376915 2425376915 15.00000000
-1.94381809 0.11650548 -0.52177918 4 0 27343 2.01600000 2425376935 2425376935 -15.00000000
-2.23893499 0.13497809 -0.51783735 4 2 27345 2.30200000 2425376940 2425376940 -13.00000000
-2.63576388 0.15936330 -0.51327622 3 4 27346 2.69000000 2425376944 2425376944 -11.00000000
-3.14688778 0.19136934 -0.49933881 3 6 27348 3.19200000 2425376949 2425376949 -9.00000000
-3.97070503 0.24285872 -0.48845232 6 8 27350 4.00800000 2425376954 2425376954 -7.00000000
-5.20032501 0.31897652 -0.45582452 6 10 27351 5.23000000 2425376958 2425376958 -5.00000000
-7.65492344 0.47221842 -0.40194014 32 12 27353 7.68000000 2425376963 2425376963 -3.00000000
-10.11493778 0.62928873 2.71552944 42 15 27356 10.49200000 2425376970 2425376970 15.00000000
-1.94723392 0.12387444 -0.52281445 4 0 27364 2.02000000 2425376991 2425376991 -15.00000000
-2.22092223 0.14206369 -0.51378822 4 2 27366 2.28400000 2425376995 2425376995 -13.00000000
-2.64691734 0.16977680 -0.51556593 3 4 27367 2.70200000 2425377000 2425377000 -11.00000000
-3.16193557 0.20391904 -0.50184178 3 6 27369 3.20800000 2425377004 2425377004 -9.00000000
-3.95394063 0.25638285 -0.48650241 5 8 27371 3.99200000 2425377009 2425377009 -7.00000000
-5.19912052 0.33803451 -0.45582452 6 10 27372 5.23000000 2425377014 2425377014 -5.00000000
-7.65114832 0.50014168 -0.40183547 24 12 27374 7.67800000 2425377018 2425377018 -3.00000000
-10.12038994 0.66509938 2.71759987 42 15 27376 10.50000000 2425377025 2425377025 15.00000000
-1.95257223 0.13105893 -0.52436739 4 0 27384 2.02600000 2425377046 2425377046 -15.00000000
-2.23791170 0.15099597 -0.51783735 4 2 27386 2.30200000 2425377050 2425377050 -13.00000000
-2.61496830 0.17689514 -0.50946003 3 4 27387 2.67000000 2425377055 2425377055 -11.00000000
-3.15726280 0.21468697 -0.50121605 3 6 27389 3.20400000 2425377060 2425377060 -9.00000000
-3.96292400 0.27085993 -0.48772112 4 8 27391 4.00200000 2425377064 2425377064 -7.00000000
-5.20188475 0.35645321 -0.45617315 6 10 27392 5.23400000 2425377069 2425377069 -5.00000000
-7.64736319 0.52670884 -0.40173081 32 12 27394 7.67600000 2425377073 2425377073 -3.00000000
-10.12173843 0.70245546 2.71863532 42 15 27397 10.50400000 2425377080 2425377080 15.00000000
-1.94827271 0.13726164 -0.52333212 4 0 27403 2.02200000 2425377101 2425377101 -15.00000000
-2.23934245 0.15855396 -0.51828724 4 2 27405 2.30400000 2425377106 2425377106 -13.00000000
-2.61436725 0.18556571 -0.50946003 3 4 27406 2.67000000 2425377110 2425377110 -11.00000000
-3.16441488 0.22571784 -0.50246751 3 6 27408 3.21200000 2425377115 2425377115 -9.00000000
-3.95606399 0.28357419 -0.48698989 5 8 27410 3.99600000 2425377120 2425377120 -7.00000000
-5.19272470 0.37313011 -0.45547593 6 10 27411 5.22600000 2425377124 2425377124 -5.00000000
-7.64955902 0.55235320 -0.40194014 32 12 27413 7.68000000 2425377129 2425377129 -3.00000000
-10.11562824 0.73397070 2.71759987 45 15 27415 10.50000000 2425377136 2425377136 15.00000000
-1.93814886 0.14334908 -0.52074391 4 0 27423 2.01200000 2425377156 2425377156 -15.00000000
-2.24654889 0.16694742 -0.52008682 4 2 27425 2.31200000 2425377161 2425377161 -13.00000000
-2.62153482 0.19527377 -0.51098651 3 4 27426 2.67800000 2425377166 2425377166 -11.00000000
-3.15966797 0.23646750 -0.50184178 3 6 27428 3.20800000 2425377170 2425377170 -9.00000000
-3.95900917 0.29767939 -0.48747736 6 8 27430 4.00000000 2425377175 2425377175 -7.00000000
-5.18741703 0.39095438 -0.45512730 6 10 27431 5.22200000 2425377179 2425377179 -5.00000000
-7.65555048 0.57965499 -0.40235883 52 12 27433 7.68800000 2425377184 2425377184 -3.00000000
-10.10516548 0.77045399 2.71552944 47 15 27436 10.49200000 2425377191 2425377191 15.00000000
-1.94341481 0.15056126 -0.52229685 4 0 27443 2.01800000 2425377212 2425377212 -15.00000000
-2.23818111 0.17418352 -0.51828724 4 2 27445 2.30400000 2425377216 2425377216 -13.00000000
-2.62083721 0.20442344 -0.51098651 3 4 27446 2.67800000 2425377221 2425377221 -11.00000000
-3.15094590 0.24687816 -0.50059026 3 6 27448 3.20000000 2425377226 2425377226 -9.00000000
-3.96981978 0.31243157 -0.48893979 6 8 27450 4.01200000 2425377230 2425377230 -7.00000000
-5.19595194 0.40984279 -0.45599884 3 10 27451 5.23200000 2425377235 2425377235 -5.00000000
-7.63556099 0.60495460 -0.40141678 20 12 27453 7.67000000 2425377239 2425377239 -3.00000000
-10.11025810 0.80457270 2.71759987 45 15 27455 10.50000000 2425377246 2425377246 15.00000000
-1.93710077 0.15687631 -0.52074391 4 0 27463 2.01200000 2425377267 2425377267 -15.00000000
-2.23367476 0.18167920 -0.51738745 4 2 27465 2.30000000 2425377272 2425377272 -13.00000000
-2.62402129 0.21388963 -0.51174974 3 4 27466 2.68200000 2425377276 2425377276 -11.00000000
-3.15006495 0.25787550 -0.50059026 3 6 27468 3.20000000 2425377281 2425377281 -9.00000000
-3.97068334 0.32644960 -0.48918355 4 8 27470 4.01400000 2425377285 2425377285 -7.00000000
-5.19250393 0.42781395 -0.45582452 6 10 27471 5.23000000 2425377290 2425377290 -5.00000000
-7.64136457 0.63226277 -0.40183547 20 12 27473 7.67800000 2425377295 2425377295 -3.00000000
-10.11494160 0.84226447 2.71967053 47 15 27476 10.50800000 2425377302 2425377302 15.00000000
-1.94809139 0.16461305 -0.52384973 4 0 27483 2.02400000 2425377322 2425377322 -15.00000000
-2.22914338 0.18914557 -0.51648760 4 2 27485 2.29600000 2425377327 2425377327 -13.00000000
-2.61934614 0.22271521 -0.51098651 3 4 27486 2.67800000 2425377332 2425377332 -11.00000000
-3.16489148 0.27021405 -0.50309324 3 6 27488 3.21600000 2425377336 2425377336 -9.00000000
-3.96160817 0.33962962 -0.48820859 4 8 27490 4.00600000 2425377341 2425377341 -7.00000000
-5.20090437 0.44678921 -0.45669609 6 10 27491 5.24000000 2425377345 2425377345 -5.00000000
-7.65105057 0.65996212 -0.40246350 36 12 27493 7.69000000 2425377350 2425377350 -3.00000000
-10.11979198 0.87646896 2.72174096 45 15 27495 10.51600000 2425377357 2425377357 15.00000000
-1.94750488 0.17141217 -0.52384973 4 0 27503 2.02400000 2425377378 2425377378 -15.00000000
-2.24011660 0.19795480 -0.51918703 4 2 27505 2.30800000 2425377382 2425377382 -13.00000000
-2.59313011 0.22960603 -0.50602543 3 4 27506 2.65200000 2425377387 2425377387 -11.00000000
-5.59457064 0.49634963 0.49138409 2 5 27507 5.63800000 2425377389 2425377389 5.00000000
-3.16786408 0.28160977 -0.50371897 3 6 27508 3.22000000 2425377391 2425377391 -9.00000000
-3.96237588 0.35363263 -0.48845232 6 8 27510 4.00800000 2425377396 2425377396 -7.00000000
-5.22114229 0.46689308 -0.45861351 6 10 27511 5.26200000 2425377401 2425377401 -5.00000000
-7.65068960 0.68684381 -0.40256816 32 12 27513 7.69200000 2425377405 2425377405 -3.00000000
-10.10897446 0.91109461 2.71967053 47 15 27515 10.50800000 2425377412 2425377412 15.00000000
-1.93535185 0.17715260 -0.52074391 4 0 27523 2.01200000 2425377433 2425377433 -15.00000000
-2.24329329 0.20612969 -0.52008682 4 2 27525 2.31200000 2425377438 2425377438 -13.00000000
-2.61186266 0.24045618 -0.50984162 3 4 27526 2.67200000 2425377442 2425377442 -11.00000000
-5.56106091 0.51294732 0.48859510 8 5 27527 5.60600000 2425377444 2425377444 5.00000000
-3.15899396 0.29193884 -0.50246751 3 6 27528 3.21200000 2425377447 2425377447 -9.00000000
-3.97297692 0.36856192 -0.48991477 6 8 27530 4.02000000 2425377451 2425377451 -7.00000000
-5.22543240 0.48566857 -0.45913646 3 10 27531 5.26800000 2425377456 2425377456 -5.00000000
-7.51500750 0.70111507 -0.39555517 12 12 27533 7.55800000 2425377461 2425377461 -3.00000000
-7.17152500 0.67159498 -0.12572713 2 14 27535 7.20400000 2425377465 2425377465 -1.00000000
-10.10573292 0.94637597 2.71967053 45 15 27535 10.50800000 2425377467 2425377467 15.00000000
-1.94626081 0.18500403 -0.52384973 4 0 27543 2.02400000 2425377488 2425377488 -15.00000000
-7.08884287 0.67508644 0.12429604 3 1 27544 7.12200000 2425377491 2425377491 1.00000000
-2.23480034 0.21321864 -0.51828724 4 2 27545 2.30400000 2425377493 2425377493 -13.00000000
-2.61491609 0.24994542 -0.51060486 3 4 27546 2.67600000 2425377497 2425377497 -11.00000000
-5.55725288 0.53216600 0.48842078 11 5 27547 5.60400000 2425377500 2425377500 5.00000000
-3.15009022 0.30220944 -0.50121605 3 6 27548 3.20400000 2425377502 2425377502 -9.00000000
-3.95981050 0.38128638 -0.48845232 6 8 27550 4.00800000 2425377507 2425377507 -7.00000000
-5.20783997 0.50237530 -0.45774198 6 10 27551 5.25200000 2425377511 2425377511 -5.00000000
-7.32962179 0.70963585 -0.38592535 3 12 27553 7.37400000 2425377516 2425377516 -3.00000000
-7.07161093 0.68714762 -0.12401680 4 14 27555 7.10600000 2425377520 2425377520 -1.00000000
-10.10411835 0.98359615 2.72018814 47 15 27556 10.51000000 2425377523 2425377523 15.00000000
-1.93983555 0.19122805 -0.52229685 4 0 27563 2.01800000 2425377544 2425377544 -15.00000000
-5.95213461 0.58780754 0.10440029 2 1 27564 5.98200000 2425377546 2425377546 1.00000000
-2.23016381 0.22063453 -0.51738745 4 2 27565 2.30000000 2425377548 2425377548 -13.00000000
-6.47137070 0.64136612 0.34081176 2 3 27566 6.51200000 2425377550 2425377550 3.00000000
-2.63161087 0.26081428 -0.51403946 3 4 27566 2.69400000 2425377553 2425377553 -11.00000000
-5.54148293 0.55018330 0.48720059 11 5 27567 5.59000000 2425377555 2425377555 5.00000000
-3.15687871 0.31398550 -0.50246751 3 6 27568 3.21200000 2425377557 2425377557 -9.00000000
-3.95450497 0.39471206 -0.48796484 6 8 27570 4.00400000 2425377562 2425377562 -7.00000000
