# .PCD v0.7 - Point Cloud Data file format
VERSION 0.7
FIELDS x y z intensity laser_id azimuth distance_m adjustedtime timestamp vertical_angle
SIZE 4 4 4 1 1 2 8 8 4 8
TYPE F F F U U U F U U F
COUNT 1 1 1 1 1 1 1 1 1 1
WIDTH 523
HEIGHT 1
VIEWPOINT 0 0 0 1 0 0 0
POINTS 523
DATA ascii
-4.06761408 3.38420033 1.41781068 59 15 30976 5.47800000 2425687126 2425687126 15.00000000
-1.58444428 1.32151532 -0.55283749 4 0 30983 2.13600000 2425687146 2425687146 -15.00000000
-1.85366273 1.54715610 -0.55742872 3 2 30985 2.47800000 2425687151 2425687151 -13.00000000
-4.16609812 3.47722602 0.28439358 2 3 30985 5.43400000 2425687153 2425687153 3.00000000
-2.18517780 1.82450163 -0.55334610 3 4 30986 2.90000000 2425687156 2425687156 -11.00000000
-2.67401648 2.23423934 -0.55190080 3 6 30988 3.52800000 2425687160 2425687160 -9.00000000
-3.38386965 2.82935429 -0.54158735 8 8 30990 4.44400000 2425687165 2425687165 -7.00000000
-4.64135170 3.88214922 -0.52938396 3 10 30991 6.07400000 2425687170 2425687170 -5.00000000
-7.39588642 6.19050360 -0.50546068 12 12 30993 9.65800000 2425687174 2425687174 -3.00000000
-8.68240356 7.26992130 2.61438107 57 13 30994 11.62200000 2425687176 2425687176 13.00000000
-7.45558023 6.24710989 2.60630774 30 15 30996 10.07000000 2425687181 2425687181 15.00000000
-1.58721793 1.33325076 -0.55542564 4 0 31003 2.14600000 2425687202 2425687202 -15.00000000
-1.83631694 1.54358566 -0.55382949 3 2 31005 2.46200000 2425687206 2425687206 -13.00000000
-2.17579055 1.82959116 -0.55258286 3 4 31006 2.89600000 2425687211 2425687211 -11.00000000
-2.66620135 2.24355984 -0.55190080 3 6 31008 3.52800000 2425687216 2425687216 -9.00000000
-3.37093592 2.83859158 -0.54109991 8 8 31010 4.44000000 2425687220 2425687220 -7.00000000
-4.62777233 3.89832687 -0.52938396 3 10 31011 6.07400000 2425687225 2425687225 -5.00000000
-7.36507034 6.20855856 -0.50483263 12 12 31013 9.64600000 2425687229 2425687229 -3.00000000
-8.65399456 7.29767179 2.61348128 60 13 31014 11.61800000 2425687232 2425687232 13.00000000
-7.42782259 6.26811314 2.60423732 45 15 31016 10.06200000 2425687236 2425687236 15.00000000
-1.58255434 1.33878314 -0.55542564 4 0 31023 2.14600000 2425687257 2425687257 -15.00000000
-1.83686709 1.55502272 -0.55562907 3 2 31025 2.47000000 2425687262 2425687262 -13.00000000
-2.16639447 1.83463740 -0.55181962 3 4 31026 2.89200000 2425687266 2425687266 -11.00000000
-2.66739559 2.26051569 -0.55377799 3 6 31028 3.54000000 2425687271 2425687271 -9.00000000
-3.35192299 2.84263754 -0.53963745 8 8 31030 4.42800000 2425687276 2425687276 -7.00000000
-4.63084888 3.92863512 -0.53130138 3 10 31031 6.09600000 2425687280 2425687280 -5.00000000
-7.39055300 6.27430058 -0.50807744 12 12 31033 9.70800000 2425687285 2425687285 -3.00000000
-8.62549782 7.32531261 2.61258149 60 13 31034 11.61400000 2425687287 2425687287 13.00000000
-7.40736961 6.29525423 2.60475492 42 15 31036 10.06400000 2425687292 2425687292 15.00000000
-1.58081245 1.34680474 -0.55646098 4 0 31043 2.15000000 2425687312 2425687312 -15.00000000
-1.83587658 1.56521809 -0.55697882 4 2 31045 2.47600000 2425687317 2425687317 -13.00000000
-2.15101457 1.83454442 -0.54952991 3 4 31046 2.88000000 2425687322 2425687322 -11.00000000
-2.65047336 2.26211858 -0.55190080 3 6 31048 3.52800000 2425687326 2425687326 -9.00000000
-3.35556531 2.86592340 -0.54183108 8 8 31050 4.44600000 2425687331 2425687331 -7.00000000
-4.61407757 3.94218755 -0.53095281 3 10 31051 6.09200000 2425687335 2425687335 -5.00000000
-7.40655804 6.33250809 -0.51069427 12 12 31053 9.75800000 2425687340 2425687340 -3.00000000
-8.59691334 7.35284328 2.61168170 60 13 31054 11.61000000 2425687342 2425687342 13.00000000
-7.37764549 6.31224775 2.60164905 42 15 31055 10.05200000 2425687347 2425687347 15.00000000
-1.57023704 1.34728277 -0.55439037 4 0 31063 2.14200000 2425687368 2425687368 -15.00000000
-1.83483732 1.57542539 -0.55832851 3 2 31065 2.48200000 2425687372 2425687372 -13.00000000
-2.15353346 1.84971690 -0.55181962 3 4 31066 2.89200000 2425687377 2425687377 -11.00000000
-2.64555717 2.27393198 -0.55252653 3 6 31068 3.53200000 2425687381 2425687381 -9.00000000
-3.37112522 2.89962506 -0.54597467 16 8 31070 4.48000000 2425687386 2425687386 -7.00000000
-4.59273720 3.95177197 -0.53008121 3 10 31071 6.08200000 2425687391 2425687391 -5.00000000
-7.40559721 6.37656784 -0.51215965 12 12 31073 9.78600000 2425687395 2425687395 -3.00000000
-8.56824112 7.38026381 2.61078191 60 13 31074 11.60600000 2425687398 2425687398 13.00000000
-7.34568071 6.33167791 2.59854317 45 15 31076 10.04000000 2425687402 2425687402 15.00000000
-1.56844807 1.35528183 -0.55542564 4 0 31083 2.14600000 2425687423 2425687423 -15.00000000
-1.82932687 1.58182061 -0.55832851 3 2 31085 2.48200000 2425687428 2425687428 -13.00000000
-2.15003324 1.85979164 -0.55258286 3 4 31086 2.89600000 2425687432 2425687432 -11.00000000
-2.63461637 2.28056717 -0.55190080 3 6 31088 3.52800000 2425687437 2425687437 -9.00000000
-3.37298656 2.92177272 -0.54792458 14 8 31090 4.49600000 2425687441 2425687441 -7.00000000
-4.61354685 3.99778914 -0.53409040 3 10 31091 6.12800000 2425687446 2425687446 -5.00000000
-7.41498184 6.42985725 -0.51435781 17 12 31093 9.82800000 2425687451 2425687451 -3.00000000
-8.54537106 7.41268158 2.61168170 59 13 31094 11.61000000 2425687453 2425687453 13.00000000
-7.32464409 6.35600233 2.59854317 45 15 31095 10.04000000 2425687458 2425687458 15.00000000
-1.56662238 1.36328483 -0.55646098 4 0 31103 2.15000000 2425687478 2425687478 -15.00000000
-1.81203723 1.57795835 -0.55472928 4 2 31105 2.46600000 2425687483 2425687483 -13.00000000
-2.15241027 1.87502265 -0.55487257 3 4 31106 2.90800000 2425687487 2425687487 -11.00000000
-2.63259578 2.29494190 -0.55315226 3 6 31108 3.53600000 2425687492 2425687492 -9.00000000
-4.61157322 4.02434921 -0.53548491 3 10 31111 6.14400000 2425687501 2425687501 -5.00000000
-7.41656208 6.47672129 -0.51603252 17 12 31113 9.86000000 2425687506 2425687506 -3.00000000
-8.51063824 7.43477297 2.60898232 59 13 31114 11.59800000 2425687508 2425687508 13.00000000
-7.29838991 6.38026285 2.59750795 45 15 31116 10.03600000 2425687513 2425687513 15.00000000
-1.56645226 1.37229145 -0.55801386 4 0 31122 2.15600000 2425687534 2425687534 -15.00000000
-1.81558681 1.59166634 -0.55742872 3 2 31124 2.47800000 2425687538 2425687538 -13.00000000
-2.13142014 1.86920536 -0.55105639 3 4 31125 2.88800000 2425687543 2425687543 -11.00000000
-2.62794042 2.30626512 -0.55377799 3 6 31127 3.54000000 2425687547 2425687547 -9.00000000
-3.34705448 2.93942451 -0.54694963 2 8 31129 4.48800000 2425687552 2425687552 -7.00000000
-4.59071827 4.03304482 -0.53461331 3 10 31130 6.13400000 2425687557 2425687557 -5.00000000
-7.38754368 6.49468613 -0.51550919 8 12 31132 9.85000000 2425687561 2425687561 -3.00000000
-8.47715759 7.45523262 2.60628295 56 13 31133 11.58600000 2425687564 2425687564 13.00000000
-7.28121042 6.40571165 2.59854317 47 15 31134 10.04000000 2425687568 2425687568 15.00000000
-1.55440927 1.37136066 -0.55542564 4 0 31142 2.14600000 2425687589 2425687589 -15.00000000
-1.81294155 1.60057378 -0.55832851 3 2 31144 2.48200000 2425687593 2425687593 -13.00000000
-2.12488246 1.87663400 -0.55105639 3 4 31145 2.88800000 2425687598 2425687598 -11.00000000
-2.62283444 2.31804061 -0.55440372 3 6 31147 3.54400000 2425687603 2425687603 -9.00000000
-3.38435698 2.99317312 -0.55474925 4 8 31149 4.55200000 2425687607 2425687607 -7.00000000
-4.57362795 4.04640436 -0.53426468 3 10 31150 6.13000000 2425687612 2425687612 -5.00000000
-7.35286474 6.50984240 -0.51467180 8 12 31152 9.83400000 2425687616 2425687616 -3.00000000
-8.44378757 7.47831774 2.60403347 53 13 31153 11.57600000 2425687619 2425687619 13.00000000
-7.24900913 6.42466784 2.59543729 42 15 31155 10.02800000 2425687623 2425687623 15.00000000
-1.54696429 1.37394202 -0.55439037 4 0 31161 2.14200000 2425687644 2425687644 -15.00000000
-1.81053698 1.60916603 -0.55922830 4 2 31163 2.48600000 2425687649 2425687649 -13.00000000
-2.12451649 1.88888800 -0.55258286 3 4 31164 2.89600000 2425687653 2425687653 -11.00000000
-2.61218143 2.32409954 -0.55377799 5 6 31166 3.54000000 2425687658 2425687658 -9.00000000
-3.47226453 3.09150147 -0.57083601 6 8 31168 4.68400000 2425687663 2425687663 -7.00000000
-4.57803822 4.07745028 -0.53635645 3 10 31169 6.15400000 2425687667 2425687667 -5.00000000
-7.33123684 6.53418970 -0.51467180 8 12 31171 9.83400000 2425687672 2425687672 -3.00000000
-8.41457844 7.50238657 2.60268378 45 13 31172 11.57000000 2425687674 2425687674 13.00000000
-7.21437263 6.43455076 2.59026098 45 15 31173 10.00800000 2425687679 2425687679 15.00000000
-1.54503870 1.38190937 -0.55542564 4 0 31181 2.14600000 2425687699 2425687699 -15.00000000
-1.80200481 1.61287689 -0.55832851 3 2 31183 2.48200000 2425687704 2425687704 -13.00000000
-2.12376070 1.90153086 -0.55410933 3 4 31184 2.90400000 2425687709 2425687709 -11.00000000
-2.60405278 2.33320355 -0.55377799 3 6 31186 3.54000000 2425687713 2425687713 -9.00000000
-3.46588612 3.10757852 -0.57156724 8 8 31188 4.69000000 2425687718 2425687718 -7.00000000
-4.55784464 4.08808470 -0.53565919 3 10 31189 6.14600000 2425687722 2425687722 -5.00000000
-7.31432915 6.56507683 -0.51509047 8 12 31191 9.84200000 2425687727 2425687727 -3.00000000
-8.38398933 7.52780724 2.60133410 43 13 31192 11.56400000 2425687729 2425687729 13.00000000
-7.19074011 6.46094942 2.59026098 42 15 31194 10.00800000 2425687734 2425687734 15.00000000
-1.54451180 1.39117289 -0.55697858 4 0 31201 2.15200000 2425687755 2425687755 -15.00000000
-1.80504894 1.62698555 -0.56102794 3 2 31203 2.49400000 2425687759 2425687759 -13.00000000
-2.12294245 1.91419125 -0.55563581 3 4 31204 2.91200000 2425687764 2425687764 -11.00000000
-2.59882569 2.34492588 -0.55440372 3 6 31206 3.54400000 2425687769 2425687769 -9.00000000
-3.43733716 3.10369372 -0.56864238 10 8 31208 4.66600000 2425687773 2425687773 -7.00000000
-4.55833244 4.11732435 -0.53740233 3 10 31209 6.16600000 2425687778 2425687778 -5.00000000
-7.28544140 6.58521175 -0.51467180 12 12 31211 9.83400000 2425687782 2425687782 -3.00000000
-8.34609699 7.54657125 2.59773469 42 13 31212 11.54800000 2425687785 2425687785 13.00000000
-7.16640997 6.48216724 2.58922577 45 15 31213 10.00400000 2425687789 2425687789 15.00000000
-1.54250813 1.39915156 -0.55801386 4 0 31221 2.15600000 2425687810 2425687810 -15.00000000
-1.79070103 1.62541783 -0.55832851 3 2 31223 2.48200000 2425687815 2425687815 -13.00000000
-2.12206149 1.92686915 -0.55716228 3 4 31224 2.92000000 2425687819 2425687819 -11.00000000
-2.59939647 2.36195374 -0.55628097 3 6 31226 3.55600000 2425687824 2425687824 -9.00000000
-3.41326404 3.10365415 -0.56644869 10 8 31228 4.64800000 2425687828 2425687828 -7.00000000
-4.55424929 4.14259529 -0.53862250 3 10 31229 6.18000000 2425687833 2425687833 -5.00000000
-7.26241064 6.61060238 -0.51467180 8 12 31231 9.83400000 2425687838 2425687838 -3.00000000
-8.31682205 7.57303429 2.59683490 41 13 31232 11.54400000 2425687840 2425687840 13.00000000
-7.14260340 6.50838995 2.58922577 47 15 31234 10.00400000 2425687845 2425687845 15.00000000
-1.53451741 1.40218949 -0.55697858 4 0 31242 2.15200000 2425687865 2425687865 -15.00000000
-1.79048407 1.63723040 -0.56012815 3 2 31244 2.49000000 2425687870 2425687870 -13.00000000
-2.10339594 1.92403328 -0.55410933 3 4 31245 2.90400000 2425687875 2425687875 -11.00000000
-2.59655046 2.37680030 -0.55753243 3 6 31247 3.56400000 2425687879 2425687879 -9.00000000
-3.39747429 3.11212087 -0.56571752 8 8 31249 4.64200000 2425687884 2425687884 -7.00000000
-4.54638004 4.16598988 -0.53949404 3 10 31250 6.19000000 2425687888 2425687888 -5.00000000
-7.28229427 6.67767143 -0.51781195 8 12 31252 9.89400000 2425687893 2425687893 -3.00000000
-8.28039360 7.59556246 2.59413552 43 13 31253 11.53200000 2425687895 2425687895 13.00000000
-7.11130095 6.52544594 2.58611989 45 15 31254 9.99200000 2425687900 2425687900 15.00000000
-1.52392721 1.40230489 -0.55490804 4 0 31262 2.14400000 2425687921 2425687921 -15.00000000
-1.79049230 1.64875054 -0.56192774 3 2 31264 2.49800000 2425687925 2425687925 -13.00000000
-2.09666705 1.93136370 -0.55410933 3 4 31265 2.90400000 2425687930 2425687930 -11.00000000
-2.58533311 2.38317156 -0.55690670 3 6 31267 3.56000000 2425687934 2425687934 -9.00000000
-3.37929463 3.11723161 -0.56449878 8 8 31269 4.63200000 2425687939 2425687939 -7.00000000
-4.50691843 4.15886497 -0.53653073 3 10 31270 6.15600000 2425687944 2425687944 -5.00000000
-7.27067947 6.71389055 -0.51864934 8 12 31272 9.91000000 2425687948 2425687948 -3.00000000
-8.24810410 7.61913109 2.59233594 41 13 31273 11.52400000 2425687951 2425687951 13.00000000
-7.08280420 6.54498482 2.58404946 42 15 31274 9.98400000 2425687955 2425687955 15.00000000
-1.52327394 1.41155505 -0.55646098 4 0 31282 2.15000000 2425687976 2425687976 -15.00000000
-1.77329481 1.64439011 -0.55832851 3 2 31284 2.48200000 2425687981 2425687981 -13.00000000
-2.08991265 1.93867075 -0.55410933 3 4 31285 2.90400000 2425687985 2425687985 -11.00000000
-2.56831217 2.38411808 -0.55502951 3 6 31287 3.54800000 2425687990 2425687990 -9.00000000
-3.36402965 3.12495542 -0.56376761 10 8 31289 4.62600000 2425687994 2425687994 -7.00000000
-4.52156401 4.20169687 -0.54001701 3 10 31290 6.19600000 2425687999 2425687999 -5.00000000
-7.22964811 6.72290802 -0.51739329 4 12 31292 9.88600000 2425688004 2425688004 -3.00000000
-8.22431087 7.65053034 2.59323573 42 13 31293 11.52800000 2425688006 2425688006 13.00000000
-7.05850077 6.56835270 2.58353162 45 15 31294 9.98200000 2425688010 2425688010 15.00000000
-1.52398705 1.42213583 -0.55853152 4 0 31302 2.15800000 2425688031 2425688031 -15.00000000
-1.76754403 1.65057003 -0.55832851 3 2 31304 2.48200000 2425688036 2425688036 -13.00000000
-2.09747934 1.95935595 -0.55792552 3 4 31305 2.92400000 2425688040 2425688040 -11.00000000
-2.56574655 2.39846444 -0.55628097 3 6 31307 3.55600000 2425688045 2425688045 -9.00000000
-3.34585261 3.12989855 -0.56254888 10 8 31309 4.61600000 2425688050 2425688050 -7.00000000
-4.50250578 4.21337032 -0.53949404 7 10 31310 6.19000000 2425688054 2425688054 -5.00000000
-7.23529339 6.77540684 -0.51948673 4 12 31312 9.92600000 2425688059 2425688059 -3.00000000
-8.18617821 7.66853380 2.58963656 40 13 31313 11.51200000 2425688061 2425688061 13.00000000
-7.03437901 6.59417915 2.58353162 45 15 31315 9.98200000 2425688066 2425688066 15.00000000
-1.52323699 1.43141568 -0.56008440 4 0 31322 2.16400000 2425688087 2425688087 -15.00000000
-1.76461101 1.65939987 -0.55922830 3 2 31324 2.48600000 2425688091 2425688091 -13.00000000
-2.07346725 1.95052338 -0.55334610 3 4 31325 2.90000000 2425688096 2425688096 -11.00000000
-2.56023526 2.41011405 -0.55690670 3 6 31327 3.56000000 2425688100 2425688100 -9.00000000
-3.30889821 3.11705780 -0.55816162 10 8 31329 4.58000000 2425688105 2425688105 -7.00000000
-4.49792099 4.23862600 -0.54071420 3 10 31330 6.20400000 2425688110 2425688110 -5.00000000
-7.24211359 6.82939672 -0.52168483 4 12 31332 9.96800000 2425688114 2425688114 -3.00000000
-8.15085506 7.68903875 2.58693719 41 13 31333 11.50000000 2425688116 2425688116 13.00000000
-7.01387835 6.61879539 2.58404946 45 15 31334 9.98400000 2425688121 2425688121 15.00000000
-1.51261842 1.43141258 -0.55801386 4 0 31342 2.15600000 2425688142 2425688142 -15.00000000
-1.76729763 1.67358899 -0.56192774 3 2 31344 2.49800000 2425688146 2425688146 -13.00000000
-2.06949663 1.96044958 -0.55410933 3 4 31345 2.90400000 2425688151 2425688151 -11.00000000
-2.56040859 2.42719030 -0.55878389 3 6 31347 3.57200000 2425688156 2425688156 -9.00000000
-3.29799747 3.12858891 -0.55816162 14 8 31349 4.58000000 2425688160 2425688160 -7.00000000
-4.48743343 4.25841522 -0.54123718 3 10 31350 6.21000000 2425688165 2425688165 -5.00000000
-7.25298882 6.88764286 -0.52419692 4 12 31352 10.01600000 2425688169 2425688169 -3.00000000
-8.12113953 7.71475935 2.58603740 43 13 31353 11.49600000 2425688172 2425688172 13.00000000
-6.98372984 6.63658428 2.58146119 45 15 31354 9.97400000 2425688176 2425688176 15.00000000
-1.49692214 1.42549968 -0.55387276 4 0 31360 2.14000000 2425688197 2425688197 -15.00000000
-1.75920975 1.67644405 -0.56102794 3 2 31362 2.49400000 2425688202 2425688202 -13.00000000
-2.07753778 1.98048782 -0.55792552 3 4 31363 2.92400000 2425688206 2425688206 -11.00000000
-2.54562402 2.42840457 -0.55721956 1 6 31365 3.56200000 2425688211 2425688211 -9.00000000
-3.28097296 3.13208079 -0.55694288 12 8 31367 4.57000000 2425688215 2425688215 -7.00000000
-4.45674229 4.25598001 -0.53914541 3 10 31368 6.18600000 2425688220 2425688220 -5.00000000
-7.22553921 6.90487528 -0.52377826 4 12 31370 10.00800000 2425688225 2425688225 -3.00000000
-8.09404564 7.73754168 2.58513761 43 13 31371 11.49200000 2425688227 2425688227 13.00000000
-6.94888401 6.64514017 2.57628489 45 15 31372 9.95400000 2425688232 2425688232 15.00000000
-1.50030303 1.43873894 -0.55697858 4 0 31380 2.15200000 2425688252 2425688252 -15.00000000
-1.75615919 1.68527329 -0.56192774 3 2 31382 2.49800000 2425688257 2425688257 -13.00000000
-2.05928159 1.97685099 -0.55487257 3 4 31383 2.90800000 2425688262 2425688262 -11.00000000
-2.53143358 2.43180180 -0.55596811 1 6 31385 3.55400000 2425688266 2425688266 -9.00000000
-3.23138094 3.10637021 -0.55036193 16 8 31387 4.51600000 2425688271 2425688271 -7.00000000
-4.45478392 4.28394032 -0.54071420 3 10 31388 6.20400000 2425688275 2425688275 -5.00000000
-7.22441864 6.95221329 -0.52545297 4 12 31390 10.04000000 2425688280 2425688280 -3.00000000
-8.06698799 7.76574802 2.58513761 43 13 31391 11.49200000 2425688282 2425688282 13.00000000
-6.92309046 6.66922379 2.57576704 45 15 31393 9.95200000 2425688287 2425688287 15.00000000
-1.49805105 1.44665110 -0.55801386 4 0 31400 2.15600000 2425688308 2425688308 -15.00000000
-1.74466050 1.68597639 -0.56012815 3 2 31402 2.49000000 2425688312 2425688312 -13.00000000
-2.06930709 2.00040150 -0.55945200 3 4 31403 2.93200000 2425688317 2425688317 -11.00000000
-2.53712726 2.45435786 -0.55909675 3 6 31405 3.57400000 2425688321 2425688321 -9.00000000
-4.44839048 4.30778027 -0.54176009 3 10 31408 6.21600000 2425688331 2425688331 -5.00000000
-7.19436979 6.97182941 -0.52503431 4 12 31410 10.03200000 2425688335 2425688335 -3.00000000
-8.02863693 7.78300858 2.58153820 41 13 31411 11.47600000 2425688338 2425688338 13.00000000
-6.91341782 6.70424891 2.58042598 45 15 31412 9.97000000 2425688342 2425688342 15.00000000
-1.49853206 1.45725870 -0.56008440 4 0 31420 2.16400000 2425688363 2425688363 -15.00000000
-1.74435103 1.69749236 -0.56192774 3 2 31422 2.49800000 2425688367 2425688367 -13.00000000
-2.05105758 1.99665689 -0.55639905 2 4 31423 2.91600000 2425688372 2425688372 -11.00000000
-2.52288461 2.45768547 -0.55784529 3 6 31425 3.56600000 2425688377 2425688377 -9.00000000
-3.14422941 3.06511259 -0.53915000 100 8 31427 4.42400000 2425688381 2425688381 -7.00000000
-4.45186996 4.34136534 -0.54402614 3 10 31428 6.24200000 2425688386 2425688386 -5.00000000
-7.18571329 7.01224422 -0.52618569 4 12 31430 10.05400000 2425688391 2425688391 -3.00000000
-7.99584293 7.80554104 2.57973862 44 13 31431 11.46800000 2425688393 2425688393 13.00000000
-6.88168049 6.72024202 2.57732010 45 15 31432 9.95800000 2425688397 2425688397 15.00000000
-1.48653483 1.45572245 -0.55749625 4 0 31440 2.15400000 2425688418 2425688418 -15.00000000
-1.73980689 1.70493495 -0.56237763 4 2 31442 2.50000000 2425688423 2425688423 -13.00000000
-2.05529118 2.01479912 -0.55945200 3 4 31443 2.93200000 2425688427 2425688427 -11.00000000
-2.52698159 2.47892690 -0.56066114 3 6 31445 3.58400000 2425688432 2425688432 -9.00000000
-3.12642813 3.06911612 -0.53793126 92 8 31447 4.41400000 2425688437 2425688437 -7.00000000
-4.44095325 4.36106682 -0.54454911 7 10 31448 6.24800000 2425688441 2425688441 -5.00000000
-7.18540955 7.06108236 -0.52796513 4 12 31450 10.08800000 2425688446 2425688446 -3.00000000
-7.96854782 7.83340406 2.57973862 41 13 31451 11.46800000 2425688448 2425688448 13.00000000
-6.85011768 6.73864603 2.57473183 45 15 31453 9.94800000 2425688453 2425688453 15.00000000
-1.48694646 1.46632838 -0.55956680 4 0 31460 2.16200000 2425688473 2425688473 -15.00000000
-1.73800623 1.71510398 -0.56372732 3 2 31462 2.50600000 2425688478 2425688478 -13.00000000
-2.03986287 2.01368570 -0.55716228 3 4 31463 2.92000000 2425688483 2425688483 -11.00000000
-2.51128674 2.48079133 -0.55909675 3 6 31465 3.57400000 2425688487 2425688487 -9.00000000
-3.09593153 3.06047273 -0.53451896 62 8 31467 4.38600000 2425688492 2425688492 -7.00000000
-4.40020323 4.35132504 -0.54141146 7 10 31468 6.21200000 2425688497 2425688497 -5.00000000
-7.17917347 7.10438442 -0.52932584 4 12 31470 10.11400000 2425688501 2425688501 -3.00000000
-7.94392538 7.86391401 2.58063841 43 13 31471 11.47200000 2425688503 2425688503 13.00000000
-6.81831884 6.75435877 2.57162595 42 15 31473 9.93600000 2425688508 2425688508 15.00000000
-1.48344684 1.47261226 -0.56008440 4 0 31479 2.16400000 2425688529 2425688529 -15.00000000
-1.73507428 1.72360480 -0.56462717 3 2 31481 2.51000000 2425688533 2425688533 -13.00000000
-2.04709983 2.03427768 -0.56097847 3 4 31482 2.94000000 2425688538 2425688538 -11.00000000
-2.49744344 2.48353386 -0.55784529 1 6 31484 3.56600000 2425688543 2425688543 -9.00000000
-3.07732296 3.06232095 -0.53305650 100 8 31486 4.37400000 2425688547 2425688547 -7.00000000
-4.39422178 4.37432623 -0.54245734 7 10 31487 6.22400000 2425688552 2425688552 -5.00000000
-7.18387461 7.15634346 -0.53141928 4 12 31489 10.15400000 2425688556 2425688556 -3.00000000
-7.91504288 7.88746262 2.57973862 46 13 31490 11.46800000 2425688559 2425688559 13.00000000
-6.79998684 6.78102446 2.57317901 45 15 31492 9.94200000 2425688563 2425688563 15.00000000
-1.48102999 1.48051310 -0.56111968 4 0 31499 2.16800000 2425688584 2425688584 -15.00000000
-1.72629178 1.72689438 -0.56372732 3 2 31501 2.50600000 2425688589 2425688589 -13.00000000
-2.04553723 2.04696584 -0.56250495 3 4 31502 2.94800000 2425688593 2425688593 -11.00000000
-2.49713397 2.50062323 -0.55972254 1 6 31504 3.57800000 2425688598 2425688598 -9.00000000
-3.04417944 3.05056190 -0.52915668 100 8 31506 4.34200000 2425688603 2425688603 -7.00000000
-3.50511050 3.51368546 -0.43420991 42 10 31507 4.98200000 2425688607 2425688607 -5.00000000
-7.18423176 7.20683718 -0.53330338 4 12 31509 10.19000000 2425688612 2425688612 -3.00000000
-7.88058472 7.90814114 2.57748914 51 13 31510 11.45800000 2425688614 2425688614 13.00000000
-6.77900171 6.80745697 2.57421422 45 15 31512 9.94600000 2425688619 2425688619 15.00000000
-1.47831619 1.48867297 -0.56215495 4 0 31520 2.17200000 2425688639 2425688639 -15.00000000
-1.70896947 1.72214401 -0.56012815 3 2 31522 2.49000000 2425688644 2425688644 -13.00000000
-2.02695990 2.04329896 -0.55945200 3 4 31523 2.93200000 2425688649 2425688649 -11.00000000
-2.49490547 2.51677322 -0.56128687 1 6 31525 3.58800000 2425688653 2425688653 -9.00000000
-3.01621366 3.04477572 -0.52623183 92 8 31527 4.31800000 2425688658 2425688658 -7.00000000
-3.49220872 3.52650881 -0.43420991 100 10 31528 4.98200000 2425688662 2425688662 -5.00000000
-7.19851017 7.27429008 -0.53633887 4 12 31530 10.24800000 2425688667 2425688667 -3.00000000
-7.84332418 7.92865944 2.57478976 40 13 31531 11.44600000 2425688669 2425688669 13.00000000
-6.75655651 6.83245230 2.57473183 45 15 31532 9.94800000 2425688674 2425688674 15.00000000
-1.46768486 1.48832202 -0.56008440 4 0 31540 2.16400000 2425688695 2425688695 -15.00000000
-1.71662593 1.74197924 -0.56462717 3 2 31542 2.51000000 2425688699 2425688699 -13.00000000
-2.01981521 2.05036211 -0.55945200 2 4 31543 2.93200000 2425688704 2425688704 -11.00000000
-2.48610520 2.52546668 -0.56128687 1 6 31545 3.58800000 2425688708 2425688708 -9.00000000
-3.00556707 3.05528569 -0.52623183 90 8 31547 4.31800000 2425688713 2425688713 -7.00000000
-3.46311378 3.52163053 -0.43211818 100 10 31548 4.95800000 2425688718 2425688718 -5.00000000
-7.17307425 7.29937315 -0.53633887 4 12 31550 10.24800000 2425688722 2425688722 -3.00000000
-7.81833124 7.95876980 2.57568955 51 13 31551 11.45000000 2425688725 2425688725 13.00000000
-6.72605562 6.85165596 2.57266140 45 15 31553 9.94000000 2425688729 2425688729 15.00000000
-1.46003759 1.49042082 -0.55904913 4 0 31559 2.16000000 2425688750 2425688750 -15.00000000
-1.70538700 1.74209201 -0.56282753 3 2 31561 2.50200000 2425688755 2425688755 -13.00000000
-2.01849723 2.06266141 -0.56097847 3 4 31562 2.94000000 2425688759 2425688759 -11.00000000
-2.46390557 2.51957393 -0.55815816 1 6 31564 3.56800000 2425688764 2425688764 -9.00000000
-2.99958110 3.06949496 -0.52696306 80 8 31566 4.32400000 2425688768 2425688768 -7.00000000
-3.43470955 3.51599264 -0.43002644 93 10 31567 4.93400000 2425688773 2425688773 -5.00000000
-7.17254686 7.34741592 -0.53811830 4 12 31569 10.28200000 2425688778 2425688778 -3.00000000
-7.79325724 7.98604727 2.57613945 51 13 31570 11.45200000 2425688780 2425688780 13.00000000
-6.69910097 6.86722136 2.57059073 45 15 31571 9.93200000 2425688785 2425688785 15.00000000
-1.45482612 1.49550819 -0.55904913 4 0 31579 2.16000000 2425688805 2425688805 -15.00000000
-1.70472896 1.75362349 -0.56462717 3 2 31581 2.51000000 2425688810 2425688810 -13.00000000
-2.01402140 2.07251048 -0.56174171 3 4 31582 2.94400000 2425688814 2425688814 -11.00000000
-2.47298598 2.54658198 -0.56222546 1 6 31584 3.59400000 2425688819 2425688819 -9.00000000
-2.99161315 3.08279586 -0.52745050 72 8 31586 4.32800000 2425688824 2425688824 -7.00000000
-3.41686630 3.52224040 -0.42932919 93 10 31587 4.92600000 2425688828 2425688828 -5.00000000
-7.10654116 7.33082104 -0.53508282 8 12 31589 10.22400000 2425688833 2425688833 -3.00000000
-7.76533318 8.01320267 2.57613945 55 13 31590 11.45200000 2425688835 2425688835 13.00000000
-6.68195009 6.90005541 2.57369661 45 15 31592 9.94400000 2425688840 2425688840 15.00000000
-1.45228148 1.50335622 -0.56008440 4 0 31599 2.16400000 2425688861 2425688861 -15.00000000
-1.69589031 1.75675941 -0.56372732 4 2 31601 2.50600000 2425688865 2425688865 -13.00000000
-2.00950122 2.08235359 -0.56250495 2 4 31602 2.94800000 2425688870 2425688870 -11.00000000
-2.45036936 2.54097939 -0.55909675 1 6 31604 3.57400000 2425688874 2425688874 -9.00000000
-2.97807908 3.09036088 -0.52696306 74 8 31606 4.32400000 2425688879 2425688879 -7.00000000
-3.39902139 3.52840638 -0.42863193 100 10 31607 4.91800000 2425688884 2425688884 -5.00000000
-7.10307074 7.37860489 -0.53675759 4 12 31609 10.25600000 2425688888 2425688888 -3.00000000
-7.73461199 8.03745079 2.57523966 52 13 31610 11.44800000 2425688891 2425688891 13.00000000
-6.65903187 6.92217588 2.57369661 45 15 31611 9.94400000 2425688895 2425688895 15.00000000
-1.45772374 1.51956928 -0.56422549 4 0 31619 2.18000000 2425688916 2425688916 -15.00000000
-1.68435347 1.75704134 -0.56192774 3 2 31621 2.49800000 2425688920 2425688920 -13.00000000
-1.99135339 2.07801557 -0.55945200 3 4 31622 2.93200000 2425688925 2425688925 -11.00000000
-2.44831610 2.55665088 -0.56066114 1 6 31624 3.58400000 2425688930 2425688930 -9.00000000
-2.95903873 3.09213233 -0.52550060 78 8 31626 4.31200000 2425688934 2425688934 -7.00000000
-3.38392973 3.53737020 -0.42828333 94 10 31627 4.91400000 2425688939 2425688939 -5.00000000
-7.21252346 7.54483795 -0.54701543 8 12 31629 10.45200000 2425688943 2425688943 -3.00000000
-7.69573832 8.05313015 2.57164049 53 13 31630 11.43200000 2425688946 2425688946 13.00000000
-6.63895273 6.95212412 2.57576704 45 15 31632 9.95200000 2425688950 2425688950 15.00000000
-1.44441569 1.51625586 -0.56111968 4 0 31639 2.16800000 2425688971 2425688971 -15.00000000
-1.68895924 1.77420187 -0.56552696 3 2 31641 2.51400000 2425688976 2425688976 -13.00000000
-1.98679447 2.08779860 -0.56021523 3 4 31642 2.93600000 2425688980 2425688980 -11.00000000
-2.45843434 2.58522201 -0.56504130 1 6 31644 3.61200000 2425688985 2425688985 -9.00000000
-2.95232964 3.10675955 -0.52623183 90 8 31646 4.31800000 2425688990 2425688990 -7.00000000
-3.35235023 3.52893782 -0.42584297 100 10 31647 4.88600000 2425688994 2425688994 -5.00000000
-7.25902224 7.64673996 -0.55256301 12 12 31649 10.55800000 2425688999 2425688999 -3.00000000
-7.66758060 8.07994366 2.57164049 54 13 31650 11.43200000 2425689001 2425689001 13.00000000
-6.60123730 6.95868444 2.57007313 45 15 31651 9.93000000 2425689006 2425689006 15.00000000
-1.43114865 1.51286817 -0.55801386 4 0 31659 2.15600000 2425689026 2425689026 -15.00000000
-1.68543315 1.78291881 -0.56642675 3 2 31661 2.51800000 2425689031 2425689031 -13.00000000
-1.98758519 2.10328245 -0.56250495 3 4 31662 2.94800000 2425689036 2425689036 -11.00000000
-2.43176389 2.57511711 -0.56097400 1 6 31664 3.58600000 2425689040 2425689040 -9.00000000
-2.94964147 3.12570858 -0.52769428 94 8 31666 4.33000000 2425689045 2425689045 -7.00000000
-3.32633972 3.52612519 -0.42409983 100 10 31667 4.86600000 2425689049 2425689049 -5.00000000
-7.15419531 7.58919334 -0.54659671 8 12 31669 10.44400000 2425689054 2425689054 -3.00000000
-7.64066601 8.10807800 2.57209039 55 13 31670 11.43400000 2425689056 2425689056 13.00000000
-6.56641722 6.97298765 2.56644964 42 15 31672 9.91600000 2425689061 2425689061 15.00000000
-1.43776321 1.53052688 -0.56267262 4 0 31679 2.17400000 2425689082 2425689082 -15.00000000
-1.67386436 1.78310800 -0.56462717 3 2 31681 2.51000000 2425689086 2425689086 -13.00000000
-1.98023117 2.11020780 -0.56250495 3 4 31682 2.94800000 2425689091 2425689091 -11.00000000
-2.42546272 2.58647180 -0.56159973 1 6 31684 3.59000000 2425689096 2425689096 -9.00000000
-2.95500112 3.15336752 -0.53061914 100 8 31686 4.35400000 2425689100 2425689100 -7.00000000
-3.30856276 3.53189850 -0.42340261 51 10 31687 4.85800000 2425689105 2425689105 -5.00000000
-7.09763193 7.58204222 -0.54429394 8 12 31689 10.40000000 2425689109 2425689109 -3.00000000
-7.61364841 8.13612270 2.57254028 53 13 31690 11.43600000 2425689112 2425689112 13.00000000
-6.55117607 7.00318909 2.56955552 42 15 31691 9.92800000 2425689116 2425689116 15.00000000
-1.43109417 1.53412366 -0.56215495 4 0 31699 2.17200000 2425689137 2425689137 -15.00000000
-1.66497242 1.78608918 -0.56372732 3 2 31701 2.50600000 2425689142 2425689142 -13.00000000
-1.98356068 2.12859750 -0.56555784 3 4 31702 2.96400000 2425689146 2425689146 -11.00000000
-2.41911197 2.59781361 -0.56222546 1 6 31704 3.59400000 2425689151 2425689151 -9.00000000
-2.95208979 3.17238259 -0.53208154 100 8 31706 4.36600000 2425689155 2425689155 -7.00000000
-3.28671479 3.53321457 -0.42218241 20 10 31707 4.84400000 2425689160 2425689160 -5.00000000
-7.83441067 8.42493057 2.23628139 3 11 31708 11.72000000 2425689162 2425689162 11.00000000
-7.02760792 7.55996037 -0.54094446 4 12 31709 10.33600000 2425689165 2425689165 -3.00000000
-7.57856894 8.15551186 2.57029080 55 13 31710 11.42600000 2425689167 2425689167 13.00000000
-6.52546406 7.02715349 2.56955552 42 15 31712 9.92800000 2425689172 2425689172 15.00000000
-1.42862511 1.54169488 -0.56319022 4 0 31718 2.17600000 2425689192 2425689192 -15.00000000
-1.66433656 1.79732001 -0.56552696 3 2 31720 2.51400000 2425689197 2425689197 -13.00000000
-1.97115636 2.12940073 -0.56403136 3 4 31721 2.95600000 2425689202 2425689202 -11.00000000
-2.42121506 2.61742234 -0.56472844 11 6 31723 3.61000000 2425689206 2425689206 -9.00000000
-2.94694352 3.18798542 -0.53305650 100 8 31725 4.37400000 2425689211 2425689211 -7.00000000
-7.02282429 7.60523319 -0.54251450 8 12 31728 10.36600000 2425689220 2425689220 -3.00000000
-7.54090834 8.16914272 2.56669164 56 13 31729 11.41000000 2425689222 2425689222 13.00000000
-6.50335550 7.04761887 2.56955552 42 15 31730 9.92800000 2425689227 2425689227 15.00000000
-1.42061865 1.54382920 -0.56215495 4 0 31738 2.17200000 2425689248 2425689248 -15.00000000
-1.65805256 1.80311871 -0.56552696 3 2 31740 2.51400000 2425689252 2425689252 -13.00000000
-1.94245338 2.11314225 -0.55792552 3 4 31741 2.92400000 2425689257 2425689257 -11.00000000
-2.42542720 2.64040565 -0.56785709 7 6 31743 3.63000000 2425689261 2425689261 -9.00000000
-2.94250917 3.20556474 -0.53427517 100 8 31745 4.38400000 2425689266 2425689266 -7.00000000
-4.27962208 4.66384697 -0.55378759 3 10 31746 6.35400000 2425689271 2425689271 -5.00000000
-7.00838280 7.64294958 -0.54345655 8 12 31748 10.38400000 2425689275 2425689275 -3.00000000
-7.51103020 8.19397926 2.56624174 54 13 31749 11.40800000 2425689278 2425689278 13.00000000
-6.47349453 7.06457996 2.56748486 42 15 31750 9.92000000 2425689282 2425689282 15.00000000
-1.41000843 1.54307413 -0.56008440 4 0 31758 2.16400000 2425689303 2425689303 -15.00000000
-1.65963268 1.81752968 -0.56822634 3 2 31760 2.52600000 2425689308 2425689308 -13.00000000
-1.95624244 2.14310980 -0.56403136 3 4 31761 2.95600000 2425689312 2425689312 -11.00000000
-2.40421438 2.63572097 -0.56504130 1 6 31763 3.61200000 2425689317 2425689317 -9.00000000
-2.92996454 3.21434951 -0.53403145 100 8 31765 4.38200000 2425689321 2425689321 -7.00000000
-4.28076124 4.69790220 -0.55605364 3 10 31766 6.38000000 2425689326 2425689326 -5.00000000
-6.97897196 7.66441345 -0.54324722 4 12 31768 10.38000000 2425689331 2425689331 -3.00000000
-7.49156427 8.23023510 2.56939101 56 13 31769 11.42200000 2425689333 2425689333 13.00000000
-6.44359446 7.08141804 2.56541443 40 15 31770 9.91200000 2425689337 2425689337 15.00000000
-1.41110432 1.55513990 -0.56267262 4 0 31778 2.17400000 2425689358 2425689358 -15.00000000
-1.64804220 1.81753731 -0.56642675 3 2 31780 2.51800000 2425689363 2425689363 -13.00000000
-1.94611263 2.14701629 -0.56326813 3 4 31781 2.95200000 2425689367 2425689367 -11.00000000
-2.38439035 2.63238478 -0.56253833 1 6 31783 3.59600000 2425689372 2425689372 -9.00000000
-2.91606236 3.22161388 -0.53354400 100 8 31785 4.37800000 2425689377 2425689377 -7.00000000
-4.25497913 4.70247459 -0.55483347 7 10 31786 6.36600000 2425689381 2425689381 -5.00000000
-6.96958923 7.70798683 -0.54460794 4 12 31788 10.40600000 2425689386 2425689386 -3.00000000
-7.45886946 8.25199890 2.56804132 54 13 31789 11.41600000 2425689388 2425689388 13.00000000
-6.41759682 7.10498762 2.56541443 42 15 31791 9.91200000 2425689393 2425689393 15.00000000
-1.40954673 1.56436169 -0.56422549 4 0 31798 2.18000000 2425689414 2425689414 -15.00000000
-1.63647187 1.81748617 -0.56462717 3 2 31800 2.51000000 2425689418 2425689418 -13.00000000
-1.94648683 2.16255164 -0.56555784 2 4 31801 2.96400000 2425689423 2425689423 -11.00000000
-2.38443422 2.65097260 -0.56472844 1 6 31803 3.61000000 2425689427 2425689427 -9.00000000
-2.89418292 3.21996212 -0.53159410 86 8 31805 4.36200000 2425689432 2425689432 -7.00000000
-4.26250744 4.74397516 -0.55797106 7 10 31806 6.40200000 2425689437 2425689437 -5.00000000
-6.96132183 7.75307417 -0.54607338 4 12 31808 10.43400000 2425689441 2425689441 -3.00000000
-7.41570091 8.26203251 2.56309223 44 13 31809 11.39400000 2425689443 2425689443 13.00000000
-6.39658070 7.12910557 2.56644964 45 15 31810 9.91600000 2425689448 2425689448 15.00000000
-1.40665376 1.57215178 -0.56526077 4 0 31818 2.18400000 2425689469 2425689469 -15.00000000
-1.63791108 1.83190382 -0.56732655 3 2 31820 2.52200000 2425689473 2425689473 -13.00000000
-1.93892622 2.16933298 -0.56555784 3 4 31821 2.96400000 2425689478 2425689478 -11.00000000
-2.37121844 2.65485978 -0.56378978 1 6 31823 3.60400000 2425689483 2425689483 -9.00000000
-2.87235093 3.21819735 -0.52964419 56 8 31825 4.34600000 2425689487 2425689487 -7.00000000
-4.23928976 4.75139189 -0.55709952 7 10 31826 6.39200000 2425689492 2425689492 -5.00000000
-6.95149517 7.79670620 -0.54743409 4 12 31828 10.46000000 2425689496 2425689496 -3.00000000
-6.35341358 7.12840986 2.20452023 10 13 31829 9.80000000 2425689499 2425689499 13.00000000
-6.37422657 7.15427542 2.56748486 42 15 31830 9.92000000 2425689503 2425689503 15.00000000
-1.39089251 1.56549895 -0.56111968 4 0 31838 2.16800000 2425689524 2425689524 -15.00000000
-1.63150656 1.83761013 -0.56732655 3 2 31840 2.52200000 2425689529 2425689529 -13.00000000
-1.91831005 2.16140437 -0.56174171 2 4 31841 2.94400000 2425689533 2425689533 -11.00000000
-2.37766552 2.68085504 -0.56754422 1 6 31843 3.62800000 2425689538 2425689538 -9.00000000
-2.87558293 3.24454570 -0.53232527 48 8 31845 4.36800000 2425689542 2425689542 -7.00000000
-4.23324823 4.77809143 -0.55849397 7 10 31846 6.40800000 2425689547 2425689547 -5.00000000
-6.92820930 7.82541037 -0.54774809 4 12 31848 10.46600000 2425689552 2425689552 -3.00000000
-6.30266142 7.12135792 2.19552231 15 13 31849 9.76000000 2425689554 2425689554 13.00000000
-6.34153414 7.16780043 2.56437922 42 15 31850 9.90800000 2425689559 2425689559 15.00000000
-1.38925362 1.57469046 -0.56267262 4 0 31858 2.17400000 2425689579 2425689579 -15.00000000
-1.62765968 1.84621751 -0.56822634 3 2 31860 2.52600000 2425689584 2425689584 -13.00000000
-1.91854203 2.17692471 -0.56403136 3 4 31861 2.95600000 2425689589 2425689589 -11.00000000
-2.34609842 2.66393685 -0.56222546 1 6 31863 3.59400000 2425689593 2425689593 -9.00000000
-2.96522284 3.36930776 -0.55109316 10 8 31865 4.52200000 2425689598 2425689598 -7.00000000
-4.22838831 4.80630207 -0.56006283 3 10 31866 6.42600000 2425689602 2425689602 -5.00000000
-6.90085125 7.84954643 -0.54774809 4 12 31868 10.46600000 2425689607 2425689607 -3.00000000
-6.26104116 7.12428570 2.18967366 16 13 31869 9.73400000 2425689609 2425689609 13.00000000
-6.30629683 7.18083429 2.56075573 40 15 31871 9.89400000 2425689614 2425689614 15.00000000
-1.38502145 1.58098340 -0.56319022 4 0 31878 2.17600000 2425689635 2425689635 -15.00000000
-1.61093628 1.84015775 -0.56462717 3 2 31880 2.51000000 2425689639 2425689639 -13.00000000
-1.91351736 2.18656325 -0.56479460 3 4 31881 2.96000000 2425689644 2425689644 -11.00000000
-2.34198689 2.67805815 -0.56347692 1 6 31883 3.60200000 2425689648 2425689648 -9.00000000
-2.96128106 3.38860631 -0.55255562 10 8 31885 4.53400000 2425689653 2425689653 -7.00000000
-4.20634222 4.81503057 -0.55936557 3 10 31886 6.41800000 2425689658 2425689658 -5.00000000
-6.88917112 7.89164209 -0.54900420 4 12 31888 10.49000000 2425689662 2425689662 -3.00000000
-6.05418873 6.93760204 2.12578750 90 13 31889 9.45000000 2425689665 2425689665 13.00000000
-6.28372002 7.20316315 2.56127334 42 15 31890 9.89600000 2425689669 2425689669 15.00000000
-1.38076222 1.58726585 -0.56370789 4 0 31898 2.17800000 2425689690 2425689690 -15.00000000
-1.60833859 1.85018194 -0.56597686 4 2 31900 2.51600000 2425689694 2425689694 -13.00000000
-1.91102421 2.19915700 -0.56632107 3 4 31901 2.96800000 2425689699 2425689699 -11.00000000
-2.34687138 2.70262361 -0.56691849 1 6 31903 3.62400000 2425689704 2425689704 -9.00000000
-2.94162846 3.38992667 -0.55109316 12 8 31905 4.52200000 2425689708 2425689708 -7.00000000
-4.20648098 4.84924984 -0.56163162 3 10 31906 6.44400000 2425689713 2425689713 -5.00000000
-6.89821196 7.95789909 -0.55193502 4 12 31908 10.54600000 2425689718 2425689718 -3.00000000
-6.17031479 7.12069416 2.17527676 20 13 31909 9.67000000 2425689720 2425689720 13.00000000
-6.05489492 6.98996210 2.47793365 45 15 31910 9.57400000 2425689724 2425689724 15.00000000
-1.38082218 1.59744191 -0.56577843 4 0 31916 2.18600000 2425689745 2425689745 -15.00000000
-1.60379207 1.85670030 -0.56642675 4 2 31918 2.51800000 2425689750 2425689750 -13.00000000
-1.91180444 2.21406531 -0.56861079 2 4 31919 2.98000000 2425689754 2425689754 -11.00000000
-2.34095025 2.71297431 -0.56754422 1 6 31921 3.62800000 2425689759 2425689759 -9.00000000
-2.92837167 3.39614439 -0.55060571 12 8 31923 4.51800000 2425689764 2425689764 -7.00000000
-4.20033169 4.87300491 -0.56285179 3 10 31924 6.45800000 2425689768 2425689768 -5.00000000
-6.87578440 7.98255777 -0.55214435 4 12 31926 10.55000000 2425689773 2425689773 -3.00000000
-6.13265514 7.12232304 2.16987777 18 13 31927 9.64600000 2425689775 2425689775 13.00000000
-6.24588442 7.25894737 2.56593204 45 15 31929 9.91400000 2425689780 2425689780 15.00000000
-1.37775409 1.60518408 -0.56681371 4 0 31936 2.19000000 2425689800 2425689800 -15.00000000
-1.60110724 1.86672473 -0.56777644 4 2 31938 2.52400000 2425689805 2425689805 -13.00000000
-1.88617373 2.19985938 -0.56326813 2 4 31939 2.95200000 2425689810 2425689810 -11.00000000
-2.32118392 2.70912862 -0.56504130 1 6 31941 3.61200000 2425689814 2425689814 -9.00000000
-2.91908097 3.40936160 -0.55109316 12 8 31943 4.52200000 2425689819 2425689819 -7.00000000
-4.18847847 4.89369154 -0.56354904 7 10 31944 6.46600000 2425689824 2425689824 -5.00000000
-6.86605263 8.02775955 -0.55360973 4 12 31946 10.57800000 2425689828 2425689828 -3.00000000
-6.09382629 7.12739372 2.16492891 20 13 31947 9.62400000 2425689830 2425689830 13.00000000
-6.21548843 7.27483034 2.56386137 45 15 31949 9.90600000 2425689835 2425689835 15.00000000
-1.35808039 1.59404719 -0.56111968 4 0 31957 2.16800000 2425689856 2425689856 -15.00000000
-1.59172809 1.86961293 -0.56687665 4 2 31959 2.52000000 2425689860 2425689860 -13.00000000
-1.88573265 2.21572852 -0.56555784 3 4 31960 2.96400000 2425689865 2425689865 -11.00000000
-2.31763768 2.72514176 -0.56660563 1 6 31962 3.62200000 2425689870 2425689870 -9.00000000
-2.90785098 3.42155027 -0.55133688 10 8 31964 4.52400000 2425689874 2425689874 -7.00000000
-4.17180395 4.91052866 -0.56372333 7 10 31965 6.46800000 2425689879 2425689879 -5.00000000
-6.03403330 7.10502625 1.81192219 18 11 31966 9.49600000 2425689881 2425689881 11.00000000
-6.84433889 8.06200600 -0.55423778 4 12 31967 10.59000000 2425689883 2425689883 -3.00000000
-6.05505276 7.13482285 2.16042995 16 13 31968 9.60400000 2425689886 2425689886 13.00000000
-6.18253565 7.29019547 2.56127334 42 15 31970 9.89600000 2425689890 2425689890 15.00000000
-1.36248946 1.61057723 -0.56526077 4 0 31977 2.18400000 2425689911 2425689911 -15.00000000
-1.58645034 1.87664592 -0.56732655 4 2 31979 2.52200000 2425689916 2425689916 -13.00000000
-1.88305569 2.22829556 -0.56708431 3 4 31980 2.97200000 2425689920 2425689920 -11.00000000
-2.30173850 2.72566915 -0.56504130 1 6 31982 3.61200000 2425689925 2425689925 -9.00000000
-2.89589000 3.43167973 -0.55133688 8 8 31984 4.52400000 2425689930 2425689930 -7.00000000
-4.14821434 4.91744661 -0.56285179 7 10 31985 6.45800000 2425689934 2425689934 -5.00000000
-6.02185154 7.14105415 1.81573844 25 11 31986 9.51600000 2425689936 2425689936 11.00000000
-6.82516670 8.09653759 -0.55497050 4 12 31987 10.60400000 2425689939 2425689939 -3.00000000
-6.01629734 7.13952303 2.15548110 12 13 31988 9.58200000 2425689941 2425689941 13.00000000
-6.15705013 7.31173229 2.56127334 42 15 31990 9.89600000 2425689946 2425689946 15.00000000
-1.35685909 1.61532331 -0.56526077 4 0 31997 2.18400000 2425689966 2425689966 -15.00000000
-1.57738411 1.87918711 -0.56642675 4 2 31999 2.51800000 2425689971 2425689971 -13.00000000
-1.87274206 2.23184705 -0.56632107 3 4 32000 2.96800000 2425689976 2425689976 -11.00000000
-2.29347944 2.73520064 -0.56535417 1 6 32002 3.61400000 2425689980 2425689980 -9.00000000
-2.87496901 3.43111634 -0.54963076 8 8 32004 4.51000000 2425689985 2425689985 -7.00000000
-4.13614130 4.93800592 -0.56354904 7 10 32005 6.46600000 2425689989 2425689989 -5.00000000
-6.01075220 7.17858887 1.81993616 9 11 32006 9.53800000 2425689992 2425689992 11.00000000
-6.79558086 8.11878109 -0.55486584 4 12 32007 10.60200000 2425689994 2425689994 -3.00000000
-5.96757889 7.13208389 2.14693284 14 13 32008 9.54400000 2425689996 2425689996 13.00000000
-6.13276958 7.33210945 2.56127334 40 15 32009 9.89600000 2425690001 2425690001 15.00000000
-1.35368705 1.62301695 -0.56629604 4 0 32017 2.18800000 2425690022 2425690022 -15.00000000
-1.57455790 1.88917255 -0.56777644 4 2 32019 2.52400000 2425690026 2425690026 -13.00000000
-1.86745346 2.24138737 -0.56708431 3 4 32020 2.97200000 2425690031 2425690031 -11.00000000
-2.28897357 2.74926209 -0.56660563 1 6 32022 3.62200000 2425690035 2425690035 -9.00000000
-2.87567067 3.45639110 -0.55206811 8 8 32024 4.53000000 2425690040 2425690040 -7.00000000
-4.14308548 4.98151875 -0.56686097 8 10 32025 6.50400000 2425690045 2425690045 -5.00000000
-6.02958679 7.25236416 1.83329284 9 11 32026 9.60800000 2425690047 2425690047 11.00000000
-6.77741241 8.15474129 -0.55570316 4 12 32027 10.61800000 2425690049 2425690049 -3.00000000
-5.98623276 7.20533323 2.16267943 32 13 32028 9.61400000 2425690052 2425690052 13.00000000
-6.02441072 7.25643778 2.52710915 47 15 32030 9.76400000 2425690056 2425690056 15.00000000
-1.35104692 1.63023651 -0.56733137 4 0 32035 2.19200000 2425690077 2425690077 -15.00000000
-1.56985819 1.89561081 -0.56822634 4 2 32037 2.52600000 2425690082 2425690082 -13.00000000
-1.85789883 2.24421835 -0.56632107 2 4 32038 2.96800000 2425690086 2425690086 -11.00000000
-2.29291677 2.77166009 -0.56973433 1 6 32040 3.64200000 2425690091 2425690091 -9.00000000
-2.87618136 3.47917795 -0.55426174 8 8 32042 4.54800000 2425690095 2425690095 -7.00000000
-4.13883781 5.00833225 -0.56842977 4 10 32043 6.52200000 2425690100 2425690100 -5.00000000
-6.75303173 8.17753220 -0.55580783 4 12 32045 10.62000000 2425690105 2425690105 -3.00000000
-7.03916788 8.52705765 2.55274463 45 13 32046 11.34800000 2425690107 2425690107 13.00000000
-6.08400679 7.37262201 2.56127334 42 15 32047 9.89600000 2425690112 2425690112 15.00000000
-1.33921063 1.62748396 -0.56474316 4 0 32055 2.18200000 2425690132 2425690132 -15.00000000
-1.56942022 1.90860510 -0.57047588 4 2 32057 2.53600000 2425690137 2425690137 -13.00000000
-1.85753369 2.25978994 -0.56861079 3 4 32058 2.98000000 2425690141 2425690141 -11.00000000
-2.26567411 2.75827694 -0.56535417 1 6 32060 3.61400000 2425690146 2425690146 -9.00000000
-2.89928412 3.53215933 -0.56108648 8 8 32062 4.60400000 2425690151 2425690151 -7.00000000
-4.11121941 5.01042700 -0.56703526 4 10 32063 6.50600000 2425690155 2425690155 -5.00000000
-6.74850702 8.23040009 -0.55779660 8 12 32065 10.65800000 2425690160 2425690160 -3.00000000
-7.01677227 8.56062031 2.55544400 55 13 32066 11.36000000 2425690162 2425690162 13.00000000
-6.05449581 7.39188242 2.56023788 42 15 32068 9.89200000 2425690167 2425690167 15.00000000
-1.34150410 1.64308918 -0.56836665 4 0 32077 2.19600000 2425690188 2425690188 -15.00000000
-1.56208014 1.91461718 -0.57047588 4 2 32079 2.53600000 2425690192 2425690192 -13.00000000
-1.84139812 2.25777721 -0.56632107 3 4 32080 2.96800000 2425690197 2425690197 -11.00000000
-2.25631452 2.76848722 -0.56566703 1 6 32082 3.61600000 2425690201 2425690201 -9.00000000
-2.89823580 3.55865788 -0.56352383 8 8 32084 4.62400000 2425690206 2425690206 -7.00000000
-4.09572458 5.03081131 -0.56755817 4 10 32085 6.51200000 2425690211 2425690211 -5.00000000
-6.71181297 8.25005436 -0.55737793 8 12 32087 10.65000000 2425690215 2425690215 -3.00000000
-6.98262072 8.58598709 2.55499411 60 13 32088 11.35800000 2425690218 2425690218 13.00000000
-6.02492523 7.41102552 2.55920267 42 15 32089 9.88800000 2425690222 2425690222 15.00000000
-1.33697701 1.64926267 -0.56888425 5 0 32097 2.19800000 2425690243 2425690243 -15.00000000
-1.55048084 1.91400123 -0.56867629 4 2 32099 2.52800000 2425690247 2425690247 -13.00000000
-1.84586096 2.27944851 -0.57013726 3 4 32100 2.98800000 2425690252 2425690252 -11.00000000
-2.25533509 2.78709555 -0.56785709 1 6 32102 3.63000000 2425690257 2425690257 -9.00000000
-2.89952612 3.58573222 -0.56620497 8 8 32104 4.64600000 2425690261 2425690261 -7.00000000
-4.09066343 5.06057215 -0.56930131 4 10 32105 6.53200000 2425690266 2425690266 -5.00000000
-6.70932961 8.30605984 -0.55957603 8 12 32107 10.69200000 2425690270 2425690270 -3.00000000
-6.95015860 8.60727692 2.55409431 59 13 32108 11.35400000 2425690273 2425690273 13.00000000
-6.00014830 7.43606520 2.56023788 42 15 32110 9.89200000 2425690277 2425690277 15.00000000
-1.32815361 1.64894116 -0.56733137 5 0 32115 2.19200000 2425690298 2425690298 -15.00000000
-1.54690397 1.92189884 -0.56957608 4 2 32117 2.53200000 2425690303 2425690303 -13.00000000
-1.82638359 2.26993990 -0.56632107 3 4 32118 2.96800000 2425690307 2425690307 -11.00000000
-2.25770807 2.80802250 -0.57067293 1 6 32120 3.64800000 2425690312 2425690312 -9.00000000
-2.87830043 3.58244371 -0.56425506 8 8 32122 4.63000000 2425690317 2425690317 -7.00000000
-4.08472633 5.08582544 -0.57069582 4 10 32123 6.54800000 2425690321 2425690321 -5.00000000
