# .PCD v0.7 - Point Cloud Data file format
VERSION 0.7
FIELDS x y z intensity laser_id azimuth distance_m adjustedtime timestamp vertical_angle
SIZE 4 4 4 1 1 2 8 8 4 8
TYPE F F F U U U F U U F
COUNT 1 1 1 1 1 1 1 1 1 1
WIDTH 539
HEIGHT 1
VIEWPOINT 0 0 0 1 0 0 0
POINTS 539
DATA ascii
8.15932083 1.67486799 1.02272749 95 7 7840 8.39200000 2424422873 2424422873 7.00000000
5.26602268 1.08000147 -0.66004437 9 8 7841 5.41600000 2424422875 2424422875 -7.00000000
6.74359035 1.38180733 -0.60224617 4 10 7842 6.91000000 2424422880 2424422880 -5.00000000
8.15180111 1.66739452 -0.43606320 17 12 7844 8.33200000 2424422884 2424422884 -3.00000000
8.26144981 1.68832016 1.94672644 3 13 7845 8.65400000 2424422887 2424422887 13.00000000
8.14861298 1.66377914 -0.14516912 14 14 7846 8.31800000 2424422889 2424422889 -1.00000000
8.20747280 1.67430484 2.24447870 47 15 7847 8.67200000 2424422891 2424422891 15.00000000
2.20573831 0.44715911 -0.60304838 4 0 7854 2.33000000 2424422912 2424422912 -15.00000000
8.15513611 1.65177119 0.14523892 18 1 7855 8.32200000 2424422914 2424422914 1.00000000
2.58617306 0.52334309 -0.60916746 6 2 7856 2.70800000 2424422917 2424422917 -13.00000000
8.15556335 1.64889443 0.43606320 100 3 7857 8.33200000 2424422919 2424422919 3.00000000
3.13856292 0.63455564 -0.62241894 5 4 7857 3.26200000 2424422921 2424422921 -11.00000000
8.14573097 1.64542663 0.72705323 76 5 7858 8.34200000 2424422924 2424422924 5.00000000
3.92108178 0.79134095 -0.63355958 9 6 7859 4.05000000 2424422926 2424422926 -9.00000000
8.16511726 1.64637637 1.02272749 95 7 7860 8.39200000 2424422928 2424422928 7.00000000
5.26586866 1.06082892 -0.65955687 9 8 7861 5.41200000 2424422931 2424422931 -7.00000000
8.12929821 1.63620126 -0.72548443 17 10 7862 8.32400000 2424422935 2424422935 -5.00000000
8.15561390 1.63853586 -0.43595850 12 12 7864 8.33000000 2424422940 2424422940 -3.00000000
8.24245453 1.65448630 1.94087768 3 13 7865 8.62800000 2424422942 2424422942 13.00000000
8.14848900 1.63414538 -0.14506440 16 14 7866 8.31200000 2424422944 2424422944 -1.00000000
8.21487331 1.64745855 2.24499631 51 15 7866 8.67400000 2424422947 2424422947 15.00000000
2.19970703 0.43794808 -0.60097784 4 0 7874 2.32200000 2424422967 2424422967 -15.00000000
8.16281319 1.62368453 0.14527383 15 1 7875 8.32400000 2424422970 2424422970 1.00000000
2.59180689 0.51507217 -0.61006725 6 2 7876 2.71200000 2424422972 2424422972 -13.00000000
8.15735149 1.61963820 0.43585384 100 3 7877 8.32800000 2424422974 2424422974 3.00000000
3.12727928 0.62091976 -0.61974764 5 4 7877 3.24800000 2424422977 2424422977 -11.00000000
8.14360714 1.61543202 0.72635597 76 5 7878 8.33400000 2424422979 2424422979 5.00000000
3.92575788 0.77803302 -0.63387245 6 6 7879 4.05200000 2424422981 2424422981 -9.00000000
8.17081451 1.61786485 1.02272749 95 7 7880 8.39200000 2424422984 2424422984 7.00000000
5.26759195 1.04205596 -0.65931314 9 8 7881 5.41000000 2424422986 2424422986 -7.00000000
8.11150551 1.60317910 -0.72339267 17 10 7882 8.30000000 2424422990 2424422990 -5.00000000
8.14952660 1.60773814 -0.43533048 17 12 7884 8.31800000 2424422995 2424422995 -3.00000000
8.25200367 1.62645841 1.94177747 3 13 7885 8.63200000 2424422997 2424422997 13.00000000
8.13648510 1.60221469 -0.14475025 14 14 7886 8.29400000 2424423000 2424423000 -1.00000000
8.20379734 1.61398232 2.24033761 47 15 7887 8.65600000 2424423002 2424423002 15.00000000
2.20114732 0.43065116 -0.60097784 4 0 7893 2.32200000 2424423023 2424423023 -15.00000000
8.15441513 1.59392142 0.14502950 12 1 7894 8.31000000 2424423025 2424423025 1.00000000
2.60115099 0.50796866 -0.61186689 6 2 7895 2.72000000 2424423027 2424423027 -13.00000000
8.16071796 1.59219611 0.43574917 99 3 7896 8.32600000 2424423030 2424423030 3.00000000
3.13895559 0.61242568 -0.62165570 5 4 7896 3.25800000 2424423032 2424423032 -11.00000000
8.13327503 1.58536839 0.72496146 76 5 7897 8.31800000 2424423034 2424423034 5.00000000
3.93025517 0.76538807 -0.63418531 9 6 7898 4.05400000 2424423037 2424423037 -9.00000000
8.17613411 1.59076047 1.02272749 92 7 7899 8.39200000 2424423039 2424423039 7.00000000
5.27296734 1.02496099 -0.65955687 9 8 7900 5.41200000 2424423041 2424423041 -7.00000000
7.86056089 1.52651453 -0.70055789 21 10 7901 8.03800000 2424423046 2424423046 -5.00000000
8.14893150 1.57956421 -0.43501648 17 12 7903 8.31200000 2424423050 2424423050 -3.00000000
8.26500416 1.60056674 1.94357705 2 13 7904 8.64000000 2424423053 2424423053 13.00000000
8.14175320 1.57522440 -0.14475025 16 14 7905 8.29400000 2424423055 2424423055 -1.00000000
8.20124054 1.58673346 2.23826718 47 15 7905 8.64800000 2424423057 2424423057 15.00000000
2.20453429 0.42332941 -0.60149544 4 0 7913 2.32400000 2424423078 2424423078 -15.00000000
8.13832664 1.56130314 0.14464554 12 1 7914 8.28800000 2424423080 2424423080 1.00000000
2.59525275 0.49741852 -0.61006725 6 2 7915 2.71200000 2424423083 2424423083 -13.00000000
8.16426373 1.56332457 0.43564451 100 3 7916 8.32400000 2424423085 2424423085 3.00000000
3.13528967 0.60035729 -0.62051088 5 4 7916 3.25200000 2424423087 2424423087 -11.00000000
8.13680267 1.55659401 0.72478718 76 5 7917 8.31600000 2424423090 2424423090 5.00000000
3.92320180 0.74981016 -0.63262099 6 6 7918 4.04400000 2424423092 2424423092 -9.00000000
8.17383766 1.56072152 1.02175260 92 7 7919 8.38400000 2424423094 2424423094 7.00000000
5.27261305 1.00580478 -0.65906942 9 8 7920 5.40800000 2424423096 2424423096 -7.00000000
7.85409832 1.49682879 -0.69951200 17 10 7921 8.02600000 2424423101 2424423101 -5.00000000
8.14654732 1.54961669 -0.43459779 17 12 7923 8.30400000 2424423106 2424423106 -3.00000000
8.26479721 1.57061529 1.94222736 1 13 7924 8.63400000 2424423108 2424423108 13.00000000
8.14720249 1.54679477 -0.14475025 18 14 7925 8.29400000 2424423110 2424423110 -1.00000000
8.19940853 1.55522382 2.23619652 47 15 7926 8.64000000 2424423113 2424423113 15.00000000
2.20220160 0.41491619 -0.60046017 4 0 7933 2.32000000 2424423133 2424423133 -15.00000000
8.14765739 1.53362536 0.14471535 15 1 7934 8.29200000 2424423136 2424423136 1.00000000
2.59122777 0.48727593 -0.60871756 7 2 7935 2.70600000 2424423138 2424423138 -13.00000000
8.15200520 1.53149748 0.43470246 100 3 7936 8.30600000 2424423140 2424423140 3.00000000
3.15666127 0.59303433 -0.62432700 5 4 7936 3.27200000 2424423143 2424423143 -11.00000000
8.14806080 1.52928436 0.72531009 76 5 7937 8.32200000 2424423145 2424423145 5.00000000
3.93356133 0.73756725 -0.63387245 6 6 7938 4.05200000 2424423147 2424423147 -9.00000000
8.16167545 1.52889049 1.01955891 90 7 7939 8.36600000 2424423149 2424423149 7.00000000
5.27218962 0.98666340 -0.65858191 9 8 7940 5.40400000 2424423152 2424423152 -7.00000000
7.87102604 1.47160065 -0.70055789 17 10 7941 8.03800000 2424423156 2424423156 -5.00000000
8.14601612 1.52007139 -0.43428376 25 12 7943 8.29800000 2424423161 2424423161 -3.00000000
8.15255260 1.51834631 -0.14475025 14 14 7945 8.29400000 2424423166 2424423166 -1.00000000
8.20452118 1.52802503 2.23619652 47 15 7945 8.64000000 2424423168 2424423168 15.00000000
2.21503472 0.40933290 -0.60356599 4 0 7953 2.33200000 2424423189 2424423189 -15.00000000
8.15492725 1.50553834 0.14475025 15 1 7954 8.29400000 2424423191 2424423191 1.00000000
2.59674573 0.47893482 -0.60961735 7 2 7955 2.71000000 2424423193 2424423193 -13.00000000
8.15337276 1.50230861 0.43449309 99 3 7956 8.30200000 2424423196 2424423196 3.00000000
3.14712763 0.57987738 -0.62203735 5 4 7956 3.26000000 2424423198 2424423198 -11.00000000
8.14943027 1.50011158 0.72496146 76 5 7957 8.31800000 2424423200 2424423200 5.00000000
3.93805480 0.72418934 -0.63418531 9 6 7958 4.05400000 2424423202 2424423202 -9.00000000
8.16696262 1.50039160 1.01955891 90 7 7959 8.36600000 2424423205 2424423205 7.00000000
5.26779127 0.96682066 -0.65760696 9 8 7960 5.39600000 2424423207 2424423207 -7.00000000
7.87219572 1.44339812 -0.70020926 17 10 7961 8.03400000 2424423212 2424423212 -5.00000000
8.13752079 1.48911059 -0.43355107 17 12 7963 8.28400000 2424423216 2424423216 -3.00000000
8.14403248 1.48736441 -0.14450592 12 14 7965 8.28000000 2424423221 2424423221 -1.00000000
8.20790482 1.49902952 2.23567891 47 15 7965 8.63800000 2424423223 2424423223 15.00000000
2.20504451 0.39953196 -0.60046017 4 0 7973 2.32000000 2424423244 2424423244 -15.00000000
8.15029430 1.47528231 0.14457573 15 1 7974 8.28400000 2424423246 2424423246 1.00000000
2.59840155 0.46986756 -0.60961735 7 2 7975 2.71000000 2424423249 2424423249 -13.00000000
8.15463638 1.47312868 0.43428376 91 3 7976 8.29800000 2424423251 2424423251 3.00000000
3.14720058 0.56853932 -0.62165570 5 4 7976 3.25800000 2424423253 2424423253 -11.00000000
8.14285278 1.46953261 0.72391558 76 5 7977 8.30600000 2424423255 2424423255 5.00000000
3.94055867 0.71043855 -0.63418531 9 6 7978 4.05400000 2424423258 2424423258 -9.00000000
8.16824341 1.47117066 1.01907146 87 7 7979 8.36200000 2424423260 2424423260 7.00000000
5.27113438 0.94842672 -0.65760696 9 8 7980 5.39600000 2424423262 2424423262 -7.00000000
7.88110828 1.41661513 -0.70055789 17 10 7981 8.03800000 2424423267 2424423267 -5.00000000
8.13677120 1.45963836 -0.43323705 17 12 7983 8.27800000 2424423272 2424423272 -3.00000000
8.14130116 1.45751774 -0.14436631 12 14 7985 8.27200000 2424423276 2424423276 -1.00000000
8.20357895 1.46866727 2.23309064 47 15 7985 8.62800000 2424423278 2424423278 15.00000000
2.19311118 0.38946795 -0.59683675 4 0 7993 2.30600000 2424423299 2424423299 -15.00000000
8.15539455 1.44682348 0.14457573 15 1 7994 8.28400000 2424423302 2424423302 1.00000000
2.60002589 0.46079460 -0.60961735 7 2 7995 2.71000000 2424423304 2424423304 -13.00000000
8.15776253 1.44430661 0.43417910 97 3 7996 8.29600000 2424423306 2424423306 3.00000000
3.13949990 0.55583876 -0.61974764 5 4 7996 3.24800000 2424423308 2424423308 -11.00000000
8.13419914 1.43867075 0.72269541 72 5 7997 8.29200000 2424423311 2424423311 5.00000000
3.93328834 0.69496059 -0.63262099 6 6 7998 4.04400000 2424423313 2424423313 -9.00000000
8.16941929 1.44195914 1.01858401 90 7 7999 8.35800000 2424423315 2424423315 7.00000000
5.26659298 0.92864245 -0.65663201 6 8 8000 5.38800000 2424423318 2424423318 -7.00000000
7.87619400 1.38736820 -0.69968629 21 10 8001 8.02800000 2424423322 2424423322 -5.00000000
8.14771843 1.43226409 -0.43355107 17 12 8003 8.28400000 2424423327 2424423327 -3.00000000
8.13846111 1.42770839 -0.14422669 14 14 8005 8.26400000 2424423331 2424423331 -1.00000000
8.19368362 1.43592203 2.22894955 47 15 8006 8.61200000 2424423334 2424423334 15.00000000
2.20764589 0.38489887 -0.60046017 4 0 8011 2.32000000 2424423355 2424423355 -15.00000000
8.13034916 1.41604877 0.14405216 15 1 8012 8.25400000 2424423357 2424423357 1.00000000
2.60338068 0.45295814 -0.61006725 10 2 8013 2.71200000 2424423359 2424423359 -13.00000000
8.16029167 1.41832912 0.43407443 91 3 8014 8.29400000 2424423361 2424423361 3.00000000
3.15283632 0.54799014 -0.62203735 5 4 8014 3.26000000 2424423364 2424423364 -11.00000000
8.14260483 1.41379094 0.72304404 72 5 8015 8.29600000 2424423366 2424423366 5.00000000
3.92961311 0.68158764 -0.63168240 6 6 8016 4.03800000 2424423368 2424423368 -9.00000000
8.16412926 1.41459262 1.01736534 90 7 8017 8.34800000 2424423371 2424423371 7.00000000
5.27730846 0.91344666 -0.65760696 9 8 8018 5.39600000 2424423373 2424423373 -7.00000000
7.87855053 1.36227810 -0.69951200 17 10 8019 8.02600000 2424423378 2424423378 -5.00000000
8.13052750 1.40292466 -0.43239966 17 12 8021 8.26200000 2424423382 2424423382 -3.00000000
8.24820232 1.42174697 1.93232954 4 13 8022 8.59000000 2424423384 2424423384 13.00000000
8.14290619 1.40213370 -0.14422669 12 14 8023 8.26400000 2424423387 2424423387 -1.00000000
8.19790840 1.41160452 2.22894955 47 15 8023 8.61200000 2424423389 2424423389 15.00000000
2.22040176 0.37914139 -0.60356599 4 0 8031 2.33200000 2424423410 2424423410 -15.00000000
8.14509869 1.38934112 0.14422669 18 1 8032 8.26400000 2424423412 2424423412 1.00000000
2.59341955 0.44190386 -0.60736787 11 2 8033 2.70000000 2424423414 2424423414 -13.00000000
8.15928555 1.38883030 0.43376040 94 3 8034 8.28800000 2424423417 2424423417 3.00000000
3.16634250 0.53895795 -0.62432700 5 4 8034 3.27200000 2424423419 2424423419 -11.00000000
8.14356232 1.38469148 0.72269541 72 5 8035 8.29200000 2424423421 2424423421 5.00000000
3.93781090 0.66885895 -0.63262099 6 6 8036 4.04400000 2424423424 2424423424 -9.00000000
8.15727425 1.38409340 1.01590288 95 7 8037 8.33600000 2424423426 2424423426 7.00000000
5.27263594 0.89369291 -0.65663201 9 8 8038 5.38800000 2424423428 2424423428 -7.00000000
7.97558594 1.35040128 -0.70770460 17 10 8039 8.12000000 2424423433 2424423433 -5.00000000
8.13143635 1.37386978 -0.43219033 17 12 8041 8.25800000 2424423437 2424423437 -3.00000000
8.15563774 1.37503088 -0.14436631 12 14 8043 8.27200000 2424423442 2424423442 -1.00000000
8.20278549 1.38297987 2.22894955 47 15 8043 8.61200000 2424423444 2424423444 15.00000000
2.22558737 0.37163702 -0.60460126 4 0 8052 2.33600000 2424423465 2424423465 -15.00000000
8.15210819 1.35980749 0.14426160 18 1 8053 8.26600000 2424423467 2424423467 1.00000000
2.60271072 0.43367672 -0.60916746 9 2 8054 2.70800000 2424423470 2424423470 -13.00000000
8.15423393 1.35869932 0.43323705 100 3 8054 8.27800000 2424423472 2424423472 3.00000000
3.14893031 0.52412570 -0.62051088 5 4 8055 3.25200000 2424423474 2424423474 -11.00000000
8.15054798 1.35516131 0.72286975 76 5 8056 8.29400000 2424423477 2424423477 5.00000000
3.95192790 0.65636355 -0.63449818 6 6 8057 4.05600000 2424423479 2424423479 -9.00000000
8.15837574 1.35353637 1.01541531 95 7 8058 8.33200000 2424423481 2424423481 7.00000000
5.26412582 0.87241435 -0.65516961 9 8 8059 5.37600000 2424423483 2424423483 -7.00000000
8.12593842 1.34524047 -0.72060370 17 10 8060 8.26800000 2424423488 2424423488 -5.00000000
8.13444710 1.34373176 -0.43208566 17 12 8062 8.25600000 2424423493 2424423493 -3.00000000
8.14286518 1.34220266 -0.14405216 14 14 8064 8.25400000 2424423497 2424423497 -1.00000000
8.20398712 1.35227752 2.22791433 47 15 8064 8.60800000 2424423500 2424423500 15.00000000
2.21161842 0.36137378 -0.60046017 4 0 8072 2.32000000 2424423520 2424423520 -15.00000000
8.15680504 1.33134305 0.14426160 18 1 8073 8.26600000 2424423523 2424423523 1.00000000
2.60805535 0.42521608 -0.61006725 7 2 8074 2.71200000 2424423525 2424423525 -13.00000000
8.15324497 1.32784021 0.43292302 94 3 8075 8.27200000 2424423527 2424423527 3.00000000
3.15074062 0.51313072 -0.62051088 5 4 8075 3.25200000 2424423530 2424423530 -11.00000000
8.14736271 1.32542264 0.72217250 76 5 8076 8.28600000 2424423532 2424423532 5.00000000
3.95419502 0.64256477 -0.63449818 9 6 8077 4.05600000 2424423534 2424423534 -9.00000000
8.17088890 1.32632232 1.01639032 92 7 8078 8.34000000 2424423536 2424423536 7.00000000
5.27497721 0.85530472 -0.65614456 9 8 8079 5.38400000 2424423539 2424423539 -7.00000000
8.11681747 1.31463766 -0.71938348 17 10 8080 8.25400000 2424423543 2424423543 -5.00000000
8.13120079 1.31405461 -0.43166697 17 12 8082 8.24800000 2424423548 2424423548 -3.00000000
8.13170719 1.31122398 -0.14377293 14 14 8084 8.23800000 2424423553 2424423553 -1.00000000
8.19744492 1.32035613 2.22480845 47 15 8085 8.59600000 2424423555 2424423555 15.00000000
2.21661997 0.35464820 -0.60149544 4 0 8091 2.32400000 2424423576 2424423576 -15.00000000
8.14142895 1.30113101 0.14391254 15 1 8092 8.24600000 2424423578 2424423578 1.00000000
2.61137557 0.41687232 -0.61051714 7 2 8093 2.71400000 2424423580 2424423580 -13.00000000
8.15540409 1.30190468 0.43281835 89 3 8093 8.27000000 2424423583 2424423583 3.00000000
3.14467001 0.50144303 -0.61898440 5 4 8094 3.24400000 2424423585 2424423585 -11.00000000
8.13794041 1.29620397 0.72095233 72 5 8095 8.27200000 2424423587 2424423587 5.00000000
3.95045161 0.62851751 -0.63355958 6 6 8096 4.05000000 2424423589 2424423589 -9.00000000
8.17524147 1.29921937 1.01639032 92 7 8097 8.34000000 2424423592 2424423592 7.00000000
5.28170538 0.83842999 -0.65663201 9 8 8098 5.38800000 2424423594 2424423594 -7.00000000
7.98535395 1.26618457 -0.70735604 17 10 8099 8.11600000 2424423599 2424423599 -5.00000000
8.14735031 1.28895593 -0.43229499 21 12 8101 8.26000000 2424423603 2424423603 -3.00000000
8.13601112 1.28425097 -0.14377293 14 14 8103 8.23800000 2424423608 2424423608 -1.00000000
8.18819523 1.29248810 2.22118497 51 15 8103 8.58200000 2424423610 2424423610 15.00000000
2.21402717 0.34631151 -0.60046017 4 0 8111 2.32000000 2424423631 2424423631 -15.00000000
8.13999367 1.27177811 0.14380783 12 1 8112 8.24000000 2424423633 2424423633 1.00000000
2.60511303 0.40655246 -0.60871756 7 2 8113 2.70600000 2424423635 2424423635 -13.00000000
8.16976547 1.27496898 0.43334171 94 3 8113 8.28000000 2424423638 2424423638 3.00000000
3.15610027 0.49197495 -0.62089247 5 4 8114 3.25400000 2424423640 2424423640 -11.00000000
8.13847733 1.26717627 0.72060370 76 5 8115 8.26800000 2424423642 2424423642 5.00000000
3.93895817 0.61259907 -0.63136947 6 6 8116 4.03600000 2424423645 2424423645 -9.00000000
8.16011143 1.26762736 1.01395297 97 7 8117 8.32000000 2424423647 2424423647 7.00000000
5.28852320 0.82059705 -0.65711951 9 8 8118 5.39200000 2424423649 2424423649 -7.00000000
7.88931227 1.22274005 -0.69846612 30 10 8119 8.01400000 2424423654 2424423654 -5.00000000
8.14193058 1.25898242 -0.43177164 17 12 8121 8.25000000 2424423659 2424423659 -3.00000000
8.13846779 1.25553834 -0.14373802 12 14 8123 8.23600000 2424423663 2424423663 -1.00000000
8.20029354 1.26507628 2.22325563 56 15 8123 8.59000000 2424423665 2424423665 15.00000000
2.22280192 0.34013647 -0.60253072 4 0 8130 2.32800000 2424423686 2424423686 -15.00000000
8.13428307 1.24326730 0.14363331 12 1 8131 8.23000000 2424423688 2424423688 1.00000000
2.60066772 0.39702907 -0.60736787 6 2 8132 2.70000000 2424423691 2424423691 -13.00000000
8.15639591 1.24373364 0.43239966 89 3 8133 8.26200000 2424423693 2424423693 3.00000000
3.16353679 0.48239410 -0.62203735 5 4 8133 3.26000000 2424423695 2424423695 -11.00000000
8.15051365 1.24138117 0.72130090 76 5 8134 8.27600000 2424423698 2424423698 5.00000000
3.93315625 0.59834528 -0.63011801 4 6 8135 4.02800000 2424423700 2424423700 -9.00000000
8.15053272 1.23847306 1.01224673 99 7 8136 8.30600000 2424423702 2424423702 7.00000000
5.27551460 0.80067223 -0.65516961 6 8 8137 5.37600000 2424423705 2424423705 -7.00000000
7.89135361 1.19627285 -0.69829184 30 10 8138 8.01200000 2424423709 2424423709 -5.00000000
8.12828732 1.22928798 -0.43082958 17 12 8140 8.23200000 2424423714 2424423714 -3.00000000
8.14654160 1.22913992 -0.14380783 14 14 8142 8.24000000 2424423718 2424423718 -1.00000000
8.20465946 1.23644423 2.22325563 56 15 8143 8.59000000 2424423721 2424423721 15.00000000
2.22779679 0.33294648 -0.60356599 4 0 8150 2.33200000 2424423741 2424423741 -15.00000000
8.13857269 1.21486580 0.14363331 18 1 8151 8.23000000 2424423744 2424423744 1.00000000
2.60782003 0.38881072 -0.60871756 7 2 8152 2.70600000 2424423746 2424423746 -13.00000000
8.14862347 1.21491218 0.43177164 89 3 8152 8.25000000 2424423748 2424423748 3.00000000
3.15355039 0.46961331 -0.61974764 5 4 8153 3.24800000 2424423751 2424423751 -11.00000000
8.15085602 1.21233666 0.72095233 76 5 8154 8.27200000 2424423753 2424423753 5.00000000
3.94694448 0.58635396 -0.63199526 4 6 8155 4.04000000 2424423755 2424423755 -9.00000000
8.15676975 1.21030617 1.01249051 95 7 8156 8.30800000 2424423758 2424423758 7.00000000
5.27434969 0.78167033 -0.65468210 9 8 8157 5.37200000 2424423760 2424423760 -7.00000000
7.90139437 1.16959476 -0.69881475 21 10 8158 8.01800000 2424423765 2424423765 -5.00000000
8.13845634 1.20178270 -0.43114361 17 12 8160 8.23800000 2424423769 2424423769 -3.00000000
8.13099861 1.19778144 -0.14345878 12 14 8162 8.22000000 2424423774 2424423774 -1.00000000
8.20892525 1.20779717 2.22325563 56 15 8163 8.59000000 2424423776 2424423776 15.00000000
2.21758842 0.32272068 -0.60046017 4 0 8172 2.32000000 2424423797 2424423797 -15.00000000
8.14911461 1.18446994 0.14373802 18 1 8173 8.23600000 2424423799 2424423799 1.00000000
2.61315084 0.37935451 -0.60961735 7 2 8174 2.71000000 2424423801 2424423801 -13.00000000
8.15125179 1.18332779 0.43166697 94 3 8174 8.24800000 2424423804 2424423804 3.00000000
3.14755869 0.45637429 -0.61822116 5 4 8175 3.24000000 2424423806 2424423806 -11.00000000
8.14756393 1.17988861 0.72025508 76 5 8176 8.26400000 2424423808 2424423808 5.00000000
3.94525671 0.57062900 -0.63136947 6 6 8177 4.03600000 2424423811 2424423811 -9.00000000
8.15742683 1.17840993 1.01200306 95 7 8178 8.30400000 2424423813 2424423813 7.00000000
5.27731228 0.76141256 -0.65468210 6 8 8179 5.37200000 2424423815 2424423815 -7.00000000
7.89399481 1.13754201 -0.69776887 17 10 8180 8.00600000 2424423820 2424423820 -5.00000000
8.14498806 1.17080867 -0.43124828 17 12 8182 8.24000000 2424423824 2424423824 -3.00000000
8.12564087 1.16513276 -0.14328426 14 14 8184 8.21000000 2424423829 2424423829 -1.00000000
8.20202827 1.17462504 2.22014976 56 15 8185 8.57800000 2424423831 2424423831 15.00000000
2.21870160 0.31497785 -0.60046017 4 0 8192 2.32000000 2424423852 2424423852 -15.00000000
8.13934040 1.15405190 0.14349368 18 1 8193 8.22200000 2424423854 2424423854 1.00000000
2.61445904 0.37023059 -0.60961735 7 2 8194 2.71000000 2424423857 2424423857 -13.00000000
8.15731049 1.15514743 0.43177164 89 3 8194 8.25000000 2424423859 2424423859 3.00000000
3.15302038 0.44593433 -0.61898440 5 4 8195 3.24400000 2424423861 2424423861 -11.00000000
8.13584995 1.14921176 0.71886057 76 5 8196 8.24800000 2424423864 2424423864 5.00000000
3.94135666 0.55602616 -0.63043088 9 6 8197 4.03000000 2424423866 2424423866 -9.00000000
8.16935349 1.15103590 1.01297796 95 7 8198 8.31200000 2424423868 2424423868 7.00000000
5.27993822 0.74298668 -0.65468210 9 8 8199 5.37200000 2424423871 2424423871 -7.00000000
8.23911190 1.15939808 1.31780398 5 9 8199 8.42400000 2424423873 2424423873 9.00000000
7.89397144 1.10942531 -0.69742024 17 10 8200 8.00200000 2424423875 2424423875 -5.00000000
8.24533463 1.15733874 1.61844194 6 11 8201 8.48200000 2424423877 2424423877 11.00000000
8.14506912 1.14181566 -0.43103895 17 12 8202 8.23600000 2424423880 2424423880 -3.00000000
8.13361931 1.13731563 -0.14335407 14 14 8204 8.21400000 2424423884 2424423884 -1.00000000
8.18311977 1.14278114 2.21393800 56 15 8205 8.55400000 2424423887 2424423887 15.00000000
2.21590662 0.30708829 -0.59942490 4 0 8211 2.31600000 2424423907 2424423907 -15.00000000
8.12925625 1.12513542 0.14324935 15 1 8212 8.20800000 2424423910 2424423910 1.00000000
2.61181164 0.36102504 -0.60871756 7 2 8213 2.70600000 2424423912 2424423912 -13.00000000
8.16109562 1.12809050 0.43177164 81 3 8213 8.25000000 2424423914 2424423914 3.00000000
3.16226101 0.43654999 -0.62051088 5 4 8214 3.25200000 2424423917 2424423917 -11.00000000
8.13566875 1.12168181 0.71851194 79 5 8215 8.24400000 2424423919 2424423919 5.00000000
3.93143725 0.54133636 -0.62855369 9 6 8216 4.01800000 2424423921 2424423921 -9.00000000
8.16132641 1.12231636 1.01151550 97 7 8217 8.30000000 2424423923 2424423923 7.00000000
5.29023933 0.72655404 -0.65565705 9 8 8218 5.38000000 2424423926 2424423926 -7.00000000
7.89563322 1.08297110 -0.69724596 17 10 8219 8.00000000 2424423930 2424423930 -5.00000000
8.14089584 1.11371648 -0.43062025 17 12 8221 8.22800000 2424423935 2424423935 -3.00000000
8.13932705 1.11060774 -0.14338897 14 14 8223 8.21600000 2424423940 2424423940 -1.00000000
8.19432545 1.11811233 2.21600866 54 15 8223 8.56200000 2424423942 2424423942 15.00000000
2.22079420 0.29986846 -0.60046017 4 0 8231 2.32000000 2424423963 2424423963 -15.00000000
8.13511658 1.09701943 0.14328426 12 1 8232 8.21000000 2424423965 2424423965 1.00000000
2.60533071 0.35086554 -0.60691792 7 2 8233 2.69800000 2424423967 2424423967 -13.00000000
8.14716911 1.09719694 0.43082958 65 3 8233 8.23200000 2424423970 2424423970 3.00000000
3.15987396 0.42498562 -0.61974764 5 4 8234 3.24800000 2424423972 2424423972 -11.00000000
8.13953495 1.09327614 0.71851194 76 5 8235 8.24400000 2424423974 2424423974 5.00000000
3.95875502 0.53102386 -0.63262099 9 6 8236 4.04400000 2424423976 2424423976 -9.00000000
8.14551830 1.09118545 1.00907815 97 7 8237 8.28000000 2424423979 2424423979 7.00000000
5.29274321 0.70808321 -0.65565705 9 8 8238 5.38000000 2424423981 2424423981 -7.00000000
7.87961674 1.05276513 -0.69550282 21 10 8239 7.98000000 2424423986 2424423986 -5.00000000
8.13285542 1.08370984 -0.42999223 17 12 8241 8.21600000 2424423990 2424423990 -3.00000000
8.14117241 1.08192599 -0.14335407 16 14 8243 8.21400000 2424423995 2424423995 -1.00000000
8.19070816 1.08705437 2.21393800 58 15 8244 8.55400000 2424423997 2424423997 15.00000000
2.24092960 0.29502398 -0.60563654 4 0 8250 2.34000000 2424424018 2424424018 -15.00000000
8.15258789 1.07186103 0.14352860 25 1 8251 8.22400000 2424424020 2424424020 1.00000000
2.60454774 0.34197032 -0.60646802 9 2 8252 2.69600000 2424424023 2424424023 -13.00000000
8.13708782 1.06693375 0.43009689 63 3 8253 8.21800000 2424424025 2424424025 3.00000000
3.15737271 0.41399428 -0.61898440 5 4 8253 3.24400000 2424424027 2424424027 -11.00000000
8.14311504 1.06627846 0.71851194 79 5 8254 8.24400000 2424424029 2424424029 5.00000000
3.97028756 0.51917392 -0.63418531 9 6 8255 4.05400000 2424424032 2424424032 -9.00000000
8.14909267 1.06416798 1.00907815 97 7 8256 8.28000000 2424424034 2424424034 7.00000000
5.27931499 0.68847436 -0.65370715 9 8 8257 5.36400000 2424424036 2424424036 -7.00000000
7.90282154 1.02920258 -0.69724596 35 10 8258 8.00000000 2424424041 2424424041 -5.00000000
8.13640404 1.05673444 -0.42999223 17 12 8260 8.21600000 2424424046 2424424046 -3.00000000
8.13281631 1.05338180 -0.14314464 14 14 8262 8.20200000 2424424050 2424424050 -1.00000000
8.19408321 1.06131721 2.21393800 56 15 8262 8.55400000 2424424053 2424424053 15.00000000
2.22278380 0.28474516 -0.60046017 4 0 8270 2.32000000 2424424073 2424424073 -15.00000000
8.14834595 1.04238164 0.14338897 15 1 8271 8.21600000 2424424076 2424424076 1.00000000
2.61152458 0.33361751 -0.60781777 7 2 8272 2.70200000 2424424078 2424424078 -13.00000000
8.14076233 1.03852355 0.43009689 55 3 8273 8.21800000 2424424080 2424424080 3.00000000
3.14321899 0.40098295 -0.61593145 6 4 8273 3.22800000 2424424082 2424424082 -11.00000000
8.13888168 1.03684008 0.71781468 76 5 8274 8.23600000 2424424085 2424424085 5.00000000
3.98187351 0.50655830 -0.63574964 6 6 8275 4.06400000 2424424087 2424424087 -9.00000000
8.15078831 1.03546560 1.00883448 99 7 8276 8.27800000 2424424089 2424424089 7.00000000
5.28956318 0.67104125 -0.65468210 6 8 8277 5.37200000 2424424092 2424424092 -7.00000000
8.10995483 1.02740180 -0.71520001 17 10 8278 8.20600000 2424424096 2424424096 -5.00000000
8.13806152 1.02807629 -0.42988753 17 12 8280 8.21400000 2424424101 2424424101 -3.00000000
8.12652397 1.02373683 -0.14297011 12 14 8282 8.19200000 2424424106 2424424106 -1.00000000
8.19025135 1.03031278 2.21186757 63 15 8283 8.54600000 2424424108 2424424108 15.00000000
2.23330069 0.27856815 -0.60304838 4 0 8289 2.33000000 2424424129 2424424129 -15.00000000
8.13389778 1.01313055 0.14307483 12 1 8290 8.19800000 2424424131 2424424131 1.00000000
2.62035203 0.32591766 -0.60961735 7 2 8291 2.71000000 2424424133 2424424133 -13.00000000
8.15208912 1.01250672 0.43051559 49 3 8292 8.22600000 2424424135 2424424135 3.00000000
3.13868642 0.38983151 -0.61478657 5 4 8292 3.22200000 2424424138 2424424138 -11.00000000
8.13041210 1.00837350 0.71676880 76 5 8293 8.22400000 2424424140 2424424140 5.00000000
3.97568989 0.49237999 -0.63449818 4 6 8294 4.05600000 2424424142 2424424142 -9.00000000
8.15811729 1.00891829 1.00932193 99 7 8295 8.28200000 2424424145 2424424145 7.00000000
5.29569960 0.65398329 -0.65516961 6 8 8296 5.37600000 2424424147 2424424147 -7.00000000
8.10936260 1.00001490 -0.71485138 17 10 8297 8.20200000 2424424152 2424424152 -5.00000000
8.14142609 1.00108385 -0.42988753 17 12 8299 8.21400000 2424424156 2424424156 -3.00000000
8.12590408 0.99629599 -0.14290030 12 14 8301 8.18800000 2424424161 2424424161 -1.00000000
8.18577766 1.00363696 2.20979691 54 15 8301 8.53800000 2424424163 2424424163 15.00000000
2.23234177 0.27053836 -0.60253072 4 0 8309 2.32800000 2424424184 2424424184 -15.00000000
8.13341427 0.98425132 0.14300501 12 1 8310 8.19400000 2424424186 2424424186 1.00000000
2.61566973 0.31606761 -0.60826766 9 2 8311 2.70400000 2424424188 2424424188 -13.00000000
8.14962578 0.98332673 0.43020156 44 3 8312 8.22000000 2424424191 2424424191 3.00000000
3.13807893 0.37863791 -0.61440498 6 4 8312 3.22000000 2424424193 2424424193 -11.00000000
8.13981628 0.98070192 0.71729177 83 5 8313 8.23000000 2424424195 2424424195 5.00000000
3.95581079 0.47590381 -0.63105661 6 6 8314 4.03400000 2424424198 2424424198 -9.00000000
8.14976406 0.97901440 1.00785947 99 7 8315 8.27000000 2424424200 2424424200 7.00000000
5.30583429 0.63643956 -0.65614456 6 8 8316 5.38400000 2424424202 2424424202 -7.00000000
8.10884762 0.97122794 -0.71450275 17 10 8317 8.19800000 2424424207 2424424207 -5.00000000
8.13892174 0.97194839 -0.42957354 17 12 8319 8.20800000 2424424211 2424424211 -3.00000000
8.13727474 0.96887094 -0.14303993 14 14 8321 8.19600000 2424424216 2424424216 -1.00000000
8.18556404 0.97317165 2.20876169 51 15 8322 8.53400000 2424424218 2424424218 15.00000000
2.23135400 0.26251867 -0.60201311 4 0 8329 2.32600000 2424424239 2424424239 -15.00000000
8.12687111 0.95468789 0.14283049 12 1 8330 8.18400000 2424424241 2424424241 1.00000000
2.60514426 0.30557317 -0.60556823 9 2 8331 2.69200000 2424424244 2424424244 -13.00000000
8.13515472 0.95278227 0.42925951 34 3 8332 8.20200000 2424424246 2424424246 3.00000000
3.15498090 0.36950865 -0.61745793 8 4 8332 3.23600000 2424424248 2424424248 -11.00000000
8.13725376 0.95158845 0.71676880 76 5 8333 8.22400000 2424424251 2424424251 5.00000000
3.97903037 0.46461266 -0.63449818 6 6 8334 4.05600000 2424424253 2424424253 -9.00000000
8.14327240 0.94941103 1.00664079 97 7 8335 8.26000000 2424424255 2424424255 7.00000000
5.30013609 0.61699671 -0.65516961 6 8 8336 5.37600000 2424424258 2424424258 -7.00000000
8.11614609 0.94337690 -0.71485138 17 10 8337 8.20200000 2424424262 2424424262 -5.00000000
8.13234520 0.94238281 -0.42905018 17 12 8339 8.19800000 2424424267 2424424267 -3.00000000
8.13663483 0.94000161 -0.14297011 14 14 8341 8.19200000 2424424271 2424424271 -1.00000000
8.18874645 0.94602197 2.20876169 56 15 8341 8.53400000 2424424274 2424424274 15.00000000
2.23609543 0.25516623 -0.60304838 4 0 8349 2.33000000 2424424294 2424424294 -15.00000000
8.13412762 0.92676675 0.14290030 12 1 8350 8.18800000 2424424297 2424424297 1.00000000
2.60813117 0.29669791 -0.60601813 6 2 8351 2.69400000 2424424299 2424424299 -13.00000000
8.13644695 0.92415410 0.42915484 26 3 8352 8.20000000 2424424301 2424424301 3.00000000
3.14454722 0.35716406 -0.61516821 8 4 8352 3.22400000 2424424304 2424424304 -11.00000000
8.13854599 0.92295378 0.71659452 83 5 8353 8.22200000 2424424306 2424424306 5.00000000
3.98651648 0.45138717 -0.63543677 9 6 8354 4.06200000 2424424308 2424424308 -9.00000000
8.14259243 0.92053390 1.00615335 97 7 8355 8.25600000 2424424311 2424424311 7.00000000
5.28647709 0.59671080 -0.65321970 9 8 8356 5.36000000 2424424313 2424424313 -7.00000000
8.09761143 0.91258615 -0.71293396 17 10 8357 8.18000000 2424424317 2424424317 -5.00000000
8.13756943 0.91421288 -0.42915484 17 12 8359 8.20000000 2424424322 2424424322 -3.00000000
8.12595558 0.91003585 -0.14272578 14 14 8361 8.17800000 2424424327 2424424327 -1.00000000
8.19215870 0.91600239 2.20876169 60 15 8362 8.53400000 2424424329 2424424329 15.00000000
2.22545171 0.24608530 -0.59994256 4 0 8369 2.31800000 2424424350 2424424350 -15.00000000
8.14725113 0.89946485 0.14307483 21 1 8370 8.19800000 2424424352 2424424352 1.00000000
2.61883593 0.28865954 -0.60826766 6 2 8371 2.70400000 2424424354 2424424354 -13.00000000
8.13168240 0.89487308 0.42873615 23 3 8372 8.19200000 2424424357 2424424357 3.00000000
3.14772630 0.34640011 -0.61554980 5 4 8372 3.22600000 2424424359 2424424359 -11.00000000
8.13577652 0.89388657 0.71607161 79 5 8373 8.21600000 2424424361 2424424361 5.00000000
3.99984932 0.43876123 -0.63731402 9 6 8374 4.07400000 2424424364 2424424364 -9.00000000
8.14575577 0.89210534 1.00615335 97 7 8375 8.25600000 2424424366 2424424366 7.00000000
5.29247427 0.57868546 -0.65370715 6 8 8376 5.36400000 2424424368 2424424368 -7.00000000
8.07896042 0.88193631 -0.71101654 17 10 8377 8.15800000 2424424373 2424424373 -5.00000000
8.13674068 0.88536978 -0.42894551 17 12 8379 8.19600000 2424424377 2424424377 -3.00000000
8.12311840 0.88101858 -0.14262107 14 14 8381 8.17200000 2424424382 2424424382 -1.00000000
8.18746948 0.88799793 2.20669127 51 15 8381 8.52600000 2424424384 2424424384 15.00000000
2.21861362 0.23749304 -0.59787202 4 0 8389 2.31000000 2424424405 2424424405 -15.00000000
8.13443375 0.86932021 0.14279559 18 1 8390 8.18200000 2424424407 2424424407 1.00000000
2.62176538 0.27972311 -0.60871756 6 2 8391 2.70600000 2424424410 2424424410 -13.00000000
8.14270020 0.86732894 0.42915484 23 3 8392 8.20000000 2424424412 2424424412 3.00000000
3.14696407 0.33520246 -0.61516821 5 4 8392 3.22400000 2424424414 2424424414 -11.00000000
8.13290405 0.86484993 0.71554863 83 5 8393 8.21000000 2424424417 2424424417 5.00000000
3.98367763 0.42291963 -0.63449818 6 6 8394 4.05600000 2424424419 2424424419 -9.00000000
8.15276814 0.86408436 1.00664079 95 7 8395 8.26000000 2424424421 2424424421 7.00000000
5.29446220 0.56020772 -0.65370715 6 8 8396 5.36400000 2424424423 2424424423 -7.00000000
8.05821419 0.85121852 -0.70892483 17 10 8397 8.13400000 2424424428 2424424428 -5.00000000
8.14375401 0.85738009 -0.42915484 17 12 8399 8.20000000 2424424433 2424424433 -3.00000000
8.12614441 0.85265821 -0.14262107 14 14 8401 8.17200000 2424424437 2424424437 -1.00000000
8.17529774 0.85637331 2.20255017 58 15 8402 8.51000000 2424424440 2424424440 15.00000000
2.22327232 0.23014502 -0.59890729 4 0 8409 2.31400000 2424424460 2424424460 -15.00000000
8.12747383 0.83989269 0.14262107 15 1 8410 8.17200000 2424424463 2424424463 1.00000000
2.61497211 0.26976982 -0.60691792 6 2 8411 2.69800000 2424424465 2424424465 -13.00000000
8.14369106 0.83869570 0.42905018 21 3 8412 8.19800000 2424424467 2424424467 3.00000000
3.15202093 0.32461771 -0.61593145 5 4 8412 3.22800000 2424424470 2424424470 -11.00000000
8.12992764 0.83584422 0.71502572 76 5 8413 8.20400000 2424424472 2424424472 5.00000000
3.97137427 0.40759966 -0.63230813 9 6 8414 4.04200000 2424424474 2424424474 -9.00000000
8.14191151 0.83420432 1.00493455 99 7 8415 8.24600000 2424424476 2424424476 7.00000000
5.30428457 0.54253113 -0.65468210 6 8 8416 5.37200000 2424424479 2424424479 -7.00000000
8.08095646 0.82510871 -0.71066791 17 10 8417 8.15400000 2424424483 2424424483 -5.00000000
8.13477516 0.82773477 -0.42852682 17 12 8419 8.18800000 2424424488 2424424488 -3.00000000
8.13304996 0.82469100 -0.14269088 12 14 8421 8.17600000 2424424493 2424424493 -1.00000000
8.17040539 0.82847875 2.20047951 58 15 8421 8.50200000 2424424495 2424424495 15.00000000
2.23175120 0.22315177 -0.60097784 4 0 8429 2.32200000 2424424516 2424424516 -15.00000000
8.13035583 0.81151736 0.14262107 12 1 8430 8.17200000 2424424518 2424424518 1.00000000
2.61201954 0.26025379 -0.60601813 5 2 8431 2.69400000 2424424520 2424424520 -13.00000000
8.14060688 0.80967081 0.42873615 21 3 8432 8.19200000 2424424523 2424424523 3.00000000
3.15899563 0.31419605 -0.61707628 5 4 8432 3.23400000 2424424525 2424424525 -11.00000000
8.13477802 0.80765724 0.71520001 83 5 8433 8.20600000 2424424527 2424424527 5.00000000
3.97080708 0.39353967 -0.63199526 9 6 8434 4.04000000 2424424529 2424424529 -9.00000000
8.13884735 0.80519235 1.00420344 97 7 8435 8.24000000 2424424532 2424424532 7.00000000
5.29034233 0.52245170 -0.65273219 6 8 8436 5.35600000 2424424534 2424424534 -7.00000000
8.09965038 0.79845959 -0.71206242 4 10 8437 8.17000000 2424424539 2424424539 -5.00000000
8.13165188 0.79874831 -0.42821279 17 12 8439 8.18200000 2424424543 2424424543 -3.00000000
8.13786888 0.79649109 -0.14272578 12 14 8441 8.17800000 2424424548 2424424548 -1.00000000
8.18478298 0.80108279 2.20358539 54 15 8441 8.51400000 2424424550 2424424550 15.00000000
2.23251653 0.21536015 -0.60097784 4 0 8449 2.32200000 2424424571 2424424571 -15.00000000
8.12915802 0.78274888 0.14255126 12 1 8450 8.16800000 2424424573 2424424573 1.00000000
2.62067127 0.25188032 -0.60781777 5 2 8451 2.70200000 2424424576 2424424576 -13.00000000
8.13145447 0.78010541 0.42810813 15 3 8452 8.18000000 2424424578 2424424578 3.00000000
3.15421033 0.30260471 -0.61593145 5 4 8452 3.22800000 2424424580 2424424580 -11.00000000
8.13159752 0.77868688 0.71467710 79 5 8453 8.20000000 2424424582 2424424582 5.00000000
3.98002219 0.38042840 -0.63324672 9 6 8454 4.04800000 2424424585 2424424585 -9.00000000
8.14160824 0.77677757 1.00420344 97 7 8455 8.24000000 2424424587 2424424587 7.00000000
5.28422928 0.50322902 -0.65175724 6 8 8456 5.34800000 2424424589 2424424589 -7.00000000
6.62471867 0.62972015 -0.58220035 16 10 8457 6.68000000 2424424594 2424424594 -5.00000000
8.13240147 0.77017039 -0.42810813 17 12 8459 8.18000000 2424424599 2424424599 -3.00000000
8.12666416 0.76676488 -0.14248145 12 14 8461 8.16400000 2424424603 2424424603 -1.00000000
8.19522285 0.77323353 2.20565581 56 15 8461 8.52200000 2424424605 2424424605 15.00000000
2.23517823 0.20774469 -0.60149544 4 0 8469 2.32400000 2424424626 2424424626 -15.00000000
8.13781452 0.75492221 0.14265597 12 1 8470 8.17400000 2424424629 2424424629 1.00000000
2.62153459 0.24273093 -0.60781777 5 2 8471 2.70200000 2424424631 2424424631 -13.00000000
8.13213921 0.75153279 0.42800346 13 3 8472 8.17800000 2424424633 2424424633 3.00000000
3.14156294 0.29032797 -0.61326009 4 4 8472 3.21400000 2424424635 2424424635 -11.00000000
8.13228226 0.75011456 0.71450275 83 5 8473 8.19800000 2424424638 2424424638 5.00000000
3.97935891 0.36635211 -0.63293386 9 6 8474 4.04600000 2424424640 2424424640 -9.00000000
8.14427090 0.74835336 1.00420344 97 7 8475 8.24000000 2424424642 2424424642 7.00000000
5.27804613 0.48405537 -0.65078229 6 8 8476 5.34000000 2424424645 2424424645 -7.00000000
6.62290812 0.60622847 -0.58185172 16 10 8477 6.67600000 2424424649 2424424649 -5.00000000
8.13901901 0.74214107 -0.42831746 17 12 8479 8.18400000 2424424654 2424424654 -3.00000000
8.11933327 0.73748845 -0.14230692 14 14 8481 8.15400000 2424424658 2424424658 -1.00000000
8.17876244 0.74144721 2.20047951 56 15 8482 8.50200000 2424424661 2424424661 15.00000000
2.22245502 0.19834884 -0.59787202 4 0 8490 2.31000000 2424424682 2424424682 -15.00000000
8.12459183 0.72367120 0.14237674 21 1 8491 8.15800000 2424424684 2424424684 1.00000000
2.62240648 0.23312090 -0.60781777 6 2 8492 2.70200000 2424424686 2424424686 -13.00000000
8.14080811 0.72225147 0.42831746 15 3 8493 8.18400000 2424424688 2424424688 3.00000000
3.14651704 0.27915862 -0.61402333 4 4 8493 3.21800000 2424424691 2424424691 -11.00000000
8.12505436 0.71942455 0.71363121 79 5 8494 8.18800000 2424424693 2424424693 5.00000000
3.97673941 0.35141680 -0.63230813 9 6 8495 4.04200000 2424424695 2424424695 -9.00000000
8.14893627 0.71867245 1.00444710 99 7 8496 8.24200000 2424424698 2424424698 7.00000000
5.28374004 0.46505520 -0.65126979 6 8 8497 5.34400000 2424424700 2424424700 -7.00000000
6.61913109 0.58142722 -0.58132881 12 10 8498 6.67000000 2424424705 2424424705 -5.00000000
8.14168453 0.71230507 -0.42831746 17 12 8500 8.18400000 2424424709 2424424709 -3.00000000
8.12198162 0.70772463 -0.14230692 14 14 8502 8.15400000 2424424714 2424424714 -1.00000000
8.16975307 0.71188724 2.19737363 56 15 8502 8.49000000 2424424716 2424424716 15.00000000
2.22698355 0.19091983 -0.59890729 4 0 8510 2.31400000 2424424737 2424424737 -15.00000000
8.11909866 0.69462484 0.14223711 18 1 8511 8.15000000 2424424739 2424424739 1.00000000
2.62320423 0.22396557 -0.60781777 7 2 8512 2.70200000 2424424741 2424424741 -13.00000000
8.15322971 0.69467813 0.42884082 18 3 8513 8.19400000 2424424744 2424424744 3.00000000
3.15334082 0.26867354 -0.61516821 5 4 8513 3.22400000 2424424746 2424424746 -11.00000000
8.13545704 0.69173366 0.71432847 90 5 8514 8.19600000 2424424748 2424424748 5.00000000
3.97006869 0.33686522 -0.63105661 9 6 8515 4.03400000 2424424751 2424424751 -9.00000000
8.13952732 0.68921804 1.00298464 100 7 8516 8.23000000 2424424753 2424424753 7.00000000
5.28533125 0.44660869 -0.65126979 9 8 8517 5.34400000 2424424755 2424424755 -7.00000000
6.62707663 0.55882084 -0.58185172 16 10 8518 6.67600000 2424424760 2424424760 -5.00000000
8.13615990 0.68321246 -0.42789876 17 12 8520 8.17600000 2424424764 2424424764 -3.00000000
8.13436699 0.68020248 -0.14248145 12 14 8522 8.16400000 2424424769 2424424769 -1.00000000
8.17988873 0.68400908 2.19944429 60 15 8522 8.49800000 2424424771 2424424771 15.00000000
2.22760439 0.18353385 -0.59890729 4 0 8529 2.31400000 2424424793 2424424793 -15.00000000
8.12335014 0.66786098 0.14227201 18 1 8530 8.15200000 2424424795 2424424795 1.00000000
2.61616373 0.21462813 -0.60601813 7 2 8531 2.69400000 2424424798 2424424798 -13.00000000
8.13546562 0.66742760 0.42779410 21 3 8531 8.17400000 2424424800 2424424800 3.00000000
3.15617108 0.25837538 -0.61554980 4 4 8532 3.22600000 2424424802 2424424802 -11.00000000
8.13373470 0.66442728 0.71397984 79 5 8533 8.19200000 2424424805 2424424805 5.00000000
3.97510171 0.32401910 -0.63168240 9 6 8534 4.03800000 2424424807 2424424807 -9.00000000
8.13187504 0.66141796 1.00176597 92 7 8535 8.22000000 2424424809 2424424809 7.00000000
5.27689028 0.42827651 -0.65005106 8 8 8536 5.33400000 2424424811 2424424811 -7.00000000
6.62690735 0.53668076 -0.58167744 32 10 8537 6.67400000 2424424816 2424424816 -5.00000000
8.12245464 0.65494400 -0.42706141 17 12 8539 8.16000000 2424424821 2424424821 -3.00000000
8.13657761 0.65322423 -0.14248145 12 14 8541 8.16400000 2424424825 2424424825 -1.00000000
8.18596363 0.65718901 2.20047951 54 15 8541 8.50200000 2424424828 2424424828 15.00000000
2.23400903 0.17621265 -0.60046017 4 0 8549 2.32000000 2424424848 2424424848 -15.00000000
8.13759327 0.64044249 0.14248145 15 1 8550 8.16400000 2424424851 2424424851 1.00000000
2.61495423 0.20534214 -0.60556823 6 2 8551 2.69200000 2424424853 2424424853 -13.00000000
8.13387585 0.63729310 0.42758477 23 3 8552 8.17000000 2424424855 2424424855 3.00000000
3.16488290 0.24797012 -0.61707628 4 4 8552 3.23400000 2424424858 2424424858 -11.00000000
8.13203144 0.63572061 0.71363121 76 5 8553 8.18800000 2424424860 2424424860 5.00000000
3.98014736 0.31044865 -0.63230813 9 6 8554 4.04200000 2424424862 2424424862 -9.00000000
8.14007187 0.63349044 1.00249720 99 7 8555 8.22600000 2424424864 2424424864 7.00000000
5.28231096 0.41016147 -0.65053856 9 8 8556 5.33800000 2424424867 2424424867 -7.00000000
6.62675381 0.51339138 -0.58150309 56 10 8557 6.67200000 2424424871 2424424871 -5.00000000
8.12070847 0.62628019 -0.42685205 17 12 8559 8.15600000 2424424876 2424424876 -3.00000000
8.13083267 0.62420601 -0.14234182 12 14 8561 8.15600000 2424424881 2424424881 -1.00000000
8.19216919 0.62747663 2.20151472 58 15 8562 8.50600000 2424424883 2424424883 15.00000000
2.22883153 0.16797788 -0.59890729 4 0 8569 2.31400000 2424424904 2424424904 -15.00000000
8.12781525 0.61113352 0.14227201 12 1 8570 8.15200000 2424424906 2424424906 1.00000000
2.62731481 0.19708765 -0.60826766 6 2 8571 2.70400000 2424424908 2424424908 -13.00000000
8.13594437 0.61031669 0.42758477 21 3 8571 8.17000000 2424424911 2424424911 3.00000000
3.15006685 0.23574896 -0.61402333 4 4 8572 3.21800000 2424424913 2424424913 -11.00000000
8.13022709 0.60703397 0.71328259 79 5 8573 8.18400000 2424424915 2424424915 5.00000000
3.98317647 0.29670021 -0.63262099 6 6 8574 4.04400000 2424424917 2424424917 -9.00000000
8.14025402 0.60492533 1.00225353 97 7 8575 8.22400000 2424424920 2424424920 7.00000000
5.28371048 0.39172027 -0.65053856 9 8 8576 5.33800000 2424424922 2424424922 -7.00000000
6.61459684 0.48922783 -0.58028293 76 10 8577 6.65800000 2424424927 2424424927 -5.00000000
8.13081264 0.59851635 -0.42727074 17 12 8579 8.16400000 2424424931 2424424931 -3.00000000
8.11501312 0.59450537 -0.14202769 16 14 8581 8.13800000 2424424936 2424424936 -1.00000000
8.17879200 0.59917778 2.19737363 51 15 8581 8.49000000 2424424938 2424424938 15.00000000
2.23133111 0.16033524 -0.59942490 4 0 8589 2.31600000 2424424959 2424424959 -15.00000000
8.11793137 0.58190054 0.14206259 15 1 8590 8.14000000 2424424961 2424424961 1.00000000
2.62604284 0.18777642 -0.60781777 5 2 8591 2.70200000 2424424963 2424424963 -13.00000000
8.14001656 0.58205569 0.42768943 21 3 8591 8.17200000 2424424966 2424424966 3.00000000
3.15870380 0.22531047 -0.61554980 4 4 8592 3.22600000 2424424968 2424424968 -11.00000000
8.11639786 0.57751918 0.71188813 79 5 8593 8.16800000 2424424970 2424424970 5.00000000
3.96842456 0.28167564 -0.63011801 6 6 8594 4.02800000 2424424973 2424424973 -9.00000000
8.14231586 0.57650685 1.00225353 97 7 8595 8.22400000 2424424975 2424424975 7.00000000
5.28702593 0.37341416 -0.65078229 9 8 8596 5.34000000 2424424977 2424424977 -7.00000000
6.60433960 0.46529546 -0.57923704 36 10 8597 6.64600000 2424424982 2424424982 -5.00000000
8.12886715 0.56985152 -0.42706141 17 12 8599 8.16000000 2424424987 2424424987 -3.00000000
8.11703873 0.56617504 -0.14202769 14 14 8601 8.13800000 2424424991 2424424991 -1.00000000
8.17312431 0.57008713 2.19530320 51 15 8601 8.48200000 2424424993 2424424993 15.00000000
2.23573184 0.15280893 -0.60046017 4 0 8609 2.32000000 2424425014 2424425014 -15.00000000
8.11193275 0.55301613 0.14192297 18 1 8610 8.13200000 2424425016 2424425016 1.00000000
2.61890531 0.17807986 -0.60601813 5 2 8611 2.69400000 2424425019 2424425019 -13.00000000
8.15006638 0.55275774 0.42810813 23 3 8612 8.18000000 2424425021 2424425021 3.00000000
3.15163612 0.21375178 -0.61402333 4 4 8612 3.21800000 2424425023 2424425023 -11.00000000
8.11637592 0.54904968 0.71171379 76 5 8613 8.16600000 2424425026 2424425026 5.00000000
3.96150017 0.26728961 -0.62886655 6 6 8614 4.02000000 2424425028 2424425028 -9.00000000
8.14031696 0.54781479 1.00176597 97 7 8615 8.22000000 2424425030 2424425030 7.00000000
5.28433609 0.35469082 -0.65029484 6 8 8616 5.33600000 2424425033 2424425033 -7.00000000
8.22671127 0.55218649 1.30591488 7 9 8616 8.34800000 2424425035 2424425035 9.00000000
6.61188745 0.44263843 -0.57976002 16 10 8617 6.65200000 2424425037 2424425037 -5.00000000
8.22147179 0.54895216 1.60165071 6 11 8618 8.39400000 2424425040 2424425040 11.00000000
8.12682152 0.54120755 -0.42685205 17 12 8619 8.15600000 2424425042 2424425042 -3.00000000
8.11697006 0.53770566 -0.14199278 16 14 8621 8.13600000 2424425046 2424425046 -1.00000000
8.17901421 0.54038203 2.19633842 54 15 8622 8.48600000 2424425049 2424425049 15.00000000
2.23239613 0.14475384 -0.59942490 4 0 8629 2.31600000 2424425069 2424425069 -15.00000000
8.12778282 0.52560014 0.14216730 18 1 8630 8.14600000 2424425072 2424425072 1.00000000
2.61951113 0.16893709 -0.60601813 6 2 8631 2.69400000 2424425074 2424425074 -13.00000000
8.14388180 0.52521396 0.42768943 23 3 8631 8.17200000 2424425076 2424425076 3.00000000
3.16019988 0.20325324 -0.61554980 4 4 8632 3.22600000 2424425079 2424425079 -11.00000000
8.12818527 0.52135259 0.71258533 79 5 8633 8.17600000 2424425081 2424425081 5.00000000
3.97029448 0.25396416 -0.63011801 6 6 8634 4.02800000 2424425083 2424425083 -9.00000000
8.13425541 0.51889098 1.00079107 90 7 8635 8.21200000 2424425086 2424425086 7.00000000
5.28157997 0.33599082 -0.64980733 8 8 8636 5.33200000 2424425088 2424425088 -7.00000000
6.60941553 0.41930366 -0.57941139 16 10 8637 6.64800000 2424425093 2424425093 -5.00000000
8.12068844 0.51233333 -0.42643338 17 12 8639 8.14800000 2424425097 2424425097 -3.00000000
8.12478542 0.50974452 -0.14209749 14 14 8641 8.14200000 2424425102 2424425102 -1.00000000
8.18856335 0.51231116 2.19840908 51 15 8642 8.49400000 2424425104 2424425104 15.00000000
2.24060059 0.13743353 -0.60149544 4 0 8649 2.32400000 2424425125 2424425125 -15.00000000
8.12158394 0.49673736 0.14202769 18 1 8650 8.13800000 2424425127 2424425127 1.00000000
2.61813974 0.15967363 -0.60556823 6 2 8651 2.69200000 2424425129 2424425129 -13.00000000
