# .PCD v0.7 - Point Cloud Data file format
VERSION 0.7
FIELDS x y z intensity laser_id azimuth distance_m adjustedtime timestamp vertical_angle
SIZE 4 4 4 1 1 2 8 8 4 8
TYPE F F F U U U F U U F
COUNT 1 1 1 1 1 1 1 1 1 1
WIDTH 539
HEIGHT 1
VIEWPOINT 0 0 0 1 0 0 0
POINTS 539
DATA ascii
3.79105496 1.36635876 -0.63825262 6 6 7018 4.08000000 2425920787 2425920787 -9.00000000
8.19510651 2.95203590 1.06952536 90 7 7019 8.77600000 2425920789 2425920789 7.00000000
5.14374256 1.85186136 -0.67125636 6 8 7020 5.50800000 2425920791 2425920791 -7.00000000
8.20569229 2.95423102 1.38131630 86 9 7020 8.83000000 2425920794 2425920794 9.00000000
7.90943813 2.84601355 -0.73542017 13 10 7021 8.43800000 2425920796 2425920796 -5.00000000
8.19885159 2.94853568 1.69362068 90 11 7022 8.87600000 2425920798 2425920798 11.00000000
8.17410469 2.93802500 -0.45521814 12 12 7023 8.69800000 2425920800 2425920800 -3.00000000
8.21812057 2.95222616 2.01601124 104 13 7024 8.96200000 2425920803 2425920803 13.00000000
8.17004585 2.93334603 -0.15152179 16 14 7025 8.68200000 2425920805 2425920805 -1.00000000
7.30058050 2.61973786 2.07831693 45 15 7026 8.03000000 2425920807 2425920807 15.00000000
2.13928771 0.76471239 -0.60874242 4 0 7033 2.35200000 2425920828 2425920828 -15.00000000
8.16711044 2.91781783 0.15138218 12 1 7034 8.67400000 2425920830 2425920830 1.00000000
2.51246262 0.89711905 -0.61591601 4 2 7035 2.73800000 2425920833 2425920833 -13.00000000
8.18212128 2.92157030 0.45532283 10 3 7035 8.70000000 2425920835 2425920835 3.00000000
3.03242254 1.08218312 -0.62585348 5 4 7036 3.28000000 2425920837 2425920837 -11.00000000
8.19133759 2.92163777 0.76086962 93 5 7037 8.73000000 2425920840 2425920840 5.00000000
3.80696535 1.35709691 -0.64012980 4 6 7038 4.09200000 2425920842 2425920842 -9.00000000
8.19414139 2.91941428 1.06806290 90 7 7039 8.76400000 2425920844 2425920844 7.00000000
5.13895512 1.82989955 -0.66979390 6 8 7040 5.49600000 2425920847 2425920847 -7.00000000
8.20851040 2.92291927 1.38006485 89 9 7040 8.82200000 2425920849 2425920849 9.00000000
7.93058634 2.82239532 -0.73646605 13 10 7041 8.45000000 2425920851 2425920851 -5.00000000
8.19614601 2.91529274 1.69094932 81 11 7042 8.86200000 2425920853 2425920853 11.00000000
8.15984631 2.90077710 -0.45385742 12 12 7043 8.67200000 2425920856 2425920856 -3.00000000
8.21001244 2.91699719 2.01151228 106 13 7044 8.94200000 2425920858 2425920858 13.00000000
8.17646599 2.90347123 -0.15145199 14 14 7045 8.67800000 2425920860 2425920860 -1.00000000
7.31150103 2.59488416 2.07883453 45 15 7046 8.03200000 2425920863 2425920863 15.00000000
2.14558673 0.75852805 -0.60977769 4 0 7053 2.35600000 2425920883 2425920883 -15.00000000
8.17536068 2.88862538 0.15134726 12 1 7054 8.67200000 2425920886 2425920886 1.00000000
2.51741648 0.88899237 -0.61636591 4 2 7055 2.74000000 2425920888 2425920888 -13.00000000
8.17720318 2.88767123 0.45448545 13 3 7055 8.68400000 2425920890 2425920890 3.00000000
3.02137113 1.06636417 -0.62280059 5 4 7056 3.26400000 2425920893 2425920893 -11.00000000
8.17893887 2.88507342 0.75877792 75 5 7057 8.70600000 2425920895 2425920895 5.00000000
3.81913137 1.34642708 -0.64138132 4 6 7058 4.10000000 2425920897 2425920897 -9.00000000
8.19679356 2.88815475 1.06708801 90 7 7059 8.75600000 2425920899 2425920899 7.00000000
5.14156675 1.81063139 -0.66930646 6 8 7060 5.49200000 2425920902 2425920902 -7.00000000
8.20375824 2.88899922 1.37756193 89 9 7060 8.80600000 2425920904 2425920904 9.00000000
7.97046041 2.80527854 -0.73925501 13 10 7061 8.48200000 2425920906 2425920906 -5.00000000
8.20627213 2.88666511 1.69094932 87 11 7062 8.86200000 2425920909 2425920909 11.00000000
8.15673256 2.86763930 -0.45312470 12 12 7063 8.65800000 2425920911 2425920911 -3.00000000
8.19808197 2.88056898 2.00611353 106 13 7064 8.91800000 2425920913 2425920913 13.00000000
8.16768456 2.86828661 -0.15110293 14 14 7065 8.65800000 2425920916 2425920916 -1.00000000
7.32371140 2.57190442 2.07986975 45 15 7065 8.03600000 2425920918 2425920918 15.00000000
2.13363242 0.74593353 -0.60563654 4 0 7073 2.34000000 2425920939 2425920939 -15.00000000
8.17784309 2.85743213 0.15120766 12 1 7074 8.66400000 2425920941 2425920941 1.00000000
2.52602363 0.88212693 -0.61771560 4 2 7075 2.74600000 2425920943 2425920943 -13.00000000
8.18534756 2.85845137 0.45438078 13 3 7075 8.68200000 2425920946 2425920946 3.00000000
3.02692842 1.05645812 -0.62318218 5 4 7076 3.26600000 2425920948 2425920948 -11.00000000
8.18519783 2.85519361 0.75842929 82 5 7077 8.70200000 2425920950 2425920950 5.00000000
3.82007742 1.33178711 -0.64075559 4 6 7078 4.09600000 2425920952 2425920952 -9.00000000
8.19932652 2.85691237 1.06611300 92 7 7079 8.74800000 2425920955 2425920955 7.00000000
5.14785576 1.79267299 -0.66930646 6 8 7080 5.49200000 2425920957 2425920957 -7.00000000
8.19700241 2.85449839 1.37474608 76 9 7080 8.78800000 2425920959 2425920959 9.00000000
7.99902105 2.78398848 -0.74099815 13 10 7081 8.50200000 2425920962 2425920962 -5.00000000
8.20888138 2.85542226 1.68942285 84 11 7082 8.85400000 2425920964 2425920964 11.00000000
8.16669273 2.83914948 -0.45312470 12 12 7083 8.65800000 2425920966 2425920966 -3.00000000
8.19336128 2.84681797 2.00251436 101 13 7084 8.90200000 2425920969 2425920969 13.00000000
8.16442299 2.83516669 -0.15085860 12 14 7085 8.64400000 2425920971 2425920971 -1.00000000
7.32578850 2.54251075 2.07779932 45 15 7086 8.02800000 2425920973 2425920973 15.00000000
2.13074589 0.73658764 -0.60408366 4 0 7093 2.33400000 2425920994 2425920994 -15.00000000
8.17264652 2.82364440 0.15092841 12 1 7094 8.64800000 2425920996 2425920996 1.00000000
2.53645563 0.87584835 -0.61951518 3 2 7095 2.75400000 2425920999 2425920999 -13.00000000
8.18066597 2.82321882 0.45354339 13 3 7096 8.66600000 2425921001 2425921001 3.00000000
3.02317452 1.04332376 -0.62165570 5 4 7096 3.25800000 2425921003 2425921003 -11.00000000
8.17627907 2.82010818 0.75668615 75 5 7097 8.68200000 2425921005 2425921005 5.00000000
3.82470298 1.31844437 -0.64075559 4 6 7098 4.09600000 2425921008 2425921008 -9.00000000
8.20361900 2.82633424 1.06538177 90 7 7099 8.74200000 2425921010 2425921010 7.00000000
5.16158962 1.77727783 -0.67028141 6 8 7100 5.50000000 2425921012 2425921012 -7.00000000
8.20504951 2.82522511 1.37443316 84 9 7100 8.78600000 2425921015 2425921015 9.00000000
8.02376175 2.76123643 -0.74239260 13 10 7101 8.51800000 2425921017 2425921017 -5.00000000
8.20765972 2.82291937 1.68713319 87 11 7102 8.84200000 2425921019 2425921019 11.00000000
8.16899872 2.80802822 -0.45270601 12 12 7103 8.65000000 2425921022 2425921022 -3.00000000
8.19956207 2.81693435 2.00161457 103 13 7104 8.89800000 2425921024 2425921024 13.00000000
8.17048740 2.80535150 -0.15078880 12 14 7105 8.64000000 2425921026 2425921026 -1.00000000
7.33235216 2.51757622 2.07728171 45 15 7105 8.02600000 2425921029 2425921029 15.00000000
2.13696003 0.73039508 -0.60511893 4 0 7113 2.33800000 2425921049 2425921049 -15.00000000
8.16353035 2.78863525 0.15057936 12 1 7114 8.62800000 2425921052 2425921052 1.00000000
2.53212047 0.86447060 -0.61771560 3 2 7115 2.74600000 2425921054 2425921054 -13.00000000
8.18480015 2.79271102 0.45322937 13 3 7116 8.66000000 2425921056 2425921056 3.00000000
3.03794622 1.03656852 -0.62394542 5 4 7116 3.27000000 2425921058 2425921058 -11.00000000
8.18041611 2.78962135 0.75616324 78 5 7117 8.67600000 2425921061 2425921061 5.00000000
3.82554245 1.30381119 -0.64012980 4 6 7118 4.09200000 2425921063 2425921063 -9.00000000
8.19276428 2.79064035 1.06270063 95 7 7119 8.72000000 2425921065 2425921065 7.00000000
5.17527866 1.76180863 -0.67125636 6 8 7120 5.50800000 2425921068 2425921068 -7.00000000
8.20412827 2.79131532 1.37255597 86 9 7121 8.77400000 2425921070 2425921070 9.00000000
8.03335094 2.73321128 -0.74239260 13 10 7121 8.51800000 2425921072 2425921072 -5.00000000
8.19515800 2.78666759 1.68255377 75 11 7122 8.81800000 2425921075 2425921075 11.00000000
8.16173077 2.77371192 -0.45176399 12 12 7123 8.63200000 2425921077 2425921077 -3.00000000
8.20565510 2.78704190 2.00071478 104 13 7124 8.89400000 2425921079 2425921079 13.00000000
8.16886902 2.77295732 -0.15057936 14 14 7125 8.62800000 2425921082 2425921082 -1.00000000
7.33421230 2.48820210 2.07521105 45 15 7126 8.01800000 2425921084 2425921084 15.00000000
2.15218091 0.72763586 -0.60874242 4 0 7132 2.35200000 2425921105 2425921105 -15.00000000
8.16136551 2.75770783 0.15036993 12 1 7133 8.61600000 2425921107 2425921107 1.00000000
2.53497314 0.85606903 -0.61771560 3 2 7134 2.74600000 2425921109 2425921109 -13.00000000
8.19023132 2.76427650 0.45302004 13 3 7135 8.65600000 2425921111 2425921111 3.00000000
3.05252790 1.03025556 -0.62623513 4 4 7135 3.28200000 2425921114 2425921114 -11.00000000
8.18395805 2.76056838 0.75564027 78 5 7136 8.67000000 2425921116 2425921116 5.00000000
3.82610106 1.28985596 -0.63950408 4 6 7137 4.08800000 2425921118 2425921118 -9.00000000
8.19068623 2.75965381 1.06123829 97 7 7138 8.70800000 2425921121 2425921121 7.00000000
5.17356730 1.74210310 -0.67028141 6 8 7139 5.50000000 2425921123 2425921123 -7.00000000
8.20911312 2.76426697 1.37193024 86 9 7139 8.77000000 2425921125 2425921125 9.00000000
8.05370045 2.71036983 -0.74343848 13 10 7140 8.53000000 2425921128 2425921128 -5.00000000
8.20063210 2.75822449 1.68179047 75 11 7141 8.81400000 2425921130 2425921130 11.00000000
8.15384579 2.74090409 -0.45082194 12 12 7142 8.61400000 2425921132 2425921132 -3.00000000
8.19268513 2.75236845 1.99531591 101 13 7143 8.87000000 2425921135 2425921135 13.00000000
8.17422771 2.74458003 -0.15050955 12 14 7144 8.62400000 2425921137 2425921137 -1.00000000
7.33833027 2.46391892 2.07417583 45 15 7144 8.01400000 2425921139 2425921139 15.00000000
2.15470767 0.72011888 -0.60874242 4 0 7152 2.35200000 2425921160 2425921160 -15.00000000
8.17852879 2.73173666 0.15050955 12 1 7153 8.62400000 2425921162 2425921162 1.00000000
2.53794599 0.84721512 -0.61771560 4 2 7154 2.74600000 2425921164 2425921164 -13.00000000
8.18277931 2.72998166 0.45207798 13 3 7155 8.63800000 2425921167 2425921167 3.00000000
3.05051851 1.01773000 -0.62509024 5 4 7155 3.27600000 2425921169 2425921169 -11.00000000
8.18409443 2.72883296 0.75476873 76 5 7156 8.66000000 2425921171 2425921171 5.00000000
3.82308412 1.27399445 -0.63825262 4 6 7157 4.08000000 2425921174 2425921174 -9.00000000
8.18520260 2.72602820 1.05928838 95 7 7158 8.69200000 2425921176 2425921176 7.00000000
5.17584991 1.72277951 -0.66979390 6 8 7159 5.49600000 2425921178 2425921178 -7.00000000
8.20419407 2.72917223 1.36942732 89 9 7160 8.75400000 2425921181 2425921181 9.00000000
8.07823658 2.68727183 -0.74483299 13 10 7160 8.54600000 2425921183 2425921183 -5.00000000
8.20275879 2.72710466 1.68026400 78 11 7161 8.80600000 2425921185 2425921185 11.00000000
8.16336346 2.71242523 -0.45082194 12 12 7162 8.61400000 2425921187 2425921187 -3.00000000
8.19114590 2.72006893 1.99261642 92 13 7163 8.85800000 2425921190 2425921190 13.00000000
8.15908623 2.70784163 -0.15005580 14 14 7164 8.59800000 2425921192 2425921192 -1.00000000
7.35831356 2.44065523 2.07728171 45 15 7165 8.02600000 2425921194 2425921194 15.00000000
2.15170527 0.71077532 -0.60718948 4 0 7172 2.34600000 2425921215 2425921215 -15.00000000
8.17282391 2.69815660 0.15023032 12 1 7173 8.60800000 2425921217 2425921217 1.00000000
2.53533602 0.83651912 -0.61636591 4 2 7174 2.74000000 2425921220 2425921220 -13.00000000
8.18277454 2.69827437 0.45155463 13 3 7175 8.62800000 2425921222 2425921222 3.00000000
3.04845905 1.00523102 -0.62394542 5 4 7175 3.27000000 2425921224 2425921224 -11.00000000
8.18032360 2.69588327 0.75354856 76 5 7176 8.64600000 2425921227 2425921227 5.00000000
3.84251761 1.26558530 -0.64075559 4 6 7177 4.09600000 2425921229 2425921229 -9.00000000
8.19466877 2.69743991 1.05928838 95 7 7178 8.69200000 2425921231 2425921231 7.00000000
5.18183184 1.70470190 -0.66979390 6 8 7179 5.49600000 2425921234 2425921234 -7.00000000
8.19443512 2.69577813 1.36629868 91 9 7179 8.73400000 2425921236 2425921236 9.00000000
8.09513855 2.66154623 -0.74553025 13 10 7180 8.55400000 2425921238 2425921238 -5.00000000
8.21222782 2.69845510 1.68026400 81 11 7181 8.80600000 2425921240 2425921240 11.00000000
8.17278194 2.68391323 -0.45082194 12 12 7182 8.61400000 2425921243 2425921243 -3.00000000
8.19318485 2.68902922 1.99081683 103 13 7183 8.85000000 2425921245 2425921245 13.00000000
8.15518761 2.67498183 -0.14981146 14 14 7184 8.58400000 2425921247 2425921247 -1.00000000
7.35535288 2.41262817 2.07417583 45 15 7184 8.01400000 2425921250 2425921250 15.00000000
2.14499092 0.70026243 -0.60460126 4 0 7192 2.33600000 2425921270 2425921270 -15.00000000
8.16698360 2.66464949 0.14995107 12 1 7193 8.59200000 2425921273 2425921273 1.00000000
2.55120969 0.83189297 -0.61951518 4 2 7194 2.75400000 2425921275 2425921275 -13.00000000
8.18644619 2.66783810 0.45124063 13 3 7195 8.62200000 2425921277 2425921277 3.00000000
3.04634953 0.99275887 -0.62280059 5 4 7195 3.26400000 2425921280 2425921280 -11.00000000
8.17263412 2.66175914 0.75197977 83 5 7196 8.62800000 2425921282 2425921282 5.00000000
3.83939838 1.24971914 -0.63950408 6 6 7197 4.08800000 2425921284 2425921284 -9.00000000
8.20403385 2.66881871 1.05928838 97 7 7198 8.69200000 2425921287 2425921287 7.00000000
5.18397522 1.68537605 -0.66930646 9 8 7199 5.49200000 2425921289 2425921289 -7.00000000
8.19862461 2.66389465 1.36536002 94 9 7200 8.72800000 2425921291 2425921291 9.00000000
8.08543110 2.62711596 -0.74378711 17 10 7200 8.53400000 2425921293 2425921293 -5.00000000
8.19919014 2.66249633 1.67568457 84 11 7201 8.78200000 2425921296 2425921296 11.00000000
8.18590069 2.65660143 -0.45103127 12 12 7202 8.61800000 2425921298 2425921298 -3.00000000
8.19510651 2.65800834 1.98901725 90 13 7203 8.84200000 2425921300 2425921300 13.00000000
8.15686607 2.64403224 -0.14967184 12 14 7204 8.57600000 2425921303 2425921303 -1.00000000
7.35128164 2.38148570 2.07055235 47 15 7205 8.00000000 2425921305 2425921305 15.00000000
2.15269518 0.69530159 -0.60615420 4 0 7210 2.34200000 2425921326 2425921326 -15.00000000
8.16009045 2.63406467 0.14967184 12 1 7211 8.57600000 2425921328 2425921328 1.00000000
2.54639220 0.82148075 -0.61771560 4 2 7212 2.74600000 2425921330 2425921330 -13.00000000
8.18908501 2.64026785 0.45092660 13 3 7213 8.61600000 2425921333 2425921333 3.00000000
3.05692744 0.98559338 -0.62432700 5 4 7213 3.27200000 2425921335 2425921335 -11.00000000
8.16768169 2.63179374 0.75075954 76 5 7214 8.61400000 2425921337 2425921337 5.00000000
3.81698155 1.22917402 -0.63512391 6 6 7215 4.06000000 2425921340 2425921340 -9.00000000
8.18214417 2.63330150 1.05538857 95 7 7216 8.66000000 2425921342 2425921342 7.00000000
5.18924475 1.66908181 -0.66930646 6 8 7217 5.49200000 2425921344 2425921344 -7.00000000
8.19144821 2.63471818 1.36285710 94 9 7217 8.71200000 2425921346 2425921346 9.00000000
8.10502529 2.60536027 -0.74483299 17 10 7218 8.54600000 2425921349 2425921349 -5.00000000
8.19443035 2.63252139 1.67301333 90 11 7219 8.76800000 2425921351 2425921351 11.00000000
8.16377926 2.62110281 -0.44935653 12 12 7220 8.58600000 2425921353 2425921353 -3.00000000
8.19970512 2.63105869 1.98811746 103 13 7221 8.83800000 2425921356 2425921356 13.00000000
8.17274952 2.62083626 -0.14981146 12 14 7222 8.58400000 2425921358 2425921358 -1.00000000
7.36383390 2.36143327 2.07210517 45 15 7222 8.00600000 2425921360 2425921360 15.00000000
2.15510917 0.68778306 -0.60615420 4 0 7230 2.34200000 2425921381 2425921381 -15.00000000
8.16923523 2.60556459 0.14967184 12 1 7231 8.57600000 2425921383 2425921383 1.00000000
2.53624725 0.80844438 -0.61456627 4 2 7232 2.73200000 2425921386 2425921386 -13.00000000
8.18112373 2.60621047 0.44998455 13 3 7233 8.59800000 2425921388 2425921388 3.00000000
3.06409049 0.97610855 -0.62509024 5 4 7233 3.27600000 2425921390 2425921390 -11.00000000
8.17492008 2.60266256 0.75058526 76 5 7234 8.61200000 2425921393 2425921393 5.00000000
3.83630800 1.22063434 -0.63762689 6 6 7235 4.07600000 2425921395 2425921395 -9.00000000
8.17426014 2.59931040 1.05319488 99 7 7236 8.64200000 2425921397 2425921397 7.00000000
5.17233658 1.64374316 -0.66638160 6 8 7237 5.46800000 2425921399 2425921399 -7.00000000
8.19351959 2.60228562 1.36160553 94 9 7238 8.70400000 2425921402 2425921402 9.00000000
8.11407089 2.57705259 -0.74483299 13 10 7238 8.54600000 2425921404 2425921404 -5.00000000
8.19608402 2.60152555 1.67148685 90 11 7239 8.76000000 2425921406 2425921406 11.00000000
8.15574551 2.58715487 -0.44841447 17 12 7240 8.56800000 2425921409 2425921409 -3.00000000
8.19397831 2.59770918 1.98451817 101 13 7241 8.82200000 2425921411 2425921411 13.00000000
8.17041016 2.58866811 -0.14960203 14 14 7242 8.57200000 2425921413 2425921413 -1.00000000
7.37612295 2.33559394 2.07314062 45 15 7243 8.01000000 2425921416 2425921416 15.00000000
2.16486669 0.68257982 -0.60822475 4 0 7250 2.35000000 2425921436 2425921436 -15.00000000
8.17446613 2.57583094 0.14960203 12 1 7251 8.57200000 2425921439 2425921439 1.00000000
2.54277134 0.80075699 -0.61546606 4 2 7252 2.73600000 2425921441 2425921441 -13.00000000
8.18064594 2.57463932 0.44946119 13 3 7253 8.58800000 2425921443 2425921443 3.00000000
3.05998826 0.96304941 -0.62356383 5 4 7253 3.26800000 2425921446 2425921446 -11.00000000
8.17445183 2.57112193 0.74971372 76 5 7254 8.60200000 2425921448 2425921448 5.00000000
3.83300757 1.20486617 -0.63637543 6 6 7255 4.06800000 2425921450 2425921450 -9.00000000
8.18328381 2.57076120 1.05319488 99 7 7256 8.64200000 2425921452 2425921452 7.00000000
5.17804289 1.62567830 -0.66638160 6 8 7257 5.46800000 2425921455 2425921455 -7.00000000
8.18514156 2.56977534 1.35878980 89 9 7257 8.68600000 2425921457 2425921457 9.00000000
6.63642645 2.08227444 -0.60852140 8 10 7258 6.98200000 2425921459 2425921459 -5.00000000
8.19949532 2.57113791 1.67034197 87 11 7259 8.75400000 2425921462 2425921462 11.00000000
8.16663170 2.55926728 -0.44851914 12 12 7260 8.57000000 2425921464 2425921464 -3.00000000
8.19183826 2.56559634 1.98181880 92 13 7261 8.81000000 2425921466 2425921466 13.00000000
8.16412926 2.55535364 -0.14932279 14 14 7262 8.55600000 2425921469 2425921469 -1.00000000
7.40226412 2.31689167 2.07831693 45 15 7262 8.03000000 2425921471 2425921471 15.00000000
2.15616941 0.67157197 -0.60511893 4 0 7270 2.33800000 2425921492 2425921492 -15.00000000
8.17577076 2.54490376 0.14946240 12 1 7271 8.56400000 2425921494 2425921494 1.00000000
2.54927254 0.79303390 -0.61636591 4 2 7272 2.74000000 2425921496 2425921496 -13.00000000
8.18386078 2.54428887 0.44914716 13 3 7273 8.58200000 2425921499 2425921499 3.00000000
3.05583239 0.95003080 -0.62203735 5 4 7273 3.26000000 2425921501 2425921501 -11.00000000
8.17196083 2.53902531 0.74866784 76 5 7274 8.59000000 2425921503 2425921503 5.00000000
3.84850931 1.19499385 -0.63825262 6 6 7275 4.08000000 2425921505 2425921505 -9.00000000
8.18083191 2.53865051 1.05173242 99 7 7276 8.63000000 2425921508 2425921508 7.00000000
5.19506216 1.61112165 -0.66784400 9 8 7277 5.48000000 2425921510 2425921510 -7.00000000
8.18462849 2.53826261 1.35722542 97 9 7277 8.67600000 2425921512 2425921512 9.00000000
6.66268539 2.06499457 -0.61026454 12 10 7278 7.00200000 2425921515 2425921515 -5.00000000
8.20091915 2.54017711 1.66881549 87 11 7279 8.74600000 2425921517 2425921517 11.00000000
8.16597652 2.52779198 -0.44799578 17 12 7280 8.56000000 2425921519 2425921519 -3.00000000
8.19702053 2.53583407 1.98091900 101 13 7281 8.80600000 2425921522 2425921522 13.00000000
8.16153622 2.52329612 -0.14911336 12 14 7282 8.54400000 2425921524 2425921524 -1.00000000
7.43799114 2.29959798 2.08608150 42 15 7282 8.06000000 2425921526 2425921526 15.00000000
2.15480757 0.66290534 -0.60408366 4 0 7290 2.33400000 2425921547 2425921547 -15.00000000
8.16549015 2.51047277 0.14911336 12 1 7291 8.54400000 2425921549 2425921549 1.00000000
2.55761361 0.78584749 -0.61771560 5 2 7292 2.74600000 2425921552 2425921552 -13.00000000
8.17550945 2.51042986 0.44820514 10 3 7293 8.56400000 2425921554 2425921554 3.00000000
3.05912995 0.93935817 -0.62203735 5 4 7293 3.26000000 2425921556 2425921556 -11.00000000
8.15791702 2.50347018 0.74657607 76 5 7294 8.56600000 2425921558 2425921558 5.00000000
3.85265708 1.18155277 -0.63825262 6 6 7295 4.08000000 2425921561 2425921561 -9.00000000
8.18774605 2.50949693 1.05148864 97 7 7296 8.62800000 2425921563 2425921563 7.00000000
5.20445061 1.59414041 -0.66833150 6 8 7297 5.48400000 2425921565 2425921565 -7.00000000
8.18254280 2.50477815 1.35534823 97 9 7298 8.66400000 2425921568 2425921568 9.00000000
6.63556099 2.03122759 -0.60712689 12 10 7298 6.96600000 2425921570 2425921570 -5.00000000
8.19471645 2.50694036 1.66576254 87 11 7299 8.73000000 2425921572 2425921572 11.00000000
8.17092991 2.49810410 -0.44778645 17 12 7300 8.55600000 2425921575 2425921575 -3.00000000
8.19836712 2.50492787 1.97911942 103 13 7301 8.79800000 2425921577 2425921577 13.00000000
8.15881920 2.49128771 -0.14890394 12 14 7302 8.53200000 2425921579 2425921579 -1.00000000
7.47553492 2.28264737 2.09436369 42 15 7302 8.09200000 2425921581 2425921581 15.00000000
2.15525985 0.65481806 -0.60356599 4 0 7310 2.33200000 2425921602 2425921602 -15.00000000
8.16272259 2.47846866 0.14890394 12 1 7311 8.53200000 2425921605 2425921605 1.00000000
2.54915237 0.77351987 -0.61501616 6 2 7312 2.73400000 2425921607 2425921607 -13.00000000
8.18422222 2.48187685 0.44820514 13 3 7313 8.56400000 2425921609 2425921609 3.00000000
3.06239033 0.92867410 -0.62203735 5 4 7313 3.26000000 2425921611 2425921611 -11.00000000
8.16279316 2.47382283 0.74622744 76 5 7314 8.56200000 2425921614 2425921614 5.00000000
3.85108638 1.16637957 -0.63731402 6 6 7315 4.07400000 2425921616 2425921616 -9.00000000
8.17745590 2.47515011 1.04905128 95 7 7316 8.60800000 2425921618 2425921618 7.00000000
5.20618343 1.57481432 -0.66784400 6 8 7317 5.48000000 2425921621 2425921621 -7.00000000
8.18367290 2.47391391 1.35409677 90 9 7318 8.65600000 2425921623 2425921623 9.00000000
6.65786791 2.01266503 -0.60852140 12 10 7318 6.98200000 2425921625 2425921625 -5.00000000
8.18650341 2.47321033 1.66232800 90 11 7319 8.71200000 2425921628 2425921628 11.00000000
8.16239262 2.46437144 -0.44684440 12 12 7320 8.53800000 2425921630 2425921630 -3.00000000
8.20706081 2.47629499 1.97911942 103 13 7321 8.79800000 2425921632 2425921632 13.00000000
8.16172218 2.46106100 -0.14879921 14 14 7322 8.52600000 2425921634 2425921634 -1.00000000
7.56893682 2.28087306 2.11817503 45 15 7323 8.18400000 2425921637 2425921637 15.00000000
2.16874838 0.65024310 -0.60667187 4 0 7331 2.34400000 2425921658 2425921658 -15.00000000
8.15642738 2.44394255 0.14862469 12 1 7332 8.51600000 2425921660 2425921660 1.00000000
2.54076934 0.76081747 -0.61231679 6 2 7333 2.72200000 2425921662 2425921662 -13.00000000
8.17221642 2.44556499 0.44705373 13 3 7334 8.54200000 2425921664 2425921664 3.00000000
3.07329679 0.91969502 -0.62356383 5 4 7334 3.26800000 2425921667 2425921667 -11.00000000
8.16989613 2.44331717 0.74605316 79 5 7335 8.56000000 2425921669 2425921669 5.00000000
3.84965754 1.15055978 -0.63637543 6 6 7336 4.06800000 2425921671 2425921671 -9.00000000
8.17506027 2.44175291 1.04758883 90 7 7337 8.59600000 2425921674 2425921674 7.00000000
5.20811605 1.55458653 -0.66735655 9 8 7338 5.47600000 2425921676 2425921676 -7.00000000
8.19268608 2.44390273 1.35409677 95 9 7339 8.65600000 2425921678 2425921678 9.00000000
6.64992619 1.98369288 -0.60712689 16 10 7339 6.96600000 2425921681 2425921681 -5.00000000
8.18234348 2.43926239 1.65965664 87 11 7340 8.69800000 2425921683 2425921683 11.00000000
8.15222836 2.42873573 -0.44579768 12 12 7341 8.51800000 2425921685 2425921685 -3.00000000
8.19740486 2.44063711 1.97462034 104 13 7342 8.77800000 2425921687 2425921687 13.00000000
8.17068768 2.43113017 -0.14879921 16 14 7343 8.52600000 2425921690 2425921690 -1.00000000
7.65832424 2.27868009 2.14095116 42 15 7343 8.27200000 2425921692 2425921692 15.00000000
2.16729999 0.64157212 -0.60563654 4 0 7351 2.34000000 2425921713 2425921713 -15.00000000
8.17257881 2.41772556 0.14876431 12 1 7352 8.52400000 2425921715 2425921715 1.00000000
2.54340959 0.75194389 -0.61231679 6 2 7353 2.72200000 2425921717 2425921717 -13.00000000
8.17112637 2.41419411 0.44653037 10 3 7354 8.53200000 2425921720 2425921720 3.00000000
3.07272291 0.90784907 -0.62280059 5 4 7354 3.26400000 2425921722 2425921722 -11.00000000
8.16882133 2.41196299 0.74518162 72 5 7355 8.55000000 2425921724 2425921724 5.00000000
3.85743952 1.13823307 -0.63700116 6 6 7356 4.07200000 2425921727 2425921727 -9.00000000
8.18734264 2.41432476 1.04807639 92 7 7357 8.60000000 2425921729 2425921729 7.00000000
5.19637346 1.53134716 -0.66516286 9 8 7358 5.45800000 2425921731 2425921731 -7.00000000
8.19358730 2.41305780 1.35284531 60 9 7359 8.64800000 2425921734 2425921734 9.00000000
6.64343119 1.95652819 -0.60590672 28 10 7359 6.95200000 2425921736 2425921736 -5.00000000
8.19834137 2.41290307 1.66118312 25 11 7360 8.70600000 2425921738 2425921738 11.00000000
8.16448879 2.40139151 -0.44600701 12 12 7361 8.52200000 2425921740 2425921740 -3.00000000
8.19465637 2.40871072 1.97192097 31 13 7362 8.76600000 2425921743 2425921743 13.00000000
8.16569424 2.39864922 -0.14855488 14 14 7363 8.51200000 2425921745 2425921745 -1.00000000
7.74964094 2.27643490 2.16424489 45 15 7363 8.36200000 2425921747 2425921747 15.00000000
2.16570735 0.63329715 -0.60460126 4 0 7370 2.33600000 2425921768 2425921768 -15.00000000
8.17479324 2.38892817 0.14865960 12 1 7371 8.51800000 2425921770 2425921770 1.00000000
2.56272459 0.74842215 -0.61636591 6 2 7372 2.74000000 2425921773 2425921773 -13.00000000
8.18825626 2.39131141 0.44705373 23 3 7372 8.54200000 2425921775 2425921775 3.00000000
3.06629324 0.89490438 -0.62089247 5 4 7373 3.25400000 2425921777 2425921777 -11.00000000
8.15956020 2.37984014 0.74361283 76 5 7374 8.53200000 2425921780 2425921780 5.00000000
3.86877871 1.12764609 -0.63825262 6 6 7375 4.08000000 2425921782 2425921782 -9.00000000
8.18005657 2.38271999 1.04612648 92 7 7376 8.58400000 2425921784 2425921784 7.00000000
5.20904684 1.51632619 -0.66613781 9 8 7377 5.46600000 2425921786 2425921786 -7.00000000
6.64031744 1.93170428 -0.60503519 60 10 7378 6.94200000 2425921791 2425921791 -5.00000000
8.30432892 2.41420221 1.68102729 12 11 7379 8.81000000 2425921793 2425921793 11.00000000
8.16857147 2.37318945 -0.44579768 12 12 7380 8.51800000 2425921796 2425921796 -3.00000000
8.28494358 2.40543056 1.99171662 19 13 7381 8.85400000 2425921798 2425921798 13.00000000
8.15439796 2.36598539 -0.14820583 12 14 7382 8.49200000 2425921800 2425921800 -1.00000000
7.83692646 2.27387142 2.18650341 45 15 7382 8.44800000 2425921803 2425921803 15.00000000
2.16790462 0.62573355 -0.60460126 4 0 7390 2.33600000 2425921823 2425921823 -15.00000000
8.16771126 2.35594463 0.14838035 12 1 7391 8.50200000 2425921826 2425921826 1.00000000
2.56157637 0.73839253 -0.61546606 6 2 7392 2.73600000 2425921828 2425921828 -13.00000000
8.18353081 2.35741377 0.44632104 13 3 7393 8.52800000 2425921830 2425921830 3.00000000
3.08260417 0.88799971 -0.62356383 5 4 7393 3.26800000 2425921833 2425921833 -11.00000000
8.15441513 2.34748507 0.74239260 72 5 7394 8.51800000 2425921835 2425921835 5.00000000
3.86509776 1.11195016 -0.63700116 4 6 7395 4.07200000 2425921837 2425921837 -9.00000000
8.18832397 2.35415173 1.04612648 92 7 7396 8.58400000 2425921839 2425921839 7.00000000
5.21812391 1.49923027 -0.66662532 9 8 7397 5.47000000 2425921842 2425921842 -7.00000000
8.30475521 2.38448787 1.36848867 10 9 7398 8.74800000 2425921844 2425921844 9.00000000
6.65084982 1.90961325 -0.60538381 24 10 7398 6.94600000 2425921846 2425921846 -5.00000000
8.28251171 2.37653637 1.67492139 12 11 7399 8.77800000 2425921849 2425921849 11.00000000
8.17488575 2.34411073 -0.44569302 17 12 7400 8.51600000 2425921851 2425921851 -3.00000000
8.15876293 2.33640575 -0.14813602 14 14 7402 8.48800000 2425921856 2425921856 -1.00000000
7.92507172 2.26798773 2.20876169 45 15 7403 8.53400000 2425921858 2425921858 15.00000000
2.16635990 0.61710382 -0.60356599 4 0 7410 2.33200000 2425921879 2425921879 -15.00000000
8.16626930 2.32468200 0.14820583 12 1 7411 8.49200000 2425921881 2425921881 1.00000000
2.56038952 0.72837996 -0.61456627 6 2 7412 2.73200000 2425921883 2425921883 -13.00000000
8.18938255 2.32971668 0.44621637 15 3 7412 8.52600000 2425921886 2425921886 3.00000000
3.07624292 0.87454969 -0.62165570 5 4 7413 3.25800000 2425921888 2425921888 -11.00000000
8.17597580 2.32281804 0.74361283 83 5 7414 8.53200000 2425921890 2425921890 5.00000000
3.87275624 1.09953070 -0.63762689 6 6 7415 4.07600000 2425921892 2425921892 -9.00000000
8.18121338 2.32122016 1.04417658 90 7 7416 8.56800000 2425921895 2425921895 7.00000000
5.22714520 1.48208952 -0.66711277 9 8 7417 5.47400000 2425921897 2425921897 -7.00000000
8.48787880 2.40502810 1.39727259 7 9 7418 8.93200000 2425921899 2425921899 9.00000000
6.65747499 1.88638580 -0.60538381 12 10 7418 6.94600000 2425921902 2425921902 -5.00000000
8.52499104 2.41393638 1.72224200 12 11 7419 9.02600000 2425921904 2425921904 11.00000000
8.16572189 2.31066656 -0.44475096 17 12 7420 8.49800000 2425921906 2425921906 -3.00000000
8.16686821 2.30791211 -0.14813602 16 14 7422 8.48800000 2425921911 2425921911 -1.00000000
8.03479671 2.27058935 2.23723173 42 15 7422 8.64400000 2425921913 2425921913 15.00000000
2.18151927 0.61319739 -0.60718948 4 0 7430 2.34600000 2425921934 2425921934 -15.00000000
8.16470814 2.29345846 0.14803131 15 1 7431 8.48200000 2425921936 2425921936 1.00000000
2.54978299 0.71575141 -0.61141694 7 2 7432 2.71800000 2425921938 2425921938 -13.00000000
8.18400478 2.29733777 0.44548365 26 3 7432 8.51200000 2425921941 2425921941 3.00000000
3.08683825 0.86592734 -0.62318218 5 4 7433 3.26600000 2425921943 2425921943 -11.00000000
8.16485023 2.28888655 0.74186969 72 5 7434 8.51200000 2425921945 2425921945 5.00000000
3.86896205 1.08387399 -0.63637543 4 6 7435 4.06800000 2425921948 2425921948 -9.00000000
8.17397404 2.28836703 1.04222667 90 7 7436 8.55200000 2425921950 2425921950 7.00000000
5.22463989 1.46169508 -0.66613781 9 8 7437 5.46600000 2425921952 2425921952 -7.00000000
8.59514904 2.40304303 1.41354179 10 9 7438 9.03600000 2425921955 2425921955 9.00000000
6.65634394 1.86098957 -0.60468656 12 10 7438 6.93800000 2425921957 2425921957 -5.00000000
8.61656189 2.40740848 1.73903322 12 11 7439 9.11400000 2425921959 2425921959 11.00000000
8.15257740 2.27624059 -0.44359955 17 12 7440 8.47600000 2425921962 2425921962 -3.00000000
8.60625172 2.40128946 2.06280112 40 13 7441 9.17000000 2425921964 2425921964 13.00000000
8.16524410 2.27670503 -0.14796150 14 14 7442 8.47800000 2425921966 2425921966 -1.00000000
8.15432549 2.27366066 2.26829004 47 15 7442 8.76400000 2425921968 2425921968 15.00000000
2.18167901 0.60544324 -0.60667187 4 0 7449 2.34400000 2425921989 2425921989 -15.00000000
8.16263390 2.26369882 0.14785679 12 1 7450 8.47200000 2425921991 2425921991 1.00000000
2.55965424 0.70937389 -0.61321658 7 2 7451 2.72600000 2425921994 2425921994 -13.00000000
8.16887569 2.26235938 0.44422761 26 3 7452 8.48800000 2425921996 2425921996 3.00000000
3.08212447 0.85359031 -0.62165570 5 4 7452 3.25800000 2425921998 2425921998 -11.00000000
8.16663456 2.26020384 0.74134678 72 5 7453 8.50600000 2425922001 2425922001 5.00000000
3.88395834 1.07419753 -0.63825262 4 6 7454 4.08000000 2425922003 2425922003 -9.00000000
8.18534374 2.26230621 1.04271412 92 7 7455 8.55600000 2425922005 2425922005 7.00000000
5.21032381 1.43907654 -0.66370046 9 8 7456 5.44600000 2425922008 2425922008 -7.00000000
8.68262672 2.39811683 1.42668235 10 9 7456 9.12000000 2425922010 2425922010 9.00000000
6.64903450 1.83519542 -0.60346639 20 10 7457 6.92400000 2425922012 2425922012 -5.00000000
8.63206863 2.38090992 1.74055970 6 11 7458 9.12200000 2425922015 2425922015 11.00000000
8.15045357 2.24653959 -0.44307619 12 12 7459 8.46600000 2425922017 2425922017 -3.00000000
8.16118050 2.24643135 -0.14775208 14 14 7461 8.46600000 2425922021 2425922021 -1.00000000
8.22554302 2.26260328 2.28588986 47 15 7462 8.83200000 2425922024 2425922024 15.00000000
2.17632604 0.59578371 -0.60460126 4 0 7469 2.33600000 2425922044 2425922044 -15.00000000
8.17434311 2.23624730 0.14792660 12 1 7470 8.47600000 2425922047 2425922047 1.00000000
2.56211495 0.70043468 -0.61321658 7 2 7471 2.72600000 2425922049 2425922049 -13.00000000
8.17633343 2.23525786 0.44422761 36 3 7471 8.48800000 2425922051 2425922051 3.00000000
3.07750988 0.84075689 -0.62012923 5 4 7472 3.25000000 2425922054 2425922054 -11.00000000
8.16678619 2.22958446 0.74064952 79 5 7473 8.49800000 2425922056 2425922056 5.00000000
3.88768435 1.06063342 -0.63825262 4 6 7474 4.08000000 2425922058 2425922058 -9.00000000
8.18361473 2.23110962 1.04149544 87 7 7475 8.54600000 2425922061 2425922061 7.00000000
5.22489214 1.42348945 -0.66491914 9 8 7476 5.45600000 2425922063 2425922063 -7.00000000
8.12718201 2.21267676 1.33407307 5 9 7477 8.52800000 2425922065 2425922065 9.00000000
6.64002085 1.80778766 -0.60207188 32 10 7477 6.90800000 2425922068 2425922068 -5.00000000
8.08526993 2.19974995 1.62874556 12 11 7478 8.53600000 2425922070 2425922070 11.00000000
8.15053654 2.21597958 -0.44265753 12 12 7479 8.45800000 2425922072 2425922072 -3.00000000
8.05070496 2.18732810 1.92603087 16 13 7480 8.56200000 2425922074 2425922074 13.00000000
8.15353394 2.21373820 -0.14747283 14 14 7481 8.45000000 2425922077 2425922077 -1.00000000
8.07677746 2.19138479 2.24240828 18 15 7482 8.66400000 2425922079 2425922079 15.00000000
2.17839241 0.58818328 -0.60460126 4 0 7489 2.33600000 2425922100 2425922100 -15.00000000
8.11066532 2.18842554 0.14663512 12 1 7490 8.40200000 2425922102 2425922102 1.00000000
2.57207036 0.69351631 -0.61501616 7 2 7491 2.73400000 2425922104 2425922104 -13.00000000
8.11080742 2.18694520 0.44025007 26 3 7491 8.41200000 2425922107 2425922107 3.00000000
3.08990431 0.83256316 -0.62203735 5 4 7492 3.26000000 2425922109 2425922109 -11.00000000
8.09948826 2.18086076 0.73385137 25 5 7493 8.42000000 2425922111 2425922111 5.00000000
3.87991786 1.04397678 -0.63637543 4 6 7494 4.06800000 2425922114 2425922114 -9.00000000
8.07249928 2.17057180 1.02638364 23 7 7495 8.42200000 2425922116 2425922116 7.00000000
5.24324894 1.40884829 -0.66662532 9 8 7496 5.47000000 2425922118 2425922118 -7.00000000
8.06961346 2.16828561 1.32343554 22 9 7496 8.46000000 2425922121 2425922121 9.00000000
6.63089705 1.78046525 -0.60067737 40 10 7497 6.89200000 2425922123 2425922123 -5.00000000
8.07204056 2.16591716 1.62454784 21 11 7498 8.51400000 2425922125 2425922125 11.00000000
8.09070396 2.16941094 -0.43899399 17 12 7499 8.38800000 2425922127 2425922127 -3.00000000
8.06581974 2.16123009 1.92783058 31 13 7500 8.57000000 2425922130 2425922130 13.00000000
8.03179169 2.15060949 -0.14513421 18 14 7501 8.31600000 2425922132 2425922132 -1.00000000
8.06944847 2.15918326 2.23826718 22 15 7502 8.64800000 2425922134 2425922134 15.00000000
2.17669868 0.57958156 -0.60356599 4 0 7509 2.33200000 2425922155 2425922155 -15.00000000
8.02936172 2.13644814 0.14502950 28 1 7510 8.31000000 2425922157 2425922157 1.00000000
2.56694245 0.68253082 -0.61321658 7 2 7511 2.72600000 2425922160 2425922160 -13.00000000
8.06434631 2.14424968 0.43731925 34 3 7511 8.35600000 2425922162 2425922162 3.00000000
3.09089422 0.82126814 -0.62165570 5 4 7512 3.25800000 2425922164 2425922164 -11.00000000
8.04928112 2.13723588 0.72862202 36 5 7513 8.36000000 2425922167 2425922167 5.00000000
3.87208247 1.02738738 -0.63449818 6 6 7514 4.05600000 2425922169 2425922169 -9.00000000
8.05891991 2.13678384 1.02370250 28 7 7515 8.40000000 2425922171 2425922171 7.00000000
5.23470259 1.38697839 -0.66491914 9 8 7516 5.45600000 2425922174 2425922174 -7.00000000
8.06949520 2.13808036 1.32218409 27 9 7516 8.45200000 2425922176 2425922176 9.00000000
6.64092350 1.75832808 -0.60102600 48 10 7517 6.89600000 2425922178 2425922178 -5.00000000
8.06057262 2.13270545 1.62073159 25 11 7518 8.49400000 2425922180 2425922180 11.00000000
8.02678299 2.12226653 -0.43512115 29 12 7519 8.31400000 2425922183 2425922183 -3.00000000
8.09215641 2.13803983 1.93232954 30 13 7520 8.59000000 2425922185 2425922185 13.00000000
8.02378178 2.11847639 -0.14485498 36 14 7521 8.30000000 2425922187 2425922187 -1.00000000
8.09748268 2.13642383 2.24396110 18 15 7522 8.67000000 2425922190 2425922190 15.00000000
2.18431425 0.57345158 -0.60511893 4 0 7529 2.33800000 2425922210 2425922210 -15.00000000
8.03870487 2.10891485 0.14506440 34 1 7530 8.31200000 2425922213 2425922213 1.00000000
2.55611396 0.67010713 -0.61006725 9 2 7531 2.71200000 2425922215 2425922215 -13.00000000
8.06019020 2.11304784 0.43669122 28 3 7531 8.34400000 2425922217 2425922217 3.00000000
3.10323787 0.81296158 -0.62356383 5 4 7532 3.26800000 2425922220 2425922220 -11.00000000
8.04898262 2.10710740 0.72792476 18 5 7533 8.35200000 2425922222 2425922222 5.00000000
3.88137841 1.01536489 -0.63543677 6 6 7534 4.06200000 2425922224 2425922224 -9.00000000
8.08553505 2.11366057 1.02613986 23 7 7535 8.42000000 2425922226 2425922226 7.00000000
5.23567057 1.36769402 -0.66443163 9 8 7536 5.45200000 2425922229 2425922229 -7.00000000
8.09793282 2.11539149 1.32562566 10 9 7536 8.47400000 2425922231 2425922231 9.00000000
6.63738203 1.73262012 -0.60015446 48 10 7537 6.88600000 2425922233 2425922233 -5.00000000
8.03607559 2.09473848 -0.43522581 29 12 7539 8.31600000 2425922238 2425922238 -3.00000000
8.05241489 2.09599638 -0.14523892 20 14 7541 8.32200000 2425922243 2425922243 -1.00000000
8.21856594 2.13924456 2.27553701 42 15 7541 8.79200000 2425922245 2425922245 15.00000000
2.19565368 0.56824350 -0.60770714 4 0 7549 2.34800000 2425922266 2425922266 -15.00000000
8.09441757 2.09335876 0.14593703 15 1 7550 8.36200000 2425922268 2425922268 1.00000000
2.56032419 0.66166812 -0.61051714 7 2 7551 2.71400000 2425922270 2425922270 -13.00000000
8.16613674 2.11038613 0.44202948 52 3 7551 8.44600000 2425922273 2425922273 3.00000000
3.09465146 0.79917890 -0.62127411 5 4 7552 3.25600000 2425922275 2425922275 -11.00000000
8.16432381 2.10687757 0.73768622 68 5 7553 8.46400000 2425922277 2425922277 5.00000000
3.88489914 1.00181019 -0.63543677 6 6 7554 4.06200000 2425922279 2425922279 -9.00000000
8.17744446 2.10721922 1.03686440 97 7 7555 8.50800000 2425922282 2425922282 7.00000000
5.24425793 1.35039973 -0.66491914 9 8 7556 5.45600000 2425922284 2425922284 -7.00000000
6.64531898 1.70993721 -0.60032874 44 10 7557 6.88800000 2425922289 2425922289 -5.00000000
8.12071514 2.08655620 -0.43941268 17 12 7559 8.39600000 2425922293 2425922293 -3.00000000
8.14490891 2.08974195 -0.14677474 16 14 7561 8.41000000 2425922298 2425922298 -1.00000000
8.21699524 2.10670853 2.27294874 47 15 7562 8.78200000 2425922300 2425922300 15.00000000
2.18452048 0.55723333 -0.60408366 4 0 7569 2.33400000 2425922321 2425922321 -15.00000000
8.16562080 2.08139062 0.14708889 12 1 7570 8.42800000 2425922323 2425922323 1.00000000
2.56639504 0.65368891 -0.61141694 7 2 7571 2.71800000 2425922326 2425922326 -13.00000000
8.17575264 2.08093429 0.44213417 84 3 7572 8.44800000 2425922328 2425922328 3.00000000
3.09171438 0.78691888 -0.62012923 5 4 7572 3.25000000 2425922330 2425922330 -11.00000000
8.17162800 2.07836580 0.73768622 90 5 7573 8.46400000 2425922332 2425922332 5.00000000
3.89220142 0.98921639 -0.63606256 6 6 7574 4.06600000 2425922335 2425922335 -9.00000000
8.17897892 2.07719588 1.03613317 95 7 7575 8.50200000 2425922337 2425922337 7.00000000
5.24124336 1.33013248 -0.66394418 9 8 7576 5.44800000 2425922339 2425922339 -7.00000000
6.63772869 1.68330204 -0.59910858 40 10 7577 6.87400000 2425922344 2425922344 -5.00000000
8.16279984 2.06702185 -0.44129679 17 12 7579 8.43200000 2425922349 2425922349 -3.00000000
8.15603065 2.06227851 -0.14684455 12 14 7581 8.41400000 2425922353 2425922353 -1.00000000
8.21457100 2.07708073 2.27036071 51 15 7581 8.77200000 2425922356 2425922356 15.00000000
2.17708445 0.54724979 -0.60149544 4 0 7589 2.32400000 2425922376 2425922376 -15.00000000
8.15344238 2.04800296 0.14673984 12 1 7590 8.40800000 2425922379 2425922379 1.00000000
2.58000207 0.64757299 -0.61411637 7 2 7591 2.73000000 2425922381 2425922381 -13.00000000
8.18102932 2.05189705 0.44202948 100 3 7592 8.44600000 2425922383 2425922383 3.00000000
3.09634686 0.77659965 -0.62051088 5 4 7592 3.25200000 2425922385 2425922385 -11.00000000
8.15950680 2.04498529 0.73594308 76 5 7593 8.44400000 2425922388 2425922388 5.00000000
3.87646866 0.97082508 -0.63293386 6 6 7594 4.04600000 2425922390 2425922390 -9.00000000
8.18040276 2.04718757 1.03540194 95 7 7595 8.49600000 2425922392 2425922392 7.00000000
5.24585438 1.31182897 -0.66394418 6 8 7596 5.44800000 2425922395 2425922395 -7.00000000
6.63389921 1.65770674 -0.59823704 40 10 7597 6.86400000 2425922399 2425922399 -5.00000000
8.16802788 2.03803229 -0.44119212 12 12 7599 8.43000000 2425922404 2425922404 -3.00000000
8.15735912 2.03234577 -0.14673984 10 14 7601 8.40800000 2425922409 2425922409 -1.00000000
8.20900631 2.04369187 2.26673722 49 15 7602 8.75800000 2425922411 2425922411 15.00000000
2.19013786 0.54281574 -0.60460126 4 0 7608 2.33600000 2425922432 2425922432 -15.00000000
8.15242386 2.01903105 0.14660022 12 1 7609 8.40000000 2425922434 2425922434 1.00000000
2.57456851 0.63714129 -0.61231679 7 2 7610 2.72200000 2425922436 2425922436 -13.00000000
8.18391132 2.02379751 0.44182014 100 3 7611 8.44200000 2425922438 2425922438 3.00000000
3.10081077 0.76679879 -0.62089247 5 4 7611 3.25400000 2425922441 2425922441 -11.00000000
8.15850735 2.01600432 0.73524582 76 5 7612 8.43600000 2425922443 2425922443 5.00000000
3.88350224 0.95891201 -0.63355958 6 6 7613 4.05000000 2425922445 2425922445 -9.00000000
8.17172813 2.01624489 1.03345203 97 7 7614 8.48000000 2425922448 2425922448 7.00000000
5.25403023 1.29537630 -0.66443163 9 8 7615 5.45200000 2425922450 2425922450 -7.00000000
6.63549089 1.63474560 -0.59788841 12 10 7616 6.86000000 2425922455 2425922455 -5.00000000
8.16310406 2.00807238 -0.44056407 12 12 7618 8.41800000 2425922459 2425922459 -3.00000000
8.15822792 2.00385284 -0.14663512 12 14 7620 8.40200000 2425922464 2425922464 -1.00000000
8.21163464 2.01697087 2.26570201 47 15 7620 8.75400000 2425922466 2425922466 15.00000000
2.19389606 0.53562564 -0.60511893 4 0 7628 2.33800000 2425922487 2425922487 -15.00000000
8.15942192 1.99056149 0.14660022 12 1 7629 8.40000000 2425922489 2425922489 1.00000000
2.56920362 0.62630433 -0.61051714 7 2 7630 2.71400000 2425922491 2425922491 -13.00000000
8.17152023 1.99049115 0.44077343 99 3 7631 8.42200000 2425922494 2425922494 3.00000000
3.11682105 0.75922275 -0.62356383 5 4 7631 3.26800000 2425922496 2425922496 -11.00000000
8.16355896 1.98704231 0.73507154 76 5 7632 8.43400000 2425922498 2425922498 5.00000000
3.89258409 0.94675070 -0.63449818 6 6 7633 4.05600000 2425922501 2425922501 -9.00000000
8.16714191 1.98489511 1.03198957 95 7 7634 8.46800000 2425922503 2425922503 7.00000000
5.25466204 1.27609146 -0.66394418 9 8 7635 5.44800000 2425922505 2425922505 -7.00000000
6.62373066 1.60734487 -0.59631962 8 10 7636 6.84200000 2425922510 2425922510 -5.00000000
8.15453529 1.97580302 -0.43972671 12 12 7638 8.40200000 2425922514 2425922514 -3.00000000
8.16517258 1.97536314 -0.14663512 12 14 7640 8.40200000 2425922519 2425922519 -1.00000000
8.21146107 1.98504448 2.26363134 49 15 7641 8.74600000 2425922521 2425922521 15.00000000
2.20138741 0.52931917 -0.60667187 5 0 7648 2.34400000 2425922542 2425922542 -15.00000000
8.16048813 1.96066630 0.14649551 12 1 7649 8.39400000 2425922544 2425922544 1.00000000
2.57516408 0.61824220 -0.61141694 7 2 7650 2.71800000 2425922547 2425922547 -13.00000000
8.15511322 1.95636415 0.43951735 99 3 7651 8.39800000 2425922549 2425922549 3.00000000
3.10227036 0.74421656 -0.62012923 5 4 7651 3.25000000 2425922551 2425922551 -11.00000000
8.16850758 1.95806968 0.73489720 76 5 7652 8.43200000 2425922554 2425922554 5.00000000
3.90162826 0.93453771 -0.63543677 6 6 7653 4.06200000 2425922556 2425922556 -9.00000000
8.16822910 1.95498824 1.03125834 99 7 7654 8.46200000 2425922558 2425922558 7.00000000
5.24750042 1.25497115 -0.66248173 9 8 7655 5.43600000 2425922561 2425922561 -7.00000000
6.63705254 1.58606625 -0.59701681 16 10 7656 6.85000000 2425922565 2425922565 -5.00000000
8.15749741 1.94639933 -0.43951735 12 12 7658 8.39800000 2425922570 2425922570 -3.00000000
8.15062046 1.94175160 -0.14625117 12 14 7660 8.38000000 2425922574 2425922574 -1.00000000
8.22175694 1.95869875 2.26466656 49 15 7660 8.75000000 2425922577 2425922577 15.00000000
2.18818259 0.51807100 -0.60253072 4 0 7668 2.32800000 2425922597 2425922597 -15.00000000
8.16533661 1.93170846 0.14646059 15 1 7669 8.39200000 2425922600 2425922600 1.00000000
2.58109927 0.61014605 -0.61231679 7 2 7670 2.72200000 2425922602 2425922602 -13.00000000
8.16189194 1.92788553 0.43951735 100 3 7671 8.39800000 2425922604 2425922604 3.00000000
3.10102797 0.73248047 -0.61936599 5 4 7671 3.24600000 2425922607 2425922607 -11.00000000
8.15396214 1.92451000 0.73297977 76 5 7672 8.41000000 2425922609 2425922609 5.00000000
3.90486670 0.92091280 -0.63543677 6 6 7673 4.06200000 2425922611 2425922611 -9.00000000
8.17693615 1.92691922 1.03150213 97 7 7674 8.46400000 2425922614 2425922614 7.00000000
5.25571346 1.23755634 -0.66296923 9 8 7675 5.44000000 2425922616 2425922616 -7.00000000
6.63285112 1.56060731 -0.59614527 24 10 7676 6.84000000 2425922620 2425922620 -5.00000000
8.15840816 1.91654217 -0.43920335 17 12 7678 8.39200000 2425922625 2425922625 -3.00000000
8.14177418 1.90963578 -0.14597192 16 14 7680 8.36400000 2425922630 2425922630 -1.00000000
8.21571445 1.92546570 2.26104307 51 15 7681 8.73600000 2425922632 2425922632 15.00000000
2.18979931 0.51119411 -0.60253072 4 0 7686 2.32800000 2425922653 2425922653 -15.00000000
8.16162777 1.90377557 0.14628607 18 1 7687 8.38200000 2425922655 2425922655 1.00000000
2.57920766 0.60114956 -0.61141694 7 2 7688 2.71800000 2425922657 2425922657 -13.00000000
8.16596317 1.90178168 0.43941268 100 3 7689 8.39600000 2425922660 2425922660 3.00000000
3.10905004 0.72407067 -0.62051088 6 4 7689 3.25200000 2425922662 2425922662 -11.00000000
8.14638424 1.89572299 0.73175961 79 5 7690 8.39600000 2425922664 2425922664 5.00000000
3.90389252 0.90774602 -0.63481104 6 6 7691 4.05800000 2425922667 2425922667 -9.00000000
8.17908192 1.90032256 1.03101468 92 7 7692 8.46000000 2425922669 2425922669 7.00000000
5.26924419 1.22328341 -0.66418791 9 8 7693 5.45000000 2425922671 2425922671 -7.00000000
6.62607622 1.53706062 -0.59509939 28 10 7694 6.82800000 2425922676 2425922676 -5.00000000
8.17217255 1.89270496 -0.43962204 17 12 7696 8.40000000 2425922680 2425922680 -3.00000000
8.25305843 1.90992093 1.95572448 2 13 7697 8.69400000 2425922683 2425922683 13.00000000
8.13214684 1.88044417 -0.14569269 16 14 7698 8.34800000 2425922685 2425922685 -1.00000000
8.20633316 1.89759886 2.25690198 51 15 7698 8.72000000 2425922687 2425922687 15.00000000
2.19533610 0.50441235 -0.60356599 4 0 7706 2.33200000 2425922708 2425922708 -15.00000000
8.14483547 1.86990511 0.14586721 15 1 7707 8.35800000 2425922710 2425922710 1.00000000
2.58129048 0.59214282 -0.61141694 7 2 7708 2.71800000 2425922713 2425922713 -13.00000000
8.16671181 1.87192690 0.43909869 100 3 7709 8.39000000 2425922715 2425922715 3.00000000
3.12878108 0.71716130 -0.62394542 15 4 7709 3.27000000 2425922717 2425922717 -11.00000000
8.14906788 1.86638570 0.73141098 76 5 7710 8.39200000 2425922720 2425922720 5.00000000
3.89933491 0.89235067 -0.63355958 6 6 7711 4.05000000 2425922722 2425922722 -9.00000000
8.17018414 1.86822069 1.02906477 95 7 7712 8.44400000 2425922724 2425922724 7.00000000
5.26574087 1.20311427 -0.66321295 9 8 7713 5.44200000 2425922726 2425922726 -7.00000000
6.63140106 1.51392198 -0.59509939 16 10 7714 6.82800000 2425922731 2425922731 -5.00000000
8.15536118 1.85884106 -0.43836597 17 12 7716 8.37600000 2425922736 2425922736 -3.00000000
8.25017452 1.87893701 1.95347500 3 13 7717 8.68400000 2425922738 2425922738 13.00000000
8.14840984 1.85426474 -0.14586721 18 14 7718 8.35800000 2425922740 2425922740 -1.00000000
8.21323395 1.86750841 2.25690198 54 15 7719 8.72000000 2425922743 2425922743 15.00000000
