# .PCD v0.7 - Point Cloud Data file format
VERSION 0.7
FIELDS x y z intensity laser_id azimuth distance_m adjustedtime timestamp vertical_angle
SIZE 4 4 4 1 1 2 8 8 4 8
TYPE F F F U U U F U U F
COUNT 1 1 1 1 1 1 1 1 1 1
WIDTH 539
HEIGHT 1
VIEWPOINT 0 0 0 1 0 0 0
POINTS 539
DATA ascii
2.02249026 2.56551671 -0.63501233 4 4 3825 3.32800000 2426011910 2426011910 -11.00000000
2.56931877 3.25682640 -0.65702474 4 6 3827 4.20000000 2426011914 2426011914 -9.00000000
3.46627140 4.39063644 -0.68685561 6 8 3829 5.63600000 2426011919 2426011919 -7.00000000
5.20979500 6.59674454 -0.73542017 8 10 3830 8.43800000 2426011924 2426011924 -5.00000000
6.28103638 7.94461536 2.33814120 62 13 3833 10.39400000 2426011930 2426011930 13.00000000
5.45861769 6.90189648 2.35784149 45 15 3834 9.11000000 2426011935 2426011935 15.00000000
1.41298115 1.78146076 -0.60926002 4 0 3842 2.35400000 2426011956 2426011956 -15.00000000
1.69249558 2.13233805 -0.62851322 3 2 3844 2.79400000 2426011960 2426011960 -13.00000000
2.03631663 2.56459141 -0.63653880 5 4 3845 3.33600000 2426011965 2426011965 -11.00000000
2.57329822 3.23855853 -0.65514755 4 6 3847 4.18800000 2426011970 2426011970 -9.00000000
3.49640226 4.39715528 -0.68978047 6 8 3849 5.66000000 2426011974 2426011974 -7.00000000
5.23527050 6.58163738 -0.73576880 8 10 3850 8.44200000 2426011979 2426011979 -5.00000000
6.31601334 7.93178892 2.34084058 62 13 3853 10.40600000 2426011986 2426011986 13.00000000
5.48388004 6.88431168 2.35835910 45 15 3854 9.11200000 2426011990 2426011990 15.00000000
1.41798520 1.77500832 -0.60874242 4 0 3862 2.35200000 2426012011 2426012011 -15.00000000
1.69262743 2.11728454 -0.62581384 3 2 3864 2.78200000 2426012016 2426012016 -13.00000000
2.05016088 2.56360078 -0.63806528 4 4 3865 3.34400000 2426012020 2426012020 -11.00000000
2.58952451 3.23572540 -0.65639901 4 6 3867 4.19600000 2426012025 2426012025 -9.00000000
3.50676632 4.37872601 -0.68880552 6 8 3869 5.65200000 2426012029 2426012029 -7.00000000
5.25323009 6.55710316 -0.73507154 8 10 3870 8.43400000 2426012034 2426012034 -5.00000000
6.35097742 7.91881514 2.34354019 62 13 3873 10.41800000 2426012041 2426012041 13.00000000
5.50908613 6.86663389 2.35887671 45 15 3874 9.11400000 2426012046 2426012046 15.00000000
1.43264973 1.78058386 -0.61236584 4 0 3882 2.36600000 2426012066 2426012066 -15.00000000
1.70000780 2.11136317 -0.62581384 3 2 3884 2.78200000 2426012071 2426012071 -13.00000000
2.05417109 2.55031276 -0.63653880 4 4 3885 3.33600000 2426012076 2426012076 -11.00000000
2.60576200 3.23281860 -0.65765047 4 6 3887 4.20400000 2426012080 2426012080 -9.00000000
3.51205921 4.35409737 -0.68685561 6 8 3889 5.63600000 2426012085 2426012085 -7.00000000
5.29360247 6.56043386 -0.73751187 8 10 3890 8.46200000 2426012089 2426012089 -5.00000000
6.37368250 7.89053392 2.34174037 59 13 3893 10.41000000 2426012096 2426012096 13.00000000
5.53664589 6.84940100 2.35991216 45 15 3895 9.11800000 2426012101 2426012101 15.00000000
1.44584262 1.78482985 -0.61547166 4 0 3901 2.37800000 2426012122 2426012122 -15.00000000
1.71190870 2.11176944 -0.62761343 3 2 3903 2.79000000 2426012126 2426012126 -13.00000000
2.06756330 2.54958653 -0.63806528 4 4 3904 3.34400000 2426012131 2426012131 -11.00000000
2.62144709 3.23029518 -0.65890199 4 6 3906 4.21200000 2426012135 2426012135 -9.00000000
3.52397585 4.33934546 -0.68636817 6 8 3908 5.63200000 2426012140 2426012140 -7.00000000
5.32789135 6.55830765 -0.73925501 8 10 3909 8.48200000 2426012145 2426012145 -5.00000000
6.39981318 7.86935472 2.34174037 59 13 3912 10.41000000 2426012152 2426012152 13.00000000
5.56057453 6.83497047 2.36094737 45 15 3913 9.12200000 2426012156 2426012156 15.00000000
1.44229400 1.76779711 -0.61133057 4 0 3921 2.36200000 2426012177 2426012177 -15.00000000
1.71680486 2.10276175 -0.62671363 3 2 3923 2.78600000 2426012181 2426012181 -13.00000000
2.62770677 3.21500683 -0.65765047 4 6 3926 4.20400000 2426012191 2426012191 -9.00000000
3.52904725 4.31472540 -0.68441826 6 8 3928 5.61600000 2426012195 2426012195 -7.00000000
5.33308840 6.51808167 -0.73681468 8 10 3929 8.45400000 2426012200 2426012200 -5.00000000
5.64792156 6.90041161 1.73330891 25 11 3930 9.08400000 2426012202 2426012202 11.00000000
5.65177584 6.90020514 2.05920196 19 13 3932 9.15400000 2426012207 2426012207 13.00000000
5.58072615 6.81103563 2.35939431 49 15 3933 9.11600000 2426012211 2426012211 15.00000000
1.44600308 1.75976670 -0.61029530 4 0 3941 2.35800000 2426012232 2426012232 -15.00000000
1.73156071 2.10578752 -0.62941307 3 2 3943 2.79800000 2426012237 2426012237 -13.00000000
2.63640237 3.20276475 -0.65702474 4 6 3946 4.20000000 2426012246 2426012246 -9.00000000
3.55418396 4.31463766 -0.68636817 6 8 3948 5.63200000 2426012251 2426012251 -7.00000000
5.34947300 6.49173784 -0.73594308 8 10 3949 8.44400000 2426012255 2426012255 -5.00000000
5.67582750 6.88043499 2.05920196 6 13 3952 9.15400000 2426012262 2426012262 13.00000000
5.59458351 6.77712727 2.35473561 38 15 3954 9.09800000 2426012267 2426012267 15.00000000
1.44967365 1.75173187 -0.60926002 4 0 3961 2.35400000 2426012287 2426012287 -15.00000000
1.73392880 2.09372687 -0.62761343 3 2 3963 2.79000000 2426012292 2426012292 -13.00000000
2.09665346 2.53081918 -0.63882852 2 4 3964 3.34800000 2426012297 2426012297 -11.00000000
2.64252305 3.18745947 -0.65577328 4 6 3966 4.19200000 2426012301 2426012301 -9.00000000
3.56668830 4.29914951 -0.68588066 6 8 3968 5.62800000 2426012306 2426012306 -7.00000000
5.36064911 6.45922661 -0.73437428 8 10 3969 8.42600000 2426012311 2426012311 -5.00000000
5.60585594 6.74270248 2.34955931 24 15 3974 9.07800000 2426012322 2426012322 15.00000000
1.46413088 1.75730443 -0.61288351 4 0 3980 2.36800000 2426012343 2426012343 -15.00000000
1.73836648 2.08497190 -0.62671363 3 2 3982 2.78600000 2426012347 2426012347 -13.00000000
2.11509442 2.53591394 -0.64188147 4 4 3983 3.36400000 2426012352 2426012352 -11.00000000
2.66573620 3.19384456 -0.65890199 4 6 3985 4.21200000 2426012357 2426012357 -9.00000000
3.58092523 4.28729820 -0.68588066 6 8 3987 5.62800000 2426012361 2426012361 -7.00000000
5.39353657 6.45517492 -0.73594308 4 10 3988 8.44400000 2426012366 2426012366 -5.00000000
6.49645233 7.76691484 2.33769131 55 13 3991 10.39200000 2426012373 2426012373 13.00000000
5.60834503 6.70037317 2.34127712 15 15 3993 9.04600000 2426012377 2426012377 15.00000000
1.47398138 1.75662255 -0.61443639 4 0 4000 2.37400000 2426012398 2426012398 -15.00000000
1.74062121 2.07292175 -0.62491405 3 2 4002 2.77800000 2426012403 2426012403 -13.00000000
2.11635709 2.51949573 -0.63959175 4 4 4003 3.35200000 2426012407 2426012407 -11.00000000
2.66415787 3.16939878 -0.65577328 4 6 4005 4.19200000 2426012412 2426012412 -9.00000000
3.59331322 4.27173424 -0.68539321 6 8 4007 5.62400000 2426012417 2426012417 -7.00000000
5.46093512 6.48966503 -0.74204397 4 10 4008 8.51400000 2426012421 2426012421 -5.00000000
6.53231287 7.75462389 2.34084058 60 13 4011 10.40600000 2426012428 2426012428 13.00000000
5.63668013 6.68666410 2.34334755 11 15 4013 9.05400000 2426012433 2426012433 15.00000000
1.46982503 1.73991895 -0.61029530 4 0 4019 2.35800000 2426012453 2426012453 -15.00000000
1.75251806 2.07309103 -0.62671363 3 2 4021 2.78600000 2426012458 2426012458 -13.00000000
2.11202312 2.49747300 -0.63577557 4 4 4022 3.33200000 2426012463 2426012463 -11.00000000
2.68996620 3.17864132 -0.65952772 6 6 4024 4.21600000 2426012467 2426012467 -9.00000000
3.60489321 4.25676489 -0.68490571 6 8 4026 5.62000000 2426012472 2426012472 -7.00000000
5.45666838 6.44111633 -0.73855776 4 10 4027 8.47400000 2426012476 2426012476 -5.00000000
6.55547142 7.72994661 2.33994079 37 13 4030 10.40200000 2426012483 2426012483 13.00000000
5.63266420 6.63946009 2.33299494 27 15 4031 9.01400000 2426012488 2426012488 15.00000000
1.47338593 1.73183489 -0.60926002 4 0 4039 2.35400000 2426012509 2426012509 -15.00000000
1.76227033 2.06992865 -0.62761343 3 2 4041 2.79000000 2426012513 2426012513 -13.00000000
2.12581992 2.49606419 -0.63730204 2 4 4042 3.34000000 2426012518 2426012518 -11.00000000
2.69591999 3.16321850 -0.65827620 6 6 4044 4.20800000 2426012522 2426012522 -9.00000000
3.62488270 4.25019741 -0.68588066 6 8 4046 5.62800000 2426012527 2426012527 -7.00000000
5.49205017 6.43718672 -0.74030089 4 10 4047 8.49400000 2426012532 2426012532 -5.00000000
5.65372849 6.62434673 1.69285738 25 11 4048 8.87200000 2426012534 2426012534 11.00000000
5.65472507 6.62083244 2.01016259 10 13 4050 8.93600000 2426012539 2426012539 13.00000000
5.67327785 6.63786173 2.33972406 13 15 4052 9.04000000 2426012543 2426012543 15.00000000
1.48696387 1.73548341 -0.61236584 4 0 4059 2.36600000 2426012564 2426012564 -15.00000000
1.76948500 2.06376457 -0.62761343 3 2 4061 2.79000000 2426012569 2426012569 -13.00000000
2.14218879 2.49756956 -0.63959175 2 4 4062 3.35200000 2426012573 2426012573 -11.00000000
2.70437217 3.15079069 -0.65765047 4 6 4064 4.20400000 2426012578 2426012578 -9.00000000
3.64745712 4.24655342 -0.68734312 6 8 4066 5.64000000 2426012582 2426012582 -7.00000000
5.51578522 6.41948795 -0.74047518 4 10 4067 8.49600000 2426012587 2426012587 -5.00000000
5.74313927 6.67465830 2.35939431 33 15 4071 9.11600000 2426012599 2426012599 15.00000000
1.49553680 1.73320758 -0.61340111 4 0 4079 2.37000000 2426012619 2426012619 -15.00000000
1.77158368 2.05167556 -0.62581384 3 2 4081 2.78200000 2426012624 2426012624 -13.00000000
2.14319372 2.48116231 -0.63730204 4 4 4082 3.34000000 2426012628 2426012628 -11.00000000
2.71535397 3.14133167 -0.65765047 4 6 4084 4.20400000 2426012633 2426012633 -9.00000000
3.65446615 4.22478724 -0.68588066 6 8 4086 5.62800000 2426012638 2426012638 -7.00000000
5.54207087 6.40471506 -0.74099815 4 10 4087 8.50200000 2426012642 2426012642 -5.00000000
6.63861036 7.66382122 2.34084058 51 13 4090 10.40600000 2426012649 2426012649 13.00000000
5.77768755 6.66524220 2.36353540 47 15 4092 9.13200000 2426012654 2426012654 15.00000000
1.49904346 1.72506022 -0.61236584 4 0 4099 2.36600000 2426012675 2426012675 -15.00000000
1.78129208 2.04841995 -0.62671363 3 2 4101 2.78600000 2426012679 2426012679 -13.00000000
2.15957284 2.48255348 -0.63959175 2 4 4102 3.35200000 2426012684 2426012684 -11.00000000
2.72630286 3.13183403 -0.65765047 4 6 4104 4.20400000 2426012688 2426012688 -9.00000000
3.66397548 4.20601797 -0.68490571 6 8 4106 5.62000000 2426012693 2426012693 -7.00000000
5.55261326 6.37181187 -0.73942930 4 10 4107 8.48400000 2426012698 2426012698 -5.00000000
6.66019726 7.63472748 2.33904099 53 13 4110 10.39800000 2426012705 2426012705 13.00000000
5.80356884 6.65041256 2.36508846 45 15 4111 9.13800000 2426012709 2426012709 15.00000000
1.51014483 1.72563219 -0.61443639 4 0 4119 2.37400000 2426012730 2426012730 -15.00000000
1.79485095 2.04951978 -0.62896317 3 2 4121 2.79600000 2426012734 2426012734 -13.00000000
2.16563797 2.47204661 -0.63882852 2 4 4122 3.34800000 2426012739 2426012739 -11.00000000
2.74242711 3.12824011 -0.65890199 4 6 4124 4.21200000 2426012744 2426012744 -9.00000000
3.67863488 4.19320250 -0.68490571 6 8 4126 5.62000000 2426012748 2426012748 -7.00000000
5.58402061 6.36287308 -0.74064952 8 10 4127 8.49800000 2426012753 2426012753 -5.00000000
6.69966841 7.62607288 2.34354019 60 13 4130 10.41800000 2426012760 2426012760 13.00000000
5.82025194 6.62039137 2.36198258 47 15 4132 9.12600000 2426012764 2426012764 15.00000000
1.50977278 1.71310365 -0.61184824 4 0 4139 2.36400000 2426012785 2426012785 -15.00000000
1.79941618 2.04031897 -0.62806332 3 2 4141 2.79200000 2426012790 2426012790 -13.00000000
2.74810052 3.11272478 -0.65765047 4 6 4144 4.20400000 2426012799 2426012799 -9.00000000
3.70113564 4.18926239 -0.68636817 6 8 4146 5.63200000 2426012804 2426012804 -7.00000000
5.59036398 6.32542801 -0.73855776 8 10 4147 8.47400000 2426012808 2426012808 -5.00000000
6.72624779 7.60264015 2.34354019 59 13 4150 10.41800000 2426012815 2426012815 13.00000000
5.83961296 6.59816122 2.36094737 45 15 4151 9.12200000 2426012820 2426012820 15.00000000
1.51702571 1.70926797 -0.61236584 4 0 4159 2.36600000 2426012840 2426012840 -15.00000000
1.81040955 2.03839660 -0.62941307 3 2 4161 2.79800000 2426012845 2426012845 -13.00000000
2.76157427 3.10606575 -0.65827620 6 6 4164 4.20800000 2426012854 2426012854 -9.00000000
3.71837521 4.17928362 -0.68685561 6 8 4166 5.63600000 2426012859 2426012859 -7.00000000
5.61638403 6.31033993 -0.73908073 8 10 4167 8.48000000 2426012863 2426012863 -5.00000000
5.62019730 6.31240606 1.64286542 3 11 4168 8.61000000 2426012866 2426012866 11.00000000
6.76052284 7.58784485 2.34623957 56 13 4170 10.43000000 2426012870 2426012870 13.00000000
5.86632872 6.57959747 2.36198258 47 15 4172 9.12600000 2426012875 2426012875 15.00000000
1.52169549 1.70252180 -0.61184824 4 0 4179 2.36400000 2426012896 2426012896 -15.00000000
1.80712056 2.02044463 -0.62581384 3 2 4181 2.78200000 2426012900 2426012900 -13.00000000
2.77503490 3.09935045 -0.65890199 6 6 4184 4.21200000 2426012910 2426012910 -9.00000000
3.72764230 4.16036463 -0.68588066 6 8 4186 5.62800000 2426012914 2426012914 -7.00000000
5.64768553 6.30108261 -0.74030089 8 10 4187 8.49400000 2426012919 2426012919 -5.00000000
5.62253857 6.27082396 1.63714123 15 11 4188 8.58000000 2426012921 2426012921 11.00000000
6.78436565 7.56129885 2.34533978 60 13 4190 10.42600000 2426012926 2426012926 13.00000000
5.89069605 6.56298304 2.36301780 47 15 4191 9.13000000 2426012930 2426012930 15.00000000
1.53409123 1.70437908 -0.61443639 4 0 4199 2.37400000 2426012951 2426012951 -15.00000000
3.88973284 4.31998587 0.10146829 11 1 4200 5.81400000 2426012953 2426012953 1.00000000
1.81937909 2.01991606 -0.62761343 3 2 4201 2.79000000 2426012956 2426012956 -13.00000000
2.78319120 3.08671069 -0.65827620 4 6 4204 4.20800000 2426012965 2426012965 -9.00000000
3.74214196 4.14732742 -0.68588066 6 8 4206 5.62800000 2426012969 2426012969 -7.00000000
5.66297102 6.27393484 -0.73942930 8 10 4207 8.48400000 2426012974 2426012974 -5.00000000
5.62728930 6.23221636 1.63218009 31 11 4208 8.55400000 2426012976 2426012976 11.00000000
6.80287933 7.52889538 2.34264016 57 13 4210 10.41400000 2426012981 2426012981 13.00000000
5.91989374 6.54708052 2.36508846 45 15 4212 9.13800000 2426012986 2426012986 15.00000000
1.53714037 1.69641924 -0.61340111 4 0 4218 2.37000000 2426013006 2426013006 -15.00000000
3.91612387 4.32039785 0.10178243 35 1 4219 5.83200000 2426013009 2426013009 1.00000000
1.82868540 2.01675892 -0.62851322 3 2 4220 2.79400000 2426013011 2426013011 -13.00000000
2.20011234 2.42553496 -0.63653880 2 4 4221 3.33600000 2426013016 2426013016 -11.00000000
2.80403328 3.08916569 -0.66077918 6 6 4223 4.22400000 2426013020 2426013020 -9.00000000
3.75053549 4.12901783 -0.68490571 6 8 4225 5.62000000 2426013025 2426013025 -7.00000000
5.67704582 6.24774837 -0.73855776 8 10 4226 8.47400000 2426013029 2426013029 -5.00000000
5.65320730 6.21933222 1.63370657 21 11 4227 8.56200000 2426013032 2426013032 11.00000000
6.83043098 7.50917816 2.34354019 59 13 4229 10.41800000 2426013036 2426013036 13.00000000
5.94043255 6.52845001 2.36508846 45 15 4230 9.13800000 2426013041 2426013041 15.00000000
1.53133321 1.67820001 -0.60874242 4 0 4238 2.35200000 2426013062 2426013062 -15.00000000
3.90961075 4.28307104 0.10122396 38 1 4239 5.80000000 2426013064 2426013064 1.00000000
1.84622633 2.02187586 -0.63211244 3 2 4240 2.81000000 2426013066 2426013066 -13.00000000
2.20856571 2.41784048 -0.63653880 2 4 4241 3.33600000 2426013071 2426013071 -11.00000000
2.79880619 3.06186271 -0.65702474 6 6 4243 4.20000000 2426013075 2426013075 -9.00000000
3.77296472 4.12468910 -0.68636817 6 8 4245 5.63200000 2426013080 2426013080 -7.00000000
5.70957994 6.23965311 -0.73995227 13 10 4246 8.49000000 2426013085 2426013085 -5.00000000
6.85923386 7.48816347 2.34443998 57 13 4249 10.42200000 2426013092 2426013092 13.00000000
5.96057463 6.50482559 2.36405325 45 15 4250 9.13400000 2426013096 2426013096 15.00000000
1.54662549 1.68253195 -0.61236584 4 0 4259 2.36600000 2426013117 2426013117 -15.00000000
3.93475747 4.27901649 0.10146829 27 1 4260 5.81400000 2426013119 2426013119 1.00000000
1.83779287 1.99788475 -0.62671363 3 2 4261 2.78600000 2426013122 2426013122 -13.00000000
2.22538900 2.41839743 -0.63882852 4 4 4262 3.34800000 2426013126 2426013126 -11.00000000
2.81268573 3.05449009 -0.65765047 6 6 4264 4.20400000 2426013131 2426013131 -9.00000000
3.79612827 4.11959171 -0.68783057 6 8 4266 5.64400000 2426013135 2426013135 -7.00000000
5.73241091 6.21868420 -0.73995227 8 10 4267 8.49000000 2426013140 2426013140 -5.00000000
6.88663340 7.46297312 2.34443998 59 13 4270 10.42200000 2426013147 2426013147 13.00000000
5.97913456 6.47725725 2.36198258 45 15 4271 9.12600000 2426013151 2426013151 15.00000000
1.54723990 1.67145216 -0.61029530 4 0 4279 2.35800000 2426013172 2426013172 -15.00000000
3.93608332 4.25058317 0.10111924 22 1 4280 5.79400000 2426013175 2426013175 1.00000000
1.84210694 1.98859823 -0.62581384 3 2 4281 2.78200000 2426013177 2426013177 -13.00000000
3.99114347 4.30702591 0.30773541 11 3 4282 5.88000000 2426013179 2426013179 3.00000000
2.23381710 2.41061473 -0.63882852 4 4 4282 3.34800000 2426013181 2426013181 -11.00000000
2.82198763 3.04320502 -0.65733761 6 6 4284 4.20200000 2426013186 2426013186 -9.00000000
3.79698229 4.09176445 -0.68539321 6 8 4286 5.62400000 2426013191 2426013191 -7.00000000
5.76763821 6.21323872 -0.74169534 8 10 4287 8.51000000 2426013195 2426013195 -5.00000000
6.91264200 7.43888855 2.34443998 59 13 4290 10.42200000 2426013202 2426013202 13.00000000
6.00678158 6.45954323 2.36353540 45 15 4292 9.13200000 2426013207 2426013207 15.00000000
1.55804217 1.67196548 -0.61236584 4 0 4298 2.36600000 2426013228 2426013228 -15.00000000
3.91743231 4.20240211 0.10028153 86 1 4299 5.74600000 2426013230 2426013230 1.00000000
1.84869123 1.98247862 -0.62581384 3 2 4300 2.78200000 2426013232 2426013232 -13.00000000
3.36917162 3.61173010 0.25885364 8 3 4301 4.94600000 2426013234 2426013234 3.00000000
2.23912048 2.40032268 -0.63806528 4 4 4301 3.34400000 2426013237 2426013237 -11.00000000
2.83745551 3.03960633 -0.65858912 6 6 4303 4.21000000 2426013241 2426013241 -9.00000000
3.80646491 4.07479906 -0.68466198 6 8 4305 5.61800000 2426013246 2426013246 -7.00000000
5.79093122 6.19699001 -0.74204397 8 10 4306 8.51400000 2426013251 2426013251 -5.00000000
6.93194723 7.41023207 2.34264016 59 13 4309 10.41400000 2426013257 2426013257 13.00000000
6.03232479 6.44628286 2.36560607 47 15 4310 9.14000000 2426013262 2426013262 15.00000000
1.56122506 1.66369927 -0.61133057 4 0 4318 2.36200000 2426013283 2426013283 -15.00000000
3.92523432 4.18141222 0.10010701 47 1 4319 5.73600000 2426013285 2426013285 1.00000000
1.86894023 1.99021912 -0.63031286 3 2 4320 2.80200000 2426013287 2426013287 -13.00000000
2.25017381 2.39535379 -0.63882852 4 4 4321 3.34800000 2426013292 2426013292 -11.00000000
3.97310734 4.22797108 0.50759506 36 5 4322 5.82400000 2426013294 2426013294 5.00000000
2.85481358 3.03687954 -0.66015345 6 6 4323 4.22000000 2426013297 2426013297 -9.00000000
4.01986170 4.27473354 0.72049153 2 7 4324 5.91200000 2426013299 2426013299 7.00000000
3.82474589 4.06582451 -0.68539321 6 8 4325 5.62400000 2426013301 2426013301 -7.00000000
5.79614258 6.15932655 -0.73995227 8 10 4326 8.49000000 2426013306 2426013306 -5.00000000
6.96311617 7.39166403 2.34443998 59 13 4329 10.42200000 2426013313 2426013313 13.00000000
6.05081511 6.42096901 2.36405325 45 15 4330 9.13400000 2426013317 2426013317 15.00000000
1.56436920 1.65543127 -0.61029530 4 0 4338 2.35800000 2426013338 2426013338 -15.00000000
1.87052011 1.97801960 -0.62851322 3 2 4340 2.79400000 2426013343 2426013343 -13.00000000
3.39779449 3.59306693 0.25916764 86 3 4340 4.95200000 2426013345 2426013345 3.00000000
2.25582314 2.38463211 -0.63806528 4 4 4341 3.34400000 2426013347 2426013347 -11.00000000
3.96456099 4.18947554 0.50463176 60 5 4342 5.79000000 2426013350 2426013350 5.00000000
2.85860682 3.01972318 -0.65858912 6 6 4343 4.21000000 2426013352 2426013352 -9.00000000
4.03066397 4.25635147 0.71976036 28 7 4344 5.90600000 2426013354 2426013354 7.00000000
3.84437585 4.05821371 -0.68636817 6 8 4345 5.63200000 2426013356 2426013356 -7.00000000
5.81075478 6.13182592 -0.73908073 8 10 4346 8.48000000 2426013361 2426013361 -5.00000000
6.99424028 7.37296820 2.34623957 56 13 4349 10.43000000 2426013368 2426013368 13.00000000
3.92715311 4.13835573 -0.09958343 4 14 4350 5.70600000 2426013370 2426013370 -1.00000000
6.06521273 6.39140081 2.36094737 45 15 4350 9.12200000 2426013373 2426013373 15.00000000
1.57812881 1.65835726 -0.61340111 4 0 4358 2.37000000 2426013393 2426013393 -15.00000000
3.92537594 4.12349176 0.09937400 26 1 4359 5.69400000 2426013396 2426013396 1.00000000
1.87741327 1.97147822 -0.62851322 3 2 4360 2.79400000 2426013398 2426013398 -13.00000000
3.41094089 3.58058906 0.25916764 58 3 4361 4.95200000 2426013400 2426013400 3.00000000
2.25871658 2.37105751 -0.63653880 4 4 4361 3.33600000 2426013403 2426013403 -11.00000000
3.94754744 4.14243698 0.50062257 33 5 4362 5.74400000 2426013405 2426013405 5.00000000
2.86367822 3.00400710 -0.65733761 6 6 4363 4.20200000 2426013407 2426013407 -9.00000000
4.04001713 4.23650980 0.71878541 57 7 4364 5.89800000 2426013409 2426013409 7.00000000
3.85577774 4.04189682 -0.68588066 2 8 4365 5.62800000 2426013412 2426013412 -7.00000000
7.01993418 7.34850883 2.34623957 57 13 4369 10.43000000 2426013423 2426013423 13.00000000
3.52572680 3.68946242 -0.08907709 12 14 4370 5.10400000 2426013426 2426013426 -1.00000000
6.09660721 6.37750626 2.36405325 45 15 4371 9.13400000 2426013428 2426013428 15.00000000
1.58094668 1.65032482 -0.61236584 4 0 4377 2.36600000 2426013449 2426013449 -15.00000000
1.87045503 1.95117402 -0.62401420 3 2 4379 2.77400000 2426013453 2426013453 -13.00000000
3.43046546 3.57850647 0.25979570 18 3 4379 4.96400000 2426013456 2426013456 3.00000000
2.27472019 2.37205625 -0.63882852 4 4 4380 3.34800000 2426013458 2426013458 -11.00000000
3.41507173 3.55995989 0.43159524 11 5 4381 4.95200000 2426013460 2426013460 5.00000000
2.88046265 3.00162077 -0.65890199 6 6 4382 4.21200000 2426013462 2426013462 -9.00000000
4.04029655 4.20876884 0.71634799 70 7 4383 5.87800000 2426013465 2426013465 7.00000000
2.99468040 3.11846280 -0.53086287 2 8 4384 4.35600000 2426013467 2426013467 -7.00000000
3.95355940 4.11553812 0.90387833 4 9 4385 5.77800000 2426013469 2426013469 9.00000000
8.16201782 8.49345112 2.28970790 50 11 4386 12.00000000 2426013474 2426013474 11.00000000
7.04156256 7.32238007 2.34533978 57 13 4388 10.42600000 2426013479 2426013479 13.00000000
3.00835991 3.12724066 -0.07574344 1 14 4389 4.34000000 2426013481 2426013481 -1.00000000
6.11929131 6.36110640 2.36508846 45 15 4389 9.13800000 2426013483 2426013483 15.00000000
1.59206271 1.65035760 -0.61443639 4 0 4397 2.37400000 2426013504 2426013504 -15.00000000
3.00632524 3.11531663 0.07556892 1 1 4398 4.33000000 2426013506 2426013506 1.00000000
1.88537526 1.95304537 -0.62671363 3 2 4399 2.78600000 2426013508 2426013508 -13.00000000
2.28844142 2.36975050 -0.64035499 4 4 4400 3.35600000 2426013513 2426013513 -11.00000000
2.90053177 3.00149107 -0.66109204 9 6 4402 4.22600000 2426013518 2426013518 -9.00000000
4.03012848 4.16894960 0.71196073 60 7 4403 5.84200000 2426013520 2426013520 7.00000000
2.97518849 3.07659650 -0.52550060 20 8 4404 4.31200000 2426013522 2426013522 -7.00000000
3.93905878 4.07189751 0.89730811 21 9 4405 5.73600000 2426013525 2426013525 9.00000000
2.98112297 3.08165669 -0.37511832 11 10 4405 4.30400000 2426013527 2426013527 -5.00000000
8.18752003 8.46067619 2.28856301 12 11 4406 11.99400000 2426013529 2426013529 11.00000000
2.97420645 3.07236028 -0.22410257 14 12 4407 4.28200000 2426013532 2426013532 -3.00000000
7.04810047 7.27815723 2.33904099 26 13 4408 10.39800000 2426013534 2426013534 13.00000000
2.99560452 3.09230375 -0.07515007 15 14 4409 4.30600000 2426013536 2426013536 -1.00000000
6.13204956 6.32999420 2.36146498 13 15 4409 9.12400000 2426013538 2426013538 15.00000000
1.60050607 1.64756155 -0.61547166 6 0 4417 2.37800000 2426013559 2426013559 -15.00000000
3.00324535 3.09046268 0.07521987 22 1 4418 4.31000000 2426013561 2426013561 1.00000000
1.88946450 1.94365764 -0.62581384 3 2 4419 2.78200000 2426013564 2426013564 -13.00000000
3.00205612 3.08708191 0.22567265 21 3 4420 4.31200000 2426013566 2426013566 3.00000000
2.29122472 2.35611796 -0.63882852 4 4 4420 3.34800000 2426013568 2426013568 -11.00000000
3.01750231 3.10188246 0.37860456 20 5 4421 4.34400000 2426013571 2426013571 5.00000000
2.91650176 2.99701095 -0.66234350 9 6 4422 4.23400000 2426013573 2426013573 -9.00000000
2.98175478 3.06192613 -0.52476937 6 8 4424 4.30600000 2426013578 2426013578 -7.00000000
3.01677489 3.09788752 0.68487006 6 9 4424 4.37800000 2426013580 2426013580 9.00000000
2.98352003 3.06266904 -0.37407246 21 10 4425 4.29200000 2426013582 2426013582 -5.00000000
3.02948022 3.10876274 0.84375739 10 11 4426 4.42200000 2426013585 2426013585 11.00000000
2.99327779 3.07054067 -0.22473060 18 12 4427 4.29400000 2426013587 2426013587 -3.00000000
3.02448702 3.10147214 1.00013244 30 13 4428 4.44600000 2426013589 2426013589 13.00000000
2.98264217 3.05749440 -0.07455668 10 14 4429 4.27200000 2426013591 2426013591 -1.00000000
3.02633357 3.10119915 1.16106224 20 15 4430 4.48600000 2426013594 2426013594 15.00000000
1.59408903 1.62953603 -0.61081296 4 0 4437 2.36000000 2426013614 2426013614 -15.00000000
2.99303555 3.05852222 0.07469630 5 1 4438 4.28000000 2426013617 2426013617 1.00000000
1.90441692 1.94540572 -0.62851322 3 2 4439 2.79400000 2426013619 2426013619 -13.00000000
2.99131918 3.05570149 0.22410257 5 3 4439 4.28200000 2426013621 2426013621 3.00000000
2.29119325 2.33968949 -0.63653880 4 4 4440 3.33600000 2426013624 2426013624 -11.00000000
2.99903226 3.06144190 0.37494400 7 5 4441 4.30200000 2426013626 2426013626 5.00000000
2.92141533 2.98116851 -0.66109204 9 6 4442 4.22600000 2426013628 2426013628 -9.00000000
2.98825526 3.04724717 -0.52403820 6 8 4444 4.30000000 2426013633 2426013633 -7.00000000
2.98303056 3.04085755 -0.37267795 7 10 4445 4.27600000 2426013638 2426013638 -5.00000000
2.99558306 3.05152178 -0.22410257 4 12 4447 4.28200000 2426013642 2426013642 -3.00000000
3.02164078 3.07699156 0.99563336 52 13 4448 4.42600000 2426013644 2426013644 13.00000000
2.98488832 3.03850508 -0.07434725 5 14 4449 4.26000000 2426013647 2426013647 -1.00000000
3.02089167 3.07408166 1.15485060 50 15 4450 4.46200000 2426013649 2426013649 15.00000000
1.60490596 1.62974679 -0.61288351 4 0 4456 2.36800000 2426013670 2426013670 -15.00000000
2.99333811 3.03860831 0.07445197 5 1 4457 4.26600000 2426013672 2426013672 1.00000000
1.91085768 1.93907964 -0.62851322 3 2 4458 2.79400000 2426013674 2426013674 -13.00000000
3.01545477 3.05999088 0.22514929 5 3 4458 4.30200000 2426013677 2426013677 3.00000000
2.30307412 2.33627319 -0.63768369 4 4 4459 3.34200000 2426013679 2426013679 -11.00000000
3.00637007 3.04864264 0.37459537 5 5 4460 4.29800000 2426013681 2426013681 5.00000000
2.92851067 2.96865201 -0.66046631 11 6 4461 4.22200000 2426013684 2426013684 -9.00000000
3.02430582 3.06469035 0.52866924 58 7 4462 4.33800000 2426013686 2426013686 7.00000000
2.99694920 3.03590822 -0.52379441 8 8 4463 4.29800000 2426013688 2426013688 -7.00000000
3.02668929 3.06603503 0.68236715 66 9 4463 4.36200000 2426013691 2426013691 9.00000000
2.99169827 3.02953124 -0.37250364 9 10 4464 4.27400000 2426013693 2426013693 -5.00000000
3.02573562 3.06292963 0.83688825 57 11 4465 4.38600000 2426013695 2426013695 11.00000000
3.00287795 3.03872991 -0.22389323 10 12 4466 4.27800000 2426013697 2426013697 -3.00000000
3.03045774 3.06556869 0.99518347 51 13 4467 4.42400000 2426013700 2426013700 13.00000000
2.99213600 3.02574635 -0.07427744 7 14 4468 4.25600000 2426013702 2426013702 -1.00000000
3.02291727 3.05580664 1.15174472 50 15 4469 4.45000000 2426013704 2426013704 15.00000000
1.60514390 1.61864781 -0.61081296 4 0 4476 2.36000000 2426013725 2426013725 -15.00000000
3.00251818 3.02672124 0.07441706 7 1 4477 4.26400000 2426013727 2426013727 1.00000000
1.90663338 1.92133176 -0.62491405 3 2 4478 2.77800000 2426013730 2426013730 -13.00000000
3.01626992 3.03952265 0.22441658 7 3 4478 4.28800000 2426013732 2426013732 3.00000000
2.32089734 2.33797288 -0.64035499 4 4 4479 3.35600000 2426013734 2426013734 -11.00000000
3.02120519 3.04237103 0.37511832 7 5 4480 4.30400000 2426013737 2426013737 5.00000000
2.94163966 2.96121430 -0.66109204 11 6 4481 4.22600000 2426013739 2426013739 -9.00000000
3.02099276 3.04003406 0.52623183 61 7 4482 4.31800000 2426013741 2426013741 7.00000000
2.99213362 3.00994229 -0.52111334 8 8 4483 4.27600000 2426013744 2426013744 -7.00000000
3.03180265 3.04984736 0.68111569 66 9 4483 4.35400000 2426013746 2426013746 9.00000000
2.99804020 3.01483154 -0.37198070 9 10 4484 4.26800000 2426013748 2426013748 -5.00000000
3.02533197 3.04121423 0.83383530 59 11 4485 4.37000000 2426013750 2426013750 11.00000000
2.99796987 3.01265645 -0.22274183 8 12 4486 4.25600000 2426013753 2426013753 -3.00000000
3.02464199 3.03839874 0.98978466 51 13 4487 4.40000000 2426013755 2426013755 13.00000000
3.00409055 3.01670051 -0.07431234 7 14 4488 4.25800000 2426013757 2426013757 -1.00000000
3.03083897 3.04249883 1.15070951 54 15 4489 4.44600000 2426013760 2426013760 15.00000000
1.62471890 1.62642121 -0.61598933 4 0 4497 2.38000000 2426013780 2426013780 -15.00000000
3.00793767 3.01003838 0.07427744 7 1 4498 4.25600000 2426013783 2426013783 1.00000000
1.92468441 1.92535639 -0.62851322 3 2 4499 2.79400000 2426013785 2426013785 -13.00000000
3.00903368 3.01008415 0.22305584 7 3 4499 4.26200000 2426013787 2426013787 3.00000000
2.31556845 2.31556845 -0.63653880 4 4 4500 3.33600000 2426013790 2426013790 -11.00000000
3.02247214 3.02141738 0.37389815 7 5 4501 4.29000000 2426013792 2426013792 5.00000000
2.95526791 2.95320535 -0.66171777 13 6 4502 4.23000000 2426013794 2426013794 -9.00000000
3.02228379 3.01912069 0.52452564 61 7 4503 4.30400000 2426013796 2426013796 7.00000000
2.98628974 2.98212314 -0.51818848 8 8 4504 4.25200000 2426013799 2426013799 -7.00000000
3.02618742 3.02196503 0.67736125 68 9 4504 4.33000000 2426013801 2426013801 9.00000000
3.00201988 2.99678493 -0.37110916 9 10 4505 4.25800000 2426013803 2426013803 -5.00000000
3.02395129 3.01762438 0.83040076 61 11 4506 4.35200000 2426013806 2426013806 11.00000000
3.00192165 2.99459553 -0.22221847 8 12 4507 4.24600000 2426013808 2426013808 -3.00000000
3.01505971 3.00665188 0.98303610 57 13 4508 4.37000000 2426013810 2426013810 13.00000000
2.99954867 2.99014020 -0.07392839 7 14 4509 4.23600000 2426013813 2426013813 -1.00000000
3.03596807 3.02644515 1.14863896 58 15 4509 4.43800000 2426013815 2426013815 15.00000000
1.61805558 1.60848224 -0.61133057 4 0 4517 2.36200000 2426013836 2426013836 -15.00000000
3.00566030 2.98683429 0.07396330 7 1 4518 4.23800000 2426013838 2426013838 1.00000000
1.93139338 1.91862619 -0.62851322 3 2 4519 2.79400000 2426013840 2426013840 -13.00000000
3.01102066 2.99111676 0.22242782 7 3 4519 4.25000000 2426013843 2426013843 3.00000000
2.31806493 2.30193806 -0.63501233 4 4 4520 3.32800000 2426013845 2426013845 -11.00000000
3.01603270 2.99400449 0.37180641 7 5 4521 4.26600000 2426013847 2426013847 5.00000000
2.96555829 2.94287157 -0.66171777 13 6 4522 4.23000000 2426013849 2426013849 -9.00000000
3.02998567 3.00575638 0.52403820 67 7 4523 4.30000000 2426013852 2426013852 7.00000000
2.98963356 2.96469188 -0.51696974 10 8 4524 4.24200000 2426013854 2426013854 -7.00000000
3.01848316 2.99330091 0.67329395 72 9 4524 4.30400000 2426013856 2426013856 9.00000000
2.99972749 2.97366357 -0.36954036 9 10 4525 4.24000000 2426013859 2426013859 -5.00000000
3.02888823 3.00152278 0.82887429 61 11 4526 4.34400000 2426013861 2426013861 11.00000000
3.00384283 2.97566485 -0.22159044 8 12 4527 4.23400000 2426013863 2426013863 -3.00000000
3.01861310 2.98925281 0.98078662 56 13 4528 4.36000000 2426013866 2426013866 13.00000000
3.00002003 2.96980381 -0.07368406 7 14 4529 4.22200000 2426013868 2426013868 -1.00000000
3.02918911 2.99763250 1.14190960 64 15 4530 4.41200000 2426013870 2426013870 15.00000000
1.62641001 1.60553873 -0.61236584 4 0 4537 2.36600000 2426013891 2426013891 -15.00000000
3.00468135 2.96508765 0.07368406 7 1 4538 4.22200000 2426013893 2426013893 1.00000000
1.94085348 1.91460979 -0.62941307 3 2 4539 2.79800000 2426013896 2426013896 -13.00000000
3.01343083 2.97164655 0.22179978 7 3 4540 4.23800000 2426013898 2426013898 3.00000000
2.34286070 2.31037450 -0.63959175 2 4 4540 3.35200000 2426013900 2426013900 -11.00000000
3.01369524 2.97087002 0.37023759 7 5 4541 4.24800000 2426013902 2426013902 5.00000000
2.96174288 2.91863656 -0.65858912 13 6 4542 4.21000000 2426013905 2426013905 -9.00000000
3.02773166 2.98262358 0.52184451 61 7 4543 4.28200000 2426013907 2426013907 7.00000000
2.99147749 2.94588089 -0.51550734 8 8 4544 4.23000000 2426013909 2426013909 -7.00000000
3.02328348 2.97720218 0.67204249 72 9 4544 4.29600000 2426013912 2426013912 9.00000000
2.98879147 2.94220853 -0.36692569 9 10 4545 4.21000000 2426013914 2426013914 -5.00000000
3.02535367 2.97716141 0.82505810 65 11 4546 4.32400000 2426013916 2426013916 11.00000000
3.00851631 2.95955873 -0.22117175 8 12 4547 4.22600000 2426013919 2426013919 -3.00000000
3.02347136 2.97323227 0.97898698 58 13 4548 4.35200000 2426013921 2426013921 13.00000000
3.00323820 2.95230436 -0.07350954 7 14 4549 4.21200000 2426013923 2426013923 -1.00000000
3.02258110 2.97131920 1.13569796 62 15 4549 4.38800000 2426013926 2426013926 15.00000000
1.62924540 1.59714699 -0.61133057 4 0 4557 2.36200000 2426013946 2426013946 -15.00000000
3.00073075 2.94058514 0.07333501 7 1 4558 4.20200000 2426013949 2426013949 1.00000000
1.93917239 1.89964104 -0.62671363 3 2 4559 2.78600000 2426013951 2426013951 -13.00000000
3.01807761 2.95551991 0.22138110 7 3 4560 4.23000000 2426013953 2426013953 3.00000000
2.34530044 2.29668784 -0.63806528 2 4 4560 3.34400000 2426013955 2426013955 -11.00000000
3.01692843 2.95336342 0.36936605 7 5 4561 4.23800000 2426013958 2426013958 5.00000000
2.96626544 2.90275407 -0.65733761 11 6 4562 4.20200000 2426013960 2426013960 -9.00000000
3.02109623 2.95537877 0.51891965 58 7 4563 4.25800000 2426013962 2426013962 7.00000000
2.99038815 2.92431760 -0.51355743 8 8 4564 4.21400000 2426013965 2426013965 -7.00000000
3.02993751 2.96195865 0.67110384 70 9 4565 4.29000000 2426013967 2426013967 9.00000000
3.00046825 2.93315053 -0.36710000 9 10 4565 4.21200000 2426013969 2426013969 -5.00000000
3.02028203 2.95148921 0.82086033 40 11 4566 4.30200000 2426013972 2426013972 11.00000000
3.00739932 2.93787384 -0.22033438 8 12 4567 4.21000000 2426013974 2426013974 -3.00000000
3.01988912 2.94904518 0.97448796 57 13 4568 4.33200000 2426013976 2426013976 13.00000000
3.00350881 2.93202496 -0.07326520 8 14 4569 4.19800000 2426013979 2426013979 -1.00000000
3.02515554 2.95212555 1.13259208 64 15 4570 4.37600000 2426013981 2426013981 15.00000000
1.64255762 1.60010886 -0.61443639 4 0 4575 2.37400000 2426014002 2426014002 -15.00000000
3.00422335 2.92556310 0.07319539 7 1 4576 4.19400000 2426014004 2426014004 1.00000000
1.93954527 1.88810229 -0.62491405 3 2 4577 2.77800000 2426014006 2426014006 -13.00000000
3.01017118 2.92930865 0.22012503 7 3 4578 4.20600000 2426014008 2426014008 3.00000000
2.35531807 2.29204702 -0.63882852 4 4 4578 3.34800000 2426014011 2426014011 -11.00000000
3.01619506 2.93414593 0.36814585 7 5 4579 4.22400000 2426014013 2426014013 5.00000000
2.97253776 2.89066648 -0.65671188 11 6 4580 4.19800000 2426014015 2426014015 -9.00000000
3.01328540 2.92926884 0.51599479 36 7 4581 4.23400000 2426014018 2426014018 7.00000000
2.98817158 2.90384102 -0.51160753 8 8 4582 4.19800000 2426014020 2426014020 -7.00000000
3.02454591 2.93918896 0.66797519 68 9 4582 4.27000000 2426014022 2426014022 9.00000000
2.99537730 2.90982699 -0.36535686 9 10 4583 4.19200000 2426014025 2426014025 -5.00000000
3.02531433 2.93788290 0.81971544 10 11 4584 4.29600000 2426014027 2426014027 11.00000000
2.99941707 2.91171718 -0.21907832 8 12 4585 4.18600000 2426014029 2426014029 -3.00000000
3.01795101 2.92868614 0.97088873 28 13 4586 4.31600000 2426014032 2426014032 13.00000000
3.00839925 2.91839767 -0.07316048 7 14 4587 4.19200000 2426014034 2426014034 -1.00000000
3.02003527 2.92968559 1.12741578 22 15 4587 4.35600000 2426014036 2426014036 15.00000000
1.64535606 1.59167910 -0.61340111 4 0 4595 2.37000000 2426014057 2426014057 -15.00000000
3.00147986 2.90254760 0.07288125 7 1 4596 4.17600000 2426014059 2426014059 1.00000000
1.94612420 1.88132060 -0.62491405 3 2 4597 2.77800000 2426014061 2426014061 -13.00000000
3.00601602 2.90490437 0.21907832 7 3 4598 4.18600000 2426014064 2426014064 3.00000000
2.36330438 2.28381133 -0.63882852 4 4 4598 3.34800000 2426014066 2426014066 -11.00000000
3.01782084 2.91529393 0.36710000 7 5 4599 4.21200000 2426014068 2426014068 5.00000000
2.98260999 2.88027287 -0.65671188 9 6 4600 4.19800000 2426014071 2426014071 -9.00000000
3.01635122 2.91183925 0.51477611 31 7 4601 4.22400000 2426014073 2426014073 7.00000000
2.98257685 2.87822962 -0.50892639 8 8 4602 4.17600000 2426014075 2426014075 -7.00000000
3.02392483 2.91711187 0.66547221 70 9 4603 4.25400000 2426014078 2426014078 9.00000000
2.99978042 2.89382052 -0.36465964 9 10 4603 4.18400000 2426014080 2426014080 -5.00000000
3.02424526 2.91640234 0.81666249 14 11 4604 4.28000000 2426014082 2426014082 11.00000000
3.00093508 2.89291263 -0.21845028 7 12 4605 4.17400000 2426014084 2426014084 -3.00000000
3.00991368 2.90055466 0.96504003 9 13 4606 4.29000000 2426014087 2426014087 13.00000000
2.99984598 2.88984323 -0.07270672 8 14 4607 4.16600000 2426014089 2426014089 -1.00000000
3.02518654 2.91323662 1.12534523 20 15 4608 4.34800000 2426014091 2426014091 15.00000000
1.64839208 1.58296168 -0.61236584 4 0 4616 2.36600000 2426014112 2426014112 -15.00000000
3.00777030 2.88737273 0.07277653 8 1 4617 4.17000000 2426014114 2426014114 1.00000000
1.96144283 1.88227081 -0.62761343 3 2 4618 2.79000000 2426014117 2426014117 -13.00000000
3.01087761 2.88833666 0.21865962 7 3 4619 4.17800000 2426014119 2426014119 3.00000000
2.37449265 2.27785230 -0.63959175 2 4 4619 3.35200000 2426014121 2426014121 -11.00000000
3.01410556 2.89042330 0.36535686 7 5 4620 4.19200000 2426014124 2426014124 5.00000000
2.98601675 2.86248684 -0.65514755 9 6 4621 4.18800000 2426014126 2426014126 -9.00000000
3.02557015 2.89939070 0.51453239 17 7 4622 4.22200000 2426014128 2426014128 7.00000000
2.98593855 2.86041260 -0.50770766 8 8 4623 4.16600000 2426014131 2426014131 -7.00000000
3.01554489 2.88877416 0.66140491 72 9 4623 4.22800000 2426014133 2426014133 9.00000000
2.99885488 2.87178206 -0.36326513 9 10 4624 4.16800000 2426014135 2426014135 -5.00000000
3.02924156 2.89986777 0.81513602 21 11 4625 4.27200000 2426014137 2426014137 11.00000000
3.00430322 2.87498975 -0.21792692 7 12 4626 4.16400000 2426014140 2426014140 -3.00000000
3.01489186 2.88411498 0.96324039 11 13 4627 4.28200000 2426014142 2426014142 13.00000000
2.99307489 2.86224413 -0.07228786 8 14 4628 4.14200000 2426014144 2426014144 -1.00000000
3.02277160 2.89064264 1.12068641 10 15 4628 4.33000000 2426014147 2426014147 15.00000000
1.65390754 1.57719815 -0.61236584 4 0 4636 2.36600000 2426014167 2426014167 -15.00000000
2.99756718 2.85753894 0.07228786 7 1 4637 4.14200000 2426014170 2426014170 1.00000000
1.97364426 1.88079011 -0.62941307 3 2 4638 2.79800000 2426014172 2426014172 -13.00000000
3.00937247 2.86678839 0.21782225 7 3 4639 4.16200000 2426014174 2426014174 3.00000000
2.36821437 2.25600839 -0.63577557 2 4 4639 3.33200000 2426014177 2426014177 -11.00000000
3.01551962 2.87164044 0.36431101 7 5 4640 4.18000000 2426014179 2426014179 5.00000000
2.98883653 2.84523606 -0.65358317 9 6 4641 4.17800000 2426014181 2426014181 -9.00000000
3.03423429 2.88744330 0.51428860 10 7 4642 4.22000000 2426014184 2426014184 7.00000000
2.98727560 2.84176302 -0.50624526 10 8 4643 4.15400000 2426014186 2426014186 -7.00000000
3.02181816 2.87361836 0.66046631 70 9 4644 4.22200000 2426014188 2426014188 9.00000000
2.99153543 2.84482098 -0.36117339 9 10 4644 4.14400000 2426014190 2426014190 -5.00000000
3.03080797 2.88116026 0.81284630 8 11 4645 4.26000000 2426014193 2426014193 11.00000000
3.00418568 2.85485458 -0.21719421 7 12 4646 4.15000000 2426014195 2426014195 -3.00000000
3.01787663 2.86686254 0.96099091 9 13 4647 4.27200000 2426014197 2426014197 13.00000000
2.99434757 2.84351683 -0.07207844 8 14 4648 4.13000000 2426014200 2426014200 -1.00000000
3.02213717 2.86890388 1.11654532 16 15 4649 4.31400000 2426014202 2426014202 15.00000000
1.66501379 1.57672858 -0.61443639 4 0 4656 2.37400000 2426014223 2426014223 -15.00000000
2.99590588 2.83606029 0.07200863 8 1 4657 4.12600000 2426014225 2426014225 1.00000000
1.98019743 1.87388933 -0.62941307 3 2 4658 2.79800000 2426014227 2426014227 -13.00000000
3.01065540 2.84803081 0.21719421 7 3 4659 4.15000000 2426014230 2426014230 3.00000000
2.39033699 2.26121974 -0.63959175 2 4 4659 3.35200000 2426014232 2426014232 -11.00000000
3.00815368 2.84466958 0.36221927 7 5 4660 4.15600000 2426014234 2426014234 5.00000000
2.98152423 2.81850171 -0.64982879 9 6 4661 4.15400000 2426014237 2426014237 -9.00000000
3.03563809 2.86865377 0.51282620 7 7 4662 4.20800000 2426014239 2426014239 7.00000000
2.99429083 2.82859182 -0.50575775 10 8 4663 4.15000000 2426014241 2426014241 -7.00000000
3.02845883 2.86086893 0.65984058 64 9 4663 4.21800000 2426014243 2426014243 9.00000000
3.00434470 2.83709693 -0.36152202 9 10 4664 4.14800000 2426014246 2426014246 -5.00000000
3.00515580 2.83687115 0.80330586 18 11 4665 4.21000000 2426014248 2426014248 11.00000000
2.98798609 2.81967664 -0.21531013 7 12 4666 4.11400000 2426014250 2426014250 -3.00000000
3.01794267 2.84695029 0.95784158 21 13 4667 4.25800000 2426014253 2426014253 13.00000000
2.99698067 2.82618761 -0.07190391 8 14 4668 4.12000000 2426014255 2426014255 -1.00000000
3.02179575 2.84958863 1.11292195 10 15 4668 4.30000000 2426014257 2426014257 15.00000000
1.67050743 1.57090700 -0.61443639 4 0 4676 2.37400000 2426014278 2426014278 -15.00000000
3.00287342 2.82284617 0.07193882 8 1 4677 4.12200000 2426014280 2426014280 1.00000000
1.97820580 1.85895884 -0.62671363 3 2 4678 2.78600000 2426014283 2426014283 -13.00000000
3.01330018 2.83066702 0.21667086 7 3 4679 4.14000000 2426014285 2426014285 3.00000000
2.39249206 2.24748540 -0.63806528 2 4 4679 3.34400000 2426014287 2426014287 -11.00000000
3.01516032 2.83142400 0.36187065 6 5 4680 4.15200000 2426014290 2426014290 5.00000000
2.98270321 2.79996514 -0.64795154 9 6 4681 4.14200000 2426014292 2426014292 -9.00000000
3.02392006 2.83766413 0.50917011 7 7 4682 4.17800000 2426014294 2426014294 7.00000000
2.99256396 2.80725741 -0.50380784 8 8 4683 4.13400000 2426014296 2426014296 -7.00000000
3.02883768 2.84029126 0.65765047 72 9 4684 4.20400000 2426014299 2426014299 9.00000000
2.99969625 2.81296396 -0.35977891 9 10 4684 4.12800000 2426014301 2426014301 -5.00000000
2.98615146 2.79830384 -0.21447276 7 12 4686 4.09800000 2426014306 2426014306 -3.00000000
3.01221776 2.82174325 0.95289266 48 13 4687 4.23600000 2426014308 2426014308 13.00000000
3.00244880 2.81160831 -0.07179920 8 14 4688 4.11400000 2426014310 2426014310 -1.00000000
3.02798891 2.83453321 1.11136901 12 15 4689 4.29400000 2426014313 2426014313 15.00000000
1.67543435 1.56565118 -0.61443639 4 0 4694 2.37400000 2426014333 2426014333 -15.00000000
3.00149775 2.80384302 0.07169449 8 1 4695 4.10800000 2426014336 2426014336 1.00000000
1.98403609 1.85273492 -0.62671363 3 2 4696 2.78600000 2426014338 2426014338 -13.00000000
3.00465822 2.80483174 0.21541479 7 3 4697 4.11600000 2426014340 2426014340 3.00000000
2.40241122 2.24263740 -0.63882852 4 4 4697 3.34800000 2426014343 2426014343 -11.00000000
3.02258396 2.82057834 0.36169633 6 5 4698 4.15000000 2426014345 2426014345 5.00000000
2.97992897 2.77980137 -0.64544863 9 6 4699 4.12600000 2426014347 2426014347 -9.00000000
3.02265716 2.81867337 0.50746393 7 7 4700 4.16400000 2426014349 2426014349 7.00000000
2.98104000 2.77889204 -0.50039554 10 8 4701 4.10600000 2426014352 2426014352 -7.00000000
3.02424717 2.81916952 0.65483469 68 9 4701 4.18600000 2426014354 2426014354 9.00000000
2.99685764 2.79265976 -0.35838440 9 10 4702 4.11200000 2426014356 2426014356 -5.00000000
3.02677751 2.81955433 0.80406910 66 11 4703 4.21400000 2426014359 2426014359 11.00000000
2.99054289 2.78482556 -0.21415873 7 12 4704 4.09200000 2426014361 2426014361 -3.00000000
3.01678848 2.80828285 0.95154297 27 13 4705 4.23000000 2426014363 2426014363 13.00000000
2.99662781 2.78853941 -0.07145015 7 14 4706 4.09400000 2426014366 2426014366 -1.00000000
3.02648592 2.81632423 1.10774553 10 15 4706 4.28000000 2426014368 2426014368 15.00000000
1.68088925 1.55979335 -0.61443639 4 0 4714 2.37400000 2426014389 2426014389 -15.00000000
3.00686860 2.78926873 0.07158977 8 1 4715 4.10200000 2426014391 2426014391 1.00000000
1.99906480 1.85374832 -0.62941307 3 2 4716 2.79800000 2426014393 2426014393 -13.00000000
3.01296592 2.79296875 0.21531013 7 3 4717 4.11400000 2426014396 2426014396 3.00000000
2.39582682 2.22089124 -0.63501233 4 4 4717 3.32800000 2426014398 2426014398 -11.00000000
3.01633573 2.79511380 0.35977891 6 5 4718 4.12800000 2426014400 2426014400 5.00000000
2.98961425 2.76938248 -0.64544863 9 6 4719 4.12600000 2426014402 2426014402 -9.00000000
3.02519512 2.80136156 0.50624526 7 7 4720 4.15400000 2426014405 2426014405 7.00000000
2.98780847 2.76577234 -0.49990806 10 8 4721 4.10200000 2426014407 2426014407 -7.00000000
3.01957321 2.79517674 0.65170598 64 9 4721 4.16600000 2426014409 2426014409 9.00000000
2.98903942 2.76594353 -0.35629267 9 10 4722 4.08800000 2426014412 2426014412 -5.00000000
3.02218938 2.79563999 0.80025291 20 11 4723 4.19400000 2426014414 2426014414 11.00000000
2.99731278 2.77165771 -0.21394938 7 12 4724 4.08800000 2426014416 2426014416 -3.00000000
3.01369381 2.78583002 0.94749385 11 13 4725 4.21200000 2426014419 2426014419 13.00000000
2.99018812 2.76313376 -0.07106620 7 14 4726 4.07200000 2426014421 2426014421 -1.00000000
3.02352881 2.79394293 1.10308683 10 15 4726 4.26200000 2426014423 2426014423 15.00000000
1.67806959 1.54576886 -0.61133057 4 0 4735 2.36200000 2426014444 2426014444 -15.00000000
3.00383234 2.76603818 0.07127563 8 1 4736 4.08400000 2426014446 2426014446 1.00000000
2.00011063 1.84112978 -0.62761343 3 2 4737 2.79000000 2426014449 2426014449 -13.00000000
3.01583385 2.77514482 0.21478677 7 3 4738 4.10400000 2426014451 2426014451 3.00000000
2.41984224 2.22671843 -0.63921010 4 4 4738 3.35000000 2426014453 2426014453 -11.00000000
3.00896382 2.76785350 0.35768718 6 5 4739 4.10400000 2426014455 2426014455 5.00000000
2.97066307 2.73166466 -0.63919121 9 6 4740 4.08600000 2426014458 2426014458 -9.00000000
3.02813506 2.78353763 0.50502658 7 7 4741 4.14400000 2426014460 2426014460 7.00000000
2.98769355 2.74540091 -0.49820188 12 8 4742 4.08800000 2426014462 2426014462 -7.00000000
3.02010036 2.77420759 0.64951593 52 9 4743 4.15200000 2426014465 2426014465 9.00000000
2.98595142 2.74283886 -0.35472387 9 10 4743 4.07000000 2426014467 2426014467 -5.00000000
3.02084684 2.77392149 0.79719996 14 11 4744 4.17800000 2426014469 2426014469 11.00000000
2.99715161 2.75119901 -0.21321669 7 12 4745 4.07400000 2426014472 2426014472 -3.00000000
2.99440098 2.74674869 -0.07092658 7 14 4747 4.06400000 2426014476 2426014476 -1.00000000
3.00527644 2.75672460 1.09273398 18 15 4747 4.22200000 2426014478 2426014478 15.00000000
1.68915689 1.54511750 -0.61340111 4 0 4755 2.37000000 2426014499 2426014499 -15.00000000
2.99871182 2.74204159 0.07092658 10 1 4756 4.06400000 2426014502 2426014502 1.00000000
2.00652528 1.83413684 -0.62761343 3 2 4757 2.79000000 2426014504 2426014504 -13.00000000
3.01813054 2.75786448 0.21426341 7 3 4758 4.09400000 2426014506 2426014506 3.00000000
2.42760015 2.21825790 -0.63921010 4 4 4758 3.35000000 2426014508 2426014508 -11.00000000
3.01860714 2.75733328 0.35768718 6 5 4759 4.10400000 2426014511 2426014511 5.00000000
2.97142792 2.71328640 -0.63731402 9 6 4760 4.07400000 2426014513 2426014513 -9.00000000
