# .PCD v0.7 - Point Cloud Data file format
VERSION 0.7
FIELDS x y z intensity laser_id azimuth distance_m adjustedtime timestamp vertical_angle
SIZE 4 4 4 1 1 2 8 8 4 8
TYPE F F F U U U F U U F
COUNT 1 1 1 1 1 1 1 1 1 1
WIDTH 528
HEIGHT 1
VIEWPOINT 0 0 0 1 0 0 0
POINTS 528
DATA ascii
-4.25279856 2.61633897 -0.26167977 7 12 30160 5.00000000 2425884968 2425884968 -3.00000000
-4.24695778 2.61376786 1.15129948 8 13 30161 5.11800000 2425884971 2425884971 13.00000000
-4.25196314 2.61787152 -0.08715732 6 14 30162 4.99400000 2425884973 2425884973 -1.00000000
-4.26681852 2.62804484 1.34275317 8 15 30163 5.18800000 2425884975 2425884975 15.00000000
-1.74225926 1.07604122 -0.54869640 4 0 30170 2.12000000 2425884996 2425884996 -15.00000000
-4.24954653 2.62559819 0.08719222 9 1 30171 4.99600000 2425884998 2425884998 1.00000000
-2.01404738 1.24487245 -0.54663104 3 2 30172 2.43000000 2425885001 2425885001 -13.00000000
-4.24051380 2.62103987 0.26126111 8 3 30172 4.99200000 2425885003 2425885003 3.00000000
-2.36780214 1.46409774 -0.54113430 3 4 30173 2.83600000 2425885005 2425885005 -11.00000000
-4.23603916 2.62031841 0.43577871 7 5 30174 5.00000000 2425885008 2425885008 5.00000000
-2.87239981 1.77749491 -0.53500587 1 6 30175 3.42000000 2425885010 2425885010 -9.00000000
-4.24493074 2.62786770 0.61300278 9 7 30176 5.03000000 2425885012 2425885012 7.00000000
-3.67235446 2.27429509 -0.53037536 6 8 30177 4.35200000 2425885015 2425885015 -7.00000000
-4.22873688 2.61886358 0.78780395 9 9 30177 5.03600000 2425885017 2425885017 9.00000000
-4.23251534 2.62222576 -0.43560439 9 10 30178 4.99800000 2425885019 2425885019 -5.00000000
-4.23858976 2.62701297 0.96930969 7 11 30179 5.08000000 2425885021 2425885021 11.00000000
-4.20799303 2.60906625 -0.25948167 15 12 30180 4.95800000 2425885024 2425885024 -3.00000000
-4.21793556 2.61625028 1.14590073 7 13 30181 5.09400000 2425885026 2425885026 13.00000000
-4.18842602 2.59895849 -0.08604036 14 14 30182 4.93000000 2425885028 2425885028 -1.00000000
-4.22150946 2.62050772 1.33136511 8 15 30183 5.14400000 2425885031 2425885031 15.00000000
-1.73540092 1.07977176 -0.54766113 4 0 30189 2.11600000 2425885051 2425885051 -15.00000000
-4.18479300 2.60480428 0.08604036 13 1 30190 4.93000000 2425885054 2425885054 1.00000000
-2.02314210 1.25978506 -0.55023026 3 2 30191 2.44600000 2425885056 2425885056 -13.00000000
-4.19958544 2.61502886 0.25927234 16 3 30191 4.95400000 2425885058 2425885058 3.00000000
-2.36293411 1.47194159 -0.54113430 2 4 30192 2.83600000 2425885061 2425885061 -11.00000000
-4.19181728 2.61222267 0.43211818 11 5 30193 4.95800000 2425885063 2425885063 5.00000000
-2.88325262 1.79746068 -0.53813457 1 6 30194 3.44000000 2425885065 2425885065 -9.00000000
-4.21766520 2.63037467 0.61032170 6 7 30195 5.00800000 2425885067 2425885067 7.00000000
-3.67152929 2.29066372 -0.53135031 6 8 30196 4.36000000 2425885070 2425885070 -7.00000000
-4.20326948 2.62241602 0.78467530 9 9 30196 5.01600000 2425885072 2425885072 9.00000000
-4.20351410 2.62358785 -0.43351266 9 10 30197 4.97400000 2425885074 2425885074 -5.00000000
-4.20987129 2.62857676 0.96473026 7 11 30198 5.05600000 2425885077 2425885077 11.00000000
-4.17390871 2.60713482 -0.25791159 2 12 30199 4.92800000 2425885079 2425885079 -3.00000000
-4.19271040 2.61989641 1.14140165 7 13 30200 5.07400000 2425885081 2425885081 13.00000000
-4.18826246 2.61813354 -0.08621489 2 14 30201 4.94000000 2425885084 2425885084 -1.00000000
-4.19359827 2.62146902 1.32515347 8 15 30201 5.12000000 2425885086 2425885086 15.00000000
-1.72998452 1.08479655 -0.54714346 4 0 30209 2.11400000 2425885107 2425885107 -15.00000000
-4.15873528 2.60876966 0.08569132 2 1 30210 4.91000000 2425885109 2425885109 1.00000000
-2.00882864 1.26062441 -0.54753089 3 2 30211 2.43400000 2425885111 2425885111 -13.00000000
-4.17013073 2.61693263 0.25801626 4 3 30211 4.93000000 2425885114 2425885114 3.00000000
-2.36443257 1.48435616 -0.54266077 3 4 30212 2.84400000 2425885116 2425885116 -11.00000000
-4.23666525 2.66074729 0.43769613 2 5 30213 5.02200000 2425885118 2425885118 5.00000000
-2.88030624 1.80961597 -0.53876030 1 6 30214 3.44400000 2425885120 2425885120 -9.00000000
-4.18492794 2.63029242 0.60690933 8 7 30215 4.98000000 2425885123 2425885123 7.00000000
-3.70720434 2.33093810 -0.53768754 6 8 30216 4.41200000 2425885125 2425885125 -7.00000000
-4.17067814 2.62235165 0.78029513 8 9 30216 4.98800000 2425885127 2425885127 9.00000000
-4.16228676 2.61808920 -0.43020076 12 10 30217 4.93600000 2425885130 2425885130 -5.00000000
-4.16411352 2.62025285 0.95633471 7 11 30218 5.01200000 2425885132 2425885132 11.00000000
-4.13942909 2.60572863 -0.25634152 7 12 30219 4.89800000 2425885134 2425885134 -3.00000000
-4.16375160 2.62205434 1.13600278 7 13 30220 5.05000000 2425885137 2425885137 13.00000000
-4.14525938 2.61141968 -0.08551679 8 14 30221 4.90000000 2425885139 2425885139 -1.00000000
-4.15781260 2.62034154 1.31687129 8 15 30222 5.08800000 2425885141 2425885141 15.00000000
-1.73598599 1.09702075 -0.55024928 4 0 30229 2.12600000 2425885162 2425885162 -15.00000000
-4.12932014 2.61044788 0.08527246 8 1 30230 4.88600000 2425885164 2425885164 1.00000000
-2.00112176 1.26554561 -0.54663104 3 2 30231 2.43000000 2425885167 2425885167 -13.00000000
-4.13519382 2.61618185 0.25644618 8 3 30232 4.90000000 2425885169 2425885169 3.00000000
-2.36919141 1.49889851 -0.54495049 3 4 30232 2.85600000 2425885171 2425885171 -11.00000000
-4.13307381 2.61585069 0.42793471 6 5 30233 4.91000000 2425885173 2425885173 5.00000000
-2.87230277 1.81860232 -0.53844744 1 6 30234 3.44200000 2425885176 2425885176 -9.00000000
-4.15224314 2.63001370 0.60349697 19 7 30235 4.95200000 2425885178 2425885178 7.00000000
-3.74264216 2.37148952 -0.54402477 8 8 30236 4.46400000 2425885180 2425885180 -7.00000000
-4.15482473 2.63266492 0.77904361 8 9 30236 4.98000000 2425885183 2425885183 9.00000000
-3.99157500 2.53019977 -0.41346684 13 10 30237 4.74400000 2425885185 2425885185 -5.00000000
-4.13338804 2.62110424 0.95137364 10 11 30238 4.98600000 2425885187 2425885187 11.00000000
-4.14211369 2.62765121 -0.25707421 2 12 30239 4.91200000 2425885190 2425885190 -3.00000000
-4.13647461 2.62508655 1.13105392 10 13 30240 5.02800000 2425885192 2425885192 13.00000000
-4.14624786 2.63230395 -0.08572622 2 14 30241 4.91200000 2425885194 2425885194 -1.00000000
-4.13442183 2.62479615 1.31221259 10 15 30241 5.07000000 2425885197 2425885197 15.00000000
-1.73214602 1.10307372 -0.55024928 4 0 30249 2.12600000 2425885217 2425885217 -15.00000000
-4.14379454 2.63988805 0.08576112 2 1 30250 4.91400000 2425885220 2425885220 1.00000000
-1.99669206 1.27252316 -0.54663104 3 2 30251 2.43000000 2425885222 2425885222 -13.00000000
-4.10751152 2.61878943 0.25529480 2 3 30252 4.87800000 2425885224 2425885224 3.00000000
-2.36063409 1.50504851 -0.54418725 3 4 30252 2.85200000 2425885226 2425885226 -11.00000000
-4.12727690 2.63240457 0.42828333 2 5 30253 4.91400000 2425885229 2425885229 5.00000000
-2.86926770 1.83074260 -0.53907317 1 6 30254 3.44600000 2425885231 2425885231 -9.00000000
-4.14471054 2.64555979 0.60374075 19 7 30255 4.95400000 2425885233 2425885233 7.00000000
-3.75274539 2.39629102 -0.54670590 8 8 30256 4.48600000 2425885236 2425885236 -7.00000000
-4.13349438 2.64043140 0.77685356 10 9 30257 4.96600000 2425885238 2425885238 9.00000000
-3.94242120 2.51837611 -0.40928337 22 10 30257 4.69600000 2425885240 2425885240 -5.00000000
-4.12752199 2.63763094 0.95213687 12 11 30258 4.99000000 2425885243 2425885243 11.00000000
-4.13459921 2.64316964 -0.25717890 22 12 30259 4.91400000 2425885245 2425885245 -3.00000000
-4.12071896 2.63530993 1.12925434 14 13 30260 5.02000000 2425885247 2425885247 13.00000000
-4.13534975 2.64568353 -0.08569132 20 14 30261 4.91000000 2425885250 2425885250 -1.00000000
-4.12640095 2.64097333 1.31273019 14 15 30262 5.07200000 2425885252 2425885252 15.00000000
-1.72015584 1.10389650 -0.54766113 4 0 30269 2.11600000 2425885273 2425885273 -15.00000000
-4.14296818 2.65973830 0.08593565 24 1 30270 4.92400000 2425885275 2425885275 1.00000000
-2.00207615 1.28580356 -0.54933047 3 2 30271 2.44200000 2425885277 2425885277 -13.00000000
-4.14203405 2.66118073 0.25801626 22 3 30272 4.93000000 2425885279 2425885279 3.00000000
-2.34545565 1.50691223 -0.54189754 3 4 30272 2.84000000 2425885282 2425885282 -11.00000000
-4.13985157 2.66079974 0.43054938 23 5 30273 4.94000000 2425885284 2425885284 5.00000000
-2.87449074 1.84822536 -0.54126322 1 6 30274 3.46000000 2425885286 2425885286 -9.00000000
-4.14880705 2.66860247 0.60569066 17 7 30275 4.97000000 2425885289 2425885289 7.00000000
-3.77607560 2.42978525 -0.55133688 8 8 30276 4.52400000 2425885291 2425885291 -7.00000000
-4.12969923 2.65733099 0.77779216 10 9 30276 4.97200000 2425885293 2425885293 9.00000000
-3.91182756 2.51810288 -0.40701732 30 10 30277 4.67000000 2425885296 2425885296 -5.00000000
-4.14717484 2.67164731 -0.25853962 20 12 30279 4.94000000 2425885300 2425885300 -3.00000000
-4.12945080 2.66226959 -0.08576112 18 14 30281 4.91400000 2425885305 2425885305 -1.00000000
-4.12249136 2.65778279 1.31428313 65 15 30281 5.07800000 2425885307 2425885307 15.00000000
-1.71304762 1.10779607 -0.54662585 4 0 30289 2.11200000 2425885328 2425885328 -15.00000000
-4.14037466 2.67852831 0.08607527 9 1 30290 4.93200000 2425885330 2425885330 1.00000000
-2.00084782 1.29490185 -0.55023026 3 2 30291 2.44600000 2425885332 2425885332 -13.00000000
-4.13104296 2.67453742 0.25791159 16 3 30292 4.92800000 2425885335 2425885335 3.00000000
-2.35336542 1.52362597 -0.54495049 3 4 30292 2.85600000 2425885337 2425885337 -11.00000000
-4.11883259 2.66765261 0.42932919 19 5 30293 4.92600000 2425885339 2425885339 5.00000000
-2.86304832 1.85502553 -0.54032463 1 6 30294 3.45400000 2425885342 2425885342 -9.00000000
-4.15279293 2.69170570 0.60764056 14 7 30295 4.98600000 2425885344 2425885344 7.00000000
-3.77923012 2.45051146 -0.55304307 8 8 30296 4.53800000 2425885346 2425885346 -7.00000000
-4.12490368 2.67567420 0.77873075 8 9 30297 4.97800000 2425885349 2425885349 9.00000000
-3.88629866 2.52089977 -0.40527421 30 10 30297 4.65000000 2425885351 2425885351 -5.00000000
-4.12218285 2.67493153 0.95518982 67 11 30298 5.00600000 2425885353 2425885353 11.00000000
-4.17132807 2.70785737 -0.26063305 10 12 30299 4.98000000 2425885355 2425885355 -3.00000000
-4.11693001 2.67356563 1.13330340 60 13 30300 5.03800000 2425885358 2425885358 13.00000000
-4.14360905 2.69191933 -0.08624979 8 14 30301 4.94200000 2425885360 2425885360 -1.00000000
-4.10624313 2.66866374 1.31221259 65 15 30302 5.07000000 2425885362 2425885362 15.00000000
-1.71564436 1.11798787 -0.54869640 4 0 30309 2.12000000 2425885383 2425885383 -15.00000000
-4.14105034 2.69951677 0.08628470 9 1 30310 4.94400000 2425885385 2425885385 1.00000000
-1.98652160 1.29549134 -0.54753089 3 2 30311 2.43400000 2425885388 2425885388 -13.00000000
-4.14342785 2.70312786 0.25927234 8 3 30312 4.95400000 2425885390 2425885390 3.00000000
-2.34474421 1.52968597 -0.54418725 2 4 30312 2.85200000 2425885392 2425885392 -11.00000000
-4.13452291 2.69834757 0.43194386 14 5 30313 4.95600000 2425885395 2425885395 5.00000000
-2.84663129 1.85852873 -0.53844744 1 6 30314 3.44200000 2425885397 2425885397 -9.00000000
-4.14337158 2.70618534 0.60764056 14 7 30315 4.98600000 2425885399 2425885399 7.00000000
-3.77730060 2.46803164 -0.55401802 8 8 30316 4.54600000 2425885402 2425885402 -7.00000000
-4.13915968 2.70446491 0.78311092 9 9 30316 5.00600000 2425885404 2425885404 9.00000000
-3.87414002 2.53226995 -0.40492558 33 10 30317 4.64600000 2425885406 2425885406 -5.00000000
-4.10953379 2.68715549 0.95442659 65 11 30318 5.00200000 2425885408 2425885408 11.00000000
-4.14680767 2.71256137 -0.25969100 15 12 30319 4.96200000 2425885411 2425885411 -3.00000000
-4.11735630 2.69432259 1.13600278 63 13 30320 5.05000000 2425885413 2425885413 13.00000000
-4.15091801 2.71731949 -0.08659884 14 14 30321 4.96200000 2425885415 2425885415 -1.00000000
-4.10383606 2.68649817 1.31428313 74 15 30321 5.07800000 2425885418 2425885418 15.00000000
-1.71496105 1.12609041 -0.54973167 4 0 30329 2.12400000 2425885438 2425885438 -15.00000000
-4.14330196 2.72164059 0.08652903 9 1 30330 4.95800000 2425885441 2425885441 1.00000000
-1.98524463 1.30455804 -0.54843068 3 2 30331 2.43800000 2425885443 2425885443 -13.00000000
-4.14731836 2.72635174 0.26010969 8 3 30332 4.97000000 2425885445 2425885445 3.00000000
-2.33282804 1.53354764 -0.54266077 2 4 30332 2.84400000 2425885448 2425885448 -11.00000000
-4.14671993 2.72699499 0.43420991 21 5 30333 4.98200000 2425885450 2425885450 5.00000000
-2.85167837 1.87605369 -0.54063749 1 6 30334 3.45600000 2425885452 2425885452 -9.00000000
-4.14053297 2.72499728 0.60861552 10 7 30335 4.99400000 2425885455 2425885455 7.00000000
-3.76203036 2.47683549 -0.55304307 10 8 30336 4.53800000 2425885457 2425885457 -7.00000000
-4.13746786 2.72505021 0.78467530 9 9 30337 5.01600000 2425885459 2425885459 9.00000000
-3.85695744 2.54029822 -0.40405402 30 10 30337 4.63600000 2425885461 2425885461 -5.00000000
-4.11324406 2.71012521 0.95747954 67 11 30338 5.01800000 2425885464 2425885464 11.00000000
-4.14731932 2.73361492 -0.26031905 15 12 30339 4.97400000 2425885466 2425885466 -3.00000000
-4.11443377 2.71296930 1.13780248 63 13 30340 5.05800000 2425885468 2425885468 13.00000000
-4.14808464 2.73619652 -0.08673846 14 14 30341 4.97000000 2425885471 2425885471 -1.00000000
-4.10686159 2.71003366 1.31842422 72 15 30342 5.09400000 2425885473 2425885473 15.00000000
-1.71424210 1.13420188 -0.55076694 4 0 30349 2.12800000 2425885494 2425885494 -15.00000000
-4.14211369 2.74160528 0.08670355 9 1 30350 4.96800000 2425885496 2425885496 1.00000000
-1.98067880 1.31147993 -0.54843068 3 2 30351 2.43800000 2425885498 2425885498 -13.00000000
-4.13611126 2.73970914 0.26000503 8 3 30352 4.96800000 2425885501 2425885501 3.00000000
-2.34055495 1.55035460 -0.54571372 3 4 30352 2.86000000 2425885503 2425885503 -11.00000000
-4.14547968 2.74695563 0.43508148 21 5 30353 4.99200000 2425885505 2425885505 5.00000000
-2.83358693 1.87835646 -0.53844744 3 6 30354 3.44200000 2425885508 2425885508 -9.00000000
-4.13595915 2.74272490 0.60934669 10 7 30355 5.00000000 2425885510 2425885510 7.00000000
-3.75005341 2.48775768 -0.55255562 10 8 30356 4.53400000 2425885512 2425885512 -7.00000000
-4.13005495 2.73984766 0.78498816 18 9 30356 5.01800000 2425885514 2425885514 9.00000000
-3.84142637 2.54933929 -0.40335679 33 10 30357 4.62800000 2425885517 2425885517 -5.00000000
-4.11847973 2.73423958 0.96091408 72 11 30358 5.03600000 2425885519 2425885519 11.00000000
-4.14773464 2.75470495 -0.26094708 17 12 30359 4.98600000 2425885521 2425885521 -3.00000000
-4.10169268 2.72515798 1.13690257 62 13 30360 5.05400000 2425885524 2425885524 13.00000000
-4.14183903 2.75287318 -0.08680827 16 14 30361 4.97400000 2425885526 2425885526 -1.00000000
-4.11072350 2.73219228 1.32256532 72 15 30361 5.11000000 2425885528 2425885528 15.00000000
-1.70705771 1.13803554 -0.54973167 4 0 30369 2.12400000 2425885549 2425885549 -15.00000000
-4.14083672 2.76159477 0.08687808 9 1 30370 4.97800000 2425885551 2425885551 1.00000000
-1.98905742 1.32703793 -0.55202991 3 2 30371 2.45400000 2425885554 2425885554 -13.00000000
-4.14147377 2.76410890 0.26094708 8 3 30372 4.98600000 2425885556 2425885556 3.00000000
-2.32533097 1.55197608 -0.54342401 3 4 30372 2.84800000 2425885558 2425885558 -11.00000000
-4.12758064 2.75587773 0.43420991 19 5 30373 4.98200000 2425885561 2425885561 5.00000000
-2.84508228 1.90030503 -0.54188901 3 6 30374 3.46400000 2425885563 2425885563 -9.00000000
-4.13956404 2.76596832 0.61129665 11 7 30375 5.01600000 2425885565 2425885565 7.00000000
-3.72979426 2.49311042 -0.55084944 10 8 30376 4.52000000 2425885567 2425885567 -7.00000000
-4.12819529 2.76045680 0.78655249 31 9 30377 5.02800000 2425885570 2425885570 9.00000000
-3.81925440 2.55387306 -0.40196228 31 10 30377 4.61200000 2425885572 2425885572 -5.00000000
-4.12359667 2.75842333 0.96434867 72 11 30378 5.05400000 2425885574 2425885574 11.00000000
-4.15469265 2.78027415 -0.26199380 20 12 30379 5.00600000 2425885577 2425885577 -3.00000000
-4.10187149 2.74596357 1.13960207 62 13 30380 5.06600000 2425885579 2425885579 13.00000000
-4.13552713 2.76953959 -0.08687808 14 14 30381 4.97800000 2425885581 2425885581 -1.00000000
-4.10068178 2.74724054 1.32256532 76 15 30382 5.11000000 2425885584 2425885584 15.00000000
-1.69646132 1.13997471 -0.54766113 4 0 30390 2.11600000 2425885604 2425885604 -15.00000000
-4.14230442 2.78456259 0.08712241 9 1 30391 4.99200000 2425885607 2425885607 1.00000000
-1.99064851 1.33866918 -0.55382949 3 2 30392 2.46200000 2425885609 2425885609 -13.00000000
-4.13794374 2.78372884 0.26136577 8 3 30393 4.99400000 2425885611 2425885611 3.00000000
-2.30985355 1.55391335 -0.54113430 3 4 30393 2.83600000 2425885614 2425885614 -11.00000000
-4.12241125 2.77432489 0.43473285 16 5 30394 4.98800000 2425885616 2425885616 5.00000000
-2.83482099 1.90851367 -0.54126322 3 6 30395 3.46000000 2425885618 2425885618 -9.00000000
-4.14257050 2.78999329 0.61324656 9 7 30396 5.03200000 2425885620 2425885620 7.00000000
-3.73544812 2.51674676 -0.55304307 14 8 30397 4.53800000 2425885623 2425885623 -7.00000000
-4.12836409 2.78147268 0.78842968 47 9 30397 5.04000000 2425885625 2425885625 9.00000000
-3.79499888 2.55783200 -0.40039349 36 10 30398 4.59400000 2425885627 2425885627 -5.00000000
-4.11834192 2.77681112 0.96549350 72 11 30399 5.06000000 2425885630 2425885630 11.00000000
-4.16268826 2.80776858 -0.26314518 10 12 30400 5.02800000 2425885632 2425885632 -3.00000000
-4.10470247 2.76969910 1.14320123 65 13 30401 5.08200000 2425885634 2425885634 13.00000000
-4.14358044 2.79698515 -0.08726203 16 14 30402 5.00000000 2425885637 2425885637 -1.00000000
-4.09106684 2.76153779 1.32256532 74 15 30402 5.11000000 2425885639 2425885639 15.00000000
-1.70206988 1.15238798 -0.55076694 4 0 30410 2.12800000 2425885660 2425885660 -15.00000000
-4.14083767 2.80461192 0.08729694 20 1 30411 5.00200000 2425885662 2425885662 1.00000000
-1.97951043 1.34123731 -0.55202991 3 2 30412 2.45400000 2425885664 2425885664 -13.00000000
-4.13977432 2.80600023 0.26209846 8 3 30413 5.00800000 2425885667 2425885667 3.00000000
-2.31741619 1.57077897 -0.54418725 3 4 30413 2.85200000 2425885669 2425885669 -11.00000000
-4.12259579 2.79540682 0.43577871 9 5 30414 5.00000000 2425885671 2425885671 5.00000000
-2.81669831 1.91063511 -0.53907317 3 6 30415 3.44600000 2425885673 2425885673 -9.00000000
-4.13444901 2.80555105 0.61349028 9 7 30416 5.03400000 2425885676 2425885676 7.00000000
-3.73485231 2.53534532 -0.55426174 14 8 30417 4.54800000 2425885678 2425885678 -7.00000000
-4.12516689 2.80030417 0.78968120 63 9 30417 5.04800000 2425885680 2425885680 9.00000000
-3.78934383 2.57330203 -0.40074211 42 10 30418 4.59800000 2425885683 2425885683 -5.00000000
-4.11187220 2.79337645 0.96625674 70 11 30419 5.06400000 2425885685 2425885685 11.00000000
-4.14625454 2.81779146 -0.26272649 10 12 30420 5.02000000 2425885687 2425885687 -3.00000000
-4.10467863 2.79058409 1.14590073 70 13 30421 5.09400000 2425885690 2425885690 13.00000000
-4.14371300 2.81817937 -0.08747146 16 14 30422 5.01200000 2425885692 2425885692 -1.00000000
-4.09418201 2.78449297 1.32670641 74 15 30422 5.12600000 2425885694 2425885694 15.00000000
-1.70122874 1.16049957 -0.55180222 4 0 30430 2.13200000 2425885715 2425885715 -15.00000000
-4.14258480 2.82693911 0.08754127 22 1 30431 5.01600000 2425885717 2425885717 1.00000000
-1.96515977 1.34154654 -0.54933047 3 2 30432 2.44200000 2425885720 2425885720 -13.00000000
-4.12995434 2.82043362 0.26209846 8 3 30433 5.00800000 2425885722 2425885722 3.00000000
-2.31840396 1.58328748 -0.54571372 2 4 30433 2.86000000 2425885724 2425885724 -11.00000000
-4.13748980 2.82663894 0.43839338 9 5 30434 5.03000000 2425885726 2425885726 5.00000000
-2.82468987 1.93048692 -0.54188901 1 6 30435 3.46400000 2425885729 2425885729 -9.00000000
-4.12790823 2.82220674 0.61397773 9 7 30436 5.03800000 2425885731 2425885731 7.00000000
-3.72597957 2.54836702 -0.55426174 16 8 30437 4.54800000 2425885733 2425885733 -7.00000000
-4.12302732 2.82098222 0.79124552 78 9 30438 5.05800000 2425885736 2425885736 9.00000000
-3.77704954 2.58426356 -0.40039349 47 10 30438 4.59400000 2425885738 2425885738 -5.00000000
-4.11343718 2.81547475 0.96892810 80 11 30439 5.07800000 2425885740 2425885740 11.00000000
-4.14463282 2.83788943 -0.26324987 10 12 30440 5.03000000 2425885743 2425885743 -3.00000000
-4.09652042 2.80599642 1.14635062 63 13 30441 5.09600000 2425885745 2425885745 13.00000000
-4.14869690 2.84279966 -0.08778560 14 14 30442 5.03000000 2425885747 2425885747 -1.00000000
-4.10037327 2.80968714 1.33188283 74 15 30442 5.14600000 2425885749 2425885749 15.00000000
-1.70353580 1.17080772 -0.55387276 4 0 30450 2.14000000 2425885770 2425885770 -15.00000000
-4.13928270 2.84591413 0.08768089 18 1 30451 5.02400000 2425885773 2425885773 1.00000000
-1.96688747 1.35281539 -0.55113006 3 2 30452 2.45000000 2425885775 2425885775 -13.00000000
-4.12831116 2.84049320 0.26262182 8 3 30453 5.01800000 2425885777 2425885777 3.00000000
-2.30962849 1.58914483 -0.54495049 3 4 30453 2.85600000 2425885779 2425885779 -11.00000000
-4.13580370 2.84671259 0.43926495 9 5 30454 5.04000000 2425885782 2425885782 5.00000000
-2.82118797 1.94257581 -0.54251474 3 6 30455 3.46800000 2425885784 2425885784 -9.00000000
-4.13437939 2.84785938 0.61641514 9 7 30456 5.05800000 2425885786 2425885786 7.00000000
-3.72359991 2.56586289 -0.55523676 18 8 30457 4.55600000 2425885789 2425885789 -7.00000000
-4.11315489 2.83535719 0.79124552 78 9 30458 5.05800000 2425885791 2425885791 9.00000000
-3.76800561 2.59743214 -0.40039349 44 10 30458 4.59400000 2425885793 2425885793 -5.00000000
-4.11328125 2.83650351 0.97121781 72 11 30459 5.09000000 2425885796 2425885796 11.00000000
-4.15442991 2.86594915 -0.26450592 10 12 30460 5.05400000 2425885798 2425885798 -3.00000000
-4.09151268 2.82359934 1.14770031 67 13 30461 5.10200000 2425885800 2425885800 13.00000000
-4.14203930 2.85953617 -0.08785541 14 14 30462 5.03400000 2425885802 2425885802 -1.00000000
-4.10276461 2.83347940 1.33602393 72 15 30463 5.16200000 2425885805 2425885805 15.00000000
-1.68693626 1.16765451 -0.54973167 4 0 30469 2.12400000 2425885826 2425885826 -15.00000000
-4.13968658 2.86645508 0.08789032 15 1 30470 5.03600000 2425885828 2425885828 1.00000000
-1.96879828 1.36376905 -0.55292970 3 2 30471 2.45800000 2425885830 2425885830 -13.00000000
-4.13200188 2.86326814 0.26345921 8 3 30472 5.03400000 2425885832 2425885832 3.00000000
-2.30111861 1.59455872 -0.54418725 2 4 30472 2.85200000 2425885835 2425885835 -11.00000000
-4.13125324 2.86381698 0.43978786 9 5 30473 5.04600000 2425885837 2425885837 5.00000000
-2.82284689 1.95754886 -0.54407907 3 6 30474 3.47800000 2425885839 2425885839 -9.00000000
-4.13469934 2.86834288 0.61787754 9 7 30475 5.07000000 2425885842 2425885842 7.00000000
-3.71833229 2.58046031 -0.55572420 8 8 30476 4.56000000 2425885844 2425885844 -7.00000000
-4.11184359 2.85461378 0.79280984 83 9 30477 5.06800000 2425885846 2425885846 9.00000000
-3.75937152 2.60991311 -0.40039349 44 10 30477 4.59400000 2425885849 2425885849 -5.00000000
-4.11675262 2.85908699 0.97427070 80 11 30478 5.10600000 2425885851 2425885851 11.00000000
-4.14490318 2.87970996 -0.26450592 10 12 30479 5.05400000 2425885853 2425885853 -3.00000000
-4.09812880 2.84827352 1.15219927 70 13 30480 5.12200000 2425885855 2425885855 13.00000000
-4.13253403 2.87325573 -0.08785541 10 14 30481 5.03400000 2425885858 2425885858 -1.00000000
-4.10335970 2.85297155 1.33912969 72 15 30481 5.17400000 2425885860 2425885860 15.00000000
-1.68918860 1.17795599 -0.55180222 4 0 30489 2.13200000 2425885881 2425885881 -15.00000000
-4.13785601 2.88660836 0.08806484 13 1 30490 5.04600000 2425885883 2425885883 1.00000000
-1.96082973 1.36840260 -0.55202991 3 2 30491 2.45400000 2425885885 2425885885 -13.00000000
-4.13508320 2.88682055 0.26429659 8 3 30492 5.05000000 2425885888 2425885888 3.00000000
-2.29553843 1.60258138 -0.54418725 3 4 30492 2.85200000 2425885890 2425885890 -11.00000000
-4.12449884 2.88050175 0.44013649 9 5 30493 5.05000000 2425885892 2425885892 5.00000000
-2.81599665 1.96739054 -0.54407907 1 6 30494 3.47800000 2425885895 2425885895 -9.00000000
-4.13605118 2.89071846 0.61958373 11 7 30495 5.08400000 2425885897 2425885897 7.00000000
-3.70930219 2.59342408 -0.55572420 16 8 30496 4.56000000 2425885899 2425885899 -7.00000000
-4.11480379 2.87800694 0.79531282 85 9 30497 5.08400000 2425885902 2425885902 9.00000000
-3.76003432 2.62987137 -0.40143934 23 10 30497 4.60600000 2425885904 2425885904 -5.00000000
-4.11318207 2.87794185 0.97579718 76 11 30498 5.11400000 2425885906 2425885906 11.00000000
-4.13973475 2.89759684 -0.26481995 10 12 30499 5.06000000 2425885908 2425885908 -3.00000000
-4.10572100 2.87485671 1.15714824 66 13 30500 5.14400000 2425885911 2425885911 13.00000000
-4.14049578 2.90028358 -0.08823936 8 14 30501 5.05600000 2425885913 2425885913 -1.00000000
-4.08704662 2.86284423 1.33705914 74 15 30501 5.16600000 2425885915 2425885915 15.00000000
-1.68190491 1.18162405 -0.55076694 4 0 30509 2.12800000 2425885936 2425885936 -15.00000000
-4.13593483 2.90678382 0.08823936 11 1 30510 5.05600000 2425885938 2425885938 1.00000000
-1.95604122 1.37523890 -0.55202991 3 2 30511 2.45400000 2425885941 2425885941 -13.00000000
-4.14509392 2.91430163 0.26555264 12 3 30511 5.07400000 2425885943 2425885943 3.00000000
-2.29956555 1.61736119 -0.54647696 3 4 30512 2.86400000 2425885945 2425885945 -11.00000000
-4.13071346 2.90634632 0.44187963 9 5 30513 5.07000000 2425885948 2425885948 5.00000000
-2.79780436 1.96924937 -0.54188901 3 6 30514 3.46400000 2425885950 2425885950 -9.00000000
-4.13242769 2.90970969 0.62055868 11 7 30515 5.09200000 2425885952 2425885952 7.00000000
-3.69373512 2.60178351 -0.55474925 20 8 30516 4.55200000 2425885954 2425885954 -7.00000000
-4.11815691 2.90073657 0.79781580 81 9 30516 5.10000000 2425885957 2425885957 9.00000000
-3.75897479 2.64871860 -0.40231091 27 10 30517 4.61600000 2425885959 2425885959 -5.00000000
-4.10311127 2.89228201 0.97579718 81 11 30518 5.11400000 2425885961 2425885961 11.00000000
-4.14591742 2.92353940 -0.26586667 10 12 30519 5.08000000 2425885964 2425885964 -3.00000000
-4.10203028 2.89366412 1.15894783 69 13 30520 5.15200000 2425885966 2425885966 13.00000000
-4.14505148 2.92509556 -0.08855351 8 14 30521 5.07400000 2425885968 2425885968 -1.00000000
-4.09912634 2.89268732 1.34430611 48 15 30521 5.19400000 2425885971 2425885971 15.00000000
-1.68723118 1.19418418 -0.55387276 4 0 30529 2.14000000 2425885991 2425885991 -15.00000000
-4.13229132 2.92582536 0.08837899 15 1 30530 5.06400000 2425885994 2425885994 1.00000000
-1.94804835 1.37980556 -0.55113006 3 2 30531 2.45000000 2425885996 2425885996 -13.00000000
-4.13764381 2.93178415 0.26576197 12 3 30532 5.07800000 2425885998 2425885998 3.00000000
-2.30031347 1.62991846 -0.54800344 3 4 30532 2.87200000 2425886001 2425886001 -11.00000000
-4.13517237 2.93111706 0.44344842 10 5 30533 5.08800000 2425886003 2425886003 5.00000000
-2.79735899 1.98357391 -0.54314047 3 6 30534 3.47200000 2425886005 2425886005 -9.00000000
-4.12386513 2.92526531 0.62080246 9 7 30535 5.09400000 2425886007 2425886007 7.00000000
-3.66682291 2.60202456 -0.55206811 34 8 30536 4.53000000 2425886010 2425886010 -7.00000000
-4.12038374 2.92495847 0.80031872 81 9 30537 5.11600000 2425886012 2425886012 9.00000000
-3.77245140 2.67796993 -0.40475127 27 10 30537 4.64400000 2425886014 2425886014 -5.00000000
-4.10899734 2.91795421 0.97961336 78 11 30538 5.13400000 2425886017 2425886017 11.00000000
-4.13568735 2.93799376 -0.26586667 10 12 30539 5.08000000 2425886019 2425886019 -3.00000000
-4.10302401 2.91586733 1.16209710 65 13 30540 5.16600000 2425886021 2425886021 13.00000000
-4.14785385 2.94881606 -0.08883275 8 14 30541 5.09000000 2425886024 2425886024 -1.00000000
-4.09479380 2.91217041 1.34637666 31 15 30542 5.20200000 2425886026 2425886026 15.00000000
-1.68011558 1.19753015 -0.55283749 4 0 30548 2.13600000 2425886047 2425886047 -15.00000000
-4.13884783 2.95112181 0.08872803 15 1 30549 5.08400000 2425886049 2425886049 1.00000000
-1.94663501 1.38852119 -0.55202991 3 2 30550 2.45400000 2425886051 2425886051 -13.00000000
-4.13329077 2.94824791 0.26607600 12 3 30550 5.08400000 2425886054 2425886054 3.00000000
-2.28850341 1.63297629 -0.54647696 3 4 30551 2.86400000 2425886056 2425886056 -11.00000000
-4.13515949 2.95175886 0.44449428 10 5 30552 5.10000000 2425886058 2425886058 5.00000000
-2.80201888 2.00087500 -0.54533052 3 6 30553 3.48600000 2425886060 2425886060 -9.00000000
-4.12221813 2.94469404 0.62202114 9 7 30554 5.10400000 2425886063 2425886063 7.00000000
-3.65332866 2.61070728 -0.55133688 38 8 30555 4.52400000 2425886065 2425886065 -7.00000000
-4.11708975 2.94320130 0.80157018 83 9 30556 5.12400000 2425886067 2425886067 9.00000000
-3.81541657 2.72754312 -0.41032922 8 10 30556 4.70800000 2425886070 2425886070 -5.00000000
-4.11207342 2.94070005 0.98266631 78 11 30557 5.15000000 2425886072 2425886072 11.00000000
-4.15028715 2.96912313 -0.26743674 10 12 30558 5.11000000 2425886074 2425886074 -3.00000000
-4.09967089 2.93399382 1.16389680 67 13 30559 5.17400000 2425886077 2425886077 13.00000000
-4.12992287 2.95673418 -0.08865822 8 14 30560 5.08000000 2425886079 2425886079 -1.00000000
-4.09976196 2.93514132 1.35103536 19 15 30560 5.22000000 2425886081 2425886081 15.00000000
-1.67592514 1.20338750 -0.55283749 4 0 30568 2.13600000 2425886102 2425886102 -15.00000000
-4.14313841 2.97605085 0.08904218 13 1 30569 5.10200000 2425886104 2425886104 1.00000000
-1.94177628 1.39530778 -0.55202991 3 2 30570 2.45400000 2425886106 2425886106 -13.00000000
-4.13595009 2.97198153 0.26691338 10 3 30570 5.10000000 2425886109 2425886109 3.00000000
-2.27960086 1.63866282 -0.54571372 2 4 30571 2.86000000 2425886111 2425886111 -11.00000000
-4.13130093 2.97082829 0.44519153 10 5 30572 5.10800000 2425886113 2425886113 5.00000000
-2.78860307 2.00602961 -0.54407907 1 6 30573 3.47800000 2425886116 2425886116 -9.00000000
-4.13286066 2.97413874 0.62518972 11 7 30574 5.13000000 2425886118 2425886118 7.00000000
-3.66674805 2.63968086 -0.55474925 28 8 30575 4.55200000 2425886120 2425886120 -7.00000000
-4.10999680 2.95986342 0.80219597 81 9 30576 5.12800000 2425886123 2425886123 9.00000000
-3.91257906 2.81769085 -0.42183378 23 10 30576 4.84000000 2425886125 2425886125 -5.00000000
-4.11771297 2.96651196 0.98648250 39 11 30577 5.17000000 2425886127 2425886127 11.00000000
-4.13665724 2.98125672 -0.26722738 10 12 30578 5.10600000 2425886130 2425886130 -3.00000000
-4.10205030 2.95740366 1.16749597 67 13 30579 5.19000000 2425886132 2425886132 13.00000000
-4.12606430 2.97581124 -0.08879784 8 14 30580 5.08800000 2425886134 2425886134 -1.00000000
-4.09105825 2.95056438 1.35155308 23 15 30580 5.22200000 2425886136 2425886136 15.00000000
-1.66858375 1.20696580 -0.55180222 4 0 30588 2.13200000 2425886157 2425886157 -15.00000000
-4.12948513 2.98815036 0.08897237 9 1 30589 5.09800000 2425886159 2425886159 1.00000000
-1.93373680 1.39979196 -0.55113006 3 2 30590 2.45000000 2425886162 2425886162 -13.00000000
-4.13473558 2.99414921 0.26754141 12 3 30591 5.11200000 2425886164 2425886164 3.00000000
-2.27068686 1.64430726 -0.54495049 3 4 30591 2.85600000 2425886166 2425886166 -11.00000000
-4.12251902 2.98639989 0.44536585 10 5 30592 5.11000000 2425886169 2425886169 5.00000000
-2.78958154 2.02154708 -0.54564339 1 6 30593 3.48800000 2425886171 2425886171 -9.00000000
-4.12727547 2.99204254 0.62592095 9 7 30594 5.13600000 2425886173 2425886173 7.00000000
-3.71375632 2.69325352 -0.56328011 64 8 30595 4.62200000 2425886176 2425886176 -7.00000000
-4.11455107 2.98391390 0.80501175 78 9 30595 5.14600000 2425886178 2425886178 9.00000000
-4.15268707 3.01267672 -0.44885206 12 10 30596 5.15000000 2425886180 2425886180 -5.00000000
-4.11845493 2.98893929 0.98915380 15 11 30597 5.18400000 2425886183 2425886183 11.00000000
-4.15855026 3.01914620 -0.26932085 10 12 30598 5.14600000 2425886185 2425886185 -3.00000000
-4.10431623 2.98086596 1.17109513 63 13 30599 5.20600000 2425886187 2425886187 13.00000000
-4.13506508 3.00430059 -0.08921670 8 14 30600 5.11200000 2425886189 2425886189 -1.00000000
-4.08334208 2.96781063 1.35258830 74 15 30601 5.22600000 2425886192 2425886192 15.00000000
-1.66123796 1.21050751 -0.55076694 4 0 30608 2.12800000 2425886212 2425886212 -15.00000000
-4.12387705 3.00608039 0.08907709 9 1 30609 5.10400000 2425886215 2425886215 1.00000000
-1.93513703 1.41112626 -0.55292970 3 2 30610 2.45800000 2425886217 2425886217 -13.00000000
-4.14092112 3.01961184 0.26858813 12 3 30610 5.13200000 2425886219 2425886219 3.00000000
-2.27762198 1.66147947 -0.54800344 2 4 30611 2.87200000 2425886222 2425886222 -11.00000000
-4.13138247 3.01486564 0.44745758 10 5 30612 5.13400000 2425886224 2425886224 5.00000000
-2.77133965 2.02311921 -0.54345334 3 6 30613 3.47400000 2425886226 2425886226 -9.00000000
-4.12802792 3.01462626 0.62762713 9 7 30614 5.15000000 2425886229 2425886229 7.00000000
-3.69150925 2.69683242 -0.56133020 38 8 30615 4.60600000 2425886231 2425886231 -7.00000000
-4.12272501 3.01296091 0.80876619 74 9 30616 5.17000000 2425886233 2425886233 9.00000000
-4.16144896 3.04126096 -0.45094383 12 10 30616 5.17400000 2425886236 2425886236 -5.00000000
-4.15443420 3.03835988 -0.26973951 10 12 30618 5.15400000 2425886240 2425886240 -3.00000000
-4.10646820 3.00437975 1.17469442 62 13 30619 5.22200000 2425886242 2425886242 13.00000000
-4.14391708 3.03288865 -0.08963556 8 14 30620 5.13600000 2425886245 2425886245 -1.00000000
-4.08698606 2.99231720 1.35724711 34 15 30621 5.24400000 2425886247 2425886247 15.00000000
-1.66011703 1.21858525 -0.55180222 4 0 30628 2.13200000 2425886268 2425886268 -15.00000000
-4.12625313 3.02992558 0.08935632 9 1 30629 5.12000000 2425886270 2425886270 1.00000000
-1.92077625 1.41095042 -0.55023026 3 2 30630 2.44600000 2425886272 2425886272 -13.00000000
-4.13035583 3.03404784 0.26858813 10 3 30630 5.13200000 2425886275 2425886275 3.00000000
-2.26548028 1.66476953 -0.54647696 3 4 30631 2.86400000 2425886277 2425886277 -11.00000000
-4.13207102 3.03752899 0.44867778 10 5 30632 5.14800000 2425886279 2425886279 5.00000000
-2.77540064 2.04097247 -0.54564339 3 6 30633 3.48800000 2425886282 2425886282 -9.00000000
-4.11907864 3.03019357 0.62787086 9 7 30634 5.15200000 2425886284 2425886284 7.00000000
-3.67248011 2.70264220 -0.55986774 34 8 30635 4.59400000 2425886286 2425886286 -7.00000000
-4.12543917 3.03598261 0.81126916 72 9 30635 5.18600000 2425886289 2425886289 9.00000000
-4.16364336 3.06521821 -0.45233831 12 10 30636 5.19000000 2425886291 2425886291 -5.00000000
-4.10223055 3.02111101 0.99029869 73 11 30637 5.19000000 2425886293 2425886293 11.00000000
-4.13897943 3.04928923 -0.26942551 10 12 30638 5.14800000 2425886295 2425886295 -3.00000000
-4.09909296 3.02100801 1.17559421 60 13 30639 5.22600000 2425886298 2425886298 13.00000000
-4.14940023 3.05920172 -0.08998461 8 14 30640 5.15600000 2425886300 2425886300 -1.00000000
-4.09361792 3.01917839 1.36294115 14 15 30641 5.26600000 2425886302 2425886302 15.00000000
-1.66206658 1.22896695 -0.55387276 4 0 30648 2.14000000 2425886323 2425886323 -15.00000000
-4.13494396 3.05858088 0.08977518 9 1 30649 5.14400000 2425886325 2425886325 1.00000000
-1.92523849 1.42460155 -0.55292970 3 2 30650 2.45800000 2425886328 2425886328 -13.00000000
-4.12616158 3.05319905 0.26900682 8 3 30650 5.14000000 2425886330 2425886330 3.00000000
-2.25965548 1.67266750 -0.54647696 3 4 30651 2.86400000 2425886332 2425886332 -11.00000000
-4.13745451 3.06379104 0.45042089 10 5 30652 5.16800000 2425886335 2425886335 5.00000000
-2.77460861 2.05535150 -0.54689491 3 6 30653 3.49600000 2425886337 2425886337 -9.00000000
-4.11645079 3.05046296 0.62908953 9 7 30654 5.16200000 2425886339 2425886339 7.00000000
-3.66302371 2.71544504 -0.55986774 10 8 30655 4.59400000 2425886342 2425886342 -7.00000000
-4.12116385 3.05507016 0.81252062 72 9 30655 5.19400000 2425886344 2425886344 9.00000000
-4.15771961 3.08329391 -0.45286125 12 10 30656 5.19600000 2425886346 2425886346 -5.00000000
-4.10742760 3.04710937 0.99411488 68 11 30657 5.21000000 2425886348 2425886348 11.00000000
-4.14595222 3.07681108 -0.27057689 10 12 30658 5.17000000 2425886351 2425886351 -3.00000000
-4.09478188 3.03994465 1.17739379 62 13 30659 5.23400000 2425886353 2425886353 13.00000000
-4.14190722 3.07605171 -0.09005442 10 14 30660 5.16000000 2425886355 2425886355 -1.00000000
-4.09856129 3.04497027 1.36811745 19 15 30661 5.28600000 2425886358 2425886358 15.00000000
-1.65445280 1.23274195 -0.55283749 4 0 30669 2.13600000 2425886378 2425886378 -15.00000000
-4.13813543 3.08447123 0.09008932 9 1 30670 5.16200000 2425886381 2425886381 1.00000000
-1.92000413 1.43164837 -0.55292970 3 2 30671 2.45800000 2425886383 2425886383 -13.00000000
-4.12935400 3.07904673 0.26994887 10 3 30671 5.15800000 2425886385 2425886385 3.00000000
-2.25036216 1.67859054 -0.54571372 3 4 30672 2.86000000 2425886388 2425886388 -11.00000000
-4.13418150 3.08489251 0.45129243 12 5 30673 5.17800000 2425886390 2425886390 5.00000000
-2.77338862 2.07023358 -0.54814637 3 6 30674 3.50400000 2425886392 2425886392 -9.00000000
-4.12432909 3.07978272 0.63201439 9 7 30675 5.18600000 2425886394 2425886394 7.00000000
-3.57989001 2.67420411 -0.54865581 6 8 30676 4.50200000 2425886397 2425886397 -7.00000000
-4.10677385 3.06779003 0.81189489 72 9 30676 5.19000000 2425886399 2425886399 9.00000000
-4.15277481 3.10328245 -0.45355847 12 10 30677 5.20400000 2425886401 2425886401 -5.00000000
-4.11195612 3.07389808 0.99793106 65 11 30678 5.23000000 2425886404 2425886404 11.00000000
-4.14744329 3.10155511 -0.27141428 10 12 30679 5.18600000 2425886406 2425886406 -3.00000000
-4.09297466 3.06193638 1.18009329 60 13 30680 5.24600000 2425886408 2425886408 13.00000000
-4.12900400 3.09001374 -0.09001951 14 14 30681 5.15800000 2425886411 2425886411 -1.00000000
-4.09409428 3.06388855 1.37018800 63 15 30681 5.29400000 2425886413 2425886413 15.00000000
-1.64395928 1.23387098 -0.55076694 4 0 30689 2.12800000 2425886434 2425886434 -15.00000000
-4.12574434 3.09769654 0.09005442 9 1 30690 5.16000000 2425886436 2425886436 1.00000000
-1.92434406 1.44536364 -0.55562907 3 2 30691 2.47000000 2425886438 2425886438 -13.00000000
-4.12656546 3.09943938 0.27047223 8 3 30691 5.16800000 2425886441 2425886441 3.00000000
-2.24762821 1.68879426 -0.54647696 3 4 30692 2.86400000 2425886443 2425886443 -11.00000000
-4.12020254 3.09691048 0.45094383 10 5 30693 5.17400000 2425886445 2425886445 5.00000000
-2.75509334 2.07159185 -0.54595625 1 6 30694 3.49000000 2425886447 2425886447 -9.00000000
-4.12624502 3.10370684 0.63396430 9 7 30695 5.20200000 2425886450 2425886450 7.00000000
-3.57687831 2.69145823 -0.54963076 14 8 30696 4.51000000 2425886452 2425886452 -7.00000000
-4.11024618 3.09279609 0.81471068 69 9 30696 5.20800000 2425886454 2425886454 9.00000000
-4.13395786 3.11176848 -0.45268694 12 10 30697 5.19400000 2425886457 2425886457 -5.00000000
-4.10433769 3.09059477 0.99869430 60 11 30698 5.23400000 2425886459 2425886459 11.00000000
-4.15414000 3.12923217 -0.27256566 10 12 30699 5.20800000 2425886461 2425886461 -3.00000000
-4.09471226 3.08558702 1.18369246 60 13 30700 5.26200000 2425886464 2425886464 13.00000000
-4.13575792 3.11764884 -0.09040347 12 14 30701 5.18000000 2425886466 2425886466 -1.00000000
-4.07820988 3.07538390 1.36863506 46 15 30702 5.28800000 2425886468 2425886468 15.00000000
-1.64602351 1.24397480 -0.55283749 4 0 30708 2.13600000 2425886489 2425886489 -15.00000000
-4.12502003 3.11859655 0.09026384 9 1 30709 5.17200000 2425886491 2425886491 1.00000000
-1.91332340 1.44703507 -0.55382949 3 2 30710 2.46200000 2425886494 2425886494 -13.00000000
-4.13005638 3.12467027 0.27141428 8 3 30711 5.18600000 2425886496 2425886496 3.00000000
-2.23888445 1.69386935 -0.54571372 3 4 30711 2.86000000 2425886498 2425886498 -11.00000000
-4.12579727 3.12258029 0.45268694 10 5 30712 5.19400000 2425886500 2425886500 5.00000000
-2.74348378 2.07713962 -0.54501766 1 6 30713 3.48400000 2425886503 2425886503 -9.00000000
-4.11751223 3.11857128 0.63420808 9 7 30714 5.20400000 2425886505 2425886505 7.00000000
-3.57426238 2.70809984 -0.55060571 12 8 30715 4.51800000 2425886507 2425886507 -7.00000000
-4.11413765 3.11714554 0.81752652 78 9 30715 5.22600000 2425886510 2425886510 9.00000000
-3.91084576 2.96419263 -0.42932919 12 10 30716 4.92600000 2425886512 2425886512 -5.00000000
-4.09719515 3.10656071 0.99945754 15 11 30717 5.23800000 2425886514 2425886514 11.00000000
-4.14374018 3.14299059 -0.27256566 10 12 30718 5.20800000 2425886517 2425886517 -3.00000000
-4.09066725 3.10386038 1.18549204 62 13 30719 5.27000000 2425886519 2425886519 13.00000000
-4.12858200 3.13376451 -0.09047327 14 14 30720 5.18400000 2425886521 2425886521 -1.00000000
-4.08699322 3.10219693 1.37484682 14 15 30720 5.31200000 2425886524 2425886524 15.00000000
-1.64474547 1.25205326 -0.55387276 4 0 30728 2.14000000 2425886544 2425886544 -15.00000000
-4.12683630 3.14266872 0.09054308 9 1 30729 5.18800000 2425886547 2425886547 1.00000000
-1.90205991 1.44898140 -0.55202991 3 2 30730 2.45400000 2425886549 2425886549 -13.00000000
-4.12547827 3.14391017 0.27183294 8 3 30731 5.19400000 2425886551 2425886551 3.00000000
-2.24388862 1.71000397 -0.54838502 3 4 30731 2.87400000 2425886553 2425886553 -11.00000000
-4.13071680 3.14904237 0.45443004 12 5 30732 5.21400000 2425886556 2425886556 5.00000000
-2.74092865 2.09029698 -0.54595625 1 6 30733 3.49000000 2425886558 2425886558 -9.00000000
-4.11449289 3.13894534 0.63542676 9 7 30734 5.21400000 2425886560 2425886560 7.00000000
-3.55374146 2.71212959 -0.54889953 16 8 30735 4.50400000 2425886563 2425886563 -7.00000000
-4.11995649 3.14538932 0.82096809 81 9 30736 5.24800000 2425886565 2425886565 9.00000000
-4.05725431 3.09751916 -0.44658601 9 10 30736 5.12400000 2425886567 2425886567 -5.00000000
-4.09568787 3.12799335 1.00174725 36 11 30737 5.25000000 2425886570 2425886570 11.00000000
-4.13909197 3.16228604 -0.27298436 10 12 30738 5.21600000 2425886572 2425886572 -3.00000000
-4.09064627 3.12640405 1.18864143 69 13 30739 5.28400000 2425886574 2425886574 13.00000000
-4.14303541 3.16758990 -0.09103175 12 14 30740 5.21600000 2425886577 2425886577 -1.00000000
-4.08480263 3.12419724 1.37795258 14 15 30741 5.32400000 2425886579 2425886579 15.00000000
-1.64343107 1.26013780 -0.55490804 4 0 30748 2.14400000 2425886600 2425886600 -15.00000000
-4.12853479 3.16679144 0.09082232 9 1 30749 5.20400000 2425886602 2425886602 1.00000000
-1.90162861 1.45917094 -0.55337960 4 2 30750 2.46000000 2425886604 2425886604 -13.00000000
-4.12556887 3.16680455 0.27256566 8 3 30751 5.20800000 2425886606 2425886606 3.00000000
-2.23323393 1.71423995 -0.54724020 3 4 30751 2.86800000 2425886609 2425886609 -11.00000000
-4.13550186 3.17557645 0.45617315 13 5 30752 5.23400000 2425886611 2425886611 5.00000000
-2.73518205 2.10105538 -0.54626918 3 6 30753 3.49200000 2425886613 2425886613 -9.00000000
-4.12082529 3.16659355 0.63810790 9 7 30754 5.23600000 2425886616 2425886616 7.00000000
-3.54110503 2.72209835 -0.54841202 14 8 30755 4.50000000 2425886618 2425886618 -7.00000000
-4.10793734 3.15783048 0.82065523 78 9 30755 5.24600000 2425886620 2425886620 9.00000000
-4.14276028 3.18575001 -0.45721903 9 10 30756 5.24600000 2425886623 2425886623 -5.00000000
-4.10341740 3.15663552 1.00632668 70 11 30757 5.27400000 2425886625 2425886625 11.00000000
-4.14702225 3.19133162 -0.27424040 10 12 30758 5.24000000 2425886627 2425886627 -3.00000000
-4.08588457 3.14541888 1.19044101 69 13 30759 5.29200000 2425886630 2425886630 13.00000000
-4.13670635 3.18569279 -0.09113646 10 14 30760 5.22200000 2425886632 2425886632 -1.00000000
-4.09737873 3.15540648 1.38571715 23 15 30760 5.35400000 2425886634 2425886634 15.00000000
-1.63596451 1.26350510 -0.55387276 4 0 30768 2.14000000 2425886655 2425886655 -15.00000000
-4.13960934 3.19829965 0.09131099 11 1 30769 5.23200000 2425886657 2425886657 1.00000000
-1.90114915 1.46937513 -0.55472928 4 2 30770 2.46600000 2425886659 2425886659 -13.00000000
-4.12081003 3.18607283 0.27298436 8 3 30771 5.21600000 2425886662 2425886662 3.00000000
-2.23034286 1.72442663 -0.54800344 3 4 30771 2.87200000 2425886664 2425886664 -11.00000000
-4.12596798 3.19121170 0.45634747 10 5 30772 5.23600000 2425886666 2425886666 5.00000000
-2.74032998 2.12026048 -0.54877210 3 6 30773 3.50800000 2425886669 2425886669 -9.00000000
-4.11916542 3.18824887 0.63957030 9 7 30774 5.24800000 2425886671 2425886671 7.00000000
-3.51431608 2.72107410 -0.54573095 8 8 30775 4.47800000 2425886673 2425886673 -7.00000000
-4.09945917 3.17528486 0.82128096 76 9 30776 5.25000000 2425886676 2425886676 9.00000000
-4.15051651 3.21483207 -0.45931077 13 10 30776 5.27000000 2425886678 2425886678 -5.00000000
-4.10168505 3.17815471 1.00861633 70 11 30777 5.28600000 2425886680 2425886680 11.00000000
-4.14848566 3.21557665 -0.27507779 10 12 30778 5.25600000 2425886682 2425886682 -3.00000000
-4.08412027 3.16682696 1.19314039 69 13 30779 5.30400000 2425886685 2425886685 13.00000000
-4.12556124 3.20011306 -0.09113646 10 14 30780 5.22200000 2425886687 2425886687 -1.00000000
-4.07815504 3.16448140 1.38312900 42 15 30781 5.34400000 2425886689 2425886689 15.00000000
-1.62893653 1.26626706 -0.55283749 4 0 30786 2.13600000 2425886710 2425886710 -15.00000000
-4.12638378 3.20883369 0.09124118 11 1 30787 5.22800000 2425886712 2425886712 1.00000000
-1.89959991 1.47773349 -0.55562907 3 2 30788 2.47000000 2425886715 2425886715 -13.00000000
-4.12654257 3.21126914 0.27403107 8 3 30789 5.23600000 2425886717 2425886717 3.00000000
-2.23111176 1.73624790 -0.54952991 3 4 30789 2.88000000 2425886719 2425886719 -11.00000000
-4.11434984 3.20293403 0.45617315 7 5 30790 5.23400000 2425886722 2425886722 5.00000000
-2.72430420 2.12157679 -0.54689491 1 6 30791 3.49600000 2425886724 2425886724 -9.00000000
-4.12478876 3.21337342 0.64200771 9 7 30792 5.26800000 2425886726 2425886726 7.00000000
-3.46660614 2.70159554 -0.53963745 8 8 30793 4.42800000 2425886729 2425886729 -7.00000000
-4.10404253 3.19836259 0.82409674 81 9 30793 5.26800000 2425886731 2425886731 9.00000000
-4.13725376 3.22540545 -0.45896214 9 10 30794 5.26600000 2425886733 2425886733 -5.00000000
-4.10096931 3.19826889 1.01090610 73 11 30795 5.29800000 2425886735 2425886735 11.00000000
-4.14781189 3.23596478 -0.27570581 10 12 30796 5.26800000 2425886738 2425886738 -3.00000000
-4.08951378 3.19163156 1.19763947 69 13 30797 5.32400000 2425886740 2425886740 13.00000000
-4.13282537 3.22659469 -0.09152042 12 14 30798 5.24400000 2425886742 2425886742 -1.00000000
-4.07940674 3.18488955 1.38675249 63 15 30798 5.35800000 2425886745 2425886745 15.00000000
-1.62146437 1.26956356 -0.55180222 4 0 30806 2.13200000 2425886765 2425886765 -15.00000000
-4.11988068 3.22691727 0.09134590 11 1 30807 5.23400000 2425886768 2425886768 1.00000000
-1.89443004 1.48435533 -0.55562907 3 2 30808 2.47000000 2425886770 2425886770 -13.00000000
-4.12631130 3.23427868 0.27476376 8 3 30809 5.25000000 2425886772 2425886772 3.00000000
-2.22812796 1.74644756 -0.55029315 3 4 30809 2.88400000 2425886775 2425886775 -11.00000000
-4.12195921 3.23202872 0.45826489 10 5 30810 5.25800000 2425886777 2425886777 5.00000000
-2.72154498 2.13473082 -0.54783350 3 6 30811 3.50200000 2425886779 2425886779 -9.00000000
-4.11823177 3.23142838 0.64273894 9 7 30812 5.27400000 2425886782 2425886782 7.00000000
-3.46027756 2.71613121 -0.54012495 12 8 30813 4.43200000 2425886784 2425886784 -7.00000000
-4.11093616 3.22802258 0.82785118 81 9 30814 5.29200000 2425886786 2425886786 9.00000000
-4.14164019 3.25213218 -0.46070525 13 10 30814 5.28600000 2425886788 2425886788 -5.00000000
-4.09286785 3.21499014 1.01166928 73 11 30815 5.30200000 2425886791 2425886791 11.00000000
-4.14120197 3.25412583 -0.27601984 11 12 30816 5.27400000 2425886793 2425886793 -3.00000000
-4.10132885 3.22395182 1.20438790 67 13 30817 5.35400000 2425886795 2425886795 13.00000000
-4.12939692 3.24718165 -0.09169494 8 14 30818 5.25400000 2425886798 2425886798 -1.00000000
