# .PCD v0.7 - Point Cloud Data file format
VERSION 0.7
FIELDS x y z intensity laser_id azimuth distance_m adjustedtime timestamp vertical_angle
SIZE 4 4 4 1 1 2 8 8 4 8
TYPE F F F U U U F U U F
COUNT 1 1 1 1 1 1 1 1 1 1
WIDTH 539
HEIGHT 1
VIEWPOINT 0 0 0 1 0 0 0
POINTS 539
DATA ascii
8.07210064 2.12822008 1.32218409 25 9 7523 8.45200000 2044623087 2044623087 9.00000000
6.64083481 1.75086486 -0.60085171 52 10 7523 6.89400000 2044623089 2044623089 -5.00000000
8.07419205 2.12726450 1.62302136 21 11 7524 8.50600000 2044623092 2044623092 11.00000000
8.02707005 2.11335111 -0.43501648 38 12 7525 8.31200000 2044623094 2044623094 -3.00000000
8.08873653 2.12807703 1.93097985 20 13 7526 8.58400000 2044623096 2044623096 13.00000000
8.03373146 2.11210656 -0.14499459 32 14 7527 8.30800000 2044623099 2044623099 -1.00000000
8.16884804 2.14610529 2.26311374 29 15 7528 8.74400000 2044623101 2044623101 15.00000000
2.18304443 0.57067525 -0.60460126 4 0 7535 2.33600000 2044623122 2044623122 -15.00000000
8.04090881 2.10049558 0.14506440 31 1 7536 8.31200000 2044623124 2044623124 1.00000000
2.55681419 0.66742998 -0.61006725 9 2 7537 2.71200000 2044623126 2044623126 -13.00000000
8.05660057 2.10309267 0.43637720 23 3 7537 8.33800000 2044623129 2044623129 3.00000000
3.10028815 0.80872035 -0.62280059 5 4 7538 3.26400000 2044623131 2044623131 -11.00000000
8.08588886 2.10772324 0.73106235 18 5 7539 8.38800000 2044623133 2044623133 5.00000000
3.87861633 1.01030385 -0.63481104 6 6 7540 4.05800000 2044623135 2044623135 -9.00000000
8.15113926 2.12169385 1.03418326 49 7 7541 8.48600000 2044623138 2044623138 7.00000000
5.23902130 1.36271012 -0.66467541 6 8 7542 5.45400000 2044623140 2044623140 -7.00000000
6.64304924 1.72667098 -0.60050309 52 10 7543 6.89000000 2044623145 2044623145 -5.00000000
8.03826427 2.08632207 -0.43522581 21 12 7545 8.31600000 2044623149 2044623149 -3.00000000
8.06622028 2.09057283 -0.14544836 16 14 7547 8.33400000 2044623154 2044623154 -1.00000000
8.21332169 2.12869811 2.27346659 45 15 7547 8.78400000 2044623156 2044623156 15.00000000
2.19250607 0.56497979 -0.60667187 4 0 7555 2.34400000 2044623177 2044623177 -15.00000000
8.12952614 2.09335828 0.14653040 12 1 7556 8.39600000 2044623179 2044623179 1.00000000
2.56856465 0.66092908 -0.61231679 7 2 7557 2.72200000 2044623181 2044623181 -13.00000000
8.16447449 2.10083795 0.44182014 68 3 7557 8.44200000 2044623184 2044623184 3.00000000
3.09548664 0.79593778 -0.62127411 5 4 7558 3.25600000 2044623186 2044623186 -11.00000000
8.18968201 2.10427666 0.73977792 100 5 7559 8.48800000 2044623188 2044623188 5.00000000
3.88977265 0.99872386 -0.63606256 6 6 7560 4.06600000 2044623191 2044623191 -9.00000000
8.17964745 2.09865475 1.03686440 99 7 7561 8.50800000 2044623193 2044623193 7.00000000
5.23605442 1.34244227 -0.66370046 9 8 7562 5.44600000 2044623195 2044623195 -7.00000000
6.64710617 1.70297742 -0.60032874 44 10 7563 6.88800000 2044623200 2044623200 -5.00000000
8.14418030 2.08349609 -0.44056407 17 12 7565 8.41800000 2044623205 2044623205 -3.00000000
8.16259193 2.08517098 -0.14705397 14 14 7567 8.42600000 2044623209 2044623209 -1.00000000
8.22257423 2.10049343 2.27398419 51 15 7567 8.78600000 2044623211 2044623211 15.00000000
2.18884778 0.55589652 -0.60511893 4 0 7575 2.33800000 2044623232 2044623232 -15.00000000
8.16973400 2.07333040 0.14712378 12 1 7576 8.43000000 2044623234 2044623234 1.00000000
2.57085609 0.65195912 -0.61231679 7 2 7577 2.72200000 2044623237 2044623237 -13.00000000
8.17986393 2.07286215 0.44223884 89 3 7578 8.45000000 2044623239 2044623239 3.00000000
3.09634304 0.78464538 -0.62089247 5 4 7578 3.25400000 2044623241 2044623241 -11.00000000
8.16993713 2.06882930 0.73733759 79 5 7579 8.46000000 2044623244 2044623244 5.00000000
3.88940501 0.98417079 -0.63543677 6 6 7580 4.06200000 2044623246 2044623246 -9.00000000
8.18307400 2.06911635 1.03637695 99 7 7581 8.50400000 2044623248 2044623248 7.00000000
5.24070835 1.32415688 -0.66370046 9 8 7582 5.44600000 2044623251 2044623251 -7.00000000
6.63369226 1.67488694 -0.59858567 40 10 7583 6.86800000 2044623255 2044623255 -5.00000000
8.15915012 2.05700803 -0.44098276 17 12 7585 8.42600000 2044623260 2044623260 -3.00000000
8.16788197 2.05617738 -0.14701907 12 14 7587 8.42400000 2044623264 2044623264 -1.00000000
8.22272301 2.06845689 2.27191353 49 15 7588 8.77800000 2044623267 2044623267 15.00000000
2.17203426 0.54356265 -0.59994256 4 0 7595 2.31800000 2044623287 2044623287 -15.00000000
8.15752220 2.03994870 0.14677474 12 1 7596 8.41000000 2044623290 2044623290 1.00000000
2.57689738 0.64392602 -0.61321658 7 2 7597 2.72600000 2044623292 2044623292 -13.00000000
8.17506599 2.04282022 0.44161081 100 3 7597 8.43800000 2044623294 2044623294 3.00000000
3.10287261 0.77478355 -0.62165570 5 4 7598 3.25800000 2044623297 2044623297 -11.00000000
8.16357708 2.03692198 0.73611742 83 5 7599 8.44600000 2044623299 2044623299 5.00000000
3.89856696 0.97202188 -0.63637543 6 6 7600 4.06800000 2044623301 2044623301 -9.00000000
8.18639374 2.03957963 1.03588939 97 7 7601 8.50000000 2044623304 2044623304 7.00000000
5.24529886 1.30585527 -0.66370046 9 8 7602 5.44600000 2044623306 2044623306 -7.00000000
6.63563156 1.65075886 -0.59823704 40 10 7603 6.86400000 2044623311 2044623311 -5.00000000
8.16434193 2.02803326 -0.44087809 12 12 7605 8.42400000 2044623315 2044623315 -3.00000000
8.15754128 2.02332091 -0.14670493 12 14 7607 8.40600000 2044623320 2044623320 -1.00000000
8.20926762 2.03462958 2.26621962 49 15 7608 8.75600000 2044623322 2044623322 15.00000000
2.18132710 0.53820807 -0.60201311 4 0 7614 2.32600000 2044623343 2044623343 -15.00000000
8.15259266 2.01001406 0.14656530 12 1 7615 8.39800000 2044623345 2044623345 1.00000000
2.57145000 0.63351256 -0.61141694 7 2 7616 2.71800000 2044623347 2044623347 -13.00000000
8.18179607 2.01569939 0.44161081 100 3 7616 8.43800000 2044623350 2044623350 3.00000000
3.10161209 0.76355124 -0.62089247 5 4 7617 3.25400000 2044623352 2044623352 -11.00000000
8.17028713 2.00983930 0.73611742 83 5 7618 8.44600000 2044623354 2044623354 5.00000000
3.88066769 0.95390165 -0.63293386 6 6 7619 4.04600000 2044623357 2044623357 -9.00000000
8.17576218 2.00815988 1.03369582 100 7 7620 8.48200000 2044623359 2044623359 7.00000000
5.26116753 1.29129314 -0.66516286 9 8 7621 5.45800000 2044623361 2044623361 -7.00000000
8.16714287 1.99999797 -0.44066876 12 12 7624 8.42000000 2044623370 2044623370 -3.00000000
8.16226387 1.99578345 -0.14667003 12 14 7626 8.40400000 2044623375 2044623375 -1.00000000
8.20846272 2.00556135 2.26414895 49 15 7627 8.74800000 2044623377 2044623377 15.00000000
2.19257855 0.53287166 -0.60460126 4 0 7634 2.33600000 2044623398 2044623398 -15.00000000
8.14789963 1.97871256 0.14635588 12 1 7635 8.38600000 2044623400 2044623400 1.00000000
2.57175183 0.62407309 -0.61096704 9 2 7636 2.71600000 2044623403 2044623403 -13.00000000
8.16549110 1.98147535 0.44035473 91 3 7636 8.41400000 2044623405 2044623405 3.00000000
3.10616660 0.75318259 -0.62127411 5 4 7637 3.25600000 2044623407 2044623407 -11.00000000
8.16950798 1.97943079 0.73542017 76 5 7638 8.43800000 2044623410 2044623410 5.00000000
3.88397384 0.94034976 -0.63293386 6 6 7639 4.04600000 2044623412 2044623412 -9.00000000
8.16342831 1.97494113 1.03125834 99 7 7640 8.46200000 2044623414 2044623414 7.00000000
5.25406599 1.27012169 -0.66370046 6 8 7641 5.44600000 2044623417 2044623417 -7.00000000
6.62734699 1.60087538 -0.59649390 12 10 7642 6.84400000 2044623421 2044623421 -5.00000000
8.15465832 1.96679425 -0.43962204 12 12 7644 8.40000000 2044623426 2044623426 -3.00000000
8.15946007 1.96493876 -0.14649551 12 14 7646 8.39400000 2044623430 2044623430 -1.00000000
8.21165657 1.97599232 2.26311374 47 15 7647 8.74400000 2044623433 2044623433 15.00000000
2.19818282 0.52611423 -0.60563654 4 0 7654 2.34000000 2044623453 2044623453 -15.00000000
8.15864658 1.95118928 0.14642569 12 1 7655 8.39000000 2044623456 2044623456 1.00000000
2.57201934 0.61463928 -0.61051714 7 2 7656 2.71400000 2044623458 2044623458 -13.00000000
8.15681744 1.94924664 0.43951735 99 3 7656 8.39800000 2044623460 2044623460 3.00000000
3.11259580 0.74324739 -0.62203735 5 4 7657 3.26000000 2044623463 2044623463 -11.00000000
8.16861534 1.94905221 0.73472291 76 5 7658 8.43000000 2044623465 2044623465 5.00000000
3.90068316 0.92999333 -0.63512391 6 6 7659 4.06000000 2044623467 2044623467 -9.00000000
8.17413425 1.94735348 1.03174591 100 7 7660 8.46600000 2044623469 2044623469 7.00000000
5.25460529 1.25085437 -0.66321295 9 8 7661 5.44200000 2044623472 2044623472 -7.00000000
6.63289499 1.57773185 -0.59649390 16 10 7662 6.84400000 2044623476 2044623476 -5.00000000
8.15758801 1.93739426 -0.43941268 12 12 7664 8.39600000 2044623481 2044623481 -3.00000000
8.15459538 1.93367672 -0.14628607 14 14 7666 8.38200000 2044623486 2044623486 -1.00000000
8.22004414 1.94919646 2.26363134 56 15 7666 8.74600000 2044623488 2044623488 15.00000000
2.19624543 0.51755172 -0.60460126 4 0 7674 2.33600000 2044623509 2044623509 -15.00000000
8.16346169 1.92224002 0.14639078 18 1 7675 8.38800000 2044623511 2044623511 1.00000000
2.58173680 0.60744280 -0.61231679 7 2 7676 2.72200000 2044623513 2044623513 -13.00000000
8.15579510 1.91893244 0.43909869 99 3 7676 8.39000000 2044623516 2044623516 3.00000000
3.09797096 0.72833407 -0.61860275 5 4 7677 3.24200000 2044623518 2044623518 -11.00000000
8.15015411 1.91460311 0.73245686 76 5 7678 8.40400000 2044623520 2044623520 5.00000000
3.90967512 0.91772598 -0.63606256 6 6 7679 4.06600000 2044623522 2044623522 -9.00000000
8.18474770 1.91971517 1.03223336 99 7 7680 8.47000000 2044623525 2044623525 7.00000000
5.26473761 1.23386371 -0.66394418 9 8 7681 5.44800000 2044623527 2044623527 -7.00000000
6.63254213 1.55320632 -0.59597099 28 10 7682 6.83800000 2044623532 2044623532 -5.00000000
8.16235638 1.90845239 -0.43930802 17 12 7684 8.39400000 2044623536 2044623536 -3.00000000
8.13597965 1.89929032 -0.14583232 16 14 7686 8.35600000 2044623541 2044623541 -1.00000000
8.20831966 1.91466689 2.25845504 51 15 7687 8.72600000 2044623543 2044623543 15.00000000
2.19230413 0.50895524 -0.60304838 4 0 7693 2.33000000 2044623564 2044623564 -15.00000000
8.15225983 1.89109159 0.14607663 15 1 7694 8.37000000 2044623566 2044623566 1.00000000
2.57804179 0.59755802 -0.61096704 9 2 7695 2.71600000 2044623569 2044623569 -13.00000000
8.16244316 1.89045179 0.43909869 99 3 7696 8.39000000 2044623571 2044623571 3.00000000
3.10993242 0.72027171 -0.62051088 9 4 7696 3.25200000 2044623573 2044623573 -11.00000000
8.15257645 1.88666737 0.73210824 76 5 7697 8.40000000 2044623575 2044623575 5.00000000
3.89345098 0.90030563 -0.63293386 6 6 7698 4.04600000 2044623578 2044623578 -9.00000000
8.17946339 1.88988173 1.03077090 99 7 7699 8.45800000 2044623580 2044623580 7.00000000
5.26106358 1.21461225 -0.66296923 9 8 7700 5.44000000 2044623582 2044623582 -7.00000000
6.62989044 1.52941203 -0.59527373 24 10 7701 6.83000000 2044623587 2044623587 -5.00000000
8.16669369 1.88092625 -0.43920335 17 12 7703 8.39200000 2044623592 2044623592 -3.00000000
8.25158787 1.89896238 1.95482469 3 13 7704 8.69000000 2044623594 2044623594 13.00000000
8.15002823 1.87409258 -0.14597192 16 14 7705 8.36400000 2044623596 2044623596 -1.00000000
8.19923210 1.88540685 2.25431395 54 15 7705 8.71000000 2044623599 2044623599 15.00000000
2.19406724 0.50129956 -0.60304838 4 0 7713 2.33000000 2044623619 2044623619 -15.00000000
8.13541603 1.85728252 0.14565778 15 1 7714 8.34600000 2044623622 2044623622 1.00000000
2.58581185 0.58985549 -0.61231679 7 2 7715 2.72200000 2044623624 2044623624 -13.00000000
8.16509819 1.86106026 0.43888932 100 3 7716 8.38600000 2044623626 2044623626 3.00000000
3.11817002 0.71072048 -0.62165570 15 4 7716 3.25800000 2044623628 2044623628 -11.00000000
8.15134239 1.85642838 0.73141098 76 5 7717 8.39200000 2044623631 2044623631 5.00000000
3.90427446 0.88846272 -0.63418531 6 6 7718 4.05400000 2044623633 2044623633 -9.00000000
8.16471767 1.85647702 1.02808976 97 7 7719 8.43600000 2044623635 2044623635 7.00000000
5.27107859 1.19755960 -0.66370046 9 8 7720 5.44600000 2044623638 2044623638 -7.00000000
6.63907480 1.50714231 -0.59562236 16 10 7721 6.83400000 2044623642 2044623642 -5.00000000
8.15567875 1.84843457 -0.43826130 17 12 7723 8.37400000 2044623647 2044623647 -3.00000000
8.25626564 1.86971700 1.95437479 3 13 7724 8.68800000 2044623649 2044623649 13.00000000
8.14676857 1.84342551 -0.14579740 18 14 7725 8.35400000 2044623652 2044623652 -1.00000000
8.20420361 1.85491645 2.25379634 47 15 7726 8.70800000 2044623654 2044623654 15.00000000
2.19957352 0.49448523 -0.60408366 4 0 7733 2.33400000 2044623675 2044623675 -15.00000000
8.14185047 1.82887328 0.14565778 18 1 7734 8.34600000 2044623677 2044623677 1.00000000
2.58405209 0.57997221 -0.61141694 7 2 7735 2.71800000 2044623679 2044623679 -13.00000000
8.16374969 1.83079922 0.43847063 100 3 7736 8.37800000 2044623681 2044623681 3.00000000
3.13021040 0.70197976 -0.62356383 13 4 7736 3.26800000 2044623684 2044623684 -11.00000000
8.15971661 1.82839918 0.73158532 79 5 7737 8.39400000 2044623686 2044623686 5.00000000
3.90349674 0.87396568 -0.63355958 6 6 7738 4.05000000 2044623688 2044623688 -9.00000000
8.16339970 1.82623208 1.02711487 97 7 7739 8.42800000 2044623691 2044623691 7.00000000
5.26747751 1.17742074 -0.66272551 9 8 7740 5.43800000 2044623693 2044623693 -7.00000000
6.64040613 1.48308980 -0.59527373 12 10 7741 6.83000000 2044623698 2044623698 -5.00000000
8.15233421 1.81778133 -0.43773794 17 12 7743 8.36400000 2044623702 2044623702 -3.00000000
8.25132942 1.83834326 1.95167530 3 13 7744 8.67600000 2044623705 2044623705 13.00000000
8.16681767 1.81801844 -0.14604174 16 14 7745 8.36800000 2044623707 2044623707 -1.00000000
8.21219540 1.82811999 2.25431395 51 15 7745 8.71000000 2044623709 2044623709 15.00000000
2.19751358 0.48596999 -0.60304838 4 0 7753 2.33000000 2044623730 2044623730 -15.00000000
8.14818478 1.80044186 0.14565778 18 1 7754 8.34600000 2044623732 2044623732 1.00000000
2.58225513 0.57010841 -0.61051714 7 2 7755 2.71400000 2044623734 2044623734 -13.00000000
8.14863586 1.79755855 0.43731925 100 3 7756 8.35600000 2044623737 2044623737 3.00000000
3.13072443 0.69062608 -0.62318218 5 4 7756 3.26600000 2044623739 2044623739 -11.00000000
8.15632057 1.79776108 0.73071373 83 5 7757 8.38400000 2044623741 2044623741 5.00000000
3.91038179 0.86118430 -0.63418531 6 6 7758 4.05400000 2044623744 2044623744 -9.00000000
8.17166328 1.79815197 1.02735853 99 7 7759 8.43000000 2044623746 2044623746 7.00000000
5.26380014 1.15732157 -0.66175056 9 8 7760 5.43000000 2044623748 2044623748 -7.00000000
6.64165068 1.45904648 -0.59492511 12 10 7761 6.82600000 2044623753 2044623753 -5.00000000
8.15082645 1.78760183 -0.43731925 17 12 7763 8.35600000 2044623757 2044623757 -3.00000000
8.23865986 1.80535817 1.94717634 3 13 7764 8.65600000 2044623760 2044623760 13.00000000
8.14381218 1.78308427 -0.14551817 16 14 7765 8.33800000 2044623762 2044623762 -1.00000000
8.21506596 1.79718280 2.25327849 56 15 7766 8.70600000 2044623764 2044623764 15.00000000
2.20297194 0.47911739 -0.60408366 4 0 7773 2.33400000 2044623785 2044623785 -15.00000000
8.15441990 1.77198839 0.14565778 18 1 7774 8.34600000 2044623787 2044623787 1.00000000
2.59184694 0.56274509 -0.61231679 7 2 7775 2.72200000 2044623790 2044623790 -13.00000000
8.15486145 1.76910365 0.43731925 100 3 7776 8.35600000 2044623792 2044623792 3.00000000
3.13311601 0.67969358 -0.62318218 5 4 7776 3.26600000 2044623794 2044623794 -11.00000000
8.15086365 1.76674688 0.72966790 76 5 7777 8.37200000 2044623797 2044623797 5.00000000
3.92880917 0.85087425 -0.63668829 6 6 7778 4.07000000 2044623799 2044623799 -9.00000000
8.17012978 1.76793718 1.02638364 99 7 7779 8.42200000 2044623801 2044623801 7.00000000
5.26392746 1.13810146 -0.66126305 9 8 7780 5.42600000 2044623804 2044623804 -7.00000000
6.64280844 1.43501246 -0.59457648 8 10 7781 6.82200000 2044623808 2044623808 -5.00000000
8.15896893 1.75956023 -0.43742391 17 12 7783 8.35800000 2044623813 2044623813 -3.00000000
8.24491215 1.77658880 1.94717634 3 13 7784 8.65600000 2044623815 2044623815 13.00000000
8.13434792 1.75127923 -0.14523892 14 14 7785 8.32200000 2044623817 2044623817 -1.00000000
8.20775986 1.76708460 2.24965525 49 15 7785 8.69200000 2044623820 2044623820 15.00000000
2.18951774 0.46819296 -0.59994256 4 0 7793 2.31800000 2044623840 2044623840 -15.00000000
8.15273285 1.74184215 0.14551817 18 1 7794 8.33800000 2044623843 2044623843 1.00000000
2.59379530 0.55369443 -0.61231679 7 2 7795 2.72200000 2044623845 2044623845 -13.00000000
8.16489315 1.74146032 0.43752858 100 3 7796 8.36000000 2044623847 2044623847 3.00000000
3.12586927 0.66670525 -0.62127411 5 4 7796 3.25600000 2044623850 2044623850 -11.00000000
8.14723778 1.73620796 0.72879630 79 5 7797 8.36200000 2044623852 2044623852 5.00000000
3.91243458 0.83304113 -0.63355958 6 6 7798 4.05000000 2044623854 2044623854 -9.00000000
8.17625141 1.73940742 1.02638364 100 7 7799 8.42200000 2044623857 2044623857 7.00000000
5.27175140 1.12054539 -0.66175056 9 8 7800 5.43000000 2044623859 2044623859 -7.00000000
6.62828779 1.40767694 -0.59283334 8 10 7801 6.80200000 2044623863 2044623863 -5.00000000
8.15724564 1.72941256 -0.43700522 17 12 7803 8.35000000 2044623868 2044623868 -3.00000000
8.25487614 1.74860561 1.94807613 3 13 7804 8.66000000 2044623870 2044623870 13.00000000
8.14823627 1.72453058 -0.14537854 14 14 7805 8.33000000 2044623873 2044623873 -1.00000000
8.20284176 1.73459172 2.24654937 49 15 7806 8.68000000 2044623875 2044623875 15.00000000
2.19475865 0.46210814 -0.60097784 4 0 7811 2.32200000 2044623896 2044623896 -15.00000000
8.14251041 1.71292770 0.14523892 15 1 7812 8.32200000 2044623898 2044623898 1.00000000
2.58789372 0.54393971 -0.61051714 7 2 7813 2.71400000 2044623900 2044623900 -13.00000000
8.16055107 1.71374857 0.43700522 99 3 7814 8.35000000 2044623903 2044623903 3.00000000
3.12794828 0.65688175 -0.62127411 5 4 7814 3.25600000 2044623905 2044623905 -11.00000000
8.14485264 1.70896757 0.72809905 76 5 7815 8.35400000 2044623907 2044623907 5.00000000
3.91696572 0.82115108 -0.63387245 6 6 7816 4.05200000 2044623910 2044623910 -9.00000000
8.17196083 1.71167755 1.02516496 95 7 7817 8.41200000 2044623912 2044623912 7.00000000
5.26747370 1.10235167 -0.66077560 6 8 7818 5.42200000 2044623914 2044623914 -7.00000000
6.64047813 1.38847780 -0.59353060 12 10 7819 6.81000000 2044623919 2044623919 -5.00000000
8.15481853 1.70214498 -0.43658656 17 12 7821 8.34200000 2044623923 2044623923 -3.00000000
8.25842094 1.72226572 1.94762623 3 13 7822 8.65800000 2044623926 2044623926 13.00000000
8.15165615 1.69851577 -0.14534365 16 14 7823 8.32800000 2044623928 2044623928 -1.00000000
8.20795155 1.71024573 2.24654937 47 15 7823 8.68000000 2044623930 2044623930 15.00000000
2.20392561 0.45600989 -0.60304838 4 0 7831 2.33000000 2044623951 2044623951 -15.00000000
8.15235615 1.68530428 0.14530873 15 1 7832 8.32600000 2044623953 2044623953 1.00000000
2.58595991 0.53411460 -0.60961735 7 2 7833 2.71000000 2044623956 2044623956 -13.00000000
8.16257095 1.68444514 0.43679589 100 3 7834 8.34600000 2044623958 2044623958 3.00000000
3.13791323 0.64754629 -0.62280059 5 4 7834 3.26400000 2044623960 2044623960 -11.00000000
8.15271950 1.68092859 0.72827339 76 5 7835 8.35600000 2044623963 2044623963 5.00000000
3.91787338 0.80707479 -0.63355958 9 6 7836 4.05000000 2044623965 2044623965 -9.00000000
8.16038704 1.67954016 1.02297127 100 7 7837 8.39400000 2044623967 2044623967 7.00000000
5.26545620 1.08275855 -0.66004437 9 8 7838 5.41600000 2044623969 2044623969 -7.00000000
6.69602680 1.37571490 -0.59806269 4 10 7839 6.86200000 2044623974 2044623974 -5.00000000
8.13331890 1.66805124 -0.43512115 17 12 7841 8.31400000 2044623979 2044623979 -3.00000000
8.24911022 1.69029844 1.94402707 3 13 7842 8.64200000 2044623981 2044623981 13.00000000
8.15165901 1.66884768 -0.14523892 14 14 7843 8.32200000 2044623983 2044623983 -1.00000000
8.21037960 1.67937636 2.24551415 47 15 7844 8.67600000 2044623986 2044623986 15.00000000
2.20936847 0.44869801 -0.60408366 4 0 7852 2.33400000 2044624006 2044624006 -15.00000000
8.14671993 1.65302718 0.14509931 18 1 7853 8.31400000 2044624009 2044624009 1.00000000
2.58980989 0.52502018 -0.61006725 6 2 7854 2.71200000 2044624011 2044624011 -13.00000000
8.15890312 1.65253413 0.43627253 100 3 7855 8.33600000 2044624013 2044624013 3.00000000
3.12487197 0.63292307 -0.61974764 5 4 7855 3.24800000 2044624016 2044624016 -11.00000000
8.15101433 1.64945543 0.72757614 76 5 7856 8.34800000 2044624018 2044624018 5.00000000
3.92855000 0.79427546 -0.63481104 9 6 7857 4.05800000 2044624020 2044624020 -9.00000000
8.16843319 1.65001261 1.02321506 95 7 7858 8.39600000 2044624022 2044624022 7.00000000
5.26355219 1.06227434 -0.65931314 9 8 7859 5.41000000 2044624025 2044624025 -7.00000000
8.12091446 1.63746357 -0.72478718 17 10 7860 8.31600000 2044624029 2044624029 -5.00000000
8.14525127 1.63941216 -0.43543515 12 12 7862 8.32000000 2044624034 2044624034 -3.00000000
8.23805523 1.65659499 1.93997788 3 13 7863 8.62400000 2044624036 2044624036 13.00000000
8.14007568 1.63541412 -0.14492479 18 14 7864 8.30400000 2044624039 2044624039 -1.00000000
8.21240425 1.64994550 2.24447870 47 15 7864 8.67200000 2044624041 2044624041 15.00000000
2.21092129 0.44098315 -0.60408366 4 0 7872 2.33400000 2044624062 2044624062 -15.00000000
8.16028500 1.62614298 0.14523892 12 1 7873 8.32200000 2044624064 2044624064 1.00000000
2.59927177 0.51749891 -0.61186689 6 2 7874 2.72000000 2044624066 2044624066 -13.00000000
8.15090942 1.62131667 0.43553984 100 3 7875 8.32200000 2044624069 2044624069 3.00000000
3.13476443 0.62354344 -0.62127411 5 4 7875 3.25600000 2044624071 2044624071 -11.00000000
8.14499760 1.61866295 0.72653025 72 5 7876 8.33600000 2044624073 2044624073 5.00000000
3.93711138 0.78171152 -0.63574964 6 6 7877 4.06400000 2044624075 2044624075 -9.00000000
8.17219639 1.62110305 1.02297127 90 7 7878 8.39400000 2044624078 2044624078 7.00000000
5.26722813 1.04389465 -0.65931314 9 8 7879 5.41000000 2044624080 2044624080 -7.00000000
8.12462616 1.60871935 -0.72461283 17 10 7880 8.31400000 2044624085 2044624085 -5.00000000
8.14504623 1.60980821 -0.43512115 17 12 7882 8.31400000 2044624089 2044624089 -3.00000000
8.23040485 1.62518609 1.93682861 3 13 7883 8.61000000 2044624092 2044624092 13.00000000
8.13984966 1.60582888 -0.14482006 14 14 7884 8.29800000 2044624094 2044624094 -1.00000000
8.20295048 1.61827755 2.24033761 47 15 7884 8.65600000 2044624096 2044624096 15.00000000
2.19530940 0.43030471 -0.59942490 4 0 7891 2.31600000 2044624117 2044624117 -15.00000000
8.14993286 1.59599912 0.14495969 15 1 7892 8.30600000 2044624119 2044624119 1.00000000
2.59906101 0.50850242 -0.61141694 7 2 7893 2.71800000 2044624122 2044624122 -13.00000000
8.16016102 1.59504461 0.43574917 100 3 7894 8.32600000 2044624124 2044624124 3.00000000
3.13103461 0.61201489 -0.62012923 5 4 7894 3.25000000 2044624126 2044624126 -11.00000000
8.14249802 1.59011674 0.72583300 83 5 7895 8.32800000 2044624128 2044624128 5.00000000
3.92611027 0.76600337 -0.63355958 9 6 7896 4.05000000 2044624131 2044624131 -9.00000000
8.17168140 1.59285486 1.02224004 90 7 7897 8.38800000 2044624133 2044624133 7.00000000
5.27650595 1.02756047 -0.66004437 9 8 7898 5.41600000 2044624135 2044624135 -7.00000000
7.86980629 1.53116083 -0.70142943 21 10 7899 8.04800000 2044624140 2044624140 -5.00000000
8.14249802 1.58126640 -0.43470246 17 12 7901 8.30600000 2044624145 2044624145 -3.00000000
8.26253223 1.60308051 1.94312716 2 13 7902 8.63800000 2044624147 2044624147 13.00000000
8.14120293 1.57806623 -0.14475025 14 14 7903 8.29400000 2044624149 2044624149 -1.00000000
8.19689274 1.58886099 2.23723173 47 15 7903 8.64400000 2044624151 2044624151 15.00000000
2.19869518 0.42300400 -0.59994256 4 0 7911 2.31800000 2044624172 2044624172 -15.00000000
8.13974476 1.56452131 0.14468046 12 1 7912 8.29000000 2044624175 2044624175 1.00000000
2.60082030 0.49942690 -0.61141694 7 2 7913 2.71800000 2044624177 2044624177 -13.00000000
8.16764069 1.56692696 0.43585384 100 3 7914 8.32800000 2044624179 2044624179 3.00000000
3.14664841 0.60367107 -0.62280059 5 4 7914 3.26400000 2044624181 2044624181 -11.00000000
8.13821507 1.55980921 0.72496146 72 5 7915 8.31800000 2044624184 2044624184 5.00000000
3.91905951 0.75043654 -0.63199526 6 6 7916 4.04000000 2044624186 2044624186 -9.00000000
8.16354370 1.56170964 1.02053392 87 7 7917 8.37400000 2044624188 2044624188 7.00000000
5.27616119 1.00839043 -0.65955687 9 8 7918 5.41200000 2044624191 2044624191 -7.00000000
7.86140347 1.50106502 -0.70020926 17 10 7919 8.03400000 2044624195 2044624195 -5.00000000
8.14993000 1.55320811 -0.43480712 25 12 7921 8.30800000 2044624200 2044624200 -3.00000000
8.27382088 1.57532263 1.94447696 1 13 7922 8.64400000 2044624202 2044624202 13.00000000
8.14273357 1.54889119 -0.14468046 18 14 7923 8.29000000 2044624204 2044624204 -1.00000000
8.20455933 1.55916786 2.23774958 45 15 7924 8.64600000 2044624207 2044624207 15.00000000
2.20767879 0.41714525 -0.60201311 4 0 7930 2.32600000 2044624228 2044624228 -15.00000000
8.14488792 1.53752029 0.14468046 15 1 7931 8.29000000 2044624230 2044624230 1.00000000
2.58331227 0.48718804 -0.60691792 7 2 7932 2.69800000 2044624232 2044624232 -13.00000000
8.15709019 1.53687513 0.43501648 97 3 7933 8.31200000 2044624234 2044624234 3.00000000
3.14670372 0.59286958 -0.62241894 5 4 7933 3.26200000 2044624237 2044624237 -11.00000000
8.14334297 1.53281331 0.72496146 76 5 7934 8.31800000 2044624239 2044624239 5.00000000
3.92929196 0.73889661 -0.63324672 6 6 7935 4.04800000 2044624241 2044624241 -9.00000000
8.15892315 1.53279722 1.01931524 92 7 7936 8.36400000 2044624244 2044624244 7.00000000
5.27362299 0.98978996 -0.65882570 9 8 7937 5.40600000 2044624246 2044624246 -7.00000000
7.86242151 1.47425306 -0.69986063 17 10 7938 8.03000000 2044624251 2044624251 -5.00000000
8.13147736 1.52176464 -0.43355107 21 12 7940 8.28400000 2044624255 2044624255 -3.00000000
8.14585876 1.52151322 -0.14464554 12 14 7942 8.28800000 2044624260 2044624260 -1.00000000
8.21131611 1.53373945 2.23826718 47 15 7942 8.64800000 2044624262 2044624262 15.00000000
2.20342302 0.40838033 -0.60046017 4 0 7950 2.32000000 2044624283 2044624283 -15.00000000
8.15413761 1.50980806 0.14475025 15 1 7951 8.29400000 2044624285 2044624285 1.00000000
2.60032701 0.48100331 -0.61051714 7 2 7952 2.71400000 2044624287 2044624287 -13.00000000
8.15062141 1.50621450 0.43438843 97 3 7953 8.30000000 2044624290 2044624290 3.00000000
3.14296246 0.58081162 -0.62127411 5 4 7953 3.25600000 2044624292 2044624292 -11.00000000
8.14472580 1.50365496 0.72461283 76 5 7954 8.31400000 2044624294 2044624294 5.00000000
3.93184710 0.72517633 -0.63324672 6 6 7955 4.04800000 2044624297 2044624297 -9.00000000
8.16422367 1.50430787 1.01931524 90 7 7956 8.36400000 2044624299 2044624299 7.00000000
5.27314138 0.97065681 -0.65833819 9 8 7957 5.40200000 2044624301 2044624301 -7.00000000
7.87731743 1.44860077 -0.70073217 21 10 7958 8.04000000 2044624306 2044624306 -5.00000000
8.14263344 1.49445283 -0.43386507 17 12 7960 8.29000000 2044624310 2044624310 -3.00000000
8.15112019 1.49306965 -0.14464554 12 14 7962 8.28800000 2044624315 2044624315 -1.00000000
8.21281910 1.50437117 2.23723173 47 15 7962 8.64400000 2044624317 2044624317 15.00000000
2.21053720 0.40172270 -0.60201311 4 0 7970 2.32600000 2044624338 2044624338 -15.00000000
8.15148830 1.47990680 0.14461064 12 1 7971 8.28600000 2044624340 2044624340 1.00000000
2.59815526 0.47122800 -0.60961735 7 2 7972 2.71000000 2044624343 2044624343 -13.00000000
8.15360546 1.47882140 0.43428376 100 3 7972 8.29800000 2044624345 2044624345 3.00000000
3.14303875 0.56948709 -0.62089247 5 4 7973 3.25400000 2044624347 2044624347 -11.00000000
8.14600372 1.47450566 0.72426420 76 5 7974 8.31000000 2044624350 2044624350 5.00000000
3.93241072 0.71109569 -0.63293386 9 6 7975 4.04600000 2044624352 2044624352 -9.00000000
8.16942501 1.47580028 1.01931524 90 7 7976 8.36400000 2044624354 2044624354 7.00000000
5.27259064 0.95153910 -0.65785074 9 8 7977 5.39800000 2044624356 2044624356 -7.00000000
7.88036537 1.42074156 -0.70055789 17 10 7978 8.03800000 2044624361 2044624361 -5.00000000
8.14190292 1.46495950 -0.43355107 17 12 7980 8.28400000 2044624366 2044624366 -3.00000000
8.13266373 1.46036661 -0.14422669 12 14 7982 8.26400000 2044624370 2044624370 -1.00000000
8.19900608 1.47227955 2.23205543 47 15 7982 8.62400000 2044624373 2044624373 15.00000000
2.20051455 0.39197135 -0.59890729 4 0 7990 2.31400000 2044624393 2044624393 -15.00000000
8.14872932 1.45004249 0.14447102 18 1 7991 8.27800000 2044624396 2044624396 1.00000000
2.60554028 0.46317911 -0.61096704 9 2 7992 2.71600000 2044624398 2044624398 -13.00000000
8.15110493 1.44753003 0.43386507 99 3 7993 8.29000000 2044624400 2044624400 3.00000000
3.14307451 0.55816907 -0.62051088 5 4 7993 3.25200000 2044624403 2044624403 -11.00000000
8.13736820 1.44362569 0.72304404 72 5 7994 8.29600000 2044624405 2044624405 5.00000000
3.93681407 0.69770938 -0.63324672 6 6 7995 4.04800000 2044624407 2044624407 -9.00000000
8.17452717 1.44727468 1.01931524 92 7 7996 8.36400000 2044624409 2044624409 7.00000000
5.26806068 0.93174565 -0.65687579 6 8 7997 5.39000000 2044624412 2044624412 -7.00000000
7.87939072 1.39218521 -0.70003492 21 10 7998 8.03200000 2044624416 2044624416 -5.00000000
8.15680122 1.43826413 -0.43407443 17 12 8000 8.29400000 2044624421 2044624421 -3.00000000
8.13771248 1.43196952 -0.14422669 12 14 8002 8.26400000 2044624426 2044624426 -1.00000000
8.19673634 1.44088089 2.22998500 47 15 8003 8.61600000 2044624428 2044624428 15.00000000
2.20948172 0.38561630 -0.60097784 4 0 8010 2.32200000 2044624449 2044624449 -15.00000000
8.13995171 1.41918504 0.14422669 15 1 8011 8.26400000 2044624451 2044624451 1.00000000
2.60714126 0.45408127 -0.61096704 10 2 8012 2.71600000 2044624453 2044624453 -13.00000000
8.16176319 1.42152023 0.43417910 97 3 8012 8.29600000 2044624456 2044624456 3.00000000
3.14500380 0.54719430 -0.62051088 5 4 8013 3.25200000 2044624458 2044624458 -11.00000000
8.14628410 1.41589451 0.72339267 76 5 8014 8.30000000 2044624460 2044624460 5.00000000
3.92949414 0.68227345 -0.63168240 6 6 8015 4.03800000 2044624462 2044624462 -9.00000000
8.17170525 1.41737449 1.01834023 92 7 8016 8.35600000 2044624465 2044624465 7.00000000
5.27910471 0.91470659 -0.65785074 9 8 8017 5.39800000 2044624467 2044624467 -7.00000000
7.87438631 1.36297357 -0.69916338 17 10 8018 8.02200000 2044624472 2044624472 -5.00000000
8.12240982 1.40298378 -0.43198100 17 12 8020 8.25400000 2044624476 2044624476 -3.00000000
8.25563526 1.42451203 1.93412912 3 13 8021 8.59800000 2044624479 2044624479 13.00000000
8.14660263 1.40423417 -0.14429650 14 14 8022 8.26800000 2044624481 2044624481 -1.00000000
8.19766140 1.41303539 2.22894955 47 15 8022 8.61200000 2044624483 2044624483 15.00000000
2.21462274 0.37855241 -0.60201311 4 0 8030 2.32600000 2044624504 2044624504 -15.00000000
8.14091301 1.39008951 0.14415687 18 1 8031 8.26000000 2044624506 2044624506 1.00000000
2.59526348 0.44268417 -0.60781777 12 2 8032 2.70200000 2044624508 2044624508 -13.00000000
8.15289402 1.39067090 0.43344638 99 3 8032 8.28200000 2044624511 2044624511 3.00000000
3.15463614 0.53753197 -0.62203735 5 4 8033 3.26000000 2044624513 2044624513 -11.00000000
8.14724827 1.38678133 0.72304404 76 5 8034 8.29600000 2044624515 2044624515 5.00000000
3.93379927 0.66888398 -0.63199526 6 6 8035 4.04000000 2044624518 2044624518 -9.00000000
8.15703297 1.38551712 1.01590288 97 7 8036 8.33600000 2044624520 2044624520 7.00000000
5.27248001 0.89461315 -0.65663201 9 8 8037 5.38800000 2044624522 2044624522 -7.00000000
8.24418449 1.39735961 1.32437420 5 9 8038 8.46600000 2044624525 2044624525 9.00000000
7.94784880 1.34713185 -0.70526427 17 10 8038 8.09200000 2044624527 2044624527 -5.00000000
8.12725830 1.37462282 -0.43198100 17 12 8040 8.25400000 2044624532 2044624532 -3.00000000
8.15539837 1.37645423 -0.14436631 12 14 8042 8.27200000 2044624536 2044624536 -1.00000000
8.20635414 1.38505459 2.22998500 47 15 8042 8.61600000 2044624538 2044624538 15.00000000
2.21974134 0.37145734 -0.60304838 4 0 8050 2.33000000 2044624559 2044624559 -15.00000000
8.14768887 1.36199367 0.14419179 15 1 8051 8.26200000 2044624561 2044624561 1.00000000
2.59487081 0.43330136 -0.60736787 9 2 8052 2.70000000 2044624564 2044624564 -13.00000000
8.15202618 1.35979378 0.43313238 100 3 8053 8.27600000 2044624566 2044624566 3.00000000
3.15649319 0.52651691 -0.62203735 5 4 8053 3.26000000 2044624568 2044624568 -11.00000000
8.15203953 1.35833371 0.72304404 76 5 8054 8.29600000 2044624571 2044624571 5.00000000
3.93416142 0.65482402 -0.63168240 6 6 8055 4.03800000 2044624573 2044624573 -9.00000000
8.16377735 1.35736084 1.01614654 99 7 8056 8.33800000 2044624575 2044624575 7.00000000
5.27361250 0.87587804 -0.65638828 9 8 8057 5.38600000 2044624578 2044624578 -7.00000000
8.11957264 1.34709859 -0.72008073 17 10 8058 8.26200000 2044624582 2044624582 -5.00000000
8.13594723 1.34689736 -0.43219033 17 12 8060 8.25800000 2044624587 2044624587 -3.00000000
8.14042377 1.34471905 -0.14401726 14 14 8062 8.25200000 2044624591 2044624591 -1.00000000
8.20375156 1.35370934 2.22791433 49 15 8063 8.60800000 2044624594 2044624594 15.00000000
2.21339869 0.36245793 -0.60097784 4 0 8070 2.32200000 2044624614 2044624614 -15.00000000
8.15239334 1.33354461 0.14419179 15 1 8071 8.26200000 2044624617 2044624617 1.00000000
2.60790682 0.42612645 -0.61006725 7 2 8072 2.71200000 2044624619 2044624619 -13.00000000
8.15452003 1.33243120 0.43302771 100 3 8072 8.27400000 2044624621 2044624621 3.00000000
3.15443659 0.51486301 -0.62127411 5 4 8073 3.25600000 2044624624 2044624624 -11.00000000
8.15279865 1.32922828 0.72269541 76 5 8074 8.29200000 2044624626 2044624626 5.00000000
3.95202088 0.64362746 -0.63418531 9 6 8075 4.05400000 2044624628 2044624628 -9.00000000
8.16258812 1.32789946 1.01541531 95 7 8076 8.33200000 2044624631 2044624631 7.00000000
5.27271891 0.85682756 -0.65590084 9 8 8077 5.38200000 2044624633 2044624633 -7.00000000
8.11635876 1.31747079 -0.71938348 17 10 8078 8.25400000 2044624638 2044624638 -5.00000000
8.13862801 1.31817007 -0.43208566 17 12 8080 8.25600000 2044624642 2044624642 -3.00000000
8.12927532 1.31374335 -0.14373802 12 14 8082 8.23600000 2044624647 2044624647 -1.00000000
8.19698334 1.32321751 2.22480845 47 15 8083 8.59600000 2044624649 2044624649 15.00000000
2.21089721 0.35373259 -0.59994256 4 0 8091 2.31800000 2044624670 2044624670 -15.00000000
8.14142895 1.30113101 0.14391254 15 1 8092 8.24600000 2044624672 2044624672 1.00000000
2.61329985 0.41717952 -0.61096704 7 2 8093 2.71600000 2044624674 2044624674 -13.00000000
8.14948654 1.30096018 0.43250436 97 3 8093 8.26400000 2044624677 2044624677 3.00000000
3.15436387 0.50298882 -0.62089247 5 4 8094 3.25400000 2044624679 2044624679 -11.00000000
8.13990784 1.29651737 0.72112662 76 5 8095 8.27400000 2044624681 2044624681 5.00000000
3.95825505 0.62975901 -0.63481104 6 6 8096 4.05800000 2044624684 2044624684 -9.00000000
8.17132092 1.29859626 1.01590288 95 7 8097 8.33600000 2044624686 2044624686 7.00000000
5.27974510 0.83811879 -0.65638828 9 8 8098 5.38600000 2044624688 2044624688 -7.00000000
8.00306416 1.26899278 -0.70892483 17 10 8099 8.13400000 2044624693 2044624693 -5.00000000
8.14932251 1.28926802 -0.43239966 17 12 8101 8.26200000 2044624697 2044624697 -3.00000000
8.13206005 1.28362739 -0.14370312 14 14 8103 8.23400000 2044624702 2044624702 -1.00000000
8.19223690 1.29166079 2.22222042 51 15 8104 8.58600000 2044624704 2044624704 15.00000000
2.21020985 0.34571442 -0.59942490 4 0 8111 2.31600000 2044624725 2044624725 -15.00000000
8.13604259 1.27116072 0.14373802 12 1 8112 8.23600000 2044624727 2044624727 1.00000000
2.60511303 0.40655246 -0.60871756 7 2 8113 2.70600000 2044624730 2044624730 -13.00000000
8.16976547 1.27496898 0.43334171 94 3 8113 8.28000000 2044624732 2044624732 3.00000000
3.15804005 0.49227735 -0.62127411 5 4 8114 3.25600000 2044624734 2044624734 -11.00000000
8.14044666 1.26748276 0.72077799 76 5 8115 8.27000000 2044624737 2044624737 5.00000000
3.94286203 0.61320621 -0.63199526 6 6 8116 4.04000000 2044624739 2044624739 -9.00000000
8.16011143 1.26762736 1.01395297 97 7 8117 8.32000000 2044624741 2044624741 7.00000000
5.29048491 0.82090139 -0.65736324 6 8 8118 5.39400000 2044624744 2044624744 -7.00000000
7.88537455 1.22212970 -0.69811749 26 10 8119 8.01000000 2044624748 2044624748 -5.00000000
8.13600922 1.25806677 -0.43145761 17 12 8121 8.24400000 2044624753 2044624753 -3.00000000
8.14044380 1.25584316 -0.14377293 14 14 8123 8.23800000 2044624757 2044624757 -1.00000000
8.19669533 1.26305664 2.22222042 63 15 8124 8.58600000 2044624760 2044624760 15.00000000
2.21707296 0.33925983 -0.60097784 4 0 8130 2.32200000 2044624780 2044624780 -15.00000000
8.13428307 1.24326730 0.14363331 15 1 8131 8.23000000 2044624783 2044624783 1.00000000
2.59488845 0.39614677 -0.60601813 7 2 8132 2.69400000 2044624785 2044624785 -13.00000000
8.15617943 1.24515724 0.43239966 99 3 8132 8.26200000 2044624787 2044624787 3.00000000
3.15577364 0.48121029 -0.62051088 5 4 8133 3.25200000 2044624790 2044624790 -11.00000000
8.14657402 1.24078107 0.72095233 76 5 8134 8.27200000 2044624792 2044624792 5.00000000
3.93706203 0.59893942 -0.63074374 4 6 8135 4.03200000 2044624794 2044624794 -9.00000000
8.15641975 1.23936760 1.01297796 97 7 8136 8.31200000 2044624796 2044624796 7.00000000
5.27747726 0.80097008 -0.65541333 9 8 8137 5.37800000 2044624799 2044624799 -7.00000000
7.90514278 1.19836318 -0.69951200 35 10 8138 8.02600000 2044624803 2044624803 -5.00000000
8.12631321 1.22898924 -0.43072492 17 12 8140 8.23000000 2044624808 2044624808 -3.00000000
8.14258671 1.22854328 -0.14373802 12 14 8142 8.23600000 2044624813 2044624813 -1.00000000
8.20062351 1.23729980 2.22222042 58 15 8142 8.58600000 2044624815 2044624815 15.00000000
2.23161817 0.33351755 -0.60460126 4 0 8150 2.33600000 2044624836 2044624836 -15.00000000
8.14846230 1.21634185 0.14380783 21 1 8151 8.24000000 2044624838 2044624838 1.00000000
2.60396504 0.38823599 -0.60781777 7 2 8152 2.70200000 2044624840 2044624840 -13.00000000
8.14664745 1.21461761 0.43166697 97 3 8152 8.24800000 2044624843 2044624843 3.00000000
3.15355039 0.46961331 -0.61974764 5 4 8153 3.24800000 2044624845 2044624845 -11.00000000
8.15479755 1.21292293 0.72130090 76 5 8154 8.27600000 2044624847 2044624847 5.00000000
3.94694448 0.58635396 -0.63199526 6 6 8155 4.04000000 2044624849 2044624849 -9.00000000
8.15284252 1.20972347 1.01200306 95 7 8156 8.30400000 2044624852 2044624852 7.00000000
5.27631378 0.78196132 -0.65492582 9 8 8157 5.37400000 2044624854 2044624854 -7.00000000
7.90533590 1.17017829 -0.69916338 26 10 8158 8.02200000 2044624859 2044624859 -5.00000000
8.13252926 1.20090747 -0.43082958 17 12 8160 8.23200000 2044624863 2044624863 -3.00000000
8.13891220 1.19894719 -0.14359841 14 14 8162 8.22800000 2044624868 2044624868 -1.00000000
8.20128059 1.20667231 2.22118497 60 15 8163 8.58200000 2044624870 2044624870 15.00000000
2.21359611 0.32332334 -0.59942490 4 0 8169 2.31600000 2044624891 2044624891 -15.00000000
8.14255714 1.18787062 0.14363331 15 1 8170 8.23000000 2044624893 2044624893 1.00000000
2.60909510 0.38016075 -0.60871756 7 2 8171 2.70600000 2044624896 2044624896 -13.00000000
8.14886189 1.18588543 0.43156230 89 3 8172 8.24600000 2044624898 2044624898 3.00000000
3.14731932 0.45802227 -0.61822116 5 4 8172 3.24000000 2044624900 2044624900 -11.00000000
8.14300156 1.18358135 0.71990645 76 5 8173 8.26000000 2044624902 2044624902 5.00000000
3.94104767 0.57212704 -0.63074374 6 6 8174 4.03200000 2044624905 2044624905 -9.00000000
8.15484428 1.18239617 1.01175928 100 7 8175 8.30200000 2044624907 2044624907 7.00000000
5.29066515 0.76616716 -0.65638828 9 8 8176 5.38600000 2044624909 2044624909 -7.00000000
7.89142609 1.14138997 -0.69759458 17 10 8177 8.00400000 2044624914 2044624914 -5.00000000
8.13449001 1.17364717 -0.43072492 17 12 8179 8.23000000 2044624919 2044624919 -3.00000000
8.13294697 1.17052662 -0.14342387 14 14 8181 8.21800000 2044624923 2044624923 -1.00000000
8.19738197 1.17980051 2.21911454 56 15 8181 8.57400000 2044624926 2044624926 15.00000000
2.21662378 0.31586701 -0.59994256 4 0 8189 2.31800000 2044624946 2044624946 -15.00000000
8.13675499 1.15803170 0.14345878 18 1 8190 8.22000000 2044624949 2044624949 1.00000000
2.61619425 0.37187371 -0.61006725 9 2 8191 2.71200000 2044624951 2044624951 -13.00000000
8.15888405 1.15827560 0.43187630 94 3 8192 8.25200000 2044624953 2044624953 3.00000000
3.14889884 0.44703329 -0.61822116 5 4 8192 3.24000000 2044624955 2044624955 -11.00000000
8.13721943 1.15375125 0.71903485 83 5 8193 8.25000000 2044624958 2044624958 5.00000000
3.94106483 0.55808979 -0.63043088 9 6 8194 4.03000000 2044624960 2044624960 -9.00000000
8.16285324 1.15447927 1.01224673 99 7 8195 8.30600000 2044624962 2044624962 7.00000000
5.28937626 0.74713933 -0.65590084 9 8 8196 5.38200000 2044624965 2044624965 -7.00000000
7.88352537 1.11216688 -0.69654870 17 10 8197 7.99200000 2044624969 2044624969 -5.00000000
8.23889542 1.16083407 1.61729705 6 11 8198 8.47600000 2044624972 2044624972 11.00000000
8.14249325 1.14580202 -0.43093425 17 12 8199 8.23400000 2044624974 2044624974 -3.00000000
8.13302231 1.14157426 -0.14335407 14 14 8201 8.21400000 2044624979 2044624979 -1.00000000
8.18251991 1.14706564 2.21393800 58 15 8202 8.55400000 2044624981 2044624981 15.00000000
2.22153974 0.30865932 -0.60097784 4 0 8209 2.32200000 2044625002 2044625002 -15.00000000
8.13084412 1.12824786 0.14328426 15 1 8210 8.21000000 2044625004 2044625004 1.00000000
2.61168551 0.36193672 -0.60871756 7 2 8211 2.70600000 2044625006 2044625006 -13.00000000
8.16287708 1.12978876 0.43187630 94 3 8212 8.25200000 2044625008 2044625008 3.00000000
3.15432954 0.43657717 -0.61898440 5 4 8212 3.24400000 2044625011 2044625011 -11.00000000
8.14711857 1.12615848 0.71955782 76 5 8213 8.25600000 2044625013 2044625013 5.00000000
3.93907547 0.54378921 -0.62980515 9 6 8214 4.02600000 2044625015 2044625015 -9.00000000
8.15503407 1.12435174 1.01078439 99 7 8215 8.29400000 2044625018 2044625018 7.00000000
5.29588509 0.72921300 -0.65638828 9 8 8216 5.38600000 2044625020 2044625020 -7.00000000
7.88735914 1.08464146 -0.69654870 17 10 8217 7.99200000 2044625025 2044625025 -5.00000000
8.13457012 1.11574399 -0.43030623 17 12 8219 8.22200000 2044625029 2044625029 -3.00000000
8.14488316 1.11426198 -0.14349368 14 14 8221 8.22200000 2044625034 2044625034 -1.00000000
8.19010735 1.12044883 2.21497345 60 15 8221 8.55800000 2044625036 2044625036 15.00000000
2.22643256 0.30142117 -0.60201311 4 0 8229 2.32600000 2044625057 2044625057 -15.00000000
8.13869667 1.10039496 0.14335407 15 1 8230 8.21400000 2044625059 2044625059 1.00000000
2.60327673 0.35151419 -0.60646802 9 2 8231 2.69600000 2044625061 2044625061 -13.00000000
8.14301872 1.09808505 0.43062025 65 3 8232 8.22800000 2044625064 2044625064 3.00000000
3.16945386 0.42740044 -0.62165570 5 4 8232 3.25800000 2044625066 2044625066 -11.00000000
8.15100002 1.09771287 0.71955782 76 5 8233 8.25600000 2044625068 2044625068 5.00000000
3.95269608 0.53161579 -0.63168240 9 6 8234 4.03800000 2044625071 2044625071 -9.00000000
8.14710522 1.09429300 1.00932193 100 7 8235 8.28200000 2044625073 2044625073 7.00000000
5.28265858 0.70861113 -0.65443838 9 8 8236 5.37000000 2044625075 2044625075 -7.00000000
7.88122368 1.05578005 -0.69567716 17 10 8237 7.98200000 2044625080 2044625080 -5.00000000
8.13049698 1.08628428 -0.42988753 17 12 8239 8.21400000 2044625084 2044625084 -3.00000000
8.14079380 1.08476770 -0.14335407 14 14 8241 8.21400000 2044625089 2044625089 -1.00000000
8.18649864 1.08940375 2.21290278 54 15 8242 8.55000000 2044625091 2044625091 15.00000000
2.22747111 0.29364765 -0.60201311 4 0 8249 2.32600000 2044625112 2044625112 -15.00000000
8.14645290 1.07250082 0.14342387 25 1 8250 8.21800000 2044625114 2044625114 1.00000000
2.61221647 0.34344101 -0.60826766 9 2 8251 2.70400000 2044625117 2044625117 -13.00000000
8.13690090 1.06835389 0.43009689 60 3 8252 8.21800000 2044625119 2044625119 3.00000000
3.15146089 0.41377860 -0.61783952 5 4 8252 3.23800000 2044625121 2044625121 -11.00000000
8.14688015 1.06821775 0.71886057 79 5 8253 8.24800000 2044625124 2044625124 5.00000000
3.96627951 0.51935387 -0.63355958 9 6 8254 4.05000000 2044625126 2044625126 -9.00000000
8.14693832 1.06533277 1.00883448 100 7 8255 8.27800000 2044625128 2044625128 7.00000000
5.27722645 0.68913871 -0.65346342 9 8 8256 5.36200000 2044625131 2044625131 -7.00000000
7.89473915 1.02955127 -0.69654870 34 10 8257 7.99200000 2044625135 2044625135 -5.00000000
8.14018059 1.05866969 -0.43020156 17 12 8259 8.22000000 2044625140 2044625140 -3.00000000
8.13858128 1.05557287 -0.14324935 14 14 8261 8.20800000 2044625144 2044625144 -1.00000000
8.19006634 1.06225038 2.21290278 54 15 8261 8.55000000 2044625147 2044625147 15.00000000
2.23231483 0.28636214 -0.60304838 4 0 8269 2.33000000 2044625167 2044625167 -15.00000000
8.14221287 1.04304159 0.14328426 15 1 8270 8.21000000 2044625170 2044625170 1.00000000
2.61726522 0.33481514 -0.60916746 9 2 8271 2.70800000 2044625172 2044625172 -13.00000000
8.14058113 1.03994441 0.43009689 52 3 8272 8.21800000 2044625174 2044625174 3.00000000
3.13535929 0.40053642 -0.61440498 6 4 8272 3.22000000 2044625177 2044625177 -11.00000000
8.13672447 1.03800845 0.71764040 83 5 8273 8.23400000 2044625179 2044625179 5.00000000
3.98178506 0.50725323 -0.63574964 6 6 8274 4.06400000 2044625181 2044625181 -9.00000000
8.15060711 1.03688824 1.00883448 99 7 8275 8.27800000 2044625184 2044625184 7.00000000
5.28747654 0.67171425 -0.65443838 9 8 8276 5.37000000 2044625186 2044625186 -7.00000000
8.10186958 1.02781427 -0.71450275 17 10 8277 8.19800000 2044625190 2044625190 -5.00000000
8.13788223 1.02949667 -0.42988753 17 12 8279 8.21400000 2044625195 2044625195 -3.00000000
8.13031292 1.02565575 -0.14303993 12 14 8281 8.19600000 2044625200 2044625200 -1.00000000
8.19007111 1.03174222 2.21186757 58 15 8282 8.54600000 2044625202 2044625202 15.00000000
2.21983337 0.27728179 -0.59942490 4 0 8288 2.31600000 2044625223 2044625223 -15.00000000
8.14364243 1.01578772 0.14324935 12 1 8289 8.20800000 2044625225 2044625225 1.00000000
2.62416267 0.32685673 -0.61051714 7 2 8290 2.71400000 2044625227 2044625227 -13.00000000
8.15191269 1.01392961 0.43051559 49 3 8291 8.22600000 2044625230 2044625230 3.00000000
3.13667011 0.39013699 -0.61440498 6 4 8291 3.22000000 2044625232 2044625232 -11.00000000
8.13419056 1.01028371 0.71711743 90 5 8292 8.22800000 2044625234 2044625234 5.00000000
3.97952461 0.49356014 -0.63512391 6 6 8293 4.06000000 2044625237 2044625237 -9.00000000
8.16188145 1.01083004 1.00980937 100 7 8294 8.28600000 2044625239 2044625239 7.00000000
5.30543566 0.65612578 -0.65638828 9 8 8295 5.38600000 2044625241 2044625241 -7.00000000
8.10127831 1.00045347 -0.71415418 17 10 8296 8.19400000 2044625246 2044625246 -5.00000000
8.14323425 1.00274885 -0.42999223 17 12 8298 8.21600000 2044625250 2044625250 -3.00000000
8.12771511 0.99795789 -0.14293520 14 14 8300 8.19000000 2044625255 2044625255 -1.00000000
8.18560219 1.00506556 2.20979691 56 15 8300 8.53800000 2044625257 2044625257 15.00000000
2.22845888 0.27046245 -0.60149544 4 0 8308 2.32400000 2044625278 2044625278 -15.00000000
8.12927246 0.98518968 0.14293520 15 1 8309 8.19000000 2044625280 2044625280 1.00000000
2.61561441 0.31652412 -0.60826766 9 2 8310 2.70400000 2044625283 2044625283 -13.00000000
8.15540218 0.98546791 0.43051559 44 3 8311 8.22600000 2044625285 2044625285 3.00000000
3.14191103 0.37965661 -0.61516821 6 4 8311 3.22400000 2044625287 2044625287 -11.00000000
8.12975502 0.98092920 0.71642023 90 5 8312 8.22000000 2044625290 2044625290 5.00000000
3.97533965 0.47895712 -0.63418531 6 6 8313 4.05400000 2044625292 2044625292 -9.00000000
8.15156364 0.98067391 1.00810325 97 7 8314 8.27200000 2044625294 2044625294 7.00000000
5.29980993 0.63665533 -0.65541333 9 8 8315 5.37800000 2044625296 2044625296 -7.00000000
8.10867786 0.97264320 -0.71450275 17 10 8316 8.19800000 2044625301 2044625301 -5.00000000
8.13280296 0.97265738 -0.42925951 17 12 8318 8.20200000 2044625306 2044625306 -3.00000000
