# .PCD v0.7 - Point Cloud Data file format
VERSION 0.7
FIELDS x y z intensity laser_id azimuth distance_m adjustedtime timestamp vertical_angle
SIZE 4 4 4 1 1 2 8 8 4 8
TYPE F F F U U U F U U F
COUNT 1 1 1 1 1 1 1 1 1 1
WIDTH 540
HEIGHT 1
VIEWPOINT 0 0 0 1 0 0 0
POINTS 540
DATA ascii
3.56713843 2.50237918 0.07605759 7 1 5495 4.35800000 2044417477 2044417477 1.00000000
2.21300530 1.55186653 -0.62401420 3 2 5496 2.77400000 2044417479 2044417479 -13.00000000
3.56159353 2.49756193 0.22797543 7 3 5496 4.35600000 2044417482 2044417482 3.00000000
2.66220880 1.86617672 -0.63195938 5 4 5497 3.31200000 2044417484 2044417484 -11.00000000
3.58151746 2.50966907 0.38261372 7 5 5498 4.39000000 2044417486 2044417486 5.00000000
3.34750962 2.34482241 -0.64732581 9 6 5499 4.13800000 2044417489 2044417489 -9.00000000
3.58390760 2.50947928 0.53720009 7 7 5500 4.40800000 2044417491 2044417491 7.00000000
3.55832505 2.49064064 -0.53330022 8 8 5501 4.37600000 2044417493 2044417493 -7.00000000
3.58989787 2.51180649 0.69394326 8 9 5502 4.43600000 2044417496 2044417496 9.00000000
3.57184148 2.49917269 -0.38139352 10 10 5502 4.37600000 2044417498 2044417498 -5.00000000
3.59887052 2.51714897 0.85367942 9 11 5503 4.47400000 2044417500 2044417500 11.00000000
3.57162452 2.49716425 -0.22839411 8 12 5504 4.36400000 2044417503 2044417503 -3.00000000
3.58591437 2.50622368 1.01003027 8 13 5505 4.49000000 2044417505 2044417505 13.00000000
3.57685399 2.49896193 -0.07616230 7 14 5506 4.36400000 2044417507 2044417507 -1.00000000
3.59327865 2.51043701 1.17452085 8 15 5506 4.53800000 2044417509 2044417509 15.00000000
1.87685668 1.30736637 -0.61288351 4 0 5514 2.36800000 2044417530 2044417530 -15.00000000
3.59554434 2.50362468 0.07647645 7 1 5515 4.38200000 2044417532 2044417532 1.00000000
2.22160769 1.54635882 -0.62491405 3 2 5516 2.77800000 2044417535 2044417535 -13.00000000
3.59367585 2.50046134 0.22944084 7 3 5517 4.38400000 2044417537 2044417537 3.00000000
2.66064906 1.85126603 -0.63005131 5 4 5517 3.30200000 2044417539 2044417539 -11.00000000
3.59679866 2.50170255 0.38331094 7 5 5518 4.39800000 2044417542 2044417542 5.00000000
3.36216187 2.33763361 -0.64857727 9 6 5519 4.14600000 2044417544 2044417544 -9.00000000
3.60894608 2.50828290 0.53963745 7 7 5520 4.42800000 2044417546 2044417546 7.00000000
3.58656025 2.49179602 -0.53622514 8 8 5521 4.40000000 2044417549 2044417549 -7.00000000
3.59982991 2.50101519 0.69425613 8 9 5521 4.43800000 2044417551 2044417551 9.00000000
3.59690785 2.49805450 -0.38313666 10 10 5522 4.39600000 2044417553 2044417553 -5.00000000
3.63021302 2.52024579 0.85902208 9 11 5523 4.50200000 2044417556 2044417556 11.00000000
3.60985470 2.50517869 -0.23027821 8 12 5524 4.40000000 2044417558 2044417558 -3.00000000
3.62186098 2.51257443 1.01767862 9 13 5525 4.52400000 2044417560 2044417560 13.00000000
3.59377146 2.49215889 -0.07633682 7 14 5526 4.37400000 2044417562 2044417562 -1.00000000
3.62150788 2.51045728 1.18073249 8 15 5527 4.56200000 2044417565 2044417565 15.00000000
1.87187469 1.29421496 -0.60977769 4 0 5534 2.35600000 2044417585 2044417585 -15.00000000
3.61413193 2.49788022 0.07668588 7 1 5535 4.39400000 2044417588 2044417588 1.00000000
2.23340511 1.54302537 -0.62671363 3 2 5536 2.78600000 2044417590 2044417590 -13.00000000
3.61838007 2.49988341 0.23048756 7 3 5536 4.40400000 2044417592 2044417592 3.00000000
2.67840314 1.84977710 -0.63272262 5 4 5537 3.31600000 2044417595 2044417595 -11.00000000
3.62354517 2.50158358 0.38522840 7 5 5538 4.42000000 2044417597 2044417597 5.00000000
3.37030125 2.32588339 -0.64857727 9 6 5539 4.14600000 2044417599 2044417599 -9.00000000
3.64055562 2.51145124 0.54304981 7 7 5540 4.45600000 2044417602 2044417602 7.00000000
3.61974931 2.49616551 -0.53988117 8 8 5541 4.43000000 2044417604 2044417604 -7.00000000
3.63174200 2.50350046 0.69863629 8 9 5542 4.46600000 2044417606 2044417606 9.00000000
3.60724616 2.48661447 -0.38331094 10 10 5542 4.39800000 2044417609 2044417609 -5.00000000
3.64545465 2.51201463 0.86054856 9 11 5543 4.51000000 2044417611 2044417611 11.00000000
3.63009119 2.50049353 -0.23101091 8 12 5544 4.41400000 2044417613 2044417613 -3.00000000
3.65147495 2.51428366 1.02352726 9 13 5545 4.55000000 2044417615 2044417615 13.00000000
3.62880397 2.49773979 -0.07689530 7 14 5546 4.40600000 2044417618 2044417618 -1.00000000
3.64138961 2.50546598 1.18435597 8 15 5547 4.57600000 2044417620 2044417620 15.00000000
1.88252676 1.29237401 -0.61184824 4 0 5553 2.36400000 2044417641 2044417641 -15.00000000
3.63228798 2.49267054 0.07689530 7 1 5554 4.40600000 2044417643 2044417643 1.00000000
2.23208189 1.53120112 -0.62491405 3 2 5555 2.77800000 2044417645 2044417645 -13.00000000
3.65794277 2.50933719 0.23247632 7 3 5555 4.44200000 2044417648 2044417648 3.00000000
2.68614149 1.84199524 -0.63310426 5 4 5556 3.31800000 2044417650 2044417650 -11.00000000
3.64825416 2.50081873 0.38697150 7 5 5557 4.44000000 2044417652 2044417652 5.00000000
3.36821842 2.30799460 -0.64670008 6 6 5558 4.13400000 2044417655 2044417655 -9.00000000
3.66360354 2.50946093 0.54524344 7 7 5559 4.47400000 2044417657 2044417657 7.00000000
3.64274836 2.49424195 -0.54207486 8 8 5560 4.44800000 2044417659 2044417659 -7.00000000
3.66403770 2.50881886 0.70332938 8 9 5560 4.49600000 2044417662 2044417662 9.00000000
3.63684607 2.48926830 -0.38557699 10 10 5561 4.42400000 2044417664 2044417664 -5.00000000
3.66996765 2.51099801 0.86436474 9 11 5562 4.53000000 2044417666 2044417666 11.00000000
3.65155149 2.49746227 -0.23184828 8 12 5563 4.43000000 2044417668 2044417668 -3.00000000
3.68553185 2.51975870 1.03072572 9 13 5564 4.58200000 2044417671 2044417671 13.00000000
3.66348243 2.50374556 -0.07745378 7 14 5565 4.43800000 2044417673 2044417673 -1.00000000
3.67200994 2.50863361 1.19160283 8 15 5566 4.60400000 2044417675 2044417675 15.00000000
1.88702655 1.28579497 -0.61184824 4 0 5573 2.36400000 2044417696 2044417696 -15.00000000
3.66079974 2.49348497 0.07731416 7 1 5574 4.43000000 2044417698 2044417698 1.00000000
2.23096991 1.51901340 -0.62311441 3 2 5575 2.77000000 2044417701 2044417701 -13.00000000
3.67493439 2.50217366 0.23299968 7 3 5575 4.45200000 2044417703 2044417703 3.00000000
2.69904685 1.83702624 -0.63463074 5 4 5576 3.32600000 2044417705 2044417705 -11.00000000
3.68496537 2.50712132 0.38993478 8 5 5577 4.47400000 2044417708 2044417708 5.00000000
3.38115454 2.29955602 -0.64763868 6 6 5578 4.14000000 2044417710 2044417710 -9.00000000
3.67726588 2.50000548 0.54597467 7 7 5579 4.48000000 2044417712 2044417712 7.00000000
3.66456747 2.49043751 -0.54402477 8 8 5580 4.46400000 2044417715 2044417715 -7.00000000
3.69727969 2.51266861 0.70802242 8 9 5580 4.52600000 2044417717 2044417717 9.00000000
3.66528988 2.48999333 -0.38766876 10 10 5581 4.44800000 2044417719 2044417719 -5.00000000
3.69495177 2.50920153 0.86818093 9 11 5582 4.55000000 2044417721 2044417721 11.00000000
3.66520452 2.48806596 -0.23216230 8 12 5583 4.43600000 2044417724 2044417724 -3.00000000
3.69430494 2.50687861 1.03072572 8 13 5584 4.58200000 2044417726 2044417726 13.00000000
3.68543887 2.49992275 -0.07773302 7 14 5585 4.45400000 2044417728 2044417728 -1.00000000
3.71592069 2.51965261 1.20299089 8 15 5586 4.64800000 2044417731 2044417731 15.00000000
1.89790428 1.28352904 -0.61391878 4 0 5593 2.37200000 2044417751 2044417751 -15.00000000
3.69598770 2.49861050 0.07787263 8 1 5594 4.46200000 2044417754 2044417754 1.00000000
2.24594641 1.51776338 -0.62581384 3 2 5595 2.78200000 2044417756 2044417756 -13.00000000
3.69523001 2.49715853 0.23373239 7 3 5595 4.46600000 2044417758 2044417758 3.00000000
2.69568181 1.82099974 -0.63234103 6 4 5596 3.31400000 2044417761 2044417761 -11.00000000
3.71515965 2.50873804 0.39220083 8 5 5597 4.50000000 2044417763 2044417763 5.00000000
3.38916087 2.28773952 -0.64763868 6 6 5598 4.14000000 2044417765 2044417765 -9.00000000
3.70900726 2.50269914 0.54938698 8 7 5599 4.50800000 2044417767 2044417767 7.00000000
3.69627833 2.49317122 -0.54743707 8 8 5600 4.49200000 2044417770 2044417770 -7.00000000
3.71749163 2.50747967 0.71021247 8 9 5600 4.54000000 2044417772 2044417772 9.00000000
3.69708681 2.49277782 -0.39010909 10 10 5601 4.47600000 2044417774 2044417774 -5.00000000
3.72322392 2.50945592 0.87276036 9 11 5602 4.57400000 2044417777 2044417777 11.00000000
3.68877459 2.48530078 -0.23310435 8 12 5603 4.45400000 2044417779 2044417779 -3.00000000
3.72566175 2.50920796 1.03702438 9 13 5604 4.61000000 2044417781 2044417781 13.00000000
3.70741320 2.49597716 -0.07801226 7 14 5605 4.47000000 2044417784 2044417784 -1.00000000
3.74348617 2.52026296 1.20920253 8 15 5605 4.67200000 2044417786 2044417786 15.00000000
1.89274895 1.27043653 -0.61081296 4 0 5613 2.36000000 2044417807 2044417807 -15.00000000
3.72461367 2.49906373 0.07829150 8 1 5614 4.48600000 2044417809 2044417809 1.00000000
2.24475694 1.50557232 -0.62401420 3 2 5615 2.77400000 2044417811 2044417811 -13.00000000
3.73709846 2.50649500 0.23582582 7 3 5615 4.50600000 2044417814 2044417814 3.00000000
2.70039129 1.81048572 -0.63195938 5 4 5616 3.31200000 2044417816 2044417816 -11.00000000
3.73216939 2.50130057 0.39307240 8 5 5617 4.51000000 2044417818 2044417818 5.00000000
3.40204930 2.27919364 -0.64857727 9 6 5618 4.14600000 2044417820 2044417820 -9.00000000
3.74576044 2.50851488 0.55353057 8 7 5619 4.54200000 2044417823 2044417823 7.00000000
3.72805285 2.49571371 -0.55084944 8 8 5620 4.52000000 2044417825 2044417825 -7.00000000
3.73935366 2.50327921 0.71271545 8 9 5620 4.55600000 2044417827 2044417827 9.00000000
3.72066808 2.48983002 -0.39167792 10 10 5621 4.49400000 2044417830 2044417830 -5.00000000
3.76296544 2.51718402 0.88001108 9 11 5622 4.61200000 2044417832 2044417832 11.00000000
3.72399187 2.49017262 -0.23477910 8 12 5623 4.48600000 2044417834 2044417834 -3.00000000
3.76518035 2.51676369 1.04557252 9 13 5624 4.64800000 2044417837 2044417837 13.00000000
3.72607923 2.48968649 -0.07822169 7 14 5625 4.48200000 2044417839 2044417839 -1.00000000
3.76394343 2.51403642 1.21282601 8 15 5626 4.68600000 2044417841 2044417841 15.00000000
1.89395654 1.26167977 -0.60977769 4 0 5633 2.35600000 2044417862 2044417862 -15.00000000
3.74330091 2.49269748 0.07850093 8 1 5634 4.49800000 2044417864 2044417864 1.00000000
2.25973201 1.50420654 -0.62671363 3 2 5635 2.78600000 2044417867 2044417867 -13.00000000
3.76787639 2.50716448 0.23718655 7 3 5636 4.53200000 2044417869 2044417869 3.00000000
2.70342565 1.79887342 -0.63119614 5 4 5636 3.30800000 2044417871 2044417871 -11.00000000
3.75746727 2.49929214 0.39481550 8 5 5637 4.53000000 2044417873 2044417873 5.00000000
3.40011477 2.26074195 -0.64670008 9 6 5638 4.13400000 2044417876 2044417876 -9.00000000
3.77763915 2.51080799 0.55694288 8 7 5639 4.57000000 2044417878 2044417878 7.00000000
3.75162268 2.49257207 -0.55304307 8 8 5640 4.53800000 2044417880 2044417880 -7.00000000
3.77110362 2.50551534 0.71709561 8 9 5640 4.58400000 2044417883 2044417883 9.00000000
3.73929477 2.48344088 -0.39272377 10 10 5641 4.50600000 2044417885 2044417885 -5.00000000
3.79135656 2.51706409 0.88459051 9 11 5642 4.63600000 2044417887 2044417887 11.00000000
3.76261592 2.49703741 -0.23666319 8 12 5643 4.52200000 2044417890 2044417890 -3.00000000
8.30949402 5.51245642 2.30214906 13 13 5644 10.23400000 2044417892 2044417892 13.00000000
3.76474500 2.49655771 -0.07884997 7 14 5645 4.51800000 2044417894 2044417894 -1.00000000
3.78352952 2.50901461 1.21644950 6 15 5645 4.70000000 2044417897 2044417897 15.00000000
1.90157211 1.25719178 -0.61081296 4 0 5653 2.36000000 2044417917 2044417917 -15.00000000
3.76032066 2.48512840 0.07867545 8 1 5654 4.50800000 2044417920 2044417920 1.00000000
2.25846505 1.49201274 -0.62491405 3 2 5655 2.77800000 2044417922 2044417922 -13.00000000
8.25486565 5.45135307 0.51844001 31 3 5656 9.90600000 2044417924 2044417924 3.00000000
2.71296477 1.79158950 -0.63195938 6 4 5656 3.31200000 2044417926 2044417926 -11.00000000
8.25896645 5.45199156 0.86580515 42 5 5657 9.93400000 2044417929 2044417929 5.00000000
3.40798545 2.24885964 -0.64670008 9 6 5658 4.13400000 2044417931 2044417931 -9.00000000
3.79135180 2.50088549 0.55767411 6 7 5659 4.57600000 2044417933 2044417933 7.00000000
3.78515911 2.49585271 -0.55669916 8 8 5660 4.56800000 2044417936 2044417936 -7.00000000
3.77954793 2.49120641 -0.39603570 10 10 5661 4.54400000 2044417940 2044417940 -5.00000000
8.64125538 5.69353151 2.01150846 25 11 5662 10.54200000 2044417943 2044417943 11.00000000
3.78131723 2.49047971 -0.23729123 8 12 5663 4.53400000 2044417945 2044417945 -3.00000000
3.78178883 2.48889780 -0.07902449 5 14 5665 4.52800000 2044417950 2044417950 -1.00000000
6.24585104 4.10900211 2.00325942 11 15 5666 7.74000000 2044417952 2044417952 15.00000000
1.91240978 1.25478554 -0.61288351 4 0 5673 2.36800000 2044417973 2044417973 -15.00000000
8.23522186 5.40130329 0.17190620 13 1 5674 9.85000000 2044417975 2044417975 1.00000000
2.26040006 1.48198318 -0.62401420 3 2 5675 2.77400000 2044417977 2044417977 -13.00000000
8.26047993 5.41374683 0.51760262 97 3 5676 9.89000000 2044417979 2044417979 3.00000000
2.72248626 1.78426087 -0.63272262 8 4 5676 3.31600000 2044417982 2044417982 -11.00000000
8.25794792 5.41002703 0.86371338 77 5 5677 9.91000000 2044417984 2044417984 5.00000000
3.40755200 2.23153877 -0.64513576 6 6 5678 4.12400000 2044417986 2044417986 -9.00000000
8.33587933 5.45692492 1.22332442 2 7 5679 10.03800000 2044417989 2044417989 7.00000000
4.59613752 3.00762820 -0.67442495 4 8 5680 5.53400000 2044417991 2044417991 -7.00000000
7.06789970 4.62334251 -0.73890638 8 10 5681 8.47800000 2044417996 2044417996 -5.00000000
8.67257881 5.67085409 2.01417971 37 11 5682 10.55600000 2044417998 2044417998 11.00000000
8.22696495 5.37742472 -0.51509047 12 12 5683 9.84200000 2044418000 2044418000 -3.00000000
8.31841087 5.43512487 2.29405093 70 13 5684 10.19800000 2044418003 2044418003 13.00000000
8.24222755 5.38329554 -0.17183639 14 14 5685 9.84600000 2044418005 2044418005 -1.00000000
6.30796528 4.11995935 2.01878858 2 15 5685 7.80000000 2044418007 2044418007 15.00000000
1.92325377 1.25231886 -0.61495405 4 0 5693 2.37600000 2044418028 2044418028 -15.00000000
8.24396992 5.36597872 0.17169677 13 1 5694 9.83800000 2044418030 2044418030 1.00000000
2.25249195 1.46558154 -0.62041503 3 2 5695 2.75800000 2044418032 2044418032 -13.00000000
8.25253868 5.36745596 0.51592785 78 3 5696 9.85800000 2044418035 2044418035 3.00000000
2.72046900 1.76939464 -0.63081455 9 4 5696 3.30600000 2044418037 2044418037 -11.00000000
8.26007843 5.37030840 0.86197031 73 5 5697 9.89000000 2044418039 2044418039 5.00000000
3.41863346 2.22178340 -0.64576149 9 6 5698 4.12800000 2044418042 2044418042 -9.00000000
8.34488964 5.42130518 1.22186208 2 7 5699 10.02600000 2044418044 2044418044 7.00000000
4.60327864 2.98940396 -0.67393744 6 8 5700 5.53000000 2044418046 2044418046 -7.00000000
7.08065271 4.59647274 -0.73855776 13 10 5701 8.47400000 2044418051 2044418051 -5.00000000
8.68573380 5.63627195 2.01265335 40 11 5702 10.54800000 2044418053 2044418053 11.00000000
8.23060513 5.33889246 -0.51414841 12 12 5703 9.82400000 2044418055 2044418055 -3.00000000
8.30790043 5.38697100 2.28595257 78 13 5704 10.16200000 2044418058 2044418058 13.00000000
8.24250984 5.34252787 -0.17145245 12 14 5705 9.82400000 2044418060 2044418060 -1.00000000
7.39955854 4.79432058 2.36250019 29 15 5706 9.12800000 2044418062 2044418062 15.00000000
1.91095650 1.23578012 -0.60977769 4 0 5711 2.35600000 2044418083 2044418083 -15.00000000
8.24231339 5.32811165 0.17131282 13 1 5712 9.81600000 2044418085 2044418085 1.00000000
2.26363206 1.46272850 -0.62221462 3 2 5713 2.76600000 2044418088 2044418088 -13.00000000
8.25426102 5.33175039 0.51498580 94 3 5714 9.84000000 2044418090 2044418090 3.00000000
2.71776867 1.75551319 -0.62890643 11 4 5714 3.29600000 2044418092 2044418092 -11.00000000
8.25514984 5.33028269 0.85970426 73 5 5715 9.86400000 2044418095 2044418095 5.00000000
3.43057561 2.21424627 -0.64670008 6 6 5716 4.13400000 2044418097 2044418097 -9.00000000
8.34019470 5.38107157 1.21869338 2 7 5717 10.00000000 2044418099 2044418099 7.00000000
4.61264706 2.97492766 -0.67393744 6 8 5718 5.53000000 2044418102 2044418102 -7.00000000
7.07831287 4.56340981 -0.73681468 13 10 5719 8.45400000 2044418106 2044418106 -5.00000000
8.70339775 5.60895729 2.01265335 46 11 5720 10.54800000 2044418108 2044418108 11.00000000
8.22886753 5.30111074 -0.51299703 12 12 5721 9.80200000 2044418111 2044418111 -3.00000000
8.30184460 5.34607363 2.27965403 80 13 5722 10.13400000 2044418113 2044418113 13.00000000
8.23739433 5.30253649 -0.17099868 12 14 5723 9.79800000 2044418115 2044418115 -1.00000000
7.41862440 4.77548122 2.36405325 42 15 5723 9.13400000 2044418118 2044418118 15.00000000
1.91851020 1.23118889 -0.61081296 4 0 5731 2.36000000 2044418138 2044418138 -15.00000000
8.22888279 5.27879333 0.17064963 13 1 5732 9.77800000 2044418141 2044418141 1.00000000
2.28184772 1.46323347 -0.62581384 3 2 5733 2.78200000 2044418143 2044418143 -13.00000000
8.25937080 5.29428244 0.51414841 99 3 5734 9.82400000 2044418145 2044418145 3.00000000
2.71892142 1.74283719 -0.62776160 8 4 5734 3.29000000 2044418148 2044418148 -11.00000000
8.24350929 5.28208590 0.85656667 81 5 5735 9.82800000 2044418150 2044418150 5.00000000
3.42996669 2.19693065 -0.64513576 6 6 5736 4.12400000 2044418152 2044418152 -9.00000000
8.34388161 5.34229279 1.21649981 2 7 5737 9.98200000 2044418155 2044418155 7.00000000
4.63805103 2.96843910 -0.67613113 4 8 5738 5.54800000 2044418157 2044418157 -7.00000000
7.09755564 4.54082155 -0.73716325 13 10 5739 8.45800000 2044418161 2044418161 -5.00000000
8.71134567 5.57113838 2.00998187 40 11 5740 10.53400000 2044418164 2044418164 11.00000000
8.22544575 5.25836945 -0.51163632 12 12 5741 9.77600000 2044418166 2044418166 -3.00000000
8.30403519 5.30656862 2.27515507 82 13 5742 10.11400000 2044418168 2044418168 13.00000000
8.23394585 5.25975561 -0.17054492 12 14 5743 9.77200000 2044418171 2044418171 -1.00000000
7.42630816 4.74202061 2.36094737 45 15 5744 9.12200000 2044418173 2044418173 15.00000000
1.91953719 1.22240913 -0.60977769 4 0 5751 2.35600000 2044418194 2044418194 -15.00000000
8.22701550 5.23715067 0.17023078 13 1 5752 9.75400000 2044418196 2044418196 1.00000000
2.28365326 1.45316708 -0.62491405 3 2 5753 2.77800000 2044418198 2044418198 -13.00000000
8.26263332 5.25577211 0.51320636 100 3 5754 9.80600000 2044418201 2044418201 3.00000000
2.73161459 1.73755062 -0.62928808 5 4 5754 3.29800000 2044418203 2044418203 -11.00000000
8.24844646 5.24472618 0.85517216 81 5 5755 9.81200000 2044418205 2044418205 5.00000000
3.42927885 2.17964625 -0.64357138 6 6 5756 4.11400000 2044418208 2044418208 -9.00000000
8.35074997 5.30568266 1.21479356 2 7 5757 9.96800000 2044418210 2044418210 7.00000000
4.64503336 2.95010281 -0.67564362 6 8 5758 5.54400000 2044418212 2044418212 -7.00000000
7.10663462 4.51174736 -0.73646605 13 10 5759 8.45000000 2044418217 2044418217 -5.00000000
8.71582127 5.53122807 2.00654745 37 11 5760 10.51600000 2044418219 2044418219 11.00000000
8.23025799 5.22106600 -0.51079893 17 12 5761 9.76000000 2044418221 2044418221 -3.00000000
8.30275917 5.26502657 2.26975608 78 13 5762 10.09000000 2044418224 2044418224 13.00000000
8.23705482 5.22134638 -0.17023078 16 14 5763 9.75400000 2044418226 2044418226 -1.00000000
7.44851923 4.72150517 2.36301780 45 15 5763 9.13000000 2044418228 2044418228 15.00000000
1.93359113 1.22189331 -0.61288351 4 0 5771 2.36800000 2044418249 2044418249 -15.00000000
8.23003101 5.19878960 0.16991663 13 1 5772 9.73600000 2044418251 2044418251 1.00000000
2.28212070 1.44102502 -0.62311441 3 2 5773 2.77000000 2044418254 2044418254 -13.00000000
8.25897312 5.21303940 0.51184565 94 3 5774 9.78000000 2044418256 2044418256 3.00000000
2.73932338 1.72905278 -0.62966967 5 4 5774 3.30000000 2044418258 2044418258 -11.00000000
8.25153828 5.20633316 0.85360336 85 5 5775 9.79400000 2044418261 2044418261 5.00000000
3.44689131 2.17398548 -0.64544863 6 6 5776 4.12600000 2044418263 2044418263 -9.00000000
8.33227730 5.25320959 1.20943141 2 7 5777 9.92400000 2044418265 2044418265 7.00000000
4.64522648 2.92752028 -0.67418122 4 8 5778 5.53200000 2044418267 2044418267 -7.00000000
7.13414049 4.49434710 -0.73768622 13 10 5779 8.46400000 2044418272 2044418272 -5.00000000
8.73009205 5.49763203 2.00540257 31 11 5780 10.51000000 2044418274 2044418274 11.00000000
8.22138882 5.17528152 -0.50912416 17 12 5781 9.72800000 2044418277 2044418277 -3.00000000
8.30129433 5.22355795 2.26435733 75 13 5782 10.06600000 2044418279 2044418279 13.00000000
8.24507523 5.18617344 -0.17002134 16 14 5783 9.74200000 2044418281 2044418281 -1.00000000
7.45923233 4.69006014 2.36094737 45 15 5784 9.12200000 2044418284 2044418284 15.00000000
1.93435943 1.21342134 -0.61184824 4 0 5790 2.36400000 2044418304 2044418304 -15.00000000
8.23197842 5.16190815 0.16960248 13 1 5791 9.71800000 2044418307 2044418307 1.00000000
2.28028226 1.42930937 -0.62131482 3 2 5792 2.76200000 2044418309 2044418309 -13.00000000
8.24744225 5.16759539 0.51006621 89 3 5793 9.74600000 2044418311 2044418311 3.00000000
2.74670577 1.72100174 -0.63005131 5 4 5793 3.30200000 2044418314 2044418314 -11.00000000
8.25187302 5.16836596 0.85186023 81 5 5794 9.77400000 2044418316 2044418316 5.00000000
3.45910430 2.16568804 -0.64638722 4 6 5795 4.13200000 2044418318 2044418318 -9.00000000
8.37320995 5.24029350 1.21284366 2 7 5796 9.95200000 2044418320 2044418320 7.00000000
4.64817715 2.90788865 -0.67320627 4 8 5797 5.52400000 2044418323 2044418323 -7.00000000
7.14393711 4.46749544 -0.73716325 13 10 5798 8.45800000 2044418327 2044418327 -5.00000000
8.21987438 5.13634777 -0.50797278 17 12 5800 9.70600000 2044418332 2044418332 -3.00000000
8.29543114 5.18154764 2.25805879 70 13 5801 10.03800000 2044418334 2044418334 13.00000000
8.23508835 5.14185810 -0.16946286 14 14 5802 9.71000000 2044418337 2044418337 -1.00000000
7.48703909 4.67478800 2.36508846 45 15 5802 9.13800000 2044418339 2044418339 15.00000000
1.93858325 1.20666182 -0.61184824 4 0 5810 2.36400000 2044418360 2044418360 -15.00000000
8.24485302 5.12997246 0.16949777 13 1 5811 9.71200000 2044418362 2044418362 1.00000000
2.30180526 1.43163311 -0.62581384 3 2 5812 2.78200000 2044418364 2044418364 -13.00000000
8.25016499 5.12928391 0.50912416 94 3 5813 9.72800000 2044418367 2044418367 3.00000000
2.75603104 1.71347666 -0.63081455 5 4 5813 3.30600000 2044418369 2044418369 -11.00000000
8.24448013 5.12375498 0.84924555 77 5 5814 9.74400000 2044418371 2044418371 5.00000000
3.46999884 2.15568495 -0.64701295 4 6 5815 4.13600000 2044418373 2044418373 -9.00000000
4.66167259 2.89373970 -0.67369372 4 8 5817 5.52800000 2044418378 2044418378 -7.00000000
7.15948820 4.44253111 -0.73716325 13 10 5818 8.45800000 2044418383 2044418383 -5.00000000
8.22077847 5.09709883 -0.50692606 17 12 5820 9.68600000 2044418387 2044418387 -3.00000000
8.30021667 5.14434671 2.25445938 68 13 5821 10.02200000 2044418390 2044418390 13.00000000
8.22578812 5.09623051 -0.16890439 14 14 5822 9.67800000 2044418392 2044418392 -1.00000000
7.49017382 4.64048576 2.36094737 45 15 5822 9.12200000 2044418394 2044418394 15.00000000
1.94278347 1.19988751 -0.61184824 4 0 5830 2.36400000 2044418415 2044418415 -15.00000000
8.23378277 5.08330297 0.16890439 13 1 5831 9.67800000 2044418417 2044418417 1.00000000
2.31010532 1.42563641 -0.62671363 3 2 5832 2.78600000 2044418420 2044418420 -13.00000000
8.25272083 5.09101677 0.50818211 89 3 5833 9.71000000 2044418422 2044418422 3.00000000
2.76032448 1.70281518 -0.63043290 5 4 5833 3.30400000 2044418424 2044418424 -11.00000000
8.24196434 5.08239603 0.84715384 73 5 5834 9.72000000 2044418426 2044418426 5.00000000
3.47077608 2.13941312 -0.64576149 4 6 5835 4.12800000 2044418429 2044418429 -9.00000000
4.68695688 2.88681912 -0.67588741 4 8 5837 5.54600000 2044418433 2044418433 -7.00000000
7.17155838 4.41542387 -0.73681468 13 10 5838 8.45400000 2044418438 2044418438 -5.00000000
8.22661304 5.06104612 -0.50619334 12 12 5840 9.67200000 2044418443 2044418443 -3.00000000
8.30484295 5.10717583 2.25086021 70 13 5841 10.00600000 2044418445 2044418445 13.00000000
8.22649193 5.05701399 -0.16855533 16 14 5842 9.65800000 2044418447 2044418447 -1.00000000
7.50632668 4.61431170 2.36094737 45 15 5842 9.12200000 2044418449 2044418449 15.00000000
1.93707705 1.18704236 -0.60874242 4 0 5850 2.35200000 2044418470 2044418470 -15.00000000
8.22078323 5.03572893 0.16827610 13 1 5851 9.64200000 2044418473 2044418473 1.00000000
2.30841994 1.41349339 -0.62491405 3 2 5852 2.77800000 2044418475 2044418475 -13.00000000
8.25000000 5.04966640 0.50692606 70 3 5853 9.68600000 2044418477 2044418477 3.00000000
2.76290250 1.69111955 -0.62966967 5 4 5853 3.30000000 2044418479 2044418479 -11.00000000
8.23926163 5.04111719 0.84506208 73 5 5854 9.69600000 2044418482 2044418482 5.00000000
3.45800066 2.11491704 -0.64200705 6 6 5855 4.10400000 2044418484 2044418484 -9.00000000
4.70039320 2.87251139 -0.67637485 4 8 5857 5.55000000 2044418489 2044418489 -7.00000000
7.18352699 4.38828611 -0.73646605 8 10 5858 8.45000000 2044418493 2044418493 -5.00000000
8.21013451 5.01148748 -0.50409991 12 12 5860 9.63200000 2044418498 2044418498 -3.00000000
8.31263924 5.07206535 2.24816084 72 13 5861 9.99400000 2044418500 2044418500 13.00000000
8.23043633 5.01993704 -0.16827610 14 14 5862 9.64200000 2044418502 2044418502 -1.00000000
7.52978611 4.59079123 2.36301780 45 15 5863 9.13000000 2044418505 2044418505 15.00000000
1.94801819 1.18394792 -0.61081296 4 0 5871 2.36000000 2044418526 2044418526 -15.00000000
8.22209454 4.99518204 0.16792706 13 1 5872 9.62200000 2044418528 2044418528 1.00000000
2.30692267 1.40097702 -0.62311441 3 2 5873 2.77000000 2044418530 2044418530 -13.00000000
8.24967194 5.00799417 0.50577468 84 3 5874 9.66400000 2044418532 2044418532 3.00000000
2.78418636 1.69015074 -0.63310426 5 4 5874 3.31800000 2044418535 2044418535 -11.00000000
8.24235249 5.00158215 0.84349328 77 5 5875 9.67800000 2044418537 2044418537 5.00000000
3.48599648 2.11452222 -0.64576149 6 6 5876 4.12800000 2044418539 2044418539 -9.00000000
4.68372774 2.83880162 -0.67247504 4 8 5878 5.51800000 2044418544 2044418544 -7.00000000
6.69175911 4.05426979 -0.68452120 8 10 5879 7.85400000 2044418549 2044418549 -5.00000000
8.21990395 4.97619009 -0.50357658 17 12 5881 9.62200000 2044418553 2044418553 -3.00000000
8.30116272 5.02340317 2.24006271 75 13 5882 9.95800000 2044418555 2044418555 13.00000000
8.24193573 4.98559713 -0.16813648 14 14 5883 9.63400000 2044418558 2044418558 -1.00000000
7.54907131 4.56647921 2.36405325 45 15 5883 9.13400000 2044418560 2044418560 15.00000000
1.95213902 1.17714095 -0.61081296 4 0 5891 2.36000000 2044418581 2044418581 -15.00000000
8.22920513 4.96025705 0.16771762 13 1 5892 9.61000000 2044418583 2044418583 1.00000000
2.30846047 1.39090443 -0.62221462 3 2 5893 2.76600000 2044418585 2044418585 -13.00000000
8.23117352 4.95752716 0.50357658 63 3 5894 9.62200000 2044418588 2044418588 3.00000000
2.77493310 1.67130554 -0.62966967 5 4 5894 3.30000000 2044418590 2044418590 -11.00000000
8.25122643 4.96764231 0.84262174 77 5 5895 9.66800000 2044418592 2044418592 5.00000000
3.49674129 2.10437822 -0.64638722 6 6 5896 4.13200000 2044418595 2044418595 -9.00000000
4.68850517 2.81936598 -0.67174381 4 8 5898 5.51200000 2044418599 2044418599 -7.00000000
8.36367035 5.02738714 1.54557252 2 9 5899 9.88000000 2044418602 2044418602 9.00000000
6.69220924 4.02267504 -0.68312669 12 10 5899 7.83800000 2044418604 2044418604 -5.00000000
8.34014225 5.01126289 1.89129877 3 11 5900 9.91200000 2044418606 2044418606 11.00000000
8.22523880 4.94026852 -0.50284386 17 12 5901 9.60800000 2044418608 2044418608 -3.00000000
8.28857327 4.97634029 2.23196435 75 13 5902 9.92200000 2044418611 2044418611 13.00000000
8.23185444 4.94033289 -0.16757801 16 14 5903 9.60200000 2044418613 2044418613 -1.00000000
7.56496525 4.54010010 2.36405325 45 15 5903 9.13400000 2044418615 2044418615 15.00000000
1.95416999 1.17000985 -0.61029530 4 0 5909 2.35800000 2044418636 2044418636 -15.00000000
8.23102093 4.92616415 0.16743839 13 1 5910 9.59400000 2044418638 2044418638 1.00000000
2.31950808 1.38764715 -0.62401420 3 2 5911 2.77400000 2044418641 2044418641 -13.00000000
8.23042107 4.92385435 0.50263453 49 3 5911 9.60400000 2044418643 2044418643 3.00000000
2.77511501 1.65955675 -0.62852484 5 4 5912 3.29400000 2044418645 2044418645 -11.00000000
8.24798107 4.93045092 0.84070432 81 5 5913 9.64600000 2044418648 2044418648 5.00000000
3.51011801 2.09743547 -0.64763868 4 6 5914 4.14000000 2044418650 2044418650 -9.00000000
8.33366966 4.97772646 1.19188213 2 7 5915 9.78000000 2044418652 2044418652 7.00000000
4.71267891 2.81378150 -0.67393744 6 8 5916 5.53000000 2044418654 2044418654 -7.00000000
6.69112730 3.99346232 -0.68173224 12 10 5917 7.82200000 2044418659 2044418659 -5.00000000
8.32549667 4.96693182 1.88442969 3 11 5918 9.87600000 2044418661 2044418661 11.00000000
8.22013378 4.90212822 -0.50158781 12 12 5919 9.58400000 2044418664 2044418664 -3.00000000
8.28407955 4.93830252 2.22656560 78 13 5920 9.89800000 2044418666 2044418666 13.00000000
8.22672081 4.90216398 -0.16715916 14 14 5921 9.57800000 2044418668 2044418668 -1.00000000
1.96156406 1.16515458 -0.61133057 4 0 5929 2.36200000 2044418691 2044418691 -15.00000000
8.22409439 4.88310957 0.16694972 13 1 5930 9.56600000 2044418694 2044418694 1.00000000
2.32768941 1.38153136 -0.62491405 3 2 5931 2.77800000 2044418696 2044418696 -13.00000000
8.23638821 4.88652182 0.50190181 34 3 5932 9.59000000 2044418698 2044418698 3.00000000
2.78257966 1.65086138 -0.62890643 5 4 5932 3.29600000 2044418701 2044418701 -11.00000000
8.23943520 4.88638544 0.83808964 85 5 5933 9.61600000 2044418703 2044418703 5.00000000
3.51741815 2.08517003 -0.64763868 4 6 5934 4.14000000 2044418705 2044418705 -9.00000000
4.71564007 2.79326725 -0.67296249 4 8 5936 5.52200000 2044418710 2044418710 -7.00000000
6.67416716 3.95180964 -0.67859459 34 10 5937 7.78600000 2044418714 2044418714 -5.00000000
8.32926750 4.92984009 1.88137674 3 11 5938 9.86000000 2044418717 2044418717 11.00000000
8.23031998 4.86933661 -0.50116915 12 12 5939 9.57600000 2044418719 2044418719 -3.00000000
8.29120255 4.90340376 2.22386622 75 13 5940 9.88600000 2044418721 2044418721 13.00000000
8.23689651 4.86934662 -0.16701953 14 14 5941 9.57000000 2044418724 2044418724 -1.00000000
7.57906151 4.47867441 2.35887671 36 15 5942 9.11400000 2044418726 2044418726 15.00000000
1.95729744 1.15339649 -0.60874242 4 0 5949 2.35200000 2044418747 2044418747 -15.00000000
8.22385883 4.84422350 0.16660067 13 1 5950 9.54600000 2044418749 2044418749 1.00000000
2.33585620 1.37537527 -0.62581384 3 2 5951 2.78200000 2044418751 2044418751 -13.00000000
8.24222088 4.85310173 0.50127381 26 3 5951 9.57800000 2044418754 2044418754 3.00000000
2.78663325 1.64014244 -0.62852484 5 4 5952 3.29400000 2044418756 2044418756 -11.00000000
8.23926926 4.84749174 0.83634651 81 5 5953 9.59600000 2044418758 2044418758 5.00000000
3.51445889 2.06687093 -0.64576149 4 6 5954 4.12800000 2044418760 2044418760 -9.00000000
8.33056927 4.89729309 1.18651998 20 7 5955 9.73600000 2044418763 2044418763 7.00000000
4.73391914 2.78181815 -0.67418122 6 8 5956 5.53200000 2044418765 2044418765 -7.00000000
8.34600258 4.90244627 1.53305781 2 9 5957 9.80000000 2044418767 2044418767 9.00000000
8.34303951 4.89874744 1.88061345 3 11 5958 9.85600000 2044418772 2044418772 11.00000000
8.22142982 4.82541323 -0.49959904 17 12 5959 9.54600000 2044418774 2044418774 -3.00000000
8.29146004 4.86457109 2.21936703 78 13 5960 9.86600000 2044418777 2044418777 13.00000000
8.22969437 4.82640266 -0.16653086 14 14 5961 9.54200000 2044418779 2044418779 -1.00000000
7.60720301 4.46133471 2.36301780 42 15 5961 9.13000000 2044418781 2044418781 15.00000000
1.96965051 1.15143204 -0.61133057 4 0 5969 2.36200000 2044418802 2044418802 -15.00000000
8.22000027 4.80338049 0.16618182 13 1 5970 9.52200000 2044418804 2044418804 1.00000000
2.32718110 1.35935009 -0.62221462 3 2 5971 2.76600000 2044418806 2044418806 -13.00000000
8.23496723 4.81019831 0.49980837 21 3 5971 9.55000000 2044418809 2044418809 3.00000000
2.79403687 1.63139522 -0.62890643 5 4 5972 3.29600000 2044418811 2044418811 -11.00000000
8.23549175 4.80664968 0.83425474 85 5 5973 9.57200000 2044418813 2044418813 5.00000000
3.52506447 2.05658150 -0.64638722 4 6 5974 4.13200000 2044418816 2044418816 -9.00000000
4.74017096 2.76327729 -0.67369372 6 8 5976 5.52800000 2044418820 2044418820 -7.00000000
8.21751118 4.78462601 -0.49834296 17 12 5979 9.52200000 2044418830 2044418830 -3.00000000
8.29491615 4.82775640 2.21576786 72 13 5980 9.85000000 2044418832 2044418832 13.00000000
8.22574997 4.78557920 -0.16611201 14 14 5981 9.51800000 2044418834 2044418834 -1.00000000
7.62272978 4.43475389 2.36301780 47 15 5981 9.13000000 2044418836 2044418836 15.00000000
1.97720015 1.14614284 -0.61236584 4 0 5990 2.36600000 2044418857 2044418857 -15.00000000
8.22543907 4.76620245 0.16593748 13 1 5991 9.50800000 2044418859 2044418859 1.00000000
2.34226561 1.35667181 -0.62491405 3 2 5992 2.77800000 2044418862 2044418862 -13.00000000
8.23609161 4.76853561 0.49876165 15 3 5993 9.53000000 2044418864 2044418864 3.00000000
2.79320145 1.61720884 -0.62737995 5 4 5993 3.28800000 2044418866 2044418866 -11.00000000
8.24615574 4.77244091 0.83355755 81 5 5994 9.56400000 2044418869 2044418869 5.00000000
3.52573919 2.03969097 -0.64513576 4 6 5995 4.12400000 2044418871 2044418871 -9.00000000
4.74339247 2.74191141 -0.67271876 6 8 5997 5.52000000 2044418876 2044418876 -7.00000000
8.21423626 4.74249172 -0.49708691 17 12 6000 9.49800000 2044418885 2044418885 -3.00000000
8.28892612 4.78368473 2.20946932 70 13 6001 9.82200000 2044418887 2044418887 13.00000000
8.22244930 4.74340725 -0.16569315 16 14 6002 9.49400000 2044418889 2044418889 -1.00000000
7.64304876 4.40738201 2.36405325 45 15 6003 9.13400000 2044418892 2044418892 15.00000000
1.97114062 1.13345611 -0.60926002 4 0 6010 2.35400000 2044418912 2044418912 -15.00000000
8.22468853 4.72749615 0.16558844 16 1 6011 9.48800000 2044418915 2044418915 1.00000000
2.34698701 1.34848750 -0.62491405 3 2 6012 2.77800000 2044418917 2044418917 -13.00000000
8.23800564 4.73323727 0.49792430 10 3 6012 9.51400000 2044418919 2044418919 3.00000000
2.79712701 1.60647118 -0.62699836 5 4 6013 3.28600000 2044418922 2044418922 -11.00000000
8.24030209 4.73073196 0.83129150 81 5 6014 9.53800000 2044418924 2044418924 5.00000000
3.54654408 2.03523707 -0.64763868 4 6 6015 4.14000000 2044418926 2044418926 -9.00000000
4.76498890 2.73224926 -0.67442495 4 8 6017 5.53400000 2044418931 2044418931 -7.00000000
8.22380829 4.70981932 -0.49666822 17 12 6020 9.49000000 2044418940 2044418940 -3.00000000
8.29204369 4.74697638 2.20587015 72 13 6021 9.80600000 2044418942 2044418942 13.00000000
8.21292210 4.69977856 -0.16516958 16 14 6022 9.46400000 2044418945 2044418945 -1.00000000
7.65503311 4.37875748 2.36301780 45 15 6023 9.13000000 2044418947 2044418947 15.00000000
1.97133625 1.12534261 -0.60822475 4 0 6028 2.35000000 2044418968 2044418968 -15.00000000
8.22734261 4.69469643 0.16534410 16 1 6029 9.47400000 2044418970 2044418970 1.00000000
2.34105539 1.33531439 -0.62221462 3 2 6030 2.76600000 2044418972 2044418972 -13.00000000
8.23548603 4.69743824 0.49687758 10 3 6030 9.49400000 2044418975 2044418975 3.00000000
2.80216002 1.59767580 -0.62699836 5 4 6031 3.28600000 2044418977 2044418977 -11.00000000
8.22915840 4.69002247 0.82867682 77 5 6032 9.50800000 2044418979 2044418979 5.00000000
3.53918934 2.01626253 -0.64513576 4 6 6033 4.12400000 2044418982 2044418982 -9.00000000
8.24895000 4.69748831 1.16555846 20 7 6034 9.56400000 2044418984 2044418984 7.00000000
4.76319838 2.71137404 -0.67296249 6 8 6035 5.52200000 2044418986 2044418986 -7.00000000
6.68084097 3.80141759 -0.67249370 38 10 6036 7.71600000 2044418991 2044418991 -5.00000000
8.21946526 4.67310190 -0.49551684 17 12 6038 9.46800000 2044418995 2044418995 -3.00000000
8.29336166 4.71320009 2.20227075 75 13 6039 9.79000000 2044418998 2044418998 13.00000000
8.22243023 4.67099047 -0.16506486 14 14 6040 9.45800000 2044419000 2044419000 -1.00000000
7.66203165 4.35087109 2.36094737 45 15 6041 9.12200000 2044419002 2044419002 15.00000000
1.98197675 1.12226200 -0.61029530 4 0 6048 2.35800000 2044419023 2044419023 -15.00000000
8.21757603 4.65117407 0.16482052 16 1 6049 9.44400000 2044419025 2044419025 1.00000000
2.35927105 1.33481133 -0.62581384 3 2 6050 2.78200000 2044419028 2044419028 -13.00000000
8.24314117 4.66374493 0.49635422 10 3 6050 9.48400000 2044419030 2044419030 3.00000000
2.81113768 1.58981764 -0.62776160 5 4 6051 3.29000000 2044419032 2044419032 -11.00000000
8.23333836 4.65440559 0.82745659 77 5 6052 9.49400000 2044419035 2044419035 5.00000000
3.53244758 1.99612176 -0.64263278 6 6 6053 4.10800000 2044419037 2044419037 -9.00000000
8.24455547 4.65695000 1.16263354 38 7 6054 9.54000000 2044419039 2044419039 7.00000000
4.78991938 2.70449066 -0.67539990 4 8 6055 5.54200000 2044419042 2044419042 -7.00000000
6.67671824 3.76828098 -0.67075062 42 10 6056 7.69600000 2044419046 2044419046 -5.00000000
8.21833038 4.63457155 -0.49447012 17 12 6058 9.44800000 2044419051 2044419051 -3.00000000
8.29448509 4.67560959 2.19822168 74 13 6059 9.77200000 2044419053 2044419053 13.00000000
8.21777916 4.63048077 -0.16464600 10 14 6060 9.43400000 2044419055 2044419055 -1.00000000
7.67885590 4.32504749 2.36146498 45 15 6061 9.12400000 2044419058 2044419058 15.00000000
1.98756647 1.11628270 -0.61081296 4 0 6068 2.36000000 2044419078 2044419078 -15.00000000
8.21109295 4.60973501 0.16436677 16 1 6069 9.41800000 2044419081 2044419081 1.00000000
2.35032058 1.31893837 -0.62221462 3 2 6070 2.76600000 2044419083 2044419083 -13.00000000
8.22976017 4.61832619 0.49457479 13 3 6070 9.45000000 2044419085 2044419085 3.00000000
2.81838226 1.58095562 -0.62814319 5 4 6071 3.29200000 2044419088 2044419088 -11.00000000
8.23737049 4.61881638 0.82623643 77 5 6072 9.48000000 2044419090 2044419090 5.00000000
3.53939366 1.98377895 -0.64263278 4 6 6073 4.10800000 2044419092 2044419092 -9.00000000
8.23997974 4.61649942 1.15970862 76 7 6074 9.51600000 2044419094 2044419094 7.00000000
4.77508307 2.67417502 -0.67198753 4 8 6075 5.51400000 2044419097 2044419097 -7.00000000
8.20656776 4.59025574 -0.49279538 17 12 6078 9.41600000 2044419106 2044419106 -3.00000000
8.28354073 4.63141155 2.19102335 81 13 6079 9.74000000 2044419108 2044419108 13.00000000
8.22865582 4.59884024 -0.16454129 12 14 6080 9.42800000 2044419111 2044419111 -1.00000000
7.70158768 4.30427170 2.36405325 47 15 6080 9.13400000 2044419113 2044419113 15.00000000
2.00157690 1.11497879 -0.61391878 4 0 6088 2.37200000 2044419134 2044419134 -15.00000000
8.21315670 4.57326221 0.16408752 16 1 6089 9.40200000 2044419136 2044419136 1.00000000
2.34809923 1.30693519 -0.62041503 3 2 6090 2.75800000 2044419138 2044419138 -13.00000000
8.23187065 4.58179998 0.49373740 13 3 6090 9.43400000 2044419141 2044419141 3.00000000
2.82045245 1.56919909 -0.62737995 5 4 6091 3.28800000 2044419143 2044419143 -11.00000000
8.23951244 4.58228779 0.82484198 77 5 6092 9.46400000 2044419145 2044419145 5.00000000
3.56701517 1.98292959 -0.64638722 4 6 6093 4.13200000 2044419147 2044419147 -9.00000000
8.24042702 4.57903051 1.15751505 90 7 6094 9.49800000 2044419150 2044419150 7.00000000
4.80174208 2.66712952 -0.67442495 4 8 6095 5.53400000 2044419152 2044419152 -7.00000000
8.21730137 4.55867481 -0.49248135 17 12 6098 9.41000000 2044419161 2044419161 -3.00000000
8.27409267 4.58829260 2.18427467 80 13 6099 9.71000000 2044419164 2044419164 13.00000000
8.22017288 4.55651617 -0.16405262 12 14 6100 9.40000000 2044419166 2044419166 -1.00000000
7.71731186 4.27601528 2.36405325 45 15 6101 9.13400000 2044419168 2044419168 15.00000000
1.99531102 1.10237980 -0.61081296 4 0 6108 2.36000000 2044419189 2044419189 -15.00000000
8.22206879 4.54069853 0.16394791 16 1 6109 9.39400000 2044419191 2044419191 1.00000000
2.36970735 1.30814874 -0.62491405 3 2 6110 2.77800000 2044419194 2044419194 -13.00000000
8.22937202 4.54098368 0.49258602 15 3 6111 9.41200000 2044419196 2044419196 3.00000000
2.81903720 1.55555022 -0.62585348 5 4 6111 3.28000000 2044419198 2044419198 -11.00000000
8.23801136 4.54387569 0.82309884 81 5 6112 9.44400000 2044419200 2044419200 5.00000000
3.58083463 1.97428143 -0.64763868 4 6 6113 4.14000000 2044419203 2044419203 -9.00000000
8.23723698 4.53969860 1.15483391 92 7 6114 9.47600000 2044419205 2044419205 7.00000000
4.80406809 2.64652061 -0.67344999 4 8 6115 5.52600000 2044419207 2044419207 -7.00000000
8.22091484 4.52322388 -0.49174863 17 12 6118 9.39600000 2044419217 2044419217 -3.00000000
8.27298355 4.54999161 2.17977571 80 13 6119 9.69000000 2044419219 2044419219 13.00000000
8.20448589 4.51045418 -0.16342433 16 14 6120 9.36400000 2044419221 2044419221 -1.00000000
7.72637033 4.24760818 2.36250019 45 15 6120 9.12800000 2044419224 2044419224 15.00000000
1.98559344 1.08798170 -0.60667187 4 0 6128 2.34400000 2044419244 2044419244 -15.00000000
8.21331501 4.49852180 0.16345924 13 1 6129 9.36600000 2044419247 2044419247 1.00000000
2.37084055 1.29799736 -0.62401420 3 2 6130 2.77400000 2044419249 2044419249 -13.00000000
8.23641300 4.50743628 0.49206266 10 3 6131 9.40200000 2044419251 2044419251 3.00000000
2.82272768 1.54475796 -0.62547189 4 4 6131 3.27800000 2044419253 2044419253 -11.00000000
8.22760391 4.50074911 0.82048416 89 5 6132 9.41400000 2044419256 2044419256 5.00000000
3.56690621 1.95039737 -0.64388424 4 6 6133 4.11600000 2044419258 2044419258 -9.00000000
8.24083996 4.50425339 1.15312767 94 7 6134 9.46200000 2044419260 2044419260 7.00000000
4.81850290 2.63259053 -0.67418122 4 8 6135 5.53200000 2044419263 2044419263 -7.00000000
8.21912193 4.48493338 -0.49070191 21 12 6138 9.37600000 2044419272 2044419272 -3.00000000
8.27855110 4.51548672 2.17707634 80 13 6139 9.67800000 2044419274 2044419274 13.00000000
8.21491337 4.47891617 -0.16331962 16 14 6140 9.35800000 2044419277 2044419277 -1.00000000
7.73170900 4.21371412 2.35939431 45 15 6141 9.11600000 2044419279 2044419279 15.00000000
1.99956357 1.08657837 -0.60977769 4 0 6148 2.35600000 2044419300 2044419300 -15.00000000
8.20963860 4.45932531 0.16307528 13 1 6149 9.34400000 2044419302 2044419302 1.00000000
2.36850667 1.28599417 -0.62221462 3 2 6150 2.76600000 2044419304 2044419304 -13.00000000
8.23629856 4.47008371 0.49112061 10 3 6151 9.38400000 2044419306 2044419306 3.00000000
2.83500481 1.53864133 -0.62699836 4 4 6151 3.28600000 2044419309 2044419309 -11.00000000
8.21524334 4.45680094 0.81769520 77 5 6152 9.38200000 2044419311 2044419311 5.00000000
3.58063841 1.94170129 -0.64513576 6 6 6153 4.12400000 2044419313 2044419313 -9.00000000
8.23731518 4.46505404 1.15044665 87 7 6154 9.44000000 2044419316 2044419316 7.00000000
4.81544542 2.60913515 -0.67247504 4 8 6155 5.51800000 2044419318 2044419318 -7.00000000
6.68365288 3.61987019 -0.66499829 21 10 6156 7.63000000 2044419323 2044419323 -5.00000000
8.21013546 4.44290781 -0.48923653 21 12 6158 9.34800000 2044419327 2044419327 -3.00000000
8.28569221 4.48192596 2.17482686 71 13 6159 9.66800000 2044419330 2044419330 13.00000000
8.21994305 4.44450665 -0.16311020 18 14 6160 9.34600000 2044419332 2044419332 -1.00000000
7.75243711 4.19172716 2.36146498 45 15 6160 9.12400000 2044419334 2044419334 15.00000000
2.00334430 1.07959199 -0.60977769 4 0 6168 2.35600000 2044419355 2044419355 -15.00000000
8.21283054 4.42400265 0.16283095 13 1 6169 9.33000000 2044419357 2044419357 1.00000000
2.37641287 1.27956653 -0.62311441 3 2 6170 2.77000000 2044419359 2044419359 -13.00000000
8.23426437 4.43184090 0.49007389 10 3 6171 9.36400000 2044419362 2044419362 3.00000000
2.85418844 1.53617966 -0.63005131 4 4 6171 3.30200000 2044419364 2044419364 -11.00000000
8.21846867 4.42148972 0.81647497 77 5 6172 9.36800000 2044419366 2044419366 5.00000000
3.58391500 1.92731953 -0.64450997 6 6 6173 4.12000000 2044419369 2044419369 -9.00000000
8.22837257 4.42311478 1.14703429 90 7 6174 9.41200000 2044419371 2044419371 7.00000000
4.82627249 2.59324980 -0.67271876 4 8 6175 5.52000000 2044419373 2044419373 -7.00000000
6.68396139 3.58991861 -0.66377813 12 10 6176 7.61600000 2044419378 2044419378 -5.00000000
8.20447540 4.40288925 -0.48798046 17 12 6178 9.32400000 2044419382 2044419382 -3.00000000
8.27552700 4.43915844 2.16807818 72 13 6179 9.63800000 2044419385 2044419385 13.00000000
8.21954632 4.40728235 -0.16279605 16 14 6180 9.32800000 2044419387 2044419387 -1.00000000
7.76945114 4.16419744 2.36198258 45 15 6181 9.12600000 2044419389 2044419389 15.00000000
2.01050830 1.07441342 -0.61081296 4 0 6188 2.36000000 2044419410 2044419410 -15.00000000
8.20882130 4.38494349 0.16244701 12 1 6189 9.30800000 2044419412 2044419412 1.00000000
2.38430285 1.27309918 -0.62401420 3 2 6190 2.77400000 2044419415 2044419415 -13.00000000
8.22677803 4.39084530 0.48871315 10 3 6191 9.33800000 2044419417 2044419417 3.00000000
2.83528519 1.51326549 -0.62470865 4 4 6191 3.27400000 2044419419 2044419419 -11.00000000
8.23912621 4.39558840 0.81699795 89 5 6192 9.37400000 2044419422 2044419422 5.00000000
3.59062076 1.91479754 -0.64450997 6 6 6193 4.12000000 2044419424 2044419424 -9.00000000
8.23675442 4.39063025 1.14605927 92 7 6194 9.40400000 2044419426 2044419426 7.00000000
4.83354330 2.57545352 -0.67247504 4 8 6195 5.51800000 2044419429 2044419429 -7.00000000
6.69293451 3.56469226 -0.66342950 100 10 6196 7.61200000 2044419433 2044419433 -5.00000000
8.20216274 4.36484051 -0.48693374 17 12 6198 9.30400000 2044419438 2044419438 -3.00000000
8.27376747 4.40109301 2.16357923 68 13 6199 9.61800000 2044419440 2044419440 13.00000000
8.20839596 4.36448193 -0.16227247 16 14 6200 9.29800000 2044419442 2044419442 -1.00000000
7.78321743 4.13841009 2.36198258 45 15 6200 9.12600000 2044419445 2044419445 15.00000000
2.01083231 1.06557977 -0.60977769 4 0 6208 2.35600000 2044419465 2044419465 -15.00000000
8.21524239 4.35158253 0.16227247 12 1 6209 9.29800000 2044419468 2044419468 1.00000000
2.38873243 1.26476872 -0.62401420 3 2 6210 2.77400000 2044419470 2044419470 -13.00000000
8.21910667 4.34995651 0.48735243 10 3 6211 9.31200000 2044419472 2044419472 3.00000000
2.84922647 1.50795114 -0.62661672 5 4 6211 3.28400000 2044419475 2044419475 -11.00000000
8.22800255 4.35282612 0.81438327 85 5 6212 9.34400000 2044419477 2044419477 5.00000000
3.60077524 1.90409911 -0.64513576 6 6 6213 4.12400000 2044419479 2044419479 -9.00000000
8.24150085 4.35628605 1.14459682 92 7 6214 9.39200000 2044419482 2044419482 7.00000000
4.85478973 2.56505728 -0.67418122 4 8 6215 5.53200000 2044419484 2044419484 -7.00000000
8.20498466 4.32965851 -0.48620105 17 12 6218 9.29000000 2044419493 2044419493 -3.00000000
8.27873802 4.36673021 2.16087985 72 13 6219 9.60600000 2044419495 2044419495 13.00000000
8.20412350 4.32554340 -0.16188852 18 14 6220 9.27600000 2044419498 2044419498 -1.00000000
7.78807926 4.10445118 2.35887671 45 15 6221 9.11400000 2044419500 2044419500 15.00000000
2.00391126 1.05386209 -0.60667187 4 0 6226 2.34400000 2044419521 2044419521 -15.00000000
8.21117210 4.31644773 0.16192342 15 1 6227 9.27800000 2044419523 2044419523 1.00000000
2.39959431 1.26088393 -0.62581384 3 2 6228 2.78200000 2044419525 2044419525 -13.00000000
8.22565842 4.32039881 0.48693374 13 3 6229 9.30400000 2044419528 2044419528 3.00000000
2.85047340 1.49716675 -0.62585348 5 4 6229 3.28000000 2044419530 2044419530 -11.00000000
8.22046757 4.31584215 0.81229150 82 5 6230 9.32000000 2044419532 2044419532 5.00000000
3.59624457 1.88726997 -0.64325851 6 6 6231 4.11200000 2044419535 2044419535 -9.00000000
8.24284077 4.32391834 1.14289069 85 7 6232 9.37800000 2044419537 2044419537 7.00000000
4.87161493 2.55440187 -0.67539990 4 8 6233 5.54200000 2044419539 2044419539 -7.00000000
6.68642950 3.50450134 -0.66046619 56 10 6234 7.57800000 2044419544 2044419544 -5.00000000
8.21500683 4.30200720 -0.48599169 17 12 6236 9.28600000 2044419548 2044419548 -3.00000000
8.27687740 4.33256626 2.15683079 74 13 6237 9.58800000 2044419551 2044419551 13.00000000
8.20172596 4.29140472 -0.16157438 14 14 6238 9.25800000 2044419553 2044419553 -1.00000000
7.79337597 4.07774305 2.35680628 45 15 6238 9.10600000 2044419555 2044419555 15.00000000
