# .PCD v0.7 - Point Cloud Data file format
VERSION 0.7
FIELDS x y z intensity laser_id azimuth distance_m adjustedtime timestamp vertical_angle
SIZE 4 4 4 1 1 2 8 8 4 8
TYPE F F F U U U F U U F
COUNT 1 1 1 1 1 1 1 1 1 1
WIDTH 528
HEIGHT 1
VIEWPOINT 0 0 0 1 0 0 0
POINTS 528
DATA ascii
2.22873807 0.05252312 -0.59735435 4 0 8865 2.30800000 2045626635 2045626635 -15.00000000
8.11054516 0.18971926 0.14160882 15 1 8866 8.11400000 2045626637 2045626637 1.00000000
2.63203859 0.06110817 -0.60781777 6 2 8867 2.70200000 2045626639 2045626639 -13.00000000
8.13064766 0.18876965 0.42622402 15 3 8867 8.14400000 2045626642 2045626642 3.00000000
3.14822435 0.07254272 -0.61211526 5 4 8868 3.20800000 2045626644 2045626644 -11.00000000
8.10292149 0.18529598 0.70909911 72 5 8869 8.13600000 2045626646 2045626646 5.00000000
3.96553540 0.08999059 -0.62824082 6 6 8870 4.01600000 2045626649 2045626649 -9.00000000
8.13681602 0.18322931 0.99932861 92 7 8871 8.20000000 2045626651 2045626651 7.00000000
5.26910496 0.11773252 -0.64712620 6 8 8872 5.31000000 2045626653 2045626653 -7.00000000
8.20959187 0.18343456 1.30059612 10 9 8872 8.31400000 2045626656 2045626656 9.00000000
6.61310768 0.14660805 -0.57871413 52 10 8873 6.64000000 2045626658 2045626658 -5.00000000
8.12491322 0.17728624 -0.42591003 25 12 8875 8.13800000 2045626662 2045626662 -3.00000000
8.11089516 0.17414780 -0.14160882 18 14 8877 8.11400000 2045626667 2045626667 -1.00000000
8.16601753 0.17390543 2.18857384 47 15 8878 8.45600000 2045626669 2045626669 15.00000000
2.23663354 0.04489814 -0.59942490 4 0 8885 2.31600000 2045626690 2045626690 -15.00000000
8.10516071 0.16128767 0.14150411 18 1 8886 8.10800000 2045626692 2045626692 1.00000000
2.62249398 0.05172811 -0.60556823 6 2 8887 2.69200000 2045626695 2045626695 -13.00000000
8.13525105 0.16046602 0.42643338 13 3 8887 8.14800000 2045626697 2045626697 3.00000000
3.15238404 0.06162967 -0.61287850 5 4 8888 3.21200000 2045626699 2045626699 -11.00000000
8.12343884 0.15739633 0.71084225 90 5 8889 8.15600000 2045626702 2045626702 5.00000000
3.95990038 0.07603397 -0.62730223 9 6 8890 4.01000000 2045626704 2045626704 -9.00000000
8.13343620 0.15474989 0.99884117 92 7 8891 8.19600000 2045626706 2045626706 7.00000000
5.27345324 0.09941403 -0.64761370 6 8 8892 5.31400000 2045626709 2045626709 -7.00000000
8.21808243 0.15492555 1.30184758 10 9 8892 8.32200000 2045626711 2045626711 9.00000000
6.61955547 0.12363473 -0.57923704 100 10 8893 6.64600000 2045626713 2045626713 -5.00000000
8.11549759 0.14874092 -0.42538664 17 12 8895 8.12800000 2045626718 2045626718 -3.00000000
8.10945415 0.14579847 -0.14157392 20 14 8897 8.11200000 2045626722 2045626722 -1.00000000
8.17043781 0.14546843 2.18960905 49 15 8898 8.46000000 2045626725 2045626725 15.00000000
2.23290706 0.03741622 -0.59838963 4 0 8904 2.31200000 2045626745 2045626745 -15.00000000
8.11364841 0.13454172 0.14164373 18 1 8905 8.11600000 2045626748 2045626748 1.00000000
2.61680579 0.04293542 -0.60421854 7 2 8906 2.68600000 2045626750 2045626750 -13.00000000
8.12375641 0.13329108 0.42580533 13 3 8906 8.13600000 2045626752 2045626752 3.00000000
3.15649724 0.05123938 -0.61364174 5 4 8907 3.21600000 2045626755 2045626755 -11.00000000
8.11793995 0.13036120 0.71031928 79 5 8908 8.15000000 2045626757 2045626757 5.00000000
3.96013069 0.06290205 -0.62730223 9 6 8909 4.01000000 2045626759 2045626759 -9.00000000
8.12596512 0.12765287 0.99786621 90 7 8910 8.18800000 2045626761 2045626761 7.00000000
5.26184464 0.08174107 -0.64615124 6 8 8911 5.30200000 2045626764 2045626764 -7.00000000
8.21657562 0.12764187 1.30153477 10 9 8911 8.32000000 2045626766 2045626766 9.00000000
6.60199976 0.10140741 -0.57766825 100 10 8912 6.62800000 2045626768 2045626768 -5.00000000
8.09996986 0.12158832 -0.42454928 17 12 8914 8.11200000 2045626773 2045626773 -3.00000000
8.12388897 0.11911097 -0.14181826 20 14 8916 8.12600000 2045626778 2045626778 -1.00000000
8.17085457 0.11979956 2.18960905 47 15 8916 8.46000000 2045626780 2045626780 15.00000000
2.23688745 0.02967294 -0.59942490 4 0 8924 2.31600000 2045626801 2045626801 -15.00000000
8.10407066 0.10608810 0.14146921 15 1 8925 8.10600000 2045626803 2045626803 1.00000000
2.61109400 0.03372530 -0.60286885 6 2 8926 2.68000000 2045626805 2045626805 -13.00000000
8.11818123 0.10485568 0.42549133 15 3 8926 8.13000000 2045626808 2045626808 3.00000000
3.14487815 0.04007076 -0.61135203 5 4 8927 3.20400000 2045626810 2045626810 -11.00000000
8.12233067 0.10207359 0.71066791 79 5 8928 8.15400000 2045626812 2045626812 5.00000000
3.96427655 0.04912719 -0.62792796 6 6 8929 4.01400000 2045626814 2045626814 -9.00000000
8.13033104 0.09933568 0.99835366 90 7 8930 8.19200000 2045626817 2045626817 7.00000000
5.25018835 0.06322988 -0.64468884 8 8 8931 5.29000000 2045626819 2045626819 -7.00000000
8.21302032 0.09891231 1.30090904 10 9 8931 8.31600000 2045626821 2045626821 9.00000000
6.60430574 0.07838516 -0.57784259 36 10 8932 6.63000000 2045626824 2045626824 -5.00000000
8.11033058 0.09342844 -0.42507264 17 12 8934 8.12200000 2045626828 2045626828 -3.00000000
8.10026073 0.09048454 -0.14139940 20 14 8936 8.10200000 2045626833 2045626833 -1.00000000
8.17703342 0.08991481 2.19116211 51 15 8937 8.46600000 2045626835 2045626835 15.00000000
2.23311758 0.02143705 -0.59838963 4 0 8945 2.31200000 2045626856 2045626856 -15.00000000
8.12040234 0.07653525 0.14174844 15 1 8946 8.12200000 2045626858 2045626858 1.00000000
2.61704612 0.02420901 -0.60421854 7 2 8947 2.68600000 2045626861 2045626861 -13.00000000
8.11852360 0.07368341 0.42549133 15 3 8948 8.13000000 2045626863 2045626863 3.00000000
3.13911438 0.02849048 -0.61020714 5 4 8948 3.19800000 2045626865 2045626865 -11.00000000
8.11866474 0.07226760 0.71031928 76 5 8949 8.15000000 2045626867 2045626867 5.00000000
3.96640539 0.03461429 -0.62824082 2 6 8950 4.01600000 2045626870 2045626870 -9.00000000
8.13262558 0.06955283 0.99859738 90 7 8951 8.19400000 2045626872 2045626872 7.00000000
5.25832510 0.04405307 -0.64566380 8 8 8952 5.29800000 2045626874 2045626874 -7.00000000
8.19159985 0.06862739 1.29746747 10 9 8952 8.29400000 2045626877 2045626877 9.00000000
6.60454845 0.05417864 -0.57784259 20 10 8953 6.63000000 2045626879 2045626879 -5.00000000
8.11461353 0.06373333 -0.42528197 21 12 8955 8.12600000 2045626884 2045626884 -3.00000000
8.09853840 0.06077999 -0.14136449 18 14 8957 8.10000000 2045626888 2045626888 -1.00000000
8.17343426 0.06134209 2.19012666 51 15 8957 8.46200000 2045626891 2045626891 15.00000000
2.22158790 0.01357108 -0.59528381 4 0 8965 2.30000000 2045626911 2045626911 -15.00000000
8.11262131 0.04814183 0.14160882 15 1 8966 8.11400000 2045626914 2045626914 1.00000000
2.63270426 0.01516346 -0.60781777 7 2 8967 2.70200000 2045626916 2045626916 -13.00000000
8.12072849 0.04535518 0.42559600 15 3 8968 8.13200000 2045626918 2045626918 3.00000000
3.13330507 0.01749986 -0.60906231 5 4 8968 3.19200000 2045626920 2045626920 -11.00000000
8.10691357 0.04386305 0.70927346 79 5 8969 8.13800000 2045626923 2045626923 5.00000000
3.93687177 0.02061360 -0.62354779 2 6 8970 3.98600000 2045626925 2045626925 -9.00000000
8.13877392 0.04119439 0.99932861 92 7 8971 8.20000000 2045626927 2045626927 7.00000000
5.25844669 0.02569782 -0.64566380 8 8 8972 5.29800000 2045626930 2045626930 -7.00000000
8.20364857 0.03865907 1.29934466 10 9 8973 8.30600000 2045626932 2045626932 9.00000000
6.59274340 0.03106780 -0.57679671 24 10 8973 6.61800000 2045626934 2045626934 -5.00000000
8.11079216 0.03539023 -0.42507264 25 12 8975 8.12200000 2045626939 2045626939 -3.00000000
8.09070206 0.03247834 -0.14122488 18 14 8977 8.09200000 2045626944 2045626944 -1.00000000
8.16394520 0.03134745 2.18753862 49 15 8978 8.45200000 2045626946 2045626946 15.00000000
2.22355366 0.00582126 -0.59580141 4 0 8985 2.30200000 2045626967 2045626967 -15.00000000
8.10674095 0.01980854 0.14150411 25 1 8986 8.10800000 2045626969 2045626969 1.00000000
2.62494612 0.00595582 -0.60601813 7 2 8987 2.69400000 2045626971 2045626971 -13.00000000
8.13282108 0.01703337 0.42622402 13 3 8988 8.14400000 2045626973 2045626973 3.00000000
3.14905310 0.00659537 -0.61211526 5 4 8988 3.20800000 2045626976 2045626976 -11.00000000
8.11100197 0.01557203 0.70962209 76 5 8989 8.14200000 2045626978 2045626978 5.00000000
3.95469809 0.00690226 -0.62636358 2 6 8990 4.00400000 2045626980 2045626980 -9.00000000
8.12298775 0.01275957 0.99737871 92 7 8991 8.18400000 2045626983 2045626983 7.00000000
5.26247454 0.00734781 -0.64615124 8 8 8992 5.30200000 2045626985 2045626985 -7.00000000
8.20570660 0.01145734 1.29965758 10 9 8992 8.30800000 2045626987 2045626987 9.00000000
6.59480381 0.00805708 -0.57697099 12 10 8993 6.62000000 2045626990 2045626990 -5.00000000
8.10487461 0.00707284 -0.42475861 21 12 8995 8.11600000 2045626994 2045626994 -3.00000000
8.10076523 0.00424155 -0.14139940 18 14 8997 8.10200000 2045626999 2045626999 -1.00000000
8.16786766 0.00427669 2.18857384 47 15 8997 8.45600000 2045627001 2045627001 15.00000000
-7.64950228 -0.00000000 -0.40089342 24 12 27000 7.66000000 2045676927 2045676927 -3.00000000
-10.17892551 0.00355312 2.72743511 42 15 27002 10.53800000 2045676933 2045676933 15.00000000
-1.94537222 0.00305579 -0.52126157 5 0 27009 2.01400000 2045676954 2045676954 -15.00000000
-2.23909831 0.00429877 -0.51693749 4 2 27011 2.29800000 2045676959 2045676959 -13.00000000
-2.60719609 0.00546051 -0.50678867 3 4 27012 2.65600000 2045676963 2045676963 -11.00000000
-3.14083958 0.00767453 -0.49746159 3 6 27014 3.18000000 2045676968 2045676968 -9.00000000
-3.94039297 0.01100368 -0.48382130 3 8 27016 3.97000000 2045676973 2045676973 -7.00000000
-5.16624308 0.01532860 -0.45198968 6 10 27017 5.18600000 2045676977 2045676977 -5.00000000
-7.65944624 0.02539978 -0.40141678 20 12 27019 7.67000000 2045676982 2045676982 -3.00000000
-10.16146469 0.03901742 2.72277641 45 15 27022 10.52000000 2045676989 2045676989 15.00000000
-1.94534969 0.00984638 -0.52126157 5 0 27029 2.01400000 2045677009 2045677009 -15.00000000
-2.23322344 0.01208302 -0.51558781 4 2 27031 2.29200000 2045677014 2045677014 -13.00000000
-2.61894059 0.01462707 -0.50907838 3 4 27032 2.66800000 2045677019 2045677019 -11.00000000
-3.14869499 0.01868495 -0.49871308 3 6 27034 3.18800000 2045677023 2045677023 -9.00000000
-3.96613622 0.02492030 -0.48698989 3 8 27036 3.99600000 2045677028 2045677028 -7.00000000
-5.18608141 0.03349072 -0.45373279 6 10 27037 5.20600000 2045677033 2045677033 -5.00000000
-7.65731382 0.05212249 -0.40131211 16 12 27039 7.66800000 2045677037 2045677037 -3.00000000
-10.15353966 0.07443067 2.72070575 42 15 27042 10.51200000 2045677044 2045677044 15.00000000
-1.94916701 0.01666990 -0.52229685 5 0 27049 2.01800000 2045677065 2045677065 -15.00000000
-2.23316765 0.01987835 -0.51558781 4 2 27051 2.29200000 2045677069 2045677069 -13.00000000
-2.61494708 0.02373316 -0.50831515 3 4 27052 2.66400000 2045677074 2045677074 -11.00000000
-3.14070940 0.02960137 -0.49746159 3 6 27054 3.18000000 2045677079 2045677079 -9.00000000
-3.94419003 0.03855113 -0.48430878 5 8 27056 3.97400000 2045677083 2045677083 -7.00000000
-5.18991756 0.05163296 -0.45408142 6 10 27057 5.21000000 2045677088 2045677088 -5.00000000
-7.63911104 0.07866608 -0.40037006 16 12 27059 7.65000000 2045677092 2045677092 -3.00000000
-10.16094494 0.10995629 2.72277641 42 15 27062 10.52000000 2045677099 2045677099 15.00000000
-1.95682383 0.02356672 -0.52436739 5 0 27069 2.02600000 2045677120 2045677120 -15.00000000
-2.23698187 0.02772174 -0.51648760 4 2 27071 2.29600000 2045677125 2045677125 -13.00000000
-2.61288524 0.03283621 -0.50793356 3 4 27072 2.66200000 2045677129 2045677129 -11.00000000
-3.15243816 0.04071738 -0.49933881 3 6 27074 3.19200000 2045677134 2045677134 -9.00000000
-3.93212199 0.05216070 -0.48284635 5 8 27076 3.96200000 2045677139 2045677139 -7.00000000
-5.19767475 0.06985594 -0.45477867 6 10 27077 5.21800000 2045677143 2045677143 -5.00000000
-7.64078665 0.10535862 -0.40047473 16 12 27079 7.65200000 2045677148 2045677148 -3.00000000
-10.15277290 0.14531335 2.72070575 45 15 27082 10.51200000 2045677155 2045677155 15.00000000
-1.94706619 0.03058696 -0.52177918 5 0 27090 2.01600000 2045677175 2045677175 -15.00000000
-2.24271083 0.03601437 -0.51783735 4 2 27092 2.30200000 2045677180 2045677180 -13.00000000
-2.60489535 0.04228523 -0.50640708 3 4 27093 2.65400000 2045677185 2045677185 -11.00000000
-3.14041710 0.05207486 -0.49746159 3 6 27095 3.18000000 2045677189 2045677189 -9.00000000
-3.94778275 0.06684114 -0.48479626 5 8 27097 3.97800000 2045677194 2045677194 -7.00000000
-5.18543100 0.08870143 -0.45373279 9 10 27098 5.20600000 2045677198 2045677198 -5.00000000
-7.64234638 0.13339765 -0.40057942 12 12 27100 7.65400000 2045677203 2045677203 -3.00000000
-10.15220356 0.18075226 2.72070575 45 15 27102 10.51200000 2045677210 2045677210 15.00000000
-1.94501615 0.03734622 -0.52126157 4 0 27110 2.01400000 2045677231 2045677231 -15.00000000
-2.24646807 0.04391885 -0.51873714 4 2 27112 2.30600000 2045677235 2045677235 -13.00000000
-2.61454630 0.05157134 -0.50831515 3 4 27113 2.66400000 2045677240 2045677240 -11.00000000
-3.14021635 0.06303664 -0.49746159 3 6 27115 3.18000000 2045677244 2045677244 -9.00000000
-3.94752550 0.08062106 -0.48479626 7 8 27117 3.97800000 2045677249 2045677249 -7.00000000
-5.17712212 0.10663731 -0.45303556 6 10 27118 5.19800000 2045677254 2045677254 -5.00000000
-7.64982128 0.16024092 -0.40099809 12 12 27120 7.66200000 2045677258 2045677258 -3.00000000
-10.13602161 0.21762897 2.71656466 42 15 27123 10.49600000 2045677265 2045677265 15.00000000
-1.94680524 0.04417919 -0.52177918 5 0 27130 2.01600000 2045677286 2045677286 -15.00000000
-2.23461175 0.05149087 -0.51603770 4 2 27132 2.29400000 2045677291 2045677291 -13.00000000
-2.62416387 0.06092534 -0.51022327 3 4 27133 2.67400000 2045677295 2045677295 -11.00000000
-3.14787650 0.07418382 -0.49871308 3 6 27135 3.18800000 2045677300 2045677300 -9.00000000
-3.96111155 0.09473224 -0.48650241 7 8 27137 3.99200000 2045677304 2045677304 -7.00000000
-5.18866920 0.12499609 -0.45408142 9 10 27138 5.21000000 2045677309 2045677309 -5.00000000
-7.63723564 0.18665001 -0.40037006 12 12 27140 7.65000000 2045677314 2045677314 -3.00000000
-10.14296913 0.25143152 2.71863532 42 15 27142 10.50400000 2045677321 2045677321 15.00000000
-1.94857037 0.05102511 -0.52229685 5 0 27150 2.01800000 2045677341 2045677341 -15.00000000
-2.22662616 0.05908404 -0.51423812 4 2 27152 2.28600000 2045677346 2045677346 -13.00000000
-2.62786031 0.07018986 -0.51098651 3 4 27153 2.67800000 2045677350 2045677350 -11.00000000
-3.16339564 0.08559897 -0.50121605 3 6 27155 3.20400000 2045677355 2045677355 -9.00000000
-3.94686627 0.10817780 -0.48479626 7 8 27157 3.97800000 2045677360 2045677360 -7.00000000
-5.19616747 0.14332691 -0.45477867 9 10 27158 5.21800000 2045677364 2045677364 -5.00000000
-7.64053059 0.21341933 -0.40057942 12 12 27160 7.65400000 2045677369 2045677369 -3.00000000
-10.14391041 0.28866065 2.71915293 42 15 27163 10.50600000 2045677376 2045677376 15.00000000
-1.95997655 0.05782836 -0.52540267 5 0 27169 2.03000000 2045677397 2045677397 -15.00000000
-2.23810530 0.06681638 -0.51693749 4 2 27171 2.29800000 2045677401 2045677401 -13.00000000
-2.62368846 0.07878591 -0.51022327 3 4 27172 2.67400000 2045677406 2045677406 -11.00000000
-3.15124750 0.09572881 -0.49933881 3 6 27174 3.19200000 2045677410 2045677410 -9.00000000
-3.94251752 0.12114355 -0.48430878 7 8 27176 3.97400000 2045677415 2045677415 -7.00000000
-5.19964647 0.16068031 -0.45512730 9 10 27177 5.22200000 2045677420 2045677420 -5.00000000
-7.64976215 0.23906702 -0.40110278 12 12 27179 7.66400000 2045677424 2045677424 -3.00000000
-10.14488411 0.32058820 2.71967053 42 15 27181 10.50800000 2045677431 2045677431 15.00000000
-1.94624710 0.06422361 -0.52177918 4 0 27189 2.01600000 2045677452 2045677452 -15.00000000
-2.23980594 0.07469337 -0.51738745 4 2 27191 2.30000000 2045677456 2045677456 -13.00000000
-2.61162448 0.08754915 -0.50793356 3 4 27192 2.66200000 2045677461 2045677461 -11.00000000
-3.16668820 0.10726311 -0.50184178 3 6 27194 3.20800000 2045677466 2045677466 -9.00000000
-3.94207072 0.13490477 -0.48430878 7 8 27196 3.97400000 2045677470 2045677470 -7.00000000
-5.18710661 0.17841853 -0.45408142 6 10 27197 5.21000000 2045677475 2045677475 -5.00000000
-7.66684532 0.26639241 -0.40204480 16 12 27199 7.68200000 2045677479 2045677479 -3.00000000
-10.14750290 0.35790512 2.72070575 47 15 27202 10.51200000 2045677486 2045677486 15.00000000
-1.94795406 0.07074736 -0.52229685 4 0 27208 2.01800000 2045677507 2045677507 -15.00000000
-2.24344087 0.08226325 -0.51828724 4 2 27210 2.30400000 2045677512 2045677512 -13.00000000
-2.62309146 0.09664283 -0.51022327 3 4 27211 2.67400000 2045677516 2045677516 -11.00000000
-3.17421103 0.11805732 -0.50309324 3 6 27213 3.21600000 2045677521 2045677521 -9.00000000
-3.95747137 0.14857218 -0.48625869 7 8 27215 3.99000000 2045677526 2045677526 -7.00000000
-5.18648672 0.19561861 -0.45408142 6 10 27216 5.21000000 2045677530 2045677530 -5.00000000
-7.65594101 0.29143524 -0.40152144 12 12 27218 7.67200000 2045677535 2045677535 -3.00000000
-10.13474560 0.38933766 2.71759987 45 15 27220 10.50000000 2045677542 2045677542 15.00000000
-1.94190419 0.07731599 -0.52074391 4 0 27228 2.01200000 2045677562 2045677562 -15.00000000
-2.23729849 0.08985920 -0.51693749 4 2 27230 2.29800000 2045677567 2045677567 -13.00000000
-2.61881471 0.10564028 -0.50946003 3 4 27231 2.67000000 2045677572 2045677572 -11.00000000
-3.14614725 0.12801233 -0.49871308 3 6 27233 3.18800000 2045677576 2045677576 -9.00000000
-3.95692849 0.16238543 -0.48625869 7 8 27235 3.99000000 2045677581 2045677581 -7.00000000
-5.18577242 0.21372165 -0.45408142 9 10 27236 5.21000000 2045677585 2045677585 -5.00000000
-7.65288115 0.31807476 -0.40141678 16 12 27238 7.67000000 2045677590 2045677590 -3.00000000
-10.13325024 0.42648074 2.71759987 45 15 27241 10.50000000 2045677597 2045677597 15.00000000
-1.95706284 0.08476277 -0.52488500 5 0 27248 2.02800000 2045677618 2045677618 -15.00000000
-2.22918367 0.09732826 -0.51513791 4 2 27250 2.29000000 2045677622 2045677622 -13.00000000
-2.61843014 0.11478100 -0.50946003 3 4 27251 2.67000000 2045677627 2045677627 -11.00000000
-3.16541576 0.13986564 -0.50184178 3 6 27253 3.20800000 2045677632 2045677632 -9.00000000
-3.94840503 0.17584342 -0.48528373 7 8 27255 3.98200000 2045677636 2045677636 -7.00000000
-5.16907120 0.23111014 -0.45268694 6 10 27256 5.19400000 2045677641 2045677641 -5.00000000
-7.64174843 0.34433684 -0.40089342 28 12 27258 7.66000000 2045677645 2045677645 -3.00000000
-10.13949966 0.46043199 2.71967053 45 15 27260 10.50800000 2045677652 2045677652 15.00000000
-1.95289552 0.09141302 -0.52384973 4 0 27268 2.02400000 2045677673 2045677673 -15.00000000
-2.23272347 0.10529257 -0.51603770 4 2 27270 2.29400000 2045677678 2045677678 -13.00000000
-2.61801338 0.12392033 -0.50946003 3 4 27271 2.67000000 2045677682 2045677682 -11.00000000
-3.16490817 0.15091415 -0.50184178 3 6 27273 3.20800000 2045677687 2045677687 -9.00000000
-3.94380164 0.18943438 -0.48479626 5 8 27275 3.97800000 2045677691 2045677691 -7.00000000
-5.20007420 0.25068718 -0.45547593 6 10 27276 5.22600000 2045677696 2045677696 -5.00000000
-7.64847946 0.37139690 -0.40131211 28 12 27278 7.66800000 2045677701 2045677701 -3.00000000
-10.14160347 0.49778146 2.72070575 45 15 27281 10.51200000 2045677708 2045677708 15.00000000
-1.94484699 0.09784108 -0.52177918 4 0 27288 2.01600000 2045677728 2045677728 -15.00000000
-2.23623490 0.11328278 -0.51693749 4 2 27290 2.29800000 2045677733 2045677733 -13.00000000
-2.61364341 0.13285881 -0.50869679 3 4 27291 2.66600000 2045677738 2045677738 -11.00000000
-3.16830778 0.16216277 -0.50246751 3 6 27293 3.21200000 2045677742 2045677742 -9.00000000
-3.96294093 0.20422128 -0.48723364 5 8 27295 3.99800000 2045677747 2045677747 -7.00000000
-5.19518805 0.26863152 -0.45512730 6 10 27296 5.22200000 2045677751 2045677751 -5.00000000
-7.64713621 0.39809281 -0.40131211 24 12 27298 7.66800000 2045677756 2045677756 -3.00000000
-10.12639236 0.53070176 2.71708226 47 15 27300 10.49800000 2045677763 2045677763 15.00000000
-1.93677735 0.10421408 -0.51970863 4 0 27308 2.00800000 2045677784 2045677784 -15.00000000
-2.24750113 0.12172031 -0.51963693 4 2 27310 2.31000000 2045677788 2045677788 -13.00000000
-2.62100530 0.14240737 -0.51022327 3 4 27311 2.67400000 2045677793 2045677793 -11.00000000
-3.16377759 0.17300552 -0.50184178 3 6 27313 3.20800000 2045677797 2045677797 -9.00000000
-3.96220398 0.21805328 -0.48723364 5 8 27315 3.99800000 2045677802 2045677802 -7.00000000
-5.21013355 0.28764310 -0.45652178 6 10 27316 5.23800000 2045677807 2045677807 -5.00000000
-7.65965939 0.42555943 -0.40204480 32 12 27318 7.68200000 2045677811 2045677811 -3.00000000
-10.12254906 0.56593835 2.71656466 42 15 27320 10.49600000 2045677818 2045677818 15.00000000
-1.93445373 0.11120115 -0.51919103 4 0 27329 2.00600000 2045677839 2045677839 -15.00000000
-2.23536706 0.12928189 -0.51693749 4 2 27331 2.29800000 2045677844 2045677844 -13.00000000
-2.62438560 0.15224026 -0.51098651 3 4 27332 2.67800000 2045677848 2045677848 -11.00000000
-3.15523410 0.18413983 -0.50059026 3 6 27334 3.20000000 2045677853 2045677853 -9.00000000
-3.97723150 0.23350477 -0.48918355 6 8 27336 4.01400000 2045677857 2045677857 -7.00000000
-5.19313288 0.30580032 -0.45512730 6 10 27337 5.22200000 2045677862 2045677862 -5.00000000
-7.65007305 0.45315820 -0.40162614 32 12 27339 7.67400000 2045677867 2045677867 -3.00000000
-10.12426376 0.60326540 2.71759987 42 15 27341 10.50000000 2045677873 2045677873 15.00000000
-1.94562328 0.11865858 -0.52229685 4 0 27349 2.01800000 2045677894 2045677894 -15.00000000
-2.23684716 0.13720331 -0.51738745 4 2 27351 2.30000000 2045677899 2045677899 -13.00000000
-2.62383819 0.16140015 -0.51098651 3 4 27352 2.67800000 2045677903 2045677903 -11.00000000
-3.15457201 0.19515254 -0.50059026 3 6 27354 3.20000000 2045677908 2045677908 -9.00000000
-3.97242975 0.24713996 -0.48869607 6 8 27356 4.01000000 2045677913 2045677913 -7.00000000
-5.19601107 0.32417399 -0.45547593 6 10 27357 5.22600000 2045677917 2045677917 -5.00000000
-7.64246464 0.47948399 -0.40131211 32 12 27359 7.66800000 2045677922 2045677922 -3.00000000
-10.11427307 0.63988072 2.71552944 45 15 27362 10.49200000 2045677929 2045677929 15.00000000
-1.95290864 0.12594667 -0.52436739 4 0 27369 2.02600000 2045677950 2045677950 -15.00000000
-2.23246527 0.14475833 -0.51648760 4 2 27371 2.29600000 2045677954 2045677954 -13.00000000
-2.61542225 0.17004856 -0.50946003 3 4 27372 2.67000000 2045677959 2045677959 -11.00000000
-3.15781403 0.20642056 -0.50121605 3 6 27374 3.20400000 2045677963 2045677963 -9.00000000
-3.95965791 0.26022375 -0.48723364 5 8 27376 3.99800000 2045677968 2045677968 -7.00000000
-5.21274042 0.34348851 -0.45704472 9 10 27377 5.24400000 2045677973 2045677973 -5.00000000
-7.64672327 0.50655431 -0.40162614 28 12 27379 7.67400000 2045677977 2045677977 -3.00000000
-10.11980534 0.67393082 2.71759987 45 15 27381 10.50000000 2045677984 2045677984 15.00000000
-1.93703794 0.13171436 -0.52022630 4 0 27389 2.01000000 2045678005 2045678005 -15.00000000
-2.23389077 0.15268309 -0.51693749 4 2 27391 2.29800000 2045678009 2045678009 -13.00000000
-2.61481285 0.17917706 -0.50946003 3 4 27392 2.67000000 2045678014 2045678014 -11.00000000
-3.16495705 0.21798505 -0.50246751 3 6 27394 3.21200000 2045678019 2045678019 -9.00000000
-3.96862721 0.27472940 -0.48845232 6 8 27396 4.00800000 2045678023 2045678023 -7.00000000
-5.18964577 0.36016491 -0.45512730 6 10 27397 5.22200000 2045678028 2045678028 -5.00000000
-7.65487051 0.53393817 -0.40214950 32 12 27399 7.68400000 2045678032 2045678032 -3.00000000
-10.12124538 0.70952159 2.71863532 42 15 27401 10.50400000 2045678039 2045678039 15.00000000
-1.93656635 0.13847508 -0.52022630 4 0 27409 2.01000000 2045678060 2045678060 -15.00000000
-2.23917532 0.16089891 -0.51828724 4 2 27411 2.30400000 2045678065 2045678065 -13.00000000
-2.61612964 0.18844442 -0.50984162 3 4 27412 2.67200000 2045678069 2045678069 -11.00000000
-3.16417694 0.22903149 -0.50246751 4 6 27414 3.21200000 2045678074 2045678074 -9.00000000
-3.96962404 0.28872484 -0.48869607 6 8 27416 4.01000000 2045678078 2045678078 -7.00000000
-5.19829273 0.37900236 -0.45599884 6 10 27417 5.23200000 2045678083 2045678083 -5.00000000
-7.66092777 0.56123906 -0.40256816 40 12 27419 7.69200000 2045678088 2045678088 -3.00000000
-10.11100101 0.74427974 2.71656466 47 15 27421 10.49600000 2045678095 2045678095 15.00000000
-1.94185054 0.14566764 -0.52177918 4 0 27429 2.01600000 2045678115 2045678115 -15.00000000
-2.23471355 0.16842119 -0.51738745 4 2 27431 2.30000000 2045678120 2045678120 -13.00000000
-2.61349821 0.19742738 -0.50946003 3 4 27432 2.67000000 2045678125 2045678125 -11.00000000
-3.15547919 0.23947719 -0.50121605 3 6 27434 3.20400000 2045678129 2045678129 -9.00000000
-3.97255063 0.30288148 -0.48918355 6 8 27436 4.01400000 2045678134 2045678134 -7.00000000
-5.21084404 0.39820817 -0.45721903 6 10 27437 5.24600000 2045678138 2045678138 -5.00000000
-7.65294790 0.58751863 -0.40225416 52 12 27439 7.68600000 2045678143 2045678143 -3.00000000
-10.11205769 0.78163117 2.71759987 42 15 27442 10.50000000 2045678150 2045678150 15.00000000
-1.94328272 0.15225714 -0.52229685 4 0 27448 2.01800000 2045678171 2045678171 -15.00000000
-2.22637177 0.17521927 -0.51558781 4 2 27450 2.29200000 2045678175 2045678175 -13.00000000
-2.62457228 0.20701922 -0.51174974 3 4 27451 2.68200000 2045678180 2045678180 -11.00000000
-3.15860605 0.25025186 -0.50184178 3 6 27453 3.20800000 2045678184 2045678184 -9.00000000
-3.97548199 0.31636822 -0.48967102 6 8 27455 4.01800000 2045678189 2045678189 -7.00000000
-5.20353699 0.41501057 -0.45669609 6 10 27456 5.24000000 2045678194 2045678194 -5.00000000
-7.62706661 0.61097974 -0.40099809 20 12 27458 7.66200000 2045678198 2045678198 -3.00000000
-10.11340332 0.81370509 2.71863532 45 15 27460 10.50400000 2045678205 2045678205 15.00000000
-1.95429194 0.15998527 -0.52540267 4 0 27468 2.03000000 2045678226 2045678226 -15.00000000
-2.23545766 0.18378806 -0.51783735 4 2 27470 2.30200000 2045678230 2045678230 -13.00000000
-2.61600709 0.21553460 -0.51022327 3 4 27471 2.67400000 2045678235 2045678235 -11.00000000
-3.16558790 0.26192749 -0.50309324 3 6 27473 3.21600000 2045678240 2045678240 -9.00000000
-3.95259237 0.32843509 -0.48698989 3 8 27475 3.99600000 2045678244 2045678244 -7.00000000
-5.21794033 0.43449444 -0.45809057 6 10 27476 5.25600000 2045678249 2045678249 -5.00000000
-7.65076160 0.63976306 -0.40235883 28 12 27478 7.68800000 2045678254 2045678254 -3.00000000
-10.11435127 0.84932584 2.71967053 47 15 27480 10.50800000 2045678260 2045678260 15.00000000
-1.94602215 0.16614869 -0.52333212 4 0 27488 2.02200000 2045678281 2045678281 -15.00000000
-2.22897744 0.19109078 -0.51648760 4 2 27490 2.29600000 2045678286 2045678286 -13.00000000
-2.62306309 0.22533701 -0.51174974 3 4 27491 2.68200000 2045678290 2045678290 -11.00000000
-3.16465449 0.27297586 -0.50309324 3 6 27493 3.21600000 2045678295 2045678295 -9.00000000
-3.97317648 0.34411439 -0.48967102 6 8 27495 4.01800000 2045678300 2045678300 -7.00000000
-5.19455767 0.45081091 -0.45617315 6 10 27496 5.23400000 2045678304 2045678304 -5.00000000
-7.65445089 0.66698539 -0.40267286 36 12 27498 7.69400000 2045678309 2045678309 -3.00000000
-10.10924625 0.88622236 2.71915293 42 15 27501 10.50600000 2045678316 2045678316 15.00000000
-1.93388474 0.17191420 -0.52022630 4 0 27508 2.01000000 2045678336 2045678336 -15.00000000
-2.25158930 0.20094898 -0.52188647 4 2 27510 2.32000000 2045678341 2045678341 -13.00000000
-2.61834955 0.23414211 -0.51098651 3 4 27511 2.67800000 2045678346 2045678346 -11.00000000
-5.57627583 0.49963140 0.48981526 5 5 27512 5.62000000 2045678348 2045678348 5.00000000
-3.15974736 0.28366762 -0.50246751 3 6 27513 3.21200000 2045678350 2045678350 -9.00000000
-3.96008873 0.35691214 -0.48820859 6 8 27515 4.00600000 2045678355 2045678355 -7.00000000
-5.18898392 0.46858218 -0.45582452 6 10 27516 5.23000000 2045678360 2045678360 -5.00000000
-7.65406513 0.69388068 -0.40277752 36 12 27518 7.69600000 2045678364 2045678364 -3.00000000
-7.65917587 0.69703960 -0.13424391 2 14 27520 7.69200000 2045678369 2045678369 -1.00000000
-10.09647179 0.92062765 2.71656466 42 15 27521 10.49600000 2045678371 2045678371 15.00000000
-1.93904376 0.17919700 -0.52177918 4 0 27528 2.01600000 2045678392 2045678392 -15.00000000
-2.23535085 0.20736723 -0.51828724 4 2 27530 2.30400000 2045678396 2045678396 -13.00000000
-2.62924528 0.24437055 -0.51327622 3 4 27531 2.69000000 2045678401 2045678401 -11.00000000
-5.56457853 0.51816952 0.48894373 8 5 27532 5.61000000 2045678403 2045678403 5.00000000
-3.15873790 0.29469547 -0.50246751 3 6 27533 3.21200000 2045678406 2045678406 -9.00000000
-3.96672440 0.37147358 -0.48918355 6 8 27535 4.01400000 2045678410 2045678410 -7.00000000
-5.21112061 0.48892564 -0.45791626 3 10 27536 5.25400000 2045678415 2045678415 -5.00000000
-7.13311052 0.67427748 -0.12506394 4 14 27540 7.16600000 2045678424 2045678424 -1.00000000
-10.10473633 0.95695817 2.71967053 45 15 27541 10.50800000 2045678426 2045678426 15.00000000
-1.93840647 0.18596444 -0.52177918 4 0 27548 2.01600000 2045678447 2045678447 -15.00000000
-7.06635523 0.67916793 0.12391209 3 1 27549 7.10000000 2045678449 2045678449 1.00000000
-2.22685432 0.21442167 -0.51648760 4 2 27550 2.29600000 2045678452 2045678452 -13.00000000
-2.63619304 0.25430089 -0.51480269 3 4 27551 2.69800000 2045678456 2045678456 -11.00000000
-5.55282021 0.53663212 0.48807216 11 5 27552 5.60000000 2045678459 2045678459 5.00000000
-3.15769005 0.30571973 -0.50246751 3 6 27553 3.21200000 2045678461 2045678461 -9.00000000
-3.95750046 0.38454983 -0.48820859 6 8 27555 4.00600000 2045678466 2045678466 -7.00000000
-5.20938253 0.50711286 -0.45791626 6 10 27556 5.25400000 2045678470 2045678470 -5.00000000
-7.27930498 0.71117675 -0.38330853 3 12 27558 7.32400000 2045678475 2045678475 -3.00000000
-6.61128378 0.64824206 -0.11595379 2 14 27560 6.64400000 2045678479 2045678479 -1.00000000
-10.09748840 0.99184674 2.71863532 45 15 27561 10.50400000 2045678482 2045678482 15.00000000
-1.95312452 0.19425920 -0.52592027 4 0 27568 2.03200000 2045678502 2045678502 -15.00000000
-5.88993454 0.58685541 0.10331824 2 1 27569 5.92000000 2045678505 2045678505 1.00000000
-2.23384857 0.22296773 -0.51828724 4 2 27570 2.30400000 2045678507 2045678507 -13.00000000
-6.34969091 0.63378346 0.33442676 2 3 27570 6.39000000 2045678509 2045678509 3.00000000
-2.62747526 0.26272005 -0.51327622 3 4 27571 2.69000000 2045678512 2045678512 -11.00000000
-5.55091333 0.55601180 0.48807216 11 5 27572 5.60000000 2045678514 2045678514 5.00000000
-3.16053462 0.31713471 -0.50309324 3 6 27573 3.21600000 2045678516 2045678516 -9.00000000
-3.96008420 0.39875951 -0.48869607 6 8 27575 4.01000000 2045678521 2045678521 -7.00000000
-5.22542143 0.52709353 -0.45948508 6 10 27576 5.27200000 2045678525 2045678525 -5.00000000
-7.28075218 0.73698425 -0.38351789 3 12 27578 7.32800000 2045678530 2045678530 -3.00000000
-6.28668833 0.63857853 -0.11029921 6 14 27580 6.32000000 2045678535 2045678535 -1.00000000
-10.10183239 1.02610672 2.72070575 47 15 27580 10.51200000 2045678537 2045678537 15.00000000
-1.93898273 0.19969033 -0.52229685 4 0 27588 2.01800000 2045678558 2045678558 -15.00000000
-5.61334896 0.57909304 0.09850138 2 1 27589 5.64400000 2045678560 2045678560 1.00000000
-2.24468732 0.23196585 -0.52098662 4 2 27590 2.31600000 2045678562 2045678562 -13.00000000
-5.83686352 0.60318118 0.30752608 4 3 27590 5.87600000 2045678565 2045678565 3.00000000
-2.61482525 0.27067715 -0.51098651 3 4 27591 2.67800000 2045678567 2045678567 -11.00000000
-5.53506613 0.57394624 0.48685199 14 5 27592 5.58600000 2045678569 2045678569 5.00000000
-3.15154910 0.32734877 -0.50184178 3 6 27593 3.20800000 2045678571 2045678571 -9.00000000
-3.95669365 0.41237459 -0.48845232 4 8 27595 4.00800000 2045678576 2045678576 -7.00000000
-5.07096481 0.52940083 -0.44606310 3 10 27596 5.11800000 2045678581 2045678581 -5.00000000
-5.11296940 0.53559035 -0.26942551 2 12 27598 5.14800000 2045678585 2045678585 -3.00000000
-5.15481615 0.54179305 -0.09047327 2 14 27600 5.18400000 2045678590 2045678590 -1.00000000
-10.04805088 1.05786586 2.70724726 45 15 27601 10.46000000 2045678592 2045678592 15.00000000
-1.93635285 0.20625281 -0.52177918 4 0 27608 2.01600000 2045678613 2045678613 -15.00000000
-5.15395880 0.54988950 0.09047327 9 1 27609 5.18400000 2045678615 2045678615 1.00000000
-2.25549006 0.24104236 -0.52368605 4 2 27610 2.32800000 2045678618 2045678618 -13.00000000
-5.49105072 0.58779335 0.28941783 4 3 27611 5.53000000 2045678620 2045678620 3.00000000
-2.61776853 0.28022087 -0.51174974 3 4 27611 2.68200000 2045678622 2045678622 -11.00000000
-5.50727558 0.59050238 0.48458594 17 5 27612 5.56000000 2045678624 2045678624 5.00000000
-3.16217160 0.33961338 -0.50371897 3 6 27613 3.22000000 2045678627 2045678627 -9.00000000
-3.95523024 0.42618352 -0.48845232 4 8 27615 4.00800000 2045678631 2045678631 -7.00000000
-4.79374313 0.51738125 -0.42183378 2 10 27616 4.84000000 2045678636 2045678636 -5.00000000
-4.99987221 0.54139411 -0.26356387 2 12 27618 5.03600000 2045678641 2045678641 -3.00000000
-4.96999788 0.53991455 -0.08726203 2 14 27620 5.00000000 2045678645 2045678645 -1.00000000
-10.08289909 1.09535336 2.71759987 45 15 27620 10.50000000 2045678648 2045678648 15.00000000
-1.94522238 0.21406730 -0.52436739 4 0 27628 2.02600000 2045678668 2045678668 -15.00000000
-4.84392118 0.53391814 0.08506303 2 1 27629 4.87400000 2045678671 2045678671 1.00000000
-2.23526525 0.24677558 -0.51918703 4 2 27630 2.30800000 2045678673 2045678673 -13.00000000
-4.92915058 0.54505408 0.25990036 4 3 27631 4.96600000 2045678675 2045678675 3.00000000
-2.62457991 0.29021999 -0.51327622 3 4 27631 2.69000000 2045678677 2045678677 -11.00000000
-5.51310205 0.61060005 0.48528317 25 5 27632 5.56800000 2045678680 2045678680 5.00000000
-3.16489363 0.35108495 -0.50434470 3 6 27633 3.22400000 2045678682 2045678682 -9.00000000
-3.96555591 0.44130456 -0.48991477 4 8 27635 4.02000000 2045678687 2045678687 -7.00000000
-4.75032520 0.52947652 -0.41817325 5 10 27636 4.79800000 2045678691 2045678691 -5.00000000
-4.64464140 0.51933843 -0.24493228 2 12 27638 4.68000000 2045678696 2045678696 -3.00000000
-4.66999769 0.52382421 -0.08202631 1 14 27640 4.70000000 2045678701 2045678701 -1.00000000
-10.07497692 1.13187027 2.71656466 47 15 27641 10.49600000 2045678703 2045678703 15.00000000
-1.94638276 0.22107410 -0.52488500 4 0 27648 2.02800000 2045678724 2045678724 -15.00000000
-4.58572006 0.52166611 0.08056031 6 1 27649 4.61600000 2045678726 2045678726 1.00000000
-2.22664523 0.25369421 -0.51738745 4 2 27650 2.30000000 2045678728 2045678728 -13.00000000
-4.81807661 0.54980236 0.25414342 6 3 27651 4.85600000 2045678730 2045678730 3.00000000
-2.63135338 0.30027008 -0.51480269 3 4 27651 2.69800000 2045678733 2045678733 -11.00000000
-3.17149901 0.36302891 -0.50559622 3 6 27653 3.23200000 2045678737 2045678737 -9.00000000
-3.95215845 0.45378563 -0.48845232 4 8 27655 4.00800000 2045678742 2045678742 -7.00000000
-4.73063374 0.54400647 -0.41660446 5 10 27656 4.78000000 2045678747 2045678747 -5.00000000
-4.61700726 0.53257281 -0.24357153 4 12 27658 4.65400000 2045678751 2045678751 -3.00000000
-4.58868313 0.53092873 -0.08063012 1 14 27660 4.62000000 2045678756 2045678756 -1.00000000
-10.07884407 1.16616213 2.71863532 45 15 27660 10.50400000 2045678758 2045678758 15.00000000
-1.94559920 0.22786690 -0.52488500 4 0 27668 2.02800000 2045678779 2045678779 -15.00000000
-4.56798267 0.53580642 0.08028107 8 1 27669 4.60000000 2045678781 2045678781 1.00000000
-2.23348784 0.26237452 -0.51918703 4 2 27670 2.30800000 2045678783 2045678783 -13.00000000
-4.73480177 0.55704916 0.24985185 4 3 27671 4.77400000 2045678786 2045678786 3.00000000
-2.61859035 0.30807701 -0.51251298 3 4 27671 2.68600000 2045678788 2045678788 -11.00000000
-3.15648031 0.37247685 -0.50340611 3 6 27673 3.21800000 2045678793 2045678793 -9.00000000
-3.96632099 0.46944505 -0.49040225 4 8 27675 4.02400000 2045678797 2045678797 -7.00000000
-4.73068476 0.56075066 -0.41677877 8 10 27676 4.78200000 2045678802 2045678802 -5.00000000
-4.60322046 0.54727119 -0.24294351 4 12 27678 4.64200000 2045678806 2045678806 -3.00000000
-4.49546289 0.53605151 -0.07902449 5 14 27680 4.52800000 2045678811 2045678811 -1.00000000
-10.07833862 1.20355320 2.71967053 45 15 27681 10.50800000 2045678813 2045678813 15.00000000
-1.93720174 0.23305506 -0.52281445 4 0 27686 2.02000000 2045678834 2045678834 -15.00000000
-4.55436468 0.54871929 0.08007164 6 1 27687 4.58800000 2045678836 2045678836 1.00000000
-2.24426079 0.27079058 -0.52188647 4 2 27688 2.32000000 2045678839 2045678839 -13.00000000
-4.70130301 0.56808764 0.24817711 4 3 27689 4.74200000 2045678841 2045678841 3.00000000
-2.60396600 0.31465340 -0.50984162 3 4 27689 2.67200000 2045678843 2045678843 -11.00000000
-5.36422539 0.64914262 0.47273275 5 5 27690 5.42400000 2045678846 2045678846 5.00000000
-3.15333343 0.38215372 -0.50309324 3 6 27691 3.21600000 2045678848 2045678848 -9.00000000
-3.97467971 0.48310083 -0.49162093 4 8 27693 4.03400000 2045678853 2045678853 -7.00000000
-4.72889996 0.57560980 -0.41677877 5 10 27694 4.78200000 2045678857 2045678857 -5.00000000
-4.60940838 0.56269801 -0.24336220 4 12 27696 4.65000000 2045678862 2045678862 -3.00000000
-4.48184776 0.54871368 -0.07881507 5 14 27698 4.51600000 2045678866 2045678866 -1.00000000
-10.06705379 1.23251188 2.71759987 45 15 27698 10.50000000 2045678869 2045678869 15.00000000
-1.94021082 0.24029061 -0.52384973 4 0 27706 2.02400000 2045678889 2045678889 -15.00000000
-4.51074743 0.55944496 0.07933864 4 1 27707 4.54600000 2045678892 2045678892 1.00000000
-2.23943424 0.27814248 -0.52098662 4 2 27708 2.31600000 2045678894 2045678894 -13.00000000
-4.63190365 0.57611316 0.24461827 2 3 27709 4.67400000 2045678896 2045678896 3.00000000
-2.61259294 0.32495260 -0.51174974 3 4 27709 2.68200000 2045678899 2045678899 -11.00000000
-5.26307106 0.65555018 0.46401718 2 5 27710 5.32400000 2045678901 2045678901 5.00000000
-3.16178107 0.39438108 -0.50465757 1 6 27711 3.22600000 2045678903 2045678903 -9.00000000
-3.95524144 0.49475458 -0.48942727 4 8 27713 4.01600000 2045678908 2045678908 -7.00000000
-4.71104622 0.59013206 -0.41538426 8 10 27714 4.76600000 2045678912 2045678912 -5.00000000
-4.42038441 0.55685687 -0.07776792 1 14 27718 4.45600000 2045678922 2045678922 -1.00000000
-10.05480194 1.26843405 2.71552944 42 15 27719 10.49200000 2045678924 2045678924 15.00000000
-1.94123340 0.24764469 -0.52436739 4 0 27727 2.02600000 2045678945 2045678945 -15.00000000
-4.43924141 0.56710500 0.07811697 4 1 27728 4.47600000 2045678947 2045678947 1.00000000
-2.23453379 0.28585398 -0.52008682 4 2 27729 2.31200000 2045678949 2045678949 -13.00000000
-4.58023405 0.58674157 0.24200146 1 3 27730 4.62400000 2045678952 2045678952 3.00000000
-2.62112117 0.33577335 -0.51365781 3 4 27730 2.69200000 2045678954 2045678954 -11.00000000
-5.22110939 0.66976577 0.46053094 7 5 27731 5.28400000 2045678956 2045678956 5.00000000
-3.14268088 0.40370178 -0.50184178 3 6 27732 3.20800000 2045678959 2045678959 -9.00000000
-3.97702742 0.51229125 -0.49235216 4 8 27734 4.04000000 2045678963 2045678963 -7.00000000
-4.71280384 0.60790473 -0.41573289 5 10 27735 4.77000000 2045678968 2045678968 -5.00000000
-4.38261843 0.56842494 -0.07713964 1 14 27739 4.42000000 2045678977 2045678977 -1.00000000
-10.05031300 1.30352414 2.71552944 45 15 27739 10.49200000 2045678979 2045678979 15.00000000
-1.94610345 0.25517282 -0.52592027 4 0 27747 2.03200000 2045679000 2045679000 -15.00000000
-4.38370275 0.57556874 0.07717454 3 1 27748 4.42200000 2045679002 2045679002 1.00000000
-2.22965813 0.29314417 -0.51918703 4 2 27749 2.30800000 2045679005 2045679005 -13.00000000
-4.51677275 0.59464443 0.23875663 1 3 27750 4.56200000 2045679007 2045679007 3.00000000
-2.61604023 0.34440821 -0.51289457 3 4 27750 2.68800000 2045679009 2045679009 -11.00000000
-5.15750504 0.67991424 0.45512730 7 5 27751 5.22200000 2045679012 2045679012 5.00000000
-3.14321113 0.41492784 -0.50215465 3 6 27752 3.21000000 2045679014 2045679014 -9.00000000
-5.65595627 0.74763376 0.70050496 2 7 27753 5.74800000 2045679016 2045679016 7.00000000
-3.95553565 0.52356577 -0.48991477 4 8 27754 4.02000000 2045679018 2045679018 -7.00000000
-4.72250366 0.62592250 -0.41677877 5 10 27755 4.78200000 2045679023 2045679023 -5.00000000
-4.34889269 0.57949364 -0.07658116 1 14 27759 4.38800000 2045679032 2045679032 -1.00000000
-10.05312729 1.34137356 2.71759987 45 15 27760 10.50000000 2045679035 2045679035 15.00000000
-1.94907582 0.26213995 -0.52695560 4 0 27766 2.03600000 2045679055 2045679055 -15.00000000
-4.36195183 0.58743352 0.07682549 3 1 27767 4.40200000 2045679058 2045679058 1.00000000
-2.23253632 0.30105725 -0.52008682 4 2 27768 2.31200000 2045679060 2045679060 -13.00000000
-4.44945955 0.60079974 0.23530246 3 3 27769 4.49600000 2045679062 2045679062 3.00000000
-2.60320997 0.35150516 -0.51060486 3 4 27769 2.67600000 2045679065 2045679065 -11.00000000
-5.12758017 0.69327605 0.45268694 10 5 27770 5.19400000 2045679067 2045679067 5.00000000
-3.13203025 0.42402375 -0.50059026 3 6 27771 3.20000000 2045679069 2045679069 -9.00000000
-5.58853149 0.75758564 0.69246161 2 7 27772 5.68200000 2045679071 2045679071 7.00000000
-3.95377779 0.53667992 -0.48991477 4 8 27773 4.02000000 2045679074 2045679074 -7.00000000
-4.71250486 0.64050609 -0.41608152 8 10 27774 4.77400000 2045679078 2045679078 -5.00000000
-4.28948975 0.58606166 -0.07556892 3 14 27778 4.33000000 2045679088 2045679088 -1.00000000
-10.05460548 1.37373424 2.71915293 47 15 27778 10.50600000 2045679090 2045679090 15.00000000
-1.94049406 0.26788512 -0.52488500 4 0 27786 2.02800000 2045679111 2045679111 -15.00000000
-4.32818079 0.59827507 0.07626702 5 1 27787 4.37000000 2045679113 2045679113 1.00000000
-2.23340201 0.30911559 -0.52053672 4 2 27788 2.31400000 2045679115 2045679115 -13.00000000
-4.41568136 0.61194092 0.23362771 5 3 27789 4.46400000 2045679118 2045679118 3.00000000
-2.60780120 0.36139843 -0.51174974 3 4 27789 2.68200000 2045679120 2045679120 -11.00000000
-5.07776546 0.70459819 0.44850346 10 5 27790 5.14600000 2045679122 2045679122 5.00000000
-3.15792322 0.43875983 -0.50497043 3 6 27791 3.22800000 2045679124 2045679124 -9.00000000
-5.56422520 0.77407986 0.68978047 2 7 27792 5.66000000 2045679127 2045679127 7.00000000
-3.95384645 0.55075175 -0.49015850 6 8 27793 4.02200000 2045679129 2045679129 -7.00000000
-4.72208023 0.65860325 -0.41712737 5 10 27794 4.78600000 2045679134 2045679134 -5.00000000
-4.41493034 0.61733526 -0.23362771 2 12 27796 4.46400000 2045679138 2045679138 -3.00000000
-4.24979162 0.59575653 -0.07490573 5 14 27798 4.29200000 2045679143 2045679143 -1.00000000
-10.04018402 1.40748203 2.71656466 45 15 27798 10.49600000 2045679145 2045679145 15.00000000
-1.92993557 0.27363962 -0.52229685 5 0 27807 2.01800000 2045679166 2045679166 -15.00000000
-4.27448320 0.60682684 0.07535949 5 1 27808 4.31800000 2045679168 2045679168 1.00000000
-2.24190092 0.31867054 -0.52278626 4 2 27809 2.32400000 2045679171 2045679171 -13.00000000
-4.36793041 0.62164855 0.23122026 5 3 27810 4.41800000 2045679173 2045679173 3.00000000
-2.61617756 0.37233719 -0.51365781 3 4 27810 2.69200000 2045679175 2045679175 -11.00000000
-5.04556179 0.71898830 0.44588879 10 5 27811 5.11600000 2045679177 2045679177 5.00000000
-3.16216063 0.45116830 -0.50590909 1 6 27812 3.23400000 2045679180 2045679180 -9.00000000
-5.62030506 0.80289048 0.69709265 2 7 27813 5.72000000 2045679182 2045679182 7.00000000
-3.95180130 0.56523967 -0.49015850 6 8 27814 4.02200000 2045679184 2045679184 -7.00000000
-4.69991207 0.67308158 -0.41538426 5 10 27815 4.76600000 2045679189 2045679189 -5.00000000
-4.33751249 0.62272704 -0.22965017 2 12 27817 4.38800000 2045679194 2045679194 -3.00000000
-4.20601416 0.60534656 -0.07417273 5 14 27819 4.25000000 2045679198 2045679198 -1.00000000
-10.02539635 1.44289565 2.71397662 42 15 27819 10.48600000 2045679200 2045679200 15.00000000
-1.94235098 0.28231978 -0.52592027 5 0 27827 2.03200000 2045679221 2045679221 -15.00000000
-4.23474073 0.61627227 0.07469630 5 1 27828 4.28000000 2045679224 2045679224 1.00000000
-2.22920465 0.32480845 -0.52008682 4 2 27829 2.31200000 2045679226 2045679226 -13.00000000
-4.33411217 0.63227862 0.22954550 5 3 27830 4.38600000 2045679228 2045679228 3.00000000
-2.62457538 0.38288411 -0.51556593 3 4 27830 2.70200000 2045679230 2045679230 -11.00000000
-5.02330685 0.73371661 0.44414568 10 5 27831 5.09600000 2045679233 2045679233 5.00000000
-3.14883876 0.46048853 -0.50403184 3 6 27832 3.22200000 2045679235 2045679235 -9.00000000
-5.57818508 0.81675231 0.69221789 2 7 27833 5.68000000 2045679237 2045679237 7.00000000
-3.96158862 0.58075815 -0.49162093 6 8 27834 4.03400000 2045679240 2045679240 -7.00000000
-4.71330404 0.69179791 -0.41677877 5 10 27835 4.78200000 2045679244 2045679244 -5.00000000
-4.28788900 0.63088644 -0.22713806 4 12 27837 4.34000000 2045679249 2045679249 -3.00000000
-4.19596195 0.61885750 -0.07403311 5 14 27839 4.24200000 2045679253 2045679253 -1.00000000
-10.02577400 1.48047757 2.71552944 45 15 27840 10.49200000 2045679256 2045679256 15.00000000
-1.93753207 0.28852904 -0.52488500 5 0 27847 2.02800000 2045679277 2045679277 -15.00000000
-4.21080732 0.62780678 0.07431234 7 1 27848 4.25800000 2045679279 2045679279 1.00000000
-2.23576665 0.33373865 -0.52188647 4 2 27849 2.32000000 2045679281 2045679281 -13.00000000
-4.30817509 0.64386106 0.22828944 5 3 27850 4.36200000 2045679283 2045679283 3.00000000
-2.62516451 0.39233345 -0.51594752 3 4 27850 2.70400000 2045679286 2045679286 -11.00000000
-5.00889206 0.74947774 0.44309980 10 5 27851 5.08400000 2045679288 2045679288 5.00000000
-3.14525867 0.47118455 -0.50371897 3 6 27852 3.22000000 2045679290 2045679290 -9.00000000
-5.58315277 0.83739662 0.69319284 2 7 27853 5.68800000 2045679293 2045679293 7.00000000
-3.95561123 0.59399354 -0.49113345 6 8 27854 4.03000000 2045679295 2045679295 -7.00000000
-4.75814629 0.71535534 -0.42096224 5 10 27855 4.83000000 2045679300 2045679300 -5.00000000
-4.26788568 0.64317149 -0.22619601 4 12 27857 4.32200000 2045679304 2045679304 -3.00000000
-4.19179916 0.63320172 -0.07399821 7 14 27859 4.24000000 2045679309 2045679309 -1.00000000
-10.02463055 1.51429319 2.71656466 47 15 27859 10.49600000 2045679311 2045679311 15.00000000
-1.94988155 0.29732904 -0.52850848 4 0 27867 2.04200000 2045679332 2045679332 -15.00000000
-4.20859051 0.64250141 0.07431234 7 1 27868 4.25800000 2045679334 2045679334 1.00000000
-2.22688270 0.34036317 -0.52008682 4 2 27869 2.31200000 2045679336 2045679336 -13.00000000
-4.27233839 0.65375966 0.22651002 7 3 27870 4.32800000 2045679339 2045679339 3.00000000
-2.61407566 0.40000978 -0.51403946 3 4 27870 2.69400000 2045679341 2045679341 -11.00000000
-4.98655128 0.76394033 0.44135669 9 5 27871 5.06400000 2045679343 2045679343 5.00000000
-3.14359474 0.48216069 -0.50371897 3 6 27872 3.22000000 2045679346 2045679346 -9.00000000
-5.61158895 0.86170107 0.69709265 2 7 27873 5.72000000 2045679348 2045679348 7.00000000
-3.94566536 0.60659105 -0.49015850 6 8 27874 4.02200000 2045679350 2045679350 -7.00000000
-5.23610544 0.80591369 -0.46349424 9 10 27875 5.31800000 2045679355 2045679355 -5.00000000
-4.23600626 0.65349746 -0.22462593 6 12 27877 4.29200000 2045679359 2045679359 -3.00000000
-4.17770624 0.64599645 -0.07378878 10 14 27879 4.22800000 2045679364 2045679364 -1.00000000
-10.02119255 1.54957163 2.71708226 47 15 27879 10.49800000 2045679366 2045679366 15.00000000
-1.94315851 0.30290079 -0.52695560 4 0 27886 2.03600000 2045679387 2045679387 -15.00000000
-4.20643663 0.65645409 0.07431234 7 1 27887 4.25800000 2045679389 2045679389 1.00000000
-2.23729396 0.34955084 -0.52278626 4 2 27888 2.32400000 2045679392 2045679392 -13.00000000
-4.27618361 0.66810328 0.22682403 15 3 27888 4.33400000 2045679394 2045679394 3.00000000
-2.60885549 0.40806937 -0.51327622 3 4 27889 2.69000000 2045679396 2045679396 -11.00000000
