# .PCD v0.7 - Point Cloud Data file format
VERSION 0.7
FIELDS x y z intensity laser_id azimuth distance_m adjustedtime timestamp vertical_angle
SIZE 4 4 4 1 1 2 8 8 4 8
TYPE F F F U U U F U U F
COUNT 1 1 1 1 1 1 1 1 1 1
WIDTH 522
HEIGHT 1
VIEWPOINT 0 0 0 1 0 0 0
POINTS 522
DATA ascii
-0.95993757 2.36759663 -0.58982164 3 2 33793 2.62200000 2045295859 2045295859 -13.00000000
-4.35635233 10.74453735 0.60762048 23 3 33793 11.61000000 2045295861 2045295861 3.00000000
-1.13994908 2.81298804 -0.58998144 2 4 33794 3.09200000 2045295863 2045295863 -11.00000000
-4.35470486 10.75125027 1.01484144 29 5 33795 11.64400000 2045295866 2045295866 5.00000000
-1.41878617 3.50457287 -0.59883112 2 6 33796 3.82800000 2045295868 2045295868 -9.00000000
-4.34841871 10.74651051 1.42343390 21 7 33797 11.68000000 2045295870 2045295870 7.00000000
-4.33835602 10.72702599 -1.42075276 2 8 33798 11.65800000 2045295872 2045295872 -7.00000000
-4.35045147 10.75693226 1.83779204 18 9 33798 11.74800000 2045295875 2045295875 9.00000000
-2.69478464 6.66647625 -0.62909013 4 10 33799 7.21800000 2045295877 2045295877 -5.00000000
-4.22147179 10.44850922 2.19048738 50 11 33800 11.48000000 2045295879 2045295879 11.00000000
-4.33162355 10.72653484 -0.60625970 8 12 33801 11.58400000 2045295882 2045295882 -3.00000000
-3.87665558 9.60471058 2.39122963 62 13 33802 10.63000000 2045295884 2045295884 13.00000000
-4.32792139 10.72815132 -0.20192434 8 14 33803 11.57000000 2045295886 2045295886 -1.00000000
-3.50170636 8.68010998 2.50795650 40 15 33803 9.69000000 2045295889 2045295889 15.00000000
-0.81387597 2.02560163 -0.58493102 4 0 33811 2.26000000 2045295909 2045295909 -15.00000000
-4.30584812 10.72194672 0.20168000 13 1 33812 11.55600000 2045295912 2045295912 1.00000000
-0.95166725 2.37093306 -0.58982164 3 2 33813 2.62200000 2045295914 2045295914 -13.00000000
-4.30653095 10.73448181 0.60615504 21 3 33814 11.58200000 2045295916 2045295916 3.00000000
-1.12573695 2.80601764 -0.58769172 2 4 33814 3.08000000 2045295919 2045295919 -11.00000000
-4.31195879 10.75344086 1.01362133 51 5 33815 11.63000000 2045295921 2045295921 5.00000000
-1.40213513 3.49850249 -0.59695393 2 6 33816 3.81600000 2045295923 2045295923 -9.00000000
-4.30645084 10.75056744 1.42197144 21 7 33817 11.66800000 2045295925 2045295925 7.00000000
-1.83058786 4.57216692 -0.60471570 2 8 33818 4.96200000 2045295928 2045295928 -7.00000000
-4.29925346 10.74346161 1.83278620 18 9 33819 11.71600000 2045295930 2045295930 9.00000000
-2.66705656 6.66474342 -0.62804431 4 10 33819 7.20600000 2045295932 2045295932 -5.00000000
-4.18424463 10.46135807 2.19010568 46 11 33820 11.47800000 2045295935 2045295935 11.00000000
-4.28822374 10.72675323 -0.60542232 8 12 33821 11.56800000 2045295937 2045295937 -3.00000000
-3.87492013 9.69780731 2.41102529 68 13 33822 10.71800000 2045295939 2045295939 13.00000000
-4.28006363 10.71719360 -0.20143567 8 14 33823 11.54200000 2045295942 2045295942 -1.00000000
-3.46772003 8.68750286 2.50640368 36 15 33824 9.68400000 2045295944 2045295944 15.00000000
-0.79893303 2.00661063 -0.57871938 4 0 33829 2.23600000 2045295965 2045295965 -15.00000000
-4.26770639 10.72427273 0.20147058 16 1 33830 11.54400000 2045295967 2045295967 1.00000000
-0.94421411 2.37391114 -0.58982164 3 2 33831 2.62200000 2045295969 2045295969 -13.00000000
-4.26949549 10.73422050 0.60542232 21 3 33831 11.56800000 2045295972 2045295972 3.00000000
-1.11981714 2.81683779 -0.58921820 2 4 33832 3.08800000 2045295974 2045295974 -11.00000000
-4.27300453 10.75397301 1.01240110 80 5 33833 11.61600000 2045295976 2045295976 5.00000000
-1.39186645 3.50472593 -0.59726679 2 6 33834 3.81800000 2045295978 2045295978 -9.00000000
-4.26533222 10.74559307 1.41953409 21 7 33835 11.64800000 2045295981 2045295981 7.00000000
-4.26858091 10.75925350 -1.42124033 2 8 33836 11.66200000 2045295983 2045295983 -7.00000000
-4.26038361 10.74406147 1.83059609 18 9 33837 11.70200000 2045295985 2045295985 9.00000000
-4.25447941 10.72917175 -1.00978649 4 10 33837 11.58600000 2045295988 2045295988 -5.00000000
-4.15063572 10.47262669 2.18972397 50 11 33838 11.47600000 2045295990 2045295990 11.00000000
-4.24861860 10.72531700 -0.60458499 8 12 33839 11.55200000 2045295992 2045295992 -3.00000000
-3.87743402 9.79328060 2.43172097 64 13 33840 10.81000000 2045295995 2045295995 13.00000000
-4.24343061 10.72314930 -0.20129606 8 14 33841 11.53400000 2045295997 2045295997 -1.00000000
-3.43481994 8.67979050 2.50122714 38 15 33841 9.66400000 2045295999 2045295999 15.00000000
-0.79759049 2.02376556 -0.58286047 4 0 33849 2.25200000 2045296020 2045296020 -15.00000000
-4.22218418 10.71863842 0.20108663 16 1 33850 11.52200000 2045296022 2045296022 1.00000000
-0.93592185 2.37719250 -0.58982164 3 2 33851 2.62200000 2045296024 2045296024 -13.00000000
-4.22614622 10.73419189 0.60458499 18 3 33851 11.55200000 2045296027 2045296027 3.00000000
-1.11285329 2.82803726 -0.59074467 2 4 33852 3.09600000 2045296029 2045296029 -11.00000000
-4.22450161 10.74101067 1.00978649 89 5 33853 11.58600000 2045296031 2045296031 5.00000000
-1.37890148 3.50772476 -0.59695393 2 6 33854 3.81600000 2045296034 2045296034 -9.00000000
-4.22271585 10.74748325 1.41782796 21 7 33855 11.63400000 2045296036 2045296036 7.00000000
-1.82344341 4.64333439 -0.61251533 2 8 33856 5.02600000 2045296038 2045296038 -7.00000000
-4.21996689 10.75151253 1.82934463 18 9 33857 11.69400000 2045296041 2045296041 9.00000000
-4.20972204 10.72541142 -1.00804329 4 10 33857 11.56600000 2045296043 2045296043 -5.00000000
-4.11333704 10.48522377 2.18934250 46 11 33858 11.47400000 2045296045 2045296045 11.00000000
-4.19948912 10.71033096 -0.60291022 8 12 33859 11.52000000 2045296048 2045296048 -3.00000000
-3.87166739 9.87933064 2.44971704 62 13 33860 10.89000000 2045296050 2045296050 13.00000000
-4.20013905 10.72300053 -0.20101681 19 14 33861 11.51800000 2045296052 2045296052 -1.00000000
-3.40802383 8.70072174 2.50381541 38 15 33861 9.67400000 2045296054 2045296054 15.00000000
-0.79332966 2.03373647 -0.58493102 4 0 33869 2.26000000 2045296075 2045296075 -15.00000000
-4.17675304 10.71281719 0.20070267 13 1 33870 11.50000000 2045296077 2045296077 1.00000000
-0.92549551 2.37499785 -0.58847195 3 2 33871 2.61600000 2045296080 2045296080 -13.00000000
-4.18315125 10.74030399 0.60406160 23 3 33872 11.54200000 2045296082 2045296082 3.00000000
-1.10867488 2.84653974 -0.59379756 2 4 33872 3.11200000 2045296084 2045296084 -11.00000000
-4.17541838 10.72598457 1.00699747 25 5 33873 11.55400000 2045296087 2045296087 5.00000000
-1.38097429 3.54933548 -0.60321128 2 6 33874 3.85600000 2045296089 2045296089 -9.00000000
-4.17294312 10.73070526 1.41368437 21 7 33875 11.60000000 2045296091 2045296091 7.00000000
-1.78564954 4.59416389 -0.60520315 2 8 33876 4.96600000 2045296094 2045296094 -7.00000000
-4.18071222 10.75624084 1.82778025 18 9 33876 11.68400000 2045296096 2045296096 9.00000000
-4.16360044 10.71775436 -1.00595152 4 10 33877 11.54200000 2045296098 2045296098 -5.00000000
-4.07244825 10.48853683 2.18705273 43 11 33878 11.46200000 2045296101 2045296101 11.00000000
-4.15485191 10.70630455 -0.60186350 8 12 33879 11.50000000 2045296103 2045296103 -3.00000000
-3.87239408 9.98362827 2.47221208 68 13 33880 10.99000000 2045296105 2045296105 13.00000000
-4.15690088 10.72268105 -0.20073758 21 14 33881 11.50200000 2045296107 2045296107 -1.00000000
-3.37750721 8.71675682 2.50485063 40 15 33882 9.67800000 2045296110 2045296110 15.00000000
-0.78900886 2.04370213 -0.58700162 4 0 33889 2.26800000 2045296130 2045296130 -15.00000000
-4.13645315 10.71986866 0.20056306 13 1 33890 11.49200000 2045296133 2045296133 1.00000000
-0.91790080 2.38003230 -0.58892184 3 2 33891 2.61800000 2045296135 2045296135 -13.00000000
-4.13457584 10.72057343 0.60217750 21 3 33891 11.50600000 2045296137 2045296137 3.00000000
-1.08602166 2.81741858 -0.58692849 2 4 33892 3.07600000 2045296140 2045296140 -11.00000000
-4.13580322 10.73491669 1.00647449 12 5 33893 11.54800000 2045296142 2045296142 5.00000000
-1.35863853 3.52832627 -0.59883112 2 6 33894 3.82800000 2045296144 2045296144 -9.00000000
-4.13260841 10.73779583 1.41270947 21 7 33895 11.59200000 2045296147 2045296147 7.00000000
-4.11434269 10.69590378 -1.40710342 2 8 33896 11.54600000 2045296149 2045296149 -7.00000000
-4.13417196 10.75305367 1.82465160 18 9 33897 11.66400000 2045296151 2045296151 9.00000000
-2.58895111 6.73390722 -0.63118190 4 10 33897 7.24200000 2045296154 2045296154 -5.00000000
-4.03581142 10.50268841 2.18705273 50 11 33898 11.46200000 2045296156 2045296156 11.00000000
-4.12175131 10.73192978 -0.60249156 8 12 33899 11.51200000 2045296158 2045296158 -3.00000000
-3.86405921 10.06621838 2.48930836 68 13 33900 11.06600000 2045296160 2045296160 13.00000000
-4.10941839 10.71098804 -0.20024891 19 14 33901 11.47400000 2045296163 2045296163 -1.00000000
-3.34844279 8.73210144 2.50588608 38 15 33902 9.68200000 2045296165 2045296165 15.00000000
-0.77875632 2.03936124 -0.58493102 4 0 33910 2.26000000 2045296186 2045296186 -15.00000000
-4.09000492 10.71627522 0.20021401 13 1 33911 11.47200000 2045296188 2045296188 1.00000000
-0.90917134 2.38338041 -0.58892184 3 2 33912 2.61800000 2045296190 2045296190 -13.00000000
-4.09454298 10.73378944 0.60207283 18 3 33912 11.50400000 2045296193 2045296193 3.00000000
-1.07848561 2.82871795 -0.58845496 4 4 33913 3.08400000 2045296195 2045296195 -11.00000000
-4.09359217 10.74255657 1.00577724 17 5 33914 11.54000000 2045296197 2045296197 5.00000000
-1.34147894 3.52220607 -0.59695393 2 6 33915 3.81600000 2045296200 2045296200 -9.00000000
-4.09110594 10.74730492 1.41197824 19 7 33916 11.58600000 2045296202 2045296202 7.00000000
-4.07370090 10.70720100 -1.40661597 2 8 33917 11.54200000 2045296204 2045296204 -7.00000000
-4.08747959 10.74341774 1.82058430 18 9 33917 11.63800000 2045296207 2045296207 9.00000000
-2.55575466 6.72100353 -0.62909013 4 10 33918 7.21800000 2045296209 2045296209 -5.00000000
-3.99938250 10.52291584 2.18819761 53 11 33919 11.46800000 2045296211 2045296211 11.00000000
-4.06820393 10.70962238 -0.60039806 8 12 33920 11.47200000 2045296213 2045296213 -3.00000000
-3.83405566 10.09853172 2.49380732 60 13 33921 11.08600000 2045296216 2045296216 13.00000000
-4.06303835 10.70728111 -0.19989987 14 14 33922 11.45400000 2045296218 2045296218 -1.00000000
-3.31504536 8.74070263 2.50485063 38 15 33923 9.67800000 2045296220 2045296220 15.00000000
-0.76890147 2.03483868 -0.58286047 4 0 33930 2.25200000 2045296241 2045296241 -15.00000000
-4.04692078 10.71552086 0.19993477 13 1 33931 11.45600000 2045296243 2045296243 1.00000000
-0.90497541 2.39747858 -0.59162128 3 2 33932 2.63000000 2045296246 2045296246 -13.00000000
-4.05070210 10.73120022 0.60113078 23 3 33932 11.48600000 2045296248 2045296248 3.00000000
-1.06999099 2.83613920 -0.58921820 4 4 33933 3.08800000 2045296250 2045296250 -11.00000000
-4.04693031 10.73254490 1.00351119 17 5 33934 11.51400000 2045296253 2045296253 5.00000000
-1.33196259 3.53426123 -0.59820539 2 6 33935 3.82400000 2045296255 2045296255 -9.00000000
-4.04726839 10.74480057 1.40978456 19 7 33936 11.56800000 2045296257 2045296257 7.00000000
-1.74642920 4.63892317 -0.60861552 2 8 33937 4.99400000 2045296260 2045296260 -7.00000000
-4.04647350 10.74837685 1.81901991 18 9 33937 11.62800000 2045296262 2045296262 9.00000000
-2.54210162 6.75599051 -0.63153052 4 10 33938 7.24600000 2045296264 2045296264 -5.00000000
-3.96055293 10.53129959 2.18705273 46 11 33939 11.46200000 2045296266 2045296266 11.00000000
-4.03220129 10.72749710 -0.60060745 8 12 33940 11.47600000 2045296269 2045296269 -3.00000000
-3.80289364 10.12279892 2.49650669 56 13 33941 11.09800000 2045296271 2045296271 13.00000000
-4.02282667 10.71391010 -0.19976024 8 14 33942 11.44600000 2045296273 2045296273 -1.00000000
-3.27772689 8.73413372 2.49967432 36 15 33943 9.65800000 2045296276 2045296276 15.00000000
-0.76011884 2.03194904 -0.58130759 4 0 33949 2.24600000 2045296296 2045296296 -15.00000000
-4.00226068 10.70453262 0.19948101 13 1 33950 11.43000000 2045296299 2045296299 1.00000000
-0.89429158 2.39316463 -0.58982164 3 2 33951 2.62200000 2045296301 2045296301 -13.00000000
-4.01299667 10.73896027 0.60081679 23 3 33951 11.48000000 2045296303 2045296303 3.00000000
-1.06744921 2.85806346 -0.59303439 4 4 33952 3.10800000 2045296306 2045296306 -11.00000000
-4.00853062 10.73843956 1.00281394 17 5 33953 11.50600000 2045296308 2045296308 5.00000000
-3.98832560 10.69000626 -1.80713093 2 6 33954 11.55200000 2045296310 2045296310 -9.00000000
-4.00537300 10.74142361 1.40759087 21 7 33955 11.55000000 2045296312 2045296312 7.00000000
-3.98547387 10.69375896 -1.40125370 2 8 33956 11.49800000 2045296315 2045296315 -7.00000000
-4.00735903 10.75248146 1.81745565 18 9 33956 11.61800000 2045296317 2045296317 9.00000000
-3.99129629 10.71509647 -1.00037360 4 10 33957 11.47800000 2045296319 2045296319 -5.00000000
-3.92149830 10.53333569 2.18476295 46 11 33958 11.45000000 2045296322 2045296322 11.00000000
-3.98406816 10.70711613 -0.59872335 8 12 33959 11.44000000 2045296324 2045296324 -3.00000000
-3.76590800 10.12622166 2.49425721 54 13 33960 11.08800000 2045296326 2045296326 13.00000000
-3.97752190 10.70095062 -0.19927157 6 14 33961 11.41800000 2045296329 2045296329 -1.00000000
-3.25161791 8.74800968 2.50070953 38 15 33961 9.66200000 2045296331 2045296331 15.00000000
-0.75972682 2.05270743 -0.58648396 4 0 33969 2.26600000 2045296352 2045296352 -15.00000000
-3.95932031 10.70343399 0.19920176 20 1 33970 11.41400000 2045296354 2045296354 1.00000000
-0.88593239 2.39627171 -0.58982164 3 2 33971 2.62200000 2045296356 2045296356 -13.00000000
-3.96509743 10.72480297 0.59924668 10 3 33971 11.45000000 2045296359 2045296359 3.00000000
-1.05474424 2.85440588 -0.59150791 2 4 33972 3.10000000 2045296361 2045296361 -11.00000000
-3.96411943 10.73367596 1.00107086 12 5 33973 11.48600000 2045296363 2045296363 5.00000000
-1.30445480 3.53397989 -0.59664106 2 6 33974 3.81400000 2045296365 2045296365 -9.00000000
-3.96167040 10.73857784 1.40539730 21 7 33975 11.53200000 2045296368 2045296368 7.00000000
-1.71069241 4.63952827 -0.60715306 2 8 33976 4.98200000 2045296370 2045296370 -7.00000000
-3.96433425 10.75157642 1.81495261 21 9 33976 11.60200000 2045296372 2045296372 9.00000000
-2.50156808 6.78809309 -0.63292503 4 10 33977 7.26200000 2045296375 2045296375 -5.00000000
-3.88945603 10.55985641 2.18743443 50 11 33978 11.46400000 2045296377 2045296377 11.00000000
-3.93976927 10.70221519 -0.59767663 8 12 33979 11.42000000 2045296379 2045296379 -3.00000000
-3.72582769 10.12650299 2.49110794 55 13 33980 11.07400000 2045296382 2045296382 13.00000000
-3.94152474 10.71852303 -0.19934139 8 14 33981 11.42200000 2045296384 2045296384 -1.00000000
-3.21953297 8.75986862 2.50070953 38 15 33982 9.66200000 2045296386 2045296386 15.00000000
-0.75286210 2.05729246 -0.58700162 4 0 33990 2.26800000 2045296407 2045296407 -15.00000000
-3.91388178 10.70097160 0.19888762 10 1 33991 11.39600000 2045296409 2045296409 1.00000000
-0.87580556 2.39584208 -0.58892184 3 2 33992 2.61800000 2045296412 2045296412 -13.00000000
-3.91771936 10.72306538 0.59830463 13 3 33993 11.43200000 2045296414 2045296414 3.00000000
-1.04966509 2.87300491 -0.59456080 2 4 33993 3.11600000 2045296416 2045296416 -11.00000000
-3.92338514 10.74439049 1.00072229 12 5 33994 11.48200000 2045296418 2045296418 5.00000000
-1.29623401 3.55172682 -0.59883112 2 6 33995 3.82800000 2045296421 2045296421 -9.00000000
-3.91888380 10.74370098 1.40417862 17 7 33996 11.52200000 2045296423 2045296423 7.00000000
-1.70319498 4.67187738 -0.61056542 2 8 33997 5.01000000 2045296425 2045296425 -7.00000000
-3.92219496 10.75861073 1.81370115 15 9 33997 11.59400000 2045296428 2045296428 9.00000000
-2.48894930 6.83091211 -0.63606262 4 10 33998 7.29800000 2045296430 2045296430 -5.00000000
-3.87222362 10.63307190 2.19964600 56 11 33999 11.52800000 2045296432 2045296432 11.00000000
-3.91691160 10.76162624 -0.60018873 4 12 34000 11.46800000 2045296435 2045296435 -3.00000000
-3.68535614 10.13093472 2.48885846 52 13 34001 11.06400000 2045296437 2045296437 13.00000000
-3.90631247 10.74417305 -0.19955082 4 14 34002 11.43400000 2045296439 2045296439 -1.00000000
-3.19091606 8.77650070 2.50226259 38 15 34002 9.66800000 2045296442 2045296442 15.00000000
-0.74370354 2.05445838 -0.58544868 4 0 34010 2.26200000 2045296462 2045296462 -15.00000000
-3.89215207 10.75781727 0.19969043 6 1 34011 11.44200000 2045296465 2045296465 1.00000000
-0.87406385 2.41721082 -0.59342086 3 2 34012 2.63800000 2045296467 2045296467 -13.00000000
-3.89384198 10.77424240 0.60039806 7 3 34013 11.47200000 2045296469 2045296469 3.00000000
-1.03295708 2.85818768 -0.59074467 4 4 34013 3.09600000 2045296471 2045296471 -11.00000000
-3.89736295 10.78987598 1.00368547 38 5 34014 11.51600000 2045296474 2045296474 5.00000000
-1.28516972 3.55994582 -0.59945685 2 6 34015 3.83200000 2045296476 2045296476 -9.00000000
-3.89348459 10.79092598 1.40856588 36 7 34016 11.55800000 2045296478 2045296478 7.00000000
-3.93604565 10.91485310 -1.42465258 2 8 34017 11.69000000 2045296481 2045296481 -7.00000000
-3.87804770 10.75990582 1.81151116 31 9 34018 11.58000000 2045296483 2045296483 9.00000000
-2.45292997 6.80581999 -0.63292503 4 10 34018 7.26200000 2045296485 2045296485 -5.00000000
-3.84905601 10.68531227 2.20765996 59 11 34019 11.57000000 2045296488 2045296488 11.00000000
-3.91720939 10.88046741 -0.60605037 8 12 34020 11.58000000 2045296490 2045296490 -3.00000000
-3.64865065 10.14006996 2.48795867 53 13 34021 11.06000000 2045296492 2045296492 13.00000000
-3.90329719 10.85371017 -0.20133096 8 14 34022 11.53600000 2045296495 2045296495 -1.00000000
-3.15023232 8.76450348 2.49553323 38 15 34023 9.64200000 2045296497 2045296497 15.00000000
-0.73457396 2.05158544 -0.58389574 4 0 34030 2.25600000 2045296518 2045296518 -15.00000000
-3.89769721 10.89183521 0.20192434 6 1 34031 11.57000000 2045296520 2045296520 1.00000000
-0.86168331 2.40923762 -0.59072149 3 2 34032 2.62600000 2045296522 2045296522 -13.00000000
-3.89385676 10.89308834 0.60625970 15 3 34033 11.58400000 2045296524 2045296524 3.00000000
-1.02693892 2.87286806 -0.59303439 2 4 34033 3.10800000 2045296527 2045296527 -11.00000000
-3.89051008 10.88972187 1.01170385 59 5 34034 11.60800000 2045296529 2045296529 5.00000000
-1.27871382 3.58115315 -0.60227269 2 6 34035 3.85000000 2045296531 2045296531 -9.00000000
-3.88848662 10.89606190 1.42050910 42 7 34036 11.65600000 2045296534 2045296534 7.00000000
-1.69854689 4.76218224 -0.62080246 2 8 34037 5.09400000 2045296536 2045296536 -7.00000000
-3.87154436 10.85457230 1.82527733 40 9 34037 11.66800000 2045296538 2045296538 9.00000000
-2.44789028 6.86688852 -0.63780570 4 10 34038 7.31800000 2045296541 2045296541 -5.00000000
-3.80975723 10.69313526 2.20651531 65 11 34039 11.56400000 2045296543 2045296543 11.00000000
-3.91270471 10.98815155 -0.61128396 8 12 34040 11.68000000 2045296545 2045296545 -3.00000000
-3.60277867 10.12336922 2.48076034 53 13 34041 11.02800000 2045296548 2045296548 13.00000000
-3.90224457 10.97089291 -0.20325072 6 14 34042 11.64600000 2045296550 2045296550 -1.00000000
-3.11856127 8.76762104 2.49346256 38 15 34042 9.63400000 2045296552 2045296552 15.00000000
-0.72805297 2.05595803 -0.58441341 4 0 34050 2.25800000 2045296573 2045296573 -15.00000000
-3.88900995 10.98831940 0.20346016 10 1 34051 11.65800000 2045296575 2045296575 1.00000000
-0.85456795 2.41590524 -0.59162128 3 2 34052 2.63000000 2045296577 2045296577 -13.00000000
-3.85913777 10.91602993 0.60678309 28 3 34053 11.59400000 2045296580 2045296580 3.00000000
-1.01559567 2.87273335 -0.59227115 2 4 34053 3.10400000 2045296582 2045296582 -11.00000000
-3.86774063 10.94644356 1.01571298 17 5 34054 11.65400000 2045296584 2045296584 5.00000000
-1.25568116 3.55579257 -0.59726679 2 6 34055 3.81800000 2045296587 2045296587 -9.00000000
-3.88148046 10.99754906 1.43196476 38 7 34056 11.75000000 2045296589 2045296589 7.00000000
-1.65682018 4.69694471 -0.61154038 2 8 34057 5.01800000 2045296591 2045296591 -7.00000000
-3.87245560 10.98419476 1.84467518 34 9 34058 11.79200000 2045296594 2045296594 9.00000000
-2.41728091 6.85660124 -0.63606262 4 10 34058 7.29800000 2045296596 2045296596 -5.00000000
-3.76066399 10.67303848 2.19964600 59 11 34059 11.52800000 2045296598 2045296598 11.00000000
-3.90749574 11.09593582 -0.61651754 4 12 34060 11.78000000 2045296600 2045296600 -3.00000000
-3.57906508 10.16897106 2.48885846 53 13 34061 11.06400000 2045296603 2045296603 13.00000000
-3.90373898 11.09763050 -0.20534502 6 14 34062 11.76600000 2045296605 2045296605 -1.00000000
-3.08640528 8.77899170 2.49346256 36 15 34063 9.63400000 2045296607 2045296607 15.00000000
-0.72123116 2.05836105 -0.58441341 4 0 34069 2.25800000 2045296628 2045296628 -15.00000000
-3.89551020 11.12383080 0.20572896 10 1 34070 11.78800000 2045296630 2045296630 1.00000000
-0.84268922 2.40768981 -0.58892184 3 2 34071 2.61800000 2045296633 2045296633 -13.00000000
-3.81302571 10.90048885 0.60521299 28 3 34072 11.56400000 2045296635 2045296635 3.00000000
-1.01384270 2.89832306 -0.59685051 2 4 34072 3.12800000 2045296637 2045296637 -11.00000000
-3.82944703 10.95356655 1.01519012 8 5 34073 11.64800000 2045296640 2045296640 5.00000000
-1.24844396 3.57299089 -0.59945685 2 6 34074 3.83200000 2045296642 2045296642 -9.00000000
-3.87509537 11.09656906 1.44317675 38 7 34075 11.84200000 2045296644 2045296644 7.00000000
-1.65300989 4.73614883 -0.61592764 2 8 34076 5.05400000 2045296647 2045296647 -7.00000000
-3.87047553 11.08955765 1.86031866 34 9 34076 11.89200000 2045296649 2045296649 9.00000000
-2.40109253 6.88339186 -0.63780570 4 10 34077 7.31800000 2045296651 2045296651 -5.00000000
-3.72007990 10.67061996 2.19659305 59 11 34078 11.51200000 2045296653 2045296653 11.00000000
-3.89762235 11.18616009 -0.62080914 4 12 34079 11.86200000 2045296656 2045296656 -3.00000000
-3.54404235 10.17710304 2.48795867 54 13 34080 11.06000000 2045296658 2045296658 13.00000000
-3.90241098 11.21249866 -0.20722987 6 14 34081 11.87400000 2045296660 2045296660 -1.00000000
-3.05881023 8.78864479 2.49346256 36 15 34081 9.63400000 2045296663 2045296663 15.00000000
-0.71973383 2.07729459 -0.58907217 4 0 34089 2.27600000 2045296683 2045296683 -15.00000000
-3.88741088 11.22617245 0.20736949 6 1 34090 11.88200000 2045296686 2045296686 1.00000000
-0.83810371 2.42166615 -0.59162128 3 2 34091 2.63000000 2045296688 2045296688 -13.00000000
-3.76842380 10.89485645 0.60416627 26 3 34092 11.54400000 2045296690 2045296690 3.00000000
-0.99986887 2.89071202 -0.59456080 2 4 34092 3.11600000 2045296693 2045296693 -11.00000000
-3.76905608 10.90284348 1.00926352 4 5 34093 11.58000000 2045296695 2045296695 5.00000000
-1.24499536 3.60346603 -0.60383701 2 6 34094 3.86000000 2045296697 2045296697 -9.00000000
-3.87650847 11.22636318 1.45828855 38 7 34095 11.96600000 2045296700 2045296700 7.00000000
-1.62481093 4.70811319 -0.61154038 2 8 34096 5.01800000 2045296702 2045296702 -7.00000000
-3.86007690 11.19143772 1.87502348 32 9 34097 11.98600000 2045296704 2045296704 9.00000000
-2.37705040 6.89173126 -0.63780570 4 10 34097 7.31800000 2045296706 2045296706 -5.00000000
-3.68025064 10.67611599 2.19506669 59 11 34098 11.50400000 2045296709 2045296709 11.00000000
-3.50595808 10.18204212 2.48615909 52 13 34100 11.05200000 2045296713 2045296713 13.00000000
-3.90033865 11.33383083 -0.20921946 9 14 34101 11.98800000 2045296716 2045296716 -1.00000000
-3.02532101 8.79614353 2.49242735 36 15 34102 9.63000000 2045296718 2045296718 15.00000000
-0.71060008 2.07431149 -0.58751923 4 0 34109 2.27000000 2045296739 2045296739 -15.00000000
-0.83216906 2.43195200 -0.59342086 3 2 34111 2.63800000 2045296743 2045296743 -13.00000000
-3.72649312 10.89660549 0.60353827 26 3 34112 11.53200000 2045296746 2045296746 3.00000000
-0.98341948 2.87560821 -0.59074467 2 4 34112 3.09600000 2045296748 2045296748 -11.00000000
-3.72259808 10.89142513 1.00699747 4 5 34113 11.55400000 2045296750 2045296750 5.00000000
-1.21836114 3.56666493 -0.59695393 2 6 34114 3.81600000 2045296753 2045296753 -9.00000000
-1.63272607 4.78514862 -0.62080246 2 8 34116 5.09400000 2045296757 2045296757 -7.00000000
-2.35297942 6.89998674 -0.63780570 4 10 34117 7.31800000 2045296762 2045296762 -5.00000000
-3.63916159 10.67774773 2.19277692 59 11 34118 11.49200000 2045296764 2045296764 11.00000000
-3.46662664 10.18314934 2.48345971 48 13 34120 11.04000000 2045296769 2045296769 13.00000000
-2.99364638 8.79881191 2.49035692 36 15 34121 9.62200000 2045296773 2045296773 15.00000000
-0.69963688 2.06580091 -0.58441341 4 0 34129 2.25800000 2045296794 2045296794 -15.00000000
-0.82242596 2.43114996 -0.59252107 3 2 34131 2.63400000 2045296799 2045296799 -13.00000000
-3.68779445 10.90765476 0.60343355 7 3 34132 11.53000000 2045296801 2045296801 3.00000000
-0.98343647 2.90878081 -0.59685051 2 4 34132 3.12800000 2045296803 2045296803 -11.00000000
-3.68009257 10.89113998 1.00577724 12 5 34133 11.54000000 2045296806 2045296806 5.00000000
-1.21348798 3.59335446 -0.60070837 2 6 34134 3.84000000 2045296808 2045296808 -9.00000000
-1.61601293 4.79081869 -0.62080246 2 8 34136 5.09400000 2045296812 2045296812 -7.00000000
-3.59685230 10.67550182 2.18972397 59 11 34138 11.47600000 2045296819 2045296819 11.00000000
-3.43105984 10.19518757 2.48345971 48 13 34140 11.04000000 2045296824 2045296824 13.00000000
-2.95953035 8.80423164 2.48880386 38 15 34142 9.61600000 2045296829 2045296829 15.00000000
-0.69400984 2.07177329 -0.58544868 4 0 34148 2.26200000 2045296849 2045296849 -15.00000000
-0.81435949 2.43386388 -0.59252107 3 2 34150 2.63400000 2045296854 2045296854 -13.00000000
-3.69340801 11.04483891 0.61034191 2 3 34151 11.66200000 2045296856 2045296856 3.00000000
-0.97004944 2.90085459 -0.59456080 2 4 34151 3.11600000 2045296859 2045296859 -11.00000000
-3.67932200 11.00910378 1.01553869 8 5 34152 11.65200000 2045296861 2045296861 5.00000000
-1.20281696 3.60110593 -0.60133410 2 6 34153 3.84400000 2045296863 2045296863 -9.00000000
-1.59257829 4.77355433 -0.61787754 2 8 34155 5.07000000 2045296868 2045296868 -7.00000000
-3.55646586 10.67247009 2.18667102 56 11 34157 11.46000000 2045296875 2045296875 11.00000000
-3.39600158 10.20281124 2.48255992 50 13 34159 11.03600000 2045296879 2045296879 13.00000000
-2.92758799 8.80065441 2.48518038 38 15 34160 9.60200000 2045296884 2045296884 15.00000000
-0.68859547 2.07968497 -0.58700162 4 0 34168 2.26800000 2045296905 2045296905 -15.00000000
-0.80708253 2.44039202 -0.59342086 3 2 34170 2.63800000 2045296909 2045296909 -13.00000000
-3.67864990 11.12972546 0.61431944 2 3 34171 11.73800000 2045296912 2045296912 3.00000000
-0.96238214 2.91167927 -0.59608728 2 4 34171 3.12400000 2045296914 2045296914 -11.00000000
-3.67711687 11.13160706 1.02564883 8 5 34172 11.76800000 2045296916 2045296916 5.00000000
-1.18900084 3.60153103 -0.60070837 2 6 34173 3.84000000 2045296918 2045296918 -9.00000000
-1.58336568 4.80170727 -0.62080246 2 8 34175 5.09400000 2045296923 2045296923 -7.00000000
-3.51427698 10.66990185 2.18361807 59 11 34177 11.44400000 2045296930 2045296930 11.00000000
-3.35975742 10.21275234 2.48211002 53 13 34179 11.03400000 2045296935 2045296935 13.00000000
-2.89866018 8.81632519 2.48673344 38 15 34180 9.60800000 2045296939 2045296939 15.00000000
-0.68216944 2.08586717 -0.58803689 4 0 34189 2.27200000 2045296960 2045296960 -15.00000000
-0.79813260 2.44333386 -0.59342086 3 2 34191 2.63800000 2045296965 2045296965 -13.00000000
-3.68927932 11.30072117 0.62300724 2 3 34192 11.90400000 2045296967 2045296967 3.00000000
-0.95048529 2.91145444 -0.59532404 2 4 34192 3.12000000 2045296969 2045296969 -11.00000000
-1.17579257 3.60586476 -0.60070837 2 6 34194 3.84000000 2045296974 2045296974 -9.00000000
-1.55591989 4.77727842 -0.61690259 2 8 34196 5.06200000 2045296978 2045296978 -7.00000000
-3.47271681 10.67524242 2.18209171 56 11 34198 11.43600000 2045296985 2045296985 11.00000000
-3.32290554 10.22685146 2.48255992 52 13 34200 11.03600000 2045296990 2045296990 13.00000000
-2.87289047 8.84710121 2.49242735 38 15 34201 9.63000000 2045296994 2045296994 15.00000000
-0.67369604 2.08455920 -0.58700162 4 0 34209 2.26800000 2045297015 2045297015 -15.00000000
-0.79199344 2.45352292 -0.59522051 3 2 34211 2.64600000 2045297020 2045297020 -13.00000000
-0.94152212 2.91849136 -0.59608728 4 4 34212 3.12400000 2045297024 2045297024 -11.00000000
-1.16441035 3.61370754 -0.60133410 2 6 34214 3.84400000 2045297029 2045297029 -9.00000000
-1.54896510 4.81291485 -0.62080246 2 8 34216 5.09400000 2045297034 2045297034 -7.00000000
-3.43543220 10.68729973 2.18209171 53 11 34218 11.43600000 2045297041 2045297041 11.00000000
-3.28480387 10.23096657 2.48076034 47 13 34220 11.02800000 2045297045 2045297045 13.00000000
-2.83395600 8.83733654 2.48673344 38 15 34222 9.60800000 2045297050 2045297050 15.00000000
-0.66325176 2.07574058 -0.58389574 4 0 34228 2.25600000 2045297071 2045297071 -15.00000000
-0.78148299 2.44870996 -0.59342086 3 2 34230 2.63800000 2045297075 2045297075 -13.00000000
-0.92825949 2.91037512 -0.59379756 2 4 34231 3.11200000 2045297080 2045297080 -11.00000000
-1.16081476 3.64389944 -0.60571426 2 6 34233 3.87200000 2045297084 2045297084 -9.00000000
-1.53299642 4.81802464 -0.62080246 2 8 34235 5.09400000 2045297089 2045297089 -7.00000000
-3.39521599 10.68366528 2.17903876 53 11 34237 11.42000000 2045297096 2045297096 11.00000000
-3.25144839 10.24366093 2.48121023 51 13 34239 11.03000000 2045297100 2045297100 13.00000000
-2.80267382 8.83514786 2.48362756 38 15 34240 9.59600000 2045297105 2045297105 15.00000000
-0.65600204 2.07804298 -0.58389574 4 0 34248 2.25600000 2045297126 2045297126 -15.00000000
-0.77410263 2.45513988 -0.59432071 3 2 34250 2.64200000 2045297130 2045297130 -13.00000000
-0.92399508 2.93232250 -0.59761375 4 4 34251 3.13200000 2045297135 2045297135 -11.00000000
-1.14690208 3.64416075 -0.60508853 2 6 34253 3.86800000 2045297140 2045297140 -9.00000000
-1.51616895 4.82334661 -0.62080246 2 8 34255 5.09400000 2045297144 2045297144 -7.00000000
-3.34966946 10.66922760 2.17369604 56 11 34257 11.39200000 2045297151 2045297151 11.00000000
-3.21858692 10.26424503 2.48345971 54 13 34259 11.04000000 2045297156 2045297156 13.00000000
-2.77181625 8.84487629 2.48362756 40 15 34260 9.59600000 2045297160 2045297160 15.00000000
-0.65104485 2.08769727 -0.58596629 4 0 34268 2.26400000 2045297181 2045297181 -15.00000000
-0.76089185 2.44294238 -0.59072149 3 2 34270 2.62600000 2045297186 2045297186 -13.00000000
-0.91492075 2.93927908 -0.59837699 4 4 34271 3.13600000 2045297190 2045297190 -11.00000000
-1.12948310 3.63305140 -0.60258555 2 6 34273 3.85200000 2045297195 2045297195 -9.00000000
-1.48519528 4.78311014 -0.61495268 2 8 34275 5.04600000 2045297199 2045297199 -7.00000000
-3.30891728 10.66960430 2.17140627 56 11 34277 11.38000000 2045297206 2045297206 11.00000000
-3.18100858 10.26983261 2.48211002 55 13 34279 11.03400000 2045297211 2045297211 13.00000000
-2.74378133 8.86372566 2.48621583 40 15 34280 9.60600000 2045297216 2045297216 15.00000000
-0.64489084 2.09364963 -0.58700162 4 0 34288 2.26800000 2045297236 2045297236 -15.00000000
-0.75579780 2.45675921 -0.59342086 3 2 34290 2.63800000 2045297241 2045297241 -13.00000000
-0.90119344 2.93119526 -0.59608728 4 4 34291 3.12400000 2045297246 2045297246 -11.00000000
-1.11911380 3.64452529 -0.60383701 2 6 34293 3.86000000 2045297250 2045297250 -9.00000000
-1.47081816 4.79585695 -0.61592764 2 8 34295 5.05400000 2045297255 2045297255 -7.00000000
-3.27050328 10.67733574 2.17064309 56 11 34297 11.37600000 2045297262 2045297262 11.00000000
-3.14172029 10.26969337 2.47941041 55 13 34299 11.02200000 2045297266 2045297266 13.00000000
-2.71579170 8.88850307 2.49035692 38 15 34301 9.62200000 2045297271 2045297271 15.00000000
-0.63757867 2.09588790 -0.58700162 4 0 34308 2.26800000 2045297292 2045297292 -15.00000000
-0.74835050 2.46311164 -0.59432071 3 2 34310 2.64200000 2045297296 2045297296 -13.00000000
-0.88867462 2.92680907 -0.59456080 4 4 34311 3.11600000 2045297301 2045297301 -11.00000000
-1.11039805 3.66164207 -0.60602713 2 6 34313 3.87400000 2045297305 2045297305 -9.00000000
-1.46557677 4.83895922 -0.62080246 2 8 34315 5.09400000 2045297310 2045297310 -7.00000000
-3.23207569 10.68492794 2.16987991 59 11 34317 11.37200000 2045297317 2045297317 11.00000000
-3.10528970 10.27873230 2.47896051 53 13 34319 11.02000000 2045297322 2045297322 13.00000000
-2.67736769 8.86786938 2.48207474 38 15 34320 9.59000000 2045297326 2045297326 15.00000000
-0.63025880 2.09810090 -0.58700162 4 0 34328 2.26800000 2045297347 2045297347 -15.00000000
-0.74310803 2.47690797 -0.59702009 3 2 34330 2.65400000 2045297351 2045297351 -13.00000000
-0.88296342 2.94493771 -0.59761375 2 4 34331 3.13200000 2045297356 2045297356 -11.00000000
-1.09420991 3.65414166 -0.60414988 2 6 34333 3.86200000 2045297361 2045297361 -9.00000000
-1.45777726 4.87447500 -0.62470227 2 8 34335 5.12600000 2045297365 2045297365 -7.00000000
-3.18913984 10.67733383 2.16606379 56 11 34337 11.35200000 2045297372 2045297372 11.00000000
-3.07217669 10.29884624 2.48121023 56 13 34339 11.03000000 2045297377 2045297377 13.00000000
-2.64474106 8.87160683 2.48052168 40 15 34340 9.58400000 2045297381 2045297381 15.00000000
-0.62293118 2.10028815 -0.58700162 4 0 34348 2.26800000 2045297402 2045297402 -15.00000000
-0.73445749 2.47948694 -0.59702009 3 2 34350 2.65400000 2045297407 2045297407 -13.00000000
-0.87490731 2.95553184 -0.59914023 2 4 34351 3.14000000 2045297411 2045297411 -11.00000000
-1.07752752 3.64467859 -0.60195982 2 6 34353 3.84800000 2045297416 2045297416 -9.00000000
-1.44300175 4.88714933 -0.62567723 2 8 34355 5.13400000 2045297421 2045297421 -7.00000000
-3.14629674 10.66956997 2.16224742 59 11 34357 11.33200000 2045297428 2045297428 11.00000000
-3.03620815 10.30950737 2.48121023 55 13 34359 11.03000000 2045297432 2045297432 13.00000000
-2.61384249 8.88680077 2.48207474 38 15 34361 9.59000000 2045297437 2045297437 15.00000000
-0.61668175 2.10615778 -0.58803689 4 0 34368 2.27200000 2045297457 2045297457 -15.00000000
-0.72032851 2.46333146 -0.59252107 3 2 34370 2.63400000 2045297462 2045297462 -13.00000000
-0.86899078 2.97364330 -0.60219318 2 4 34371 3.15600000 2045297467 2045297467 -11.00000000
-1.06867266 3.66169167 -0.60414988 2 6 34373 3.86200000 2045297471 2045297471 -9.00000000
-1.41482389 4.85404110 -0.62080246 2 8 34375 5.09400000 2045297476 2045297476 -7.00000000
-3.10683894 10.67294788 2.16072106 56 11 34377 11.32400000 2045297483 2045297483 11.00000000
-2.99639487 10.30694389 2.47806072 54 13 34379 11.01600000 2045297487 2045297487 13.00000000
-2.57903528 8.88288403 2.47845125 42 15 34381 9.57600000 2045297492 2045297492 15.00000000
-0.61328417 2.11921883 -0.59114271 4 0 34386 2.28400000 2045297513 2045297513 -15.00000000
-0.71366835 2.46932650 -0.59342086 3 2 34388 2.63800000 2045297517 2045297517 -13.00000000
-0.85528642 2.96126938 -0.59914023 2 4 34389 3.14000000 2045297522 2045297522 -11.00000000
-1.05880630 3.67072487 -0.60508853 2 6 34391 3.86800000 2045297527 2045297527 -9.00000000
-1.39956748 4.85846186 -0.62080246 2 8 34393 5.09400000 2045297531 2045297531 -7.00000000
-3.07220793 10.67888165 2.15995789 53 11 34395 11.32000000 2045297538 2045297538 11.00000000
-2.96023297 10.30319595 2.47491145 56 13 34397 11.00200000 2045297543 2045297543 13.00000000
-2.55431318 8.90208435 2.48155689 40 15 34399 9.58800000 2045297547 2045297547 15.00000000
-0.60269970 2.11020136 -0.58803689 4 0 34406 2.27200000 2045297568 2045297568 -15.00000000
-0.70825160 2.48304653 -0.59612030 3 2 34408 2.65000000 2045297573 2045297573 -13.00000000
-0.84494442 2.96423674 -0.59914023 2 4 34409 3.14000000 2045297577 2045297577 -11.00000000
-1.05896676 3.71999598 -0.61259735 2 6 34411 3.91600000 2045297582 2045297582 -9.00000000
-1.39345646 4.90150642 -0.62567723 2 8 34413 5.13400000 2045297587 2045297587 -7.00000000
-3.03491306 10.68954086 2.15995789 53 11 34415 11.32000000 2045297593 2045297593 11.00000000
-2.92531323 10.31721592 2.47581124 57 13 34417 11.00600000 2045297598 2045297598 13.00000000
-2.52322340 8.91094589 2.48155689 42 15 34419 9.58800000 2045297603 2045297603 15.00000000
-0.59323382 2.10485458 -0.58596629 4 0 34426 2.26400000 2045297623 2045297623 -15.00000000
-0.69746786 2.47800040 -0.59432071 3 2 34428 2.64200000 2045297628 2045297628 -13.00000000
-0.83246583 2.95960855 -0.59761375 2 4 34429 3.13200000 2045297633 2045297633 -11.00000000
-1.03742790 3.69324136 -0.60759145 2 6 34431 3.88400000 2045297637 2045297637 -9.00000000
-1.37204921 4.89104986 -0.62372732 2 8 34433 5.11800000 2045297642 2045297642 -7.00000000
-2.99281454 10.68305492 2.15652323 46 11 34435 11.30200000 2045297649 2045297649 11.00000000
-2.88823152 10.32361031 2.47491145 59 13 34437 11.00200000 2045297653 2045297653 13.00000000
-2.48741794 8.89693832 2.47534537 45 15 34438 9.56400000 2045297658 2045297658 15.00000000
-0.58795315 2.11435747 -0.58803689 4 0 34446 2.27200000 2045297679 2045297679 -15.00000000
-0.68985665 2.48417521 -0.59522051 3 2 34448 2.64600000 2045297683 2045297683 -13.00000000
-0.82317978 2.96627975 -0.59837699 2 4 34449 3.13600000 2045297688 2045297688 -11.00000000
-1.03191566 3.72349095 -0.61197162 2 6 34451 3.91200000 2045297692 2045297692 -9.00000000
-1.35920382 4.91111469 -0.62567723 2 8 34453 5.13400000 2045297697 2045297697 -7.00000000
-2.95132160 10.67829895 2.15347028 46 11 34455 11.28600000 2045297704 2045297704 11.00000000
-2.85321474 10.33738613 2.47581124 59 13 34457 11.00600000 2045297709 2045297709 13.00000000
-2.45376563 8.90227032 2.47431016 42 15 34459 9.56000000 2045297713 2045297713 15.00000000
-0.58056909 2.11639690 -0.58803689 4 0 34466 2.27200000 2045297734 2045297734 -15.00000000
-0.68118107 2.48656821 -0.59522051 3 2 34468 2.64600000 2045297739 2045297739 -13.00000000
-0.81696755 2.98428392 -0.60142994 4 4 34469 3.15200000 2045297743 2045297743 -11.00000000
-1.01474464 3.71182680 -0.60946870 2 6 34471 3.89600000 2045297748 2045297748 -9.00000000
-1.34518945 4.92731953 -0.62713963 2 8 34473 5.14600000 2045297752 2045297752 -7.00000000
-2.91299653 10.68474770 2.15270710 46 11 34475 11.28200000 2045297759 2045297759 11.00000000
-2.81506538 10.33976173 2.47401166 62 13 34477 10.99800000 2045297764 2045297764 13.00000000
-2.42372394 8.90849495 2.47379231 40 15 34478 9.55800000 2045297769 2045297769 15.00000000
-0.57570076 2.12773466 -0.59062505 4 0 34486 2.28200000 2045297789 2045297789 -15.00000000
-0.67249721 2.48893070 -0.59522051 3 2 34488 2.64600000 2045297794 2045297794 -13.00000000
-0.80654550 2.98711753 -0.60142994 4 4 34489 3.15200000 2045297798 2045297798 -11.00000000
-0.99869615 3.70390272 -0.60759145 2 6 34491 3.88400000 2045297803 2045297803 -9.00000000
-1.32075596 4.90514946 -0.62372732 2 8 34493 5.11800000 2045297808 2045297808 -7.00000000
-2.87670159 10.69864273 2.15347028 43 11 34495 11.28600000 2045297815 2045297815 11.00000000
-2.77390218 10.33070469 2.46951270 60 13 34497 10.97800000 2045297819 2045297819 13.00000000
-2.39205694 8.92105007 2.47482777 40 15 34499 9.56200000 2045297824 2045297824 15.00000000
-0.56827009 2.12973118 -0.59062505 4 0 34506 2.28200000 2045297845 2045297845 -15.00000000
-0.66581208 2.49879527 -0.59702009 3 2 34508 2.65400000 2045297849 2045297849 -13.00000000
-0.79409295 2.98232603 -0.59990346 4 4 34509 3.14400000 2045297854 2045297854 -11.00000000
-0.98779142 3.71500230 -0.60884291 2 6 34511 3.89200000 2045297858 2045297858 -9.00000000
-1.31585205 4.95577669 -0.62957704 2 8 34513 5.16600000 2045297863 2045297863 -7.00000000
-2.84034514 10.71241379 2.15423346 43 11 34515 11.29000000 2045297870 2045297870 11.00000000
-2.73782444 10.34032440 2.46951270 62 13 34517 10.97800000 2045297875 2045297875 13.00000000
-2.35702515 8.90839005 2.46913362 42 15 34518 9.54000000 2045297879 2045297879 15.00000000
-0.55935788 2.12609696 -0.58907217 4 0 34526 2.27600000 2045297900 2045297900 -15.00000000
-0.65708560 2.50110412 -0.59702009 3 2 34528 2.65400000 2045297904 2045297904 -13.00000000
-0.78467494 2.98887753 -0.60066670 4 4 34529 3.14800000 2045297909 2045297909 -11.00000000
-0.97682136 3.72607088 -0.61009443 2 6 34531 3.90000000 2045297914 2045297914 -9.00000000
-1.29251242 4.93729496 -0.62665218 2 8 34533 5.14200000 2045297918 2045297918 -7.00000000
-2.80293465 10.72226334 2.15423346 43 11 34535 11.29000000 2045297925 2045297925 11.00000000
-2.69974446 10.34227562 2.46771312 55 13 34537 10.97000000 2045297930 2045297930 13.00000000
-2.32094741 8.90388298 2.46551013 40 15 34539 9.52600000 2045297934 2045297934 15.00000000
-0.55327505 2.13168001 -0.59010744 4 0 34545 2.28000000 2045297955 2045297955 -15.00000000
-0.64487672 2.48817801 -0.59342086 3 2 34547 2.63800000 2045297960 2045297960 -13.00000000
-0.77574360 2.99526429 -0.60142994 2 4 34548 3.15200000 2045297964 2045297964 -11.00000000
-0.95852476 3.70634031 -0.60633999 2 6 34550 3.87600000 2045297969 2045297969 -9.00000000
-1.27414727 4.93386602 -0.62567723 2 8 34552 5.13400000 2045297974 2045297974 -7.00000000
-2.76393127 10.71819210 2.15156221 40 11 34554 11.27600000 2045297980 2045297980 11.00000000
-2.66640544 10.35494614 2.46861291 57 13 34556 10.97400000 2045297985 2045297985 13.00000000
-2.29296374 8.91113091 2.46551013 40 15 34557 9.52600000 2045297990 2045297990 15.00000000
-0.54583073 2.13359833 -0.59010744 4 0 34565 2.28000000 2045298010 2045298010 -15.00000000
-0.63811672 2.49796629 -0.59522051 3 2 34567 2.64600000 2045298015 2045298015 -13.00000000
-0.76625460 3.00175834 -0.60219318 2 4 34568 3.15600000 2045298020 2045298020 -11.00000000
-0.95729136 3.75560355 -0.61384887 2 6 34570 3.92400000 2045298024 2045298024 -9.00000000
-1.25887561 4.94597864 -0.62665218 2 8 34572 5.14200000 2045298029 2045298029 -7.00000000
-2.72553372 10.72396946 2.15079904 46 11 34574 11.27200000 2045298036 2045298036 11.00000000
-2.62640882 10.34908009 2.46501374 56 13 34576 10.95800000 2045298040 2045298040 13.00000000
-2.26028728 8.91947556 2.46551013 40 15 34578 9.52600000 2045298045 2045298045 15.00000000
-0.54083866 2.14682460 -0.59321326 4 0 34586 2.29200000 2045298066 2045298066 -15.00000000
-0.62895691 2.50028825 -0.59522051 3 2 34588 2.64600000 2045298070 2045298070 -13.00000000
-0.75429022 3.00073862 -0.60142994 4 4 34589 3.15200000 2045298075 2045298075 -11.00000000
-0.94159639 3.75142336 -0.61259735 2 6 34591 3.91600000 2045298080 2045298080 -9.00000000
-1.24073923 4.95055914 -0.62665218 2 8 34593 5.14200000 2045298084 2045298084 -7.00000000
-2.68763995 10.73960018 2.15194392 43 11 34595 11.27800000 2045298091 2045298091 11.00000000
-2.58373547 10.33973026 2.46051455 59 13 34597 10.93800000 2045298096 2045298096 13.00000000
-2.22820282 8.92356205 2.46447492 40 15 34598 9.52200000 2045298100 2045298100 15.00000000
-0.53054917 2.13744950 -0.59010744 4 0 34606 2.28000000 2045298121 2045298121 -15.00000000
-0.62397587 2.51760054 -0.59881973 3 2 34608 2.66200000 2045298126 2045298126 -13.00000000
-0.74003541 2.98810792 -0.59837699 2 4 34609 3.13600000 2045298130 2045298130 -11.00000000
-0.93039256 3.76235771 -0.61384887 2 6 34611 3.92400000 2045298135 2045298135 -9.00000000
-1.22535443 4.96256876 -0.62762713 2 8 34613 5.15000000 2045298139 2045298139 -7.00000000
-2.64872551 10.74319744 2.15079904 40 11 34615 11.27200000 2045298146 2045298146 11.00000000
-2.54855895 10.35247040 2.46141434 59 13 34617 10.94200000 2045298151 2045298151 13.00000000
-2.19086981 8.91290855 2.45929861 38 15 34619 9.50200000 2045298156 2045298156 15.00000000
-0.52345824 2.13919711 -0.59010744 4 0 34625 2.28000000 2045298176 2045298176 -15.00000000
-0.61377370 2.51208377 -0.59702009 3 2 34627 2.65400000 2045298181 2045298181 -13.00000000
-0.73384756 3.00580335 -0.60142994 2 4 34628 3.15200000 2045298186 2045298186 -11.00000000
-0.91510391 3.75390720 -0.61197162 2 6 34630 3.91200000 2045298190 2045298190 -9.00000000
-1.20795238 4.96274757 -0.62713963 2 8 34632 5.14600000 2045298195 2045298195 -7.00000000
-2.61215782 10.74810696 2.15003586 40 11 34634 11.26800000 2045298202 2045298202 11.00000000
-2.51421499 10.36086559 2.46141434 62 13 34636 10.94200000 2045298206 2045298206 13.00000000
-2.16194797 8.91599274 2.45826340 40 15 34637 9.49800000 2045298211 2045298211 15.00000000
-0.51508260 2.13725519 -0.58907217 4 0 34645 2.27600000 2045298232 2045298232 -15.00000000
-0.60317749 2.50663233 -0.59522051 3 2 34647 2.64600000 2045298236 2045298236 -13.00000000
-0.72426879 3.01216435 -0.60219318 4 4 34648 3.15600000 2045298241 2045298241 -11.00000000
-0.89968908 3.74747467 -0.61040729 2 6 34650 3.90200000 2045298245 2045298245 -9.00000000
-1.18506885 4.94376898 -0.62421477 2 8 34652 5.12200000 2045298250 2045298250 -7.00000000
-2.57142520 10.74379444 2.14736438 40 11 34654 11.25400000 2045298257 2045298257 11.00000000
-2.47803354 10.36957836 2.46141434 59 13 34656 10.94200000 2045298262 2045298262 13.00000000
-2.13081217 8.92348480 2.45826340 38 15 34657 9.49800000 2045298266 2045298266 15.00000000
-0.50977796 2.14646983 -0.59114271 4 0 34664 2.28400000 2045298287 2045298287 -15.00000000
-0.59306335 2.50103402 -0.59342086 3 2 34666 2.63800000 2045298292 2045298292 -13.00000000
-0.71246552 3.00690818 -0.60066670 2 4 34667 3.14800000 2045298296 2045298296 -11.00000000
-0.89134997 3.76773834 -0.61322308 2 6 34669 3.92000000 2045298301 2045298301 -9.00000000
-1.17049360 4.95539951 -0.62518972 2 8 34671 5.13000000 2045298305 2045298305 -7.00000000
-2.53398085 10.74461937 2.14583802 40 11 34673 11.24600000 2045298312 2045298312 11.00000000
-2.43916655 10.35877037 2.45691538 59 13 34675 10.92200000 2045298317 2045298317 13.00000000
-2.10032415 8.92674065 2.45722795 40 15 34676 9.49400000 2045298321 2045298321 15.00000000
-0.50272208 2.15011740 -0.59166032 4 0 34684 2.28600000 2045298342 2045298342 -15.00000000
-0.58787358 2.51827073 -0.59702009 3 2 34686 2.65400000 2045298347 2045298347 -13.00000000
-0.70464098 3.02084827 -0.60295641 2 4 34687 3.16000000 2045298351 2045298351 -11.00000000
-0.88088101 3.78237009 -0.61510032 2 6 34689 3.93200000 2045298356 2045298356 -9.00000000
-1.16038227 4.99039125 -0.62908953 2 8 34691 5.16200000 2045298361 2045298361 -7.00000000
-2.49779153 10.75913620 2.14698291 40 11 34693 11.25200000 2045298368 2045298368 11.00000000
-2.39991260 10.35393238 2.45376611 54 13 34695 10.90800000 2045298372 2045298372 13.00000000
-2.06846309 8.93814373 2.45826340 38 15 34697 9.49800000 2045298377 2045298377 15.00000000
-0.49310642 2.14441466 -0.58958977 4 0 34705 2.27800000 2045298398 2045298398 -15.00000000
-0.58038390 2.52800584 -0.59881973 3 2 34707 2.66200000 2045298402 2045298402 -13.00000000
-0.69444221 3.02723789 -0.60371965 2 4 34708 3.16400000 2045298407 2045298407 -11.00000000
-0.86524802 3.77787137 -0.61384887 2 6 34710 3.92400000 2045298411 2045298411 -9.00000000
-1.12615395 4.92494535 -0.62031496 6 8 34712 5.09000000 2045298416 2045298416 -7.00000000
-2.45702958 10.76247692 2.14583802 40 11 34714 11.24600000 2045298423 2045298423 11.00000000
-2.36151433 10.36075878 2.45331621 57 13 34716 10.90600000 2045298427 2045298427 13.00000000
-2.03381848 8.93024063 2.45412207 38 15 34717 9.48200000 2045298432 2045298432 15.00000000
-0.48433894 2.14047003 -0.58803689 4 0 34725 2.27200000 2045298453 2045298453 -15.00000000
-0.57241482 2.53381801 -0.59971952 3 2 34727 2.66600000 2045298457 2045298457 -13.00000000
-0.68127728 3.01815295 -0.60142994 2 4 34728 3.15200000 2045298462 2045298462 -11.00000000
-0.85900402 3.81170130 -0.61885476 2 6 34730 3.95600000 2045298467 2045298467 -9.00000000
-1.11941350 4.97532654 -0.62616467 2 8 34732 5.13800000 2045298471 2045298471 -7.00000000
-2.41944671 10.77098751 2.14583802 43 11 34734 11.24600000 2045298478 2045298478 11.00000000
-2.32576060 10.37084007 2.45376611 51 13 34736 10.90800000 2045298483 2045298483 13.00000000
-2.00009942 8.92597485 2.45101643 40 15 34737 9.47000000 2045298487 2045298487 15.00000000
-0.47975886 2.15337825 -0.59114271 4 0 34744 2.28400000 2045298508 2045298508 -15.00000000
-0.56062430 2.52048421 -0.59612030 3 2 34746 2.65000000 2045298513 2045298513 -13.00000000
-0.67467242 3.03572750 -0.60448289 2 4 34747 3.16800000 2045298517 2045298517 -11.00000000
