# .PCD v0.7 - Point Cloud Data file format
VERSION 0.7
FIELDS x y z intensity laser_id azimuth distance_m adjustedtime timestamp vertical_angle
SIZE 4 4 4 1 1 2 8 8 4 8
TYPE F F F U U U F U U F
COUNT 1 1 1 1 1 1 1 1 1 1
WIDTH 534
HEIGHT 1
VIEWPOINT 0 0 0 1 0 0 0
POINTS 534
DATA ascii
0.76668620 3.11903691 -0.62432700 2 4 1381 3.27200000 2045805803 2045805803 -11.00000000
0.97650510 3.96664953 -0.64701295 2 6 1383 4.13600000 2045805808 2045805808 -9.00000000
1.31675994 5.34076214 -0.67539990 2 8 1385 5.54200000 2045805812 2045805812 -7.00000000
1.96495140 7.96383810 -0.71764040 4 10 1386 8.23400000 2045805817 2045805817 -5.00000000
2.37668562 9.62535095 1.92717087 9 11 1387 10.10000000 2045805819 2045805819 11.00000000
2.45648003 9.93360996 2.36243606 56 13 1389 10.50200000 2045805824 2045805824 13.00000000
2.12050629 8.56215954 2.36353540 42 15 1391 9.13200000 2045805828 2045805828 15.00000000
0.54604238 2.19331765 -0.60563654 4 0 1398 2.34000000 2045805849 2045805849 -15.00000000
0.64823401 2.59992456 -0.61861539 3 2 1400 2.75000000 2045805854 2045805854 -13.00000000
0.78042072 3.12777090 -0.62661672 2 4 1401 3.28400000 2045805858 2045805858 -11.00000000
0.98555642 3.94405222 -0.64388424 2 6 1403 4.11600000 2045805863 2045805863 -9.00000000
1.32961166 5.31302500 -0.67247504 2 8 1405 5.51800000 2045805868 2045805868 -7.00000000
1.98015368 7.90668011 -0.71310830 4 10 1406 8.18200000 2045805872 2045805872 -5.00000000
2.40883803 9.61128330 1.92602599 12 11 1407 10.09400000 2045805874 2045805874 11.00000000
2.49208879 9.92875481 2.36333585 59 13 1409 10.50600000 2045805879 2045805879 13.00000000
2.15414858 8.56969357 2.36767673 42 15 1411 9.14800000 2045805884 2045805884 15.00000000
0.55520433 2.19898701 -0.60770714 4 0 1417 2.34800000 2045805904 2045805904 -15.00000000
0.65589666 2.59398198 -0.61771560 3 2 1419 2.74600000 2045805909 2045805909 -13.00000000
0.79271489 3.13277888 -0.62814319 2 4 1420 3.29200000 2045805914 2045805914 -11.00000000
0.99862993 3.94076228 -0.64388424 2 6 1422 4.11600000 2045805918 2045805918 -9.00000000
1.34819961 5.31243467 -0.67296249 2 8 1424 5.52200000 2045805923 2045805923 -7.00000000
2.01813269 7.94641638 -0.71729177 4 10 1425 8.23000000 2045805927 2045805927 -5.00000000
2.44359851 9.61465836 1.92831576 12 11 1426 10.10600000 2045805930 2045805930 11.00000000
2.52211595 9.90910530 2.36063647 59 13 1428 10.49400000 2045805934 2045805934 13.00000000
2.17962980 8.55726814 2.36612368 45 15 1429 9.14200000 2045805939 2045805939 15.00000000
0.56287682 2.19703555 -0.60770714 4 0 1437 2.34800000 2045805960 2045805960 -15.00000000
0.66882181 2.60677767 -0.62131482 3 2 1439 2.76200000 2045805964 2045805964 -13.00000000
0.80071604 3.11858320 -0.62585348 4 4 1440 3.28000000 2045805969 2045805969 -11.00000000
1.01434743 3.94490504 -0.64513576 2 6 1442 4.12400000 2045805973 2045805973 -9.00000000
1.36376512 5.29616213 -0.67150009 2 8 1444 5.51000000 2045805978 2045805978 -7.00000000
2.04188108 7.92388868 -0.71589726 4 10 1445 8.21400000 2045805983 2045805983 -5.00000000
2.47812557 9.60987282 1.92907894 15 11 1446 10.11000000 2045805985 2045805985 11.00000000
2.55376625 9.88891983 2.35793686 60 13 1448 10.48200000 2045805990 2045805990 13.00000000
2.21339750 8.55857372 2.36871195 45 15 1450 9.15200000 2045805994 2045805994 15.00000000
0.57189822 2.19869709 -0.60874242 4 0 1458 2.35200000 2045806015 2045806015 -15.00000000
0.67738914 2.60053706 -0.62041503 3 2 1460 2.75800000 2045806020 2045806020 -13.00000000
0.81511211 3.12702608 -0.62814319 2 4 1461 3.29200000 2045806024 2045806024 -11.00000000
1.03179300 3.95262861 -0.64701295 2 6 1463 4.13600000 2045806029 2045806029 -9.00000000
1.38115919 5.28344584 -0.67052513 2 8 1465 5.50200000 2045806033 2045806033 -7.00000000
2.07796931 7.94333696 -0.71833766 4 10 1466 8.24200000 2045806038 2045806038 -5.00000000
2.51880002 9.62161732 1.93327677 18 11 1467 10.13200000 2045806040 2045806040 11.00000000
2.59098196 9.88326359 2.35883665 57 13 1469 10.48600000 2045806045 2045806045 13.00000000
2.24080801 8.54145241 2.36612368 45 15 1470 9.14200000 2045806050 2045806050 15.00000000
0.57661265 2.18547988 -0.60563654 4 0 1478 2.34000000 2045806070 2045806070 -15.00000000
0.68696040 2.60004091 -0.62086493 3 2 1480 2.76000000 2045806075 2045806075 -13.00000000
0.82602251 3.12416172 -0.62814319 2 4 1481 3.29200000 2045806079 2045806079 -11.00000000
1.04457271 3.94518375 -0.64638722 2 6 1483 4.13200000 2045806084 2045806084 -9.00000000
1.40061092 5.28243017 -0.67101258 2 8 1485 5.50600000 2045806089 2045806089 -7.00000000
2.09853053 7.90907431 -0.71589726 4 10 1486 8.21400000 2045806093 2045806093 -5.00000000
2.55287433 9.61466312 1.93365836 15 11 1487 10.13400000 2045806096 2045806096 11.00000000
2.62746835 9.88169193 2.36063647 62 13 1489 10.49400000 2045806100 2045806100 13.00000000
2.27060771 8.52758121 2.36457086 42 15 1491 9.13600000 2045806105 2045806105 15.00000000
0.58385676 2.18355584 -0.60563654 4 0 1497 2.34000000 2045806126 2045806126 -15.00000000
0.69709080 2.60339570 -0.62221462 3 2 1499 2.76600000 2045806130 2045806130 -13.00000000
0.83028054 3.09864902 -0.62356383 2 4 1500 3.26800000 2045806135 2045806135 -11.00000000
1.05355430 3.92643499 -0.64388424 2 6 1502 4.11600000 2045806139 2045806139 -9.00000000
1.42275643 5.29501009 -0.67320627 2 8 1504 5.52400000 2045806144 2045806144 -7.00000000
2.12888527 7.91746426 -0.71729177 4 10 1505 8.23000000 2045806149 2045806149 -5.00000000
2.58423352 9.60424900 1.93327677 18 11 1506 10.13200000 2045806151 2045806151 11.00000000
2.66022277 9.87292480 2.36063647 57 13 1508 10.49400000 2045806156 2045806156 13.00000000
2.29839253 8.52413654 2.36560607 40 15 1509 9.14000000 2045806160 2045806160 15.00000000
0.59349740 2.18896246 -0.60770714 4 0 1517 2.34800000 2045806181 2045806181 -15.00000000
0.70311046 2.58966255 -0.61951518 3 2 1519 2.75400000 2045806185 2045806185 -13.00000000
0.84726870 3.11846685 -0.62814319 2 4 1520 3.29200000 2045806190 2045806190 -11.00000000
1.07036519 3.93417001 -0.64576149 2 6 1522 4.12800000 2045806195 2045806195 -9.00000000
1.43862176 5.28043509 -0.67198753 2 8 1524 5.51400000 2045806199 2045806199 -7.00000000
2.15546131 7.90614033 -0.71694314 4 10 1525 8.22600000 2045806204 2045806204 -5.00000000
2.61980963 9.60274601 1.93480325 21 11 1526 10.14000000 2045806206 2045806206 11.00000000
2.69158816 9.85229969 2.35793686 56 13 1528 10.48200000 2045806211 2045806211 13.00000000
2.32758045 8.50820160 2.36353540 45 15 1530 9.13200000 2045806215 2045806215 15.00000000
0.60011059 2.18315196 -0.60667187 4 0 1537 2.34400000 2045806236 2045806236 -15.00000000
0.70800841 2.57216167 -0.61591601 3 2 1539 2.73800000 2045806241 2045806241 -13.00000000
0.85606360 3.10791922 -0.62661672 2 4 1540 3.28400000 2045806245 2045806245 -11.00000000
1.08304095 3.92660141 -0.64513576 2 6 1542 4.12400000 2045806250 2045806250 -9.00000000
1.45810223 5.27920818 -0.67247504 2 8 1544 5.51800000 2045806255 2045806255 -7.00000000
2.18304563 7.89856815 -0.71694314 4 10 1545 8.22600000 2045806259 2045806259 -5.00000000
2.65907025 9.61435699 1.93900096 28 11 1546 10.16200000 2045806261 2045806261 11.00000000
2.72388220 9.83533192 2.35613728 57 13 1548 10.47400000 2045806266 2045806266 13.00000000
2.35939360 8.51346779 2.36715889 40 15 1549 9.14600000 2045806271 2045806271 15.00000000
0.60720903 2.17918301 -0.60615420 4 0 1557 2.34200000 2045806291 2045806291 -15.00000000
0.72431481 2.59595323 -0.62221462 3 2 1559 2.76600000 2045806296 2045806296 -13.00000000
0.86373931 3.09356666 -0.62432700 2 4 1560 3.27200000 2045806301 2045806301 -11.00000000
1.09674072 3.92279696 -0.64513576 2 6 1562 4.12400000 2045806305 2045806305 -9.00000000
1.47438049 5.26643991 -0.67150009 2 8 1564 5.51000000 2045806310 2045806310 -7.00000000
2.21275353 7.89857388 -0.71764040 4 10 1565 8.23400000 2045806314 2045806314 -5.00000000
2.69579411 9.61635876 1.94129074 25 11 1566 10.17400000 2045806317 2045806317 11.00000000
2.75819731 9.82576370 2.35613728 59 13 1568 10.47400000 2045806321 2045806321 13.00000000
2.38901281 8.49918365 2.36560607 42 15 1570 9.14000000 2045806326 2045806326 15.00000000
0.61428708 2.17519093 -0.60563654 4 0 1577 2.34000000 2045806347 2045806347 -15.00000000
0.73443252 2.59715939 -0.62311441 3 2 1579 2.77000000 2045806351 2045806351 -13.00000000
0.87667084 3.09808898 -0.62585348 2 4 1580 3.28000000 2045806356 2045806356 -11.00000000
1.11796653 3.94555235 -0.64951593 2 6 1582 4.15200000 2045806361 2045806361 -9.00000000
1.49275482 5.26126146 -0.67150009 2 8 1584 5.51000000 2045806365 2045806365 -7.00000000
2.23813438 7.88313532 -0.71694314 4 10 1585 8.22600000 2045806370 2045806370 -5.00000000
2.72827196 9.60311317 1.94052744 25 11 1586 10.17000000 2045806372 2045806372 11.00000000
2.79461169 9.82357407 2.35793686 55 13 1588 10.48200000 2045806377 2045806377 13.00000000
2.41665506 8.48935699 2.36508846 45 15 1589 9.13800000 2045806381 2045806381 15.00000000
0.62400222 2.18046260 -0.60770714 4 0 1597 2.34800000 2045806402 2045806402 -15.00000000
3.21943951 11.24232864 0.20412335 3 1 1598 11.69600000 2045806404 2045806404 1.00000000
0.74242014 2.59083343 -0.62221462 3 2 1599 2.76600000 2045806407 2045806407 -13.00000000
0.88531524 3.08746123 -0.62432700 2 4 1600 3.27200000 2045806411 2045806411 -11.00000000
1.12246466 3.90934873 -0.64419711 2 6 1602 4.11800000 2045806416 2045806416 -9.00000000
1.51549900 5.27128124 -0.67344999 2 8 1604 5.52600000 2045806420 2045806420 -7.00000000
2.27555346 7.90973997 -0.72008073 4 10 1605 8.26200000 2045806425 2045806425 -5.00000000
2.76286268 9.59730434 1.94129074 25 11 1606 10.17400000 2045806427 2045806427 11.00000000
3.20771909 11.13528347 -0.60730642 4 12 1607 11.60400000 2045806430 2045806430 -3.00000000
2.82888532 9.81375885 2.35793686 59 13 1608 10.48200000 2045806432 2045806432 13.00000000
3.21275258 11.13813782 -0.20234320 4 14 1609 11.59400000 2045806434 2045806434 -1.00000000
2.44721818 8.47858620 2.36457086 42 15 1610 9.13600000 2045806437 2045806437 15.00000000
0.63376164 2.18569279 -0.60977769 4 0 1617 2.35600000 2045806457 2045806457 -15.00000000
3.23135877 11.13691807 0.20241301 6 1 1618 11.59800000 2045806460 2045806460 1.00000000
0.74711251 2.57325435 -0.61861539 3 2 1619 2.75000000 2045806462 2045806462 -13.00000000
3.24244881 11.16058159 0.60908586 26 3 1620 11.63800000 2045806464 2045806464 3.00000000
0.90265989 3.10697556 -0.62890643 2 4 1620 3.29600000 2045806467 2045806467 -11.00000000
3.24927855 11.17680836 1.01832771 17 5 1621 11.68400000 2045806469 2045806469 5.00000000
1.13831115 3.91299367 -0.64544863 2 6 1622 4.12600000 2045806471 2045806471 -9.00000000
3.25569057 11.18429852 1.43025863 14 7 1623 11.73600000 2045806473 2045806473 7.00000000
1.53166926 5.25833511 -0.67247504 2 8 1624 5.51800000 2045806476 2045806476 -7.00000000
2.29422927 7.87114382 -0.71729177 4 10 1625 8.23000000 2045806480 2045806480 -5.00000000
2.79909515 9.59702587 1.94319880 21 11 1626 10.18400000 2045806483 2045806483 11.00000000
3.20404243 10.97830582 -0.59935135 4 12 1627 11.45200000 2045806485 2045806485 -3.00000000
2.86093926 9.79634190 2.35613728 56 13 1628 10.47400000 2045806487 2045806487 13.00000000
3.22076201 11.02128792 -0.20042343 6 14 1629 11.48400000 2045806490 2045806490 -1.00000000
2.47640443 8.47413254 2.36560607 45 15 1629 9.14000000 2045806492 2045806492 15.00000000
0.64138728 2.18346739 -0.60977769 4 0 1637 2.35600000 2045806513 2045806513 -15.00000000
3.23299503 10.99894810 0.20010929 6 1 1638 11.46600000 2045806515 2045806515 1.00000000
0.75499052 2.56689167 -0.61771560 3 2 1639 2.74600000 2045806517 2045806517 -13.00000000
3.24078512 11.01124382 0.60154951 28 3 1640 11.49400000 2045806520 2045806520 3.00000000
0.91128254 3.09627247 -0.62737995 2 4 1640 3.28800000 2045806522 2045806522 -11.00000000
3.25562692 11.05454731 1.00821757 12 5 1641 11.56800000 2045806524 2045806524 5.00000000
1.15363824 3.91468096 -0.64638722 2 6 1642 4.13200000 2045806526 2045806526 -9.00000000
3.26102281 11.05862427 1.41563427 31 7 1643 11.61600000 2045806529 2045806529 7.00000000
1.54383516 5.23201370 -0.66979390 2 8 1644 5.49600000 2045806531 2045806531 -7.00000000
3.27493572 11.09866428 1.83278620 25 9 1644 11.71600000 2045806533 2045806533 9.00000000
2.33071780 7.89366102 -0.72008073 4 10 1645 8.26200000 2045806536 2045806536 -5.00000000
2.83814096 9.60602474 1.94701505 18 11 1646 10.20400000 2045806538 2045806538 11.00000000
3.20440555 10.83872890 -0.59233832 4 12 1647 11.31800000 2045806540 2045806540 -3.00000000
2.89401197 9.78255844 2.35523748 56 13 1648 10.47000000 2045806543 2045806543 13.00000000
3.21891356 10.87383938 -0.19794519 6 14 1649 11.34200000 2045806545 2045806545 -1.00000000
2.50706625 8.46914196 2.36664128 42 15 1649 9.14400000 2045806547 2045806547 15.00000000
0.64642191 2.17392159 -0.60770714 4 0 1656 2.34800000 2045806568 2045806568 -15.00000000
3.22953105 10.85400105 0.19766596 6 1 1657 11.32600000 2045806570 2045806570 1.00000000
0.76683497 2.57558012 -0.62041503 3 2 1658 2.75800000 2045806573 2045806573 -13.00000000
3.24135566 10.87984657 0.59495515 34 3 1659 11.36800000 2045806575 2045806575 3.00000000
0.91706073 3.07818127 -0.62432700 2 4 1659 3.27200000 2045806577 2045806577 -11.00000000
3.23933125 10.86612034 0.99200666 8 5 1660 11.38200000 2045806579 2045806579 5.00000000
1.16548407 3.90704775 -0.64576149 2 6 1661 4.12800000 2045806582 2045806582 -9.00000000
3.25906754 10.91840267 1.39906001 36 7 1662 11.48000000 2045806584 2045806584 7.00000000
1.56288099 5.23257113 -0.67052513 2 8 1663 5.50200000 2045806586 2045806586 -7.00000000
3.26274753 10.91682625 1.80462801 31 9 1664 11.53600000 2045806589 2045806589 9.00000000
2.34661174 7.85152721 -0.71694314 4 10 1664 8.22600000 2045806591 2045806591 -5.00000000
2.87616777 9.61725044 1.95121276 15 11 1665 10.22600000 2045806593 2045806593 11.00000000
3.19853091 10.68836308 -0.58469731 4 12 1666 11.17200000 2045806596 2045806596 -3.00000000
2.92531800 9.76917458 2.35433769 56 13 1667 10.46600000 2045806598 2045806598 13.00000000
3.20501995 10.69645214 -0.19490847 6 14 1668 11.16800000 2045806600 2045806600 -1.00000000
2.53181028 8.44967842 2.36353540 45 15 1668 9.13200000 2045806602 2045806602 15.00000000
0.65400642 2.17165184 -0.60770714 4 0 1676 2.34800000 2045806623 2045806623 -15.00000000
3.22412586 10.69906235 0.19504809 6 1 1677 11.17600000 2045806626 2045806626 1.00000000
0.77919632 2.58408237 -0.62311441 3 2 1678 2.77000000 2045806628 2045806628 -13.00000000
3.23950505 10.73653030 0.58773279 34 3 1679 11.23000000 2045806630 2045806630 3.00000000
0.92666572 3.07120228 -0.62356383 2 4 1679 3.26800000 2045806632 2045806632 -11.00000000
3.24211359 10.73839855 0.98137367 24 5 1680 11.26000000 2045806635 2045806635 5.00000000
1.17854393 3.90106487 -0.64544863 2 6 1681 4.12600000 2045806637 2045806637 -9.00000000
3.25580192 10.77014732 1.38151085 34 7 1682 11.33600000 2045806639 2045806639 7.00000000
1.58573461 5.24228477 -0.67247504 2 8 1683 5.51800000 2045806642 2045806642 -7.00000000
3.26363730 10.78247738 1.78429151 28 9 1684 11.40600000 2045806644 2045806644 9.00000000
2.37862206 7.85854387 -0.71833766 4 10 1684 8.24200000 2045806646 2045806646 -5.00000000
2.91142797 9.61278915 1.95235765 12 11 1685 10.23200000 2045806649 2045806649 11.00000000
3.21380830 10.60449982 -0.58071977 12 12 1686 11.09600000 2045806651 2045806651 -3.00000000
2.96053195 9.76263332 2.35523748 57 13 1687 10.47000000 2045806653 2045806653 13.00000000
3.21620893 10.59908962 -0.19333775 6 14 1688 11.07800000 2045806655 2045806655 -1.00000000
2.55939531 8.42925072 2.36042976 42 15 1689 9.12000000 2045806658 2045806658 15.00000000
0.66270995 2.17305136 -0.60874242 4 0 1696 2.35200000 2045806679 2045806679 -15.00000000
3.23110294 10.58828640 0.19323304 10 1 1697 11.07200000 2045806681 2045806681 1.00000000
0.78934991 2.58507419 -0.62401420 3 2 1698 2.77400000 2045806683 2045806683 -13.00000000
3.25245118 10.64493275 0.58333659 10 3 1699 11.14600000 2045806685 2045806685 3.00000000
0.94311732 3.08672452 -0.62737995 2 4 1699 3.28800000 2045806688 2045806688 -11.00000000
3.25278211 10.63937092 0.97335535 16 5 1700 11.16800000 2045806690 2045806690 5.00000000
3.23724985 10.58196068 -1.75269175 2 6 1701 11.20400000 2045806692 2045806692 -9.00000000
3.25967622 10.64862442 1.36737406 14 7 1702 11.22000000 2045806695 2045806695 7.00000000
3.24700022 10.60060406 -1.36128056 4 8 1703 11.17000000 2045806697 2045806697 -7.00000000
3.26941776 10.66714287 1.76708376 15 9 1704 11.29600000 2045806699 2045806699 9.00000000
3.25320292 10.61423874 -0.97126359 4 10 1704 11.14400000 2045806702 2045806702 -5.00000000
2.94496512 9.60256767 1.95235765 12 11 1705 10.23200000 2045806704 2045806704 11.00000000
3.24670386 10.57985115 -0.57998705 17 12 1706 11.08200000 2045806706 2045806706 -3.00000000
2.99573612 9.75596523 2.35613728 59 13 1707 10.47400000 2045806708 2045806708 13.00000000
3.25847292 10.60500240 -0.19365190 23 14 1708 11.09600000 2045806711 2045806711 -1.00000000
2.58960319 8.42810345 2.36250019 42 15 1708 9.12800000 2045806713 2045806713 15.00000000
0.66744143 2.16149545 -0.60615420 3 0 1716 2.34200000 2045806734 2045806734 -15.00000000
3.27571750 10.60178089 0.19368681 20 1 1717 11.09800000 2045806736 2045806736 1.00000000
0.79491508 2.57113242 -0.62131482 3 2 1718 2.76200000 2045806738 2045806738 -13.00000000
3.28899884 10.63160706 0.58323193 10 3 1719 11.14400000 2045806741 2045806741 3.00000000
0.95620716 3.09091592 -0.62890643 2 4 1719 3.29600000 2045806743 2045806743 -11.00000000
3.28754401 10.62033844 0.97265810 12 5 1720 11.16000000 2045806745 2045806745 5.00000000
1.20867181 3.90217662 -0.64701295 2 6 1721 4.13600000 2045806748 2045806748 -9.00000000
3.29565144 10.63338852 1.36688650 10 7 1722 11.21600000 2045806750 2045806750 7.00000000
1.62346971 5.23487854 -0.67296249 2 8 1723 5.52200000 2045806752 2045806752 -7.00000000
3.30312037 10.64434624 1.76520646 12 9 1724 11.28400000 2045806755 2045806755 9.00000000
2.43460751 7.84555244 -0.71868628 4 10 1724 8.24600000 2045806757 2045806757 -5.00000000
2.98661685 9.61847878 1.95770025 12 11 1725 10.26000000 2045806759 2045806759 11.00000000
3.29250360 10.59706306 -0.58155715 12 12 1726 11.11200000 2045806761 2045806761 -3.00000000
3.02745843 9.73800564 2.35433769 57 13 1727 10.46600000 2045806764 2045806764 13.00000000
3.30081725 10.61074829 -0.19396605 12 14 1728 11.11400000 2045806766 2045806766 -1.00000000
2.62015462 8.42270184 2.36353540 42 15 1728 9.13200000 2045806768 2045806768 15.00000000
0.67806208 2.17033410 -0.60926002 4 0 1735 2.35400000 2045806789 2045806789 -15.00000000
3.31861281 10.61567211 0.19414057 13 1 1736 11.12400000 2045806791 2045806791 1.00000000
0.80343688 2.56848216 -0.62131482 3 2 1737 2.76200000 2045806794 2045806794 -13.00000000
3.32238269 10.62122154 0.58323193 13 3 1737 11.14400000 2045806796 2045806796 3.00000000
0.96762460 3.09147525 -0.62966967 2 4 1738 3.30000000 2045806798 2045806798 -11.00000000
3.32750797 10.62458897 0.97405261 12 5 1739 11.17600000 2045806801 2045806801 5.00000000
1.22514951 3.90945697 -0.64889014 2 6 1740 4.14800000 2045806803 2045806803 -9.00000000
3.33386469 10.63187218 1.36810529 12 7 1741 11.22600000 2045806805 2045806805 7.00000000
1.63963163 5.22567797 -0.67247504 2 8 1742 5.51800000 2045806807 2045806807 -7.00000000
3.33772707 10.63768578 1.76583219 12 9 1742 11.28800000 2045806810 2045806810 9.00000000
2.45822382 7.82983208 -0.71798903 4 10 1743 8.23800000 2045806812 2045806812 -5.00000000
3.04556298 9.69468021 1.97525477 12 11 1744 10.35200000 2045806814 2045806814 11.00000000
3.33181906 10.59942436 -0.58228987 12 12 1745 11.12600000 2045806817 2045806817 -3.00000000
3.05739522 9.72047615 2.35253811 56 13 1746 10.45800000 2045806819 2045806819 13.00000000
3.33838701 10.60737419 -0.19410567 10 14 1747 11.12200000 2045806821 2045806821 -1.00000000
2.64923096 8.41765308 2.36457086 40 15 1747 9.13600000 2045806824 2045806824 15.00000000
0.68388623 2.16242814 -0.60770714 4 0 1755 2.34800000 2045806844 2045806844 -15.00000000
3.35926819 10.61546230 0.19435000 13 1 1756 11.13600000 2045806847 2045806847 1.00000000
0.81357419 2.56937766 -0.62221462 3 2 1757 2.76600000 2045806849 2045806849 -13.00000000
3.36611509 10.62420464 0.58406925 10 3 1758 11.16000000 2045806851 2045806851 3.00000000
0.97366619 3.07310629 -0.62661672 2 4 1758 3.28400000 2045806854 2045806854 -11.00000000
3.36638069 10.61860657 0.97457552 12 5 1759 11.18200000 2045806856 2045806856 5.00000000
1.23998320 3.90892243 -0.64951593 2 6 1760 4.15200000 2045806858 2045806858 -9.00000000
3.37696218 10.63909054 1.37054265 12 7 1761 11.24600000 2045806860 2045806860 7.00000000
1.65185380 5.20100307 -0.67003763 2 8 1762 5.49800000 2045806863 2045806863 -7.00000000
3.37908673 10.63291168 1.76708376 12 9 1763 11.29600000 2045806865 2045806865 9.00000000
2.48674679 7.82500124 -0.71833766 4 10 1763 8.24200000 2045806867 2045806867 -5.00000000
3.16922045 9.96650219 2.03287911 50 11 1764 10.65400000 2045806870 2045806870 11.00000000
3.37424779 10.60485840 -0.58323193 12 12 1765 11.14400000 2045806872 2045806872 -3.00000000
3.09130740 9.70974445 2.35253811 59 13 1766 10.45800000 2045806874 2045806874 13.00000000
3.37660718 10.59946632 -0.19417547 10 14 1767 11.12600000 2045806877 2045806877 -1.00000000
2.67771840 8.40052414 2.36250019 42 15 1768 9.12800000 2045806879 2045806879 15.00000000
0.68848556 2.15082836 -0.60511893 4 0 1775 2.33800000 2045806900 2045806900 -15.00000000
3.39752245 10.60748005 0.19441980 13 1 1776 11.14000000 2045806902 2045806902 1.00000000
0.82610655 2.57765675 -0.62491405 3 2 1777 2.77800000 2045806904 2045806904 -13.00000000
3.40864229 10.63580799 0.58532536 13 3 1777 11.18400000 2045806907 2045806907 3.00000000
0.98438740 3.06968880 -0.62661672 2 4 1778 3.28400000 2045806909 2045806909 -11.00000000
3.40646982 10.61627674 0.97544706 12 5 1779 11.19200000 2045806911 2045806911 5.00000000
1.25362039 3.90457034 -0.64951593 2 6 1780 4.15200000 2045806913 2045806913 -9.00000000
3.41772199 10.63857841 1.37200511 14 7 1781 11.25800000 2045806916 2045806916 7.00000000
1.67850351 5.22166348 -0.67344999 2 8 1782 5.52600000 2045806918 2045806918 -7.00000000
3.42283535 10.64173698 1.77052522 12 9 1783 11.31800000 2045806920 2045806920 9.00000000
2.51648617 7.82386017 -0.71903485 4 10 1783 8.25000000 2045806923 2045806923 -5.00000000
3.20639658 9.96285439 2.03440547 40 11 1784 10.66200000 2045806925 2045806925 11.00000000
3.41797948 10.61392784 -0.58438331 12 12 1785 11.16600000 2045806927 2045806927 -3.00000000
3.12159586 9.68776608 2.34983873 60 13 1786 10.44600000 2045806930 2045806930 13.00000000
3.41972184 10.60664749 -0.19452453 10 14 1787 11.14600000 2045806932 2045806932 -1.00000000
2.70437527 8.38792038 2.36146498 42 15 1787 9.12400000 2045806934 2045806934 15.00000000
0.70015681 2.16127682 -0.60874242 4 0 1795 2.35200000 2045806955 2045806955 -15.00000000
3.43699527 10.60316563 0.19455943 13 1 1796 11.14800000 2045806957 2045806957 1.00000000
0.83269429 2.56734276 -0.62311441 3 2 1797 2.77000000 2045806959 2045806959 -13.00000000
3.44759607 10.62954426 0.58563936 13 3 1797 11.19000000 2045806962 2045806962 3.00000000
0.99873275 3.07743812 -0.62890643 2 4 1798 3.29600000 2045806964 2045806964 -11.00000000
3.44596815 10.61190128 0.97614431 12 5 1799 11.20000000 2045806966 2045806966 5.00000000
1.25625455 3.86635399 -0.64388424 2 6 1800 4.11600000 2045806969 2045806969 -9.00000000
3.45729184 10.63413429 1.37298000 14 7 1801 11.26600000 2045806971 2045806971 7.00000000
1.69794846 5.21954775 -0.67393744 2 8 1802 5.53000000 2045806973 2045806973 -7.00000000
3.46424103 10.64287281 1.77271533 12 9 1803 11.33200000 2045806976 2045806976 9.00000000
2.54501462 7.81881714 -0.71938348 4 10 1803 8.25400000 2045806978 2045806978 -5.00000000
3.24236989 9.95533466 2.03516865 46 11 1804 10.66600000 2045806980 2045806980 11.00000000
3.45500827 10.60193253 -0.58438331 12 12 1805 11.16600000 2045806983 2045806983 -3.00000000
3.12881160 9.59529018 2.33004308 64 13 1806 10.35800000 2045806985 2045806985 13.00000000
3.46292782 10.61365700 -0.19487357 12 14 1807 11.16600000 2045806987 2045806987 -1.00000000
2.73184037 8.37292004 2.35991216 40 15 1807 9.11800000 2045806989 2045806989 15.00000000
0.70852292 2.16261482 -0.60977769 4 0 1814 2.35600000 2045807010 2045807010 -15.00000000
3.47961259 10.61451149 0.19497828 13 1 1815 11.17200000 2045807012 2045807012 1.00000000
0.83270019 2.53864384 -0.61681581 3 2 1816 2.74200000 2045807015 2045807015 -13.00000000
3.48779321 10.62693310 0.58616269 13 3 1817 11.20000000 2045807017 2045807017 3.00000000
1.00770795 3.07037854 -0.62814319 2 4 1817 3.29200000 2045807019 2045807019 -11.00000000
3.48735595 10.61934471 0.97788745 12 5 1818 11.22000000 2045807022 2045807022 5.00000000
1.27400219 3.87718010 -0.64638722 2 6 1819 4.13200000 2045807024 2045807024 -9.00000000
3.49377680 10.62638283 1.37346745 12 7 1820 11.27000000 2045807026 2045807026 7.00000000
3.49066877 10.61068726 -1.37151754 2 8 1821 11.25400000 2045807029 2045807029 -7.00000000
3.50198054 10.64507198 1.77490544 12 9 1821 11.34600000 2045807031 2045807031 9.00000000
2.56719112 7.79897976 -0.71833766 4 10 1822 8.24200000 2045807033 2045807033 -5.00000000
3.27536511 9.94452763 2.03516865 43 11 1823 10.66600000 2045807036 2045807036 11.00000000
3.49327230 10.59990120 -0.58490664 12 12 1824 11.17600000 2045807038 2045807038 -3.00000000
3.12155604 9.46641636 2.30124927 62 13 1825 10.23000000 2045807040 2045807040 13.00000000
3.50562382 10.62490273 -0.19529243 10 14 1826 11.19000000 2045807042 2045807042 -1.00000000
2.76165628 8.36516762 2.36042976 40 15 1827 9.12000000 2045807045 2045807045 15.00000000
0.71728325 2.16379571 -0.61081296 4 0 1834 2.36000000 2045807065 2045807065 -15.00000000
3.51601338 10.60040283 0.19494338 13 1 1835 11.17000000 2045807068 2045807068 1.00000000
0.84769493 2.55421710 -0.62131482 3 2 1836 2.76200000 2045807070 2045807070 -13.00000000
3.52175593 10.61151791 0.58595335 13 3 1836 11.19600000 2045807072 2045807072 3.00000000
1.01965690 3.07056880 -0.62890643 2 4 1837 3.29600000 2045807075 2045807075 -11.00000000
3.53068542 10.62601471 0.97963053 12 5 1838 11.24000000 2045807077 2045807077 5.00000000
1.29002106 3.88020754 -0.64763868 2 6 1839 4.14000000 2045807079 2045807079 -9.00000000
3.53335500 10.62165642 1.37444246 12 7 1840 11.27800000 2045807082 2045807082 7.00000000
3.53144717 10.60973930 -1.37298000 2 8 1841 11.26600000 2045807084 2045807084 -7.00000000
3.54346991 10.63966179 1.77615690 12 9 1842 11.35400000 2045807086 2045807086 9.00000000
2.59125113 7.78051949 -0.71746606 4 10 1842 8.23200000 2045807089 2045807089 -5.00000000
3.31378198 9.94420910 2.03745842 40 11 1843 10.67800000 2045807091 2045807091 11.00000000
3.53467369 10.60090637 -0.58563936 12 12 1844 11.19000000 2045807093 2045807093 -3.00000000
3.11634350 9.34085083 2.27335525 64 13 1845 10.10600000 2045807095 2045807095 13.00000000
3.54142380 10.60880756 -0.19522262 10 14 1846 11.18600000 2045807098 2045807098 -1.00000000
2.79328752 8.36280537 2.36250019 45 15 1847 9.12800000 2045807100 2045807100 15.00000000
0.71708739 2.13942480 -0.60460126 4 0 1853 2.33600000 2045807121 2045807121 -15.00000000
3.56004810 10.61522770 0.19543205 13 1 1854 11.19800000 2045807123 2045807123 1.00000000
0.85740024 2.55508709 -0.62221462 3 2 1855 2.76600000 2045807125 2045807125 -13.00000000
3.56327963 10.61871624 0.58700007 13 3 1855 11.21600000 2045807128 2045807128 3.00000000
1.02733409 3.05972600 -0.62737995 2 4 1856 3.28800000 2045807130 2045807130 -11.00000000
3.56336522 10.60669327 0.97893327 12 5 1857 11.23200000 2045807132 2045807132 5.00000000
1.30099297 3.87029099 -0.64670008 2 6 1858 4.13400000 2045807135 2045807135 -9.00000000
3.57615232 10.63245964 1.37736738 14 7 1859 11.30200000 2045807137 2045807137 7.00000000
3.56914353 10.60549545 -1.37395501 2 8 1860 11.27400000 2045807139 2045807139 -7.00000000
3.57624769 10.62660503 1.77584410 12 9 1860 11.35200000 2045807142 2045807142 9.00000000
2.61067986 7.75300169 -0.71572298 4 10 1861 8.21200000 2045807144 2045807144 -5.00000000
3.34674001 9.93316555 2.03745842 46 11 1862 10.67800000 2045807146 2045807146 11.00000000
3.57427454 10.60237408 -0.58637208 12 12 1863 11.20400000 2045807148 2045807148 -3.00000000
3.11615896 9.23813915 2.25086021 62 13 1864 10.00600000 2045807151 2045807151 13.00000000
3.57786345 10.60079479 -0.19529243 12 14 1865 11.19000000 2045807153 2045807153 -1.00000000
2.82224035 8.35715771 2.36353540 45 15 1866 9.13200000 2045807155 2045807155 15.00000000
0.72827303 2.14788604 -0.60770714 4 0 1873 2.34800000 2045807176 2045807176 -15.00000000
3.59965014 10.61031151 0.19557166 13 1 1874 11.20600000 2045807178 2045807178 1.00000000
0.86881953 2.55945992 -0.62401420 3 2 1875 2.77400000 2045807181 2045807181 -13.00000000
3.60546017 10.62134266 0.58783746 10 3 1875 11.23200000 2045807183 2045807183 3.00000000
1.03927100 3.05983925 -0.62814319 2 4 1876 3.29200000 2045807185 2045807185 -11.00000000
3.60421419 10.60550880 0.97997916 12 5 1877 11.24400000 2045807188 2045807188 5.00000000
1.31385899 3.86385584 -0.64638722 2 6 1878 4.13200000 2045807190 2045807190 -9.00000000
3.61963868 10.63870430 1.37980473 12 7 1879 11.32200000 2045807192 2045807192 7.00000000
3.60486245 10.58921432 -1.37346745 2 8 1880 11.27000000 2045807195 2045807195 -7.00000000
3.61968565 10.63275719 1.77897274 12 9 1880 11.37200000 2045807197 2045807197 9.00000000
2.63965416 7.74949932 -0.71624589 4 10 1881 8.21800000 2045807199 2045807199 -5.00000000
3.37885952 9.91399002 2.03593206 43 11 1882 10.67000000 2045807201 2045807201 11.00000000
3.61641908 10.60495663 -0.58720940 12 12 1883 11.22000000 2045807204 2045807204 -3.00000000
3.10811186 9.10916805 2.22206640 40 13 1884 9.87800000 2045807206 2045807206 13.00000000
3.62259817 10.61095047 -0.19571128 10 14 1885 11.21400000 2045807208 2045807208 -1.00000000
2.84639931 8.33263016 2.35939431 42 15 1886 9.11600000 2045807211 2045807211 15.00000000
0.73576611 2.14533091 -0.60770714 4 0 1893 2.34800000 2045807231 2045807231 -15.00000000
3.63536716 10.59389877 0.19550186 13 1 1894 11.20200000 2045807234 2045807234 1.00000000
0.87521708 2.54903913 -0.62221462 3 2 1895 2.76600000 2045807236 2045807236 -13.00000000
3.65029669 10.63136101 0.58909351 13 3 1895 11.25600000 2045807238 2045807238 3.00000000
1.05377281 3.06733322 -0.63043290 2 4 1896 3.30400000 2045807241 2045807241 -11.00000000
3.64768910 10.61170483 0.98172230 12 5 1897 11.26400000 2045807243 2045807243 5.00000000
1.32798076 3.86111403 -0.64670008 4 6 1898 4.13400000 2045807245 2045807245 -9.00000000
3.65804458 10.62975883 1.38029218 14 7 1899 11.32600000 2045807247 2045807247 7.00000000
3.65343690 10.61035156 -1.37785482 2 8 1900 11.30600000 2045807250 2045807250 -7.00000000
3.66449618 10.64247036 1.78272712 12 9 1900 11.39600000 2045807252 2045807252 9.00000000
2.66214609 7.72705221 -0.71502572 4 10 1901 8.20400000 2045807254 2045807254 -5.00000000
3.41216564 9.89842224 2.03516865 46 11 1902 10.66600000 2045807257 2045807257 11.00000000
3.65471768 10.59604454 -0.58741879 12 12 1903 11.22400000 2045807259 2045807259 -3.00000000
3.11128187 9.01536751 2.20182085 55 13 1904 9.78800000 2045807261 2045807261 13.00000000
3.66353154 10.60958195 -0.19592072 10 14 1905 11.22600000 2045807264 2045807264 -1.00000000
2.88032103 8.34140587 2.36457086 6 15 1905 9.13600000 2045807266 2045807266 15.00000000
0.74704880 2.15370035 -0.61081296 4 0 1913 2.36000000 2045807287 2045807287 -15.00000000
3.67691422 10.59436798 0.19574618 13 1 1914 11.21600000 2045807289 2045807289 1.00000000
0.88027394 2.53492308 -0.61951518 3 2 1915 2.75400000 2045807291 2045807291 -13.00000000
3.68738484 10.61855412 0.58909351 13 3 1915 11.25600000 2045807294 2045807294 3.00000000
1.05931854 3.04880023 -0.62737995 2 4 1916 3.28800000 2045807296 2045807296 -11.00000000
3.69255948 10.62149048 0.98381400 12 5 1917 11.28800000 2045807298 2045807298 5.00000000
1.34599340 3.86951518 -0.64889014 2 6 1918 4.14800000 2045807300 2045807300 -9.00000000
3.69643211 10.62067509 1.38077962 14 7 1919 11.33000000 2045807303 2045807303 7.00000000
3.69436860 10.60878181 -1.37931728 2 8 1920 11.31800000 2045807305 2045807305 -7.00000000
3.70617056 10.64267254 1.78491724 12 9 1920 11.41000000 2045807307 2045807307 9.00000000
2.70221329 7.75534153 -0.71851194 4 10 1921 8.24400000 2045807310 2045807310 -5.00000000
3.44669676 9.88645172 2.03516865 46 11 1922 10.66600000 2045807312 2045807312 11.00000000
3.69694495 10.59830856 -0.58825612 12 12 1923 11.24000000 2045807314 2045807314 -3.00000000
3.10548711 8.89773846 2.17572665 54 13 1924 9.67200000 2045807317 2045807317 13.00000000
3.70449924 10.60805607 -0.19613014 10 14 1925 11.23800000 2045807319 2045807319 -1.00000000
2.41319656 6.90646076 1.96029544 11 15 1926 7.57400000 2045807321 2045807321 15.00000000
0.75392258 2.14925671 -0.61029530 4 0 1933 2.35800000 2045807342 2045807342 -15.00000000
3.72115779 10.60222435 0.19613014 13 1 1934 11.23800000 2045807344 2045807344 1.00000000
0.88911712 2.53183484 -0.61951518 3 2 1935 2.75400000 2045807347 2045807347 -13.00000000
3.72694111 10.60685253 0.58919817 13 3 1936 11.25800000 2045807349 2045807349 3.00000000
1.07125604 3.04878831 -0.62814319 2 4 1936 3.29200000 2045807351 2045807351 -11.00000000
3.73820353 10.63297081 0.98608005 12 5 1937 11.31400000 2045807353 2045807353 5.00000000
1.35621488 3.85547590 -0.64732581 2 6 1938 4.13800000 2045807356 2045807356 -9.00000000
3.74007297 10.62643242 1.38321710 12 7 1939 11.35000000 2045807358 2045807358 7.00000000
3.73467445 10.60518360 -1.38053596 2 8 1940 11.32800000 2045807360 2045807360 -7.00000000
3.74461007 10.63339710 1.78554296 12 9 1940 11.41400000 2045807363 2045807363 9.00000000
2.72993016 7.74774075 -0.71868628 4 10 1941 8.24600000 2045807365 2045807365 -5.00000000
3.48249149 9.87806320 2.03593206 43 11 1942 10.67000000 2045807367 2045807367 11.00000000
3.73524618 10.58910656 -0.58846551 12 12 1943 11.24400000 2045807370 2045807370 -3.00000000
3.10085535 8.78577328 2.15098190 46 13 1944 9.56200000 2045807372 2045807372 13.00000000
3.74217153 10.59694672 -0.19616506 10 14 1945 11.24000000 2045807374 2045807374 -1.00000000
2.43930221 6.90752840 1.96288359 9 15 1945 7.58400000 2045807377 2045807377 15.00000000
0.76142031 2.14661193 -0.61029530 4 0 1953 2.35800000 2045807397 2045807397 -15.00000000
3.76015019 10.59482384 0.19623485 13 1 1954 11.24400000 2045807400 2045807400 1.00000000
0.90055788 2.53606129 -0.62131482 3 2 1955 2.76200000 2045807402 2045807402 -13.00000000
3.77263594 10.61824417 0.59055895 13 3 1956 11.28400000 2045807404 2045807404 3.00000000
1.08320630 3.04873037 -0.62890643 2 4 1956 3.29600000 2045807406 2045807406 -11.00000000
3.77262735 10.61234856 0.98538285 12 5 1957 11.30600000 2045807409 2045807409 5.00000000
1.37297475 3.86002421 -0.64889014 4 6 1958 4.14800000 2045807411 2045807411 -9.00000000
3.78513026 10.63575459 1.38614190 12 7 1959 11.37400000 2045807413 2045807413 7.00000000
3.78432298 10.62761307 -1.38516700 2 8 1960 11.36600000 2045807416 2045807416 -7.00000000
3.78819919 10.63262653 1.78773308 12 9 1961 11.42800000 2045807418 2045807418 9.00000000
2.75562096 7.73441076 -0.71833766 4 10 1961 8.24200000 2045807420 2045807420 -5.00000000
3.51826954 9.86954594 2.03669524 43 11 1962 10.67400000 2045807423 2045807423 11.00000000
3.77621222 10.58729076 -0.58909351 12 12 1963 11.25600000 2045807425 2045807425 -3.00000000
3.78048372 10.58758545 -0.19623485 8 14 1965 11.24400000 2045807430 2045807430 -1.00000000
2.46590328 6.90217972 1.96391892 6 15 1966 7.58800000 2045807432 2045807432 15.00000000
0.76592714 2.13680100 -0.60822475 4 0 1972 2.35000000 2045807453 2045807453 -15.00000000
3.79931355 10.59359074 0.19644429 13 1 1973 11.25600000 2045807455 2045807455 1.00000000
0.91159558 2.54039788 -0.62311441 3 2 1974 2.77000000 2045807457 2045807457 -13.00000000
3.81120110 10.61507416 0.59108227 10 3 1975 11.29400000 2045807459 2045807459 3.00000000
1.08800304 3.03033948 -0.62585348 2 4 1975 3.28000000 2045807462 2045807462 -11.00000000
3.81116629 10.60915470 0.98625439 12 5 1976 11.31600000 2045807464 2045807464 5.00000000
1.38309479 3.84801412 -0.64763868 2 6 1977 4.14000000 2045807466 2045807466 -9.00000000
3.82440948 10.63435173 1.38760436 12 7 1978 11.38600000 2045807469 2045807469 7.00000000
3.81685615 10.60753441 -1.38419199 2 8 1979 11.35800000 2045807471 2045807471 -7.00000000
3.82359004 10.62624931 1.78867173 12 9 1979 11.43400000 2045807473 2045807473 9.00000000
2.77652979 7.71210814 -0.71711743 4 10 1980 8.22800000 2045807476 2045807476 -5.00000000
3.54964805 9.85412979 2.03593206 50 11 1981 10.67000000 2045807478 2045807478 11.00000000
3.81942654 10.59725761 -0.59034961 12 12 1982 11.28000000 2045807480 2045807480 -3.00000000
3.00986147 8.34649658 2.04840422 8 13 1983 9.10600000 2045807483 2045807483 13.00000000
3.82439566 10.59944439 -0.19668862 10 14 1984 11.27000000 2045807485 2045807485 -1.00000000
2.49216437 6.90711927 1.96754241 11 15 1984 7.60200000 2045807487 2045807487 15.00000000
0.77338129 2.13411427 -0.60822475 4 0 1992 2.35000000 2045807508 2045807508 -15.00000000
3.83763242 10.58402348 0.19651410 13 1 1993 11.26000000 2045807510 2045807510 1.00000000
0.92045766 2.53720045 -0.62311441 3 2 1994 2.77000000 2045807512 2045807512 -13.00000000
3.85504603 10.62048054 0.59212899 13 3 1995 11.31400000 2045807515 2045807515 3.00000000
1.10393310 3.04128671 -0.62890643 4 4 1995 3.29600000 2045807517 2045807517 -11.00000000
3.85429716 10.61264133 0.98782319 12 5 1996 11.33400000 2045807519 2045807519 5.00000000
1.39516914 3.83944964 -0.64701295 4 6 1997 4.13600000 2045807522 2045807522 -9.00000000
3.86286378 10.62466908 1.38809180 12 7 1998 11.39000000 2045807524 2045807524 7.00000000
1.88180208 5.17301798 -0.67588741 2 8 1999 5.54600000 2045807526 2045807526 -7.00000000
3.86724091 10.62515736 1.79086173 12 9 2000 11.44800000 2045807529 2045807529 9.00000000
2.81024742 7.72109127 -0.71886057 8 10 2000 8.24800000 2045807531 2045807531 -5.00000000
3.57999301 9.83061123 2.03364229 46 11 2001 10.65800000 2045807533 2045807533 11.00000000
3.85639477 10.58386040 -0.59034961 12 12 2002 11.28000000 2045807535 2045807535 -3.00000000
3.05900168 8.39086533 2.06190133 9 13 2003 9.16600000 2045807538 2045807538 13.00000000
3.86685324 10.60105896 -0.19696786 10 14 2004 11.28600000 2045807540 2045807540 -1.00000000
2.51878810 6.90156841 1.96857762 15 15 2005 7.60600000 2045807542 2045807542 15.00000000
0.78215510 2.13502955 -0.60926002 4 0 2012 2.35400000 2045807563 2045807563 -15.00000000
3.88212419 10.59121609 0.19689804 13 1 2013 11.28200000 2045807565 2045807565 1.00000000
0.92528266 2.52299452 -0.62041503 3 2 2014 2.75800000 2045807568 2045807568 -13.00000000
3.89347100 10.61070919 0.59233832 10 3 2015 11.31800000 2045807570 2045807570 3.00000000
1.11589503 3.04110074 -0.62966967 4 4 2015 3.30000000 2045807572 2045807572 -11.00000000
3.89818525 10.61782551 0.98956633 12 5 2016 11.35400000 2045807575 2045807575 5.00000000
1.40720057 3.83084774 -0.64638722 4 6 2017 4.13200000 2045807577 2045807577 -9.00000000
3.90266633 10.61857319 1.38906682 10 7 2018 11.39800000 2045807579 2045807579 7.00000000
1.88888586 5.13660765 -0.67198753 2 8 2019 5.51400000 2045807582 2045807582 -7.00000000
3.91131711 10.63637638 1.79492903 12 9 2019 11.47400000 2045807584 2045807584 9.00000000
2.83786988 7.71310472 -0.71903485 8 10 2020 8.25000000 2045807586 2045807586 -5.00000000
3.61699939 9.82542419 2.03516865 43 11 2021 10.66600000 2045807588 2045807588 11.00000000
3.89469647 10.57408333 -0.59055895 12 12 2022 11.28400000 2045807591 2045807591 -3.00000000
3.90867686 10.60062981 -0.19721219 8 14 2024 11.30000000 2045807595 2045807595 -1.00000000
2.54500246 6.90224028 1.97116590 15 15 2024 7.61600000 2045807598 2045807598 15.00000000
0.79094470 2.13590956 -0.61029530 4 0 2032 2.35800000 2045807618 2045807618 -15.00000000
3.92740774 10.60010242 0.19731690 13 1 2033 11.30600000 2045807621 2045807621 1.00000000
0.93543863 2.52340364 -0.62131482 3 2 2034 2.76200000 2045807623 2045807623 -13.00000000
3.93256927 10.60267162 0.59265238 13 3 2035 11.32400000 2045807625 2045807625 3.00000000
1.12786913 3.04086852 -0.63043290 2 4 2035 3.30400000 2045807628 2045807628 -11.00000000
3.94077015 10.61909771 0.99096078 12 5 2036 11.37000000 2045807630 2045807630 5.00000000
1.42468977 3.83702350 -0.64826441 4 6 2037 4.14400000 2045807632 2045807632 -9.00000000
3.94662118 10.62349415 1.39150417 12 7 2038 11.41800000 2045807635 2045807635 7.00000000
1.91579556 5.15417242 -0.67515618 2 8 2039 5.54000000 2045807637 2045807637 -7.00000000
3.95234060 10.62752342 1.79586768 12 9 2040 11.48000000 2045807639 2045807639 9.00000000
2.86685991 7.70875406 -0.71955782 4 10 2040 8.25600000 2045807641 2045807641 -5.00000000
3.65127444 9.81273842 2.03516865 46 11 2041 10.66600000 2045807644 2045807644 11.00000000
3.93715787 10.57539749 -0.59139633 12 12 2042 11.30000000 2045807646 2045807646 -3.00000000
3.12634897 8.39304543 2.06774998 55 13 2043 9.19200000 2045807648 2045807648 13.00000000
3.94635463 10.58879471 -0.19724710 12 14 2044 11.30200000 2045807651 2045807651 -1.00000000
2.57500815 6.90553713 1.97478926 18 15 2045 7.63000000 2045807653 2045807653 15.00000000
0.79568684 2.12589860 -0.60822475 4 0 2052 2.35000000 2045807674 2045807674 -15.00000000
3.96859288 10.59756470 0.19752634 13 1 2053 11.31800000 2045807676 2045807676 1.00000000
0.94834369 2.53107214 -0.62401420 3 2 2054 2.77400000 2045807678 2045807678 -13.00000000
3.97656631 10.60758114 0.59369910 13 3 2055 11.34400000 2045807681 2045807681 3.00000000
1.13434196 3.02588296 -0.62814319 2 4 2055 3.29200000 2045807683 2045807683 -11.00000000
3.97781372 10.60527706 0.99096078 12 5 2056 11.37000000 2045807685 2045807685 5.00000000
1.44085097 3.83942461 -0.64951593 4 6 2057 4.15200000 2045807688 2045807688 -9.00000000
3.99205375 10.63195324 1.39442897 12 7 2058 11.44200000 2045807690 2045807690 7.00000000
1.93168092 5.14187860 -0.67442495 2 8 2059 5.53400000 2045807692 2045807692 -7.00000000
3.98756099 10.61435890 1.79586768 12 9 2059 11.48000000 2045807694 2045807694 9.00000000
2.89164805 7.69310474 -0.71903485 4 10 2060 8.25000000 2045807697 2045807697 -5.00000000
3.68688726 9.80360889 2.03593206 46 11 2061 10.67000000 2045807699 2045807699 11.00000000
3.98178601 10.58215237 -0.59254771 12 12 2062 11.32200000 2045807701 2045807701 -3.00000000
3.15768695 8.38755322 2.06909990 60 13 2063 9.19800000 2045807704 2045807704 13.00000000
3.98752165 10.58618355 -0.19745652 10 14 2064 11.31400000 2045807706 2045807706 -1.00000000
2.59721255 6.89515209 1.97427166 18 15 2064 7.62800000 2045807708 2045807708 15.00000000
0.80310279 2.12310815 -0.60822475 4 0 2072 2.35000000 2045807729 2045807729 -15.00000000
0.95579278 2.52410150 -0.62311441 3 2 2074 2.77000000 2045807734 2045807734 -13.00000000
4.02135324 10.61418056 0.59485048 7 3 2075 11.36600000 2045807736 2045807736 3.00000000
1.14489746 3.02190495 -0.62814319 4 4 2075 3.29200000 2045807738 2045807738 -11.00000000
4.01904631 10.60250473 0.99200666 12 5 2076 11.38200000 2045807741 2045807741 5.00000000
1.45284331 3.83067775 -0.64889014 4 6 2077 4.14800000 2045807743 2045807743 -9.00000000
4.03900146 10.64393711 1.39784133 8 7 2078 11.47000000 2045807745 2045807745 7.00000000
1.94468558 5.12211370 -0.67271876 4 8 2079 5.52000000 2045807747 2045807747 -7.00000000
4.03345251 10.61813927 1.79899633 12 9 2080 11.50000000 2045807750 2045807750 9.00000000
2.91353178 7.66992617 -0.71781468 4 10 2080 8.23600000 2045807752 2045807752 -5.00000000
3.71829581 9.78333855 2.03440547 43 11 2081 10.66200000 2045807754 2045807754 11.00000000
3.18555999 8.37283707 2.06820011 60 13 2083 9.19400000 2045807759 2045807759 13.00000000
2.62177944 6.88378096 1.97375405 20 15 2085 7.62600000 2045807764 2045807764 15.00000000
0.81114709 2.12418413 -0.60926002 4 0 2090 2.35400000 2045807784 2045807784 -15.00000000
0.95954281 2.51016474 -0.62041503 3 2 2092 2.75800000 2045807789 2045807789 -13.00000000
1.16139865 3.03663039 -0.63195938 2 4 2093 3.31200000 2045807794 2045807794 -11.00000000
1.46416426 3.82424974 -0.64857727 2 6 2095 4.14600000 2045807798 2045807798 -9.00000000
1.97284472 5.14749050 -0.67686236 2 8 2097 5.55400000 2045807803 2045807803 -7.00000000
2.94546008 7.68119860 -0.71973211 4 10 2098 8.25800000 2045807807 2045807807 -5.00000000
3.74760604 9.76794338 2.03364229 43 11 2099 10.65800000 2045807810 2045807810 11.00000000
3.21324563 8.36642551 2.06909990 57 13 2101 9.19800000 2045807814 2045807814 13.00000000
2.64912200 6.89400482 1.97893047 20 15 2102 7.64600000 2045807819 2045807819 15.00000000
0.81994784 2.12494445 -0.61029530 4 0 2110 2.35800000 2045807840 2045807840 -15.00000000
0.96900123 2.50861788 -0.62086493 3 2 2112 2.76000000 2045807844 2045807844 -13.00000000
1.16632950 3.01790786 -0.62890643 4 4 2113 3.29600000 2045807849 2045807849 -11.00000000
1.47964263 3.82464266 -0.64951593 2 6 2115 4.15200000 2045807853 2045807853 -9.00000000
1.98506570 5.12576342 -0.67491245 2 8 2117 5.53800000 2045807858 2045807858 -7.00000000
2.95713758 7.63185644 -0.71607161 4 10 2118 8.21600000 2045807863 2045807863 -5.00000000
3.78167987 9.75480175 2.03364229 46 11 2119 10.65800000 2045807865 2045807865 11.00000000
3.23819995 8.34425831 2.06640029 59 13 2121 9.18600000 2045807870 2045807870 13.00000000
2.67806506 6.89732170 1.98255384 18 15 2122 7.66000000 2045807874 2045807874 15.00000000
0.82876378 2.12566924 -0.61133057 4 0 2130 2.36200000 2045807895 2045807895 -15.00000000
0.97562653 2.49977398 -0.61951518 3 2 2132 2.75400000 2045807900 2045807900 -13.00000000
1.17257226 3.00284553 -0.62661672 2 4 2133 3.28400000 2045807904 2045807904 -11.00000000
1.49298406 3.81945443 -0.64951593 4 6 2135 4.15200000 2045807909 2045807909 -9.00000000
2.00294590 5.11880302 -0.67491245 2 8 2137 5.53800000 2045807913 2045807913 -7.00000000
3.00191808 7.66786957 -0.72042936 4 10 2138 8.26600000 2045807918 2045807918 -5.00000000
3.81713939 9.74519825 2.03440547 43 11 2139 10.66200000 2045807920 2045807920 11.00000000
3.26588440 8.32927513 2.06550050 59 13 2141 9.18200000 2045807925 2045807925 13.00000000
2.70918012 6.90591574 1.98773026 15 15 2142 7.68000000 2045807929 2045807929 15.00000000
0.83193058 2.11197877 -0.60822475 4 0 2150 2.35000000 2045807950 2045807950 -15.00000000
0.98863548 2.50723052 -0.62221462 3 2 2152 2.76600000 2045807955 2045807955 -13.00000000
1.19025195 3.01699686 -0.63043290 2 4 2153 3.30400000 2045807959 2045807959 -11.00000000
1.50630736 3.81421971 -0.64951593 4 6 2155 4.15200000 2045807964 2045807964 -9.00000000
2.02372074 5.11916447 -0.67588741 2 8 2157 5.54600000 2045807969 2045807969 -7.00000000
3.02133751 7.63881683 -0.71868628 4 10 2158 8.24600000 2045807973 2045807973 -5.00000000
3.85257816 9.73546505 2.03516865 43 11 2159 10.66600000 2045807976 2045807976 11.00000000
3.29637456 8.32144833 2.06640029 64 13 2161 9.18600000 2045807980 2045807980 13.00000000
2.73233700 6.89055204 1.98617733 13 15 2163 7.67400000 2045807985 2045807985 15.00000000
0.83929765 2.10906196 -0.60822475 4 0 2170 2.35000000 2045808006 2045808006 -15.00000000
0.99738133 2.50376415 -0.62221462 3 2 2172 2.76600000 2045808010 2045808010 -13.00000000
1.19641471 3.00188136 -0.62814319 2 4 2173 3.29200000 2045808015 2045808015 -11.00000000
1.52034426 3.81077313 -0.64982879 4 6 2175 4.15400000 2045808019 2045808019 -9.00000000
2.04305005 5.11575651 -0.67637485 2 8 2177 5.55000000 2045808024 2045808024 -7.00000000
3.04206944 7.61342287 -0.71729177 4 10 2178 8.23000000 2045808029 2045808029 -5.00000000
3.88216496 9.71102047 2.03287911 46 11 2179 10.65400000 2045808031 2045808031 11.00000000
3.32684970 8.31350994 2.06730008 60 13 2181 9.19000000 2045808035 2045808035 13.00000000
2.75660801 6.88504028 1.98721266 9 15 2182 7.67800000 2045808040 2045808040 15.00000000
0.84665453 2.10611939 -0.60822475 4 0 2190 2.35000000 2045808061 2045808061 -15.00000000
1.00902498 2.50749898 -0.62401420 3 2 2192 2.77400000 2045808065 2045808065 -13.00000000
