# .PCD v0.7 - Point Cloud Data file format
VERSION 0.7
FIELDS x y z intensity laser_id azimuth distance_m adjustedtime timestamp vertical_angle
SIZE 4 4 4 1 1 2 8 8 4 8
TYPE F F F U U U F U U F
COUNT 1 1 1 1 1 1 1 1 1 1
WIDTH 539
HEIGHT 1
VIEWPOINT 0 0 0 1 0 0 0
POINTS 539
DATA ascii
3.15593553 0.55306959 -0.62280059 5 4 8006 3.26400000 2045924303 2045924303 -11.00000000
8.15043545 1.42687678 0.72391558 76 5 8007 8.30600000 2045924305 2045924305 5.00000000
3.94422436 0.68979615 -0.63418531 6 6 8008 4.05400000 2045924308 2045924308 -9.00000000
8.16605663 1.42667377 1.01785278 92 7 8009 8.35200000 2045924310 2045924310 7.00000000
5.27407217 0.92047298 -0.65736324 9 8 8010 5.39400000 2045924312 2045924312 -7.00000000
7.89038038 1.37567270 -0.70073217 21 10 8011 8.04000000 2045924317 2045924317 -5.00000000
8.13839912 1.41598737 -0.43292302 17 12 8013 8.27200000 2045924321 2045924321 -3.00000000
8.23660946 1.43159378 1.93008006 1 13 8014 8.58000000 2045924324 2045924324 13.00000000
8.13700008 1.41281772 -0.14415687 12 14 8015 8.26000000 2045924326 2045924326 -1.00000000
8.20759773 1.42360008 2.23205543 47 15 8016 8.62400000 2045924328 2045924328 15.00000000
2.21606255 0.38158563 -0.60253072 4 0 8023 2.32800000 2045924349 2045924349 -15.00000000
8.15694618 1.40308535 0.14447102 18 1 8024 8.27800000 2045924351 2045924351 1.00000000
2.60624433 0.44783467 -0.61051714 11 2 8025 2.71400000 2045924354 2045924354 -13.00000000
8.15143299 1.39920771 0.43344638 100 3 8026 8.28200000 2045924356 2045924356 3.00000000
3.14430237 0.53972495 -0.62012923 5 4 8026 3.25000000 2045924358 2045924358 -11.00000000
8.14554787 1.39673412 0.72304404 76 5 8027 8.29600000 2045924361 2045924361 5.00000000
3.93882012 0.67469001 -0.63293386 6 6 8028 4.04600000 2045924363 2045924363 -9.00000000
8.17098713 1.39816022 1.01785278 92 7 8029 8.35200000 2045924365 2045924365 7.00000000
5.27725315 0.90205741 -0.65736324 9 8 8030 5.39400000 2045924368 2045924368 -7.00000000
8.23054218 1.40687239 1.32249701 5 9 8030 8.45400000 2045924370 2045924370 9.00000000
7.89120626 1.34745109 -0.70038354 21 10 8031 8.03600000 2045924372 2045924372 -5.00000000
8.23858070 1.40528667 1.62454784 3 11 8032 8.51400000 2045924374 2045924374 11.00000000
8.14723015 1.38824141 -0.43313238 17 12 8033 8.27600000 2045924377 2045924377 -3.00000000
8.13399601 1.38306487 -0.14401726 12 14 8035 8.25200000 2045924381 2045924381 -1.00000000
8.19703770 1.39378417 2.22791433 49 15 8035 8.60800000 2045924384 2045924384 15.00000000
2.20976114 0.37256309 -0.60046017 4 0 8043 2.32000000 2045924404 2045924404 -15.00000000
8.14601803 1.37194693 0.14419179 18 1 8044 8.26200000 2045924407 2045924407 1.00000000
2.60971332 0.43905777 -0.61096704 10 2 8045 2.71600000 2045924409 2045924409 -13.00000000
8.15626812 1.37074542 0.43344638 100 3 8046 8.28200000 2045924411 2045924411 3.00000000
3.14035869 0.52776986 -0.61898440 5 4 8046 3.24400000 2045924414 2045924414 -11.00000000
8.13858509 1.36631310 0.72199816 76 5 8047 8.28400000 2045924416 2045924416 5.00000000
3.93725491 0.66028345 -0.63230813 6 6 8048 4.04200000 2045924418 2045924418 -9.00000000
8.17581749 1.36962962 1.01785278 92 7 8049 8.35200000 2045924421 2045924421 7.00000000
5.27645397 0.88297558 -0.65687579 9 8 8050 5.39000000 2045924423 2045924423 -7.00000000
8.09826946 1.35373259 -0.71833766 17 10 8051 8.24200000 2045924427 2045924427 -5.00000000
8.13823605 1.35749352 -0.43239966 17 12 8053 8.26200000 2045924432 2045924432 -3.00000000
8.13877487 1.35466349 -0.14401726 14 14 8055 8.25200000 2045924437 2045924437 -1.00000000
8.19065666 1.36183000 2.22480845 49 15 8056 8.59600000 2045924439 2045924439 15.00000000
2.21098447 0.36523321 -0.60046017 4 0 8062 2.32000000 2045924460 2045924460 -15.00000000
8.13079262 1.34167051 0.14384273 15 1 8063 8.24200000 2045924462 2045924462 1.00000000
2.60154104 0.42881653 -0.60871756 7 2 8064 2.70600000 2045924464 2045924464 -13.00000000
8.16273975 1.34401524 0.43355107 97 3 8065 8.28400000 2045924467 2045924467 3.00000000
3.15758896 0.51990485 -0.62203735 5 4 8065 3.26000000 2045924469 2045924469 -11.00000000
8.14307117 1.33931708 0.72199816 76 5 8066 8.28400000 2045924471 2045924471 5.00000000
3.94137216 0.64754367 -0.63262099 6 6 8067 4.04400000 2045924474 2045924474 -9.00000000
8.16464329 1.33993828 1.01590288 95 7 8068 8.33600000 2045924476 2045924476 7.00000000
5.28718901 0.86675793 -0.65785074 9 8 8069 5.39800000 2045924478 2045924478 -7.00000000
8.12237549 1.33009005 -0.72008073 17 10 8070 8.26200000 2045924483 2045924483 -5.00000000
8.13677979 1.32953250 -0.43208566 17 12 8072 8.25600000 2045924487 2045924487 -3.00000000
8.14519596 1.32798874 -0.14405216 14 14 8074 8.25400000 2045924492 2045924492 -1.00000000
8.19489479 1.33609164 2.22480845 47 15 8074 8.59600000 2045924494 2045924494 15.00000000
2.21796727 0.35843781 -0.60201311 4 0 8082 2.32600000 2045924515 2045924515 -15.00000000
8.13542652 1.31328058 0.14384273 15 1 8083 8.24200000 2045924517 2045924517 1.00000000
2.59917426 0.41911241 -0.60781777 7 2 8084 2.70200000 2045924520 2045924520 -13.00000000
8.15555000 1.31360817 0.43292302 100 3 8085 8.27200000 2045924522 2045924522 3.00000000
3.14969325 0.50731868 -0.62012923 5 4 8085 3.25000000 2045924524 2045924524 -11.00000000
8.15556526 1.31215024 0.72269541 76 5 8086 8.29200000 2045924527 2045924527 5.00000000
3.94750905 0.63440865 -0.63324672 6 6 8087 4.04800000 2045924529 2045924529 -9.00000000
8.15359116 1.30891299 1.01395297 92 7 8088 8.32000000 2045924531 2045924531 7.00000000
5.27842188 0.84641117 -0.65638828 9 8 8089 5.38600000 2045924533 2045924533 -7.00000000
8.10336113 1.29794824 -0.71798903 17 10 8090 8.23800000 2045924538 2045924538 -5.00000000
8.12362099 1.29828501 -0.43114361 17 12 8092 8.23800000 2045924543 2045924543 -3.00000000
8.14188290 1.29828906 -0.14391254 14 14 8094 8.24600000 2045924547 2045924547 -1.00000000
8.19973660 1.30604684 2.22480845 49 15 8095 8.59600000 2045924550 2045924550 15.00000000
2.22105169 0.35138267 -0.60253072 4 0 8101 2.32800000 2045924570 2045924570 -15.00000000
8.14566231 1.28723168 0.14394745 12 1 8102 8.24800000 2045924573 2045924573 1.00000000
2.60439944 0.41109860 -0.60871756 7 2 8103 2.70600000 2045924575 2045924575 -13.00000000
8.14802361 1.28468978 0.43229499 97 3 8104 8.26000000 2045924577 2045924577 3.00000000
3.14166188 0.49534228 -0.61822116 5 4 8104 3.24000000 2045924580 2045924580 -11.00000000
8.15003014 1.28354836 0.72182387 76 5 8105 8.28200000 2045924582 2045924582 5.00000000
3.94373703 0.62039381 -0.63230813 6 6 8106 4.04200000 2045924584 2045924584 -9.00000000
8.15788651 1.28186750 1.01395297 97 7 8107 8.32000000 2045924586 2045924586 7.00000000
5.27727747 0.82828701 -0.65590084 6 8 8108 5.38200000 2045924589 2045924589 -7.00000000
7.90488148 1.23928487 -0.70003492 21 10 8109 8.03200000 2045924593 2045924593 -5.00000000
8.12788105 1.27133894 -0.43114361 21 12 8111 8.23800000 2045924598 2045924598 -3.00000000
8.14219189 1.27066576 -0.14384273 14 14 8113 8.24200000 2045924603 2045924603 -1.00000000
8.19998169 1.27968442 2.22377324 49 15 8113 8.59200000 2045924605 2045924605 15.00000000
2.21844649 0.34303719 -0.60149544 4 0 8121 2.32400000 2045924626 2045924626 -15.00000000
8.14812946 1.25848496 0.14391254 15 1 8122 8.24600000 2045924628 2045924628 1.00000000
2.60581875 0.40200505 -0.60871756 7 2 8123 2.70600000 2045924630 2045924630 -13.00000000
8.14851093 1.25563169 0.43208566 97 3 8124 8.25600000 2045924633 2045924633 3.00000000
3.14725232 0.48497081 -0.61898440 5 4 8124 3.24400000 2045924635 2045924635 -11.00000000
8.15446091 1.25509167 0.72182387 76 5 8125 8.28200000 2045924637 2045924637 5.00000000
3.94783115 0.60692400 -0.63262099 6 6 8126 4.04400000 2045924639 2045924639 -9.00000000
8.16231155 1.25338340 1.01395297 97 7 8127 8.32000000 2045924642 2045924642 7.00000000
5.28406096 0.81046271 -0.65638828 9 8 8128 5.38600000 2045924644 2045924644 -7.00000000
7.89143419 1.20896876 -0.69846612 35 10 8129 8.01400000 2045924649 2045924649 -5.00000000
8.13819313 1.24386489 -0.43145761 17 12 8131 8.24400000 2045924653 2045924653 -3.00000000
8.12680912 1.23922205 -0.14349368 12 14 8133 8.22200000 2045924658 2045924658 -1.00000000
8.19484997 1.24959731 2.22118497 51 15 8133 8.58200000 2045924660 2045924660 15.00000000
2.21772027 0.33500275 -0.60097784 4 0 8141 2.32200000 2045924681 2045924681 -15.00000000
8.14060974 1.22824490 0.14370312 18 1 8142 8.23400000 2045924683 2045924683 1.00000000
2.61491394 0.39406818 -0.61051714 7 2 8143 2.71400000 2045924686 2045924686 -13.00000000
8.15284443 1.22718036 0.43208566 97 3 8144 8.25600000 2045924688 2045924688 3.00000000
3.15280890 0.47456634 -0.61974764 5 4 8144 3.24800000 2045924690 2045924690 -11.00000000
8.13909054 1.22365749 0.72008073 79 5 8145 8.26200000 2045924692 2045924692 5.00000000
3.94211173 0.59196639 -0.63136947 6 6 8146 4.03600000 2045924695 2045924695 -9.00000000
8.16271019 1.22429502 1.01346540 97 7 8147 8.31600000 2045924697 2045924697 7.00000000
5.27507877 0.79024839 -0.65492582 9 8 8148 5.37400000 2045924699 2045924699 -7.00000000
7.89560652 1.18141508 -0.69846612 26 10 8149 8.01400000 2045924704 2045924704 -5.00000000
8.14248466 1.21544969 -0.43145761 17 12 8151 8.24400000 2045924709 2045924709 -3.00000000
8.13108540 1.21084666 -0.14349368 14 14 8153 8.22200000 2045924713 2045924713 -1.00000000
8.19151878 1.21984613 2.21911454 56 15 8153 8.57400000 2045924715 2045924715 15.00000000
2.21887612 0.32725942 -0.60097784 4 0 8161 2.32200000 2045924736 2045924736 -15.00000000
8.13693333 1.19865572 0.14356349 18 1 8162 8.22600000 2045924739 2045924739 1.00000000
2.60856175 0.38380337 -0.60871756 7 2 8163 2.70600000 2045924741 2045924741 -13.00000000
8.15707779 1.19871414 0.43208566 84 3 8164 8.25600000 2045924743 2045924743 3.00000000
3.15056133 0.46298718 -0.61898440 5 4 8164 3.24400000 2045924745 2045924745 -11.00000000
8.13739777 1.19437134 0.71955782 76 5 8165 8.25600000 2045924748 2045924748 5.00000000
3.94806290 0.57877529 -0.63199526 4 6 8166 4.04000000 2045924750 2045924750 -9.00000000
8.16104221 1.19493163 1.01273429 99 7 8167 8.31000000 2045924752 2045924752 7.00000000
5.28173351 0.77240461 -0.65541333 6 8 8168 5.37800000 2045924755 2045924755 -7.00000000
7.88391018 1.15154350 -0.69707161 17 10 8169 7.99800000 2045924759 2045924759 -5.00000000
8.14074898 1.18615580 -0.43114361 17 12 8171 8.23800000 2045924764 2045924764 -3.00000000
8.14515686 1.18389463 -0.14366820 14 14 8173 8.23200000 2045924768 2045924768 -1.00000000
8.18828773 1.18870437 2.21704388 58 15 8174 8.56600000 2045924771 2045924771 15.00000000
2.22197270 0.31939951 -0.60149544 4 0 8182 2.32400000 2045924792 2045924792 -15.00000000
8.14127254 1.16882432 0.14356349 18 1 8183 8.22600000 2045924794 2045924794 1.00000000
2.60802174 0.37396333 -0.60826766 9 2 8184 2.70400000 2045924796 2045924796 -13.00000000
8.16141701 1.16880894 0.43208566 94 3 8185 8.25600000 2045924798 2045924798 3.00000000
3.16778469 0.45366326 -0.62203735 5 4 8185 3.26000000 2045924801 2045924801 -11.00000000
8.14369392 1.16482031 0.71973211 76 5 8186 8.25800000 2045924803 2045924803 5.00000000
3.94038010 0.56290424 -0.63043088 6 6 8187 4.03000000 2045924805 2045924805 -9.00000000
8.14964581 1.16276884 1.01078439 99 7 8188 8.29400000 2045924808 2045924808 7.00000000
5.27666807 0.75192070 -0.65443838 9 8 8189 5.37000000 2045924810 2045924810 -7.00000000
7.89596796 1.12376273 -0.69776887 17 10 8190 8.00600000 2045924815 2045924815 -5.00000000
8.22775173 1.16951740 1.61538899 3 11 8191 8.46600000 2045924817 2045924817 11.00000000
8.13119984 1.15434539 -0.43041089 17 12 8192 8.22400000 2045924819 2045924819 -3.00000000
8.14350128 1.15319204 -0.14356349 14 14 8194 8.22600000 2045924824 2045924824 -1.00000000
8.20003796 1.16119814 2.21911454 54 15 8194 8.57400000 2045924826 2045924826 15.00000000
2.23455310 0.31325057 -0.60460126 4 0 8202 2.33600000 2045924847 2045924847 -15.00000000
8.13738155 1.13928974 0.14342387 15 1 8203 8.21800000 2045924849 2045924849 1.00000000
2.60352135 0.36404777 -0.60691792 7 2 8204 2.69800000 2045924851 2045924851 -13.00000000
8.14962196 1.13810325 0.43124828 94 3 8205 8.24000000 2045924854 2045924854 3.00000000
3.14990497 0.43988752 -0.61822116 5 4 8205 3.24000000 2045924856 2045924856 -11.00000000
8.15560341 1.13748729 0.72042936 76 5 8206 8.26600000 2045924858 2045924858 5.00000000
3.95014691 0.55023646 -0.63168240 9 6 8207 4.03800000 2045924861 2045924861 -9.00000000
8.14775562 1.13349354 1.01005316 97 7 8208 8.28800000 2045924863 2045924863 7.00000000
5.27139568 0.73240435 -0.65346342 9 8 8209 5.36200000 2045924865 2045924865 -7.00000000
7.89392233 1.09537220 -0.69724596 17 10 8210 8.00000000 2045924870 2045924870 -5.00000000
8.13320160 1.12568140 -0.43030623 17 12 8212 8.22200000 2045924874 2045924874 -3.00000000
8.13559151 1.12311816 -0.14335407 14 14 8214 8.21400000 2045924879 2045924879 -1.00000000
8.20021439 1.13203919 2.21807933 58 15 8214 8.57000000 2045924881 2045924881 15.00000000
2.22797656 0.30440256 -0.60253072 4 0 8222 2.32800000 2045924902 2045924902 -15.00000000
8.14328957 1.11114848 0.14345878 18 1 8223 8.22000000 2045924904 2045924904 1.00000000
2.61443090 0.35627317 -0.60916746 9 2 8224 2.70800000 2045924907 2045924907 -13.00000000
8.14939404 1.11053252 0.43103895 76 3 8224 8.23600000 2045924909 2045924909 3.00000000
3.14753056 0.42836013 -0.61745793 5 4 8225 3.23600000 2045924911 2045924911 -11.00000000
8.14175606 1.10659707 0.71886057 76 5 8226 8.24800000 2045924914 2045924914 5.00000000
3.95204353 0.53644454 -0.63168240 9 6 8227 4.03800000 2045924916 2045924916 -9.00000000
8.15953159 1.10611236 1.01102805 97 7 8228 8.29600000 2045924918 2045924918 7.00000000
5.28572321 0.71559721 -0.65492582 9 8 8229 5.37400000 2045924920 2045924920 -7.00000000
7.88980007 1.06674278 -0.69654870 17 10 8230 7.99200000 2045924925 2045924925 -5.00000000
8.14103985 1.09781814 -0.43051559 17 12 8232 8.22600000 2045924930 2045924930 -3.00000000
8.11964417 1.09204733 -0.14300501 14 14 8234 8.19400000 2045924934 2045924934 -1.00000000
8.18496990 1.10083318 2.21290278 63 15 8234 8.55000000 2045924937 2045924937 15.00000000
2.21562076 0.29483980 -0.59890729 4 0 8242 2.31400000 2045924957 2045924957 -15.00000000
8.13324261 1.08087218 0.14321445 18 1 8243 8.20600000 2045924960 2045924960 1.00000000
2.61759019 0.34740132 -0.60961735 7 2 8244 2.71000000 2045924962 2045924962 -13.00000000
8.14746952 1.07986879 0.43072492 60 3 8245 8.23000000 2045924964 2045924964 3.00000000
3.15289927 0.41788650 -0.61822116 5 4 8245 3.24000000 2045924967 2045924967 -11.00000000
8.12581730 1.07555592 0.71711743 76 5 8246 8.22800000 2045924969 2045924969 5.00000000
3.96564221 0.52419925 -0.63355958 9 6 8247 4.05000000 2045924971 2045924971 -9.00000000
8.15940666 1.07710397 1.01054060 97 7 8248 8.29200000 2045924973 2045924973 7.00000000
5.28818893 0.69714224 -0.65492582 9 8 8249 5.37400000 2045924976 2045924976 -7.00000000
7.86977148 1.03607512 -0.69445693 29 10 8250 7.96800000 2045924980 2045924980 -5.00000000
8.15274334 1.07043397 -0.43093425 17 12 8252 8.23400000 2045924985 2045924985 -3.00000000
8.13133717 1.06473625 -0.14314464 14 14 8254 8.20200000 2045924990 2045924990 -1.00000000
8.18511868 1.07032537 2.21186757 56 15 8255 8.54600000 2045924992 2045924992 15.00000000
2.22238398 0.28784847 -0.60046017 4 0 8262 2.32000000 2045925013 2045925013 -15.00000000
8.12903404 1.05144930 0.14307483 21 1 8263 8.19800000 2045925015 2045925015 1.00000000
2.61878705 0.33826211 -0.60961735 7 2 8264 2.71000000 2045925017 2045925017 -13.00000000
8.14902496 1.05258906 0.43062025 57 3 8264 8.22800000 2045925020 2045925020 3.00000000
3.15239167 0.40662712 -0.61783952 6 4 8265 3.23800000 2045925022 2045925022 -11.00000000
8.13545036 1.04794860 0.71764040 79 5 8266 8.23400000 2045925024 2045925024 5.00000000
3.96744776 0.51035339 -0.63355958 9 6 8267 4.05000000 2045925026 2045925026 -9.00000000
8.14933491 1.04684532 1.00883448 99 7 8268 8.27800000 2045925029 2045925029 7.00000000
5.30240393 0.68019426 -0.65638828 9 8 8269 5.38600000 2045925031 2045925031 -7.00000000
7.97412825 1.02150941 -0.70334685 17 10 8270 8.07000000 2045925036 2045925036 -5.00000000
8.13661861 1.03943813 -0.42988753 17 12 8272 8.21400000 2045925040 2045925040 -3.00000000
8.13103771 1.03584075 -0.14307483 14 14 8274 8.19800000 2045925045 2045925045 -1.00000000
8.17712402 1.04171193 2.20876169 60 15 8274 8.53400000 2045925047 2045925047 15.00000000
2.22529197 0.28033063 -0.60097784 4 0 8282 2.32200000 2045925068 2045925068 -15.00000000
8.13662243 1.02356648 0.14314464 15 1 8283 8.20200000 2045925070 2045925070 1.00000000
2.60835052 0.32766142 -0.60691792 7 2 8284 2.69800000 2045925072 2045925072 -13.00000000
8.14274120 1.02289248 0.43009689 52 3 8284 8.21800000 2045925075 2045925075 3.00000000
3.14989591 0.39513201 -0.61707628 6 4 8285 3.23400000 2045925077 2045925077 -11.00000000
8.14696693 1.02053475 0.71833766 76 5 8286 8.24200000 2045925079 2045925079 5.00000000
3.96724486 0.49625608 -0.63324672 6 6 8287 4.04800000 2045925082 2045925082 -9.00000000
8.14505959 1.01740825 1.00785947 100 7 8288 8.27000000 2045925084 2045925084 7.00000000
5.29686642 0.66069841 -0.65541333 9 8 8289 5.37800000 2045925086 2045925086 -7.00000000
8.11604309 1.01090658 -0.71554863 17 10 8290 8.21000000 2045925091 2045925091 -5.00000000
8.13226891 1.01004505 -0.42946887 17 12 8292 8.20600000 2045925096 2045925096 -3.00000000
8.12864971 1.00671446 -0.14297011 14 14 8294 8.19200000 2045925100 2045925100 -1.00000000
8.19221401 1.01458669 2.21186757 60 15 8294 8.54600000 2045925102 2045925102 15.00000000
2.22429180 0.27271464 -0.60046017 4 0 8301 2.32000000 2045925123 2045925123 -15.00000000
8.13798714 0.99633580 0.14310974 12 1 8302 8.20000000 2045925125 2045925125 1.00000000
2.61135721 0.31924650 -0.60736787 9 2 8303 2.70000000 2045925128 2045925128 -13.00000000
8.13833141 0.99349469 0.42967820 44 3 8304 8.21000000 2045925130 2045925130 3.00000000
3.14144492 0.38349491 -0.61516821 6 4 8304 3.22400000 2045925132 2045925132 -11.00000000
8.14635086 0.99303061 0.71798903 90 5 8305 8.23800000 2045925135 2045925135 5.00000000
3.98455596 0.48500699 -0.63574964 6 6 8306 4.06400000 2045925137 2045925137 -9.00000000
8.14838886 0.99039263 1.00785947 99 7 8307 8.27000000 2045925139 2045925139 7.00000000
5.27143955 0.63978136 -0.65200096 6 8 8308 5.35000000 2045925142 2045925142 -7.00000000
8.11737251 0.98374760 -0.71537435 17 10 8309 8.20800000 2045925146 2045925146 -5.00000000
8.12764263 0.98211354 -0.42905018 17 12 8311 8.19800000 2045925151 2045925151 -3.00000000
8.13591385 0.98023176 -0.14303993 12 14 8313 8.19600000 2045925155 2045925155 -1.00000000
8.19570541 0.98598439 2.21186757 63 15 8314 8.54600000 2045925158 2045925158 15.00000000
2.21755695 0.26403514 -0.59838963 4 0 8321 2.31200000 2045925178 2045925178 -15.00000000
8.13744354 0.96745068 0.14303993 12 1 8322 8.19600000 2045925181 2045925181 1.00000000
2.61632586 0.31058869 -0.60826766 9 2 8323 2.70400000 2045925183 2045925183 -13.00000000
8.13959789 0.96626610 0.42957354 42 3 8323 8.20800000 2045925185 2045925185 3.00000000
3.13886523 0.37206468 -0.61440498 8 4 8324 3.22000000 2045925188 2045925188 -11.00000000
8.13789558 0.96318340 0.71694314 79 5 8325 8.22600000 2045925190 2045925190 5.00000000
3.98622465 0.47109532 -0.63574964 6 6 8326 4.06400000 2045925192 2045925192 -9.00000000
8.14785385 0.96147817 1.00737202 99 7 8327 8.26600000 2045925195 2045925195 7.00000000
5.28546953 0.62277049 -0.65346342 6 8 8328 5.36200000 2045925197 2045925197 -7.00000000
8.11086369 0.95424271 -0.71450275 17 10 8329 8.19800000 2045925202 2045925202 -5.00000000
8.13895607 0.95466751 -0.42946887 17 12 8331 8.20600000 2045925206 2045925206 -3.00000000
8.12538338 0.95020026 -0.14279559 14 14 8333 8.18200000 2045925211 2045925211 -1.00000000
8.18374729 0.95557761 2.20772648 56 15 8334 8.53000000 2045925213 2045925213 15.00000000
2.21462703 0.25584939 -0.59735435 4 0 8341 2.30800000 2045925234 2045925234 -15.00000000
8.13282490 0.93812323 0.14290030 15 1 8342 8.18800000 2045925236 2045925236 1.00000000
2.62320185 0.30212301 -0.60961735 7 2 8343 2.71000000 2045925238 2045925238 -13.00000000
8.13498497 0.93693364 0.42915484 28 3 8343 8.20000000 2045925241 2045925241 3.00000000
3.14404559 0.36155432 -0.61516821 6 4 8344 3.22400000 2045925243 2045925243 -11.00000000
8.13131142 0.93363464 0.71607161 83 5 8345 8.21600000 2045925245 2045925245 5.00000000
3.98195720 0.45650297 -0.63481104 9 6 8346 4.05800000 2045925248 2045925248 -9.00000000
8.15707684 0.93370825 1.00810325 97 7 8347 8.27200000 2045925250 2045925250 7.00000000
5.29550028 0.60521859 -0.65443838 9 8 8348 5.37000000 2045925252 2045925252 -7.00000000
8.09830856 0.92411757 -0.71310830 17 10 8349 8.18200000 2045925257 2045925257 -5.00000000
8.14422321 0.92647713 -0.42957354 17 12 8351 8.20800000 2045925261 2045925261 -3.00000000
8.12467670 0.92138094 -0.14272578 14 14 8353 8.17800000 2045925266 2045925266 -1.00000000
8.17551517 0.92570108 2.20462060 60 15 8354 8.51800000 2045925268 2045925268 15.00000000
2.21934628 0.24854736 -0.59838963 4 0 8361 2.31200000 2045925289 2045925289 -15.00000000
8.12611389 0.90861762 0.14272578 18 1 8362 8.17800000 2045925291 2045925291 1.00000000
2.62230396 0.29274827 -0.60916746 6 2 8363 2.70800000 2045925294 2045925294 -13.00000000
8.15011597 0.90986109 0.42978287 26 3 8363 8.21200000 2045925296 2045925296 3.00000000
3.15114188 0.35122979 -0.61631304 5 4 8364 3.23000000 2045925298 2045925298 -11.00000000
8.13254070 0.90502501 0.71589726 76 5 8365 8.21400000 2045925301 2045925301 5.00000000
3.97959995 0.44216430 -0.63418531 9 6 8366 4.05400000 2045925303 2045925303 -9.00000000
8.14647579 0.90369695 1.00639701 100 7 8367 8.25800000 2045925305 2045925305 7.00000000
5.28771544 0.58563751 -0.65321970 6 8 8368 5.36000000 2045925308 2045925308 -7.00000000
8.09356403 0.89496762 -0.71241105 17 10 8369 8.17400000 2045925312 2045925312 -5.00000000
8.13549614 0.89672995 -0.42894551 17 12 8371 8.19600000 2045925317 2045925317 -3.00000000
8.13181877 0.89345169 -0.14279559 14 14 8373 8.18200000 2045925321 2045925321 -1.00000000
8.18253708 0.89757890 2.20565581 56 15 8374 8.52200000 2045925324 2045925324 15.00000000
2.23168159 0.24243821 -0.60149544 4 0 8380 2.32400000 2045925344 2045925344 -15.00000000
8.12510586 0.88123417 0.14265597 21 1 8381 8.17400000 2045925347 2045925347 1.00000000
2.61163568 0.28279206 -0.60646802 6 2 8382 2.69600000 2045925349 2045925349 -13.00000000
8.14315987 0.88175428 0.42925951 23 3 8382 8.20200000 2045925351 2045925351 3.00000000
3.15033746 0.34056729 -0.61593145 5 4 8383 3.22800000 2045925354 2045925354 -11.00000000
8.13945866 0.87847912 0.71624589 90 5 8384 8.21800000 2045925356 2045925356 5.00000000
3.98693633 0.42959991 -0.63512391 9 6 8385 4.06000000 2045925358 2045925358 -9.00000000
8.13561153 0.87519109 1.00469089 95 7 8386 8.24400000 2045925360 2045925360 7.00000000
5.29554939 0.56873554 -0.65395087 6 8 8387 5.36600000 2045925363 2045925363 -7.00000000
8.07865810 0.86621177 -0.71084225 17 10 8388 8.15600000 2045925367 2045925367 -5.00000000
8.13246727 0.86911005 -0.42863148 17 12 8390 8.19000000 2045925372 2045925372 -3.00000000
8.13672543 0.86669248 -0.14283049 12 14 8392 8.18400000 2045925377 2045925377 -1.00000000
8.18915844 0.87227750 2.20669127 54 15 8392 8.52600000 2045925379 2045925379 15.00000000
2.23635674 0.23505057 -0.60253072 4 0 8400 2.32800000 2045925400 2045925400 -15.00000000
8.13608837 0.85370165 0.14279559 15 1 8401 8.18200000 2045925402 2045925402 1.00000000
2.61260700 0.27367404 -0.60646802 6 2 8402 2.69600000 2045925404 2045925404 -13.00000000
8.12831020 0.85145128 0.42831746 21 3 8402 8.18400000 2045925407 2045925407 3.00000000
3.13979149 0.32834333 -0.61364174 5 4 8403 3.21600000 2045925409 2045925409 -11.00000000
8.15040207 0.85088933 0.71694314 79 5 8404 8.22600000 2045925411 2045925411 5.00000000
3.98251748 0.41506597 -0.63418531 9 6 8405 4.05400000 2045925413 2045925413 -9.00000000
8.14256573 0.84719801 1.00517833 97 7 8406 8.24800000 2045925416 2045925416 7.00000000
5.28170681 0.54860646 -0.65200096 6 8 8407 5.35000000 2045925418 2045925418 -7.00000000
8.09154129 0.83903420 -0.71171379 17 10 8408 8.16600000 2045925423 2045925423 -5.00000000
8.12750435 0.83989590 -0.42821279 17 12 8410 8.18200000 2045925427 2045925427 -3.00000000
8.13572311 0.83787501 -0.14276068 14 14 8412 8.18000000 2045925432 2045925432 -1.00000000
8.18845749 0.84186172 2.20565581 60 15 8413 8.52200000 2045925434 2045925434 15.00000000
2.22174859 0.22606876 -0.59838963 4 0 8419 2.31200000 2045925455 2045925455 -15.00000000
8.15081120 0.82792920 0.14300501 15 1 8420 8.19400000 2045925457 2045925457 1.00000000
2.62319422 0.26599178 -0.60871756 5 2 8421 2.70600000 2045925460 2045925460 -13.00000000
8.13719463 0.82367647 0.42863148 21 3 8422 8.19000000 2045925462 2045925462 3.00000000
3.15453601 0.31931362 -0.61631304 5 4 8422 3.23000000 2045925464 2045925464 -11.00000000
8.12740898 0.82125294 0.71467710 83 5 8423 8.20000000 2045925466 2045925466 5.00000000
3.98387194 0.40185720 -0.63418531 9 6 8424 4.05400000 2045925469 2045925469 -9.00000000
8.14730549 0.82039052 1.00542212 100 7 8425 8.25000000 2045925471 2045925471 7.00000000
5.28349686 0.53108871 -0.65200096 6 8 8426 5.35000000 2045925473 2045925473 -7.00000000
8.10617352 0.81339061 -0.71275967 13 10 8427 8.17800000 2045925478 2045925478 -5.00000000
8.13620758 0.81353563 -0.42852682 17 12 8429 8.18800000 2045925483 2045925483 -3.00000000
8.11855793 0.80890876 -0.14241163 14 14 8431 8.16000000 2045925487 2045925487 -1.00000000
8.17952824 0.81498361 2.20255017 54 15 8431 8.51000000 2045925490 2045925490 15.00000000
2.21867895 0.21793434 -0.59735435 4 0 8439 2.30800000 2045925510 2045925510 -15.00000000
8.12180901 0.79635030 0.14244655 12 1 8440 8.16200000 2045925513 2045925513 1.00000000
2.62798548 0.25721318 -0.60961735 5 2 8441 2.71000000 2045925515 2045925515 -13.00000000
8.13604450 0.79487890 0.42842212 21 3 8442 8.18600000 2045925517 2045925517 3.00000000
3.14976954 0.30772758 -0.61516821 5 4 8442 3.22400000 2045925519 2045925519 -11.00000000
8.12626076 0.79249120 0.71432847 83 5 8443 8.19600000 2045925522 2045925522 5.00000000
3.97738600 0.38718286 -0.63293386 9 6 8444 4.04600000 2045925524 2045925524 -9.00000000
8.15209484 0.79213810 1.00566578 97 7 8445 8.25200000 2045925526 2045925526 7.00000000
5.29717350 0.51379246 -0.65346342 6 8 8446 5.36200000 2045925529 2045925529 -7.00000000
6.61369371 0.64032149 -0.58132881 12 10 8447 6.67000000 2045925533 2045925533 -5.00000000
8.14098549 0.78532183 -0.42863148 17 12 8449 8.19000000 2045925538 2045925538 -3.00000000
8.12929440 0.78133005 -0.14255126 14 14 8451 8.16800000 2045925543 2045925543 -1.00000000
8.17476749 0.78426075 2.20047951 63 15 8452 8.50200000 2045925545 2045925545 15.00000000
2.23103929 0.21050245 -0.60046017 4 0 8461 2.32000000 2045925566 2045925566 -15.00000000
8.12281609 0.76497155 0.14241163 12 1 8462 8.16000000 2045925568 2045925568 1.00000000
2.61925292 0.24620867 -0.60736787 6 2 8463 2.70000000 2045925570 2045925570 -13.00000000
8.13704777 0.76344639 0.42831746 13 3 8464 8.18400000 2045925572 2045925572 3.00000000
3.15483713 0.29599789 -0.61593145 5 4 8464 3.22800000 2045925575 2045925575 -11.00000000
8.12527561 0.76091129 0.71397984 83 5 8465 8.19200000 2045925577 2045925577 5.00000000
3.97097635 0.37117264 -0.63168240 9 6 8466 4.03800000 2045925579 2045925579 -9.00000000
8.14321804 0.75972414 1.00420344 92 7 8467 8.24000000 2045925582 2045925582 7.00000000
5.29515409 0.49308091 -0.65297592 6 8 8468 5.35800000 2045925584 2045925584 -7.00000000
6.61610365 0.61492205 -0.58132881 16 10 8469 6.67000000 2045925589 2045925589 -5.00000000
8.13399696 0.75313628 -0.42810813 17 12 8471 8.18000000 2045925593 2045925593 -3.00000000
8.12825203 0.74974281 -0.14248145 12 14 8473 8.16400000 2045925598 2045925598 -1.00000000
8.17374039 0.75393856 2.19944429 54 15 8473 8.49800000 2045925600 2045925600 15.00000000
2.22791266 0.20236388 -0.59942490 4 0 8481 2.31600000 2045925621 2045925621 -15.00000000
8.11747074 0.73589081 0.14227201 15 1 8482 8.15200000 2045925623 2045925623 1.00000000
2.61427379 0.23653746 -0.60601813 6 2 8483 2.69400000 2045925625 2045925625 -13.00000000
8.13568497 0.73467886 0.42810813 13 3 8484 8.18000000 2045925628 2045925628 3.00000000
3.15780640 0.28516021 -0.61631304 4 4 8484 3.23000000 2045925630 2045925630 -11.00000000
8.13383579 0.73308069 0.71450275 90 5 8485 8.19800000 2045925632 2045925632 5.00000000
3.98405218 0.35837093 -0.63355958 9 6 8486 4.05000000 2045925635 2045925635 -9.00000000
8.13197994 0.73005188 1.00249720 99 7 8487 8.22600000 2045925637 2045925637 7.00000000
5.28893423 0.47388577 -0.65200096 6 8 8488 5.35000000 2045925639 2045925639 -7.00000000
6.61622524 0.59164637 -0.58115447 16 10 8489 6.66800000 2045925644 2045925644 -5.00000000
8.12861919 0.72402990 -0.42768943 17 12 8491 8.17200000 2045925648 2045925648 -3.00000000
8.12484360 0.72083515 -0.14237674 16 14 8493 8.15800000 2045925653 2045925653 -1.00000000
8.18414593 0.72465676 2.20151472 60 15 8494 8.50600000 2045925655 2045925655 15.00000000
2.23630357 0.19525792 -0.60149544 4 0 8501 2.32400000 2045925676 2045925676 -15.00000000
8.12596607 0.70807183 0.14237674 25 1 8502 8.15800000 2045925678 2045925678 1.00000000
2.62090778 0.22791699 -0.60736787 6 2 8503 2.70000000 2045925681 2045925681 -13.00000000
8.13024044 0.70558482 0.42768943 18 3 8504 8.17200000 2045925683 2045925683 3.00000000
3.15487075 0.27379620 -0.61554980 4 4 8504 3.22600000 2045925685 2045925685 -11.00000000
8.13634491 0.70468384 0.71450275 90 5 8505 8.19800000 2045925688 2045925688 5.00000000
3.98134279 0.34412158 -0.63293386 9 6 8506 4.04600000 2045925690 2045925690 -9.00000000
8.14041233 0.70217335 1.00322843 97 7 8507 8.23200000 2045925692 2045925692 7.00000000
5.27473402 0.45405903 -0.65005106 6 8 8508 5.33400000 2045925695 2045925695 -7.00000000
6.62023544 0.56871831 -0.58132881 16 10 8509 6.67000000 2045925699 2045925699 -5.00000000
8.12512684 0.69514060 -0.42737541 17 12 8511 8.16600000 2045925704 2045925704 -3.00000000
8.12332535 0.69213027 -0.14230692 14 14 8513 8.15400000 2045925708 2045925708 -1.00000000
8.18650341 0.69751322 2.20151472 60 15 8513 8.50600000 2045925711 2045925711 15.00000000
2.22927117 0.18680531 -0.59942490 4 0 8521 2.31600000 2045925731 2045925731 -15.00000000
8.12838840 0.67970258 0.14237674 21 1 8522 8.15800000 2045925734 2045925734 1.00000000
2.61974549 0.21860486 -0.60691792 7 2 8523 2.69800000 2045925736 2045925736 -13.00000000
8.13663483 0.67753214 0.42789876 21 3 8524 8.17600000 2045925738 2045925738 3.00000000
3.14993787 0.26229322 -0.61440498 5 4 8524 3.22000000 2045925741 2045925741 -11.00000000
8.13279819 0.67578346 0.71397984 83 5 8525 8.19200000 2045925743 2045925743 5.00000000
3.99433160 0.33120140 -0.63481104 9 6 8526 4.05800000 2045925745 2045925745 -9.00000000
8.14281368 0.67375374 1.00322843 95 7 8527 8.23200000 2045925748 2045925748 7.00000000
5.28617859 0.43646076 -0.65126979 9 8 8528 5.34400000 2045925750 2045925750 -7.00000000
6.61026621 0.54462433 -0.58028293 16 10 8529 6.65800000 2045925754 2045925754 -5.00000000
8.12750340 0.66677439 -0.42737541 17 12 8531 8.16600000 2045925759 2045925759 -3.00000000
8.11971283 0.66328192 -0.14220221 12 14 8533 8.14800000 2045925764 2045925764 -1.00000000
8.17360115 0.66624790 2.19737363 58 15 8534 8.49000000 2045925766 2045925766 15.00000000
2.22214460 0.17917986 -0.59735435 4 0 8539 2.30800000 2045925787 2045925787 -15.00000000
8.12251091 0.65352166 0.14223711 15 1 8540 8.15000000 2045925789 2045925789 1.00000000
2.62818933 0.21099742 -0.60871756 7 2 8541 2.70600000 2045925791 2045925791 -13.00000000
8.14668655 0.65260482 0.42831746 21 3 8542 8.18400000 2045925794 2045925794 3.00000000
3.15270329 0.25255290 -0.61478657 4 4 8542 3.22200000 2045925796 2045925796 -11.00000000
8.12097931 0.64911896 0.71275967 79 5 8543 8.17800000 2045925798 2045925798 5.00000000
3.97172284 0.31676665 -0.63105661 9 6 8544 4.03400000 2045925801 2045925801 -9.00000000
8.14686871 0.64832652 1.00347221 99 7 8545 8.23400000 2045925803 2045925803 7.00000000
5.28752375 0.41985160 -0.65126979 9 8 8546 5.34400000 2045925805 2045925805 -7.00000000
6.62386179 0.52479911 -0.58132881 48 10 8547 6.67000000 2045925810 2045925810 -5.00000000
8.13951397 0.64202309 -0.42789876 17 12 8549 8.17600000 2045925814 2045925814 -3.00000000
8.12574387 0.63808292 -0.14227201 12 14 8551 8.15200000 2045925819 2045925819 -1.00000000
8.16783905 0.64138848 2.19530320 51 15 8551 8.48200000 2045925821 2045925821 15.00000000
2.23238707 0.17216477 -0.59994256 4 0 8559 2.31800000 2045925842 2045925842 -15.00000000
8.11277962 0.62424433 0.14202769 15 1 8560 8.13800000 2045925844 2045925844 1.00000000
2.62113762 0.20122539 -0.60691792 7 2 8561 2.69800000 2045925847 2045925847 -13.00000000
8.14692402 0.62401104 0.42821279 23 3 8562 8.18200000 2045925849 2045925849 3.00000000
3.14965057 0.24124649 -0.61402333 4 4 8562 3.21800000 2045925851 2045925851 -11.00000000
8.11723614 0.62031209 0.71223670 76 5 8563 8.17200000 2045925854 2045925854 5.00000000
3.96689534 0.30245030 -0.63011801 9 6 8564 4.02800000 2045925856 2045925856 -9.00000000
8.13918591 0.61913186 1.00225353 95 7 8565 8.22400000 2045925858 2045925858 7.00000000
5.28697777 0.40124193 -0.65102601 9 8 8566 5.34200000 2045925860 2045925860 -7.00000000
6.62565327 0.50167429 -0.58132881 80 10 8567 6.67000000 2045925865 2045925865 -5.00000000
8.13573074 0.61315662 -0.42758477 17 12 8569 8.17000000 2045925870 2045925870 -3.00000000
8.12592793 0.60956532 -0.14223711 14 14 8571 8.15000000 2045925874 2045925874 -1.00000000
8.18169308 0.61231261 2.19840908 54 15 8572 8.49400000 2045925877 2045925877 15.00000000
2.23300314 0.16398150 -0.59994256 4 0 8580 2.31800000 2045925897 2045925897 -15.00000000
8.12299061 0.59508979 0.14216730 15 1 8581 8.14600000 2045925900 2045925900 1.00000000
2.61991405 0.19147503 -0.60646802 6 2 8582 2.69600000 2045925902 2045925902 -13.00000000
8.14118862 0.59356594 0.42779410 23 3 8583 8.17400000 2045925904 2045925904 3.00000000
3.15051365 0.22970083 -0.61402333 4 4 8583 3.21800000 2045925907 2045925907 -11.00000000
8.13733864 0.59185755 0.71380556 76 5 8584 8.19000000 2045925909 2045925909 5.00000000
3.96994758 0.28805181 -0.63043088 6 6 8585 4.03000000 2045925911 2045925911 -9.00000000
8.12952042 0.58843619 1.00079107 97 7 8586 8.21200000 2045925913 2045925913 7.00000000
5.29039288 0.38200444 -0.65126979 9 8 8587 5.34400000 2045925916 2045925916 -7.00000000
6.61154938 0.47624153 -0.57993430 56 10 8588 6.65400000 2045925920 2045925920 -5.00000000
8.11800194 0.58190560 -0.42653805 17 12 8590 8.15000000 2045925925 2045925925 -3.00000000
8.13209629 0.58006275 -0.14230692 14 14 8592 8.15400000 2045925930 2045925930 -1.00000000
8.18763447 0.58402431 2.19944429 49 15 8592 8.49800000 2045925932 2045925932 15.00000000
2.23741627 0.15645538 -0.60097784 4 0 8600 2.32200000 2045925953 2045925953 -15.00000000
8.12701321 0.56687075 0.14220221 18 1 8601 8.14800000 2045925955 2045925955 1.00000000
2.61473441 0.18192288 -0.60511833 5 2 8602 2.69000000 2045925957 2045925957 -13.00000000
8.13324833 0.56445289 0.42727074 21 3 8603 8.16400000 2045925960 2045925960 3.00000000
3.14737916 0.21843024 -0.61326009 4 4 8603 3.21400000 2045925962 2045925962 -11.00000000
8.13537979 0.56317413 0.71345693 76 5 8604 8.18600000 2045925964 2045925964 5.00000000
3.97289944 0.27432844 -0.63074374 6 6 8605 4.03200000 2045925966 2045925966 -9.00000000
8.13746643 0.56046450 1.00152230 100 7 8606 8.21800000 2045925969 2045925969 7.00000000
5.27783108 0.36258283 -0.64956361 8 8 8607 5.33000000 2045925971 2045925971 -7.00000000
8.22977543 0.56537908 1.30654061 2 9 8607 8.35200000 2045925973 2045925973 9.00000000
6.61317158 0.45316002 -0.57993430 24 10 8608 6.65400000 2045925976 2045925976 -5.00000000
8.23039341 0.56253505 1.60355878 3 11 8609 8.40400000 2045925978 2045925978 11.00000000
8.12596130 0.55397248 -0.42685205 17 12 8610 8.15600000 2045925980 2045925980 -3.00000000
8.21834660 0.55882967 1.90173626 5 13 8611 8.45400000 2045925983 2045925983 13.00000000
8.12409592 0.55099636 -0.14213240 16 14 8612 8.14400000 2045925985 2045925985 -1.00000000
8.18576908 0.55517912 2.19840908 56 15 8612 8.49400000 2045925987 2045925987 15.00000000
2.22828484 0.14839314 -0.59838963 4 0 8619 2.31200000 2045926008 2045926008 -15.00000000
8.12485790 0.53965247 0.14213240 18 1 8620 8.14400000 2045926010 2045926010 1.00000000
2.62504578 0.17389517 -0.60736787 6 2 8621 2.70000000 2045926013 2045926013 -13.00000000
8.13906097 0.53774232 0.42748010 23 3 8622 8.16800000 2045926015 2045926015 3.00000000
3.15592217 0.20850967 -0.61478657 4 4 8622 3.22200000 2045926017 2045926017 -11.00000000
8.12527466 0.53540713 0.71241105 79 5 8623 8.17400000 2045926019 2045926019 5.00000000
3.98955631 0.26218864 -0.63324672 9 6 8624 4.04800000 2045926022 2045926022 -9.00000000
8.14126110 0.53360641 1.00176597 92 7 8625 8.22000000 2045926024 2045926024 7.00000000
5.28296614 0.34533790 -0.65005106 8 8 8626 5.33400000 2045926026 2045926026 -7.00000000
8.21987152 0.53587729 1.30466342 7 9 8627 8.34000000 2045926029 2045926029 9.00000000
6.61463785 0.43122748 -0.57993430 24 10 8627 6.65400000 2045926031 2045926031 -5.00000000
8.12974644 0.52715200 -0.42695674 17 12 8629 8.15800000 2045926036 2045926036 -3.00000000
8.11590099 0.52340937 -0.14195788 14 14 8631 8.13400000 2045926040 2045926040 -1.00000000
8.18370914 0.52778244 2.19737363 56 15 8631 8.49000000 2045926042 2045926042 15.00000000
2.23071718 0.14073572 -0.59890729 4 0 8639 2.31400000 2045926063 2045926063 -15.00000000
8.12469578 0.51116252 0.14209749 21 1 8640 8.14200000 2045926066 2045926066 1.00000000
2.63341641 0.16521908 -0.60916746 6 2 8641 2.70800000 2045926068 2045926068 -13.00000000
8.14886189 0.50982726 0.42789876 23 3 8642 8.17600000 2045926070 2045926070 3.00000000
3.15663075 0.19749217 -0.61478657 4 4 8642 3.22200000 2045926072 2045926072 -11.00000000
8.12311649 0.50679326 0.71206242 90 5 8643 8.17000000 2045926075 2045926075 5.00000000
3.97861791 0.24752495 -0.63136947 6 6 8644 4.03600000 2045926077 2045926077 -9.00000000
8.14703655 0.50543070 1.00225353 92 7 8645 8.22400000 2045926079 2045926079 7.00000000
5.28810215 0.32713994 -0.65053856 9 8 8646 5.33800000 2045926082 2045926082 -7.00000000
6.60218287 0.40727672 -0.57871413 16 10 8647 6.64000000 2045926086 2045926086 -5.00000000
8.13552475 0.49901524 -0.42716607 17 12 8649 8.16200000 2045926091 2045926091 -3.00000000
8.11767864 0.49507639 -0.14195788 14 14 8651 8.13400000 2045926095 2045926095 -1.00000000
8.17787552 0.49731505 2.19530320 51 15 8652 8.48200000 2045926098 2045926098 15.00000000
2.22924328 0.13322237 -0.59838963 4 0 8658 2.31200000 2045926119 2045926119 -15.00000000
8.11436939 0.48350361 0.14188807 21 1 8659 8.13000000 2045926121 2045926121 1.00000000
2.62033248 0.15567644 -0.60601813 5 2 8660 2.69400000 2045926123 2045926123 -13.00000000
8.14253330 0.48232946 0.42748010 23 3 8661 8.16800000 2045926125 2045926125 3.00000000
3.15334868 0.18679114 -0.61402333 4 4 8661 3.21800000 2045926128 2045926128 -11.00000000
8.12873077 0.48008817 0.71241105 90 5 8662 8.17400000 2045926130 2045926130 5.00000000
3.96955705 0.23374942 -0.62980515 9 6 8663 4.02600000 2045926132 2045926132 -9.00000000
8.14074135 0.47794601 1.00127852 97 7 8664 8.21600000 2045926135 2045926135 7.00000000
5.29510307 0.30995014 -0.65126979 9 8 8665 5.34400000 2045926137 2045926137 -7.00000000
6.62935400 0.38688987 -0.58098018 48 10 8666 6.66600000 2045926142 2045926142 -5.00000000
8.11320782 0.47064611 -0.42591003 17 12 8668 8.13800000 2045926146 2045926146 -3.00000000
8.11727905 0.46803936 -0.14192297 18 14 8670 8.13200000 2045926151 2045926151 -1.00000000
8.17361164 0.47128746 2.19375014 49 15 8670 8.47600000 2045926153 2045926153 15.00000000
2.22776604 0.12533154 -0.59787202 4 0 8678 2.31000000 2045926174 2045926174 -15.00000000
8.11201477 0.45495227 0.14181826 15 1 8679 8.12600000 2045926176 2045926176 1.00000000
2.61502290 0.14620247 -0.60466844 6 2 8680 2.68800000 2045926178 2045926178 -13.00000000
8.13220215 0.45323691 0.42685205 13 3 8681 8.15600000 2045926181 2045926181 3.00000000
3.15790200 0.17600125 -0.61478657 5 4 8681 3.22200000 2045926183 2045926183 -11.00000000
8.12637806 0.45148963 0.71206242 79 5 8682 8.17000000 2045926185 2045926185 5.00000000
3.97034883 0.21989165 -0.62980515 9 6 8683 4.02600000 2045926188 2045926188 -9.00000000
8.13046741 0.44887003 0.99981612 95 7 8684 8.20400000 2045926190 2045926190 7.00000000
5.26642132 0.28982869 -0.64761370 8 8 8685 5.31400000 2045926192 2045926192 -7.00000000
8.21706390 0.45077392 1.30341196 7 9 8686 8.33200000 2045926195 2045926195 9.00000000
6.61872768 0.36309195 -0.57993430 52 10 8686 6.65400000 2045926197 2045926197 -5.00000000
8.23140717 0.45011979 1.60241389 3 11 8687 8.39800000 2045926199 2045926199 11.00000000
8.11679554 0.44243157 -0.42601469 17 12 8688 8.14000000 2045926201 2045926201 -3.00000000
8.12086010 0.43981007 -0.14195788 14 14 8690 8.13400000 2045926206 2045926206 -1.00000000
8.17906475 0.44296232 2.19478559 49 15 8690 8.48000000 2045926208 2045926208 15.00000000
2.23785639 0.11767273 -0.60046017 4 0 8699 2.32000000 2045926229 2045926229 -15.00000000
8.11362743 0.42521721 0.14181826 21 1 8700 8.12600000 2045926231 2045926231 1.00000000
2.61943340 0.13682026 -0.60556823 6 2 8701 2.69200000 2045926234 2045926234 -13.00000000
8.12974548 0.42463911 0.42664272 13 3 8701 8.15200000 2045926236 2045926236 3.00000000
3.15460467 0.16422166 -0.61402333 4 4 8702 3.21800000 2045926238 2045926238 -11.00000000
8.12399864 0.42149547 0.71171379 76 5 8703 8.16600000 2045926241 2045926241 5.00000000
3.96915531 0.20523611 -0.62949228 6 6 8704 4.02400000 2045926243 2045926243 -9.00000000
8.13602257 0.41927171 1.00030363 95 7 8705 8.20800000 2045926245 2045926245 7.00000000
5.25357056 0.26981163 -0.64590752 4 8 8706 5.30000000 2045926247 2045926247 -7.00000000
8.21464252 0.42188564 1.30278623 10 9 8706 8.32800000 2045926250 2045926250 9.00000000
6.62399340 0.33903435 -0.58028293 72 10 8707 6.65800000 2045926252 2045926252 -5.00000000
8.11038399 0.41227350 -0.42559600 21 12 8709 8.13200000 2045926257 2045926257 -3.00000000
8.11642647 0.40974021 -0.14185315 18 14 8711 8.12800000 2045926261 2045926261 -1.00000000
8.17870426 0.41288418 2.19426775 56 15 8711 8.47800000 2045926264 2045926264 15.00000000
2.23053527 0.10948161 -0.59838963 4 0 8719 2.31200000 2045926284 2045926284 -15.00000000
8.12305164 0.39728352 0.14195788 18 1 8720 8.13400000 2045926287 2045926287 1.00000000
2.63546658 0.12843475 -0.60916746 6 2 8721 2.70800000 2045926289 2045926289 -13.00000000
8.13124752 0.39483926 0.42664272 21 3 8722 8.15200000 2045926291 2045926291 3.00000000
3.15123677 0.15301859 -0.61326009 5 4 8722 3.21400000 2045926294 2045926294 -11.00000000
8.12741089 0.39323112 0.71188813 83 5 8723 8.16800000 2045926296 2045926296 5.00000000
3.97576666 0.19166528 -0.63043088 9 6 8724 4.03000000 2045926298 2045926298 -9.00000000
8.13743687 0.39086911 1.00030363 97 7 8725 8.20800000 2045926300 2045926300 7.00000000
5.27232599 0.25232565 -0.64810115 6 8 8726 5.31800000 2045926303 2045926303 -7.00000000
8.20824051 0.39139828 1.30153477 10 9 8727 8.32000000 2045926305 2045926305 9.00000000
6.60125494 0.31477147 -0.57819122 76 10 8727 6.63400000 2045926307 2045926307 -5.00000000
8.13172340 0.38490477 -0.42664272 17 12 8729 8.15200000 2045926312 2045926312 -3.00000000
8.11780739 0.38140610 -0.14185315 16 14 8731 8.12800000 2045926317 2045926317 -1.00000000
8.17630291 0.38272429 2.19323254 54 15 8732 8.47400000 2045926319 2045926319 15.00000000
2.22123694 0.10164275 -0.59580141 4 0 8738 2.30200000 2045926340 2045926340 -15.00000000
8.12232685 0.37025326 0.14192297 18 1 8739 8.13200000 2045926342 2045926342 1.00000000
2.63198447 0.11951771 -0.60826766 6 2 8740 2.70400000 2045926344 2045926344 -13.00000000
8.13444233 0.36938289 0.42674738 15 3 8740 8.15400000 2045926347 2045926347 3.00000000
3.15957189 0.14292274 -0.61478657 5 4 8741 3.22200000 2045926349 2045926349 -11.00000000
8.11274719 0.36556002 0.71049362 76 5 8742 8.15200000 2045926351 2045926351 5.00000000
3.96454024 0.17794865 -0.62855369 9 6 8743 4.01800000 2045926353 2045926353 -9.00000000
8.14265442 0.36405960 1.00079107 97 7 8744 8.21200000 2045926356 2045926356 7.00000000
5.28106642 0.23519389 -0.64907610 6 8 8745 5.32600000 2045926358 2045926358 -7.00000000
8.20949364 0.36417663 1.30153477 10 9 8746 8.32000000 2045926360 2045926360 9.00000000
6.59828186 0.29270259 -0.57784259 72 10 8746 6.63000000 2045926363 2045926363 -5.00000000
8.12297821 0.35749781 -0.42611936 21 12 8748 8.14200000 2045926367 2045926367 -3.00000000
8.11503124 0.35430995 -0.14178336 18 14 8750 8.12400000 2045926372 2045926372 -1.00000000
8.17746449 0.35703582 2.19323254 56 15 8750 8.47400000 2045926374 2045926374 15.00000000
2.23315883 0.09437799 -0.59890729 4 0 8758 2.31400000 2045926395 2045926395 -15.00000000
8.10758686 0.34122610 0.14164373 25 1 8759 8.11600000 2045926397 2045926397 1.00000000
2.62070346 0.10984001 -0.60556823 6 2 8760 2.69200000 2045926399 2045926399 -13.00000000
8.13368702 0.34090251 0.42664272 13 3 8760 8.15200000 2045926402 2045926402 3.00000000
3.15024376 0.13148355 -0.61287850 5 4 8761 3.21200000 2045926404 2045926404 -11.00000000
8.10999298 0.33707353 0.71014500 76 5 8762 8.14800000 2045926406 2045926406 5.00000000
3.96118975 0.16394538 -0.62792796 9 6 8763 4.01400000 2045926409 2045926409 -9.00000000
8.13197517 0.33514374 0.99932861 90 7 8764 8.20000000 2045926411 2045926411 7.00000000
5.26995468 0.21626972 -0.64761370 6 8 8765 5.31400000 2045926413 2045926413 -7.00000000
8.21466255 0.33567923 1.30216050 10 9 8766 8.32400000 2045926416 2045926416 9.00000000
6.61120796 0.27015659 -0.57888842 56 10 8766 6.64200000 2045926418 2045926418 -5.00000000
8.11020756 0.32857519 -0.42538664 25 12 8768 8.12800000 2045926423 2045926423 -3.00000000
8.11821747 0.32606128 -0.14181826 20 14 8770 8.12600000 2045926427 2045926427 -1.00000000
8.17480087 0.32833391 2.19219732 49 15 8770 8.47000000 2045926429 2045926429 15.00000000
2.23154449 0.08650740 -0.59838963 4 0 8778 2.31200000 2045926450 2045926450 -15.00000000
8.10872841 0.31292325 0.14164373 18 1 8779 8.11600000 2045926452 2045926452 1.00000000
2.61717629 0.10054177 -0.60466844 6 2 8780 2.68800000 2045926455 2045926455 -13.00000000
8.13088989 0.31093609 0.42643338 13 3 8781 8.14800000 2045926457 2045926457 3.00000000
3.15264535 0.12056137 -0.61326009 5 4 8781 3.21400000 2045926459 2045926459 -11.00000000
8.12505627 0.30929285 0.71136516 76 5 8782 8.16200000 2045926462 2045926462 5.00000000
3.96568584 0.15026683 -0.62855369 9 6 8783 4.01800000 2045926464 2045926464 -9.00000000
8.12912846 0.30660617 0.99884117 90 7 8784 8.19600000 2045926466 2045926466 7.00000000
5.27266073 0.19794729 -0.64785743 4 8 8785 5.31600000 2045926469 2045926469 -7.00000000
8.21967793 0.30858481 1.30278623 10 9 8785 8.32800000 2045926471 2045926471 9.00000000
6.60215569 0.24670555 -0.57801688 44 10 8786 6.63200000 2045926473 2045926473 -5.00000000
8.11130524 0.30026329 -0.42538664 21 12 8788 8.12800000 2045926478 2045926478 -3.00000000
8.12330246 0.29786798 -0.14188807 18 14 8790 8.13000000 2045926482 2045926482 -1.00000000
8.17788029 0.29844001 2.19271493 63 15 8791 8.47200000 2045926485 2045926485 15.00000000
2.24148607 0.07905781 -0.60097784 4 0 8798 2.32200000 2045926505 2045926505 -15.00000000
8.12376022 0.28510755 0.14188807 18 1 8799 8.13000000 2045926508 2045926508 1.00000000
2.61945891 0.09147352 -0.60511833 6 2 8800 2.69000000 2045926510 2045926510 -13.00000000
8.11790466 0.28348348 0.42570066 10 3 8800 8.13400000 2045926512 2045926512 3.00000000
3.15108490 0.10948768 -0.61287850 5 4 8801 3.21200000 2045926515 2045926515 -11.00000000
8.13006878 0.28106689 0.71171379 79 5 8802 8.16600000 2045926517 2045926517 5.00000000
3.97210884 0.13662681 -0.62949228 6 6 8803 4.02400000 2045926519 2045926519 -9.00000000
8.13014889 0.27822837 0.99884117 95 7 8804 8.19600000 2045926522 2045926522 7.00000000
