# .PCD v0.7 - Point Cloud Data file format
VERSION 0.7
FIELDS x y z intensity laser_id azimuth distance_m adjustedtime timestamp vertical_angle
SIZE 4 4 4 1 1 2 8 8 4 8
TYPE F F F U U U F U U F
COUNT 1 1 1 1 1 1 1 1 1 1
WIDTH 541
HEIGHT 1
VIEWPOINT 0 0 0 1 0 0 0
POINTS 541
DATA ascii
0.02735406 2.23884892 -0.59994256 4 0 70 2.31800000 2046002206 2046002206 -15.00000000
0.12468927 10.06169510 0.17564102 16 1 71 10.06400000 2046002208 2046002208 1.00000000
0.03308322 2.63253999 -0.60781777 3 2 72 2.70200000 2046002210 2046002210 -13.00000000
0.14739843 11.72897625 0.61473817 2 3 72 11.74600000 2046002213 2046002213 3.00000000
0.04042094 3.17236161 -0.61669469 4 4 73 3.23200000 2046002215 2046002215 -11.00000000
0.05197233 3.97016692 -0.62886655 2 6 75 4.02000000 2046002220 2046002220 -9.00000000
0.07194766 5.35331059 -0.65736324 2 8 77 5.39400000 2046002224 2046002224 -7.00000000
0.14749730 10.69675636 2.07943654 40 11 79 10.89800000 2046002231 2046002231 11.00000000
0.10783552 7.72264814 -0.40476629 4 12 80 7.73400000 2046002233 2046002233 -3.00000000
0.14700012 10.39743805 2.40067768 54 13 81 10.67200000 2046002236 2046002236 13.00000000
0.10617302 7.41810989 -0.12949686 8 14 82 7.42000000 2046002238 2046002238 -1.00000000
0.12920339 8.91842365 2.38993502 36 15 83 9.23400000 2046002240 2046002240 15.00000000
0.03529031 2.24646640 -0.60201311 4 0 90 2.32600000 2046002261 2046002261 -15.00000000
0.15958807 10.04720211 0.17539668 9 1 91 10.05000000 2046002263 2046002263 1.00000000
0.04239745 2.64020252 -0.60961735 3 2 92 2.71000000 2046002266 2046002266 -13.00000000
0.18744136 11.67247391 0.61180735 2 3 92 11.69000000 2046002268 2046002268 3.00000000
0.05155803 3.17612720 -0.61745793 2 4 93 3.23600000 2046002270 2046002270 -11.00000000
0.06596149 3.97786188 -0.63011801 2 6 95 4.02800000 2046002275 2046002275 -9.00000000
0.08982723 5.30539131 -0.65151352 2 8 97 5.34600000 2046002280 2046002280 -7.00000000
0.18507250 10.70991707 2.08210778 40 11 99 10.91200000 2046002286 2046002286 11.00000000
0.18301825 10.38127422 2.39707851 54 13 101 10.65600000 2046002291 2046002291 13.00000000
0.13181722 7.40369844 -0.12925252 8 14 102 7.40600000 2046002293 2046002293 -1.00000000
0.16033371 8.91791821 2.38993502 36 15 103 9.23400000 2046002296 2046002296 15.00000000
0.04294629 2.23667192 -0.59942490 4 0 110 2.31600000 2046002316 2046002316 -15.00000000
0.20504016 10.58240128 0.18475117 9 1 111 10.58600000 2046002319 2046002319 1.00000000
0.05184177 2.65172863 -0.61231679 3 2 112 2.72200000 2046002321 2046002321 -13.00000000
0.22818477 11.67174911 0.61180735 2 3 112 11.69000000 2046002323 2046002323 3.00000000
0.06248960 3.16807628 -0.61593145 2 4 113 3.22800000 2046002326 2046002326 -11.00000000
0.08024287 3.99735713 -0.63324672 2 6 115 4.04800000 2046002330 2046002330 -9.00000000
0.10826489 5.30107594 -0.65102601 2 8 117 5.34200000 2046002335 2046002335 -7.00000000
0.22237441 10.70528030 2.08134460 37 11 119 10.90800000 2046002342 2046002342 11.00000000
0.21933685 10.38446903 2.39797831 52 13 121 10.66000000 2046002346 2046002346 13.00000000
0.15748985 7.39519644 -0.12911290 6 14 122 7.39800000 2046002349 2046002349 -1.00000000
0.18965892 8.90574837 2.38682914 38 15 122 9.22200000 2046002351 2046002351 15.00000000
0.05057816 2.22878289 -0.59735435 3 0 130 2.30800000 2046002372 2046002372 -15.00000000
0.06109771 2.65153146 -0.61231679 3 2 132 2.72200000 2046002376 2046002376 -13.00000000
0.26846528 11.65091419 0.61076063 2 3 132 11.67000000 2046002379 2046002379 3.00000000
0.07382128 3.17961526 -0.61822116 2 4 133 3.24000000 2046002381 2046002381 -11.00000000
0.17359200 7.36610985 -1.16700113 6 6 135 7.46000000 2046002385 2046002385 -9.00000000
0.12695828 5.30860376 -0.65200096 2 8 137 5.35000000 2046002390 2046002390 -7.00000000
0.25959858 10.69855022 2.08019972 40 11 139 10.90200000 2046002397 2046002397 11.00000000
0.18689400 7.64721870 -0.40089342 8 12 140 7.66000000 2046002399 2046002399 -3.00000000
0.25558406 10.38364029 2.39797831 55 13 141 10.66000000 2046002402 2046002402 13.00000000
0.18330294 7.39460182 -0.12911290 10 14 142 7.39800000 2046002404 2046002404 -1.00000000
0.22225064 8.90306282 2.38631153 38 15 143 9.22000000 2046002406 2046002406 15.00000000
0.05821996 2.23825908 -0.59994256 4 0 149 2.31800000 2046002427 2046002427 -15.00000000
0.06958206 2.63962603 -0.60961735 3 2 151 2.71000000 2046002432 2046002432 -13.00000000
0.30849719 11.62594700 0.60950452 2 3 152 11.64600000 2046002434 2046002434 3.00000000
0.08436486 3.17935300 -0.61822116 2 4 152 3.24000000 2046002436 2046002436 -11.00000000
0.19785868 7.35956955 -1.16606247 9 6 154 7.45400000 2046002441 2046002441 -9.00000000
0.14466964 5.31212234 -0.65248847 2 8 156 5.35400000 2046002445 2046002445 -7.00000000
0.29475003 10.68585587 2.07790995 43 11 158 10.89000000 2046002452 2046002452 11.00000000
0.21214123 7.64256382 -0.40068409 8 12 159 7.65600000 2046002455 2046002455 -3.00000000
0.29001606 10.38273525 2.39797831 51 13 160 10.66000000 2046002457 2046002457 13.00000000
0.20787950 7.39595222 -0.12914781 14 14 161 7.40000000 2046002459 2046002459 -1.00000000
0.25027356 8.90425110 2.38682914 38 15 161 9.22200000 2046002462 2046002462 15.00000000
0.06620350 2.24383521 -0.60149544 3 0 169 2.32400000 2046002482 2046002482 -15.00000000
0.07926086 2.65494990 -0.61321658 3 2 171 2.72600000 2046002487 2046002487 -13.00000000
0.34835806 11.60084343 0.60824847 2 3 172 11.62200000 2046002489 2046002489 3.00000000
0.09546236 3.17903900 -0.61822116 2 4 172 3.24000000 2046002491 2046002491 -11.00000000
0.22366713 7.36278296 -1.16668820 11 6 174 7.45800000 2046002496 2046002496 -9.00000000
0.14845724 4.83141947 -0.59350371 4 8 176 4.87000000 2046002501 2046002501 -7.00000000
0.24462053 7.91596889 -0.69288814 4 10 177 7.95000000 2046002505 2046002505 -5.00000000
0.33192688 10.68083668 2.07714677 40 11 178 10.88600000 2046002508 2046002508 11.00000000
0.23894224 7.64576960 -0.40089342 8 12 179 7.66000000 2046002510 2046002510 -3.00000000
0.32558346 10.36023426 2.39302921 51 13 180 10.63800000 2046002512 2046002512 13.00000000
0.23344228 7.38718653 -0.12900819 12 14 181 7.39200000 2046002515 2046002515 -1.00000000
0.28290761 8.90327454 2.38682914 36 15 182 9.22200000 2046002517 2046002517 15.00000000
0.07442713 2.24357748 -0.60149544 4 0 190 2.32400000 2046002538 2046002538 -15.00000000
0.24606839 7.37877369 0.12886856 3 1 191 7.38400000 2046002540 2046002540 1.00000000
0.08899121 2.65464163 -0.61321658 3 2 192 2.72600000 2046002542 2046002542 -13.00000000
0.38973144 11.56555462 0.60646904 2 3 193 11.58800000 2046002544 2046002544 3.00000000
0.10724572 3.18259215 -0.61898440 2 4 193 3.24400000 2046002547 2046002547 -11.00000000
0.25058436 7.35993958 -1.16637540 13 6 195 7.45600000 2046002551 2046002551 -9.00000000
0.16459477 4.78521252 -0.58789772 4 8 197 4.82400000 2046002556 2046002556 -7.00000000
0.37148091 10.69132137 2.07943654 46 11 199 10.89800000 2046002563 2046002563 11.00000000
0.26773050 7.66679907 -0.40204480 12 12 200 7.68200000 2046002565 2046002565 -3.00000000
0.36375850 10.36481380 2.39437914 53 13 201 10.64400000 2046002568 2046002568 13.00000000
0.26058659 7.38827991 -0.12904309 6 14 202 7.39400000 2046002570 2046002570 -1.00000000
0.31439266 8.91381645 2.38993502 36 15 202 9.23400000 2046002572 2046002572 15.00000000
0.08211664 2.23944283 -0.60046017 4 0 210 2.32000000 2046002593 2046002593 -15.00000000
0.27241263 7.39385653 0.12914781 3 1 211 7.40000000 2046002595 2046002595 1.00000000
0.09840127 2.65820956 -0.61411637 3 2 212 2.73000000 2046002597 2046002597 -13.00000000
0.42935807 11.54416466 0.60542232 2 3 213 11.56800000 2046002600 2046002600 3.00000000
0.11820845 3.17827463 -0.61822116 2 4 213 3.24000000 2046002602 2046002602 -11.00000000
0.27642202 7.36296797 -1.16700113 9 6 215 7.46000000 2046002607 2046002607 -9.00000000
0.19565374 5.16348982 -0.63445181 2 8 217 5.20600000 2046002611 2046002611 -7.00000000
0.40849823 10.68211174 2.07790995 43 11 219 10.89000000 2046002618 2046002618 11.00000000
0.29349428 7.63987255 -0.40068409 12 12 220 7.65600000 2046002620 2046002620 -3.00000000
0.39948535 10.35179710 2.39167953 53 13 221 10.63200000 2046002623 2046002623 13.00000000
0.28598762 7.37733412 -0.12886856 10 14 222 7.38400000 2046002625 2046002625 -1.00000000
0.34653515 8.89909172 2.38631153 38 15 223 9.22000000 2046002627 2046002627 15.00000000
0.08923368 2.23143697 -0.59838963 4 0 229 2.31200000 2046002648 2046002648 -15.00000000
0.10690148 2.65007997 -0.61231679 3 2 231 2.72200000 2046002653 2046002653 -13.00000000
0.46674818 11.52072525 0.60427094 2 3 232 11.54600000 2046002655 2046002655 3.00000000
0.12890628 3.18178844 -0.61898440 2 4 232 3.24400000 2046002657 2046002657 -11.00000000
0.30091766 7.36398458 -1.16731393 11 6 234 7.46200000 2046002662 2046002662 -9.00000000
0.32607034 7.91181707 -0.97227365 2 8 236 7.97800000 2046002667 2046002667 -7.00000000
0.42785284 10.33762836 -0.90519953 4 10 237 10.38600000 2046002671 2046002671 -5.00000000
0.44359303 10.67285252 2.07638359 46 11 238 10.88200000 2046002673 2046002673 11.00000000
0.31924385 7.64883471 -0.40120745 12 12 239 7.66600000 2046002676 2046002676 -3.00000000
0.43430057 10.36209774 2.39437914 52 13 240 10.64400000 2046002678 2046002678 13.00000000
0.30969337 7.35836411 -0.12855442 24 14 241 7.36600000 2046002680 2046002680 -1.00000000
0.37440947 8.89602852 2.38579392 38 15 241 9.21800000 2046002683 2046002683 15.00000000
0.09735803 2.23883200 -0.60046017 3 0 249 2.32000000 2046002703 2046002703 -15.00000000
0.11649271 2.65747833 -0.61411637 3 2 251 2.73000000 2046002708 2046002708 -13.00000000
0.50836521 11.55095100 0.60594571 2 3 252 11.57800000 2046002710 2046002710 3.00000000
0.13949409 3.16955090 -0.61669469 2 4 252 3.23200000 2046002713 2046002713 -11.00000000
0.32600811 7.34907532 -1.16512394 18 6 254 7.44800000 2046002717 2046002717 -9.00000000
0.34747919 7.77181292 -0.95521194 2 8 256 7.83800000 2046002722 2046002722 -7.00000000
0.47814012 10.65254307 -0.93291509 9 10 257 10.70400000 2046002726 2046002726 -5.00000000
0.48049206 10.66339397 2.07485700 43 11 258 10.87400000 2046002729 2046002729 11.00000000
0.34431675 7.61175966 -0.39932334 12 12 259 7.63000000 2046002731 2046002731 -3.00000000
0.46993798 10.34883785 2.39167953 48 13 260 10.63200000 2046002733 2046002733 13.00000000
0.40683591 8.89073753 2.38475871 38 15 262 9.21400000 2046002738 2046002738 15.00000000
0.10580707 2.25198674 -0.60408366 4 0 269 2.33400000 2046002759 2046002759 -15.00000000
0.34721586 7.36269474 0.12865914 3 1 270 7.37200000 2046002761 2046002761 1.00000000
0.12521550 2.64537597 -0.61141694 3 2 271 2.71800000 2046002763 2046002763 -13.00000000
0.54716599 11.51718616 0.60427094 2 3 272 11.54600000 2046002766 2046002766 3.00000000
0.34881532 7.34214306 -1.42877781 4 4 272 7.48800000 2046002768 2046002768 -11.00000000
0.35165921 7.34789276 -1.16512394 9 6 274 7.44800000 2046002773 2046002773 -9.00000000
0.37326753 7.74279356 -0.95179957 4 8 276 7.81000000 2046002777 2046002777 -7.00000000
0.51984692 10.74434185 -0.94110769 9 10 277 10.79800000 2046002782 2046002782 -5.00000000
0.51713997 10.64988613 2.07256722 40 11 278 10.86200000 2046002784 2046002784 11.00000000
0.37088466 7.61051130 -0.39932334 12 12 279 7.63000000 2046002786 2046002786 -3.00000000
0.50586891 10.34324169 2.39077973 47 13 280 10.62800000 2046002789 2046002789 13.00000000
0.43631643 8.88933945 2.38475871 36 15 281 9.21400000 2046002793 2046002793 15.00000000
0.11366733 2.25160360 -0.60408366 4 0 289 2.33400000 2046002814 2046002814 -15.00000000
0.37291434 7.36143780 0.12865914 3 1 290 7.37200000 2046002816 2046002816 1.00000000
0.13405310 2.63713789 -0.60961735 3 2 291 2.71000000 2046002819 2046002819 -13.00000000
0.58624595 11.49326515 0.60311955 2 3 292 11.52400000 2046002821 2046002821 3.00000000
0.37324193 7.31735229 -1.42419839 5 4 292 7.46400000 2046002823 2046002823 -11.00000000
0.37771127 7.35451126 -1.16637540 9 6 294 7.45600000 2046002828 2046002828 -9.00000000
0.40193278 7.77316236 -0.95569938 2 8 296 7.84200000 2046002832 2046002832 -7.00000000
0.55703884 10.73649216 -0.94058478 9 10 297 10.79200000 2046002837 2046002837 -5.00000000
0.55420983 10.64605522 2.07218575 43 11 298 10.86000000 2046002839 2046002839 11.00000000
0.39765641 7.61315966 -0.39953268 12 12 299 7.63400000 2046002842 2046002842 -3.00000000
0.54135853 10.32973671 2.38808036 50 13 300 10.61600000 2046002844 2046002844 13.00000000
0.38725662 7.36470222 -0.12872896 8 14 301 7.37600000 2046002846 2046002846 -1.00000000
0.46909809 8.89153862 2.38579392 38 15 302 9.21800000 2046002849 2046002849 15.00000000
0.12079725 2.23768973 -0.60046017 4 0 309 2.32000000 2046002869 2046002869 -15.00000000
0.14410341 2.65222096 -0.61321658 3 2 311 2.72600000 2046002874 2046002874 -13.00000000
0.62777454 11.51707458 0.60448027 2 3 312 11.55000000 2046002876 2046002876 3.00000000
0.39867511 7.31404448 -1.42381668 9 4 312 7.46200000 2046002879 2046002879 -11.00000000
0.40348920 7.35512066 -1.16668820 11 6 314 7.45800000 2046002883 2046002883 -9.00000000
0.43497279 7.87874413 -0.96886128 2 8 316 7.95000000 2046002888 2046002888 -7.00000000
0.59109730 10.67281342 -0.93518114 4 10 317 10.73000000 2046002892 2046002892 -5.00000000
0.59191263 10.65385723 2.07409382 40 11 318 10.87000000 2046002895 2046002895 11.00000000
0.42467344 7.61970186 -0.39995137 12 12 319 7.64200000 2046002897 2046002897 -3.00000000
0.57730401 10.32583809 2.38763046 51 13 320 10.61400000 2046002899 2046002899 13.00000000
0.41318581 7.36729860 -0.12879875 8 14 321 7.38000000 2046002902 2046002902 -1.00000000
0.49804005 8.88029003 2.38320565 38 15 321 9.20800000 2046002904 2046002904 15.00000000
0.12871838 2.23918319 -0.60097784 4 0 329 2.32200000 2046002925 2046002925 -15.00000000
0.15403561 2.66337466 -0.61591601 3 2 331 2.73800000 2046002929 2046002929 -13.00000000
0.66739446 11.50484371 0.60395694 2 3 332 11.54000000 2046002932 2046002932 3.00000000
0.42477196 7.32240820 -1.42572486 12 4 332 7.47200000 2046002934 2046002934 -11.00000000
0.42870054 7.34577942 -1.16543674 15 6 334 7.45000000 2046002938 2046002938 -9.00000000
0.31285220 5.32873726 -0.65541333 2 8 336 5.37800000 2046002943 2046002943 -7.00000000
0.61569983 10.45587921 -0.91635549 4 10 337 10.51400000 2046002948 2046002948 -5.00000000
0.62851918 10.64192677 2.07218575 40 11 338 10.86000000 2046002950 2046002950 11.00000000
0.45268580 7.64209795 -0.40120745 12 12 339 7.66600000 2046002952 2046002952 -3.00000000
0.61322880 10.32181454 2.38718057 50 13 340 10.61200000 2046002955 2046002955 13.00000000
0.43854314 7.35982275 -0.12869404 14 14 341 7.37400000 2046002957 2046002957 -1.00000000
0.52823067 8.86499882 2.37958241 40 15 341 9.19400000 2046002959 2046002959 15.00000000
0.13602582 2.23681569 -0.60046017 4 0 348 2.32000000 2046002980 2046002980 -15.00000000
0.16274786 2.66090417 -0.61546606 3 2 350 2.73600000 2046002985 2046002985 -13.00000000
0.70554227 11.50256729 0.60395694 2 3 351 11.54000000 2046002987 2046002987 3.00000000
0.44809002 7.30528259 -1.42267191 4 4 351 7.45600000 2046002989 2046002989 -11.00000000
0.45293605 7.34234571 -1.16512394 9 6 353 7.44800000 2046002994 2046002994 -9.00000000
0.49326202 7.95088959 -0.97812337 2 8 355 8.02600000 2046002998 2046002998 -7.00000000
0.66236973 10.64666843 -0.93326372 4 10 356 10.70800000 2046003003 2046003003 -5.00000000
0.66270542 10.62214947 2.06875110 37 11 357 10.84200000 2046003005 2046003005 11.00000000
0.47578058 7.60467434 -0.39932334 12 12 358 7.63000000 2046003008 2046003008 -3.00000000
0.64769787 10.32361412 2.38808036 47 13 359 10.61600000 2046003010 2046003010 13.00000000
0.46357459 7.36830711 -0.12886856 12 14 360 7.38400000 2046003012 2046003012 -1.00000000
0.55786777 8.86705399 2.38061762 40 15 360 9.19800000 2046003014 2046003014 15.00000000
0.14432891 2.24403882 -0.60253072 3 0 368 2.32800000 2046003035 2046003035 -15.00000000
0.17115487 2.64670706 -0.61231679 3 2 370 2.72200000 2046003040 2046003040 -13.00000000
0.74465549 11.48408985 0.60311955 2 3 371 11.52400000 2046003042 2046003042 3.00000000
0.20655936 3.18556166 -0.62051088 2 4 371 3.25200000 2046003044 2046003044 -11.00000000
0.47817734 7.33480644 -1.16418529 9 6 373 7.44200000 2046003049 2046003049 -9.00000000
0.52075315 7.94515753 -0.97763586 2 8 375 8.02200000 2046003054 2046003054 -7.00000000
0.70122802 10.67013645 -0.93552977 13 10 376 10.73400000 2046003058 2046003058 -5.00000000
0.69977957 10.61977100 2.06875110 40 11 377 10.84200000 2046003061 2046003061 11.00000000
0.50284964 7.61093903 -0.39974204 12 12 378 7.63800000 2046003063 2046003063 -3.00000000
0.68321478 10.31351280 2.38628078 50 13 379 10.60800000 2046003065 2046003065 13.00000000
0.48995459 7.37662029 -0.12904309 8 14 380 7.39400000 2046003067 2046003067 -1.00000000
0.59062010 8.86880493 2.38165283 38 15 381 9.20200000 2046003070 2046003070 15.00000000
0.15281487 2.24734950 -0.60356599 4 0 389 2.33200000 2046003091 2046003091 -15.00000000
0.18085438 2.64606190 -0.61231679 3 2 391 2.72200000 2046003095 2046003095 -13.00000000
0.78769755 11.49523067 0.60385227 2 3 392 11.53800000 2046003097 2046003097 3.00000000
0.21796520 3.18086600 -0.61974764 2 4 392 3.24800000 2046003100 2046003100 -11.00000000
0.50532901 7.33694601 -1.16481102 9 6 394 7.44600000 2046003104 2046003104 -9.00000000
0.55261189 7.98280239 -0.98251063 2 8 396 8.06200000 2046003109 2046003109 -7.00000000
0.74253839 10.69929695 -0.93831873 9 10 397 10.76600000 2046003114 2046003114 -5.00000000
0.73897082 10.62105179 2.06951427 40 11 398 10.84600000 2046003116 2046003116 11.00000000
0.53046381 7.60506010 -0.39953268 12 12 399 7.63400000 2046003118 2046003118 -3.00000000
0.72005957 10.29733181 2.38313150 51 13 400 10.59400000 2046003120 2046003120 13.00000000
0.51586926 7.35881662 -0.12876385 8 14 401 7.37800000 2046003123 2046003123 -1.00000000
0.62143934 8.86476231 2.38113523 42 15 401 9.20000000 2046003125 2046003125 15.00000000
0.16065864 2.24680233 -0.60356599 4 0 409 2.33200000 2046003146 2046003146 -15.00000000
0.19148645 2.66485190 -0.61681581 3 2 411 2.74200000 2046003150 2046003150 -13.00000000
0.82580972 11.46452236 0.60238683 2 3 412 11.51000000 2046003153 2046003153 3.00000000
0.22878507 3.17616940 -0.61898440 2 4 412 3.24400000 2046003155 2046003155 -11.00000000
0.53093666 7.33513737 -1.16481102 6 6 414 7.44600000 2046003160 2046003160 -9.00000000
0.38722250 5.32384968 -0.65541333 2 8 416 5.37800000 2046003164 2046003164 -7.00000000
0.75814956 10.39857197 -0.91217202 4 10 417 10.46600000 2046003169 2046003169 -5.00000000
0.77561140 10.61253357 2.06836963 40 11 418 10.84000000 2046003171 2046003171 11.00000000
0.55715311 7.60515404 -0.39963737 12 12 419 7.63600000 2046003173 2046003173 -3.00000000
0.75714135 10.31030369 2.38673067 56 13 420 10.61000000 2046003176 2046003176 13.00000000
0.54214036 7.36494827 -0.12890348 4 14 421 7.38600000 2046003178 2046003178 -1.00000000
0.65237933 8.86253929 2.38113523 40 15 421 9.20000000 2046003180 2046003180 15.00000000
0.16709919 2.23277211 -0.59994256 4 0 428 2.31800000 2046003201 2046003201 -15.00000000
0.20003013 2.66031575 -0.61591601 3 2 430 2.73800000 2046003206 2046003206 -13.00000000
0.86571598 11.51365376 0.60510832 2 3 430 11.56200000 2046003208 2046003208 3.00000000
0.23961145 3.17930865 -0.61974764 2 4 431 3.24800000 2046003210 2046003210 -11.00000000
0.55391562 7.31560850 -1.16199517 6 6 433 7.42800000 2046003215 2046003215 -9.00000000
0.40758508 5.35816526 -0.65980065 2 8 435 5.41400000 2046003219 2046003219 -7.00000000
0.81124836 10.61577606 2.06951427 43 11 437 10.84600000 2046003226 2046003226 11.00000000
0.58191204 7.59729004 -0.39932334 12 12 438 7.63000000 2046003229 2046003229 -3.00000000
0.79117823 10.30579281 2.38628078 54 13 439 10.60800000 2046003231 2046003231 13.00000000
0.56625360 7.35912228 -0.12883367 2 14 440 7.38200000 2046003233 2046003233 -1.00000000
0.67939365 8.82950783 2.37285304 40 15 440 9.16800000 2046003236 2046003236 15.00000000
0.17504291 2.23410106 -0.60046017 3 0 448 2.32000000 2046003256 2046003256 -15.00000000
0.57702988 7.34825611 0.12865914 3 1 449 7.37200000 2046003259 2046003259 1.00000000
0.20900936 2.65571570 -0.61501616 3 2 450 2.73400000 2046003261 2046003261 -13.00000000
0.90759569 11.50642109 0.60489899 2 3 451 11.55800000 2046003263 2046003263 3.00000000
0.25132537 3.18628144 -0.62127411 2 4 451 3.25600000 2046003266 2046003266 -11.00000000
0.58100867 7.33332253 -1.16512394 4 6 453 7.44800000 2046003270 2046003270 -9.00000000
0.42786086 5.37649822 -0.66223800 2 8 455 5.43400000 2046003275 2046003275 -7.00000000
0.64263278 8.05753803 -0.70718169 4 10 456 8.11400000 2046003279 2046003279 -5.00000000
0.84767371 10.60505199 2.06798792 46 11 457 10.83800000 2046003282 2046003282 11.00000000
0.60826850 7.59322166 -0.39921868 12 12 458 7.62800000 2046003284 2046003284 -3.00000000
0.82792705 10.31268120 2.38853025 55 13 459 10.61800000 2046003286 2046003286 13.00000000
0.59241939 7.36308098 -0.12893838 2 14 460 7.38800000 2046003289 2046003289 -1.00000000
0.71268243 8.83851242 2.37595892 42 15 461 9.18000000 2046003291 2046003291 15.00000000
0.18347080 2.24117804 -0.60253072 3 0 468 2.32800000 2046003312 2046003312 -15.00000000
0.60218602 7.34021807 0.12855442 3 1 469 7.36600000 2046003314 2046003314 1.00000000
0.21668150 2.63554811 -0.61051714 3 2 470 2.71400000 2046003316 2046003316 -13.00000000
0.94574738 11.50334835 0.60489899 2 3 470 11.55800000 2046003319 2046003319 3.00000000
0.26244602 3.18538475 -0.62127411 2 4 471 3.25600000 2046003321 2046003321 -11.00000000
0.60725474 7.33912420 -1.16637540 4 6 473 7.45600000 2046003325 2046003325 -9.00000000
0.66623998 8.01794624 -0.98787290 2 8 475 8.10600000 2046003330 2046003330 -7.00000000
0.88436055 10.59811497 2.06722474 43 11 477 10.83400000 2046003337 2046003337 11.00000000
0.63626796 7.60896492 -0.40016073 12 12 478 7.64600000 2046003339 2046003339 -3.00000000
0.86294365 10.29807663 2.38583088 59 13 479 10.60600000 2046003342 2046003342 13.00000000
0.61728108 7.35100460 -0.12876385 2 14 480 7.37800000 2046003344 2046003344 -1.00000000
0.74295801 8.84765148 2.37906456 42 15 480 9.19200000 2046003346 2046003346 15.00000000
0.19096416 2.23667431 -0.60149544 4 0 488 2.32400000 2046003367 2046003367 -15.00000000
0.62882727 7.35002565 0.12876385 3 1 489 7.37800000 2046003369 2046003369 1.00000000
0.22721159 2.65030861 -0.61411637 3 2 490 2.73000000 2046003371 2046003371 -13.00000000
0.98623699 11.50395679 0.60510832 2 3 490 11.56200000 2046003374 2046003374 3.00000000
0.27389956 3.18836141 -0.62203735 2 4 491 3.26000000 2046003376 2046003376 -11.00000000
0.63354844 7.34483242 -1.16762686 4 6 493 7.46400000 2046003381 2046003381 -9.00000000
0.68189114 7.87317848 -0.97032374 2 8 495 7.96200000 2046003385 2046003385 -7.00000000
0.92134947 10.59496403 2.06722474 43 11 497 10.83400000 2046003392 2046003392 11.00000000
0.66837245 7.67036867 -0.40351021 12 12 498 7.71000000 2046003395 2046003395 -3.00000000
0.89854634 10.29111862 2.38493109 56 13 499 10.60200000 2046003397 2046003397 13.00000000
0.64223999 7.34083652 -0.12862423 6 14 500 7.37000000 2046003399 2046003399 -1.00000000
0.77350080 8.84115505 2.37802935 45 15 500 9.18800000 2046003401 2046003401 15.00000000
0.19781955 2.23413897 -0.60097784 4 0 506 2.32200000 2046003422 2046003422 -15.00000000
0.65138477 7.34203863 0.12865914 3 1 507 7.37200000 2046003424 2046003424 1.00000000
0.23519155 2.64569950 -0.61321658 3 2 508 2.72600000 2046003427 2046003427 -13.00000000
1.02615201 11.52051735 0.60615504 2 3 509 11.58200000 2046003429 2046003429 3.00000000
0.28217292 3.16793013 -0.61822116 2 4 509 3.24000000 2046003431 2046003431 -11.00000000
0.65556407 7.33100033 -1.16574967 4 6 511 7.45200000 2046003436 2046003436 -9.00000000
0.77673405 8.65196800 -1.06660044 2 8 513 8.75200000 2046003441 2046003441 -7.00000000
0.72416419 8.05062008 -0.70718169 4 10 514 8.11400000 2046003445 2046003445 -5.00000000
0.95568734 10.60374832 2.06951427 43 11 515 10.84600000 2046003448 2046003448 11.00000000
0.69911253 7.74183035 -0.40738308 16 12 516 7.78400000 2046003450 2046003450 -3.00000000
0.93087238 10.28824520 2.38493109 56 13 517 10.60200000 2046003452 2046003452 13.00000000
0.66403490 7.32484198 -0.12837990 12 14 518 7.35600000 2046003454 2046003454 -1.00000000
0.80176634 8.82699776 2.37492347 45 15 519 9.17600000 2046003457 2046003457 15.00000000
0.20561694 2.23343492 -0.60097784 4 0 526 2.32200000 2046003477 2046003477 -15.00000000
0.68288672 7.40343952 0.12977609 3 1 527 7.43600000 2046003480 2046003480 1.00000000
0.24585997 2.66038632 -0.61681581 3 2 528 2.74200000 2046003482 2046003482 -13.00000000
1.06030631 11.47329712 0.60385227 2 3 528 11.53800000 2046003484 2046003484 3.00000000
0.29395336 3.17474532 -0.61974764 2 4 529 3.24800000 2046003487 2046003487 -11.00000000
0.37439486 4.02821016 -0.64075559 2 6 531 4.09600000 2046003491 2046003491 -9.00000000
0.81024951 8.68478107 -1.07098782 2 8 533 8.78800000 2046003496 2046003496 -7.00000000
0.75522846 8.07978249 -0.70997065 4 10 534 8.14600000 2046003501 2046003501 -5.00000000
0.99159718 10.58862019 2.06722474 46 11 535 10.83400000 2046003503 2046003503 11.00000000
0.79926789 8.51884460 -0.44841447 12 12 536 8.56800000 2046003505 2046003505 -3.00000000
0.96750885 10.29269409 2.38673067 57 13 537 10.61000000 2046003507 2046003507 13.00000000
0.83184761 8.81645203 2.37285304 42 15 539 9.16800000 2046003512 2046003512 15.00000000
0.21451473 2.24424195 -0.60408366 4 0 546 2.33400000 2046003533 2046003533 -15.00000000
0.25477275 2.65563226 -0.61591601 3 2 548 2.73800000 2046003537 2046003537 -13.00000000
1.07173896 11.17130661 0.58815145 2 3 548 11.23800000 2046003540 2046003540 3.00000000
0.30540916 3.17760849 -0.62051088 2 4 549 3.25200000 2046003542 2046003542 -11.00000000
0.38579822 3.99935126 -0.63637543 2 6 551 4.06800000 2046003547 2046003547 -9.00000000
0.51784164 5.34863520 -0.65980065 2 8 553 5.41400000 2046003551 2046003551 -7.00000000
1.02741301 10.57336998 2.06493497 50 11 555 10.82200000 2046003558 2046003558 11.00000000
0.76262522 7.83416605 -0.41251200 8 12 556 7.88200000 2046003560 2046003560 -3.00000000
1.00380945 10.29313278 2.38763046 57 13 557 10.61400000 2046003563 2046003563 13.00000000
0.71534979 7.32201815 -0.12841481 105 14 558 7.35800000 2046003565 2046003565 -1.00000000
0.86337042 8.82118511 2.37492347 40 15 559 9.17600000 2046003567 2046003567 15.00000000
0.22158518 2.23578978 -0.60201311 4 0 566 2.32600000 2046003588 2046003588 -15.00000000
0.26326960 2.64697003 -0.61411637 3 2 568 2.73000000 2046003593 2046003593 -13.00000000
1.09965789 11.05620003 0.58228987 2 3 568 11.12600000 2046003595 2046003595 3.00000000
0.31688851 3.18043017 -0.62127411 2 4 569 3.25600000 2046003597 2046003597 -11.00000000
0.40054235 4.00584269 -0.63762689 2 6 571 4.07600000 2046003602 2046003602 -9.00000000
0.78088081 7.78218412 -0.96033043 4 8 573 7.88000000 2046003607 2046003607 -7.00000000
1.06470811 10.57362556 2.06569815 46 11 575 10.82600000 2046003613 2046003613 11.00000000
0.77994454 7.73209763 -0.40727842 20 12 576 7.78200000 2046003616 2046003616 -3.00000000
1.03855765 10.27793312 2.38493109 59 13 577 10.60200000 2046003618 2046003618 13.00000000
0.89454657 8.82196140 2.37595892 42 15 579 9.18000000 2046003623 2046003623 15.00000000
0.23056856 2.24264956 -0.60408366 4 0 587 2.33400000 2046003643 2046003643 -15.00000000
1.08309174 10.51676464 0.18454175 71 1 588 10.57400000 2046003646 2046003646 1.00000000
0.27376935 2.65374112 -0.61591601 3 2 589 2.73800000 2046003648 2046003648 -13.00000000
1.14222300 11.07196331 0.58333659 2 3 589 11.14600000 2046003650 2046003650 3.00000000
0.32813963 3.17534161 -0.62051088 2 4 590 3.25200000 2046003653 2046003653 -11.00000000
0.41725922 4.02399588 -0.64075559 2 6 592 4.09600000 2046003657 2046003657 -9.00000000
0.80570090 7.74373007 -0.95594311 6 8 594 7.84400000 2046003662 2046003662 -7.00000000
1.10365915 10.57160473 2.06607985 50 11 596 10.82800000 2046003669 2046003669 11.00000000
1.07540905 10.26630497 2.38313150 55 13 598 10.59400000 2046003673 2046003673 13.00000000
0.77169120 7.35449839 -0.12907800 6 14 599 7.39600000 2046003676 2046003676 -1.00000000
0.92533553 8.81878567 2.37595892 45 15 599 9.18000000 2046003678 2046003678 15.00000000
0.23798691 2.23798895 -0.60304838 4 0 607 2.33000000 2046003699 2046003699 -15.00000000
0.28385794 2.66052032 -0.61771560 3 2 609 2.74600000 2046003703 2046003703 -13.00000000
1.18171203 11.07585239 0.58375525 2 3 609 11.15400000 2046003706 2046003706 3.00000000
0.33963889 3.17808127 -0.62127411 2 4 610 3.25600000 2046003708 2046003708 -11.00000000
0.43046066 4.01465845 -0.63950408 2 6 612 4.08800000 2046003712 2046003712 -9.00000000
0.83421296 7.75468636 -0.95764929 6 8 614 7.85800000 2046003717 2046003717 -7.00000000
1.14160752 10.57744789 2.06798792 50 11 616 10.83800000 2046003724 2046003724 11.00000000
0.83568311 7.73028994 -0.40748775 49 12 617 7.78600000 2046003726 2046003726 -3.00000000
1.11123860 10.26248837 2.38313150 59 13 618 10.59400000 2046003729 2046003729 13.00000000
0.79714286 7.34977198 -0.12904309 6 14 619 7.39400000 2046003731 2046003731 -1.00000000
0.95639998 8.80381107 2.37285304 45 15 620 9.16800000 2046003733 2046003733 15.00000000
0.24459594 2.23338962 -0.60201311 4 0 625 2.32600000 2046003754 2046003754 -15.00000000
1.15172696 10.49941063 0.18436722 100 1 626 10.56400000 2046003756 2046003756 1.00000000
0.29093784 2.64799285 -0.61501616 3 2 627 2.73400000 2046003759 2046003759 -13.00000000
1.22324085 11.11554909 0.58605802 2 3 628 11.19800000 2046003761 2046003761 3.00000000
0.34962144 3.17699838 -0.62127411 2 4 628 3.25600000 2046003763 2046003763 -11.00000000
0.44437152 4.02506685 -0.64138132 2 6 630 4.10000000 2046003768 2046003768 -9.00000000
0.86141163 7.77767658 -0.96081793 6 8 632 7.88400000 2046003772 2046003772 -7.00000000
1.17418146 10.56795502 2.06684303 50 11 634 10.83200000 2046003779 2046003779 11.00000000
1.14390540 10.26282024 2.38403130 57 13 636 10.59800000 2046003784 2046003784 13.00000000
0.82244748 7.36710501 -0.12939215 6 14 637 7.41400000 2046003786 2046003786 -1.00000000
0.98144543 8.79133511 2.37026477 45 15 637 9.15800000 2046003789 2046003789 15.00000000
0.25239044 2.23252225 -0.60201311 4 0 645 2.32600000 2046003809 2046003809 -15.00000000
1.18791986 10.49135303 0.18429741 94 1 646 10.56000000 2046003812 2046003812 1.00000000
0.30193600 2.66245174 -0.61861539 3 2 647 2.75000000 2046003814 2046003814 -13.00000000
1.27014840 11.18265343 0.58982623 2 3 648 11.27000000 2046003816 2046003816 3.00000000
0.36159536 3.18356156 -0.62280059 2 4 648 3.26400000 2046003818 2046003818 -11.00000000
0.45841894 4.02349138 -0.64138132 2 6 650 4.10000000 2046003823 2046003823 -9.00000000
0.88990796 7.78645611 -0.96228033 4 8 652 7.89600000 2046003828 2046003828 -7.00000000
0.91924059 8.03068447 -0.70718169 4 10 653 8.11400000 2046003832 2046003832 -5.00000000
1.21061611 10.55989170 2.06607985 53 11 654 10.82800000 2046003835 2046003835 11.00000000
0.87782049 7.64520884 -0.40330088 16 12 655 7.70600000 2046003837 2046003837 -3.00000000
1.18061280 10.26650906 2.38583088 59 13 656 10.60600000 2046003839 2046003839 13.00000000
0.84953129 7.37610865 -0.12960157 6 14 657 7.42600000 2046003842 2046003842 -1.00000000
1.01454616 8.79535580 2.37233543 45 15 658 9.16600000 2046003844 2046003844 15.00000000
0.26018184 2.23162746 -0.60201311 4 0 665 2.32600000 2046003865 2046003865 -15.00000000
1.22592580 10.49905968 0.18450683 55 1 666 10.57200000 2046003867 2046003867 1.00000000
0.30941707 2.64589715 -0.61501616 3 2 667 2.73400000 2046003869 2046003869 -13.00000000
1.31568062 11.23369503 0.59275705 2 3 668 11.32600000 2046003871 2046003871 3.00000000
0.37224913 3.17838001 -0.62203735 2 4 668 3.26000000 2046003874 2046003874 -11.00000000
0.47292167 4.02579021 -0.64200705 2 6 670 4.10400000 2046003878 2046003878 -9.00000000
0.92196047 7.82470274 -0.96739882 2 8 672 7.93800000 2046003883 2046003883 -7.00000000
0.94726729 8.02742672 -0.70718169 4 10 673 8.11400000 2046003888 2046003888 -5.00000000
1.24793053 10.55950069 2.06684303 50 11 674 10.83200000 2046003890 2046003890 11.00000000
0.91389197 7.72143459 -0.40748775 82 12 675 7.78600000 2046003892 2046003892 -3.00000000
1.21460736 10.24684334 2.38223171 59 13 676 10.59000000 2046003895 2046003895 13.00000000
0.87621647 7.38104105 -0.12974119 6 14 677 7.43400000 2046003897 2046003897 -1.00000000
1.04552901 8.80729008 2.37647653 45 15 677 9.18200000 2046003899 2046003899 15.00000000
0.26981342 2.24605036 -0.60615420 4 0 685 2.34200000 2046003920 2046003920 -15.00000000
0.32004970 2.65640950 -0.61771560 3 2 687 2.74600000 2046003924 2046003924 -13.00000000
1.36828363 11.34007454 0.59861869 2 3 688 11.43800000 2046003927 2046003927 3.00000000
0.38193041 3.16536665 -0.61974764 2 4 688 3.24800000 2046003929 2046003929 -11.00000000
0.88922119 7.34812832 -1.17231989 9 6 690 7.49400000 2046003934 2046003934 -9.00000000
1.00882161 8.31212425 -1.02808976 6 8 692 8.43600000 2046003938 2046003938 -7.00000000
0.98537904 8.10713959 -0.71450275 4 10 693 8.19800000 2046003943 2046003943 -5.00000000
1.28525686 10.55897808 2.06760621 50 11 694 10.83600000 2046003945 2046003945 11.00000000
0.94518942 7.75388384 -0.40937185 12 12 695 7.82200000 2046003947 2046003947 -3.00000000
1.24989581 10.23867226 2.38133192 60 13 696 10.58600000 2046003950 2046003950 13.00000000
0.90124780 7.37198305 -0.12963648 6 14 697 7.42800000 2046003952 2046003952 -1.00000000
1.07803702 8.80531597 2.37699413 45 15 698 9.18400000 2046003954 2046003954 15.00000000
0.27670351 2.23742580 -0.60408366 4 0 705 2.33400000 2046003975 2046003975 -15.00000000
1.29992986 10.49619865 0.18461156 80 1 706 10.57800000 2046003977 2046003977 1.00000000
0.33027977 2.66301179 -0.61951518 3 2 707 2.75400000 2046003980 2046003980 -13.00000000
0.39394519 3.17180729 -0.62127411 2 4 708 3.25600000 2046003984 2046003984 -11.00000000
1.04693401 8.38143444 -1.03710806 2 8 712 8.51000000 2046003994 2046003994 -7.00000000
1.00674796 8.04829502 -0.70962209 4 10 713 8.14200000 2046003998 2046003998 -5.00000000
1.32259476 10.55832291 2.06836963 53 11 714 10.84000000 2046004000 2046004000 11.00000000
1.04931378 8.36487293 -0.44182014 4 12 715 8.44200000 2046004003 2046004003 -3.00000000
1.28514206 10.23038006 2.38043213 62 13 716 10.58200000 2046004005 2046004005 13.00000000
0.92597693 7.36085558 -0.12949686 6 14 717 7.42000000 2046004007 2046004007 -1.00000000
1.10578382 8.79019260 2.37388825 42 15 717 9.17200000 2046004010 2046004010 15.00000000
0.28231773 2.21919870 -0.59942490 4 0 725 2.31600000 2046004030 2046004030 -15.00000000
0.33908018 2.65797663 -0.61861539 3 2 727 2.75000000 2046004035 2046004035 -13.00000000
0.40551203 3.17430782 -0.62203735 2 4 728 3.26000000 2046004040 2046004040 -11.00000000
1.05696213 8.22809124 -1.01858401 2 8 732 8.35800000 2046004049 2046004049 -7.00000000
1.33122921 10.34887314 -0.91286927 4 10 733 10.47400000 2046004053 2046004053 -5.00000000
1.35994375 10.55753613 2.06913280 50 11 734 10.84400000 2046004056 2046004056 11.00000000
1.07135201 8.30569553 -0.43888932 4 12 735 8.38600000 2046004058 2046004058 -3.00000000
1.32134426 10.22969723 2.38133192 59 13 736 10.58600000 2046004060 2046004060 13.00000000
0.95294803 7.36749458 -0.12967138 6 14 737 7.43000000 2046004063 2046004063 -1.00000000
1.13650525 8.77458572 2.37078238 42 15 738 9.16000000 2046004065 2046004065 15.00000000
0.29106438 2.22586179 -0.60149544 4 0 745 2.32400000 2046004086 2046004086 -15.00000000
1.37005937 10.46307468 0.18419270 42 1 746 10.55400000 2046004088 2046004088 1.00000000
0.34734279 2.64904809 -0.61681581 3 2 747 2.74200000 2046004090 2046004090 -13.00000000
0.41556764 3.16508675 -0.62051088 2 4 748 3.25200000 2046004095 2046004095 -11.00000000
1.08983386 8.25583935 -1.02248383 2 8 752 8.39000000 2046004104 2046004104 -7.00000000
1.35167980 10.22565079 -0.90241057 4 10 753 10.35400000 2046004109 2046004109 -5.00000000
1.39575779 10.54493999 2.06760621 53 11 754 10.83600000 2046004111 2046004111 11.00000000
1.09298992 8.24646664 -0.43595850 4 12 755 8.33000000 2046004113 2046004113 -3.00000000
1.35755718 10.22888565 2.38223171 62 13 756 10.59000000 2046004116 2046004116 13.00000000
0.97971332 7.37205219 -0.12981100 8 14 757 7.43800000 2046004118 2046004118 -1.00000000
1.16737807 8.78417301 2.37440586 45 15 757 9.17400000 2046004120 2046004120 15.00000000
0.30011818 2.23440552 -0.60408366 4 0 765 2.33400000 2046004141 2046004141 -15.00000000
1.40737355 10.46417427 0.18429741 13 1 766 10.56000000 2046004143 2046004143 1.00000000
0.35606739 2.64395690 -0.61591601 3 2 767 2.73800000 2046004146 2046004146 -13.00000000
1.06578851 7.90351868 0.41795495 2 3 768 7.98600000 2046004148 2046004148 3.00000000
0.42871228 3.17918205 -0.62356383 2 4 768 3.26800000 2046004150 2046004150 -11.00000000
0.99649453 7.37023258 -1.17795157 194 6 770 7.53000000 2046004155 2046004155 -9.00000000
0.73251945 5.40362406 -0.66955018 2 8 772 5.49400000 2046004159 2046004159 -7.00000000
1.09472454 8.06495190 -0.71206242 4 10 773 8.17000000 2046004164 2046004164 -5.00000000
1.43255794 10.54000378 2.06760621 53 11 774 10.83600000 2046004166 2046004166 11.00000000
1.10830224 8.14365005 -0.43072492 4 12 775 8.23000000 2046004169 2046004169 -3.00000000
1.39167571 10.21249962 2.37953234 60 13 776 10.57800000 2046004171 2046004171 13.00000000
1.00544059 7.36858749 -0.12981100 8 14 777 7.43800000 2046004173 2046004173 -1.00000000
1.20087337 8.78940582 2.37699413 45 15 778 9.18400000 2046004176 2046004176 15.00000000
0.30910718 2.24488068 -0.60718948 4 0 784 2.34600000 2046004196 2046004196 -15.00000000
1.04659057 7.59102440 0.13375524 51 1 785 7.66400000 2046004199 2046004199 1.00000000
0.36430013 2.63890052 -0.61501616 3 2 786 2.73400000 2046004201 2046004201 -13.00000000
1.11277580 8.05030251 0.42591003 2 3 787 8.13800000 2046004203 2046004203 3.00000000
0.43871483 3.17385340 -0.62280059 4 4 787 3.26400000 2046004206 2046004206 -11.00000000
1.02282774 7.38058424 -1.18014157 197 6 789 7.54400000 2046004210 2046004210 -9.00000000
0.74606353 5.36970615 -0.66565037 2 8 791 5.46200000 2046004215 2046004215 -7.00000000
1.46966887 10.55075073 2.07065916 53 11 793 10.85200000 2046004222 2046004222 11.00000000
1.10495317 7.92233801 -0.41921100 4 12 794 8.01000000 2046004224 2046004224 -3.00000000
1.42283857 10.18852806 2.37503314 64 13 795 10.55800000 2046004226 2046004226 13.00000000
1.03153181 7.37709522 -0.13002042 8 14 796 7.45000000 2046004229 2046004229 -1.00000000
1.22687495 8.77411079 2.37388825 42 15 796 9.17200000 2046004231 2046004231 15.00000000
0.31477982 2.22848511 -0.60304838 4 0 804 2.33000000 2046004252 2046004252 -15.00000000
1.07980251 7.63484478 0.13459297 39 1 805 7.71200000 2046004254 2046004254 1.00000000
0.37569526 2.65304875 -0.61861539 3 2 806 2.75000000 2046004256 2046004256 -13.00000000
0.44868857 3.16452742 -0.62127411 2 4 807 3.25600000 2046004261 2046004261 -11.00000000
1.05136454 7.39652634 -1.18327034 221 6 809 7.56400000 2046004265 2046004265 -9.00000000
0.76928347 5.39851284 -0.66955018 2 8 811 5.49400000 2046004270 2046004270 -7.00000000
1.15972626 8.12832069 -0.71833766 4 10 812 8.24200000 2046004275 2046004275 -5.00000000
1.50648892 10.54555702 2.07065916 53 11 813 10.85200000 2046004277 2046004277 11.00000000
1.13429725 7.93029547 -0.41983905 4 12 814 8.02200000 2046004279 2046004279 -3.00000000
1.45894706 10.18735790 2.37593293 59 13 815 10.56200000 2046004282 2046004282 13.00000000
1.05756021 7.37542915 -0.13005534 10 14 816 7.45200000 2046004284 2046004284 -1.00000000
1.25584960 8.75830078 2.37078238 45 15 816 9.16000000 2046004286 2046004286 15.00000000
0.32227990 2.22546101 -0.60253072 3 0 824 2.32800000 2046004307 2046004307 -15.00000000
1.10702050 7.63498688 0.13466276 30 1 825 7.71600000 2046004309 2046004309 1.00000000
0.38551378 2.65557837 -0.61951518 3 2 826 2.75400000 2046004312 2046004312 -13.00000000
0.46142644 3.17459893 -0.62356383 4 4 827 3.26800000 2046004316 2046004316 -11.00000000
1.07717681 7.39281130 -1.18327034 211 6 829 7.56400000 2046004321 2046004321 -9.00000000
0.78353268 5.36436653 -0.66565037 2 8 831 5.46200000 2046004325 2046004325 -7.00000000
1.18953383 8.13407993 -0.71920919 4 10 832 8.25200000 2046004330 2046004330 -5.00000000
1.54385936 10.54411888 2.07142234 53 11 833 10.85600000 2046004332 2046004332 11.00000000
1.14864624 7.83538532 -0.41502413 4 12 834 7.93000000 2046004335 2046004335 -3.00000000
1.49563074 10.18991566 2.37773275 57 13 835 10.57000000 2046004337 2046004337 13.00000000
1.08649695 7.39345551 -0.13043928 10 14 836 7.47400000 2046004339 2046004339 -1.00000000
1.28641415 8.75386333 2.37078238 42 15 836 9.16000000 2046004341 2046004341 15.00000000
0.32976270 2.22241139 -0.60201311 4 0 844 2.32600000 2046004362 2046004362 -15.00000000
1.13278317 7.62514257 0.13455805 42 1 845 7.71000000 2046004365 2046004365 1.00000000
0.39306095 2.64265132 -0.61681581 3 2 846 2.74200000 2046004367 2046004367 -13.00000000
0.47192669 3.16908526 -0.62280059 4 4 847 3.26400000 2046004371 2046004371 -11.00000000
1.10355926 7.39291334 -1.18389606 211 6 849 7.56800000 2046004376 2046004376 -9.00000000
0.80695319 5.39301062 -0.66955018 2 8 851 5.49400000 2046004381 2046004381 -7.00000000
1.21496797 8.11017418 -0.71746606 4 10 852 8.23200000 2046004385 2046004385 -5.00000000
1.57949102 10.53089905 2.06989598 53 11 853 10.84800000 2046004388 2046004388 11.00000000
1.14692378 7.63776731 -0.40476629 4 12 854 7.73400000 2046004390 2046004390 -3.00000000
1.53119099 10.18463230 2.37773275 60 13 855 10.57000000 2046004392 2046004392 13.00000000
1.11378646 7.39950514 -0.13061380 12 14 856 7.48400000 2046004394 2046004394 -1.00000000
1.31935370 8.75482082 2.37233543 45 15 857 9.16600000 2046004397 2046004397 15.00000000
0.33984008 2.23652625 -0.60615420 4 0 864 2.34200000 2046004418 2046004418 -15.00000000
1.15999460 7.62509584 0.13462786 48 1 865 7.71400000 2046004420 2046004420 1.00000000
0.40169626 2.63740993 -0.61591601 3 2 866 2.73800000 2046004422 2046004422 -13.00000000
0.48416978 3.17518187 -0.62432700 2 4 867 3.27200000 2046004427 2046004427 -11.00000000
1.13204467 7.40659046 -1.18671191 179 6 869 7.58600000 2046004431 2046004431 -9.00000000
0.81855875 5.34306812 -0.66370046 2 8 871 5.44600000 2046004436 2046004436 -7.00000000
1.24538481 8.11966896 -0.71868628 8 10 872 8.24600000 2046004441 2046004441 -5.00000000
1.61683702 10.52920246 2.07065916 56 11 873 10.85200000 2046004443 2046004443 11.00000000
1.17357755 7.63371706 -0.40476629 4 12 874 7.73400000 2046004445 2046004445 -3.00000000
1.56613982 10.17537403 2.37683272 60 13 875 10.56600000 2046004447 2046004447 13.00000000
1.14021790 7.39952469 -0.13068362 12 14 876 7.48800000 2046004450 2046004450 -1.00000000
1.34867263 8.75230694 2.37285304 45 15 876 9.16800000 2046004452 2046004452 15.00000000
0.34883246 2.24296212 -0.60822475 4 0 884 2.35000000 2046004473 2046004473 -15.00000000
1.18752694 7.62692785 0.13473257 12 1 885 7.72000000 2046004475 2046004475 1.00000000
0.41150039 2.63984275 -0.61681581 3 2 886 2.74200000 2046004477 2046004477 -13.00000000
0.49525028 3.17347240 -0.62432700 2 4 887 3.27200000 2046004482 2046004482 -11.00000000
1.16063905 7.42015886 -1.18952763 156 6 889 7.60400000 2046004487 2046004487 -9.00000000
0.83843440 5.34802294 -0.66467541 2 8 891 5.45400000 2046004491 2046004491 -7.00000000
1.27557373 8.12708187 -0.71973211 8 10 892 8.25800000 2046004496 2046004496 -5.00000000
1.65479994 10.53125286 2.07218575 56 11 893 10.86000000 2046004498 2046004498 11.00000000
1.59922361 10.15444469 2.37323356 56 13 895 10.55000000 2046004503 2046004503 13.00000000
1.16884315 7.41327715 -0.13099776 8 14 896 7.50600000 2046004505 2046004505 -1.00000000
1.37981749 8.75136185 2.37388825 45 15 896 9.17200000 2046004507 2046004507 15.00000000
0.35514203 2.23219132 -0.60563654 3 0 904 2.34000000 2046004528 2046004528 -15.00000000
0.42378131 2.65763450 -0.62131482 3 2 906 2.76200000 2046004533 2046004533 -13.00000000
0.50570577 3.16784692 -0.62356383 2 4 907 3.26800000 2046004537 2046004537 -11.00000000
0.86338335 5.38426495 -0.66955018 2 8 911 5.49400000 2046004546 2046004546 -7.00000000
1.30361891 8.12061310 -0.71955782 8 10 912 8.25600000 2046004551 2046004551 -5.00000000
1.69279695 10.53316593 2.07371211 53 11 913 10.86800000 2046004553 2046004553 11.00000000
1.63527918 10.15264797 2.37413335 59 13 915 10.55400000 2046004558 2046004558 13.00000000
1.19375813 7.40322971 -0.13089305 6 14 916 7.50000000 2046004560 2046004560 -1.00000000
1.40912688 8.73886395 2.37181783 42 15 916 9.16400000 2046004563 2046004563 15.00000000
0.36231127 2.22712445 -0.60460126 4 0 924 2.33600000 2046004583 2046004583 -15.00000000
0.43368277 2.65998578 -0.62221462 3 2 926 2.76600000 2046004588 2046004588 -13.00000000
0.51739305 3.16993761 -0.62432700 2 4 927 3.27200000 2046004593 2046004593 -11.00000000
0.88217270 5.38121843 -0.66955018 2 8 931 5.49400000 2046004602 2046004602 -7.00000000
1.32518125 8.07472515 -0.71589726 4 10 932 8.21400000 2046004606 2046004606 -5.00000000
1.73019075 10.53106689 2.07447529 53 11 933 10.87200000 2046004609 2046004609 11.00000000
1.28392112 7.80626249 -0.41460544 4 12 934 7.92200000 2046004611 2046004611 -3.00000000
1.67134178 10.15072441 2.37503314 57 13 935 10.55800000 2046004613 2046004613 13.00000000
1.22869921 7.45426369 -0.13187039 2 14 936 7.55600000 2046004616 2046004616 -1.00000000
1.43925977 8.72220421 2.36871195 45 15 937 9.15200000 2046004618 2046004618 15.00000000
0.36906165 2.22209930 -0.60356599 4 0 943 2.33200000 2046004639 2046004639 -15.00000000
0.44058147 2.64699912 -0.61951518 3 2 945 2.75400000 2046004643 2046004643 -13.00000000
0.52790207 3.16820431 -0.62432700 2 4 946 3.27200000 2046004648 2046004648 -11.00000000
0.90001261 5.37826347 -0.66955018 2 8 950 5.49400000 2046004657 2046004657 -7.00000000
1.35195076 8.07028580 -0.71589726 4 10 951 8.21400000 2046004662 2046004662 -5.00000000
1.76380467 10.51752663 2.07294893 53 11 952 10.86400000 2046004664 2046004664 11.00000000
1.35080409 8.04620361 -0.42758477 4 12 953 8.17000000 2046004666 2046004666 -3.00000000
1.70370173 10.13743877 2.37323356 56 13 954 10.55000000 2046004669 2046004669 13.00000000
1.46793628 8.72525978 2.37078238 45 15 955 9.16000000 2046004673 2046004673 15.00000000
0.37875497 2.23222542 -0.60667187 4 0 963 2.34400000 2046004694 2046004694 -15.00000000
0.44851187 2.63776040 -0.61771560 3 2 965 2.74600000 2046004698 2046004698 -13.00000000
0.54159349 3.18182564 -0.62737995 2 4 966 3.28800000 2046004703 2046004703 -11.00000000
0.68024379 3.98797154 -0.64075559 2 6 968 4.09600000 2046004708 2046004708 -9.00000000
0.91342932 5.34378147 -0.66565037 2 8 970 5.46200000 2046004712 2046004712 -7.00000000
1.38011301 8.06551743 -0.71589726 4 10 971 8.21400000 2046004717 2046004717 -5.00000000
1.80183291 10.51904583 2.07447529 53 11 972 10.87200000 2046004719 2046004719 11.00000000
1.73709953 10.11990643 2.37053418 56 13 974 10.53800000 2046004724 2046004724 13.00000000
1.50067425 8.73340988 2.37440586 45 15 975 9.17400000 2046004728 2046004728 15.00000000
0.38693395 2.23082209 -0.60667187 4 0 984 2.34400000 2046004749 2046004749 -15.00000000
0.45817673 2.63609886 -0.61771560 3 2 986 2.74600000 2046004754 2046004754 -13.00000000
0.55123264 3.16821408 -0.62509024 2 4 987 3.27600000 2046004758 2046004758 -11.00000000
0.70232016 4.02826405 -0.64763868 2 6 989 4.14000000 2046004763 2046004763 -9.00000000
1.39936829 8.00152683 -0.71066791 4 10 992 8.15400000 2046004772 2046004772 -5.00000000
1.84172916 10.52010727 2.07600188 53 11 993 10.88000000 2046004775 2046004775 11.00000000
1.77215886 10.10195446 2.36783481 57 13 995 10.52600000 2046004779 2046004779 13.00000000
1.53453147 8.72948647 2.37492347 42 15 997 9.17600000 2046004784 2046004784 15.00000000
0.39404505 2.22565341 -0.60563654 4 0 1004 2.34000000 2046004804 2046004804 -15.00000000
0.46669483 2.63064599 -0.61681581 3 2 1006 2.74200000 2046004809 2046004809 -13.00000000
0.56091529 3.15853858 -0.62356383 2 4 1007 3.26800000 2046004814 2046004814 -11.00000000
