# .PCD v0.7 - Point Cloud Data file format
VERSION 0.7
FIELDS x y z intensity laser_id azimuth distance_m adjustedtime timestamp vertical_angle
SIZE 4 4 4 1 1 2 8 8 4 8
TYPE F F F U U U F U U F
COUNT 1 1 1 1 1 1 1 1 1 1
WIDTH 522
HEIGHT 1
VIEWPOINT 0 0 0 1 0 0 0
POINTS 522
DATA ascii
-4.33864832 10.75473976 1.42392147 21 7 33803 11.68400000 2685594320 2685594320 7.00000000
-1.83655787 4.55479288 -0.60300952 2 8 33804 4.94800000 2685594323 2685594323 -7.00000000
-4.33475208 10.75049019 1.83591485 18 9 33804 11.73600000 2685594325 2685594325 9.00000000
-2.70046282 6.70070982 -0.63205343 4 10 33805 7.25200000 2685594327 2685594327 -5.00000000
-4.20906067 10.44928169 2.18972397 46 11 33806 11.47600000 2685594329 2685594329 11.00000000
-4.32188034 10.73476982 -0.60646904 8 12 33807 11.58800000 2685594332 2685594332 -3.00000000
-3.87532520 9.63045883 2.39662862 62 13 33808 10.65400000 2685594334 2685594334 13.00000000
-4.31369972 10.72525597 -0.20178473 8 14 33809 11.56200000 2685594336 2685594336 -1.00000000
-3.48605514 8.67183399 2.50433302 38 15 33810 9.67600000 2685594339 2685594339 15.00000000
-0.81067061 2.02272463 -0.58389574 4 0 33816 2.25600000 2685594359 2685594359 -15.00000000
-4.29574585 10.72384357 0.20164511 16 1 33817 11.55400000 2685594362 2685594362 1.00000000
-0.94887352 2.36995363 -0.58937174 3 2 33818 2.62000000 2685594364 2685594364 -13.00000000
-4.30126333 10.74304771 0.60646904 23 3 33818 11.58800000 2685594366 2685594366 3.00000000
-1.12912309 2.82158065 -0.59074467 2 4 33819 3.09600000 2685594369 2685594369 -11.00000000
-4.29887342 10.74794960 1.01274967 55 5 33820 11.62000000 2685594371 2685594371 5.00000000
-1.40861404 3.52356982 -0.60102123 2 6 33821 3.84200000 2685594373 2685594373 -9.00000000
-4.29338503 10.74510479 1.42075276 21 7 33822 11.65800000 2685594375 2685594375 7.00000000
-1.82291603 4.56454515 -0.60349697 2 8 33823 4.95200000 2685594378 2685594378 -7.00000000
-4.29395008 10.75196457 1.83372486 18 9 33823 11.72200000 2685594380 2685594380 9.00000000
-2.66197801 6.66891861 -0.62821859 4 10 33824 7.20800000 2685594382 2685594382 -5.00000000
-4.17729664 10.47047615 2.19125056 46 11 33825 11.48400000 2685594385 2685594385 11.00000000
-4.27738142 10.72678089 -0.60521299 8 12 33826 11.56400000 2685594387 2685594387 -3.00000000
-3.87511373 9.72290897 2.41642427 66 13 33827 10.74200000 2685594389 2685594389 13.00000000
-4.26774931 10.71349335 -0.20129606 8 14 33828 11.53400000 2685594392 2685594392 -1.00000000
-3.46022439 8.68633270 2.50536847 40 15 33828 9.68000000 2685594394 2685594394 15.00000000
-0.80218023 2.02195072 -0.58286047 4 0 33836 2.25200000 2685594415 2685594415 -15.00000000
-4.25091553 10.72018433 0.20129606 13 1 33837 11.53400000 2685594417 2685594417 1.00000000
-0.94346714 2.38049793 -0.59117138 3 2 33838 2.62800000 2685594419 2685594419 -13.00000000
-4.25711346 10.74128532 0.60552704 23 3 33838 11.57000000 2685594422 2685594422 3.00000000
-1.11926699 2.82550502 -0.59074467 2 4 33839 3.09600000 2685594424 2685594424 -11.00000000
-4.25326157 10.74251270 1.01083231 72 5 33840 11.59800000 2685594426 2685594426 5.00000000
-1.38612986 3.50275040 -0.59664106 2 6 33841 3.81400000 2685594428 2685594428 -9.00000000
-4.25293112 10.75264168 1.41977787 21 7 33842 11.65000000 2685594431 2685594431 7.00000000
-1.82448673 4.61518621 -0.60934669 2 8 33843 5.00000000 2685594433 2685594433 -7.00000000
-4.24695158 10.74300575 1.82965755 18 9 33843 11.69600000 2685594435 2685594435 9.00000000
-2.63429022 6.66705227 -0.62717271 4 10 33844 7.19600000 2685594438 2685594438 -5.00000000
-4.13711643 10.47586346 2.18934250 50 11 33845 11.47400000 2685594440 2685594440 11.00000000
-4.23991203 10.74164581 -0.60521299 8 12 33846 11.56400000 2685594442 2685594442 -3.00000000
-3.87547874 9.82338905 2.43801951 60 13 33847 10.83800000 2685594445 2685594445 13.00000000
-4.22592545 10.71716404 -0.20108663 12 14 33848 11.52200000 2685594447 2685594447 -1.00000000
-3.42553067 8.69176769 2.50329781 36 15 33849 9.67200000 2685594449 2685594449 15.00000000
-0.79476434 2.02280164 -0.58234286 4 0 33855 2.25000000 2685594470 2685594470 -15.00000000
-4.20730257 10.71374702 0.20091210 13 1 33856 11.51200000 2685594472 2685594472 1.00000000
-0.93129593 2.37272930 -0.58847195 3 2 33857 2.61600000 2685594475 2685594475 -13.00000000
-4.21667624 10.74864292 0.60510832 21 3 33858 11.56200000 2685594477 2685594477 3.00000000
-1.11419308 2.84016681 -0.59303439 2 4 33858 3.10800000 2685594479 2685594479 -11.00000000
-4.20670557 10.72873497 1.00821757 85 5 33859 11.56800000 2685594481 2685594481 5.00000000
-1.37162364 3.49997091 -0.59538954 2 6 33860 3.80600000 2685594484 2685594484 -9.00000000
-4.20856285 10.74450588 1.41685295 21 7 33861 11.62600000 2685594486 2685594486 7.00000000
-1.80338287 4.60642338 -0.60739678 2 8 33862 4.98400000 2685594488 2685594488 -7.00000000
-4.20698214 10.74599361 1.82778025 15 9 33862 11.68400000 2685594491 2685594491 9.00000000
-2.60926294 6.66832972 -0.62647545 4 10 33863 7.18800000 2685594493 2685594493 -5.00000000
-4.09734917 10.47672653 2.18667102 46 11 33864 11.46000000 2685594495 2685594495 11.00000000
-4.18972540 10.71844292 -0.60311955 8 12 33865 11.52400000 2685594498 2685594498 -3.00000000
-3.87692094 9.92331314 2.45961475 64 13 33866 10.93400000 2685594500 2685594500 13.00000000
-4.18672562 10.72180557 -0.20091210 17 14 33867 11.51200000 2685594502 2685594502 -1.00000000
-3.39961338 8.70608521 2.50433302 38 15 33867 9.67600000 2685594505 2685594505 15.00000000
-0.78979909 2.03096509 -0.58389574 4 0 33875 2.25600000 2685594525 2685594525 -15.00000000
-4.16625643 10.71904945 0.20073758 13 1 33876 11.50200000 2685594528 2685594528 1.00000000
-0.92018521 2.36869979 -0.58667237 3 2 33877 2.60800000 2685594530 2685594530 -13.00000000
-4.16900969 10.73723125 0.60364294 23 3 33878 11.53400000 2685594532 2685594532 3.00000000
-1.10427225 2.84403896 -0.59303439 2 4 33878 3.10800000 2685594534 2685594534 -11.00000000
-4.16850853 10.74149609 1.00804329 17 5 33879 11.56600000 2685594537 2685594537 5.00000000
-1.36939883 3.53052115 -0.59976971 2 6 33880 3.83400000 2685594539 2685594539 -9.00000000
-4.16170359 10.73506927 1.41368437 19 7 33881 11.60000000 2685594541 2685594541 7.00000000
-4.15265799 10.71728611 -1.41124701 2 8 33882 11.58000000 2685594544 2685594544 -7.00000000
-4.16328764 10.75028801 1.82590306 15 9 33883 11.67200000 2685594546 2685594546 9.00000000
-2.58884835 6.68482876 -0.62717271 4 10 33883 7.19600000 2685594548 2685594548 -5.00000000
-4.06217098 10.49462700 2.18743443 43 11 33884 11.46400000 2685594551 2685594551 11.00000000
-4.14075565 10.70319939 -0.60144478 8 12 33885 11.49200000 2685594553 2685594553 -3.00000000
-3.87177658 10.01312447 2.47851062 62 13 33886 11.01800000 2685594555 2685594555 13.00000000
-4.14206553 10.71770191 -0.20056306 19 14 33887 11.49200000 2685594558 2685594558 -1.00000000
-3.36837721 8.72028923 2.50485063 38 15 33888 9.67800000 2685594560 2685594560 15.00000000
-0.78409266 2.03731537 -0.58493102 4 0 33895 2.26000000 2685594581 2685594581 -15.00000000
-4.12450743 10.72232819 0.20052814 10 1 33896 11.49000000 2685594583 2685594583 1.00000000
-0.91470861 2.37917328 -0.58847195 3 2 33897 2.61600000 2685594585 2685594585 -13.00000000
-4.12004185 10.72188854 0.60196817 21 3 33898 11.50200000 2685594587 2685594587 3.00000000
-1.09011269 2.83688045 -0.59074467 2 4 33898 3.09600000 2685594590 2685594590 -11.00000000
-4.12241650 10.73366261 1.00595152 17 5 33899 11.54200000 2685594592 2685594592 5.00000000
-1.35565090 3.53159142 -0.59914398 2 6 33900 3.83000000 2685594594 2685594594 -9.00000000
-4.12136173 10.74211788 1.41270947 19 7 33901 11.59200000 2685594597 2685594597 7.00000000
-4.10242891 10.69835281 -1.40685976 2 8 33902 11.54400000 2685594599 2685594599 -7.00000000
-4.11771393 10.73821354 1.82152295 18 9 33902 11.64400000 2685594601 2685594601 9.00000000
-2.57405448 6.71614981 -0.62926447 4 10 33903 7.22000000 2685594604 2685594604 -5.00000000
-4.02832222 10.51607609 2.18896079 50 11 33904 11.47200000 2685594606 2685594606 11.00000000
-4.10194063 10.71385765 -0.60123545 8 12 33905 11.48800000 2685594608 2685594608 -3.00000000
-3.85769439 10.08117962 2.49200773 64 13 33906 11.07800000 2685594611 2685594611 13.00000000
-4.09534216 10.70781422 -0.20010929 19 14 33907 11.46600000 2685594613 2685594613 -1.00000000
-3.34151149 8.73682404 2.50640368 38 15 33907 9.68400000 2685594615 2685594615 15.00000000
-0.77422601 2.03281856 -0.58286047 4 0 33915 2.25200000 2685594636 2685594636 -15.00000000
-4.08136272 10.72170925 0.20024891 10 1 33916 11.47400000 2685594638 2685594638 1.00000000
-0.91055596 2.39327979 -0.59117138 3 2 33917 2.62800000 2685594640 2685594640 -13.00000000
-4.08046103 10.73060417 0.60165417 18 3 33918 11.49600000 2685594643 2685594643 3.00000000
-1.08159912 2.84433866 -0.59150791 4 4 33918 3.10000000 2685594645 2685594645 -11.00000000
-4.07926130 10.73308754 1.00455713 17 5 33919 11.52600000 2685594647 2685594647 5.00000000
-1.34752393 3.54738164 -0.60102123 2 6 33920 3.84200000 2685594650 2685594650 -9.00000000
-4.08031654 10.74715900 1.41149068 19 7 33921 11.58200000 2685594652 2685594652 7.00000000
-4.07351112 10.73487949 -1.40978456 2 8 33922 11.56800000 2685594654 2685594654 -7.00000000
-4.07552671 10.74584484 1.82027149 15 9 33923 11.63600000 2685594657 2685594657 9.00000000
-2.56472588 6.76235247 -0.63275069 4 10 33923 7.26000000 2685594659 2685594659 -5.00000000
-3.99228573 10.53190899 2.18934250 50 11 33924 11.47400000 2685594661 2685594661 11.00000000
-4.05885649 10.71316910 -0.60039806 8 12 33925 11.47200000 2685594663 2685594663 -3.00000000
-3.82662177 10.10551834 2.49470711 56 13 33926 11.09000000 2685594666 2685594666 13.00000000
-4.05227709 10.70708275 -0.19983006 12 14 33927 11.45000000 2685594668 2685594668 -1.00000000
-3.30263209 8.73094368 2.50122714 38 15 33928 9.66400000 2685594670 2685594670 15.00000000
-0.76505351 2.03216052 -0.58182520 4 0 33937 2.24800000 2685594691 2685594691 -15.00000000
-4.03030539 10.71109962 0.19976024 13 1 33938 11.44600000 2685594693 2685594693 1.00000000
-0.90135974 2.39675856 -0.59117138 3 2 33939 2.62800000 2685594696 2685594696 -13.00000000
-4.03360653 10.73123646 0.60081679 21 3 33940 11.48000000 2685594698 2685594698 3.00000000
-1.06928825 2.84479523 -0.59074467 4 4 33940 3.09600000 2685594700 2685594700 -11.00000000
-4.03171301 10.73188591 1.00298834 17 5 33941 11.50800000 2685594703 2685594703 5.00000000
-1.32972682 3.54143381 -0.59914398 2 6 33942 3.83000000 2685594705 2685594705 -9.00000000
-4.03553295 10.75345516 1.41027200 19 7 33943 11.57200000 2685594707 2685594707 7.00000000
-1.74564040 4.65406370 -0.61032170 2 8 33944 5.00800000 2685594710 2685594710 -7.00000000
-4.03264523 10.75146294 1.81870711 21 9 33944 11.62600000 2685594712 2685594712 9.00000000
-2.53174758 6.75349426 -0.63100755 4 10 33945 7.24000000 2685594714 2685594714 -5.00000000
-3.94699478 10.53429127 2.18667102 46 11 33946 11.46000000 2685594716 2685594716 11.00000000
-4.01769114 10.72867489 -0.60039806 8 12 33947 11.47200000 2685594719 2685594719 -3.00000000
-3.78915739 10.12378693 2.49560690 56 13 33948 11.09400000 2685594721 2685594721 13.00000000
-4.00693130 10.71132565 -0.19962062 8 14 33949 11.43800000 2685594723 2685594723 -1.00000000
-3.26790190 8.73575211 2.49915671 38 15 33949 9.65600000 2685594726 2685594726 15.00000000
-0.76132703 2.04387045 -0.58441341 4 0 33957 2.25800000 2685594746 2685594746 -15.00000000
-3.98870587 10.71385860 0.19955082 13 1 33958 11.43400000 2685594749 2685594749 1.00000000
-0.89026958 2.39258456 -0.58937174 3 2 33959 2.62000000 2685594751 2685594751 -13.00000000
-3.99612308 10.74525070 0.60081679 18 3 33960 11.48000000 2685594753 2685594753 3.00000000
-1.06482613 2.86323142 -0.59379756 2 4 33960 3.11200000 2685594756 2685594756 -11.00000000
-3.98797965 10.72908592 1.00141943 17 5 33961 11.49000000 2685594758 2685594758 5.00000000
-1.31735682 3.54605389 -0.59914398 2 6 33962 3.83000000 2685594760 2685594760 -9.00000000
-3.98760748 10.73956203 1.40661597 21 7 33963 11.54200000 2685594763 2685594763 7.00000000
-3.97951722 10.72350788 -1.40442228 2 8 33964 11.52400000 2685594765 2685594765 -7.00000000
-3.98840332 10.75320625 1.81651700 18 9 33965 11.61200000 2685594767 2685594767 9.00000000
-3.97494555 10.71692276 -1.00002503 4 10 33965 11.47400000 2685594769 2685594769 -5.00000000
-3.90746951 10.54064178 2.18514466 43 11 33966 11.45200000 2685594772 2685594772 11.00000000
-3.97119594 10.71828651 -0.59903735 8 12 33967 11.44600000 2685594774 2685594774 -3.00000000
-3.75244212 10.13329697 2.49470711 55 13 33968 11.09000000 2685594776 2685594776 13.00000000
-3.96188259 10.70461845 -0.19923668 21 14 33969 11.41600000 2685594779 2685594779 -1.00000000
-3.23653197 8.74948311 2.49967432 36 15 33970 9.65800000 2685594781 2685594781 15.00000000
-0.75824547 2.05531430 -0.58700162 4 0 33975 2.26800000 2685594802 2685594802 -15.00000000
-3.95156860 10.71695518 0.19937629 33 1 33976 11.42400000 2685594804 2685594804 1.00000000
-0.88409638 2.39902663 -0.59027159 3 2 33977 2.62400000 2685594806 2685594806 -13.00000000
-3.95337224 10.73338795 0.59945607 10 3 33978 11.45400000 2685594809 2685594809 3.00000000
-1.05582583 2.86656237 -0.59379756 2 4 33978 3.11200000 2685594811 2685594811 -11.00000000
-3.95356536 10.73969173 1.00124514 12 5 33979 11.48800000 2685594813 2685594813 5.00000000
-1.30211747 3.53905153 -0.59726679 2 6 33980 3.81800000 2685594816 2685594816 -9.00000000
-3.94768238 10.73526764 1.40442228 21 7 33981 11.52400000 2685594818 2685594818 7.00000000
-1.72021365 4.68044472 -0.61227161 2 8 33982 5.02400000 2685594820 2685594820 -7.00000000
-3.95307302 10.75572205 1.81495261 21 9 33982 11.60200000 2685594822 2685594822 9.00000000
-2.49377131 6.78883886 -0.63275069 4 10 33983 7.26000000 2685594825 2685594825 -5.00000000
-3.88448524 10.58051014 2.19086885 53 11 33984 11.48200000 2685594827 2685594827 11.00000000
-3.92580771 10.69883442 -0.59725791 8 12 33985 11.41200000 2685594829 2685594829 -3.00000000
-3.71589208 10.13222885 2.49155784 53 13 33986 11.07600000 2685594832 2685594832 13.00000000
-3.92548060 10.70950127 -0.19909705 6 14 33987 11.40800000 2685594834 2685594834 -1.00000000
-3.21122241 8.76086140 2.50019193 40 15 33987 9.66000000 2685594836 2685594836 15.00000000
-0.74841720 2.05068946 -0.58493102 4 0 33995 2.26000000 2685594857 2685594857 -15.00000000
-3.90317154 10.70062542 0.19881782 6 1 33996 11.39200000 2685594859 2685594859 1.00000000
-0.87838674 2.40942168 -0.59207118 3 2 33997 2.63200000 2685594862 2685594862 -13.00000000
-3.91109538 10.73398685 0.59872335 10 3 33998 11.44000000 2685594864 2685594864 3.00000000
-1.04178059 2.85916281 -0.59150791 2 4 33998 3.10000000 2685594866 2685594866 -11.00000000
-3.91605282 10.75342655 1.00124514 12 5 33999 11.48800000 2685594869 2685594869 5.00000000
-1.29853892 3.56770658 -0.60133410 2 6 34000 3.84400000 2685594871 2685594871 -9.00000000
-3.90882802 10.74525166 1.40393484 14 7 34001 11.52000000 2685594873 2685594873 7.00000000
-1.70793521 4.69761467 -0.61373401 2 8 34002 5.03600000 2685594875 2685594875 -7.00000000
-3.90890241 10.75714302 1.81276262 12 9 34003 11.58800000 2685594878 2685594878 9.00000000
-2.47958493 6.82371855 -0.63519102 4 10 34003 7.28800000 2685594880 2685594880 -5.00000000
-3.87165546 10.66043663 2.20460725 56 11 34004 11.55400000 2685594882 2685594882 11.00000000
-3.92182970 10.80446625 -0.60238683 4 12 34005 11.51000000 2685594885 2685594885 -3.00000000
-3.67518473 10.13048267 2.48795867 54 13 34006 11.06000000 2685594887 2685594887 13.00000000
-3.90784121 10.77765656 -0.20010929 6 14 34007 11.46600000 2685594889 2685594889 -1.00000000
-3.18106532 8.77802086 2.50174499 38 15 34008 9.66600000 2685594892 2685594892 15.00000000
-0.73892903 2.04796720 -0.58337814 4 0 34016 2.25400000 2685594912 2685594912 -15.00000000
-3.89784336 10.80891514 0.20056306 6 1 34017 11.49200000 2685594915 2685594915 1.00000000
-0.86690682 2.40529156 -0.59027159 3 2 34018 2.62400000 2685594917 2685594917 -13.00000000
-3.89474082 10.81213760 0.60228217 7 3 34019 11.50800000 2685594919 2685594919 3.00000000
-1.02730203 2.85187936 -0.58921820 2 4 34019 3.08800000 2685594922 2685594922 -11.00000000
-3.90090942 10.83519268 1.00752044 51 5 34020 11.56000000 2685594924 2685594924 5.00000000
-1.28545392 3.57244205 -0.60133410 2 6 34021 3.84400000 2685594926 2685594926 -9.00000000
-3.89427400 10.82862091 1.41295314 51 7 34022 11.59400000 2685594928 2685594928 7.00000000
-1.68802023 4.69637060 -0.61275905 2 8 34023 5.02800000 2685594931 2685594931 -7.00000000
-3.87734246 10.78745270 1.81557846 37 9 34023 11.60600000 2685594933 2685594933 9.00000000
-2.45455813 6.83276081 -0.63519102 4 10 34024 7.28800000 2685594935 2685594935 -5.00000000
-3.83852768 10.69118500 2.20804167 59 11 34025 11.57200000 2685594938 2685594938 11.00000000
-3.91593194 10.91276169 -0.60762048 4 12 34026 11.61000000 2685594940 2685594940 -3.00000000
-3.63737202 10.14205074 2.48750877 50 13 34027 11.05800000 2685594942 2685594942 13.00000000
-3.90812278 10.90297031 -0.20216867 8 14 34028 11.58400000 2685594945 2685594945 -1.00000000
-3.14584184 8.77634144 2.49812150 36 15 34028 9.65200000 2685594947 2685594947 15.00000000
-0.73242509 2.05235362 -0.58389574 4 0 34036 2.25600000 2685594968 2685594968 -15.00000000
-3.89770961 10.92793083 0.20251772 6 1 34037 11.60400000 2685594970 2685594970 1.00000000
-0.86112291 2.41564536 -0.59207118 3 2 34038 2.63200000 2685594972 2685594972 -13.00000000
-3.88780999 10.91221142 0.60709709 23 3 34039 11.60000000 2685594975 2685594975 3.00000000
-1.01997650 2.86284566 -0.59074467 2 4 34039 3.09600000 2685594977 2685594977 -11.00000000
-3.88378263 10.90692902 1.01292408 46 5 34040 11.62200000 2685594979 2685594979 5.00000000
-1.27430058 3.58062935 -0.60195982 2 6 34041 3.84800000 2685594981 2685594981 -9.00000000
-3.89104438 10.93940449 1.42562759 38 7 34042 11.69800000 2685594984 2685594984 7.00000000
-1.67693603 4.71719790 -0.61470896 2 8 34043 5.04400000 2685594986 2685594986 -7.00000000
-3.87274718 10.89398384 1.83122182 34 9 34043 11.70600000 2685594988 2685594988 9.00000000
-2.42802429 6.83377743 -0.63449383 4 10 34044 7.28000000 2685594991 2685594991 -5.00000000
-3.79592943 10.68971825 2.20498872 59 11 34045 11.55600000 2685594993 2685594993 11.00000000
-3.92591238 11.06188583 -0.61515683 8 12 34046 11.75400000 2685594995 2685594995 -3.00000000
-3.51856017 9.91959763 2.42992139 102 13 34047 10.80200000 2685594998 2685594998 13.00000000
-3.90211272 11.00701427 -0.20384410 6 14 34048 11.68000000 2685595000 2685595000 -1.00000000
-3.10679603 8.76359844 2.49139214 36 15 34048 9.62600000 2685595002 2685595002 15.00000000
-0.72525662 2.05489779 -0.58389574 4 0 34056 2.25600000 2685595023 2685595023 -15.00000000
-3.89479637 11.04141712 0.20436768 10 1 34057 11.71000000 2685595025 2685595025 1.00000000
-0.85009372 2.41128516 -0.59027159 3 2 34058 2.62400000 2685595028 2685595028 -13.00000000
-3.84637690 10.91629791 0.60657376 26 3 34059 11.59000000 2685595030 2685595030 3.00000000
-1.01650155 2.88490534 -0.59456080 2 4 34059 3.11600000 2685595032 2685595032 -11.00000000
-3.85958457 10.95988369 1.01658463 12 5 34060 11.66400000 2685595034 2685595034 5.00000000
-1.25654757 3.57014894 -0.59945685 2 6 34061 3.83200000 2685595037 2685595037 -9.00000000
-3.88115978 11.03344250 1.43610835 36 7 34062 11.78400000 2685595039 2685595039 7.00000000
-1.65782607 4.71553183 -0.61373401 2 8 34063 5.03600000 2685595041 2685595041 -7.00000000
-3.86880898 11.01060772 1.84842968 31 9 34064 11.81600000 2685595044 2685595044 9.00000000
-2.41340184 6.86852741 -0.63693416 4 10 34064 7.30800000 2685595046 2685595046 -5.00000000
-3.74818420 10.67326546 2.19888282 59 11 34065 11.52400000 2685595048 2685595048 11.00000000
-3.91108704 11.14336586 -0.61892503 8 12 34066 11.82600000 2685595051 2685595051 -3.00000000
-3.56712413 10.16903591 2.48795867 55 13 34067 11.06000000 2685595053 2685595053 13.00000000
-3.90336251 11.13379288 -0.20593840 6 14 34068 11.80000000 2685595055 2685595055 -1.00000000
-3.07810402 8.77985859 2.49294496 38 15 34068 9.63200000 2685595057 2685595057 15.00000000
-0.72062564 2.06471252 -0.58596629 4 0 34076 2.26400000 2685595078 2685595078 -15.00000000
-3.88652730 11.14179897 0.20597330 10 1 34077 11.80200000 2685595081 2685595081 1.00000000
-0.84167159 2.41423774 -0.59027159 3 2 34078 2.62400000 2685595083 2685595083 -13.00000000
-3.79904819 10.90325260 0.60510832 26 3 34079 11.56200000 2685595085 2685595085 3.00000000
-1.00642514 2.88843584 -0.59456080 2 4 34079 3.11600000 2685595087 2685595087 -11.00000000
-3.80426788 10.92436886 1.01205254 4 5 34080 11.61200000 2685595090 2685595090 5.00000000
-1.24732435 3.58384156 -0.60102123 2 6 34081 3.84200000 2685595092 2685595092 -9.00000000
-3.87131810 11.12941837 1.44683290 40 7 34082 11.87200000 2685595094 2685595094 7.00000000
-1.64657056 4.73628998 -0.61568391 2 8 34083 5.05200000 2685595097 2685595097 -7.00000000
-3.86536121 11.12480640 1.86532462 34 9 34084 11.92400000 2685595099 2685595099 9.00000000
-2.38941145 6.87691021 -0.63693416 4 10 34084 7.30800000 2685595101 2685595101 -5.00000000
-3.70575237 10.67144775 2.19582987 56 11 34085 11.50800000 2685595104 2685595104 11.00000000
-3.90949249 11.26450062 -0.62489134 4 12 34086 11.94000000 2685595106 2685595106 -3.00000000
-3.52969003 10.17590237 2.48660898 51 13 34087 11.05400000 2685595108 2685595108 13.00000000
-3.89722443 11.24181938 -0.20768364 8 14 34088 11.90000000 2685595110 2685595110 -1.00000000
-3.04400611 8.78560543 2.49139214 36 15 34089 9.62600000 2685595113 2685595113 15.00000000
-0.71467453 2.07086778 -0.58700162 4 0 34096 2.26800000 2685595134 2685595134 -15.00000000
-3.88868928 11.27439308 0.20817231 6 1 34097 11.92800000 2685595136 2685595136 1.00000000
-0.83323920 2.41716123 -0.59027159 3 2 34098 2.62400000 2685595138 2685595138 -13.00000000
-3.75120711 10.88812256 0.60353827 26 3 34099 11.53200000 2685595140 2685595140 3.00000000
-0.99249947 2.88079429 -0.59227115 2 4 34099 3.10400000 2685595143 2685595143 -11.00000000
-3.75313830 10.89990520 1.00856626 4 5 34100 11.57200000 2685595145 2685595145 5.00000000
-1.23737800 3.59564495 -0.60227269 2 6 34101 3.85000000 2685595147 2685595147 -9.00000000
-3.87376571 11.26300240 1.46243215 40 7 34102 12.00000000 2685595150 2685595150 7.00000000
-1.62744653 4.73449945 -0.61470896 2 8 34103 5.04400000 2685595152 2685595152 -7.00000000
-2.36539221 6.88520861 -0.63693416 4 10 34104 7.30800000 2685595157 2685595157 -5.00000000
-3.66401672 10.67131996 2.19315863 59 11 34105 11.49400000 2685595159 2685595159 11.00000000
-3.49098706 10.17894459 2.48435950 52 13 34107 11.04400000 2685595163 2685595163 13.00000000
-3.01736093 8.80296135 2.49346256 36 15 34108 9.63400000 2685595168 2685595168 15.00000000
-0.70556992 2.06786489 -0.58544868 4 0 34116 2.26200000 2685595189 2685595189 -15.00000000
-0.82731128 2.42743325 -0.59207118 3 2 34118 2.63200000 2685595193 2685595193 -13.00000000
-3.70995760 10.89169693 0.60301489 26 3 34119 11.52200000 2685595196 2685595196 3.00000000
-0.98243755 2.88424110 -0.59227115 4 4 34119 3.10400000 2685595198 2685595198 -11.00000000
-3.70415235 10.88087559 1.00560296 4 5 34120 11.53800000 2685595200 2685595200 5.00000000
-1.22163796 3.59059191 -0.60070837 2 6 34121 3.84000000 2685595203 2685595203 -9.00000000
-1.61091018 4.74015141 -0.61470896 2 8 34123 5.04400000 2685595207 2685595207 -7.00000000
-2.34134388 6.89342356 -0.63693416 4 10 34124 7.30800000 2685595212 2685595212 -5.00000000
-3.62737560 10.68590355 2.19354010 59 11 34125 11.49600000 2685595214 2685595214 11.00000000
-3.45418310 10.18737698 2.48345971 47 13 34127 11.04000000 2685595219 2685595219 13.00000000
-2.98041415 8.79514408 2.48828626 36 15 34128 9.61400000 2685595223 2685595223 15.00000000
-0.69340777 2.05567098 -0.58130759 4 0 34136 2.24600000 2685595244 2685595244 -15.00000000
-0.82007736 2.43399978 -0.59297097 3 2 34138 2.63600000 2685595249 2685595249 -13.00000000
-0.97612286 2.89881659 -0.59456080 2 4 34139 3.11600000 2685595253 2685595253 -11.00000000
-3.67123246 10.90884590 1.00699747 12 5 34140 11.55400000 2685595256 2685595256 5.00000000
-1.21224570 3.60419583 -0.60227269 2 6 34141 3.85000000 2685595258 2685595258 -9.00000000
-1.59182537 4.73821878 -0.61373401 2 8 34143 5.03600000 2685595262 2685595262 -7.00000000
-3.58505607 10.68361092 2.19048738 59 11 34145 11.48000000 2685595269 2685595269 11.00000000
-3.41736293 10.19567680 2.48255992 50 13 34147 11.03600000 2685595274 2685595274 13.00000000
-2.94846797 8.80183029 2.48725104 38 15 34148 9.61000000 2685595279 2685595279 15.00000000
-0.69356072 2.08007073 -0.58751923 4 0 34156 2.27000000 2685595299 2685595299 -15.00000000
-0.80911309 2.42945194 -0.59117138 3 2 34158 2.62800000 2685595304 2685595304 -13.00000000
-3.68870592 11.08220100 0.61212134 2 3 34159 11.69600000 2685595306 2685595306 3.00000000
-0.96723819 2.90593171 -0.59532404 2 4 34159 3.12000000 2685595309 2685595309 -11.00000000
-3.67966938 11.06149387 1.01989651 8 5 34160 11.70200000 2685595311 2685595311 5.00000000
-1.19467175 3.59340954 -0.59976971 2 6 34161 3.83400000 2685595313 2685595313 -9.00000000
-1.58278346 4.76635361 -0.61665887 2 8 34163 5.06000000 2685595318 2685595318 -7.00000000
-3.54156089 10.67742538 2.18667102 59 11 34165 11.46000000 2685595325 2685595325 11.00000000
-3.38297820 10.21124363 2.48345971 50 13 34167 11.04000000 2685595329 2685595329 13.00000000
-2.91618800 8.81257820 2.48725104 36 15 34169 9.61000000 2685595334 2685595334 15.00000000
-0.68810970 2.08798361 -0.58907217 4 0 34176 2.27600000 2685595355 2685595355 -15.00000000
-0.79940915 2.42855930 -0.59027159 3 2 34178 2.62400000 2685595359 2685595359 -13.00000000
-3.68628192 11.19871330 0.61787832 2 3 34178 11.80600000 2685595362 2685595362 3.00000000
-0.95954275 2.91675019 -0.59685051 2 4 34179 3.12800000 2685595364 2685595364 -11.00000000
-3.67463875 11.17647743 1.02930927 8 5 34180 11.81000000 2685595366 2685595366 5.00000000
-1.19075418 3.62383103 -0.60414988 2 6 34181 3.86200000 2685595368 2685595368 -9.00000000
-1.56737423 4.77562189 -0.61714637 2 8 34183 5.06400000 2685595373 2685595373 -7.00000000
-3.49876404 10.67293262 2.18323660 56 11 34185 11.44200000 2685595380 2685595380 11.00000000
-3.34488821 10.21558189 2.48166013 48 13 34187 11.03200000 2685595385 2685595385 13.00000000
-2.88574672 8.81852818 2.48621583 38 15 34188 9.60600000 2685595389 2685595389 15.00000000
-0.68201357 2.09404659 -0.59010744 4 0 34196 2.28000000 2685595410 2685595410 -15.00000000
-0.79213274 2.43504119 -0.59117138 3 2 34198 2.62800000 2685595414 2685595414 -13.00000000
-3.67311835 11.29128361 0.62227452 2 3 34198 11.89000000 2685595417 2685595417 3.00000000
-0.94814157 2.91634774 -0.59608728 2 4 34199 3.12400000 2685595419 2685595419 -11.00000000
-1.18297815 3.64299583 -0.60665286 2 6 34201 3.87800000 2685595424 2685595424 -9.00000000
-1.54212058 4.75462818 -0.61373401 2 8 34203 5.03600000 2685595428 2685595428 -7.00000000
-3.46027708 10.68134499 2.18247318 53 11 34205 11.43800000 2685595435 2685595435 11.00000000
-3.30680895 10.21977901 2.47986031 47 13 34207 11.02400000 2685595440 2685595440 13.00000000
-2.85851312 8.83957577 2.48932147 36 15 34208 9.61800000 2685595444 2685595444 15.00000000
-0.67233247 2.08905864 -0.58803689 4 0 34216 2.27200000 2685595465 2685595465 -15.00000000
-0.78482074 2.44150209 -0.59207118 3 2 34218 2.63200000 2685595470 2685595470 -13.00000000
-0.93315196 2.90468621 -0.59303439 2 4 34219 3.10800000 2685595474 2685595474 -11.00000000
-1.16301215 3.62453198 -0.60289842 2 6 34221 3.85400000 2685595479 2685595479 -9.00000000
-1.54974818 4.83559752 -0.62348354 2 8 34223 5.11600000 2685595484 2685595484 -7.00000000
-3.41937995 10.68214035 2.18018365 56 11 34225 11.42600000 2685595491 2685595491 11.00000000
-3.27111506 10.23125935 2.47986031 46 13 34227 11.02400000 2685595495 2685595495 13.00000000
-2.82374454 8.84263229 2.48725104 36 15 34229 9.61000000 2685595500 2685595500 15.00000000
-0.66386533 2.08771062 -0.58700162 4 0 34236 2.26800000 2685595520 2685595520 -15.00000000
-0.77865309 2.45165586 -0.59387076 3 2 34238 2.64000000 2685595525 2685595525 -13.00000000
-0.92716473 2.92102456 -0.59570569 2 4 34239 3.12200000 2685595530 2685595530 -11.00000000
-1.15274096 3.63610172 -0.60414988 2 6 34241 3.86200000 2685595534 2685595534 -9.00000000
-1.51488209 4.78420353 -0.61617142 2 8 34243 5.05600000 2685595539 2685595539 -7.00000000
-3.37851954 10.68277931 2.17789388 53 11 34245 11.41400000 2685595546 2685595546 11.00000000
-3.23538136 10.24261570 2.47986031 48 13 34247 11.02400000 2685595550 2685595550 13.00000000
-2.78762960 8.83585453 2.48259234 40 15 34249 9.59200000 2685595555 2685595555 15.00000000
-0.65730333 2.08978605 -0.58700162 4 0 34254 2.26800000 2685595576 2685595576 -15.00000000
-0.76861095 2.44665337 -0.59207118 3 2 34256 2.63200000 2685595580 2685595580 -13.00000000
-0.92033577 2.93141532 -0.59723216 2 4 34257 3.13000000 2685595585 2685595585 -11.00000000
-1.13658381 3.62462616 -0.60164696 2 6 34259 3.84600000 2685595590 2685595590 -9.00000000
-1.50815070 4.81545973 -0.61958373 2 8 34261 5.08400000 2685595594 2685595594 -7.00000000
-3.33908081 10.67460346 2.17407775 53 11 34263 11.39400000 2685595601 2685595601 11.00000000
-3.20609307 10.26202965 2.48211002 51 13 34265 11.03400000 2685595606 2685595606 13.00000000
-2.76388550 8.85747719 2.48621583 40 15 34267 9.60600000 2685595610 2685595610 15.00000000
-0.65229744 2.09944701 -0.58907217 4 0 34274 2.27600000 2685595631 2685595631 -15.00000000
-0.76122099 2.45304394 -0.59297097 3 2 34276 2.63600000 2685595636 2685595636 -13.00000000
-0.90777147 2.92710948 -0.59570569 4 4 34277 3.12200000 2685595640 2685595640 -11.00000000
-1.12392449 3.62857151 -0.60164696 2 6 34279 3.84600000 2685595645 2685595645 -9.00000000
-1.48781240 4.80931664 -0.61812133 2 8 34281 5.07200000 2685595650 2685595650 -7.00000000
-3.29832172 10.67493916 2.17178798 56 11 34283 11.38200000 2685595656 2685595656 11.00000000
-3.16852856 10.26757240 2.48076034 54 13 34285 11.02800000 2685595661 2685595661 13.00000000
-2.73465729 8.87260914 2.48776865 38 15 34287 9.61200000 2685595666 2685595666 15.00000000
-0.64609849 2.10540485 -0.59010744 4 0 34294 2.28000000 2685595686 2685595686 -15.00000000
-0.75151151 2.45195961 -0.59207118 3 2 34296 2.63200000 2685595691 2685595691 -13.00000000
-0.89984840 2.93776894 -0.59723216 4 4 34297 3.13000000 2685595696 2685595696 -11.00000000
-1.11818612 3.65514016 -0.60540140 2 6 34299 3.87000000 2685595700 2685595700 -9.00000000
-1.47797632 4.83726215 -0.62104619 2 8 34301 5.09600000 2685595705 2685595705 -7.00000000
-3.25874710 10.67887688 2.17026162 56 11 34303 11.37400000 2685595712 2685595712 11.00000000
-3.13210058 10.27670574 2.48031044 55 13 34305 11.02600000 2685595716 2685595716 13.00000000
-2.70127940 8.86869335 2.48414516 38 15 34306 9.59800000 2685595721 2685595721 15.00000000
-0.63594383 2.09840345 -0.58751923 4 0 34314 2.27000000 2685595742 2685595742 -15.00000000
-0.74520618 2.46202874 -0.59387076 3 2 34316 2.64000000 2685595746 2685595746 -13.00000000
-0.88617760 2.92961717 -0.59494245 2 4 34317 3.11800000 2685595751 2685595751 -11.00000000
-1.10427785 3.65523911 -0.60477567 2 6 34319 3.86600000 2685595755 2685595755 -9.00000000
-1.45764160 4.83098888 -0.61958373 2 8 34321 5.08400000 2685595760 2685595760 -7.00000000
-3.22031808 10.68642712 2.16949821 56 11 34323 11.37000000 2685595767 2685595767 11.00000000
-3.09677076 10.28944206 2.48076034 54 13 34325 11.02800000 2685595772 2685595772 13.00000000
-2.66764379 8.87483406 2.48310995 38 15 34327 9.59400000 2685595776 2685595776 15.00000000
-0.62473822 2.08765507 -0.58389574 4 0 34334 2.25600000 2685595797 2685595797 -15.00000000
-0.73772365 2.46834922 -0.59477061 3 2 34336 2.64400000 2685595802 2685595802 -13.00000000
-0.87819338 2.94021726 -0.59646893 2 4 34337 3.12600000 2685595806 2685595806 -11.00000000
-1.09264135 3.66285729 -0.60540140 2 6 34339 3.87000000 2685595811 2685595811 -9.00000000
-1.43736863 4.82463264 -0.61812133 2 8 34341 5.07200000 2685595815 2685595815 -7.00000000
-3.17851686 10.68254948 2.16644526 56 11 34343 11.35400000 2685595822 2685595822 11.00000000
-3.05972481 10.29645348 2.47986031 54 13 34345 11.02400000 2685595827 2685595827 13.00000000
-2.63544917 8.87437153 2.48052168 38 15 34346 9.58400000 2685595832 2685595832 15.00000000
-0.62292099 2.10835004 -0.58907217 4 0 34354 2.27600000 2685595852 2685595852 -15.00000000
-0.72910297 2.47090936 -0.59477061 3 2 34356 2.64400000 2685595857 2685595857 -13.00000000
-0.87125653 2.95456338 -0.59875864 2 4 34357 3.13800000 2685595861 2685595861 -11.00000000
-1.08263922 3.67612362 -0.60696572 2 6 34359 3.88000000 2685595866 2685595866 -9.00000000
-1.42387962 4.84104729 -0.61958373 2 8 34361 5.08400000 2685595871 2685595871 -7.00000000
-3.13456845 10.67097569 2.16186595 56 11 34363 11.33000000 2685595878 2685595878 11.00000000
-3.02266765 10.30333138 2.47896051 54 13 34365 11.02000000 2685595882 2685595882 13.00000000
-2.60290527 8.88397121 2.48052168 38 15 34367 9.58400000 2685595887 2685595887 15.00000000
-0.61484355 2.10669494 -0.58803689 4 0 34373 2.27200000 2685595908 2685595908 -15.00000000
-0.71872389 2.46582985 -0.59297097 3 2 34375 2.63600000 2685595912 2685595912 -13.00000000
-0.86255217 2.96120596 -0.59952188 2 4 34376 3.14200000 2685595917 2685595917 -11.00000000
-1.07430530 3.69297075 -0.60915583 2 6 34378 3.89400000 2685595921 2685595921 -9.00000000
-1.40781832 4.84574223 -0.61958373 2 8 34380 5.08400000 2685595926 2685595926 -7.00000000
-3.09588265 10.66999817 2.15957618 53 11 34382 11.31800000 2685595933 2685595933 11.00000000
-2.98522973 10.30206776 2.47626114 54 13 34384 11.00800000 2685595938 2685595938 13.00000000
-2.57605743 8.89581585 2.48155689 40 15 34385 9.58800000 2685595942 2685595942 15.00000000
-0.60962510 2.11625385 -0.59010744 4 0 34393 2.28000000 2685595963 2685595963 -15.00000000
-0.70903462 2.46457815 -0.59207118 3 2 34395 2.63200000 2685595967 2685595967 -13.00000000
-0.85221034 2.96419883 -0.59952188 2 4 34396 3.14200000 2685595972 2685595972 -11.00000000
-1.06358838 3.70429301 -0.61040729 2 6 34398 3.90200000 2685595977 2685595977 -9.00000000
-1.38432896 4.82772875 -0.61665887 2 8 34400 5.06000000 2685595981 2685595981 -7.00000000
-3.05861855 10.68074036 2.15957618 50 11 34402 11.31800000 2685595988 2685595988 11.00000000
-2.94603562 10.30118370 2.47356176 54 13 34404 10.99600000 2685595993 2685595993 13.00000000
-2.54396582 8.90705585 2.48207474 40 15 34406 9.59000000 2685595997 2685595997 15.00000000
-0.59869683 2.10732412 -0.58700162 4 0 34414 2.26800000 2685596018 2685596018 -15.00000000
-0.70212436 2.47465944 -0.59387076 3 2 34416 2.64000000 2685596023 2685596023 -13.00000000
-0.83919811 2.95974731 -0.59799540 2 4 34417 3.13400000 2685596027 2685596027 -11.00000000
-1.04354608 3.68535852 -0.60665286 2 6 34419 3.87800000 2685596032 2685596032 -9.00000000
-1.37850881 4.87479448 -0.62202114 2 8 34421 5.10400000 2685596037 2685596037 -7.00000000
-3.01945114 10.69187832 2.15957618 50 11 34423 11.31800000 2685596043 2685596043 11.00000000
-2.90984702 10.31753922 2.47491145 55 13 34425 11.00200000 2685596048 2685596048 13.00000000
-2.50971460 8.90472507 2.47896886 40 15 34426 9.57800000 2685596053 2685596053 15.00000000
-0.59133726 2.10940123 -0.58700162 4 0 34434 2.26800000 2685596073 2685596073 -15.00000000
-0.69663411 2.48835468 -0.59657019 3 2 34436 2.65200000 2685596078 2685596078 -13.00000000
-0.82780367 2.95887733 -0.59723216 2 4 34437 3.13000000 2685596083 2685596083 -11.00000000
-1.03599095 3.70800400 -0.60978156 2 6 34439 3.89800000 2685596087 2685596087 -9.00000000
-1.36468518 4.89104891 -0.62348354 2 8 34441 5.11600000 2685596092 2685596092 -7.00000000
-2.97736835 10.68533230 2.15614176 46 11 34443 11.30000000 2685596099 2685596099 11.00000000
-2.87485909 10.33138847 2.47581124 56 13 34445 11.00600000 2685596103 2685596103 13.00000000
-2.47395682 8.90269566 2.47586298 45 15 34447 9.56600000 2685596108 2685596108 15.00000000
-0.58397049 2.11145258 -0.58700162 4 0 34454 2.26800000 2685596129 2685596129 -15.00000000
-0.68690628 2.48701429 -0.59567040 3 2 34456 2.64800000 2685596133 2685596133 -13.00000000
-0.82060426 2.97310376 -0.59952188 4 4 34457 3.14200000 2685596138 2685596138 -11.00000000
-1.01674247 3.68874526 -0.60602713 2 6 34459 3.87400000 2685596143 2685596143 -9.00000000
-1.34760392 4.89578247 -0.62348354 2 8 34461 5.11600000 2685596147 2685596147 -7.00000000
-2.93796992 10.68808842 2.15461516 46 11 34463 11.29200000 2685596154 2685596154 11.00000000
-2.83980989 10.34511852 2.47671103 56 13 34465 11.01000000 2685596159 2685596159 13.00000000
-2.44288754 8.90526199 2.47431016 40 15 34466 9.56000000 2685596163 2685596163 15.00000000
-0.57659656 2.11347818 -0.58700162 4 0 34474 2.26800000 2685596184 2685596184 -15.00000000
-0.67412275 2.47435522 -0.59207118 3 2 34476 2.63200000 2685596189 2685596189 -13.00000000
-0.81125271 2.97973871 -0.60028511 4 4 34477 3.14600000 2685596193 2685596193 -11.00000000
-1.00696969 3.70370913 -0.60790431 2 6 34479 3.88600000 2685596198 2685596198 -9.00000000
-1.33674788 4.92344570 -0.62640840 2 8 34481 5.14000000 2685596202 2685596202 -7.00000000
-2.89653373 10.68311977 2.15156221 43 11 34483 11.27600000 2685596209 2685596209 11.00000000
-2.80164433 10.34744453 2.47491145 57 13 34485 11.00200000 2685596214 2685596214 13.00000000
-2.41023183 8.91415596 2.47431016 42 15 34487 9.56000000 2685596219 2685596219 15.00000000
-0.57360309 2.13030171 -0.59114271 4 0 34493 2.28400000 2685596239 2685596239 -15.00000000
-0.66894984 2.48786855 -0.59477061 3 2 34495 2.64400000 2685596244 2685596244 -13.00000000
-0.80340487 2.98999667 -0.60181159 4 4 34496 3.15400000 2685596249 2685596249 -11.00000000
-1.00287306 3.73755407 -0.61291021 2 6 34498 3.91800000 2685596253 2685596253 -9.00000000
-1.31630361 4.91251183 -0.62445849 2 8 34500 5.12400000 2685596258 2685596258 -7.00000000
-2.86413598 10.70404530 2.15385199 43 11 34502 11.28800000 2685596265 2685596265 11.00000000
-2.76228499 10.33785152 2.47041249 57 13 34504 10.98200000 2685596269 2685596269 13.00000000
-2.37972331 8.91235161 2.47172189 40 15 34505 9.55000000 2685596274 2685596274 15.00000000
-0.56318885 2.12108827 -0.58803689 4 0 34513 2.27200000 2685596295 2685596295 -15.00000000
-0.66225928 2.49772310 -0.59657019 3 2 34515 2.65200000 2685596299 2685596299 -13.00000000
-0.78894031 2.97760057 -0.59875864 2 4 34516 3.13800000 2685596304 2685596304 -11.00000000
-0.99184150 3.74867058 -0.61416173 2 6 34518 3.92600000 2685596308 2685596308 -9.00000000
-1.29813349 4.91323805 -0.62397105 2 8 34520 5.12000000 2685596313 2685596313 -7.00000000
-2.82975960 10.72536755 2.15614176 43 11 34522 11.30000000 2685596320 2685596320 11.00000000
-2.72518945 10.34366131 2.46951270 56 13 34524 10.97800000 2685596325 2685596325 13.00000000
-2.34810710 8.91873550 2.47120428 40 15 34525 9.54800000 2685596329 2685596329 15.00000000
-0.55456293 2.11537218 -0.58596629 4 0 34531 2.26400000 2685596350 2685596350 -15.00000000
-0.65539622 2.50356174 -0.59746999 3 2 34533 2.65600000 2685596355 2685596355 -13.00000000
-0.78057575 2.98386312 -0.59952188 2 4 34534 3.14200000 2685596359 2685596359 -11.00000000
-0.97406864 3.72883320 -0.61040729 2 6 34536 3.90200000 2685596364 2685596364 -9.00000000
-1.28068757 4.90960884 -0.62299609 2 8 34538 5.11200000 2685596368 2685596368 -7.00000000
-2.79308176 10.72280598 2.15385199 40 11 34540 11.28800000 2685596375 2685596375 11.00000000
-2.69169927 10.34840012 2.46861291 57 13 34542 10.97400000 2685596380 2685596380 13.00000000
-2.31473088 8.90550137 2.46551013 40 15 34543 9.52600000 2685596384 2685596384 15.00000000
-0.55007571 2.12851739 -0.58907217 4 0 34551 2.27600000 2685596405 2685596405 -15.00000000
-0.64373153 2.49451280 -0.59477061 3 2 34553 2.64400000 2685596410 2685596410 -13.00000000
-0.77113581 2.99037170 -0.60028511 2 4 34554 3.14600000 2685596414 2685596414 -11.00000000
-0.95612073 3.71308088 -0.60727859 2 6 34556 3.88200000 2685596419 2685596419 -9.00000000
-1.26848543 4.93327475 -0.62543344 2 8 34558 5.13200000 2685596424 2685596424 -7.00000000
-2.75465870 10.72868729 2.15308881 40 11 34560 11.28400000 2685596431 2685596431 11.00000000
-2.65556026 10.35773277 2.46861291 59 13 34562 10.97400000 2685596435 2685596435 13.00000000
-2.28159571 8.91205406 2.46499252 42 15 34564 9.52400000 2685596440 2685596440 15.00000000
-0.54454982 2.13791299 -0.59114271 4 0 34571 2.28400000 2685596461 2685596461 -15.00000000
-0.63405949 2.49296737 -0.59387076 3 2 34573 2.64000000 2685596465 2685596465 -13.00000000
-0.76165998 2.99685073 -0.60104835 2 4 34574 3.15000000 2685596470 2685596470 -11.00000000
-0.94898480 3.73937201 -0.61103302 2 6 34576 3.90600000 2685596474 2685596474 -9.00000000
-1.25125742 4.93767262 -0.62543344 2 8 34578 5.13200000 2685596479 2685596479 -7.00000000
-2.71478367 10.72872066 2.15118051 40 11 34580 11.27400000 2685596486 2685596486 11.00000000
-2.61366034 10.34426689 2.46321416 56 13 34582 10.95000000 2685596490 2685596490 13.00000000
-2.25108409 8.91582489 2.46395731 45 15 34583 9.52000000 2685596495 2685596495 15.00000000
-0.53802437 2.14354825 -0.59217799 4 0 34591 2.28800000 2685596516 2685596516 -15.00000000
-0.62630105 2.49894595 -0.59477061 3 2 34593 2.64400000 2685596520 2685596520 -13.00000000
-0.75405604 3.01091790 -0.60333806 2 4 34594 3.16200000 2685596525 2685596525 -11.00000000
-0.94167686 3.76565814 -0.61478746 2 6 34596 3.93000000 2685596530 2685596530 -9.00000000
-1.22920501 4.92275095 -0.62299609 2 8 34598 5.11200000 2685596534 2685596534 -7.00000000
-2.67969179 10.74765682 2.15308881 40 11 34600 11.28400000 2685596541 2685596541 11.00000000
-2.57565284 10.34576321 2.46141434 55 13 34602 10.94200000 2685596546 2685596546 13.00000000
-2.21854901 8.91800404 2.46240449 38 15 34603 9.51400000 2685596550 2685596550 15.00000000
-0.52821994 2.13603640 -0.58958977 4 0 34611 2.27800000 2685596571 2685596571 -15.00000000
-0.62037718 2.51246858 -0.59746999 3 2 34613 2.65600000 2685596576 2685596576 -13.00000000
-0.73789781 2.99065852 -0.59875864 2 4 34614 3.13800000 2685596580 2685596580 -11.00000000
-0.92758143 3.76508617 -0.61416173 2 6 34616 3.92600000 2685596585 2685596585 -9.00000000
-1.22339427 4.97327471 -0.62884581 2 8 34618 5.16000000 2685596589 2685596589 -7.00000000
-2.64169073 10.75503826 2.15270710 40 11 34620 11.28200000 2685596596 2685596596 11.00000000
-2.54045224 10.35847569 2.46231413 57 13 34622 10.94600000 2685596601 2685596601 13.00000000
-2.18648624 8.92194176 2.46136904 40 15 34623 9.51000000 2685596606 2685596606 15.00000000
-0.52030337 2.13599038 -0.58907217 4 0 34631 2.27600000 2685596626 2685596626 -15.00000000
-0.61528760 2.52976704 -0.60106921 3 2 34633 2.67200000 2685596631 2685596631 -13.00000000
-0.73301768 3.01610875 -0.60333806 2 4 34634 3.16200000 2685596636 2685596636 -11.00000000
-0.90744567 3.73950624 -0.60946870 2 6 34636 3.89600000 2685596640 2685596640 -9.00000000
-1.20041740 4.95436335 -0.62592095 2 8 34638 5.13600000 2685596645 2685596645 -7.00000000
-2.60090113 10.75083637 2.15003586 40 11 34640 11.26800000 2685596652 2685596652 11.00000000
-2.50336361 10.36349201 2.46141434 57 13 34642 10.94200000 2685596656 2685596656 13.00000000
-2.14969444 8.91299343 2.45671034 40 15 34644 9.49200000 2685596661 2685596661 15.00000000
-0.51337171 2.14164019 -0.59010744 4 0 34652 2.28000000 2685596682 2685596682 -15.00000000
-0.60147542 2.51305294 -0.59657019 3 2 34654 2.65200000 2685596686 2685596686 -13.00000000
-0.72195816 3.01877522 -0.60333806 2 4 34655 3.16200000 2685596691 2685596691 -11.00000000
-0.89556879 3.75049233 -0.61072016 2 6 34657 3.90400000 2685596695 2685596695 -9.00000000
-1.19329977 5.00507307 -0.63177067 2 8 34659 5.18400000 2685596700 2685596700 -7.00000000
-2.55829716 10.74692822 2.14736438 40 11 34661 11.25400000 2685596707 2685596707 11.00000000
-2.46446157 10.36880589 2.46051455 56 13 34663 10.93800000 2685596712 2685596712 13.00000000
-2.11767650 8.91668415 2.45567513 42 15 34664 9.48800000 2685596716 2685596716 15.00000000
-0.50411779 2.13589835 -0.58803689 4 0 34672 2.27200000 2685596737 2685596737 -15.00000000
-0.59001762 2.50375652 -0.59387076 3 2 34674 2.64000000 2685596741 2685596741 -13.00000000
-0.71411616 3.03274274 -0.60562778 2 4 34675 3.17400000 2685596746 2685596746 -11.00000000
-0.88382792 3.75936460 -0.61165875 2 6 34677 3.91000000 2685596751 2685596751 -9.00000000
-1.16402709 4.95896149 -0.62543344 2 8 34679 5.13200000 2685596755 2685596755 -7.00000000
-2.52121592 10.75770378 2.14774609 40 11 34681 11.25600000 2685596762 2685596762 11.00000000
-2.42558861 10.36596107 2.45781517 57 13 34683 10.92600000 2685596767 2685596767 13.00000000
-2.08785796 8.92966461 2.45722795 40 15 34684 9.49400000 2685596771 2685596771 15.00000000
-0.50059384 2.15458059 -0.59269559 4 0 34692 2.29000000 2685596792 2685596792 -15.00000000
-0.58391649 2.51719069 -0.59657019 3 2 34694 2.65200000 2685596797 2685596797 -13.00000000
-0.69731927 3.00844145 -0.60028511 2 4 34695 3.14600000 2685596801 2685596801 -11.00000000
-0.87337214 3.77397394 -0.61353600 2 6 34697 3.92200000 2685596806 2685596806 -9.00000000
-1.14402866 4.95138979 -0.62397105 2 8 34699 5.12000000 2685596811 2685596811 -7.00000000
-2.48188400 10.75878716 2.14621949 40 11 34701 11.24800000 2685596818 2685596818 11.00000000
-2.38676572 10.36297035 2.45511580 55 13 34703 10.91400000 2685596822 2685596822 13.00000000
-2.05424929 8.93349171 2.45619273 38 15 34705 9.49000000 2685596827 2685596827 15.00000000
-0.49091679 2.14689875 -0.59010744 4 0 34712 2.28000000 2685596847 2685596847 -15.00000000
-0.57512629 2.51921368 -0.59657019 3 2 34714 2.65200000 2685596852 2685596852 -13.00000000
-0.68943334 3.02234173 -0.60257483 2 4 34715 3.15800000 2685596857 2685596857 -11.00000000
-0.86633432 3.80396438 -0.61791611 2 6 34717 3.95000000 2685596861 2685596861 -9.00000000
-1.12057626 4.92825317 -0.62055868 6 8 34719 5.09200000 2685596866 2685596866 -7.00000000
-2.44474816 10.76929951 2.14660120 37 11 34721 11.25000000 2685596873 2685596873 11.00000000
-2.34842396 10.36173534 2.45286632 54 13 34723 10.90400000 2685596877 2685596877 13.00000000
-2.02134776 8.93307114 2.45412207 40 15 34725 9.48200000 2685596882 2685596882 15.00000000
-0.48332027 2.14466119 -0.58907217 4 0 34730 2.27600000 2685596903 2685596903 -15.00000000
-0.57148671 2.54002023 -0.60106921 3 2 34732 2.67200000 2685596907 2685596907 -13.00000000
-0.67993504 3.02449274 -0.60257483 2 4 34733 3.15800000 2685596912 2685596912 -11.00000000
-0.85437953 3.80666733 -0.61791611 2 6 34735 3.95000000 2685596917 2685596917 -9.00000000
-1.11897779 4.99373531 -0.62835836 2 8 34737 5.15600000 2685596921 2685596921 -7.00000000
-2.40747476 10.76159954 2.14354825 37 11 34739 11.23400000 2685596928 2685596928 11.00000000
-2.31798387 10.37857151 2.45511580 56 13 34741 10.91400000 2685596933 2685596933 13.00000000
-1.98991024 8.92429256 2.44998097 40 15 34743 9.46600000 2685596937 2685596937 15.00000000
-0.47750357 2.15387940 -0.59114271 4 0 34750 2.28400000 2685596958 2685596958 -15.00000000
-0.56261688 2.54199958 -0.60106921 3 2 34752 2.67200000 2685596963 2685596963 -13.00000000
-0.67276478 3.04218316 -0.60562778 2 4 34753 3.17400000 2685596967 2685596967 -11.00000000
-0.83342099 3.77490568 -0.61228448 2 6 34755 3.91400000 2685596972 2685596972 -9.00000000
-1.11093974 5.04025888 -0.63372058 2 8 34757 5.20000000 2685596977 2685596977 -7.00000000
-2.36694169 10.75651550 2.14087701 37 11 34759 11.22000000 2685596983 2685596983 11.00000000
-2.27965117 10.37708282 2.45286632 53 13 34761 10.90400000 2685596988 2685596988 13.00000000
-1.95833266 8.92929745 2.44946337 38 15 34763 9.46400000 2685596993 2685596993 15.00000000
-0.47042844 2.15939021 -0.59217799 4 0 34771 2.28800000 2685597013 2685597013 -15.00000000
-0.54915476 2.52500248 -0.59657019 3 2 34773 2.65200000 2685597018 2685597018 -13.00000000
-0.66161013 3.04462862 -0.60562778 2 4 34774 3.17400000 2685597023 2685597023 -11.00000000
