# .PCD v0.7 - Point Cloud Data file format
VERSION 0.7
FIELDS x y z intensity laser_id azimuth distance_m adjustedtime timestamp vertical_angle
SIZE 4 4 4 1 1 2 8 8 4 8
TYPE F F F U U U F U U F
COUNT 1 1 1 1 1 1 1 1 1 1
WIDTH 523
HEIGHT 1
VIEWPOINT 0 0 0 1 0 0 0
POINTS 523
DATA ascii
-2.11917758 1.90076172 -0.55334610 3 4 31189 2.90000000 2209388252 2209388252 -11.00000000
-2.60201573 2.33547521 -0.55377799 3 6 31191 3.54000000 2209388256 2209388256 -9.00000000
-3.28890657 2.95407701 -0.54280603 100 8 31193 4.45400000 2209388261 2209388261 -7.00000000
-3.75249791 3.37165546 -0.44135669 3 10 31194 5.06400000 2209388266 2209388266 -5.00000000
-7.30562687 6.56878662 -0.51488113 8 12 31196 9.83800000 2209388270 2209388270 -3.00000000
-8.38031483 7.53772736 2.60223389 43 13 31197 11.56800000 2209388273 2209388273 13.00000000
-7.18622780 6.46596813 2.59026098 45 15 31198 10.00800000 2209388277 2209388277 15.00000000
-1.54067123 1.38966298 -0.55594331 4 0 31205 2.14800000 2209388298 2209388298 -15.00000000
-1.78944659 1.61518800 -0.55652893 3 2 31207 2.47400000 2209388303 2209388303 -13.00000000
-2.11869121 1.91304147 -0.55487257 3 4 31208 2.90800000 2209388307 2209388307 -11.00000000
-2.59718800 2.34673953 -0.55440372 3 6 31210 3.54400000 2209388312 2209388312 -9.00000000
-3.28056479 2.96629858 -0.54304981 100 8 31212 4.45600000 2209388316 2209388316 -7.00000000
-3.72208738 3.36670589 -0.43909064 3 10 31213 5.03800000 2209388321 2209388321 -5.00000000
-7.27195787 6.58225441 -0.51404375 12 12 31215 9.82200000 2209388326 2209388326 -3.00000000
-8.33504868 7.54716396 2.59593511 43 13 31216 11.54000000 2209388328 2209388328 13.00000000
-7.16474628 6.48976278 2.59026098 47 15 31217 10.00800000 2209388332 2209388332 15.00000000
-1.54439092 1.40282595 -0.55904913 4 0 31225 2.16000000 2209388353 2209388353 -15.00000000
-1.78956580 1.62666762 -0.55832851 3 2 31227 2.48200000 2209388358 2209388358 -13.00000000
-2.10328531 1.91250074 -0.55258286 3 4 31228 2.89600000 2209388362 2209388362 -11.00000000
-2.59482479 2.36110902 -0.55565524 3 6 31230 3.55200000 2209388367 2209388367 -9.00000000
-3.25844836 2.96703982 -0.54109991 100 8 31232 4.44000000 2209388372 2209388372 -7.00000000
-3.67201662 3.34479427 -0.43455854 3 10 31233 4.98600000 2209388376 2209388376 -5.00000000
-7.26664972 6.62374353 -0.51529980 8 12 31235 9.84600000 2209388381 2209388381 -3.00000000
-8.30289364 7.57096052 2.59413552 41 13 31236 11.53200000 2209388383 2209388383 13.00000000
-7.14376640 6.51858377 2.59129620 47 15 31238 10.01200000 2209388388 2209388388 15.00000000
-1.53663385 1.40560055 -0.55801386 4 0 31245 2.15600000 2209388409 2209388409 -15.00000000
-1.78387678 1.63290441 -0.55832851 3 2 31247 2.48200000 2209388413 2209388413 -13.00000000
-2.09949255 1.92248261 -0.55334610 2 4 31248 2.90000000 2209388418 2209388418 -11.00000000
-2.58656716 2.37015224 -0.55565524 3 6 31250 3.55200000 2209388422 2209388422 -9.00000000
-3.25246096 2.98242068 -0.54183108 100 8 31252 4.44600000 2209388427 2209388427 -7.00000000
-3.62801743 3.32796192 -0.43072367 3 10 31253 4.94200000 2209388432 2209388432 -5.00000000
-7.25378418 6.65852308 -0.51603252 8 12 31255 9.86000000 2209388436 2209388436 -3.00000000
-8.27641487 7.59989691 2.59413552 40 13 31256 11.53200000 2209388438 2209388438 13.00000000
-7.10503817 6.52655458 2.58508468 45 15 31257 9.98800000 2209388443 2209388443 15.00000000
-1.52887630 1.40833807 -0.55697858 4 0 31265 2.15200000 2209388464 2209388464 -15.00000000
-1.78962886 1.64968777 -0.56192774 3 2 31267 2.49800000 2209388468 2209388468 -13.00000000
-2.09998536 1.93645394 -0.55525416 3 4 31268 2.91000000 2209388473 2209388473 -11.00000000
-2.57682633 2.37782693 -0.55534238 3 6 31270 3.55000000 2209388478 2209388478 -9.00000000
-3.26244807 3.01260972 -0.54524344 100 8 31272 4.47400000 2209388482 2209388482 -7.00000000
-3.59149861 3.31762314 -0.42776039 2 10 31273 4.90800000 2209388487 2209388487 -5.00000000
-7.27449608 6.72447491 -0.51917267 8 12 31275 9.92000000 2209388491 2209388491 -3.00000000
-8.25269794 7.63138676 2.59503531 42 13 31276 11.53600000 2209388494 2209388494 13.00000000
-7.07370377 6.54344511 2.58197880 42 15 31277 9.97600000 2209388498 2209388498 15.00000000
-1.52395093 1.41366637 -0.55697858 4 0 31285 2.15200000 2209388519 2209388519 -15.00000000
-1.77814651 1.65062153 -0.56012815 3 2 31287 2.49000000 2209388524 2209388524 -13.00000000
-2.10328364 1.95312405 -0.55792552 3 4 31288 2.92400000 2209388528 2209388528 -11.00000000
-2.56851053 2.38680720 -0.55534238 3 6 31290 3.55000000 2209388533 2209388533 -9.00000000
-3.27517152 3.04560828 -0.54914325 100 8 31292 4.50600000 2209388537 2209388537 -7.00000000
-3.58573127 3.33556747 -0.42845762 2 10 31293 4.91600000 2209388542 2209388542 -5.00000000
-7.24366951 6.74302244 -0.51864934 4 12 31295 9.91000000 2209388547 2209388547 -3.00000000
-8.22030449 7.65483570 2.59323573 41 13 31296 11.52800000 2209388549 2209388549 13.00000000
-7.05081987 6.56809711 2.58197880 42 15 31297 9.97600000 2209388554 2209388554 15.00000000
-1.51900697 1.41897726 -0.55697858 4 0 31305 2.15200000 2209388574 2209388574 -15.00000000
-1.76383233 1.64883375 -0.55742872 4 2 31307 2.47800000 2209388579 2209388579 -13.00000000
-2.09358525 1.95777202 -0.55716228 3 4 31308 2.92000000 2209388584 2209388584 -11.00000000
-2.56304812 2.39845800 -0.55596811 3 6 31310 3.55400000 2209388588 2209388588 -9.00000000
-3.26452041 3.05702209 -0.54914325 82 8 31312 4.50600000 2209388593 2209388593 -7.00000000
-3.59006071 3.36304688 -0.43037507 3 10 31313 4.93800000 2209388597 2209388597 -5.00000000
-7.23465919 6.78192616 -0.51969606 4 12 31315 9.93000000 2209388602 2209388602 -3.00000000
-8.18500519 7.67548513 2.59053636 40 13 31316 11.51600000 2209388604 2209388604 13.00000000
-7.02669907 6.59389544 2.58197880 45 15 31318 9.97600000 2209388609 2209388609 15.00000000
-1.52248728 1.43221295 -0.56008440 4 0 31325 2.16400000 2209388630 2209388630 -15.00000000
-1.76374185 1.66032350 -0.55922830 3 2 31327 2.48600000 2209388634 2209388634 -13.00000000
-2.08102131 1.95968437 -0.55563581 3 4 31328 2.91200000 2209388639 2209388639 -11.00000000
-2.55466032 2.40739012 -0.55596811 3 6 31330 3.55400000 2209388643 2209388643 -9.00000000
-3.26538324 3.07929420 -0.55109316 54 8 31332 4.52200000 2209388648 2209388648 -7.00000000
-4.48265743 4.22867632 -0.53914541 3 10 31333 6.18600000 2209388653 2209388653 -5.00000000
-7.22982264 6.82496166 -0.52105677 4 12 31335 9.95600000 2209388657 2209388657 -3.00000000
-8.14116096 7.68795395 2.58513761 41 13 31336 11.49200000 2209388660 2209388660 13.00000000
-7.01181602 6.62379360 2.58456707 47 15 31337 9.98600000 2209388664 2209388664 15.00000000
-1.51186872 1.43220448 -0.55801386 4 0 31345 2.15600000 2209388685 2209388685 -15.00000000
-1.76359260 1.67183280 -0.56102794 3 2 31347 2.49400000 2209388689 2209388689 -13.00000000
-2.07131910 1.96423471 -0.55487257 3 4 31348 2.90800000 2209388694 2209388694 -11.00000000
-2.55483866 2.42445135 -0.55784529 3 6 31350 3.56600000 2209388699 2209388699 -9.00000000
-3.25605392 3.09204078 -0.55133688 44 8 31352 4.52400000 2209388703 2209388703 -7.00000000
-4.48375893 4.25939226 -0.54106283 3 10 31353 6.20800000 2209388708 2209388708 -5.00000000
-7.23780107 6.88043070 -0.52335954 4 12 31355 10.00000000 2209388713 2209388713 -3.00000000
-8.11992359 7.72169638 2.58693719 44 13 31356 11.50000000 2209388715 2209388715 13.00000000
-6.97605467 6.63624573 2.57990813 45 15 31357 9.96800000 2209388719 2209388719 15.00000000
-1.50101888 1.43240130 -0.55594331 4 0 31366 2.14800000 2209388740 2209388740 -15.00000000
-1.76590919 1.68636060 -0.56372732 3 2 31368 2.50600000 2209388745 2209388745 -13.00000000
-2.07830191 1.98537457 -0.55868876 3 4 31369 2.92800000 2209388749 2209388749 -11.00000000
-2.54165173 2.42970395 -0.55690670 1 6 31371 3.56000000 2209388754 2209388754 -9.00000000
-3.29633904 3.15335369 -0.56011152 90 8 31373 4.59600000 2209388759 2209388759 -7.00000000
-4.46667767 4.27441978 -0.54088855 3 10 31374 6.20600000 2209388763 2209388763 -5.00000000
-7.21830463 6.91243792 -0.52377826 4 12 31376 10.00800000 2209388768 2209388768 -3.00000000
-8.08593845 7.74601316 2.58513761 42 13 31377 11.49200000 2209388770 2209388770 13.00000000
-6.93797112 6.65095091 2.57524943 45 15 31379 9.95000000 2209388775 2209388775 15.00000000
-1.49600971 1.43763208 -0.55594331 4 0 31386 2.14800000 2209388795 2209388795 -15.00000000
-1.75439346 1.68711138 -0.56192774 3 2 31388 2.49800000 2209388800 2209388800 -13.00000000
-2.06286979 1.98445058 -0.55639905 3 4 31389 2.91600000 2209388805 2209388805 -11.00000000
-2.53742433 2.44267106 -0.55784529 3 6 31391 3.56600000 2209388809 2209388809 -9.00000000
-3.28817105 3.16759539 -0.56059897 32 8 31393 4.60000000 2209388814 2209388814 -7.00000000
-4.45746851 4.29551554 -0.54158580 3 10 31394 6.21400000 2209388819 2209388819 -5.00000000
-7.22432280 6.96670723 -0.52597636 4 12 31396 10.05000000 2209388823 2209388823 -3.00000000
-8.05885124 7.77419138 2.58513761 43 13 31397 11.49200000 2209388825 2209388825 13.00000000
-6.91471243 6.67512846 2.57524943 45 15 31399 9.95000000 2209388830 2209388830 15.00000000
-1.49817657 1.44930100 -0.55853152 4 0 31405 2.15800000 2209388851 2209388851 -15.00000000
-1.74318850 1.68749821 -0.56012815 3 2 31407 2.49000000 2209388855 2209388855 -13.00000000
-2.06756043 2.00220656 -0.55945200 2 4 31408 2.93200000 2209388860 2209388860 -11.00000000
-2.52505445 2.44694805 -0.55690670 1 6 31410 3.56000000 2209388865 2209388865 -9.00000000
-3.27764869 3.17848182 -0.56059897 14 8 31412 4.60000000 2209388869 2209388869 -7.00000000
-4.44319963 4.31027365 -0.54158580 3 10 31413 6.21400000 2209388874 2209388874 -5.00000000
-7.18541670 6.97532272 -0.52482498 4 12 31415 10.02800000 2209388878 2209388878 -3.00000000
-8.02463818 7.79272699 2.58243799 41 13 31416 11.48000000 2209388881 2209388881 13.00000000
-6.89946604 6.70475340 2.57783771 45 15 31418 9.96000000 2209388885 2209388885 15.00000000
-1.49310839 1.45452189 -0.55853152 4 0 31425 2.15800000 2209388906 2209388906 -15.00000000
-1.73728740 1.69357276 -0.56012815 3 2 31427 2.49000000 2209388911 2209388911 -13.00000000
-2.06336999 2.01215291 -0.56021523 3 4 31428 2.93600000 2209388915 2209388915 -11.00000000
-2.51367021 2.45298791 -0.55628097 1 6 31430 3.55600000 2209388920 2209388920 -9.00000000
-3.25659227 3.18019533 -0.55889279 22 8 31432 4.58600000 2209388925 2209388925 -7.00000000
-4.44380426 4.34107161 -0.54350322 7 10 31433 6.23600000 2209388929 2209388929 -5.00000000
-7.19530153 7.03386974 -0.52733707 4 12 31435 10.07600000 2209388934 2209388934 -3.00000000
-7.98902798 7.81251574 2.57973862 43 13 31436 11.46800000 2209388936 2209388936 13.00000000
-6.87602043 6.72879601 2.57783771 42 15 31438 9.96000000 2209388941 2209388941 15.00000000
-1.48940122 1.46107769 -0.55904913 4 0 31445 2.16000000 2209388961 2209388961 -15.00000000
-1.73692775 1.70508742 -0.56192774 3 2 31447 2.49800000 2209388966 2209388966 -13.00000000
-2.05073071 2.01384068 -0.55868876 2 4 31448 2.92800000 2209388971 2209388971 -11.00000000
-2.53468013 2.49082303 -0.56285119 1 6 31450 3.59800000 2209388975 2209388975 -9.00000000
-3.21150231 3.15813875 -0.55304307 26 8 31452 4.53800000 2209388980 2209388980 -7.00000000
-4.43004417 4.35795450 -0.54367751 7 10 31453 6.23800000 2209388984 2209388984 -5.00000000
-7.19347811 7.08136177 -0.52901185 4 12 31455 10.10800000 2209388989 2209388989 -3.00000000
-7.96170855 7.84035492 2.57973862 41 13 31456 11.46800000 2209388991 2209388991 13.00000000
-6.84954023 6.74749374 2.57628489 45 15 31457 9.95400000 2209388996 2209388996 15.00000000
-1.48154330 1.46355247 -0.55801386 4 0 31465 2.15600000 2209389017 2209389017 -15.00000000
-1.73928058 1.71936011 -0.56462717 3 2 31467 2.51000000 2209389021 2209389021 -13.00000000
-2.04648042 2.02374768 -0.55945200 2 4 31468 2.93200000 2209389026 2209389026 -11.00000000
-2.51473713 2.48853993 -0.56034827 1 6 31470 3.58200000 2209389030 2209389030 -9.00000000
-3.18494296 3.15396500 -0.55036193 20 8 31472 4.51600000 2209389035 2209389035 -7.00000000
-4.40914345 4.36778259 -0.54298025 3 10 31473 6.23000000 2209389040 2209389040 -5.00000000
-7.17722654 7.11486483 -0.52963990 4 12 31475 10.12000000 2209389044 2209389044 -3.00000000
-7.93429232 7.86809874 2.57973862 43 13 31476 11.46800000 2209389047 2209389047 13.00000000
-6.80967951 6.75758457 2.57059073 42 15 31478 9.93200000 2209389051 2209389051 15.00000000
-1.47668183 1.46845746 -0.55801386 4 0 31484 2.15600000 2209389072 2209389072 -15.00000000
-1.73080683 1.72236907 -0.56372732 3 2 31486 2.50600000 2209389077 2209389077 -13.00000000
-2.02584457 2.01667237 -0.55563581 3 4 31487 2.91200000 2209389081 2209389081 -11.00000000
-2.49527526 2.48571229 -0.55784529 1 6 31489 3.56600000 2209389086 2209389086 -9.00000000
-3.16743731 3.15750194 -0.54914325 14 8 31491 4.50600000 2209389090 2209389090 -7.00000000
-3.48467040 3.47495294 -0.43054938 33 10 31492 4.94000000 2209389095 2209389095 -5.00000000
-7.15359306 7.13862658 -0.52963990 4 12 31494 10.12000000 2209389100 2209389100 -3.00000000
-7.91091537 7.89712000 2.58063841 43 13 31495 11.47200000 2209389102 2209389102 13.00000000
-6.79251719 6.78304005 2.57214355 45 15 31496 9.93800000 2209389107 2209389107 15.00000000
-1.48246753 1.48453891 -0.56215495 4 0 31504 2.17200000 2209389127 2209389127 -15.00000000
-1.71652496 1.72012377 -0.56102794 3 2 31506 2.49400000 2209389132 2209389132 -13.00000000
-2.03265786 2.03763080 -0.55945200 2 4 31507 2.93200000 2209389136 2209389136 -11.00000000
-2.49216175 2.50000334 -0.55909675 1 6 31509 3.57400000 2209389141 2209389141 -9.00000000
-3.14098549 3.15306926 -0.54646212 16 8 31511 4.48400000 2209389146 2209389146 -7.00000000
-3.48517227 3.49980164 -0.43211818 100 10 31512 4.95800000 2209389150 2209389150 -5.00000000
-7.16948700 7.20460939 -0.53267539 4 12 31514 10.17800000 2209389155 2209389155 -3.00000000
-7.87368059 7.91501522 2.57748914 51 13 31515 11.45800000 2209389157 2209389157 13.00000000
-6.76897240 6.80926037 2.57266140 45 15 31517 9.94000000 2209389162 2209389162 15.00000000
-1.47293627 1.48584652 -0.56060207 4 0 31525 2.16600000 2209389183 2209389183 -15.00000000
-1.70472300 1.72086585 -0.55922830 3 2 31527 2.48600000 2209389187 2209389187 -13.00000000
-2.02241325 2.04227710 -0.55868876 3 4 31528 2.92800000 2209389192 2209389192 -11.00000000
-2.48853993 2.51473713 -0.56034827 1 6 31530 3.58200000 2209389196 2209389196 -9.00000000
-3.12661624 3.16173744 -0.54597467 18 8 31532 4.48000000 2209389201 2209389201 -7.00000000
-3.45411253 3.49413204 -0.42985213 100 10 31533 4.93200000 2209389206 2209389206 -5.00000000
-7.19356298 7.28199005 -0.53644353 4 12 31535 10.25000000 2209389210 2209389210 -3.00000000
-7.84187889 7.94104767 2.57658935 45 13 31536 11.45400000 2209389213 2209389213 13.00000000
-6.75059128 6.83834600 2.57473183 45 15 31537 9.94800000 2209389217 2209389217 15.00000000
-1.46367502 1.48684883 -0.55904913 4 0 31545 2.16000000 2209389238 2209389238 -15.00000000
-1.71237183 1.74069822 -0.56372732 3 2 31547 2.50600000 2209389242 2209389242 -13.00000000
-2.01527190 2.04932427 -0.55868876 3 4 31548 2.92800000 2209389247 2209389247 -11.00000000
-2.49082303 2.53468013 -0.56285119 1 6 31550 3.59800000 2209389252 2209389252 -9.00000000
-3.11556053 3.17263198 -0.54597467 24 8 31552 4.48000000 2209389256 2209389256 -7.00000000
-3.43212438 3.49621511 -0.42863193 100 10 31553 4.91800000 2209389261 2209389261 -5.00000000
-7.21145868 7.35125494 -0.53968841 4 12 31555 10.31200000 2209389265 2209389265 -3.00000000
-7.80865431 7.96280670 2.57478976 53 13 31556 11.44600000 2209389268 2209389268 13.00000000
-6.72142601 6.85890293 2.57317901 45 15 31558 9.94200000 2209389272 2209389272 15.00000000
-1.45873642 1.49169445 -0.55904913 4 0 31564 2.16000000 2209389293 2209389293 -15.00000000
-1.70659006 1.74636698 -0.56372732 3 2 31566 2.50600000 2209389298 2209389298 -13.00000000
-2.01395273 2.06161332 -0.56021523 3 4 31567 2.93600000 2209389302 2209389302 -11.00000000
-2.47274494 2.53303123 -0.56066114 1 6 31569 3.58400000 2209389307 2209389307 -9.00000000
-3.10363650 3.18152523 -0.54573095 34 8 31571 4.47800000 2209389312 2209389312 -7.00000000
-3.41216564 3.49901867 -0.42758608 100 10 31572 4.90600000 2209389316 2209389316 -5.00000000
-7.15358734 7.34079885 -0.53717625 4 12 31574 10.26400000 2209389321 2209389321 -3.00000000
-7.78900480 7.99563694 2.57703924 53 13 31575 11.45600000 2209389323 2209389323 13.00000000
-6.69175816 6.87168074 2.57007313 45 15 31576 9.93000000 2209389328 2209389328 15.00000000
-1.45890391 1.50232089 -0.56111968 4 0 31584 2.16800000 2209389348 2209389348 -15.00000000
-1.70862651 1.76070452 -0.56642675 3 2 31586 2.51800000 2209389353 2209389353 -13.00000000
-2.00947809 2.07144904 -0.56097847 3 4 31587 2.94000000 2209389358 2209389358 -11.00000000
-2.45288849 2.53030062 -0.55815816 1 6 31589 3.56800000 2209389362 2209389362 -9.00000000
-3.07870007 3.17808151 -0.54329354 36 8 31591 4.45800000 2209389367 2209389367 -7.00000000
-3.39300084 3.50375175 -0.42671451 100 10 31592 4.89600000 2209389371 2209389371 -5.00000000
-7.13347530 7.37146568 -0.53759491 4 12 31594 10.27200000 2209389376 2209389376 -3.00000000
-7.76104736 8.02277660 2.57703924 51 13 31595 11.45600000 2209389378 2209389378 13.00000000
-6.67324066 6.90310621 2.57266140 42 15 31597 9.94000000 2209389383 2209389383 15.00000000
-1.45391405 1.50715053 -0.56111968 4 0 31603 2.16800000 2209389404 2209389404 -15.00000000
-1.68654859 1.74952495 -0.56102794 3 2 31605 2.49400000 2209389408 2209389408 -13.00000000
-2.00532246 2.08092880 -0.56174171 3 4 31606 2.94400000 2209389413 2209389413 -11.00000000
-2.44448423 2.53842092 -0.55815816 1 6 31608 3.56800000 2209389418 2209389418 -9.00000000
-3.05437946 3.17396998 -0.54085612 20 8 31610 4.43800000 2209389422 2209389422 -7.00000000
-3.37307572 3.50636888 -0.42566866 100 10 31611 4.88400000 2209389427 2209389427 -5.00000000
-7.10068607 7.38644171 -0.53696692 8 12 31613 10.26000000 2209389431 2209389431 -3.00000000
-7.72089720 8.03441811 2.57254028 48 13 31614 11.43600000 2209389434 2209389434 13.00000000
-6.64884424 6.92125034 2.57162595 45 15 31615 9.93600000 2209389438 2209389438 15.00000000
-1.45131707 1.51500654 -0.56215495 4 0 31623 2.17200000 2209389459 2209389459 -15.00000000
-1.68043137 1.75540149 -0.56102794 3 2 31625 2.49400000 2209389464 2209389464 -13.00000000
-1.99261689 2.08224225 -0.56021523 3 4 31626 2.93600000 2209389468 2209389468 -11.00000000
-2.46427894 2.57691908 -0.56472844 1 6 31628 3.61000000 2209389473 2209389473 -9.00000000
-3.04465318 3.18604755 -0.54109991 14 8 31630 4.44000000 2209389477 2209389477 -7.00000000
-3.35806298 3.51524043 -0.42532003 100 10 31631 4.88000000 2209389482 2209389482 -5.00000000
-7.25276518 7.59754562 -0.55046958 12 12 31633 10.51800000 2209389487 2209389487 -3.00000000
-7.68607807 8.05427170 2.57029080 51 13 31634 11.42600000 2209389489 2209389489 13.00000000
-6.63143158 6.95396137 2.57473183 45 15 31636 9.94800000 2209389494 2209389494 15.00000000
-1.44601977 1.52006328 -0.56215495 4 0 31643 2.17200000 2209389514 2209389514 -15.00000000
-1.68772018 1.77538049 -0.56552696 3 2 31645 2.51400000 2209389519 2209389519 -13.00000000
-1.98533642 2.08918500 -0.56021523 3 4 31646 2.93600000 2209389524 2209389524 -11.00000000
-2.44574690 2.57547832 -0.56253833 1 6 31648 3.59600000 2209389528 2209389528 -9.00000000
-3.04444480 3.20817542 -0.54304981 12 8 31650 4.45600000 2209389533 2209389533 -7.00000000
-3.33205986 3.51248622 -0.42357692 100 10 31651 4.86000000 2209389537 2209389537 -5.00000000
-7.26192665 7.66050291 -0.55319107 12 12 31653 10.57000000 2209389542 2209389542 -3.00000000
-7.65389538 8.07680798 2.56894112 48 13 31654 11.42000000 2209389544 2209389544 13.00000000
-6.60036325 6.96749878 2.57162595 42 15 31655 9.93600000 2209389549 2209389549 15.00000000
-1.43009210 1.51386702 -0.55801386 4 0 31663 2.15600000 2209389570 2209389570 -15.00000000
-1.68820119 1.78834629 -0.56777644 4 2 31665 2.52400000 2209389574 2209389574 -13.00000000
-1.98072660 2.09895825 -0.56097847 3 4 31666 2.94000000 2209389579 2209389579 -11.00000000
-2.43267608 2.57968855 -0.56159973 1 6 31668 3.59000000 2209389583 2209389583 -9.00000000
-3.03867316 3.22456169 -0.54402477 12 8 31670 4.46400000 2209389588 2209389588 -7.00000000
-3.30475092 3.50814319 -0.42165947 83 10 31671 4.83800000 2209389593 2209389593 -5.00000000
-7.10098028 7.54328680 -0.54293323 8 12 31673 10.37400000 2209389597 2209389597 -3.00000000
-7.62832642 8.10631466 2.56984091 50 13 31674 11.42400000 2209389600 2209389600 13.00000000
-6.56276512 6.97642469 2.56644964 42 15 31675 9.91600000 2209389604 2209389604 15.00000000
-1.42717683 1.52191675 -0.55904913 4 0 31684 2.16000000 2209389625 2209389625 -15.00000000
-1.67763770 1.79025590 -0.56642675 3 2 31686 2.51800000 2209389630 2209389630 -13.00000000
-1.97838891 2.11193490 -0.56250495 3 4 31687 2.94800000 2209389634 2209389634 -11.00000000
-2.42050481 2.58570313 -0.56097400 1 6 31689 3.58600000 2209389639 2209389639 -9.00000000
-3.03768301 3.24727464 -0.54597467 10 8 31691 4.48000000 2209389643 2209389643 -7.00000000
-3.28914905 3.51732159 -0.42131087 46 10 31692 4.83400000 2209389648 2209389648 -5.00000000
-7.09510374 7.59261084 -0.54460794 8 12 31694 10.40600000 2209389653 2209389653 -3.00000000
-7.59989405 8.13564301 2.57029080 51 13 31695 11.42600000 2209389655 2209389655 13.00000000
-6.53583288 6.99901962 2.56593204 40 15 31696 9.91400000 2209389659 2209389659 15.00000000
-1.42975485 1.53537190 -0.56215495 4 0 31704 2.17200000 2209389680 2209389680 -15.00000000
-1.66075802 1.78468823 -0.56282753 3 2 31706 2.50200000 2209389685 2209389685 -13.00000000
-1.98170233 2.13032770 -0.56555784 3 4 31707 2.96400000 2209389689 2209389689 -11.00000000
-2.41684389 2.59992385 -0.56222546 1 6 31709 3.59400000 2209389694 2209389694 -9.00000000
-3.02768040 3.25931287 -0.54621840 10 8 31711 4.48200000 2209389699 2209389699 -7.00000000
-3.27685142 3.52878141 -0.42131087 8 10 31712 4.83400000 2209389703 2209389703 -5.00000000
-7.84575510 8.45190811 2.24162412 3 11 31713 11.74800000 2209389706 2209389706 11.00000000
-7.03051805 7.57633829 -0.54167712 4 12 31714 10.35000000 2209389708 2209389708 -3.00000000
-7.56482267 8.15497875 2.56804132 48 13 31715 11.41600000 2209389710 2209389710 13.00000000
-6.51932955 7.03284502 2.56955552 42 15 31717 9.92800000 2209389715 2209389715 15.00000000
-1.43252647 1.54861355 -0.56526077 4 0 31723 2.18400000 2209389736 2209389736 -15.00000000
-1.66276741 1.79877174 -0.56552696 3 2 31725 2.51400000 2209389740 2209389740 -13.00000000
-1.96663260 2.12823629 -0.56326813 3 4 31726 2.95200000 2209389745 2209389745 -11.00000000
-2.40820909 2.60792398 -0.56222546 1 6 31728 3.59400000 2209389749 2209389749 -9.00000000
-3.01281691 3.26495838 -0.54548717 10 8 31730 4.47600000 2209389754 2209389754 -7.00000000
-4.28911543 4.64969826 -0.55343896 3 10 31731 6.35000000 2209389759 2209389759 -5.00000000
-7.01076984 7.60548496 -0.54209584 4 12 31733 10.35800000 2209389763 2209389763 -3.00000000
-7.52717400 8.16855526 2.56444192 50 13 31734 11.40000000 2209389765 2209389765 13.00000000
-6.49982071 7.05613327 2.57059073 40 15 31735 9.93200000 2209389770 2209389770 15.00000000
-1.42449832 1.55075920 -0.56422549 4 0 31743 2.18000000 2209389791 2209389791 -15.00000000
-1.65647840 1.80456483 -0.56552696 3 2 31745 2.51400000 2209389795 2209389795 -13.00000000
-1.95388222 2.12930202 -0.56174171 3 4 31746 2.94400000 2209389800 2209389800 -11.00000000
-2.40042615 2.61777020 -0.56253833 1 6 31748 3.59600000 2209389805 2209389805 -9.00000000
-3.00810742 3.28277302 -0.54670590 10 8 31750 4.48600000 2209389809 2209389809 -7.00000000
-4.27420473 4.66611099 -0.55361331 3 10 31751 6.35200000 2209389814 2209389814 -5.00000000
-6.99092197 7.63727713 -0.54261917 8 12 31753 10.36800000 2209389818 2209389818 -3.00000000
-7.49992990 8.19621754 2.56489182 51 13 31754 11.40200000 2209389821 2209389821 13.00000000
-6.46732712 7.07022619 2.56748486 40 15 31755 9.92000000 2209389825 2209389825 15.00000000
-1.41517079 1.55144036 -0.56267262 4 0 31763 2.17400000 2209389846 2209389846 -15.00000000
-1.65279484 1.81321645 -0.56642675 3 2 31765 2.51800000 2209389851 2209389851 -13.00000000
-1.95172691 2.14191389 -0.56326813 2 4 31766 2.95200000 2209389855 2209389855 -11.00000000
-2.38595390 2.62029099 -0.56128687 1 6 31768 3.58800000 2209389860 2209389860 -9.00000000
-3.00197387 3.29912639 -0.54768085 10 8 31770 4.49400000 2209389864 2209389864 -7.00000000
-4.26861620 4.69279289 -0.55500776 3 10 31771 6.36800000 2209389869 2209389869 -5.00000000
-6.97765446 7.67641258 -0.54366589 4 12 31773 10.38800000 2209389874 2209389874 -3.00000000
-7.47389507 8.22523212 2.56579161 51 13 31774 11.40600000 2209389876 2209389876 13.00000000
-6.43871117 7.08846855 2.56593204 40 15 31775 9.91400000 2209389881 2209389881 15.00000000
-1.41234040 1.55923438 -0.56370789 4 0 31783 2.17800000 2209389901 2209389901 -15.00000000
-1.65691745 1.83053303 -0.57002598 3 2 31785 2.53400000 2209389906 2209389906 -13.00000000
-1.94950724 2.15453672 -0.56479460 2 4 31786 2.96000000 2209389911 2209389911 -11.00000000
-2.37414312 2.62567306 -0.56066114 1 6 31788 3.58400000 2209389915 2209389915 -9.00000000
-2.99310136 3.31253076 -0.54816830 12 8 31790 4.49800000 2209389920 2209389920 -7.00000000
-4.26155758 4.71801424 -0.55622792 7 10 31791 6.38200000 2209389924 2209389924 -5.00000000
-6.97356606 7.72592688 -0.54544532 4 12 31793 10.42200000 2209389929 2209389929 -3.00000000
-7.44774914 8.25416470 2.56669164 55 13 31794 11.41000000 2209389931 2209389931 13.00000000
-6.41398144 7.11345482 2.56644964 40 15 31796 9.91600000 2209389936 2209389936 15.00000000
-1.41334867 1.57133651 -0.56629604 4 0 31803 2.18800000 2209389957 2209389957 -15.00000000
-1.63749063 1.82181227 -0.56552696 3 2 31805 2.51400000 2209389961 2209389961 -13.00000000
-1.95247185 2.17301154 -0.56784755 2 4 31806 2.97600000 2209389966 2209389966 -11.00000000
-2.38739872 2.65893173 -0.56597990 1 6 31808 3.61800000 2209389970 2209389970 -9.00000000
-2.97886872 3.32000351 -0.54768085 12 8 31810 4.49400000 2209389975 2209389975 -7.00000000
-4.24905396 4.73731089 -0.55675089 7 10 31811 6.38800000 2209389980 2209389980 -5.00000000
-6.96388483 7.76955700 -0.54680610 4 12 31813 10.44800000 2209389984 2209389984 -3.00000000
-7.40198612 8.26124382 2.56084275 31 13 31814 11.38400000 2209389987 2209389987 13.00000000
-6.39035702 7.13468504 2.56644964 42 15 31815 9.91600000 2209389991 2209389991 15.00000000
-1.40656817 1.57481956 -0.56577843 4 0 31823 2.18600000 2209390012 2209390012 -15.00000000
-1.63112128 1.82751703 -0.56552696 3 2 31825 2.51400000 2209390016 2209390016 -13.00000000
-1.94226062 2.17688370 -0.56708431 3 4 31826 2.97200000 2209390021 2209390021 -11.00000000
-2.35838389 2.64513254 -0.56128687 1 6 31828 3.58800000 2209390026 2209390026 -9.00000000
-2.95933843 3.32148862 -0.54621840 12 8 31830 4.48200000 2209390030 2209390030 -7.00000000
-4.23911715 4.75955296 -0.55762243 7 10 31831 6.39800000 2209390035 2209390035 -5.00000000
-6.92477083 7.78039074 -0.54586405 4 12 31833 10.43000000 2209390040 2209390040 -3.00000000
-6.34330463 7.12958384 2.20317054 14 13 31834 9.79400000 2209390042 2209390042 13.00000000
-6.37054873 7.16272211 2.56852031 45 15 31835 9.92400000 2209390046 2209390046 15.00000000
-1.39978063 1.57827449 -0.56526077 4 0 31843 2.18400000 2209390067 2209390067 -15.00000000
-1.62214708 1.83028281 -0.56462717 3 2 31845 2.51000000 2209390072 2209390072 -13.00000000
-1.92683852 2.17483330 -0.56479460 3 4 31846 2.96000000 2209390076 2209390076 -11.00000000
-2.36746860 2.67405486 -0.56566703 1 6 31848 3.61600000 2209390081 2209390081 -9.00000000
-2.95824909 3.34369230 -0.54816830 12 8 31850 4.49800000 2209390086 2209390086 -7.00000000
-4.22907734 4.78178358 -0.55849397 7 10 31851 6.40800000 2209390090 2209390090 -5.00000000
-6.93592691 7.84791517 -0.54889953 4 12 31853 10.48800000 2209390095 2209390095 -3.00000000
-6.28870296 7.11809301 2.19282293 15 13 31854 9.74800000 2209390097 2209390097 13.00000000
-6.33146763 7.17154121 2.56334376 45 15 31856 9.90400000 2209390102 2209390102 15.00000000
-1.38277173 1.57010317 -0.56060207 4 0 31863 2.16600000 2209390122 2209390122 -15.00000000
-1.62347305 1.84471142 -0.56732655 3 2 31865 2.52200000 2209390127 2209390127 -13.00000000
-1.93479657 2.19923425 -0.56937402 3 4 31866 2.98400000 2209390132 2209390132 -11.00000000
-2.36855412 2.69417119 -0.56816995 1 6 31868 3.63200000 2209390136 2209390136 -9.00000000
-2.94393897 3.35101557 -0.54768085 12 8 31870 4.49400000 2209390141 2209390141 -7.00000000
-4.21104527 4.79501963 -0.55831969 3 10 31871 6.40600000 2209390146 2209390146 -5.00000000
-6.91902924 7.88408756 -0.54973686 4 12 31873 10.50400000 2209390150 2209390150 -3.00000000
-6.24968147 7.12388706 2.18787384 17 13 31874 9.72600000 2209390152 2209390152 13.00000000
-6.28347254 7.16745043 2.55402637 42 15 31876 9.86800000 2209390157 2209390157 15.00000000
-1.38292122 1.58025455 -0.56267262 4 0 31881 2.17400000 2209390178 2209390178 -15.00000000
-1.60997260 1.84100091 -0.56462717 3 2 31883 2.51000000 2209390182 2209390182 -13.00000000
-1.91754079 2.19347715 -0.56632107 3 4 31884 2.96800000 2209390187 2209390187 -11.00000000
-2.33148718 2.66887045 -0.56128687 1 6 31886 3.58800000 2209390192 2209390192 -9.00000000
-2.93861890 3.36622930 -0.54865581 12 8 31888 4.50200000 2209390196 2209390196 -7.00000000
-4.20644045 4.82023478 -0.55971420 3 10 31889 6.42200000 2209390201 2209390201 -5.00000000
-6.90997887 7.92384911 -0.55099297 4 12 31891 10.52800000 2209390205 2209390205 -3.00000000
-6.07616615 6.97014999 2.13478541 73 13 31892 9.49000000 2209390208 2209390208 13.00000000
-6.28249645 7.21191835 2.56282616 38 15 31894 9.90200000 2209390212 2209390212 15.00000000
-1.38119817 1.58944690 -0.56422549 4 0 31901 2.18000000 2209390233 2209390233 -15.00000000
-1.60225880 1.84513819 -0.56417722 4 2 31903 2.50800000 2209390238 2209390238 -13.00000000
-1.91244638 2.20312238 -0.56708431 3 4 31904 2.97200000 2209390242 2209390242 -11.00000000
-2.32992315 2.68594575 -0.56316406 1 6 31906 3.60000000 2209390247 2209390247 -9.00000000
-2.92295003 3.37196660 -0.54792458 12 8 31908 4.49600000 2209390252 2209390252 -7.00000000
-4.19219875 4.83790016 -0.56006283 3 10 31909 6.42600000 2209390256 2209390256 -5.00000000
-6.89796638 7.96603918 -0.55224901 4 12 31911 10.55200000 2209390261 2209390261 -3.00000000
-6.16275930 7.11950397 2.17392707 19 13 31912 9.66400000 2209390263 2209390263 13.00000000
-6.13469124 7.09207964 2.51261520 42 15 31914 9.70800000 2209390268 2209390268 15.00000000
-1.38265419 1.60351694 -0.56733137 4 0 31923 2.19200000 2209390288 2209390288 -15.00000000
-1.59389007 1.84980047 -0.56372732 4 2 31925 2.50600000 2209390293 2209390293 -13.00000000
-1.89628530 2.20152426 -0.56479460 3 4 31926 2.96000000 2209390298 2209390298 -11.00000000
-2.33119082 2.70834637 -0.56597990 1 6 31928 3.61800000 2209390302 2209390302 -9.00000000
-2.91127539 3.38467002 -0.54816830 14 8 31930 4.49800000 2209390307 2209390307 -7.00000000
-4.19827175 4.88266516 -0.56337470 7 10 31931 6.46400000 2209390311 2209390311 -5.00000000
-6.87253475 7.99852610 -0.55266768 4 12 31933 10.56000000 2209390316 2209390316 -3.00000000
-6.11633062 7.12094021 2.16717839 19 13 31934 9.63400000 2209390318 2209390318 13.00000000
-6.23702097 7.26401854 2.56541443 45 15 31935 9.91200000 2209390323 2209390323 15.00000000
-1.36950982 1.59952879 -0.56422549 4 0 31943 2.18000000 2209390344 2209390344 -15.00000000
-1.58995712 1.85831439 -0.56462717 4 2 31945 2.51000000 2209390348 2209390348 -13.00000000
-1.89114106 2.21111417 -0.56555784 3 4 31946 2.96400000 2209390353 2209390353 -11.00000000
-2.33327341 2.72998214 -0.56879574 1 6 31948 3.63600000 2209390357 2209390357 -9.00000000
-2.89557528 3.39028311 -0.54743707 12 8 31950 4.49200000 2209390362 2209390362 -7.00000000
-4.19284582 4.91092730 -0.56494355 7 10 31951 6.48200000 2209390367 2209390367 -5.00000000
-6.04755259 7.08578110 1.81077731 9 11 31952 9.49000000 2209390369 2209390369 11.00000000
-6.87698078 8.06045246 -0.55528450 8 12 31953 10.61000000 2209390371 2209390371 -3.00000000
-6.08132029 7.13038540 2.16357923 20 13 31954 9.61800000 2209390374 2209390374 13.00000000
-6.20534277 7.28094816 2.56334376 45 15 31956 9.90400000 2209390378 2209390378 15.00000000
-1.36197436 1.60088050 -0.56319022 4 0 31961 2.17600000 2209390399 2209390399 -15.00000000
-1.59420919 1.87517786 -0.56822634 4 2 31963 2.52600000 2209390404 2209390404 -13.00000000
-1.88927090 2.22302842 -0.56708431 3 4 31964 2.97200000 2209390408 2209390408 -11.00000000
-2.32084942 2.73278189 -0.56785709 1 6 31966 3.63000000 2209390413 2209390413 -9.00000000
-2.89004803 3.40541720 -0.54841202 12 8 31968 4.50000000 2209390417 2209390417 -7.00000000
-4.15419674 4.89672756 -0.56180590 7 10 31969 6.44600000 2209390422 2209390422 -5.00000000
-6.03415060 7.11522627 1.81344867 18 11 31970 9.50400000 2209390424 2209390424 11.00000000
-6.83741760 8.06525898 -0.55413312 4 12 31971 10.58800000 2209390427 2209390427 -3.00000000
-6.04881048 7.13756132 2.15998006 15 13 31972 9.60200000 2209390429 2209390429 13.00000000
-6.17871761 7.29343176 2.56127334 45 15 31973 9.89600000 2209390434 2209390434 15.00000000
-1.35887134 1.60857642 -0.56422549 4 0 31981 2.18000000 2209390454 2209390454 -15.00000000
-1.58388269 1.87626398 -0.56687665 4 2 31983 2.52000000 2209390459 2209390459 -13.00000000
-1.87390268 2.22060704 -0.56479460 2 4 31984 2.96000000 2209390463 2209390463 -11.00000000
-2.30365539 2.73180580 -0.56597990 1 6 31986 3.61800000 2209390468 2209390468 -9.00000000
-2.87814331 3.41548467 -0.54841202 10 8 31988 4.50000000 2209390473 2209390473 -7.00000000
-4.13964558 4.91424608 -0.56215453 7 10 31989 6.45000000 2209390477 2209390477 -5.00000000
-6.01939392 7.14826012 1.81650162 21 11 31990 9.52000000 2209390480 2209390480 11.00000000
-6.81822634 8.09977245 -0.55486584 4 12 31991 10.60200000 2209390482 2209390482 -3.00000000
-6.00001907 7.13030195 2.15143180 14 13 31992 9.56400000 2209390484 2209390484 13.00000000
-6.14945745 7.31307173 2.56023788 45 15 31994 9.89200000 2209390489 2209390489 15.00000000
-1.36041403 1.62242806 -0.56733137 4 0 32002 2.19200000 2209390510 2209390510 -15.00000000
-1.57824683 1.88355029 -0.56732655 4 2 32004 2.52200000 2209390514 2209390514 -13.00000000
-1.87331498 2.23649073 -0.56708431 3 4 32005 2.97200000 2209390519 2209390519 -11.00000000
-2.30123472 2.74931931 -0.56785709 1 6 32007 3.63000000 2209390523 2209390523 -9.00000000
-2.86560559 3.42601061 -0.54841202 10 8 32009 4.50000000 2209390528 2209390528 -7.00000000
-4.14844465 4.96148396 -0.56581509 7 10 32010 6.49200000 2209390533 2209390533 -5.00000000
-6.00826263 7.18835020 1.82108104 6 11 32011 9.54400000 2209390535 2209390535 11.00000000
-6.79361582 8.13083935 -0.55528450 4 12 32012 10.61000000 2209390537 2209390537 -3.00000000
-5.96135283 7.13728857 2.14693284 10 13 32013 9.54400000 2209390540 2209390540 13.00000000
-6.12389278 7.33449268 2.56023788 40 15 32014 9.89200000 2209390544 2209390544 15.00000000
-1.34732592 1.61825907 -0.56422549 4 0 32022 2.18000000 2209390565 2209390565 -15.00000000
-1.57041597 1.88754988 -0.56687665 4 2 32024 2.52000000 2209390569 2209390569 -13.00000000
-1.86800754 2.24603486 -0.56784755 3 4 32025 2.97600000 2209390574 2209390574 -11.00000000
-2.28026032 2.74366260 -0.56504130 1 6 32027 3.61200000 2209390579 2209390579 -9.00000000
-2.86758018 3.45279074 -0.55109316 8 8 32029 4.52200000 2209390583 2209390583 -7.00000000
-4.12982798 4.97440147 -0.56564075 3 10 32030 6.49000000 2209390588 2209390588 -5.00000000
-6.02200174 7.25611258 1.83291125 12 11 32031 9.60600000 2209390590 2209390590 11.00000000
-6.76391697 8.15296650 -0.55517983 4 12 32032 10.60800000 2209390592 2209390592 -3.00000000
-5.98118687 7.21205473 2.16312933 12 13 32033 9.61600000 2209390595 2209390595 13.00000000
-6.04889393 7.29887819 2.54005003 45 15 32035 9.81400000 2209390599 2209390599 15.00000000
-1.34659243 1.62890804 -0.56629604 4 0 32042 2.18800000 2209390620 2209390620 -15.00000000
-1.56629992 1.89602494 -0.56777644 4 2 32044 2.52400000 2209390625 2209390625 -13.00000000
-1.85515559 2.24648666 -0.56632107 3 4 32045 2.96800000 2209390629 2209390629 -11.00000000
-2.27444124 2.75617623 -0.56597990 1 6 32047 3.61800000 2209390634 2209390634 -9.00000000
-2.88329506 3.49647307 -0.55645543 8 8 32049 4.56600000 2209390639 2209390639 -7.00000000
-4.14031982 5.02260971 -0.56947565 4 10 32050 6.53400000 2209390643 2209390643 -5.00000000
-6.75446510 8.19965076 -0.55674988 4 12 32052 10.63800000 2209390648 2209390648 -3.00000000
-7.02007341 8.52512074 2.54959536 30 13 32053 11.33400000 2209390650 2209390650 13.00000000
-6.07499504 7.38004971 2.56127334 42 15 32054 9.89600000 2209390655 2209390655 15.00000000
-1.33722126 1.62911892 -0.56474316 4 0 32062 2.18200000 2209390675 2209390675 -15.00000000
-1.57203078 1.91654801 -0.57227546 4 2 32064 2.54400000 2209390680 2209390680 -13.00000000
-1.84979224 2.25598502 -0.56708431 2 4 32065 2.97200000 2209390685 2209390685 -11.00000000
-2.26605844 2.76562667 -0.56629276 1 6 32067 3.62000000 2209390689 2209390689 -9.00000000
-2.89748168 3.53877068 -0.56157392 8 8 32069 4.60800000 2209390694 2209390694 -7.00000000
-4.10509539 5.01544619 -0.56703526 4 10 32070 6.50600000 2209390698 2209390698 -5.00000000
-6.74476910 8.24636841 -0.55831999 8 12 32072 10.66800000 2209390703 2209390703 -3.00000000
-6.99643993 8.55711651 2.55184484 51 13 32073 11.34400000 2209390705 2209390705 13.00000000
-6.04057121 7.39329004 2.55816746 40 15 32075 9.88400000 2209390710 2209390710 15.00000000
-1.34129012 1.64575684 -0.56888425 5 0 32082 2.19800000 2209390731 2209390731 -15.00000000
-1.55548632 1.90993547 -0.56867629 4 2 32084 2.52800000 2209390735 2209390735 -13.00000000
-1.84438515 2.26547313 -0.56784755 2 4 32085 2.97600000 2209390740 2209390740 -11.00000000
-2.27010369 2.79037547 -0.56973433 1 6 32087 3.64200000 2209390745 2209390745 -9.00000000
-2.89763379 3.56426620 -0.56401134 8 8 32089 4.62800000 2209390749 2209390749 -7.00000000
-4.07876730 5.01892185 -0.56581509 3 10 32090 6.49200000 2209390754 2209390754 -5.00000000
-6.72475624 8.28071499 -0.55905271 4 12 32092 10.68200000 2209390758 2209390758 -3.00000000
-6.97144032 8.58753872 2.55364442 57 13 32093 11.35200000 2209390761 2209390761 13.00000000
-6.02089024 7.41928053 2.56023788 42 15 32094 9.89200000 2209390765 2209390765 15.00000000
-1.33189154 1.64592350 -0.56733137 5 0 32102 2.19200000 2209390786 2209390786 -15.00000000
-1.54635930 1.91232288 -0.56777644 4 2 32104 2.52400000 2209390791 2209390791 -13.00000000
-1.84633934 2.28411198 -0.57090050 3 4 32105 2.99200000 2209390795 2209390795 -11.00000000
-2.24917817 2.78445268 -0.56691849 1 6 32107 3.62400000 2209390800 2209390800 -9.00000000
-2.88268089 3.57126975 -0.56352383 8 8 32109 4.62400000 2209390804 2209390804 -7.00000000
-4.08249235 5.05948830 -0.56877840 4 10 32110 6.52600000 2209390809 2209390809 -5.00000000
-6.71336126 8.32590485 -0.56051809 4 12 32112 10.71000000 2209390814 2209390814 -3.00000000
-6.94019890 8.61030388 2.55319452 59 13 32113 11.35000000 2209390816 2209390816 13.00000000
-5.99365664 7.44129848 2.56023788 40 15 32115 9.89200000 2209390821 2209390821 15.00000000
-1.33097804 1.65658653 -0.56940192 5 0 32122 2.20000000 2209390841 2209390841 -15.00000000
-1.54089463 1.91922867 -0.56822634 4 2 32124 2.52600000 2209390846 2209390846 -13.00000000
-1.83343971 2.28441858 -0.56937402 2 4 32125 2.98400000 2209390851 2209390851 -11.00000000
-2.25427580 2.81077886 -0.57067293 1 6 32127 3.64800000 2209390855 2209390855 -9.00000000
-2.87019706 3.58131051 -0.56352383 8 8 32129 4.62400000 2209390860 2209390860 -7.00000000
-4.08100128 5.09392214 -0.57104445 4 10 32130 6.55200000 2209390864 2209390864 -5.00000000
-6.68800259 8.35396576 -0.56083208 4 12 32132 10.71600000 2209390869 2209390869 -3.00000000
-6.90036011 8.62230587 2.54959536 57 13 32133 11.33400000 2209390871 2209390871 13.00000000
-5.97136116 7.46415043 2.56127334 42 15 32134 9.89600000 2209390876 2209390876 15.00000000
-1.31795907 1.65216124 -0.56629604 4 0 32142 2.18800000 2209390897 2209390897 -15.00000000
-1.54511833 1.93831015 -0.57227546 4 2 32144 2.54400000 2209390901 2209390901 -13.00000000
-1.81811345 2.28159213 -0.56708431 2 4 32145 2.97200000 2209390906 2209390906 -11.00000000
-2.23460650 2.80626822 -0.56816995 1 6 32147 3.63200000 2209390910 2209390910 -9.00000000
-2.86138654 3.59596753 -0.56425506 8 8 32149 4.63000000 2209390915 2209390915 -7.00000000
-4.05575323 5.09878063 -0.56999856 4 10 32150 6.54000000 2209390920 2209390920 -5.00000000
-6.67247152 8.39445877 -0.56198353 4 12 32152 10.73800000 2209390924 2209390924 -3.00000000
-6.87264538 8.64939117 2.55049515 60 13 32153 11.33800000 2209390927 2209390927 13.00000000
-5.94286680 7.48192358 2.56023788 42 15 32154 9.89200000 2209390931 2209390931 15.00000000
-1.30018950 1.64160776 -0.56111968 4 0 32162 2.16800000 2209390952 2209390952 -15.00000000
-1.53713357 1.94216371 -0.57182556 4 2 32164 2.54200000 2209390957 2209390957 -13.00000000
-1.81744695 2.29716253 -0.56937402 2 4 32165 2.98400000 2209390961 2209390961 -11.00000000
-2.23214793 2.82334876 -0.57004720 1 6 32167 3.64400000 2209390966 2209390966 -9.00000000
-2.85127807 3.60904908 -0.56474257 8 8 32169 4.63400000 2209390970 2209390970 -7.00000000
-4.03916550 5.11447048 -0.57017285 4 10 32170 6.54200000 2209390975 2209390975 -5.00000000
-6.65055227 8.42710590 -0.56261152 4 12 32172 10.75000000 2209390980 2209390980 -3.00000000
-6.84482527 8.67638874 2.55139494 56 13 32173 11.34200000 2209390982 2209390982 13.00000000
-5.91073275 7.49503756 2.55764985 45 15 32174 9.88200000 2209390986 2209390986 15.00000000
-1.30400443 1.65828490 -0.56526077 4 0 32182 2.18400000 2209391007 2209391007 -15.00000000
-1.52914071 1.94598520 -0.57137567 4 2 32184 2.54000000 2209391012 2209391012 -13.00000000
-1.81426823 2.30966830 -0.57090050 2 4 32185 2.99200000 2209391016 2209391016 -11.00000000
-2.21740007 2.82490778 -0.56879574 1 6 32187 3.63600000 2209391021 2209391021 -9.00000000
-2.84233832 3.62366557 -0.56547374 8 8 32189 4.64000000 2209391026 2209391026 -7.00000000
-4.03727007 5.14892101 -0.57243890 4 10 32190 6.56800000 2209391030 2209391030 -5.00000000
-6.62602329 8.45655823 -0.56303024 4 12 32192 10.75800000 2209391035 2209391035 -3.00000000
-6.81449747 8.70022869 2.55139494 57 13 32193 11.34200000 2209391037 2209391037 13.00000000
-5.88441324 7.51817274 2.55816746 42 15 32195 9.88400000 2209391042 2209391042 15.00000000
-1.30682194 1.67325771 -0.56888425 4 0 32201 2.19800000 2209391063 2209391063 -15.00000000
-1.52028131 1.94797277 -0.57047588 4 2 32203 2.53600000 2209391067 2209391067 -13.00000000
-1.81384480 2.32495928 -0.57319021 4 4 32204 3.00400000 2209391072 2209391072 -11.00000000
-2.20437670 2.82757187 -0.56785709 1 6 32206 3.63000000 2209391076 2209391076 -9.00000000
-2.83030605 3.63307118 -0.56547374 8 8 32208 4.64000000 2209391081 2209391081 -7.00000000
-4.01282835 5.15284920 -0.57139307 4 10 32209 6.55600000 2209391086 2209391086 -5.00000000
-6.62860918 8.51788998 -0.56564701 4 12 32211 10.80800000 2209391090 2209391090 -3.00000000
-6.78082275 8.71662617 2.54959536 62 13 32212 11.33400000 2209391092 2209391092 13.00000000
-5.86313677 7.53967190 2.55920267 42 15 32213 9.88800000 2209391097 2209391097 15.00000000
-1.29387057 1.66864908 -0.56577843 3 0 32221 2.18600000 2209391118 2209391118 -15.00000000
-1.51108515 1.95018685 -0.56957608 4 2 32223 2.53200000 2209391122 2209391122 -13.00000000
-1.79610050 2.31885982 -0.57013726 2 4 32224 2.98800000 2209391127 2209391127 -11.00000000
-2.21021128 2.85555673 -0.57192439 1 6 32226 3.65600000 2209391132 2209391132 -9.00000000
-2.81639266 3.64135861 -0.56523001 8 8 32228 4.63800000 2209391136 2209391136 -7.00000000
-4.00456619 5.17943478 -0.57278752 4 10 32229 6.57200000 2209391141 2209391141 -5.00000000
-6.60738325 8.55204010 -0.56637973 4 12 32231 10.82200000 2209391145 2209391145 -3.00000000
-6.74320745 8.73098850 2.54689574 56 13 32232 11.32200000 2209391148 2209391148 13.00000000
-5.83678293 7.56009197 2.55920267 42 15 32233 9.88800000 2209391152 2209391152 15.00000000
-1.29481494 1.68256617 -0.56888425 4 0 32242 2.19800000 2209391174 2209391174 -15.00000000
-1.51343071 1.96807051 -0.57317531 4 2 32244 2.54800000 2209391179 2209391179 -13.00000000
-1.78758943 2.32542729 -0.57013726 2 4 32245 2.98800000 2209391183 2209391183 -11.00000000
-2.19973016 2.86363840 -0.57192439 1 6 32247 3.65600000 2209391188 2209391188 -9.00000000
-2.80302739 3.65165663 -0.56523001 8 8 32249 4.63800000 2209391192 2209391192 -7.00000000
-3.97949147 5.18617439 -0.57191598 4 10 32250 6.56200000 2209391197 2209391197 -5.00000000
-6.58085537 8.58253956 -0.56679839 4 12 32252 10.83000000 2209391202 2209391202 -3.00000000
-6.71116161 8.75564480 2.54689574 60 13 32253 11.32200000 2209391204 2209391204 13.00000000
-5.80433464 7.57530022 2.55713224 40 15 32254 9.88000000 2209391209 2209391209 15.00000000
-1.27955127 1.67479479 -0.56474316 4 0 32262 2.18200000 2209391229 2209391229 -15.00000000
-1.51128173 1.97953713 -0.57497489 4 2 32264 2.55600000 2209391234 2209391234 -13.00000000
-1.78660762 2.34101701 -0.57242697 2 4 32265 3.00000000 2209391239 2209391239 -11.00000000
-2.18492937 2.86501646 -0.57067293 1 6 32267 3.64800000 2209391243 2209391243 -9.00000000
-2.79387331 3.66615534 -0.56596124 6 8 32269 4.64400000 2209391248 2209391248 -7.00000000
-3.97464514 5.21746731 -0.57383341 4 10 32270 6.58400000 2209391252 2209391252 -5.00000000
-6.58593988 8.65154457 -0.56983387 4 12 32272 10.88800000 2209391257 2209391257 -3.00000000
-6.68527842 8.78522110 2.54869556 60 13 32273 11.33000000 2209391259 2209391259 13.00000000
-5.77419186 7.59344816 2.55609679 45 15 32275 9.87600000 2209391264 2209391264 15.00000000
-1.28245938 1.68957782 -0.56836665 4 0 32280 2.19600000 2209391285 2209391285 -15.00000000
-1.49798942 1.97495937 -0.57227546 4 2 32282 2.54400000 2209391289 2209391289 -13.00000000
-1.78873360 2.35913348 -0.57547992 2 4 32283 3.01600000 2209391294 2209391294 -11.00000000
-2.17233920 2.86714315 -0.56973433 1 6 32285 3.64200000 2209391298 2209391298 -9.00000000
-2.77994561 3.67174911 -0.56547374 6 8 32287 4.64000000 2209391303 2209391303 -7.00000000
-3.96665096 5.24104929 -0.57505357 4 10 32288 6.59800000 2209391308 2209391308 -5.00000000
-6.54788494 8.65785599 -0.56889182 4 12 32290 10.87000000 2209391312 2209391312 -3.00000000
-6.65999603 8.80928898 2.54959536 60 13 32291 11.33400000 2209391315 2209391315 13.00000000
-5.75513077 7.61517048 2.55764985 45 15 32292 9.88200000 2209391319 2209391319 15.00000000
-1.28352952 1.70330119 -0.57147247 4 0 32300 2.20800000 2209391340 2209391340 -15.00000000
-1.49108636 1.98017621 -0.57227546 4 2 32302 2.54400000 2209391344 2209391344 -13.00000000
-1.77812648 2.36222577 -0.57471669 4 4 32303 3.01200000 2209391349 2209391349 -11.00000000
-2.17537951 2.89207363 -0.57317591 1 6 32305 3.66400000 2209391354 2209391354 -9.00000000
-2.79215884 3.71475387 -0.57059228 2 8 32307 4.68200000 2209391358 2209391358 -7.00000000
-3.93397021 5.23574924 -0.57296187 4 10 32308 6.57400000 2209391363 2209391363 -5.00000000
-6.52721691 8.69343662 -0.56972921 4 12 32310 10.88600000 2209391368 2209391368 -3.00000000
-6.62686586 8.82936573 2.54869556 59 13 32311 11.33000000 2209391370 2209391370 13.00000000
-5.72503567 7.63057756 2.55609679 45 15 32312 9.87600000 2209391374 2209391374 15.00000000
-1.27697992 1.70821702 -0.57147247 4 0 32322 2.20800000 2209391395 2209391395 -15.00000000
-1.48113966 1.98276460 -0.57137567 4 2 32324 2.54000000 2209391400 2209391400 -13.00000000
-1.75964570 2.35645151 -0.57166374 3 4 32325 2.99600000 2209391404 2209391404 -11.00000000
-2.16425872 2.90040517 -0.57317591 1 6 32327 3.66400000 2209391409 2209391409 -9.00000000
-2.78262115 3.73181319 -0.57156724 2 8 32329 4.69000000 2209391414 2209391414 -7.00000000
-3.92812586 5.26998520 -0.57505357 4 10 32330 6.59800000 2209391418 2209391418 -5.00000000
