# .PCD v0.7 - Point Cloud Data file format
VERSION 0.7
FIELDS x y z intensity laser_id azimuth distance_m adjustedtime timestamp vertical_angle
SIZE 4 4 4 1 1 2 8 8 4 8
TYPE F F F U U U F U U F
COUNT 1 1 1 1 1 1 1 1 1 1
WIDTH 522
HEIGHT 1
VIEWPOINT 0 0 0 1 0 0 0
POINTS 522
DATA ascii
-3.25583816 8.75468540 2.50278020 38 15 33960 9.67000000 2210896035 2210896035 15.00000000
-0.76008511 2.05257487 -0.58648396 4 0 33968 2.26600000 2210896056 2210896056 -15.00000000
-3.96396494 10.71024418 0.19934139 13 1 33969 11.42200000 2210896058 2210896058 1.00000000
-0.88770276 2.39977241 -0.59072149 3 2 33970 2.62600000 2210896060 2210896060 -13.00000000
-3.96579003 10.72667694 0.59935135 13 3 33971 11.45200000 2210896063 2210896063 3.00000000
-1.04979599 2.83949041 -0.58845496 2 4 33971 3.08400000 2210896065 2210896065 -11.00000000
-3.96530223 10.73111534 1.00089657 12 5 33972 11.48400000 2210896067 2210896067 5.00000000
-1.31602132 3.56340075 -0.60164696 2 6 33973 3.84600000 2210896070 2210896070 -9.00000000
-3.96698165 10.74719715 1.40661597 23 7 33974 11.54200000 2210896072 2210896072 7.00000000
-1.72867894 4.68578911 -0.61324656 2 8 33975 5.03200000 2210896074 2210896074 -7.00000000
-3.96023393 10.74045658 1.81307542 21 9 33976 11.59000000 2210896077 2210896077 9.00000000
-2.50413132 6.79139519 -0.63327360 4 10 33976 7.26600000 2210896079 2210896079 -5.00000000
-3.89808774 10.57759857 2.19125056 53 11 33977 11.48400000 2210896081 2210896081 11.00000000
-3.94301772 10.70527554 -0.59788597 8 12 33978 11.42400000 2210896083 2210896083 -3.00000000
-3.72961473 10.13133907 2.49245763 54 13 33979 11.08000000 2210896086 2210896086 13.00000000
-3.93718100 10.70094395 -0.19902724 8 14 33980 11.40400000 2210896088 2210896088 -1.00000000
-3.22259045 8.75874424 2.50070953 38 15 33980 9.66200000 2210896090 2210896090 15.00000000
-0.74990004 2.04809046 -0.58441341 4 0 33989 2.25800000 2210896112 2210896112 -15.00000000
-3.91506219 10.69841003 0.19885272 10 1 33990 11.39400000 2210896114 2210896114 1.00000000
-0.88023996 2.40667033 -0.59162128 3 2 33991 2.63000000 2210896117 2210896117 -13.00000000
-3.92832279 10.74045467 0.59935135 10 3 33991 11.45200000 2210896119 2210896119 3.00000000
-1.04207790 2.85069466 -0.58998144 2 4 33992 3.09200000 2210896121 2210896121 -11.00000000
-3.92115808 10.73247719 0.99967635 17 5 33993 11.47000000 2210896124 2210896124 5.00000000
-1.30024171 3.56077814 -0.60039550 2 6 33994 3.83800000 2210896126 2210896126 -9.00000000
-3.92552280 10.75607014 1.40588474 19 7 33995 11.53600000 2210896128 2210896128 7.00000000
-1.71693504 4.70701313 -0.61519647 2 8 33996 5.04800000 2210896130 2210896130 -7.00000000
-3.92271876 10.75421524 1.81307542 15 9 33996 11.59000000 2210896133 2210896133 9.00000000
-2.46966887 6.77432108 -0.63083327 4 10 33997 7.23800000 2210896135 2210896135 -5.00000000
-3.87407947 10.63239670 2.19964600 56 11 33998 11.52800000 2210896137 2210896137 11.00000000
-3.91947317 10.76281929 -0.60029340 4 12 33999 11.47000000 2210896140 2210896140 -3.00000000
-3.69178987 10.14310932 2.49200773 55 13 34000 11.07800000 2210896142 2210896142 13.00000000
-3.90408611 10.73221588 -0.19934139 2 14 34001 11.42200000 2210896144 2210896144 -1.00000000
-3.18716431 8.76142025 2.49812150 38 15 34001 9.65200000 2210896147 2210896147 15.00000000
-0.74340421 2.05251217 -0.58493102 4 0 34009 2.26000000 2210896167 2210896167 -15.00000000
-3.89334893 10.75525761 0.19965553 6 1 34010 11.44000000 2210896170 2210896170 1.00000000
-0.87183380 2.40972829 -0.59162128 3 2 34011 2.63000000 2210896172 2210896172 -13.00000000
-3.89640141 10.77544117 0.60050279 7 3 34012 11.47400000 2210896174 2210896174 3.00000000
-1.03746164 2.86908484 -0.59303439 2 4 34012 3.10800000 2210896177 2210896177 -11.00000000
-3.89721465 10.78357506 1.00316262 38 5 34013 11.51000000 2210896179 2210896179 5.00000000
-1.28377783 3.55414772 -0.59851825 2 6 34014 3.82600000 2210896181 2210896181 -9.00000000
-3.89199758 10.78091049 1.40734720 31 7 34015 11.54800000 2210896183 2210896183 7.00000000
-1.69106185 4.68683577 -0.61178410 2 8 34016 5.02000000 2210896186 2210896186 -7.00000000
-3.88394618 10.77037811 1.81338835 28 9 34017 11.59200000 2210896188 2210896188 9.00000000
-2.44871068 6.79039764 -0.63153052 4 10 34017 7.24600000 2210896190 2210896190 -5.00000000
-3.84692693 10.67355919 2.20537043 59 11 34018 11.55800000 2210896193 2210896193 11.00000000
-3.91504693 10.86850929 -0.60542232 4 12 34019 11.56800000 2210896195 2210896195 -3.00000000
-3.65306091 10.14676666 2.48975825 52 13 34020 11.06800000 2210896197 2210896197 13.00000000
-3.91331577 10.87560844 -0.20174982 8 14 34021 11.56000000 2210896200 2210896200 -1.00000000
-3.15764570 8.78031349 2.50019193 38 15 34022 9.66000000 2210896202 2210896202 15.00000000
-0.74180853 2.06951451 -0.58907217 4 0 34028 2.27600000 2210896223 2210896223 -15.00000000
-3.90487099 10.89988708 0.20209886 6 1 34029 11.58000000 2210896225 2210896225 1.00000000
-0.86252421 2.40893674 -0.59072149 3 2 34030 2.62600000 2210896227 2210896227 -13.00000000
-3.89888668 10.88916779 0.60615504 15 3 34030 11.58200000 2210896230 2210896230 3.00000000
-1.03058755 2.87990332 -0.59456080 4 4 34031 3.11600000 2210896232 2210896232 -11.00000000
-3.89498210 10.89023972 1.01187813 59 5 34032 11.61000000 2210896234 2210896234 5.00000000
-1.27730417 3.57326627 -0.60102123 2 6 34033 3.84200000 2210896236 2210896236 -9.00000000
-3.88293982 10.86853218 1.41709673 42 7 34034 11.62800000 2210896239 2210896239 7.00000000
-1.68218577 4.71111250 -0.61422151 2 8 34035 5.04000000 2210896241 2210896241 -7.00000000
-3.87742257 10.86505890 1.82715452 40 9 34036 11.68000000 2210896243 2210896243 9.00000000
-2.44894791 6.86228085 -0.63745707 4 10 34036 7.31400000 2210896246 2210896246 -5.00000000
-3.80953240 10.68070984 2.20422554 59 11 34037 11.55200000 2210896248 2210896248 11.00000000
-3.91251636 10.97549725 -0.61065596 8 12 34038 11.66800000 2210896250 2210896250 -3.00000000
-3.60500431 10.11843967 2.47986031 55 13 34039 11.02400000 2210896253 2210896253 13.00000000
-3.90741563 10.97329807 -0.20332053 6 14 34040 11.65000000 2210896255 2210896255 -1.00000000
-3.12162161 8.76653194 2.49346256 38 15 34040 9.63400000 2210896257 2210896257 15.00000000
-0.73006159 2.05934548 -0.58544868 4 0 34048 2.26200000 2210896278 2210896278 -15.00000000
-3.90152717 11.01146507 0.20391391 10 1 34049 11.68400000 2210896280 2210896280 1.00000000
-0.85671222 2.41928077 -0.59252107 3 2 34050 2.63400000 2210896282 2210896282 -13.00000000
-3.86218596 10.90647697 0.60636437 28 3 34050 11.58600000 2210896285 2210896285 3.00000000
-1.01528835 2.86867714 -0.59150791 2 4 34051 3.10000000 2210896287 2210896287 -11.00000000
-3.87488365 10.95448399 1.01658463 17 5 34052 11.66400000 2210896289 2210896289 5.00000000
-1.26482332 3.57770300 -0.60102123 2 6 34053 3.84200000 2210896292 2210896292 -9.00000000
-3.88267374 10.98870659 1.43098986 38 7 34054 11.74200000 2210896294 2210896294 7.00000000
-1.66573060 4.71695614 -0.61422151 2 8 34055 5.04000000 2210896296 2210896296 -7.00000000
-3.87431741 10.97725391 1.84373665 31 9 34056 11.78600000 2210896299 2210896299 9.00000000
-2.42497921 6.87078762 -0.63745707 4 10 34056 7.31400000 2210896301 2210896301 -5.00000000
-3.76700187 10.67913055 2.20117259 59 11 34057 11.53600000 2210896303 2210896303 11.00000000
-3.91269684 11.09833813 -0.61672693 8 12 34058 11.78400000 2210896306 2210896306 -3.00000000
-3.57743359 10.15301704 2.48525929 53 13 34059 11.04800000 2210896308 2210896308 13.00000000
-3.90296316 11.08306408 -0.20510069 6 14 34060 11.75200000 2210896310 2210896310 -1.00000000
-3.09356833 8.78466320 2.49553323 38 15 34060 9.64200000 2210896312 2210896312 15.00000000
-0.72159040 2.05823517 -0.58441341 4 0 34068 2.25800000 2210896333 2210896333 -15.00000000
-3.89943552 11.12881279 0.20583369 10 1 34069 11.79400000 2210896335 2210896335 1.00000000
-0.84826213 2.42225647 -0.59252107 3 2 34070 2.63400000 2210896338 2210896338 -13.00000000
-3.81360841 10.89605236 0.60500365 26 3 34071 11.56000000 2210896340 2210896340 3.00000000
-1.00397158 2.86849761 -0.59074467 2 4 34071 3.09600000 2210896342 2210896342 -11.00000000
-3.82675385 10.93973351 1.01396990 8 5 34072 11.63400000 2210896345 2210896345 5.00000000
-1.25363088 3.58582568 -0.60164696 2 6 34073 3.84600000 2210896347 2210896347 -9.00000000
-3.88030601 11.10526276 1.44439542 40 7 34074 11.85200000 2210896349 2210896349 7.00000000
-1.65449095 4.73773432 -0.61617142 2 8 34075 5.05600000 2210896352 2210896352 -7.00000000
-3.86654973 11.07209778 1.85750282 37 9 34075 11.87400000 2210896354 2210896354 9.00000000
-2.40098071 6.87921047 -0.63745707 4 10 34076 7.31400000 2210896356 2210896356 -5.00000000
-3.72646856 10.68294621 2.19926453 59 11 34077 11.52600000 2210896359 2210896359 11.00000000
-3.90943694 11.21376896 -0.62237918 4 12 34078 11.89200000 2210896361 2210896361 -3.00000000
-3.54453611 10.17280388 2.48705888 51 13 34079 11.05600000 2210896363 2210896363 13.00000000
-3.90042210 11.20048618 -0.20702045 6 14 34080 11.86200000 2210896365 2210896365 -1.00000000
-3.05754018 8.78499603 2.49242735 36 15 34081 9.63000000 2210896368 2210896368 15.00000000
-0.71313590 2.05709100 -0.58337814 4 0 34088 2.25400000 2210896388 2210896388 -15.00000000
-3.88871551 11.22360516 0.20733459 10 1 34089 11.88000000 2210896391 2210896391 1.00000000
-0.83980173 2.42520261 -0.59252107 3 2 34090 2.63400000 2210896393 2210896393 -13.00000000
-3.77418733 10.89920235 0.60448027 26 3 34090 11.55000000 2210896395 2210896395 3.00000000
-1.00037336 2.89053750 -0.59456080 2 4 34091 3.11600000 2210896398 2210896398 -11.00000000
-3.76965642 10.89842033 1.00891483 4 5 34092 11.57600000 2210896400 2210896400 5.00000000
-1.23207080 3.56404233 -0.59726679 2 6 34093 3.81800000 2210896402 2210896402 -9.00000000
-3.87976432 11.22943878 1.45877600 36 7 34094 11.97000000 2210896405 2210896405 7.00000000
-1.63275969 4.72846985 -0.61422151 2 8 34095 5.04000000 2210896407 2210896407 -7.00000000
-3.86460781 11.19823360 1.87627494 32 9 34096 11.99400000 2210896409 2210896409 9.00000000
-2.37695336 6.88754940 -0.63745707 4 10 34096 7.31400000 2210896412 2210896412 -5.00000000
-3.68211389 10.67547321 2.19506669 59 11 34097 11.50400000 2210896414 2210896414 11.00000000
-3.50836992 10.18327236 2.48660898 51 13 34099 11.05400000 2210896418 2210896418 13.00000000
-3.89841032 11.32180595 -0.20901002 9 14 34100 11.97600000 2210896421 2210896421 -1.00000000
-3.02434158 8.78830814 2.49035692 36 15 34101 9.62200000 2210896423 2210896423 15.00000000
-0.71033573 2.07236004 -0.58700162 4 0 34108 2.26800000 2210896444 2210896444 -15.00000000
-3.88580585 11.34305000 0.20928925 7 1 34109 11.99200000 2210896446 2210896446 1.00000000
-0.83385599 2.43549395 -0.59432071 3 2 34110 2.64200000 2210896448 2210896448 -13.00000000
-3.73288417 10.90286255 0.60395694 26 3 34110 11.54000000 2210896451 2210896451 3.00000000
-0.98773497 2.88658166 -0.59303439 2 4 34111 3.10800000 2210896453 2210896453 -11.00000000
-3.72192001 10.88323402 1.00630021 4 5 34112 11.54600000 2210896455 2210896455 5.00000000
-1.23240006 3.60570550 -0.60352415 2 6 34113 3.85800000 2210896458 2210896458 -9.00000000
-1.63163722 4.77922773 -0.62007123 2 8 34115 5.08800000 2210896462 2210896462 -7.00000000
-2.35289669 6.89580441 -0.63745707 4 10 34116 7.31400000 2210896467 2210896467 -5.00000000
-3.64165878 10.67897034 2.19315863 56 11 34117 11.49400000 2210896469 2210896469 11.00000000
-3.47343063 10.19730091 2.48705888 51 13 34119 11.05600000 2210896474 2210896474 13.00000000
-2.99240184 8.79515362 2.48932147 36 15 34121 9.61800000 2210896478 2210896478 15.00000000
-0.70309752 2.07482696 -0.58700162 4 0 34128 2.26800000 2210896499 2210896499 -15.00000000
-0.82160068 2.42731476 -0.59162128 3 2 34130 2.63000000 2210896504 2210896504 -13.00000000
-3.69160151 10.90636730 0.60343355 10 3 34130 11.53000000 2210896506 2210896506 3.00000000
-0.98268586 2.90488982 -0.59608728 2 4 34131 3.12400000 2210896508 2210896508 -11.00000000
-3.68454599 10.89804745 1.00647449 12 5 34132 11.54800000 2210896511 2210896511 5.00000000
-1.21348274 3.59127116 -0.60039550 2 6 34133 3.83800000 2210896513 2210896513 -9.00000000
-1.61494458 4.78489399 -0.62007123 2 8 34135 5.08800000 2210896518 2210896518 -7.00000000
-3.59746099 10.67115307 2.18896079 59 11 34137 11.47200000 2210896524 2210896524 11.00000000
-3.43221736 10.19274235 2.48300982 53 13 34139 11.03800000 2210896529 2210896529 13.00000000
-2.96168280 8.80554581 2.48932147 36 15 34141 9.61800000 2210896534 2210896534 15.00000000
-0.69707799 2.08093214 -0.58803689 4 0 34148 2.27200000 2210896554 2210896554 -15.00000000
-0.81435949 2.43386388 -0.59252107 3 2 34150 2.63400000 2210896559 2210896559 -13.00000000
-3.69026566 11.02904129 0.60950452 2 3 34150 11.64600000 2210896561 2210896561 3.00000000
-0.97503042 2.91574979 -0.59761375 2 4 34151 3.13200000 2210896564 2210896564 -11.00000000
-3.68311119 11.02044201 1.01658463 12 5 34152 11.66400000 2210896566 2210896566 5.00000000
-1.20844924 3.61796856 -0.60414988 2 6 34153 3.86200000 2210896568 2210896568 -9.00000000
-1.59823239 4.79050207 -0.62007123 2 8 34155 5.08800000 2210896573 2210896573 -7.00000000
-3.55770731 10.67619514 2.18743443 56 11 34157 11.46400000 2210896580 2210896580 11.00000000
-3.39846325 10.21020794 2.48435950 52 13 34159 11.04400000 2210896584 2210896584 13.00000000
-2.93246627 8.81531906 2.48932147 36 15 34160 9.61800000 2210896589 2210896589 15.00000000
-0.68677378 2.07418323 -0.58544868 4 0 34168 2.26200000 2210896610 2210896610 -15.00000000
-0.80463493 2.43299127 -0.59162128 3 2 34170 2.63000000 2210896614 2210896614 -13.00000000
-3.68184662 11.13287544 0.61452878 2 3 34170 11.74200000 2210896617 2210896617 3.00000000
-0.96238214 2.91167927 -0.59608728 2 4 34171 3.12400000 2210896619 2210896619 -11.00000000
-3.67274237 11.11836433 1.02442861 8 5 34172 11.75400000 2210896621 2210896621 5.00000000
-1.19952846 3.63341975 -0.60602713 2 6 34173 3.87400000 2210896623 2210896623 -9.00000000
-1.58150065 4.79605150 -0.62007123 2 8 34175 5.08800000 2210896628 2210896628 -7.00000000
-3.51796198 10.68109035 2.18590784 59 11 34177 11.45600000 2210896635 2210896635 11.00000000
-3.36219335 10.22015762 2.48390961 55 13 34179 11.04200000 2210896640 2210896640 13.00000000
-2.89832759 8.82050133 2.48776865 38 15 34181 9.61200000 2210896644 2210896644 15.00000000
-0.67952937 2.07656765 -0.58544868 4 0 34188 2.26200000 2210896665 2210896665 -15.00000000
-0.80219162 2.45430827 -0.59612030 3 2 34190 2.65000000 2210896670 2210896670 -13.00000000
-3.68629026 11.28488827 0.62216985 2 3 34191 11.88800000 2210896672 2210896672 3.00000000
-0.94855493 2.90382361 -0.59379756 2 4 34191 3.11200000 2210896674 2210896674 -11.00000000
-1.18132377 3.62068319 -0.60321128 2 6 34193 3.85600000 2210896679 2210896679 -9.00000000
-1.56474972 4.80154276 -0.62007123 2 8 34195 5.08800000 2210896683 2210896683 -7.00000000
-3.47701073 10.68210411 2.18361807 59 11 34197 11.44400000 2210896690 2210896690 11.00000000
-3.32710052 10.23368454 2.48435950 51 13 34199 11.04400000 2210896695 2210896695 13.00000000
-2.86607695 8.82087803 2.48518038 38 15 34200 9.60200000 2210896700 2210896700 15.00000000
-0.67346543 2.08260345 -0.58648396 4 0 34208 2.26600000 2210896720 2210896720 -15.00000000
-0.79122376 2.44967580 -0.59432071 3 2 34210 2.64200000 2210896725 2210896725 -13.00000000
-0.94444388 2.92580032 -0.59761375 2 4 34211 3.13200000 2210896729 2210896729 -11.00000000
-1.16443479 3.61162424 -0.60102123 2 6 34213 3.84200000 2210896734 2210896734 -9.00000000
-1.55771530 4.83720827 -0.62397105 2 8 34215 5.12000000 2210896739 2210896739 -7.00000000
-3.43128610 10.66801071 2.17827559 53 11 34217 11.41600000 2210896746 2210896746 11.00000000
-3.28897381 10.23781490 2.48255992 47 13 34219 11.03600000 2210896750 2210896750 13.00000000
-2.83372760 8.83132362 2.48518038 38 15 34221 9.60200000 2210896755 2210896755 15.00000000
-0.66691947 2.08470893 -0.58648396 4 0 34226 2.26600000 2210896776 2210896776 -15.00000000
-0.77996522 2.44101191 -0.59162128 3 2 34228 2.63000000 2210896780 2210896780 -13.00000000
-0.94121975 2.94745517 -0.60142994 2 4 34229 3.15200000 2210896785 2210896785 -11.00000000
-1.15428340 3.61902833 -0.60164696 2 6 34231 3.84600000 2210896789 2210896789 -9.00000000
-1.53287041 4.81181526 -0.62007123 2 8 34233 5.08800000 2210896794 2210896794 -7.00000000
-3.39418316 10.66751289 2.17598581 56 11 34235 11.40400000 2210896801 2210896801 11.00000000
-3.25325322 10.23695278 2.47986031 50 13 34237 11.02400000 2210896806 2210896806 13.00000000
-2.80634260 8.83600998 2.48414516 38 15 34238 9.59800000 2210896810 2210896810 15.00000000
-0.66080278 2.09070826 -0.58751923 4 0 34246 2.27000000 2210896831 2210896831 -15.00000000
-0.77495962 2.45486951 -0.59432071 3 2 34248 2.64200000 2210896835 2210896835 -13.00000000
-0.92265582 2.92451048 -0.59608728 2 4 34249 3.12400000 2210896840 2210896840 -11.00000000
-1.14045620 3.61926746 -0.60102123 2 6 34251 3.84200000 2210896845 2210896845 -9.00000000
-1.50891352 4.79441404 -0.61714637 2 8 34253 5.06400000 2210896849 2210896849 -7.00000000
-3.35692573 10.67929554 2.17598581 53 11 34255 11.40400000 2210896856 2210896856 11.00000000
-3.21633244 10.24452877 2.47896051 47 13 34257 11.02000000 2210896861 2210896861 13.00000000
-2.77625012 8.85361004 2.48621583 38 15 34259 9.60600000 2210896865 2210896865 15.00000000
-0.65350085 2.09300208 -0.58751923 4 0 34266 2.27000000 2210896886 2210896886 -15.00000000
-0.76522547 2.45383906 -0.59342086 3 2 34268 2.63800000 2210896891 2210896891 -13.00000000
-0.90893686 2.91646743 -0.59379756 4 4 34269 3.11200000 2210896895 2210896895 -11.00000000
-1.12898982 3.62699866 -0.60164696 2 6 34271 3.84600000 2210896900 2210896900 -9.00000000
-1.49099004 4.79586077 -0.61665887 2 8 34273 5.06000000 2210896905 2210896905 -7.00000000
-3.31729889 10.68344879 2.17445922 56 11 34275 11.39600000 2210896911 2210896911 11.00000000
-3.17939830 10.25197029 2.47806072 48 13 34277 11.01600000 2210896916 2210896916 13.00000000
-2.74515963 8.85723114 2.48466277 38 15 34278 9.60000000 2210896921 2210896921 15.00000000
-0.64277494 2.08419418 -0.58441341 4 0 34286 2.25800000 2210896941 2210896941 -15.00000000
-0.75550801 2.45277047 -0.59252107 3 2 34288 2.63400000 2210896946 2210896946 -13.00000000
-0.90452701 2.93838596 -0.59761375 4 4 34289 3.13200000 2210896951 2210896951 -11.00000000
-1.11980546 3.64224625 -0.60352415 2 6 34291 3.85800000 2210896955 2210896955 -9.00000000
-1.48239815 4.82760286 -0.62007123 2 8 34293 5.08800000 2210896960 2210896960 -7.00000000
-3.27538133 10.67994690 2.17140627 56 11 34295 11.38000000 2210896967 2210896967 11.00000000
-3.14473414 10.26673317 2.47896051 48 13 34297 11.02000000 2210896971 2210896971 13.00000000
-2.71041727 8.85984421 2.48259234 38 15 34299 9.59200000 2210896976 2210896976 15.00000000
-0.64112467 2.10490537 -0.58958977 4 0 34306 2.27800000 2210896997 2210896997 -15.00000000
-0.75034457 2.46657896 -0.59522051 3 2 34308 2.64600000 2210897001 2210897001 -13.00000000
-0.89426458 2.94152546 -0.59761375 4 4 34309 3.13200000 2210897006 2210897006 -11.00000000
-1.10421526 3.63668203 -0.60195982 2 6 34311 3.84800000 2210897011 2210897011 -9.00000000
-1.46899402 4.84414625 -0.62153363 2 8 34313 5.10000000 2210897015 2210897015 -7.00000000
-3.23352885 10.67628384 2.16835332 59 11 34315 11.36400000 2210897022 2210897022 11.00000000
-3.10887742 10.27764702 2.47896051 47 13 34317 11.02000000 2210897027 2210897027 13.00000000
-2.68102193 8.86878395 2.48259234 38 15 34318 9.59200000 2210897031 2210897031 15.00000000
-0.63266039 2.10343051 -0.58855450 4 0 34326 2.27400000 2210897052 2210897052 -15.00000000
-0.73948747 2.46171761 -0.59342086 3 2 34328 2.63800000 2210897057 2210897057 -13.00000000
-0.88512027 2.94839001 -0.59837699 2 4 34329 3.13600000 2210897061 2210897061 -11.00000000
-1.09491801 3.65186739 -0.60383701 2 6 34331 3.86000000 2210897066 2210897066 -9.00000000
-1.44865918 4.83783436 -0.62007123 2 8 34333 5.08800000 2210897070 2210897070 -7.00000000
-3.19286680 10.67621994 2.16606379 56 11 34335 11.35200000 2210897077 2210897077 11.00000000
-3.07186747 10.28470230 2.47806072 48 13 34337 11.01600000 2210897082 2210897082 13.00000000
-2.64905047 8.88040161 2.48310995 38 15 34339 9.59400000 2210897087 2210897087 15.00000000
-0.62531424 2.10562611 -0.58855450 4 0 34346 2.27400000 2210897107 2210897107 -15.00000000
-0.73088992 2.46428394 -0.59342086 3 2 34348 2.63800000 2210897112 2210897112 -13.00000000
-0.87035972 2.93640304 -0.59532404 2 4 34349 3.12000000 2210897117 2210897117 -11.00000000
-1.08496749 3.66513777 -0.60540140 2 6 34351 3.87000000 2210897121 2210897121 -9.00000000
-1.43626559 4.85809088 -0.62202114 2 8 34353 5.10400000 2210897126 2210897126 -7.00000000
-3.15446854 10.68353462 2.16530037 56 11 34355 11.34800000 2210897133 2210897133 11.00000000
-3.03209019 10.28227806 2.47491145 51 13 34357 11.00200000 2210897137 2210897137 13.00000000
-2.61904144 8.88728428 2.48259234 40 15 34358 9.59200000 2210897142 2210897142 15.00000000
-0.61796039 2.10779619 -0.58855450 4 0 34366 2.27400000 2210897163 2210897163 -15.00000000
-0.72447395 2.47430110 -0.59522051 3 2 34368 2.64600000 2210897167 2210897167 -13.00000000
-0.86230987 2.94696021 -0.59685051 2 4 34369 3.12800000 2210897172 2210897172 -11.00000000
-1.07715392 3.68596745 -0.60821718 2 6 34371 3.88800000 2210897176 2210897176 -9.00000000
-1.42152357 4.87069702 -0.62299609 2 8 34373 5.11200000 2210897181 2210897181 -7.00000000
-3.11605811 10.69071102 2.16453719 53 11 34375 11.34400000 2210897188 2210897188 11.00000000
-2.99617982 10.29279995 2.47491145 51 13 34377 11.00200000 2210897193 2210897193 13.00000000
-2.58692384 8.89266205 2.48155689 40 15 34378 9.58800000 2210897197 2210897197 15.00000000
-0.60989261 2.10612249 -0.58751923 4 0 34385 2.27000000 2210897218 2210897218 -15.00000000
-0.71734768 2.48043394 -0.59612030 3 2 34387 2.65000000 2210897223 2210897223 -13.00000000
-0.85471302 2.95734787 -0.59837699 2 4 34388 3.13600000 2210897227 2210897227 -11.00000000
-1.06821179 3.70090652 -0.61009443 2 6 34390 3.90000000 2210897232 2210897232 -9.00000000
-1.40646362 4.87919903 -0.62348354 2 8 34392 5.11600000 2210897236 2210897236 -7.00000000
-3.07515788 10.68211842 2.16072106 50 11 34394 11.32400000 2210897243 2210897243 11.00000000
-2.96472335 10.31204319 2.47716093 54 13 34396 11.01200000 2210897248 2210897248 13.00000000
-2.55421948 8.89005184 2.47845125 40 15 34397 9.57600000 2210897252 2210897252 15.00000000
-0.60253716 2.10823870 -0.58751923 4 0 34405 2.27000000 2210897273 2210897273 -15.00000000
-0.70868498 2.48292303 -0.59612030 3 2 34407 2.65000000 2210897278 2210897278 -13.00000000
-0.84438473 2.96031332 -0.59837699 2 4 34408 3.13600000 2210897282 2210897282 -11.00000000
-1.05041611 3.68751454 -0.60727859 2 6 34410 3.88200000 2210897287 2210897287 -9.00000000
-1.38181913 4.85734844 -0.62007123 2 8 34412 5.08800000 2210897292 2210897292 -7.00000000
-3.03248644 10.67390251 2.15690494 50 11 34414 11.30400000 2210897299 2210897299 11.00000000
-2.93030524 10.32795334 2.47851062 57 13 34416 11.01800000 2210897303 2210897303 13.00000000
-2.52056551 8.89563656 2.47741580 42 15 34418 9.57200000 2210897308 2210897308 15.00000000
-0.59832066 2.12148499 -0.59062505 4 0 34425 2.28200000 2210897329 2210897329 -15.00000000
-0.69684374 2.47412705 -0.59342086 3 2 34427 2.63800000 2210897333 2210897333 -13.00000000
-0.83936536 2.98214102 -0.60219318 2 4 34428 3.15600000 2210897338 2210897338 -11.00000000
-1.04074514 3.70256877 -0.60915583 2 6 34430 3.89400000 2210897342 2210897342 -9.00000000
-1.37343931 4.89272165 -0.62397105 2 8 34432 5.12000000 2210897347 2210897347 -7.00000000
-2.99361920 10.67875195 2.15576005 43 11 34434 11.29800000 2210897354 2210897354 11.00000000
-2.89003325 10.32310677 2.47491145 59 13 34436 11.00200000 2210897358 2210897358 13.00000000
-2.49001169 8.90022469 2.47638059 40 15 34437 9.56800000 2210897363 2210897363 15.00000000
-0.59091163 2.12356067 -0.59062505 4 0 34445 2.28200000 2210897384 2210897384 -15.00000000
-0.69133377 2.48780990 -0.59612030 3 2 34447 2.65000000 2210897388 2210897388 -13.00000000
-0.82474810 2.96991944 -0.59914023 2 4 34448 3.14000000 2210897393 2210897393 -11.00000000
-1.02675855 3.70237184 -0.60853004 2 6 34450 3.89000000 2210897398 2210897398 -9.00000000
-1.35423291 4.88983345 -0.62299609 2 8 34452 5.11200000 2210897402 2210897402 -7.00000000
-2.95580173 10.68724442 2.15537834 53 11 34454 11.29600000 2210897409 2210897409 11.00000000
-2.85086846 10.32186127 2.47221208 55 13 34456 10.99000000 2210897414 2210897414 13.00000000
-2.45841479 8.90700054 2.47586298 40 15 34457 9.56600000 2210897418 2210897418 15.00000000
-0.58247262 2.12188435 -0.58958977 4 0 34465 2.27800000 2210897439 2210897439 -15.00000000
-0.67852384 2.47517276 -0.59252107 3 2 34467 2.63400000 2210897444 2210897444 -13.00000000
-0.81645095 2.98035431 -0.60066670 4 4 34468 3.14800000 2210897448 2210897448 -11.00000000
-1.01591361 3.71355486 -0.60978156 2 6 34470 3.89800000 2210897453 2210897453 -9.00000000
-1.33610964 4.89070129 -0.62250859 2 8 34472 5.10800000 2210897457 2210897457 -7.00000000
-2.91692829 10.69181538 2.15423346 43 11 34474 11.29000000 2210897464 2210897464 11.00000000
-2.81482100 10.33174992 2.47221208 59 13 34476 10.99000000 2210897469 2210897469 13.00000000
-2.42629361 8.91179943 2.47482777 38 15 34477 9.56200000 2210897474 2210897474 15.00000000
-0.57253790 2.11458111 -0.58700162 4 0 34485 2.26800000 2210897494 2210897494 -15.00000000
-0.67700070 2.50386286 -0.59881973 3 2 34487 2.66200000 2210897499 2210897499 -13.00000000
-0.80604261 2.98318601 -0.60066670 2 4 34488 3.14800000 2210897504 2210897504 -11.00000000
-0.99985719 3.70563555 -0.60790431 2 6 34490 3.88600000 2210897508 2210897508 -9.00000000
-1.32212853 4.90683556 -0.62397105 2 8 34492 5.12000000 2210897513 2210897513 -7.00000000
-2.87958908 10.70193195 2.15423346 43 11 34494 11.29000000 2210897520 2210897520 11.00000000
-2.77873945 10.34151268 2.47221208 59 13 34496 10.99000000 2210897524 2210897524 13.00000000
-2.38860750 8.90197372 2.46965122 40 15 34498 9.54200000 2210897529 2210897529 15.00000000
-0.56515318 2.11656690 -0.58700162 4 0 34505 2.26800000 2210897550 2210897550 -15.00000000
-0.66624820 2.49867892 -0.59702009 3 2 34507 2.65400000 2210897554 2210897554 -13.00000000
-0.79764634 2.99356961 -0.60219318 4 4 34508 3.15600000 2210897559 2210897559 -11.00000000
-0.98793185 3.71292090 -0.60853004 2 6 34510 3.89000000 2210897563 2210897563 -9.00000000
-1.30499244 4.91142082 -0.62397105 2 8 34512 5.12000000 2210897568 2210897568 -7.00000000
-2.83717990 10.69294262 2.15041733 43 11 34514 11.27000000 2210897575 2210897575 11.00000000
-2.74362206 10.35491657 2.47311187 60 13 34516 10.99400000 2210897580 2210897580 13.00000000
-2.35759091 8.90424347 2.46809840 42 15 34517 9.53600000 2210897584 2210897584 15.00000000
-0.55972892 2.12599945 -0.58907217 4 0 34525 2.27600000 2210897605 2210897605 -15.00000000
-0.65355814 2.48591185 -0.59342086 3 2 34527 2.63800000 2210897609 2210897609 -13.00000000
-0.78719199 2.99633574 -0.60219318 2 4 34528 3.15600000 2210897614 2210897614 -11.00000000
-0.97997802 3.73545408 -0.61165875 2 6 34530 3.91000000 2210897619 2210897619 -9.00000000
-1.29387712 4.93898964 -0.62689590 2 8 34532 5.14400000 2210897623 2210897623 -7.00000000
-2.80182481 10.71037769 2.15194392 43 11 34534 11.27800000 2210897630 2210897630 11.00000000
-2.70450473 10.35311699 2.47041249 59 13 34536 10.98200000 2210897635 2210897635 13.00000000
-2.32747102 8.91615677 2.46913362 42 15 34537 9.54000000 2210897639 2210897639 15.00000000
-0.55461842 2.13532305 -0.59114271 4 0 34544 2.28400000 2210897660 2210897660 -15.00000000
-0.64628947 2.49183798 -0.59432071 3 2 34546 2.64200000 2210897665 2210897665 -13.00000000
-0.77626634 2.99512887 -0.60142994 2 4 34547 3.15200000 2210897669 2210897669 -11.00000000
-0.96461582 3.72720909 -0.60978156 2 6 34549 3.89800000 2210897674 2210897674 -9.00000000
-1.27153146 4.92018986 -0.62397105 2 8 34551 5.12000000 2210897679 2210897679 -7.00000000
-2.76727343 10.72341251 2.15270710 43 11 34553 11.28200000 2210897686 2210897686 11.00000000
-2.66432238 10.33938408 2.46501374 57 13 34555 10.95800000 2210897690 2210897690 13.00000000
-2.29248214 8.90925980 2.46499252 40 15 34557 9.52400000 2210897695 2210897695 15.00000000
-0.54524487 2.12976003 -0.58907217 4 0 34564 2.27600000 2210897715 2210897715 -15.00000000
-0.64144862 2.50918293 -0.59791988 3 2 34566 2.65800000 2210897720 2210897720 -13.00000000
-0.76580667 2.99782014 -0.60142994 2 4 34567 3.15200000 2210897725 2210897725 -11.00000000
-0.95648205 3.74969435 -0.61291021 2 6 34569 3.91800000 2210897729 2210897729 -9.00000000
-1.25532901 4.92844582 -0.62445849 2 8 34571 5.12400000 2210897734 2210897734 -7.00000000
-2.73079276 10.73681164 2.15347028 43 11 34573 11.28600000 2210897741 2210897741 11.00000000
-2.63013363 10.35617638 2.46681333 56 13 34575 10.96600000 2210897745 2210897745 13.00000000
-2.25994444 8.91159058 2.46343970 40 15 34577 9.51800000 2210897750 2210897750 15.00000000
-0.53780729 2.13165045 -0.58907217 4 0 34584 2.27600000 2210897771 2210897771 -15.00000000
-0.63173389 2.50762749 -0.59702009 3 2 34586 2.65400000 2210897775 2210897775 -13.00000000
-0.75246197 2.98905206 -0.59914023 4 4 34587 3.14000000 2210897780 2210897780 -11.00000000
-0.94146109 3.74534702 -0.61165875 2 6 34589 3.91000000 2210897785 2210897785 -9.00000000
-1.23908436 4.93664837 -0.62494600 2 8 34591 5.12800000 2210897789 2210897789 -7.00000000
-2.69138861 10.73866177 2.15194392 43 11 34593 11.27800000 2210897796 2210897796 11.00000000
-2.59396791 10.36529350 2.46681333 57 13 34595 10.96600000 2210897801 2210897801 13.00000000
-2.22601342 8.90817928 2.46033382 40 15 34597 9.50600000 2210897805 2210897805 15.00000000
-0.53036314 2.13351464 -0.58907217 4 0 34604 2.27600000 2210897826 2210897826 -15.00000000
-0.62579358 2.52116537 -0.59971952 3 2 34606 2.66600000 2210897831 2210897831 -13.00000000
-0.74674994 3.01071548 -0.60295641 2 4 34607 3.16000000 2210897835 2210897835 -11.00000000
-0.92553240 3.73710585 -0.60978156 2 6 34609 3.89800000 2210897840 2210897840 -9.00000000
-1.22375095 4.94865179 -0.62592095 2 8 34611 5.13600000 2210897845 2210897845 -7.00000000
-2.65153408 10.73846054 2.15003586 37 11 34613 11.26800000 2210897851 2210897851 11.00000000
-2.55497146 10.36293316 2.46411395 59 13 34615 10.95400000 2210897856 2210897856 13.00000000
-2.19490457 8.91589546 2.46033382 38 15 34617 9.50600000 2210897861 2210897861 15.00000000
-0.52291256 2.13535309 -0.58907217 4 0 34624 2.27600000 2210897881 2210897881 -15.00000000
-0.60865784 2.48926091 -0.59162128 3 2 34626 2.63000000 2210897886 2210897886 -13.00000000
-0.73623604 3.01330376 -0.60295641 2 4 34627 3.16000000 2210897891 2210897891 -11.00000000
-0.91248184 3.74031377 -0.60978156 2 6 34629 3.89800000 2210897895 2210897895 -9.00000000
-1.20646942 4.95289326 -0.62592095 2 8 34631 5.13600000 2210897900 2210897900 -7.00000000
-2.61171389 10.73811245 2.14812756 40 11 34633 11.25800000 2210897907 2210897907 11.00000000
-2.51694298 10.36421394 2.46231413 59 13 34635 10.94600000 2210897911 2210897911 13.00000000
-2.16623735 8.92687988 2.46136904 40 15 34636 9.51000000 2210897916 2210897916 15.00000000
-0.51636153 2.14092135 -0.59010744 4 0 34644 2.28000000 2210897937 2210897937 -15.00000000
-0.60452741 2.51031613 -0.59612030 3 2 34646 2.65000000 2210897941 2210897941 -13.00000000
-0.72479451 3.01203799 -0.60219318 2 4 34647 3.15600000 2210897946 2210897946 -11.00000000
-0.90126610 3.75115895 -0.61103302 2 6 34649 3.90600000 2210897950 2210897950 -9.00000000
-1.18917322 4.95707417 -0.62592095 2 8 34651 5.13600000 2210897955 2210897955 -7.00000000
-2.57512951 10.75098228 2.14889097 43 11 34653 11.26200000 2210897962 2210897962 11.00000000
-2.47712374 10.35777378 2.45871496 57 13 34655 10.93000000 2210897967 2210897967 13.00000000
-2.13170958 8.92724323 2.45929861 40 15 34657 9.50200000 2210897971 2210897971 15.00000000
-0.50888515 2.14271069 -0.59010744 4 0 34664 2.28000000 2210897992 2210897992 -15.00000000
-0.59755963 2.51999569 -0.59791988 3 2 34666 2.65800000 2210897997 2210897997 -13.00000000
-0.71518141 3.01837015 -0.60295641 2 4 34667 3.16000000 2210898001 2210898001 -11.00000000
-0.89134997 3.76773834 -0.61322308 2 6 34669 3.92000000 2210898006 2210898006 -9.00000000
-1.17186260 4.96119499 -0.62592095 2 8 34671 5.13600000 2210898010 2210898010 -7.00000000
-2.53848720 10.76372719 2.14965415 43 11 34673 11.26600000 2210898017 2210898017 11.00000000
-2.44005990 10.36256409 2.45781517 57 13 34675 10.92600000 2210898022 2210898022 13.00000000
-2.09943914 8.92298031 2.45619273 38 15 34676 9.49000000 2210898027 2210898027 15.00000000
-0.49744415 2.12754393 -0.58544868 4 0 34684 2.26200000 2210898047 2210898047 -15.00000000
-0.59053159 2.52965713 -0.59971952 3 2 34686 2.66600000 2210898052 2210898052 -13.00000000
-0.70196515 3.00937676 -0.60066670 2 4 34687 3.14800000 2210898056 2210898056 -11.00000000
-0.87550437 3.75928354 -0.61134589 2 6 34689 3.90800000 2210898061 2210898061 -9.00000000
-1.16083181 4.99232483 -0.62933332 2 8 34691 5.16400000 2210898066 2210898066 -7.00000000
-2.49779153 10.75913620 2.14698291 40 11 34693 11.25200000 2210898073 2210898073 11.00000000
-2.40299296 10.36722088 2.45691538 55 13 34695 10.92200000 2210898077 2210898077 13.00000000
-2.06280088 8.91367626 2.45153403 40 15 34697 9.47200000 2210898082 2210898082 15.00000000
-0.49521372 2.15185905 -0.59166032 4 0 34704 2.28600000 2210898103 2210898103 -15.00000000
-0.58082509 2.52790451 -0.59881973 3 2 34706 2.66200000 2210898107 2210898107 -13.00000000
-0.69409198 3.02328968 -0.60295641 2 4 34707 3.16000000 2210898112 2210898112 -11.00000000
-0.86458337 3.77194381 -0.61291021 2 6 34709 3.91800000 2210898116 2210898116 -9.00000000
-1.13277030 4.94990444 -0.62348354 6 8 34711 5.11600000 2210898121 2210898121 -7.00000000
-2.45628428 10.75056362 2.14354825 37 11 34713 11.23400000 2210898128 2210898128 11.00000000
-2.36678982 10.37554646 2.45691538 57 13 34715 10.92200000 2210898133 2210898133 13.00000000
-2.03451848 8.92611790 2.45308685 38 15 34716 9.47800000 2210898137 2210898137 15.00000000
-0.48684594 2.14980626 -0.59062505 4 0 34724 2.28200000 2210898158 2210898158 -15.00000000
-0.57199752 2.52991652 -0.59881973 3 2 34726 2.66200000 2210898162 2210898162 -13.00000000
-0.68613023 3.03718400 -0.60524613 2 4 34727 3.17200000 2210898167 2210898167 -11.00000000
-0.85228080 3.77879286 -0.61353600 2 6 34729 3.92200000 2210898172 2210898172 -9.00000000
-1.11810148 4.96544838 -0.62494600 2 8 34731 5.12800000 2210898176 2210898176 -7.00000000
-2.41702032 10.75141048 2.14202189 40 11 34733 11.22600000 2210898183 2210898183 11.00000000
-2.32799745 10.37233543 2.45421600 56 13 34735 10.91000000 2210898188 2210898188 13.00000000
-2.00094414 8.92974472 2.45205164 40 15 34737 9.47400000 2210898192 2210898192 15.00000000
-0.47929382 2.14952326 -0.59010744 4 0 34743 2.28000000 2210898213 2210898213 -15.00000000
-0.56191111 2.52419066 -0.59702009 3 2 34745 2.65400000 2210898218 2210898218 -13.00000000
-0.67264467 3.02411127 -0.60219318 2 4 34746 3.15600000 2210898222 2210898222 -11.00000000
-0.84145808 3.78931189 -0.61478746 2 6 34748 3.93000000 2210898227 2210898227 -9.00000000
-1.10764444 4.99626112 -0.62835836 2 8 34750 5.15600000 2210898232 2210898232 -7.00000000
-2.38389969 10.77086830 2.14431143 40 11 34752 11.23800000 2210898238 2210898238 11.00000000
-2.29064560 10.36667919 2.45106673 53 13 34754 10.89600000 2210898243 2210898243 13.00000000
-1.97288072 8.93598652 2.45205164 38 15 34755 9.47400000 2210898248 2210898248 15.00000000
-0.47178766 2.15118337 -0.59010744 4 0 34763 2.28000000 2210898268 2210898268 -15.00000000
-0.55643100 2.54136586 -0.60061932 3 2 34765 2.67000000 2210898273 2210898273 -13.00000000
-0.66292357 3.03027654 -0.60295641 2 4 34766 3.16000000 2210898278 2210898278 -11.00000000
-0.83328366 3.81538463 -0.61854190 2 6 34768 3.95400000 2210898282 2210898282 -9.00000000
-1.08935165 4.99621820 -0.62787086 2 8 34770 5.15200000 2210898287 2210898287 -7.00000000
-2.34336495 10.76569557 2.14164019 37 11 34772 11.22400000 2210898294 2210898294 11.00000000
-2.25444508 10.37461185 2.45106673 52 13 34774 10.89600000 2210898298 2210898298 13.00000000
-1.93888676 8.93749428 2.45049882 38 15 34776 9.46800000 2210898303 2210898303 15.00000000
-0.46346122 2.14904022 -0.58907217 4 0 34783 2.27600000 2210898324 2210898324 -15.00000000
-0.54673630 2.53948259 -0.59971952 3 2 34785 2.66600000 2210898328 2210898328 -13.00000000
-0.65481913 3.04408813 -0.60524613 2 4 34786 3.17200000 2210898333 2210898333 -11.00000000
-0.81581289 3.79895663 -0.61541319 2 6 34788 3.93400000 2210898338 2210898338 -9.00000000
-1.07606614 5.01940012 -0.63030827 2 8 34790 5.17200000 2210898342 2210898342 -7.00000000
-2.30412793 10.76613045 2.14011359 37 11 34792 11.21600000 2210898349 2210898349 11.00000000
-2.21781015 10.38051224 2.45061684 53 13 34794 10.89400000 2210898354 2210898354 13.00000000
-1.90722179 8.93442822 2.44791055 38 15 34795 9.45800000 2210898358 2210898358 15.00000000
-0.45755953 2.15820432 -0.59114271 4 0 34803 2.28400000 2210898379 2210898379 -15.00000000
-0.53867555 2.54518867 -0.60061932 3 2 34805 2.67000000 2210898384 2210898384 -13.00000000
-0.64418930 3.04635549 -0.60524613 2 4 34806 3.17200000 2210898388 2210898388 -11.00000000
-0.79928303 3.78631902 -0.61291021 2 6 34808 3.91800000 2210898393 2210898393 -9.00000000
-1.05526388 5.00758600 -0.62835836 2 8 34810 5.15600000 2210898397 2210898397 -7.00000000
-2.26208735 10.75297451 2.13591599 40 11 34812 11.19400000 2210898404 2210898404 11.00000000
-2.18356442 10.39772606 2.45286632 53 13 34814 10.90400000 2210898409 2210898409 13.00000000
-1.87327361 8.93568611 2.44635773 40 15 34816 9.45200000 2210898414 2210898414 15.00000000
-0.45197773 2.16727448 -0.59321326 4 0 34822 2.29200000 2210898434 2210898434 -15.00000000
-0.52546626 2.52406693 -0.59522051 3 2 34824 2.64600000 2210898439 2210898439 -13.00000000
-0.63568288 3.05616331 -0.60677260 2 4 34825 3.18000000 2210898444 2210898444 -11.00000000
-0.79475462 3.82763124 -0.61916763 2 6 34827 3.95800000 2210898448 2210898448 -9.00000000
-1.04106975 5.02272081 -0.62982076 2 8 34829 5.16800000 2210898453 2210898453 -7.00000000
-2.23039460 10.77964211 2.13973212 40 11 34831 11.21400000 2210898460 2210898460 11.00000000
-2.14749551 10.39727592 2.45106673 51 13 34833 10.89600000 2210898464 2210898464 13.00000000
-1.84636343 8.94720268 2.44791055 38 15 34834 9.45800000 2210898469 2210898469 15.00000000
-0.44596094 2.17640901 -0.59528381 4 0 34842 2.30000000 2210898490 2210898490 -15.00000000
-0.51977658 2.54115939 -0.59881973 3 2 34844 2.66200000 2210898494 2210898494 -13.00000000
-0.62265247 3.04682255 -0.60448289 2 4 34845 3.16800000 2210898499 2210898499 -11.00000000
-0.77901983 3.81876898 -0.61729038 2 6 34847 3.94600000 2210898503 2210898503 -9.00000000
-2.18962431 10.77197075 2.13667917 40 11 34851 11.19800000 2210898515 2210898515 11.00000000
-2.10847664 10.39134026 2.44791746 51 13 34853 10.88200000 2210898520 2210898520 13.00000000
-1.81550443 8.95548630 2.44842815 40 15 34854 9.46000000 2210898524 2210898524 15.00000000
-0.43645218 2.16651297 -0.59217799 4 0 34861 2.28800000 2210898545 2210898545 -15.00000000
-0.51518875 2.56197405 -0.60331875 3 2 34863 2.68200000 2210898550 2210898550 -13.00000000
-0.60945177 3.03347230 -0.60142994 2 4 34864 3.15200000 2210898554 2210898554 -11.00000000
-0.76246786 3.80196309 -0.61416173 2 6 34866 3.92600000 2210898559 2210898559 -9.00000000
-1.00763655 5.03358364 -0.63030827 2 8 34868 5.17200000 2210898563 2210898563 -7.00000000
-2.15696883 10.79457378 2.13973212 43 11 34870 11.21400000 2210898570 2210898570 11.00000000
-2.07362485 10.39636421 2.44746757 54 13 34872 10.88000000 2210898575 2210898575 13.00000000
-1.78541934 8.95956326 2.44791055 40 15 34873 9.45800000 2210898579 2210898579 15.00000000
-0.42738736 2.16044283 -0.59010744 4 0 34881 2.28000000 2210898600 2210898600 -15.00000000
-0.50699764 2.56758046 -0.60421854 3 2 34883 2.68600000 2210898605 2210898605 -13.00000000
-0.60265911 3.05484247 -0.60524613 4 4 34884 3.17200000 2210898609 2210898609 -11.00000000
-0.74957353 3.80653977 -0.61447459 2 6 34886 3.92800000 2210898614 2210898614 -9.00000000
-1.00077987 5.09160948 -0.63713294 2 8 34888 5.22800000 2210898619 2210898619 -7.00000000
-2.11776352 10.79433155 2.13820553 43 11 34890 11.20600000 2210898626 2210898626 11.00000000
-2.03882027 10.41118813 2.44926715 54 13 34892 10.88800000 2210898630 2210898630 13.00000000
-1.75182772 8.96225548 2.44687533 38 15 34894 9.45400000 2210898635 2210898635 15.00000000
-0.42167380 2.17337370 -0.59321326 4 0 34902 2.29200000 2210898656 2210898656 -15.00000000
-0.49684262 2.56559515 -0.60331875 3 2 34904 2.68200000 2210898660 2210898660 -13.00000000
-0.59295022 3.06474090 -0.60677260 2 4 34905 3.18000000 2210898665 2210898665 -11.00000000
-0.73674047 3.81508017 -0.61541319 2 6 34907 3.93400000 2210898669 2210898669 -9.00000000
-0.97910577 5.07964945 -0.63518304 2 8 34909 5.21200000 2210898674 2210898674 -7.00000000
-2.07521892 10.78659725 2.13515258 43 11 34911 11.19000000 2210898681 2210898681 11.00000000
-2.00211763 10.42624664 2.45106673 54 13 34913 10.89600000 2210898685 2210898685 13.00000000
-1.72053301 8.96831512 2.44687533 38 15 34914 9.45400000 2210898690 2210898690 15.00000000
-0.41372341 2.17293453 -0.59269559 4 0 34922 2.29000000 2210898711 2210898711 -15.00000000
-0.48497343 2.55199790 -0.59971952 3 2 34924 2.66600000 2210898715 2210898715 -13.00000000
-0.58517820 3.08222246 -0.60982555 2 4 34925 3.19600000 2210898720 2210898720 -11.00000000
-0.72231555 3.81180596 -0.61447459 2 6 34927 3.92800000 2210898725 2210898725 -9.00000000
-0.95399040 5.04402590 -0.63030827 2 8 34929 5.17200000 2210898729 2210898729 -7.00000000
-2.03755403 10.79377556 2.13515258 46 11 34931 11.19000000 2210898736 2210898736 11.00000000
-1.96354604 10.42168140 2.44836736 54 13 34933 10.88400000 2210898741 2210898741 13.00000000
-1.68814516 8.96857071 2.44532228 38 15 34934 9.44800000 2210898745 2210898745 15.00000000
-0.40755475 2.18196154 -0.59476614 4 0 34942 2.29800000 2210898766 2210898766 -15.00000000
-0.47677660 2.55750680 -0.60061932 3 2 34944 2.67000000 2210898771 2210898771 -13.00000000
-0.56938326 3.05722547 -0.60448289 2 4 34945 3.16800000 2210898775 2210898775 -11.00000000
-0.71008849 3.82013059 -0.61541319 2 6 34947 3.93400000 2210898780 2210898780 -9.00000000
-0.93348092 5.03171110 -0.62835836 2 8 34949 5.15600000 2210898784 2210898784 -7.00000000
-2.00129414 10.80854416 2.13667917 50 11 34951 11.19800000 2210898791 2210898791 11.00000000
-1.92503095 10.41697407 2.44566774 54 13 34953 10.87200000 2210898796 2210898796 13.00000000
-1.65858233 8.98390770 2.44791055 38 15 34954 9.45800000 2210898801 2210898801 15.00000000
-0.39819542 2.17386985 -0.59217799 4 0 34962 2.28800000 2210898821 2210898821 -15.00000000
-0.46924812 2.56682324 -0.60241890 3 2 34964 2.67800000 2210898826 2210898826 -13.00000000
-0.55941349 3.06305695 -0.60524613 2 4 34965 3.17200000 2210898831 2210898831 -11.00000000
-0.70135427 3.84784961 -0.61948049 2 6 34967 3.96000000 2210898835 2210898835 -9.00000000
-0.92372739 5.07790565 -0.63372058 2 8 34969 5.20000000 2210898840 2210898840 -7.00000000
-1.35621953 7.46279383 -0.66360384 4 10 34970 7.61400000 2210898844 2210898844 -5.00000000
-1.96425438 10.81932735 2.13744235 43 11 34971 11.20200000 2210898847 2210898847 11.00000000
-1.88796222 10.41979504 2.44476795 51 13 34973 10.86800000 2210898851 2210898851 13.00000000
-1.62083089 8.96331215 2.44066358 38 15 34975 9.43000000 2210898856 2210898856 15.00000000
-0.38855615 2.16383791 -0.58907217 4 0 34982 2.27600000 2210898877 2210898877 -15.00000000
-0.46097288 2.57228208 -0.60331875 3 2 34984 2.68200000 2210898881 2210898881 -13.00000000
-0.54871804 3.06499100 -0.60524613 2 4 34985 3.17200000 2210898886 2210898886 -11.00000000
-0.68618131 3.84055138 -0.61791611 2 6 34987 3.95000000 2210898890 2210898890 -9.00000000
-0.90390581 5.06937361 -0.63225818 2 8 34989 5.18800000 2210898895 2210898895 -7.00000000
-1.32736611 7.45179033 -0.66220933 4 10 34990 7.59800000 2210898900 2210898900 -5.00000000
-1.92441225 10.81452084 2.13515258 46 11 34991 11.19000000 2210898902 2210898902 11.00000000
-1.85157895 10.42632198 2.44476795 55 13 34993 10.86800000 2210898907 2210898907 13.00000000
-1.58873641 8.95532322 2.43704009 38 15 34994 9.41600000 2210898911 2210898911 15.00000000
-0.38434857 2.18420720 -0.59424853 4 0 35002 2.29600000 2210898932 2210898932 -15.00000000
-0.44929469 2.55852032 -0.59971952 3 2 35004 2.66600000 2210898936 2210898936 -13.00000000
-0.53801590 3.06688762 -0.60524613 2 4 35005 3.17200000 2210898941 2210898941 -11.00000000
-0.67174917 3.83708596 -0.61697751 2 6 35007 3.94400000 2210898946 2210898946 -9.00000000
-0.89508748 5.12334013 -0.63859534 2 8 35009 5.24000000 2210898950 2210898950 -7.00000000
-1.32121420 7.57021618 -0.67231941 4 10 35010 7.71400000 2210898955 2210898955 -5.00000000
-1.88462758 10.80956745 2.13286304 40 11 35011 11.17800000 2210898957 2210898957 11.00000000
-1.81584108 10.43656158 2.44566774 54 13 35013 10.87200000 2210898962 2210898962 13.00000000
-1.55879009 8.96842766 2.43911076 42 15 35014 9.42400000 2210898966 2210898966 15.00000000
-0.37551188 2.17398190 -0.59114271 4 0 35020 2.28400000 2210898987 2210898987 -15.00000000
-0.44158569 2.56183982 -0.60016942 3 2 35022 2.66800000 2210898992 2210898992 -13.00000000
-0.52837837 3.06856275 -0.60524613 2 4 35023 3.17200000 2210898996 2210898996 -11.00000000
-0.66337115 3.86059260 -0.62041909 2 6 35025 3.96600000 2210899001 2210899001 -9.00000000
-0.87697464 5.11438751 -0.63713294 2 8 35027 5.22800000 2210899006 2210899006 -7.00000000
-1.84668553 10.79221344 2.12828350 46 11 35029 11.15400000 2210899013 2210899013 11.00000000
-1.78173268 10.43453121 2.44386816 54 13 35031 10.86400000 2210899017 2210899017 13.00000000
-1.52904117 8.97354698 2.43911076 42 15 35033 9.42400000 2210899022 2210899022 15.00000000
-0.36856532 2.17908907 -0.59217799 4 0 35040 2.28800000 2210899042 2210899042 -15.00000000
-0.43199188 2.55952239 -0.59926963 3 2 35042 2.66400000 2210899047 2210899047 -13.00000000
-0.52092779 3.08974767 -0.60906231 2 4 35043 3.19200000 2210899052 2210899052 -11.00000000
-0.64923567 3.85898852 -0.61979336 2 6 35045 3.96200000 2210899056 2210899056 -9.00000000
-0.85254359 5.07826376 -0.63225818 2 8 35047 5.18800000 2210899061 2210899061 -7.00000000
-1.81289494 10.82182980 2.13286304 43 11 35049 11.17800000 2210899068 2210899068 11.00000000
-1.74433458 10.43492031 2.44251847 55 13 35051 10.85800000 2210899072 2210899072 13.00000000
-1.49834394 8.98264122 2.44014597 42 15 35053 9.42800000 2210899077 2210899077 15.00000000
-0.36260059 2.18792272 -0.59424853 4 0 35059 2.29600000 2210899098 2210899098 -15.00000000
-0.42350182 2.56094098 -0.59926963 3 2 35061 2.66400000 2210899102 2210899102 -13.00000000
-0.50811917 3.07596231 -0.60600936 2 4 35062 3.17600000 2210899107 2210899107 -11.00000000
-0.63739902 3.86696768 -0.62073195 2 6 35064 3.96800000 2210899112 2210899112 -9.00000000
-0.83569878 5.08106279 -0.63225818 2 8 35066 5.18800000 2210899116 2210899116 -7.00000000
-1.77699840 10.82778168 2.13286304 43 11 35068 11.17800000 2210899123 2210899123 11.00000000
-1.70972157 10.44064713 2.44251847 55 13 35070 10.85800000 2210899128 2210899128 13.00000000
-1.46667910 8.97612095 2.43704009 42 15 35072 9.41600000 2210899132 2210899132 15.00000000
-0.35310590 2.17773342 -0.59114271 4 0 35079 2.28400000 2210899153 2210899153 -15.00000000
-0.41704974 2.57779336 -0.60286885 3 2 35081 2.68000000 2210899158 2210899158 -13.00000000
-0.49863181 3.08546948 -0.60753584 2 4 35082 3.18400000 2210899162 2210899162 -11.00000000
-0.62358242 3.86721873 -0.62041909 2 6 35084 3.96600000 2210899167 2210899167 -9.00000000
-0.82426399 5.12314701 -0.63713294 2 8 35086 5.22800000 2210899172 2210899172 -7.00000000
