# .PCD v0.7 - Point Cloud Data file format
VERSION 0.7
FIELDS x y z intensity laser_id azimuth distance_m adjustedtime timestamp vertical_angle
SIZE 4 4 4 1 1 2 8 8 4 8
TYPE F F F U U U F U U F
COUNT 1 1 1 1 1 1 1 1 1 1
WIDTH 536
HEIGHT 1
VIEWPOINT 0 0 0 1 0 0 0
POINTS 536
DATA ascii
1.63984263 2.82546616 -0.63501233 2 4 3013 3.32800000 2209909971 2209909971 -11.00000000
2.06866121 3.56146097 -0.65233171 2 6 3015 4.17000000 2209909975 2209909975 -9.00000000
2.79140401 4.80189371 -0.68198085 6 8 3017 5.59600000 2209909980 2209909980 -7.00000000
4.18572998 7.19758224 -0.72844768 8 10 3018 8.35800000 2209909985 2209909985 -5.00000000
5.10669947 8.77066708 2.34309030 54 13 3021 10.41600000 2209909991 2209909991 13.00000000
3.89909410 6.69393873 2.07572865 42 15 3022 8.02000000 2209909996 2209909996 15.00000000
1.15108824 1.96985149 -0.61133057 4 0 3030 2.36200000 2209910017 2209910017 -15.00000000
1.37040627 2.34329104 -0.62671363 3 2 3032 2.78600000 2209910021 2209910021 -13.00000000
1.65960944 2.83667040 -0.63882852 2 4 3033 3.34800000 2209910026 2209910026 -11.00000000
2.08407474 3.55933237 -0.65327030 2 6 3035 4.17600000 2209910031 2209910031 -9.00000000
2.80011964 4.77841902 -0.68003094 6 8 3037 5.58000000 2209910035 2209910035 -7.00000000
4.21989727 7.19839668 -0.73001653 4 10 3038 8.37600000 2209910040 2209910040 -5.00000000
5.13432455 8.74774647 2.34174037 57 13 3041 10.41000000 2209910047 2209910047 13.00000000
3.92439294 6.68361950 2.07676411 40 15 3042 8.02400000 2209910051 2209910051 15.00000000
1.15923083 1.96955526 -0.61236584 4 0 3048 2.36600000 2209910072 2209910072 -15.00000000
1.37380481 2.33225775 -0.62491405 3 2 3050 2.77800000 2209910077 2209910077 -13.00000000
1.66851282 2.83144259 -0.63882852 2 4 3051 3.34800000 2209910081 2209910081 -11.00000000
2.09424281 3.55106592 -0.65295744 2 6 3053 4.17400000 2209910086 2209910086 -9.00000000
2.81915355 4.77643681 -0.68100590 6 8 3055 5.58800000 2209910090 2209910090 -7.00000000
4.24249077 7.18510437 -0.73001653 4 10 3056 8.37600000 2209910095 2209910095 -5.00000000
5.15979767 8.72821808 2.34084058 57 13 3059 10.40600000 2209910102 2209910102 13.00000000
3.94340396 6.66793203 2.07572865 15 15 3060 8.02000000 2209910107 2209910107 15.00000000
1.16215599 1.95885098 -0.61029530 4 0 3068 2.35800000 2209910127 2209910127 -15.00000000
1.38193762 2.32744813 -0.62491405 3 2 3070 2.77800000 2209910132 2209910132 -13.00000000
1.66434956 2.80197001 -0.63348585 2 4 3071 3.32000000 2209910137 2209910137 -11.00000000
2.10662580 3.54373407 -0.65295744 2 6 3073 4.17400000 2209910141 2209910141 -9.00000000
2.83783937 4.76997900 -0.68149334 6 8 3075 5.59200000 2209910146 2209910146 -7.00000000
4.26856470 7.17196321 -0.73019081 8 10 3076 8.37800000 2209910150 2209910150 -5.00000000
5.19023371 8.71015358 2.34084058 55 13 3079 10.40600000 2209910157 2209910157 13.00000000
4.50510454 7.55438519 2.35680628 31 15 3081 9.10600000 2209910162 2209910162 15.00000000
1.16898656 1.95478237 -0.61029530 4 0 3088 2.35800000 2209910183 2209910183 -15.00000000
1.40006101 2.33933163 -0.62941307 3 2 3090 2.79800000 2209910187 2209910187 -13.00000000
1.68420517 2.81298757 -0.63730204 2 4 3091 3.34000000 2209910192 2209910192 -11.00000000
2.11898279 3.53635883 -0.65295744 2 6 3093 4.17400000 2209910196 2209910196 -9.00000000
2.85855603 4.76685381 -0.68246830 6 8 3095 5.60000000 2209910201 2209910201 -7.00000000
4.29459858 7.15872812 -0.73036510 8 10 3096 8.38000000 2209910206 2209910206 -5.00000000
5.22261286 8.69532490 2.34174037 55 13 3099 10.41000000 2209910213 2209910213 13.00000000
4.52814102 7.53609228 2.35577106 40 15 3100 9.10200000 2209910217 2209910217 15.00000000
1.16981912 1.94076276 -0.60718948 4 0 3108 2.34600000 2209910238 2209910238 -15.00000000
1.40620518 2.33109283 -0.62851322 3 2 3110 2.79400000 2209910242 2209910242 -13.00000000
1.69401407 2.80709147 -0.63730204 2 4 3111 3.34000000 2209910247 2209910247 -11.00000000
2.11701679 3.50526786 -0.64857727 2 6 3113 4.14600000 2209910252 2209910252 -9.00000000
2.88133907 4.76703978 -0.68393075 6 8 3115 5.61200000 2209910256 2209910256 -7.00000000
4.32265377 7.14880848 -0.73088807 8 10 3116 8.38600000 2209910261 2209910261 -5.00000000
5.25495148 8.68037510 2.34264016 57 13 3119 10.41400000 2209910268 2209910268 13.00000000
4.55141687 7.51528263 2.35421801 40 15 3120 9.09600000 2209910272 2209910272 15.00000000
1.18862331 1.95647991 -0.61340111 4 0 3128 2.37000000 2209910293 2209910293 -15.00000000
1.41028404 2.31950974 -0.62671363 3 2 3130 2.78600000 2209910298 2209910298 -13.00000000
1.70584285 2.80451584 -0.63806528 2 4 3131 3.34400000 2209910302 2209910302 -11.00000000
2.14567375 3.52485418 -0.65358317 2 6 3133 4.17800000 2209910307 2209910307 -9.00000000
2.89589596 4.75356245 -0.68344325 9 8 3135 5.60800000 2209910312 2209910312 -7.00000000
4.35172892 7.14048147 -0.73158532 8 10 3136 8.39400000 2209910316 2209910316 -5.00000000
5.28115988 8.65532494 2.34084058 55 13 3139 10.40600000 2209910323 2209910323 13.00000000
4.58396530 7.50679445 2.35680628 40 15 3141 9.10600000 2209910328 2209910328 15.00000000
1.19342780 1.94902396 -0.61236584 4 0 3148 2.36600000 2209910348 2209910348 -15.00000000
1.42244482 2.32121897 -0.62851322 3 2 3150 2.79400000 2209910353 2209910353 -13.00000000
1.71356988 2.79519677 -0.63730204 2 4 3151 3.34000000 2209910358 2209910358 -11.00000000
2.16932774 3.53586411 -0.65702474 2 6 3153 4.20000000 2209910362 2209910362 -9.00000000
2.90623927 4.73327494 -0.68198085 9 8 3155 5.59600000 2209910367 2209910367 -7.00000000
4.38601255 7.14052677 -0.73315412 8 10 3156 8.41200000 2209910372 2209910372 -5.00000000
5.30623627 8.62853813 2.33859110 53 13 3159 10.39600000 2209910378 2209910378 13.00000000
4.61014128 7.49074745 2.35680628 38 15 3161 9.10600000 2209910383 2209910383 15.00000000
1.20225298 1.94813418 -0.61340111 4 0 3168 2.37000000 2209910404 2209910404 -15.00000000
1.42644274 2.30960751 -0.62671363 3 2 3170 2.78600000 2209910408 2209910408 -13.00000000
1.71506107 2.77583671 -0.63424909 2 4 3171 3.32400000 2209910413 2209910413 -11.00000000
2.16607380 3.50306845 -0.65233171 2 6 3173 4.17000000 2209910418 2209910418 -9.00000000
2.93110037 4.73660564 -0.68393075 6 8 3175 5.61200000 2209910422 2209910422 -7.00000000
4.40881348 7.12178516 -0.73280549 4 10 3176 8.40800000 2209910427 2209910427 -5.00000000
5.33529663 8.60830688 2.33814120 56 13 3179 10.39400000 2209910434 2209910434 13.00000000
4.63626051 7.47460938 2.35680628 42 15 3181 9.10600000 2209910438 2209910438 15.00000000
1.20088363 1.93080211 -0.60926002 4 0 3188 2.35400000 2209910459 2209910459 -15.00000000
1.43655562 2.30792308 -0.62761343 3 2 3190 2.79000000 2209910464 2209910464 -13.00000000
1.72681558 2.77316618 -0.63501233 2 4 3191 3.32800000 2209910468 2209910468 -11.00000000
2.19709396 3.52566290 -0.65796334 2 6 3193 4.20600000 2209910473 2209910473 -9.00000000
2.93921280 4.71287012 -0.68198085 6 8 3195 5.59600000 2209910478 2209910478 -7.00000000
4.42731857 7.09621000 -0.73175961 4 10 3196 8.39600000 2209910482 2209910482 -5.00000000
5.36531258 8.58963013 2.33814120 55 13 3199 10.39400000 2209910489 2209910489 13.00000000
4.65515566 7.44691372 2.35318279 40 15 3201 9.09200000 2209910494 2209910494 15.00000000
1.20966804 1.92987227 -0.61029530 4 0 3208 2.35800000 2209910514 2209910514 -15.00000000
1.44253194 2.29959297 -0.62671363 3 2 3210 2.78600000 2209910519 2209910519 -13.00000000
1.74274659 2.77709937 -0.63730204 2 4 3211 3.34000000 2209910524 2209910524 -11.00000000
2.19362855 3.49287963 -0.65327030 2 6 3213 4.17600000 2209910528 2209910528 -9.00000000
2.96832180 4.72275019 -0.68490571 6 8 3215 5.62000000 2209910533 2209910533 -7.00000000
4.45100164 7.07902575 -0.73158532 4 10 3216 8.39400000 2209910537 2209910537 -5.00000000
5.39941597 8.57744694 2.33994079 56 13 3219 10.40200000 2209910544 2209910544 13.00000000
4.68497181 7.43960905 2.35577106 38 15 3220 9.10200000 2209910549 2209910549 15.00000000
1.21639717 1.92563796 -0.61029530 4 0 3228 2.35800000 2209910570 2209910570 -15.00000000
1.45471549 2.30113244 -0.62851322 3 2 3230 2.79400000 2209910574 2209910574 -13.00000000
1.74823248 2.76436186 -0.63577557 2 4 3231 3.33200000 2209910579 2209910579 -11.00000000
2.21742821 3.50356174 -0.65671188 2 6 3233 4.19800000 2209910583 2209910583 -9.00000000
2.97416735 4.69559002 -0.68246830 4 8 3235 5.60000000 2209910588 2209910588 -7.00000000
4.48954821 7.08532429 -0.73385137 4 10 3236 8.42000000 2209910593 2209910593 -5.00000000
5.41888475 8.54209137 2.33544183 56 13 3239 10.38200000 2209910600 2209910600 13.00000000
4.71117258 7.42075682 2.35525322 40 15 3241 9.10000000 2209910604 2209910604 15.00000000
1.22692466 1.92811310 -0.61236584 4 0 3247 2.36600000 2209910625 2209910625 -15.00000000
1.46233833 2.29629564 -0.62851322 3 2 3249 2.79400000 2209910630 2209910630 -13.00000000
1.76160920 2.76517248 -0.63730204 2 4 3250 3.34000000 2209910634 2209910634 -11.00000000
2.21841478 3.47953272 -0.65358317 2 6 3252 4.17800000 2209910639 2209910639 -9.00000000
2.98545098 4.67900753 -0.68149334 4 8 3254 5.59200000 2209910643 2209910643 -7.00000000
4.50337124 7.05528259 -0.73228258 4 10 3255 8.40200000 2209910648 2209910648 -5.00000000
5.44508314 8.52079010 2.33454204 57 13 3258 10.37800000 2209910655 2209910655 13.00000000
4.73966503 7.41405821 2.35784149 40 15 3259 9.11000000 2209910660 2209910660 15.00000000
1.23156190 1.92056608 -0.61133057 4 0 3267 2.36200000 2209910680 2209910680 -15.00000000
1.46402991 2.28133678 -0.62581384 3 2 3269 2.78200000 2209910685 2209910685 -13.00000000
1.76064444 2.74248552 -0.63348585 2 4 3270 3.32000000 2209910689 2209910689 -11.00000000
2.23908925 3.48506331 -0.65608615 2 6 3272 4.19400000 2209910694 2209910694 -9.00000000
3.01679587 4.69193411 -0.68490571 6 8 3274 5.62000000 2209910699 2209910699 -7.00000000
4.53012705 7.04287148 -0.73263115 4 10 3275 8.40600000 2209910703 2209910703 -5.00000000
5.47479296 8.50173187 2.33454204 56 13 3278 10.37800000 2209910710 2209910710 13.00000000
4.42250872 6.86239004 2.18753862 13 15 3280 8.45200000 2209910715 2209910715 15.00000000
1.23163474 1.90673506 -0.60822475 4 0 3286 2.35000000 2209910736 2209910736 -15.00000000
1.47581887 2.28301549 -0.62761343 3 2 3288 2.79000000 2209910740 2209910740 -13.00000000
1.78678679 2.76300907 -0.63959175 2 4 3289 3.35200000 2209910745 2209910745 -11.00000000
2.24634075 3.47098565 -0.65483469 2 6 3291 4.18600000 2209910749 2209910749 -9.00000000
3.02694273 4.67357349 -0.68368703 4 8 3293 5.61000000 2209910754 2209910754 -7.00000000
4.55562401 7.03115416 -0.73297977 4 10 3294 8.41000000 2209910759 2209910759 -5.00000000
5.50719738 8.49006939 2.33634162 56 13 3297 10.38600000 2209910766 2209910766 13.00000000
4.78686571 7.37676334 2.35628867 33 15 3298 9.10400000 2209910770 2209910770 15.00000000
1.24671388 1.91537690 -0.61236584 4 0 3306 2.36600000 2209910791 2209910791 -15.00000000
1.49016094 2.28764725 -0.63031286 3 2 3308 2.80200000 2209910795 2209910795 -13.00000000
1.80070794 2.76333451 -0.64111823 2 4 3309 3.36000000 2209910800 2209910800 -11.00000000
2.26168013 3.46808720 -0.65577328 2 6 3311 4.19200000 2209910805 2209910805 -9.00000000
3.05083275 4.67461586 -0.68539321 6 8 3313 5.62400000 2209910809 2209910809 -7.00000000
4.58994246 7.03022432 -0.73454863 4 10 3314 8.42800000 2209910814 2209910814 -5.00000000
5.53786612 8.47242546 2.33679152 54 13 3317 10.38800000 2209910821 2209910821 13.00000000
4.81492853 7.36078548 2.35680628 42 15 3319 9.10600000 2209910825 2209910825 15.00000000
1.25763023 1.91747499 -0.61443639 4 0 3326 2.37400000 2209910846 2209910846 -15.00000000
1.49385989 2.27591515 -0.62851322 3 2 3328 2.79400000 2209910851 2209910851 -13.00000000
1.80172217 2.74390340 -0.63806528 2 4 3329 3.34400000 2209910855 2209910855 -11.00000000
2.26834822 3.45191693 -0.65420896 2 6 3331 4.18200000 2209910860 2209910860 -9.00000000
3.05840564 4.65066910 -0.68344325 9 8 3333 5.60800000 2209910865 2209910865 -7.00000000
4.61883450 7.02081728 -0.73524582 4 10 3334 8.43600000 2209910869 2209910869 -5.00000000
5.56847858 8.45466995 2.33724141 56 13 3337 10.39000000 2209910876 2209910876 13.00000000
4.84037399 7.34639120 2.35732388 42 15 3338 9.10800000 2209910881 2209910881 15.00000000
1.25792503 1.90340316 -0.61133057 4 0 3346 2.36200000 2209910901 2209910901 -15.00000000
1.49534512 2.26093435 -0.62581384 3 2 3348 2.78200000 2209910906 2209910906 -13.00000000
1.81562245 2.74414682 -0.63959175 2 4 3349 3.35200000 2209910911 2209910911 -11.00000000
2.28038383 3.44397807 -0.65420896 2 6 3351 4.18200000 2209910915 2209910915 -9.00000000
3.07462096 4.63996506 -0.68344325 6 8 3353 5.60800000 2209910920 2209910920 -7.00000000
4.63891029 6.99800920 -0.73454863 4 10 3354 8.42800000 2209910924 2209910924 -5.00000000
5.59364653 8.42868614 2.33544183 57 13 3357 10.38200000 2209910931 2209910931 13.00000000
4.86726761 7.32860136 2.35732388 40 15 3359 9.10800000 2209910936 2209910936 15.00000000
1.26423001 1.89922130 -0.61133057 4 0 3365 2.36200000 2209910957 2209910957 -15.00000000
1.50931680 2.26569414 -0.62851322 3 2 3367 2.79400000 2209910961 2209910961 -13.00000000
1.81382513 2.72177362 -0.63577557 2 4 3368 3.33200000 2209910966 2209910966 -11.00000000
2.29288793 3.43804049 -0.65452182 2 6 3370 4.18400000 2209910971 2209910971 -9.00000000
3.09439874 4.63634825 -0.68441826 6 8 3372 5.61600000 2209910975 2209910975 -7.00000000
4.64770889 6.96104670 -0.73228258 4 10 3373 8.40200000 2209910980 2209910980 -5.00000000
5.62156630 8.41009045 2.33544183 55 13 3376 10.38200000 2209910987 2209910987 13.00000000
4.88597155 7.30685043 2.35525322 45 15 3377 9.10000000 2209910991 2209910991 15.00000000
1.27192783 1.89640117 -0.61184824 4 0 3385 2.36400000 2209911012 2209911012 -15.00000000
1.51938844 2.26364803 -0.62941307 3 2 3387 2.79800000 2209911017 2209911017 -13.00000000
1.82331479 2.71542573 -0.63577557 2 4 3388 3.33200000 2209911021 2209911021 -11.00000000
2.31258726 3.44149303 -0.65671188 2 6 3390 4.19800000 2209911026 2209911026 -9.00000000
3.11721015 4.63540220 -0.68588066 6 8 3392 5.62800000 2209911030 2209911030 -7.00000000
4.69644547 6.98114920 -0.73611742 4 10 3393 8.44600000 2209911035 2209911035 -5.00000000
5.65742064 8.40011501 2.33814120 57 13 3396 10.39400000 2209911042 2209911042 13.00000000
4.90948057 7.28408766 2.35370040 40 15 3398 9.09400000 2209911047 2209911047 15.00000000
1.27745819 1.89034903 -0.61133057 4 0 3405 2.36200000 2209911067 2209911067 -15.00000000
1.52728081 2.25833058 -0.62941307 3 2 3407 2.79800000 2209911072 2209911072 -13.00000000
1.83718276 2.71554899 -0.63730204 2 4 3408 3.34000000 2209911077 2209911077 -11.00000000
2.31129646 3.41377068 -0.65295744 2 6 3410 4.17400000 2209911081 2209911081 -9.00000000
3.12891769 4.61791897 -0.68490571 6 8 3412 5.62000000 2209911086 2209911086 -7.00000000
4.69842815 6.93172836 -0.73263115 4 10 3413 8.40600000 2209911090 2209911090 -5.00000000
5.68451929 8.37709045 2.33724141 56 13 3416 10.39000000 2209911097 2209911097 13.00000000
4.93686342 7.27256203 2.35525322 42 15 3417 9.10000000 2209911102 2209911102 15.00000000
1.28296161 1.88428152 -0.61081296 4 0 3425 2.36000000 2209911123 2209911123 -15.00000000
1.53076530 2.24654388 -0.62761343 3 2 3427 2.79000000 2209911127 2209911127 -13.00000000
1.84222746 2.70263052 -0.63577557 4 4 3428 3.33200000 2209911132 2209911132 -11.00000000
2.33099103 3.41710496 -0.65514755 2 6 3430 4.18800000 2209911136 2209911136 -9.00000000
3.15061426 4.61516666 -0.68612438 6 8 3432 5.63000000 2209911141 2209911141 -7.00000000
4.72596645 6.92022181 -0.73315412 4 10 3433 8.41200000 2209911146 2209911146 -5.00000000
5.71152639 8.35397911 2.33634162 55 13 3436 10.38600000 2209911153 2209911153 13.00000000
4.96221924 7.25528479 2.35525322 40 15 3437 9.10000000 2209911157 2209911157 15.00000000
1.29827380 1.89253604 -0.61495405 4 0 3445 2.37600000 2209911178 2209911178 -15.00000000
1.54080367 2.24440002 -0.62851322 3 2 3447 2.79400000 2209911183 2209911183 -13.00000000
1.85387301 2.69942021 -0.63653880 4 4 3448 3.33600000 2209911187 2209911187 -11.00000000
2.34178591 3.40731955 -0.65483469 2 6 3450 4.18600000 2209911192 2209911192 -9.00000000
3.15658069 4.58942080 -0.68393075 6 8 3452 5.61200000 2209911196 2209911196 -7.00000000
4.75799942 6.91517258 -0.73437428 4 10 3453 8.42600000 2209911201 2209911201 -5.00000000
5.73623085 8.32757187 2.33454204 62 13 3456 10.37800000 2209911208 2209911208 13.00000000
4.98970699 7.24110079 2.35628867 42 15 3457 9.10400000 2209911212 2209911212 15.00000000
1.29718339 1.87686813 -0.61133057 4 0 3465 2.36200000 2209911233 2209911233 -15.00000000
1.54419458 2.23259687 -0.62671363 3 2 3467 2.78600000 2209911238 2209911238 -13.00000000
1.85211372 2.67678785 -0.63272262 4 4 3468 3.31600000 2209911242 2209911242 -11.00000000
3.18162656 4.59142733 -0.68588066 6 8 3472 5.62800000 2209911252 2209911252 -7.00000000
4.78324413 6.90015936 -0.73454863 8 10 3473 8.42800000 2209911256 2209911256 -5.00000000
5.76748657 8.31070042 2.33544183 56 13 3476 10.38200000 2209911263 2209911263 13.00000000
5.01621342 7.22276402 2.35628867 42 15 3478 9.10400000 2209911268 2209911268 15.00000000
1.29931128 1.86598718 -0.60926002 4 0 3485 2.35400000 2209911289 2209911289 -15.00000000
1.55643487 2.23358846 -0.62851322 3 2 3487 2.79400000 2209911293 2209911293 -13.00000000
1.87491858 2.68963313 -0.63730204 4 4 3488 3.34000000 2209911298 2209911298 -11.00000000
2.36099529 3.38440752 -0.65358317 2 6 3490 4.17800000 2209911302 2209911302 -9.00000000
3.20217967 4.58680391 -0.68685561 6 8 3492 5.63600000 2209911307 2209911307 -7.00000000
4.80615997 6.88178730 -0.73437428 8 10 3493 8.42600000 2209911312 2209911312 -5.00000000
5.79646111 8.29051685 2.33544183 59 13 3496 10.38200000 2209911318 2209911318 13.00000000
5.03570843 7.19975758 2.35421801 42 15 3497 9.09600000 2209911323 2209911323 15.00000000
1.31136417 1.86934793 -0.61184824 4 0 3505 2.36400000 2209911344 2209911344 -15.00000000
1.56310236 2.22654700 -0.62806332 4 2 3507 2.79200000 2209911348 2209911348 -13.00000000
1.89106572 2.69271183 -0.63959175 4 4 3508 3.35200000 2209911353 2209911353 -11.00000000
2.38188148 3.38907456 -0.65608615 2 6 3510 4.19400000 2209911358 2209911358 -9.00000000
3.22959113 4.59183550 -0.68929303 6 8 3512 5.65600000 2209911362 2209911362 -7.00000000
4.83244562 6.86822748 -0.73472291 13 10 3513 8.43000000 2209911367 2209911367 -5.00000000
5.83434296 8.28297901 2.33904099 56 13 3516 10.39800000 2209911374 2209911374 13.00000000
5.06414795 7.18687344 2.35577106 40 15 3517 9.10200000 2209911378 2209911378 15.00000000
1.32122624 1.86949193 -0.61340111 4 0 3525 2.37000000 2209911399 2209911399 -15.00000000
1.56411338 2.21153092 -0.62536395 4 2 3527 2.78000000 2209911404 2209911404 -13.00000000
1.88911426 2.67006755 -0.63577557 4 4 3528 3.33200000 2209911408 2209911408 -11.00000000
2.38913131 3.37429094 -0.65483469 2 6 3530 4.18600000 2209911413 2209911413 -9.00000000
3.27084851 4.61616755 -0.69465524 9 8 3532 5.70000000 2209911417 2209911417 -7.00000000
4.86791277 6.86757183 -0.73646605 13 10 3533 8.45000000 2209911422 2209911422 -5.00000000
5.85870934 8.25620556 2.33724141 55 13 3536 10.39000000 2209911429 2209911429 13.00000000
5.09144068 7.17230320 2.35680628 40 15 3537 9.10600000 2209911434 2209911434 15.00000000
1.33110535 1.86958981 -0.61495405 4 0 3545 2.37600000 2209911454 2209911454 -15.00000000
1.57295442 2.20764470 -0.62581384 4 2 3547 2.78200000 2209911459 2209911459 -13.00000000
1.90298104 2.66985178 -0.63730204 2 4 3548 3.34000000 2209911464 2209911464 -11.00000000
2.40663075 3.37397170 -0.65639901 2 6 3550 4.19600000 2209911468 2209911468 -9.00000000
3.29962850 4.62249470 -0.69733638 9 8 3552 5.72200000 2209911473 2209911473 -7.00000000
4.88722372 6.84405231 -0.73576880 13 10 3553 8.44200000 2209911477 2209911477 -5.00000000
5.88522625 8.23253345 2.33634162 57 13 3556 10.38600000 2209911484 2209911484 13.00000000
5.12106609 7.15830755 2.35835910 45 15 3558 9.11200000 2209911489 2209911489 15.00000000
1.33166945 1.85731542 -0.61236584 4 0 3564 2.36600000 2209911510 2209911510 -15.00000000
1.58253860 2.20558333 -0.62671363 3 2 3566 2.78600000 2209911514 2209911514 -13.00000000
1.90724492 2.65714693 -0.63577557 2 4 3567 3.33200000 2209911519 2209911519 -11.00000000
2.42011070 3.36918116 -0.65702474 2 6 3569 4.20000000 2209911523 2209911523 -9.00000000
3.32652569 4.62764597 -0.69977379 9 8 3571 5.74200000 2209911528 2209911528 -7.00000000
3.47217011 4.82847834 -0.52031976 11 10 3572 5.97000000 2209911533 2209911533 -5.00000000
5.91477108 8.21613598 2.33724141 38 13 3575 10.39000000 2209911540 2209911540 13.00000000
5.14127159 7.13904858 2.35732388 42 15 3576 9.10800000 2209911544 2209911544 15.00000000
1.33248889 1.84482539 -0.60977769 4 0 3584 2.35600000 2209911565 2209911565 -15.00000000
1.59479427 2.20636320 -0.62851322 3 2 3586 2.79400000 2209911569 2209911569 -13.00000000
1.92341065 2.66001868 -0.63806528 2 4 3587 3.34400000 2209911574 2209911574 -11.00000000
2.42490840 3.35111094 -0.65514755 2 6 3589 4.18800000 2209911579 2209911579 -9.00000000
3.34033036 4.61279058 -0.69928628 9 8 3591 5.73800000 2209911583 2209911583 -7.00000000
3.47147083 4.79212618 -0.51770508 15 10 3592 5.94000000 2209911588 2209911588 -5.00000000
4.96867180 6.85135555 1.95392489 9 13 3595 8.68600000 2209911595 2209911595 13.00000000
5.16162252 7.11480379 2.35525322 45 15 3596 9.10000000 2209911599 2209911599 15.00000000
1.33892035 1.84016287 -0.60977769 4 0 3604 2.35600000 2209911620 2209911620 -15.00000000
1.60019207 2.19763207 -0.62761343 3 2 3606 2.79000000 2209911625 2209911625 -13.00000000
3.47813797 4.77496719 -1.14828849 17 4 3607 6.01800000 2209911629 2209911629 -11.00000000
2.44706368 3.35699248 -0.65796334 4 6 3609 4.20600000 2209911634 2209911634 -9.00000000
3.35056233 4.59308386 -0.69806761 13 8 3611 5.72800000 2209911639 2209911639 -7.00000000
3.48465371 4.77515078 -0.51718217 15 10 3612 5.93400000 2209911643 2209911643 -5.00000000
3.50426459 4.79850578 -0.31139895 9 12 3614 5.95000000 2209911648 2209911648 -3.00000000
5.00750160 6.85442638 1.95977354 17 13 3615 8.71200000 2209911650 2209911650 13.00000000
5.18994522 7.09895706 2.35628867 45 15 3617 9.10400000 2209911655 2209911655 15.00000000
1.35218787 1.84482670 -0.61288351 4 0 3624 2.36800000 2209911675 2209911675 -15.00000000
1.60324311 2.18574762 -0.62581384 3 2 3626 2.78200000 2209911680 2209911680 -13.00000000
2.45409036 3.34206152 -0.65671188 6 6 3629 4.19800000 2209911689 2209911689 -9.00000000
3.36539936 4.57976055 -0.69782388 18 8 3631 5.72600000 2209911694 2209911694 -7.00000000
3.48596001 4.74208927 -0.51491612 18 10 3632 5.90800000 2209911699 2209911699 -5.00000000
3.50324035 4.76211214 -0.30982885 25 12 3634 5.92000000 2209911703 2209911703 -3.00000000
5.03717279 6.84475279 1.96202314 23 13 3635 8.72200000 2209911705 2209911705 13.00000000
5.22156715 7.09013081 2.35939431 42 15 3637 9.11600000 2209911710 2209911710 15.00000000
1.36091423 1.84320378 -0.61391878 4 0 3644 2.37200000 2209911731 2209911731 -15.00000000
1.61433721 2.18483996 -0.62716353 3 2 3646 2.78800000 2209911735 2209911735 -13.00000000
3.49038315 4.72215128 -1.14141941 114 4 3647 5.98200000 2209911740 2209911740 -11.00000000
2.47278953 3.34300351 -0.65858912 6 6 3649 4.21000000 2209911745 2209911745 -9.00000000
3.37664080 4.56160307 -0.69684893 13 8 3651 5.71800000 2209911749 2209911749 -7.00000000
3.50841999 4.73789787 -0.51578766 37 10 3652 5.91800000 2209911754 2209911754 -5.00000000
3.50795054 4.73380804 -0.30878213 43 12 3654 5.90000000 2209911758 2209911758 -3.00000000
5.06567669 6.83338976 1.96382272 25 13 3655 8.73000000 2209911761 2209911761 13.00000000
3.53532457 4.76726818 -0.10359748 2 14 3656 5.93600000 2209911763 2209911763 -1.00000000
5.24398232 7.06875753 2.35835910 42 15 3657 9.11200000 2209911765 2209911765 15.00000000
1.36042261 1.82914138 -0.61081296 4 0 3664 2.36000000 2209911786 2209911786 -15.00000000
1.62893498 2.18857098 -0.62986296 3 2 3666 2.80000000 2209911791 2209911791 -13.00000000
3.49512053 4.69419146 -1.13760328 147 4 3667 5.96200000 2209911795 2209911795 -11.00000000
2.48090291 3.32959938 -0.65765047 6 6 3669 4.20400000 2209911800 2209911800 -9.00000000
3.39728975 4.55615425 -0.69782388 13 8 3671 5.72600000 2209911805 2209911805 -7.00000000
3.50706816 4.70166683 -0.51317298 60 10 3672 5.88800000 2209911809 2209911809 -5.00000000
3.52086902 4.71673250 -0.30846813 78 12 3674 5.89400000 2209911814 2209911814 -3.00000000
5.09999275 6.82971859 1.96787179 21 13 3675 8.74800000 2209911816 2209911816 13.00000000
3.53758287 4.73567390 -0.10317863 2 14 3676 5.91200000 2209911818 2209911818 -1.00000000
5.26515579 7.04576731 2.35680628 45 15 3677 9.10600000 2209911821 2209911821 15.00000000
1.36795747 1.82592750 -0.61133057 4 0 3684 2.36200000 2209911841 2209911841 -15.00000000
1.63071978 2.17507577 -0.62761343 3 2 3686 2.79000000 2209911846 2209911846 -13.00000000
3.51619697 4.68824530 -1.13912976 176 4 3687 5.97000000 2209911851 2209911851 -11.00000000
2.48183846 3.30670023 -0.65483469 6 6 3689 4.18600000 2209911855 2209911855 -9.00000000
3.42151809 4.55537844 -0.69953001 11 8 3691 5.74000000 2209911860 2209911860 -7.00000000
3.52226186 4.68780327 -0.51299870 33 10 3692 5.88600000 2209911864 2209911864 -5.00000000
3.53971267 4.70760632 -0.30867746 100 12 3694 5.89800000 2209911869 2209911869 -3.00000000
5.14840174 6.84457922 1.97731972 19 13 3695 8.79000000 2209911871 2209911871 13.00000000
3.54086637 4.70571995 -0.10279468 6 14 3696 5.89000000 2209911874 2209911874 -1.00000000
5.28732967 7.02672482 2.35628867 45 15 3696 9.10400000 2209911876 2209911876 15.00000000
1.37083173 1.81651521 -0.60977769 4 0 3704 2.35600000 2209911897 2209911897 -15.00000000
1.63360465 2.16314983 -0.62581384 3 2 3706 2.78200000 2209911901 2209911901 -13.00000000
3.54674172 4.69474030 -1.14370906 165 4 3707 5.99400000 2209911906 2209911906 -11.00000000
2.49336576 3.29801679 -0.65483469 4 6 3709 4.18600000 2209911910 2209911910 -9.00000000
3.44218946 4.54973936 -0.70050496 11 8 3711 5.74800000 2209911915 2209911915 -7.00000000
3.54822278 4.68818903 -0.51439321 30 10 3712 5.90200000 2209911920 2209911920 -5.00000000
3.55491781 4.69362926 -0.30857280 90 12 3714 5.89600000 2209911924 2209911924 -3.00000000
5.18167734 6.83899212 1.98091900 11 13 3715 8.80600000 2209911927 2209911927 13.00000000
3.57538915 4.71723604 -0.10331824 54 14 3716 5.92000000 2209911929 2209911929 -1.00000000
5.31304836 7.00729847 2.35628867 42 15 3717 9.10400000 2209911931 2209911931 15.00000000
1.38152313 1.81811202 -0.61184824 4 0 3723 2.36400000 2209911952 2209911952 -15.00000000
1.63840973 2.15461826 -0.62491405 3 2 3725 2.77800000 2209911957 2209911957 -13.00000000
3.55634737 4.67514038 -1.14180100 136 4 3726 5.98400000 2209911961 2209911961 -11.00000000
2.50668168 3.29287386 -0.65546042 4 6 3728 4.19000000 2209911966 2209911966 -9.00000000
3.45364904 4.53356266 -0.69977379 11 8 3730 5.74200000 2209911970 2209911970 -7.00000000
3.57461882 4.69065905 -0.51596200 26 10 3731 5.92000000 2209911975 2209911975 -5.00000000
3.57167411 4.68340349 -0.30867746 59 12 3733 5.89800000 2209911980 2209911980 -3.00000000
5.22323942 6.84656143 1.98811746 2 13 3734 8.83800000 2209911982 2209911982 13.00000000
3.58858609 4.70217466 -0.10324844 45 14 3735 5.91600000 2209911984 2209911984 -1.00000000
5.33738041 6.99364424 2.35732388 42 15 3735 9.10800000 2209911987 2209911987 15.00000000
1.39020944 1.81634676 -0.61288351 4 0 3743 2.36800000 2209912007 2209912007 -15.00000000
1.64829075 2.15198016 -0.62581384 3 2 3745 2.78200000 2209912012 2209912012 -13.00000000
2.52056456 3.28723907 -0.65608615 4 6 3748 4.19400000 2209912021 2209912021 -9.00000000
3.46461940 4.51517963 -0.69879884 9 8 3750 5.73400000 2209912026 2209912026 -7.00000000
3.59703612 4.68605518 -0.51683354 18 10 3751 5.93000000 2209912030 2209912030 -5.00000000
3.60381746 4.69149780 -0.31003821 18 12 3753 5.92400000 2209912035 2209912035 -3.00000000
5.36768818 6.98016024 2.35939431 45 15 3756 9.11600000 2209912042 2209912042 15.00000000
1.39182317 1.80536306 -0.61081296 4 0 3763 2.36000000 2209912063 2209912063 -15.00000000
1.66293466 2.15547109 -0.62851322 3 2 3765 2.79400000 2209912067 2209912067 -13.00000000
2.53685379 3.28467417 -0.65733761 4 6 3768 4.20200000 2209912076 2209912076 -9.00000000
3.48278713 4.50619984 -0.69928628 9 8 3770 5.73800000 2209912081 2209912081 -7.00000000
3.63652658 4.70341873 -0.52014548 11 10 3771 5.96800000 2209912086 2209912086 -5.00000000
6.19173861 7.99962521 2.33544183 59 13 3774 10.38200000 2209912093 2209912093 13.00000000
5.38607502 6.95621204 2.35732388 42 15 3775 9.10800000 2209912097 2209912097 15.00000000
1.39337730 1.79439032 -0.60874242 4 0 3783 2.35200000 2209912118 2209912118 -15.00000000
1.66805708 2.14657569 -0.62761343 3 2 3785 2.79000000 2209912122 2209912122 -13.00000000
2.01462007 2.59162402 -0.63806528 4 4 3786 3.34400000 2209912127 2209912127 -11.00000000
2.54102659 3.26644397 -0.65546042 4 6 3788 4.19000000 2209912132 2209912132 -9.00000000
3.48386240 4.47521830 -0.69636142 9 8 3790 5.71400000 2209912136 2209912136 -7.00000000
5.15987539 6.62576580 -0.73472291 8 10 3791 8.43000000 2209912141 2209912141 -5.00000000
6.22082329 7.97950029 2.33589172 51 13 3794 10.38400000 2209912148 2209912148 13.00000000
5.40796947 6.93185472 2.35577106 45 15 3796 9.10200000 2209912152 2209912152 15.00000000
1.40677333 1.79864573 -0.61184824 4 0 3803 2.36400000 2209912173 2209912173 -15.00000000
1.67794204 2.14380908 -0.62851322 3 2 3805 2.79400000 2209912178 2209912178 -13.00000000
2.02849555 2.59075904 -0.63959175 4 4 3806 3.35200000 2209912182 2209912182 -11.00000000
2.55484962 3.26066399 -0.65608615 4 6 3808 4.19400000 2209912187 2209912187 -9.00000000
3.48598909 4.44584656 -0.69368029 9 8 3810 5.69200000 2209912192 2209912192 -7.00000000
5.19035006 6.61711979 -0.73576880 8 10 3811 8.44200000 2209912196 2209912196 -5.00000000
6.25706339 7.96846581 2.33904099 53 13 3814 10.39800000 2209912203 2209912203 13.00000000
5.43569994 6.91996002 2.35784149 45 15 3815 9.11000000 2209912208 2209912208 15.00000000
1.41423869 1.79524183 -0.61236584 4 0 3823 2.36600000 2209912228 2209912228 -15.00000000
1.68058932 2.13181734 -0.62671363 3 2 3825 2.78600000 2209912233 2209912233 -13.00000000
2.03387952 2.57903790 -0.63844693 4 4 3826 3.34600000 2209912238 2209912238 -11.00000000
2.56376839 3.24862480 -0.65546042 4 6 3828 4.19000000 2209912242 2209912242 -9.00000000
3.46949840 4.39314699 -0.68734312 6 8 3830 5.64000000 2209912247 2209912247 -7.00000000
5.21835709 6.60521555 -0.73646605 8 10 3831 8.45000000 2209912251 2209912251 -5.00000000
6.28967571 7.95269012 2.34084058 64 13 3834 10.40600000 2209912258 2209912258 13.00000000
5.46342421 6.90302038 2.35887671 45 15 3836 9.11400000 2209912263 2209912263 15.00000000
1.42498612 1.79659641 -0.61443639 4 0 3842 2.37400000 2209912284 2209912284 -15.00000000
1.69007254 2.12928534 -0.62761343 3 2 3844 2.79000000 2209912288 2209912288 -13.00000000
2.03997898 2.56920409 -0.63768369 4 4 3845 3.34200000 2209912293 2209912293 -11.00000000
2.57698488 3.24319839 -0.65608615 4 6 3847 4.19400000 2209912298 2209912298 -9.00000000
3.47910571 4.37540245 -0.68636817 6 8 3849 5.63200000 2209912302 2209912302 -7.00000000
5.24271250 6.59099293 -0.73681468 8 10 3850 8.45400000 2209912307 2209912307 -5.00000000
6.31601334 7.93178892 2.34084058 62 13 3853 10.40600000 2209912314 2209912314 13.00000000
5.48749113 6.88884449 2.35991216 45 15 3854 9.11800000 2209912318 2209912318 15.00000000
1.42160261 1.77953637 -0.61029530 3 0 3862 2.35800000 2209912339 2209912339 -15.00000000
1.69749475 2.12337303 -0.62761343 3 2 3864 2.79000000 2209912344 2209912344 -13.00000000
2.04280400 2.55440116 -0.63577557 4 4 3865 3.33200000 2209912348 2209912348 -11.00000000
2.59816432 3.24652147 -0.65858912 4 6 3867 4.21000000 2209912353 2209912353 -9.00000000
3.49435735 4.36323166 -0.68636817 6 8 3869 5.63200000 2209912357 2209912357 -7.00000000
5.25821304 6.56332254 -0.73576880 8 10 3870 8.44200000 2209912362 2209912362 -5.00000000
6.34610033 7.91273403 2.34174037 60 13 3873 10.41000000 2209912369 2209912369 13.00000000
5.51149368 6.86717892 2.35939431 45 15 3875 9.11600000 2209912374 2209912374 15.00000000
1.42417252 1.77004778 -0.60874242 4 0 3882 2.35200000 2209912394 2209912394 -15.00000000
1.70734072 2.12047052 -0.62851322 3 2 3884 2.79400000 2209912399 2209912399 -13.00000000
2.05170798 2.54725504 -0.63577557 4 4 3885 3.33200000 2209912404 2209912404 -11.00000000
2.59708452 3.22205281 -0.65546042 4 6 3887 4.19000000 2209912408 2209912408 -9.00000000
3.51205921 4.35409737 -0.68685561 6 8 3889 5.63600000 2209912413 2209912413 -7.00000000
5.28609562 6.55113029 -0.73646605 8 10 3890 8.45000000 2209912417 2209912417 -5.00000000
6.37858057 7.89659739 2.34354019 59 13 3893 10.41800000 2209912424 2209912424 13.00000000
5.52937937 6.84285402 2.35732388 42 15 3894 9.10800000 2209912429 2209912429 15.00000000
1.44007266 1.77707303 -0.61288351 4 0 3902 2.36800000 2209912450 2209912450 -15.00000000
1.70982242 2.10844326 -0.62671363 3 2 3904 2.78600000 2209912454 2209912454 -13.00000000
2.05316591 2.53092957 -0.63348585 4 4 3905 3.32000000 2209912459 2209912459 -11.00000000
2.62076592 3.22830391 -0.65858912 4 6 3907 4.21000000 2209912463 2209912463 -9.00000000
3.52973986 4.34489298 -0.68734312 6 8 3909 5.64000000 2209912468 2209912468 -7.00000000
5.31144428 6.53573084 -0.73681468 8 10 3910 8.45400000 2209912473 2209912473 -5.00000000
6.40610600 7.87428427 2.34354019 59 13 3913 10.41800000 2209912480 2209912480 13.00000000
5.55567026 6.82650805 2.35835910 45 15 3914 9.11200000 2209912484 2209912484 15.00000000
1.44626713 1.77203536 -0.61288351 4 0 3922 2.36800000 2209912505 2209912505 -15.00000000
1.71963727 2.10548067 -0.62761343 3 2 3924 2.79000000 2209912510 2209912510 -13.00000000
2.63076854 3.21760678 -0.65827620 2 6 3927 4.20800000 2209912519 2209912519 -9.00000000
3.54237080 4.32947302 -0.68685561 6 8 3929 5.63600000 2209912523 2209912523 -7.00000000
5.34179783 6.52640152 -0.73786050 8 10 3930 8.46600000 2209912528 2209912528 -5.00000000
5.64788198 6.89790678 1.73292732 31 11 3931 9.08200000 2209912530 2209912530 11.00000000
5.65545034 6.90223360 2.06010175 31 13 3933 9.15800000 2209912535 2209912535 13.00000000
5.58436394 6.81304979 2.36042976 47 15 3934 9.12000000 2209912539 2209912539 15.00000000
1.45489728 1.76996088 -0.61391878 4 0 3942 2.37200000 2209912560 2209912560 -15.00000000
1.72450030 2.09645534 -0.62671363 3 2 3944 2.78600000 2209912565 2209912565 -13.00000000
2.64575100 3.21297884 -0.65921485 4 6 3947 4.21400000 2209912574 2209912574 -9.00000000
3.55241227 4.31095362 -0.68588066 6 8 3949 5.62800000 2209912579 2209912579 -7.00000000
5.36074448 6.50310326 -0.73733759 8 10 3950 8.46000000 2209912583 2209912583 -5.00000000
5.60437727 6.78657818 2.35835910 38 15 3955 9.11200000 2209912595 2209912595 15.00000000
1.46075869 1.76512659 -0.61391878 4 0 3961 2.37200000 2209912616 2209912616 -15.00000000
1.73641479 2.09672856 -0.62851322 3 2 3963 2.79400000 2209912620 2209912620 -13.00000000
2.08162379 2.51267719 -0.63424909 2 4 3964 3.32400000 2209912625 2209912625 -11.00000000
2.65639114 3.20418763 -0.65921485 4 6 3966 4.21400000 2209912629 2209912629 -9.00000000
3.56161833 4.29303837 -0.68490571 6 8 3968 5.62000000 2209912634 2209912634 -7.00000000
5.36192179 6.46076012 -0.73454863 8 10 3969 8.42800000 2209912639 2209912639 -5.00000000
5.60467911 6.74368048 2.34955931 24 15 3973 9.07800000 2209912650 2209912650 15.00000000
1.45701635 1.74814487 -0.60977769 4 0 3981 2.35600000 2209912671 2209912671 -15.00000000
1.74372315 2.09065461 -0.62851322 3 2 3983 2.79400000 2209912675 2209912675 -13.00000000
2.09289742 2.50841045 -0.63501233 2 4 3984 3.32800000 2209912680 2209912680 -11.00000000
2.66502762 3.19186282 -0.65858912 4 6 3986 4.21000000 2209912685 2209912685 -9.00000000
3.58421898 4.28972006 -0.68636817 6 8 3988 5.63200000 2209912689 2209912689 -7.00000000
5.38827467 6.44658995 -0.73507154 4 10 3989 8.43400000 2209912694 2209912694 -5.00000000
6.49780798 7.76578093 2.33769131 55 13 3992 10.39200000 2209912701 2209912701 13.00000000
5.60958529 6.70185471 2.34179473 15 15 3993 9.04800000 2209912705 2209912705 15.00000000
1.46838295 1.74871075 -0.61184824 4 0 4002 2.36400000 2209912726 2209912726 -15.00000000
1.74886668 2.08126569 -0.62761343 3 2 4004 2.79000000 2209912731 2209912731 -13.00000000
2.12481594 2.52777386 -0.64188147 4 4 4005 3.36400000 2209912735 2209912735 -11.00000000
2.67162204 3.17602682 -0.65733761 6 6 4007 4.20200000 2209912740 2209912740 -9.00000000
3.59736085 4.27351713 -0.68588066 6 8 4009 5.62800000 2209912744 2209912744 -7.00000000
5.43496656 6.45423031 -0.73820913 4 10 4010 8.47000000 2209912749 2209912749 -5.00000000
6.54255533 7.76128292 2.34354019 59 13 4013 10.41800000 2209912756 2209912756 13.00000000
5.63784742 6.68567991 2.34334755 13 15 4014 9.05400000 2209912761 2209912761 15.00000000
1.47572565 1.74504948 -0.61236584 4 0 4022 2.36600000 2209912781 2209912781 -15.00000000
1.75360334 2.07217312 -0.62671363 3 2 4024 2.78600000 2209912786 2209912786 -13.00000000
2.12347865 2.50835419 -0.63882852 4 4 4025 3.34800000 2209912791 2209912791 -11.00000000
2.68013835 3.16366744 -0.65671188 6 6 4027 4.19800000 2209912795 2209912795 -9.00000000
3.60712147 4.25487709 -0.68490571 6 8 4029 5.62000000 2209912800 2209912800 -7.00000000
5.47034931 6.45041466 -0.73995227 4 10 4030 8.49000000 2209912804 2209912804 -5.00000000
5.63757849 6.64055252 2.01106238 19 13 4033 8.94000000 2209912811 2209912811 13.00000000
5.63729763 6.63552570 2.33299494 29 15 4035 9.01400000 2209912816 2209912816 15.00000000
1.48932350 1.74871206 -0.61547166 4 0 4042 2.37800000 2209912837 2209912837 -15.00000000
1.75576961 2.06010675 -0.62491405 3 2 4044 2.77800000 2209912841 2209912841 -13.00000000
2.12457895 2.49196267 -0.63653880 4 4 4045 3.33600000 2209912846 2209912846 -11.00000000
2.69885802 3.16330934 -0.65858912 6 6 4047 4.21000000 2209912850 2209912850 -9.00000000
3.62968564 4.25131798 -0.68636817 6 8 4049 5.63200000 2209912855 2209912855 -7.00000000
5.49671412 6.43582535 -0.74047518 4 10 4050 8.49600000 2209912860 2209912860 -5.00000000
5.65185928 6.61046505 2.00791311 7 13 4053 8.92600000 2209912867 2209912867 13.00000000
5.69066238 6.65349817 2.34593582 13 15 4054 9.06400000 2209912871 2209912871 15.00000000
1.48787236 1.73470461 -0.61236584 4 0 4062 2.36600000 2209912892 2209912892 -15.00000000
1.77056539 2.06283784 -0.62761343 3 2 4064 2.79000000 2209912896 2209912896 -13.00000000
2.13582253 2.48751044 -0.63730204 2 4 4065 3.34000000 2209912901 2209912901 -11.00000000
2.70988369 3.15386915 -0.65858912 4 6 4067 4.21000000 2209912906 2209912906 -9.00000000
3.64450336 4.23862219 -0.68636817 6 8 4069 5.63200000 2209912910 2209912910 -7.00000000
5.50745249 6.40300465 -0.73890638 4 10 4070 8.47800000 2209912915 2209912915 -5.00000000
5.75167656 6.67750549 2.36146498 33 15 4074 9.12400000 2209912926 2209912926 15.00000000
1.48574078 1.72124732 -0.60926002 4 0 4080 2.35400000 2209912947 2209912947 -15.00000000
1.77958500 2.06021476 -0.62851322 3 2 4082 2.79400000 2209912952 2209912952 -13.00000000
2.15132833 2.48970127 -0.63959175 2 4 4083 3.35200000 2209912956 2209912956 -11.00000000
2.71719432 3.14235187 -0.65796334 6 6 4085 4.20600000 2209912961 2209912961 -9.00000000
3.66559505 4.23615837 -0.68783057 6 8 4087 5.64400000 2209912966 2209912966 -7.00000000
5.52754116 6.38567066 -0.73890638 4 10 4088 8.47800000 2209912970 2209912970 -5.00000000
6.63739538 7.65971708 2.33994079 53 13 4091 10.40200000 2209912977 2209912977 13.00000000
5.77631950 6.66131449 2.36250019 47 15 4093 9.12800000 2209912982 2209912982 15.00000000
1.49680972 1.72188258 -0.61133057 4 0 4100 2.36200000 2209913002 2209913002 -15.00000000
1.78292859 2.04957938 -0.62716353 3 2 4102 2.78800000 2209913007 2209913007 -13.00000000
2.16258359 2.48513865 -0.64035499 2 4 4103 3.35600000 2209913012 2209913012 -11.00000000
2.72295761 3.12688899 -0.65671188 6 6 4105 4.19800000 2209913016 2209913016 -9.00000000
3.67514300 4.21735096 -0.68685561 6 8 4107 5.63600000 2209913021 2209913021 -7.00000000
5.55110693 6.36783886 -0.73908073 4 10 4108 8.48000000 2209913026 2209913026 -5.00000000
6.67946815 7.65412092 2.34533978 59 13 4111 10.42600000 2209913032 2209913032 13.00000000
5.80334854 6.64547634 2.36405325 45 15 4113 9.13400000 2209913037 2209913037 15.00000000
1.50311065 1.71638489 -0.61133057 4 0 4121 2.36200000 2209913058 2209913058 -15.00000000
1.78914428 2.04156518 -0.62671363 3 2 4123 2.78600000 2209913062 2209913062 -13.00000000
2.16650081 2.47129059 -0.63882852 4 4 4124 3.34800000 2209913067 2209913067 -11.00000000
2.73700523 3.11985779 -0.65733761 4 6 4126 4.20200000 2209913072 2209913072 -9.00000000
3.68533707 4.19788551 -0.68588066 6 8 4128 5.62800000 2209913076 2209913076 -7.00000000
5.56783533 6.33996534 -0.73820913 8 10 4129 8.47000000 2209913081 2209913081 -5.00000000
6.70490360 7.62666082 2.34443998 59 13 4132 10.42200000 2209913088 2209913088 13.00000000
5.82511425 6.62126017 2.36301780 45 15 4134 9.13000000 2209913092 2209913092 15.00000000
1.51420403 1.71692312 -0.61340111 4 0 4141 2.37000000 2209913113 2209913113 -15.00000000
1.79625976 2.03530741 -0.62671363 3 2 4143 2.78600000 2209913118 2209913118 -13.00000000
2.75311065 3.11620641 -0.65858912 6 6 4146 4.21000000 2209913127 2209913127 -9.00000000
3.69733834 4.18202114 -0.68539321 6 8 4148 5.62400000 2209913132 2209913132 -7.00000000
5.59521151 6.32646084 -0.73890638 13 10 4149 8.47800000 2209913136 2209913136 -5.00000000
6.72631741 7.59737349 2.34264016 64 13 4152 10.41400000 2209913143 2209913143 13.00000000
5.85331583 6.60667038 2.36508846 45 15 4154 9.13800000 2209913148 2209913148 15.00000000
1.52018797 1.71162713 -0.61340111 4 0 4161 2.37000000 2209913168 2209913168 -15.00000000
1.81112087 2.03776455 -0.62941307 3 2 4163 2.79800000 2209913173 2209913173 -13.00000000
2.76397133 3.10657740 -0.65858912 6 6 4166 4.21000000 2209913182 2209913182 -9.00000000
3.70927358 4.16612434 -0.68490571 6 8 4168 5.62000000 2209913187 2209913187 -7.00000000
5.61063528 6.29945230 -0.73803484 8 10 4169 8.46800000 2209913191 2209913191 -5.00000000
5.62370682 6.31191015 1.64324713 6 11 4170 8.61200000 2209913194 2209913194 11.00000000
6.75798368 7.57966614 2.34443998 60 13 4172 10.42200000 2209913198 2209913198 13.00000000
5.86490536 6.57568979 2.36094737 47 15 4173 9.12200000 2209913203 2209913203 15.00000000
1.51456237 1.69335091 -0.60874242 3 0 4181 2.35200000 2209913224 2209913224 -15.00000000
1.81822300 2.03143001 -0.62941307 3 2 4183 2.79800000 2209913228 2209913228 -13.00000000
2.76688933 3.08808303 -0.65671188 6 6 4186 4.19800000 2209913237 2209913237 -9.00000000
3.72644401 4.15610743 -0.68539321 6 8 4188 5.62400000 2209913242 2209913242 -7.00000000
5.62460852 6.27092981 -0.73698896 8 10 4189 8.45600000 2209913247 2209913247 -5.00000000
5.62866020 6.27324438 1.63828599 15 11 4190 8.58600000 2209913249 2209913249 11.00000000
6.78700447 7.55893040 2.34533978 59 13 4192 10.42600000 2209913254 2209913254 13.00000000
5.89413166 6.55989790 2.36301780 45 15 4194 9.13000000 2209913258 2209913258 15.00000000
1.52921808 1.69836867 -0.61236584 4 0 4200 2.36600000 2209913279 2209913279 -15.00000000
1.82234049 2.02249408 -0.62851322 3 2 4202 2.79400000 2209913284 2209913284 -13.00000000
2.76388383 3.06422234 -0.65358317 6 6 4205 4.17800000 2209913293 2209913293 -9.00000000
3.74020553 4.14372730 -0.68539321 6 8 4207 5.62400000 2209913297 2209913297 -7.00000000
5.65738964 6.26555252 -0.73855776 8 10 4208 8.47400000 2209913302 2209913302 -5.00000000
5.62969303 6.23269081 1.63256180 31 11 4209 8.55600000 2209913304 2209913304 11.00000000
6.81464720 7.53927374 2.34623957 59 13 4211 10.43000000 2209913309 2209913309 13.00000000
5.91471100 6.54134846 2.36301780 45 15 4212 9.13000000 2209913314 2209913314 15.00000000
1.53513718 1.69302034 -0.61236584 4 0 4220 2.36600000 2209913334 2209913334 -15.00000000
1.81891310 2.00457501 -0.62491405 3 2 4222 2.77800000 2209913339 2209913339 -13.00000000
2.21151495 2.43639636 -0.63959175 2 4 4223 3.35200000 2209913343 2209913343 -11.00000000
2.78253222 3.06332922 -0.65546042 6 6 4225 4.19000000 2209913348 2209913348 -9.00000000
3.75197673 4.12770844 -0.68490571 6 8 4227 5.62000000 2209913353 2209913353 -7.00000000
5.68994904 6.25755930 -0.73995227 8 10 4228 8.49000000 2209913357 2209913357 -5.00000000
5.64216757 6.20283556 1.62989044 25 11 4229 8.54200000 2209913360 2209913360 11.00000000
6.83567524 7.50967550 2.34443998 59 13 4231 10.42200000 2209913364 2209913364 13.00000000
5.94124842 6.52248240 2.36405325 45 15 4233 9.13400000 2209913369 2209913369 15.00000000
1.54914951 1.69594061 -0.61547166 4 0 4241 2.37800000 2209913390 2209913390 -15.00000000
1.82887769 2.00077176 -0.62581384 3 2 4243 2.78200000 2209913394 2209913394 -13.00000000
2.20983124 2.41668367 -0.63653880 2 4 4244 3.33600000 2209913399 2209913399 -11.00000000
2.79640841 3.05602479 -0.65608615 6 6 4246 4.19400000 2209913403 2209913403 -9.00000000
3.76976156 4.11685705 -0.68539321 6 8 4248 5.62400000 2209913408 2209913408 -7.00000000
5.70746279 6.23078585 -0.73925501 8 10 4249 8.48200000 2209913413 2209913413 -5.00000000
6.85788536 7.47882605 2.34264016 59 13 4252 10.41400000 2209913420 2209913420 13.00000000
5.96659136 6.50455141 2.36508846 45 15 4253 9.13800000 2209913424 2209913424 15.00000000
1.53936553 1.67346108 -0.60926002 4 0 4261 2.35400000 2209913445 2209913445 -15.00000000
1.84112978 2.00011063 -0.62761343 3 2 4263 2.79000000 2209913449 2209913449 -13.00000000
2.21825361 2.40895510 -0.63653880 4 4 4264 3.33600000 2209913454 2209913454 -11.00000000
2.82312202 3.06367683 -0.65984058 6 6 4266 4.21800000 2209913459 2209913459 -9.00000000
3.78949189 4.10951042 -0.68636817 6 8 4268 5.63200000 2209913463 2209913463 -7.00000000
5.73458147 6.21668291 -0.73995227 8 10 4269 8.49000000 2209913468 2209913468 -5.00000000
6.88394976 7.45484209 2.34264016 59 13 4272 10.41400000 2209913475 2209913475 13.00000000
5.99301386 6.48547649 2.36612368 47 15 4274 9.14200000 2209913479 2209913479 15.00000000
1.55015671 1.67401707 -0.61133057 4 0 4280 2.36200000 2209913500 2209913500 -15.00000000
1.85040128 1.99685299 -0.62851322 3 2 4282 2.79400000 2209913505 2209913505 -13.00000000
2.23690724 2.41310430 -0.63959175 2 4 4283 3.35200000 2209913509 2209913509 -11.00000000
2.82386208 3.04416060 -0.65765047 6 6 4285 4.20400000 2209913514 2209913514 -9.00000000
3.80579972 4.09983110 -0.68685561 6 8 4287 5.63600000 2209913519 2209913519 -7.00000000
5.76058817 6.20347214 -0.74064952 8 10 4288 8.49800000 2209913523 2209913523 -5.00000000
6.91394043 7.43768215 2.34443998 57 13 4291 10.42200000 2209913530 2209913530 13.00000000
6.00283480 6.45529938 2.36198258 45 15 4292 9.12600000 2209913535 2209913535 15.00000000
1.55072069 1.66294432 -0.60926002 4 0 4300 2.35400000 2209913555 2209913555 -15.00000000
1.85736036 1.99038172 -0.62851322 3 2 4302 2.79400000 2209913560 2209913560 -13.00000000
2.24531698 2.40528131 -0.63959175 2 4 4303 3.35200000 2209913565 2209913565 -11.00000000
2.83986497 3.04005909 -0.65890199 6 6 4305 4.21200000 2209913569 2209913569 -9.00000000
3.82551003 4.09232187 -0.68783057 6 8 4307 5.64400000 2209913574 2209913574 -7.00000000
5.77676392 6.17750502 -0.73995227 8 10 4308 8.49000000 2209913578 2209913578 -5.00000000
6.94518757 7.41919327 2.34623957 57 13 4311 10.43000000 2209913585 2209913585 13.00000000
6.03305769 6.44030380 2.36457086 47 15 4313 9.13600000 2209913590 2209913590 15.00000000
1.56151545 1.66342676 -0.61133057 4 0 4319 2.36200000 2209913611 2209913611 -15.00000000
1.85594499 1.97568953 -0.62581384 3 2 4321 2.78200000 2209913615 2209913615 -13.00000000
2.25596952 2.40068388 -0.64035499 4 4 4322 3.35600000 2209913620 2209913620 -11.00000000
2.84181094 3.02199078 -0.65702474 6 6 4324 4.20000000 2209913625 2209913625 -9.00000000
3.83089709 4.07093954 -0.68636817 6 8 4326 5.63200000 2209913629 2209913629 -7.00000000
5.78082943 6.14090633 -0.73786050 8 10 4327 8.46600000 2209913634 2209913634 -5.00000000
