# .PCD v0.7 - Point Cloud Data file format
VERSION 0.7
FIELDS x y z intensity laser_id azimuth distance_m adjustedtime timestamp vertical_angle
SIZE 4 4 4 1 1 2 8 8 4 8
TYPE F F F U U U F U U F
COUNT 1 1 1 1 1 1 1 1 1 1
WIDTH 526
HEIGHT 1
VIEWPOINT 0 0 0 1 0 0 0
POINTS 526
DATA ascii
-3.11306810 0.71527547 -0.50590909 3 6 28294 3.23400000 2210680249 2210680249 -9.00000000
-3.93482542 0.90553308 -0.49576449 4 8 28296 4.06800000 2210680254 2210680254 -7.00000000
-5.22861814 1.20423841 -0.46942082 10 10 28297 5.38600000 2210680258 2210680258 -5.00000000
-4.12194109 0.95086735 -0.22169511 8 12 28299 4.23600000 2210680263 2210680263 -3.00000000
-4.04870224 0.93546087 -0.07253220 100 14 28301 4.15600000 2210680268 2210680268 -1.00000000
-9.83670425 2.27279043 2.70517659 45 15 28301 10.45200000 2210680270 2210680270 15.00000000
-1.92304981 0.44715393 -0.52902615 4 0 28309 2.04400000 2210680291 2210680291 -15.00000000
-4.09591913 0.95315021 0.07340482 21 1 28310 4.20600000 2210680293 2210680293 1.00000000
-4.05212116 0.94370365 -0.96054101 15 2 28311 4.27000000 2210680295 2210680295 -13.00000000
-4.16273499 0.96946472 0.22399789 10 3 28311 4.28000000 2210680298 2210680298 3.00000000
-2.59841776 0.60562694 -0.51861882 3 4 28312 2.71800000 2210680300 2210680300 -11.00000000
-4.83911467 1.12876856 0.43473285 9 5 28313 4.98800000 2210680302 2210680302 5.00000000
-3.11055231 0.72613776 -0.50590909 3 6 28314 3.23400000 2210680304 2210680304 -9.00000000
-3.93743944 0.92061847 -0.49649569 4 8 28316 4.07400000 2210680309 2210680309 -7.00000000
-5.23020267 1.22384417 -0.46994376 10 10 28317 5.39200000 2210680314 2210680314 -5.00000000
-4.09331751 0.95932525 -0.22033438 8 12 28319 4.21000000 2210680318 2210680318 -3.00000000
-4.04930544 0.95050168 -0.07260201 100 14 28321 4.16000000 2210680323 2210680323 -1.00000000
-9.83959198 2.31147933 2.70828247 42 15 28322 10.46400000 2210680325 2210680325 15.00000000
-1.93079817 0.45642135 -0.53161430 4 0 28330 2.05400000 2210680346 2210680346 -15.00000000
-4.09239817 0.96815610 0.07340482 19 1 28331 4.20600000 2210680348 2210680348 1.00000000
-4.04484224 0.95765114 -0.95964122 15 2 28332 4.26600000 2210680351 2210680351 -13.00000000
-4.15509510 0.98452032 0.22378854 12 3 28333 4.27600000 2210680353 2210680353 3.00000000
-2.60000134 0.61605185 -0.51938206 3 4 28333 2.72200000 2210680355 2210680355 -11.00000000
-4.85045433 1.15017486 0.43612733 9 5 28334 5.00400000 2210680357 2210680357 5.00000000
-3.09633803 0.73479694 -0.50403184 3 6 28335 3.22200000 2210680360 2210680360 -9.00000000
-7.06495380 1.67789805 0.89159614 2 7 28336 7.31600000 2210680362 2210680362 7.00000000
-3.90893197 0.92907637 -0.49332711 4 8 28337 4.04800000 2210680364 2210680364 -7.00000000
-5.23343515 1.24484980 -0.47064102 10 10 28338 5.40000000 2210680369 2210680369 -5.00000000
-4.10143137 0.97709870 -0.22096241 18 12 28340 4.22200000 2210680374 2210680374 -3.00000000
-4.03801441 0.96348035 -0.07246239 100 14 28342 4.15200000 2210680378 2210680378 -1.00000000
-9.84273815 2.34850192 2.71138835 42 15 28342 10.47600000 2210680381 2210680381 15.00000000
-1.91980088 0.46090341 -0.52902615 4 0 28350 2.04400000 2210680401 2210680401 -15.00000000
-4.09288216 0.98336965 0.07347463 17 1 28351 4.21000000 2210680404 2210680404 1.00000000
-4.04526424 0.97267562 -0.96054101 15 2 28352 4.27000000 2210680406 2210680406 -13.00000000
-4.15163326 0.99901831 0.22378854 10 3 28353 4.27600000 2210680408 2210680408 3.00000000
-2.58256483 0.62144929 -0.51632917 3 4 28353 2.70600000 2210680410 2210680410 -11.00000000
-4.84253597 1.16616619 0.43577871 9 5 28354 5.00000000 2210680413 2210680413 5.00000000
-3.12832141 0.75393146 -0.50966346 3 6 28355 3.25800000 2210680415 2210680415 -9.00000000
-3.92110252 0.94644159 -0.49527702 4 8 28357 4.06400000 2210680420 2210680420 -7.00000000
-5.22131157 1.26123905 -0.46994376 10 10 28358 5.39200000 2210680424 2210680424 -5.00000000
-4.09605408 0.99093980 -0.22085774 16 12 28360 4.22000000 2210680429 2210680429 -3.00000000
-4.02685261 0.97568619 -0.07232277 100 14 28362 4.14400000 2210680434 2210680434 -1.00000000
-9.83030891 2.38365126 2.71035314 42 15 28363 10.47200000 2210680436 2210680436 15.00000000
-1.91434503 0.46702102 -0.52799088 4 0 28371 2.04000000 2210680457 2210680457 -15.00000000
-4.08342266 0.99694139 0.07336992 21 1 28372 4.20400000 2210680459 2210680459 1.00000000
-4.04924440 0.98934579 -0.96234059 16 2 28373 4.27800000 2210680461 2210680461 -13.00000000
-4.16346455 1.01802313 0.22462593 10 3 28374 4.29200000 2210680463 2210680463 3.00000000
-2.58789802 0.63277590 -0.51785558 3 4 28374 2.71400000 2210680466 2210680466 -11.00000000
-4.82855272 1.18153930 0.43490717 9 5 28375 4.99000000 2210680468 2210680468 5.00000000
-3.12553716 0.76539224 -0.50966346 3 6 28376 3.25800000 2210680470 2210680470 -9.00000000
-3.90411162 0.95749688 -0.49357083 4 8 28378 4.05000000 2210680475 2210680475 -7.00000000
-5.21858883 1.28084254 -0.47011808 10 10 28379 5.39400000 2210680480 2210680480 -5.00000000
-4.10015297 1.00785291 -0.22127642 14 12 28381 4.22800000 2210680484 2210680484 -3.00000000
-11.22527790 2.76134777 2.66881943 57 13 28382 11.86400000 2210680487 2210680487 13.00000000
-4.02713299 0.99139482 -0.07239258 100 14 28383 4.14800000 2210680489 2210680489 -1.00000000
-9.81067371 2.41517997 2.70724726 45 15 28383 10.46000000 2210680491 2210680491 15.00000000
-1.92582965 0.47695136 -0.53161430 4 0 28391 2.05400000 2210680512 2210680512 -15.00000000
-4.07215405 1.00926483 0.07323030 21 1 28392 4.19600000 2210680514 2210680514 1.00000000
-4.04387474 1.00300515 -0.96189070 15 2 28393 4.27600000 2210680516 2210680516 -13.00000000
-4.15600872 1.03158784 0.22441658 10 3 28394 4.28800000 2210680519 2210680519 3.00000000
-2.60472775 0.64653510 -0.52167177 3 4 28394 2.73400000 2210680521 2210680521 -11.00000000
-4.83793449 1.20174909 0.43612733 9 5 28395 5.00400000 2210680523 2210680523 5.00000000
-3.10367584 0.77153224 -0.50653481 4 6 28396 3.23800000 2210680526 2210680526 -9.00000000
-3.92000842 0.97591460 -0.49600822 4 8 28398 4.07000000 2210680530 2210680530 -7.00000000
-5.21988583 1.30049610 -0.47064102 10 10 28399 5.40000000 2210680535 2210680535 -5.00000000
-4.10629892 1.02457654 -0.22179978 6 12 28401 4.23800000 2210680539 2210680539 -3.00000000
-11.05486202 2.76038575 2.63057756 57 13 28402 11.69400000 2210680542 2210680542 13.00000000
-4.02752781 1.00641572 -0.07246239 100 14 28403 4.15200000 2210680544 2210680544 -1.00000000
-9.81487465 2.45440245 2.71087074 42 15 28404 10.47400000 2210680546 2210680546 15.00000000
-1.92619538 0.48346949 -0.53213197 4 0 28409 2.05600000 2210680567 2210680567 -15.00000000
-4.07090282 1.02254009 0.07326520 21 1 28410 4.19800000 2210680569 2210680569 1.00000000
-4.03314400 1.01380408 -0.96009111 20 2 28411 4.26800000 2210680572 2210680572 -13.00000000
-4.15274715 1.04463923 0.22441658 10 3 28412 4.28800000 2210680574 2210680574 3.00000000
-2.59506798 0.65279913 -0.52014530 3 4 28412 2.72600000 2210680576 2210680576 -11.00000000
-4.84572744 1.21986032 0.43717322 9 5 28413 5.01600000 2210680579 2210680579 5.00000000
-3.09740567 0.78031379 -0.50590909 3 6 28414 3.23400000 2210680581 2210680581 -9.00000000
-3.91692328 0.98822486 -0.49600822 4 8 28416 4.07000000 2210680586 2210680586 -7.00000000
-5.21384239 1.31640065 -0.47046670 10 10 28417 5.39800000 2210680590 2210680590 -5.00000000
-4.09918737 1.03649259 -0.22159044 6 12 28419 4.23400000 2210680595 2210680595 -3.00000000
-10.86477184 2.74921012 2.58738708 56 13 28420 11.50200000 2210680597 2210680597 13.00000000
-4.03210020 1.02102709 -0.07260201 100 14 28421 4.16000000 2210680599 2210680599 -1.00000000
-9.80942154 2.48398709 2.71138835 45 15 28421 10.47600000 2210680602 2210680602 15.00000000
-1.92262399 0.48971337 -0.53161430 4 0 28429 2.05400000 2210680622 2210680622 -15.00000000
-4.07505941 1.03871965 0.07340482 21 1 28430 4.20600000 2210680625 2210680625 1.00000000
-4.03335714 1.02883959 -0.96099091 13 2 28431 4.27200000 2210680627 2210680627 -13.00000000
-4.14133453 1.05715263 0.22399789 8 3 28432 4.28000000 2210680629 2210680629 3.00000000
-2.58136010 0.65894014 -0.51785558 3 4 28432 2.71400000 2210680632 2210680632 -11.00000000
-4.85109186 1.23923326 0.43804476 9 5 28433 5.02600000 2210680634 2210680634 5.00000000
-3.11380148 0.79601353 -0.50903773 3 6 28434 3.25400000 2210680636 2210680636 -9.00000000
-3.90575743 0.99992210 -0.49503326 4 8 28436 4.06200000 2210680641 2210680641 -7.00000000
-5.22079611 1.33755922 -0.47151256 10 10 28437 5.41000000 2210680645 2210680645 -5.00000000
-4.08587122 1.04831338 -0.22106709 6 12 28439 4.22400000 2210680650 2210680650 -3.00000000
-10.67013264 2.73962450 2.54329658 60 13 28440 11.30600000 2210680652 2210680652 13.00000000
-4.02463818 1.03410017 -0.07253220 100 14 28441 4.15600000 2210680655 2210680655 -1.00000000
-9.81334877 2.52329135 2.71501184 47 15 28442 10.49000000 2210680657 2210680657 15.00000000
-1.91529167 0.49497148 -0.53006142 4 0 28449 2.04800000 2210680678 2210680678 -15.00000000
-4.08302498 1.05594206 0.07361425 22 1 28450 4.21800000 2210680680 2210680680 1.00000000
-4.04860687 1.04779494 -0.96548992 5 2 28451 4.29200000 2210680682 2210680682 -13.00000000
-4.13761950 1.07160211 0.22399789 8 3 28452 4.28000000 2210680685 2210680685 3.00000000
-2.58284521 0.66893119 -0.51861882 3 4 28452 2.71800000 2210680687 2210680687 -11.00000000
-4.84095097 1.25465965 0.43752182 9 5 28453 5.02000000 2210680689 2210680689 5.00000000
-3.11482811 0.80786973 -0.50966346 3 6 28454 3.25800000 2210680692 2210680692 -9.00000000
-3.90416479 1.01404870 -0.49527702 4 8 28456 4.06400000 2210680696 2210680696 -7.00000000
-5.21223879 1.35477257 -0.47116396 10 10 28457 5.40600000 2210680701 2210680701 -5.00000000
-4.10924721 1.06961286 -0.22253248 6 12 28459 4.25200000 2210680705 2210680705 -3.00000000
-10.52095413 2.74050331 2.51000381 59 13 28460 11.15800000 2210680708 2210680708 13.00000000
-4.00939369 1.04511607 -0.07232277 100 14 28461 4.14400000 2210680710 2210680710 -1.00000000
-9.80679607 2.55630708 2.71552944 47 15 28461 10.49200000 2210680712 2210680712 15.00000000
-1.91168356 0.50116420 -0.52954376 4 0 28469 2.04600000 2210680733 2210680733 -15.00000000
-4.07157707 1.06815827 0.07347463 21 1 28470 4.21000000 2210680735 2210680735 1.00000000
-4.05057955 1.06340528 -0.96683961 5 2 28471 4.29800000 2210680738 2210680738 -13.00000000
-4.14158058 1.08806860 0.22441658 8 3 28472 4.28800000 2210680740 2210680740 3.00000000
-2.58049440 0.67794293 -0.51861882 3 4 28472 2.71800000 2210680742 2210680742 -11.00000000
-4.83076096 1.27003026 0.43699890 9 5 28473 5.01400000 2210680745 2210680745 5.00000000
-3.10434771 0.81672716 -0.50841200 3 6 28474 3.25000000 2210680747 2210680747 -9.00000000
-3.91211867 1.03070509 -0.49673945 4 8 28476 4.07600000 2210680751 2210680751 -7.00000000
-5.20362473 1.37194252 -0.47081533 10 10 28477 5.40200000 2210680756 2210680756 -5.00000000
-4.10162640 1.08293056 -0.22232315 6 12 28479 4.24800000 2210680761 2210680761 -3.00000000
-10.37190151 2.74037457 2.47671103 56 13 28480 11.01000000 2210680763 2210680763 13.00000000
-4.01732063 1.06217206 -0.07253220 100 14 28481 4.15600000 2210680765 2210680765 -1.00000000
-9.79549408 2.59173942 2.71501184 47 15 28482 10.49000000 2210680768 2210680768 15.00000000
-1.91356766 0.50916100 -0.53057903 4 0 28490 2.05000000 2210680788 2210680788 -15.00000000
-4.05797291 1.08050156 0.07330011 21 1 28491 4.20000000 2210680791 2210680791 1.00000000
-4.03535652 1.07523382 -0.96414024 5 2 28492 4.28600000 2210680793 2210680793 -13.00000000
-4.15107346 1.10684299 0.22514929 7 3 28493 4.30200000 2210680795 2210680795 3.00000000
-2.58178639 0.68840796 -0.51938206 3 4 28493 2.72200000 2210680798 2210680798 -11.00000000
-4.84339905 1.29235017 0.43856770 9 5 28494 5.03200000 2210680800 2210680800 5.00000000
-3.10896730 0.83013809 -0.50966346 3 6 28495 3.25800000 2210680802 2210680802 -9.00000000
-3.92365646 1.04913902 -0.49868935 8 8 28497 4.09200000 2210680807 2210680807 -7.00000000
-5.20626020 1.39306557 -0.47151256 10 10 28498 5.41000000 2210680811 2210680811 -5.00000000
-4.10148811 1.09899044 -0.22253248 6 12 28500 4.25200000 2210680816 2210680816 -3.00000000
-10.24885368 2.74808931 2.44971704 66 13 28501 10.89000000 2210680818 2210680818 13.00000000
-4.02112627 1.07896209 -0.07267182 100 14 28502 4.16400000 2210680821 2210680821 -1.00000000
-9.79758263 2.62892008 2.71811771 47 15 28502 10.50200000 2210680823 2210680823 15.00000000
-1.91177869 0.51583749 -0.53057903 4 0 28510 2.05000000 2210680844 2210680844 -15.00000000
-4.06189871 1.09674501 0.07343972 19 1 28511 4.20800000 2210680846 2210680846 1.00000000
-4.02969742 1.08880496 -0.96369034 5 2 28512 4.28400000 2210680848 2210680848 -13.00000000
-4.13176012 1.11715567 0.22431190 8 3 28513 4.28600000 2210680851 2210680851 3.00000000
-2.59831953 0.70254016 -0.52319825 3 4 28513 2.74200000 2210680853 2210680853 -11.00000000
-4.84655142 1.31133044 0.43926495 9 5 28514 5.04000000 2210680855 2210680855 5.00000000
-3.10223722 0.83995283 -0.50903773 3 6 28515 3.25400000 2210680857 2210680857 -9.00000000
-3.90655899 1.05919242 -0.49698317 4 8 28517 4.07800000 2210680862 2210680862 -7.00000000
-5.20905733 1.41331720 -0.47220981 10 10 28518 5.41800000 2210680867 2210680867 -5.00000000
-4.07835293 1.10806394 -0.22148576 6 12 28520 4.23200000 2210680871 2210680871 -3.00000000
-10.18654442 2.76953220 2.43711972 59 13 28521 10.83400000 2210680874 2210680874 13.00000000
-4.02119446 1.09404182 -0.07274163 100 14 28522 4.16800000 2210680876 2210680876 -1.00000000
-9.79953098 2.66614699 2.72122335 47 15 28522 10.51400000 2210680878 2210680878 15.00000000
-1.91751146 0.52421206 -0.53264958 4 0 28529 2.05800000 2210680899 2210680899 -15.00000000
-4.05823946 1.11020863 0.07343972 19 1 28530 4.20800000 2210680901 2210680901 1.00000000
-4.02042580 1.10061824 -0.96234059 5 2 28531 4.27800000 2210680904 2210680904 -13.00000000
-4.12995911 1.13137865 0.22441658 8 3 28532 4.28800000 2210680906 2210680906 3.00000000
-2.58840156 0.70907778 -0.52167177 3 4 28532 2.73400000 2210680908 2210680908 -11.00000000
-4.86331272 1.33318913 0.44118237 9 5 28533 5.06200000 2210680910 2210680910 5.00000000
-3.10705471 0.85232592 -0.51028925 3 6 28534 3.26200000 2210680913 2210680913 -9.00000000
-3.90493917 1.07266700 -0.49722692 6 8 28536 4.08000000 2210680917 2210680917 -7.00000000
-5.20818424 1.43163943 -0.47255844 10 10 28537 5.42200000 2210680922 2210680922 -5.00000000
-4.10161495 1.12900281 -0.22295117 6 12 28539 4.26000000 2210680927 2210680927 -3.00000000
-10.16603184 2.80019164 2.43442035 62 13 28540 10.82200000 2210680929 2210680929 13.00000000
-4.01754427 1.10737050 -0.07274163 100 14 28541 4.16800000 2210680931 2210680931 -1.00000000
-9.79808521 2.70068216 2.72329402 47 15 28541 10.52200000 2210680933 2210680933 15.00000000
-1.91380823 0.53038633 -0.53213197 4 0 28549 2.05600000 2210680954 2210680954 -15.00000000
-4.06204700 1.12650537 0.07357935 21 1 28550 4.21600000 2210680957 2210680957 1.00000000
-4.02407074 1.11672997 -0.96414024 5 2 28551 4.28600000 2210680959 2210680959 -13.00000000
-4.12790918 1.14632249 0.22452125 7 3 28552 4.29000000 2210680961 2210680961 3.00000000
-2.59347749 0.72020996 -0.52319825 3 4 28552 2.74200000 2210680963 2210680963 -11.00000000
-4.86438799 1.35175753 0.44170532 9 5 28553 5.06800000 2210680966 2210680966 5.00000000
-3.11547971 0.86634171 -0.51216644 3 6 28554 3.27400000 2210680968 2210680968 -9.00000000
-3.90499592 1.08735633 -0.49771440 6 8 28556 4.08400000 2210680973 2210680973 -7.00000000
-5.19931650 1.44874108 -0.47220981 10 10 28557 5.41800000 2210680977 2210680977 -5.00000000
-4.07263994 1.13633525 -0.22159044 6 12 28559 4.23400000 2210680982 2210680982 -3.00000000
-10.15244198 2.83461261 2.43352056 62 13 28560 10.81800000 2210680984 2210680984 13.00000000
-4.00209904 1.11815906 -0.07253220 100 14 28561 4.15600000 2210680986 2210680986 -1.00000000
-9.75277138 2.72669268 2.71345878 49 15 28562 10.48400000 2210680989 2210680989 15.00000000
-1.91008532 0.53654104 -0.53161430 4 0 28569 2.05400000 2210681010 2210681010 -15.00000000
-4.04846478 1.13797212 0.07340482 17 1 28570 4.20600000 2210681012 2210681012 1.00000000
-4.03327942 1.13446331 -0.96728951 5 2 28571 4.30000000 2210681014 2210681014 -13.00000000
-4.13157272 1.16288912 0.22493994 8 3 28572 4.29800000 2210681016 2210681016 3.00000000
-2.57582903 0.72500318 -0.52014530 3 4 28572 2.72600000 2210681019 2210681019 -11.00000000
-4.85580444 1.36764884 0.44135669 9 5 28573 5.06400000 2210681021 2210681021 5.00000000
-3.12384439 0.88042670 -0.51404363 3 6 28574 3.28600000 2210681023 2210681023 -9.00000000
-3.89353466 1.09882402 -0.49673945 6 8 28576 4.07600000 2210681028 2210681028 -7.00000000
-5.18655825 1.46471536 -0.47151256 10 10 28577 5.41000000 2210681033 2210681033 -5.00000000
-4.09555483 1.15815330 -0.22305584 6 12 28579 4.26200000 2210681037 2210681037 -3.00000000
-10.13498497 2.86791158 2.43172097 64 13 28580 10.81000000 2210681039 2210681039 13.00000000
-4.00201941 1.13321185 -0.07260201 100 14 28581 4.16000000 2210681042 2210681042 -1.00000000
-9.62099648 2.72428131 2.67929482 49 15 28581 10.35200000 2210681044 2210681044 15.00000000
-1.90634274 0.54267633 -0.53109670 4 0 28589 2.05200000 2210681065 2210681065 -15.00000000
-4.04831409 1.15319264 0.07347463 17 1 28590 4.21000000 2210681067 2210681067 1.00000000
-2.20767879 0.62929046 -0.52998471 4 2 28591 2.35600000 2210681069 2210681069 -13.00000000
-4.13133001 1.17839956 0.22514929 7 3 28592 4.30200000 2210681072 2210681072 3.00000000
-2.58083439 0.73614413 -0.52167177 3 4 28592 2.73400000 2210681074 2210681074 -11.00000000
-4.86441183 1.38841832 0.44257686 10 5 28593 5.07800000 2210681076 2210681076 5.00000000
-3.10175800 0.88590062 -0.51091498 3 6 28594 3.26600000 2210681079 2210681079 -9.00000000
-3.90876102 1.11786664 -0.49917683 6 8 28596 4.09600000 2210681083 2210681083 -7.00000000
-5.19673777 1.48719621 -0.47290707 10 10 28597 5.42600000 2210681088 2210681088 -5.00000000
-4.09532738 1.17354274 -0.22326519 6 12 28599 4.26600000 2210681092 2210681092 -3.00000000
-10.12491226 2.90327191 2.43172097 62 13 28600 10.81000000 2210681095 2210681095 13.00000000
-4.01341629 1.15158677 -0.07288125 100 14 28601 4.17600000 2210681097 2210681097 -1.00000000
-9.48701477 2.72214961 2.64461303 47 15 28601 10.21800000 2210681099 2210681099 15.00000000
-1.90805316 0.55073124 -0.53213197 4 0 28610 2.05600000 2210681120 2210681120 -15.00000000
-4.05174494 1.17024219 0.07361425 17 1 28611 4.21800000 2210681122 2210681122 1.00000000
-2.19412470 0.63413137 -0.52728528 4 2 28612 2.34400000 2210681125 2210681125 -13.00000000
-4.12527275 1.19225883 0.22504461 7 3 28612 4.30000000 2210681127 2210681127 3.00000000
-2.59320664 0.74996179 -0.52472472 3 4 28613 2.75000000 2210681129 2210681129 -11.00000000
-4.87460136 1.41066873 0.44397137 10 5 28614 5.09400000 2210681132 2210681132 5.00000000
-3.10228491 0.89836204 -0.51154071 3 6 28615 3.27000000 2210681134 2210681134 -9.00000000
-3.88557196 1.12665713 -0.49673945 6 8 28617 4.07600000 2210681138 2210681138 -7.00000000
-5.19699240 1.50789881 -0.47343001 10 10 28618 5.43200000 2210681143 2210681143 -5.00000000
-4.08332682 1.18631613 -0.22284651 6 12 28620 4.25800000 2210681148 2210681148 -3.00000000
-10.09549046 2.93492198 2.42722178 66 13 28621 10.79000000 2210681150 2210681150 13.00000000
-4.01300907 1.16740608 -0.07295106 100 14 28622 4.18000000 2210681152 2210681152 -1.00000000
-9.33043194 2.71427321 2.60371971 47 15 28622 10.06000000 2210681155 2210681155 15.00000000
-1.90982747 0.55847263 -0.53316724 4 0 28630 2.06000000 2210681175 2210681175 -15.00000000
-4.04763556 1.18437839 0.07361425 17 1 28631 4.21800000 2210681178 2210681178 1.00000000
-2.19937873 0.64397681 -0.52908486 4 2 28632 2.35200000 2210681180 2210681180 -13.00000000
-4.11320829 1.20512450 0.22462593 7 3 28633 4.29200000 2210681182 2210681182 3.00000000
-2.58303690 0.75680119 -0.52319825 3 4 28633 2.74200000 2210681185 2210681185 -11.00000000
-4.88111925 1.43103886 0.44501722 10 5 28634 5.10600000 2210681187 2210681187 5.00000000
-3.11429405 0.91363418 -0.51404363 3 6 28635 3.28600000 2210681189 2210681189 -9.00000000
-3.88542485 1.14133239 -0.49722692 6 8 28637 4.08000000 2210681194 2210681194 -7.00000000
-5.19360876 1.52659237 -0.47360429 10 10 28638 5.43400000 2210681198 2210681198 -5.00000000
-4.08490896 1.20225406 -0.22316052 6 12 28640 4.26400000 2210681203 2210681203 -3.00000000
-10.08144569 2.96904278 2.42632198 66 13 28641 10.78600000 2210681205 2210681205 13.00000000
-3.98780990 1.17518902 -0.07256711 63 14 28642 4.15800000 2210681208 2210681208 -1.00000000
-9.20924282 2.71566820 2.57266140 45 15 28643 9.94000000 2210681210 2210681210 15.00000000
-1.90240788 0.56315774 -0.53161430 4 0 28649 2.05400000 2210681231 2210681231 -15.00000000
-4.04943752 1.19949806 0.07371897 16 1 28650 4.22400000 2210681233 2210681233 1.00000000
-2.20844150 0.65458947 -0.53178430 4 2 28651 2.36400000 2210681235 2210681235 -13.00000000
-4.11514664 1.21974325 0.22493994 7 3 28651 4.29800000 2210681238 2210681238 3.00000000
-2.58427739 0.76647919 -0.52396148 3 4 28652 2.74600000 2210681240 2210681240 -11.00000000
-4.88016701 1.44835114 0.44536585 10 5 28653 5.11000000 2210681242 2210681242 5.00000000
-3.09988546 0.92058241 -0.51216644 3 6 28654 3.27400000 2210681244 2210681244 -9.00000000
-3.88542414 1.15534222 -0.49771440 6 8 28656 4.08400000 2210681249 2210681249 -7.00000000
-5.18278885 1.54210198 -0.47308138 10 10 28657 5.42800000 2210681254 2210681254 -5.00000000
-4.09238434 1.21921504 -0.22378854 6 12 28659 4.27600000 2210681258 2210681258 -3.00000000
-10.06780910 3.00134420 2.42542219 66 13 28660 10.78200000 2210681261 2210681261 13.00000000
-3.98005843 1.18726337 -0.07249729 63 14 28661 4.15400000 2210681263 2210681263 -1.00000000
-9.07293034 2.70648241 2.53694439 45 15 28661 9.80200000 2210681265 2210681265 15.00000000
-1.89302862 0.56757569 -0.52954376 4 0 28669 2.04600000 2210681286 2210681286 -15.00000000
-4.04522610 1.21362591 0.07371897 16 1 28670 4.22400000 2210681288 2210681288 1.00000000
-2.20241022 0.66117376 -0.53088450 4 2 28671 2.36000000 2210681290 2210681290 -13.00000000
-4.12234163 1.23754597 0.22556797 7 3 28671 4.31000000 2210681293 2210681293 3.00000000
-2.59662819 0.78001386 -0.52701443 3 4 28672 2.76200000 2210681295 2210681295 -11.00000000
-4.88271379 1.46767139 0.44606310 10 5 28673 5.11800000 2210681297 2210681297 5.00000000
-3.11178637 0.93594915 -0.51466942 3 6 28674 3.29000000 2210681300 2210681300 -9.00000000
-3.90227604 1.17519462 -0.50039554 6 8 28676 4.10600000 2210681304 2210681304 -7.00000000
-5.18500471 1.56248343 -0.47377861 10 10 28677 5.43600000 2210681309 2210681309 -5.00000000
-4.11487293 1.24156988 -0.22525395 6 12 28679 4.30400000 2210681314 2210681314 -3.00000000
-10.05354023 3.03534269 2.42452240 70 13 28680 10.77800000 2210681316 2210681316 13.00000000
-3.97588992 1.20114911 -0.07249729 64 14 28681 4.15400000 2210681318 2210681318 -1.00000000
-8.93952465 2.70070410 2.50226259 45 15 28681 9.66800000 2210681320 2210681320 15.00000000
-1.90027845 0.57698649 -0.53213197 4 0 28689 2.05600000 2210681341 2210681341 -15.00000000
-4.03522491 1.22599506 0.07361425 15 1 28690 4.21800000 2210681343 2210681343 1.00000000
-2.20008898 0.66885757 -0.53088450 4 2 28691 2.36000000 2210681346 2210681346 -13.00000000
-4.12159967 1.25380933 0.22577731 7 3 28692 4.31400000 2210681348 2210681348 3.00000000
-2.57886338 0.78450203 -0.52396148 3 4 28692 2.74600000 2210681350 2210681350 -11.00000000
-4.88899708 1.48818743 0.44710895 10 5 28693 5.13000000 2210681353 2210681353 5.00000000
-3.09527278 0.94277662 -0.51247931 3 6 28694 3.27600000 2210681355 2210681355 -9.00000000
-3.91523886 1.19402039 -0.50258917 6 8 28696 4.12400000 2210681360 2210681360 -7.00000000
-5.17761374 1.57999146 -0.47360429 10 10 28697 5.43400000 2210681364 2210681364 -5.00000000
-4.11433458 1.25709307 -0.22546330 6 12 28699 4.30800000 2210681369 2210681369 -3.00000000
-10.05033779 3.07269669 2.42632198 64 13 28700 10.78600000 2210681371 2210681371 13.00000000
-3.98123407 1.21794522 -0.07267182 57 14 28701 4.16400000 2210681373 2210681373 -1.00000000
-8.81688404 2.69895768 2.47068667 45 15 28702 9.54600000 2210681376 2210681376 15.00000000
-1.90194595 0.58475161 -0.53316724 4 0 28709 2.06000000 2210681396 2210681396 -15.00000000
-4.03474331 1.24124920 0.07368406 14 1 28710 4.22200000 2210681399 2210681399 1.00000000
-2.19587827 0.67595989 -0.53043461 4 2 28711 2.35800000 2210681401 2210681401 -13.00000000
-4.12314558 1.26923299 0.22609133 7 3 28711 4.32000000 2210681403 2210681403 3.00000000
-2.58736682 0.79696673 -0.52625120 3 4 28712 2.75800000 2210681406 2210681406 -11.00000000
-4.90471649 1.51169944 0.44902638 10 5 28713 5.15200000 2210681408 2210681408 5.00000000
-3.10517645 0.95765054 -0.51466942 3 6 28714 3.29000000 2210681410 2210681410 -9.00000000
-3.88449287 1.19948030 -0.49917683 6 8 28716 4.09600000 2210681415 2210681415 -7.00000000
-5.19110298 1.60393667 -0.47534743 6 10 28717 5.45400000 2210681420 2210681420 -5.00000000
-4.09465694 1.26672494 -0.22462593 6 12 28719 4.29200000 2210681424 2210681424 -3.00000000
-10.02093506 3.10199761 2.42182302 70 13 28720 10.76600000 2210681426 2210681426 13.00000000
-3.98077869 1.23301828 -0.07274163 57 14 28721 4.16800000 2210681429 2210681429 -1.00000000
-8.71514702 2.70112252 2.44480467 40 15 28722 9.44600000 2210681431 2210681431 15.00000000
-1.91096056 0.59483206 -0.53627306 4 0 28729 2.07200000 2210681452 2210681452 -15.00000000
-4.04566002 1.26008272 0.07396330 15 1 28730 4.23800000 2210681454 2210681454 1.00000000
-4.01119375 1.25011575 -0.96998894 5 2 28731 4.31200000 2210681456 2210681456 -13.00000000
-4.11296988 1.28183496 0.22577731 7 3 28731 4.31400000 2210681459 2210681459 3.00000000
-2.58082080 0.80482453 -0.52548796 3 4 28732 2.75400000 2210681461 2210681461 -11.00000000
-4.90511560 1.53059137 0.44954932 10 5 28733 5.15800000 2210681463 2210681463 5.00000000
-3.10370040 0.96907252 -0.51498228 3 6 28734 3.29200000 2210681466 2210681466 -9.00000000
-3.88786101 1.21540165 -0.50015181 6 8 28736 4.10400000 2210681470 2210681470 -7.00000000
-5.20448780 1.62799537 -0.47709054 6 10 28737 5.47400000 2210681475 2210681475 -5.00000000
-4.06543255 1.27325022 -0.22326519 6 12 28739 4.26600000 2210681479 2210681479 -3.00000000
-10.00260735 3.13462734 2.42002344 70 13 28740 10.75800000 2210681482 2210681482 13.00000000
-3.97645044 1.24690628 -0.07274163 57 14 28741 4.16800000 2210681484 2210681484 -1.00000000
-8.60612965 2.70029712 2.41685224 45 15 28742 9.33800000 2210681486 2210681486 15.00000000
-1.90334487 0.59975713 -0.53472012 4 0 28749 2.06600000 2210681507 2210681507 -15.00000000
-4.04886532 1.27660239 0.07410292 16 1 28750 4.24600000 2210681509 2210681509 1.00000000
-2.20039797 0.69420505 -0.53268409 4 2 28751 2.36800000 2210681512 2210681512 -13.00000000
-4.11608887 1.29858780 0.22619601 7 3 28751 4.32200000 2210681514 2210681514 3.00000000
-2.57050705 0.81146431 -0.52396148 3 4 28752 2.74600000 2210681516 2210681516 -11.00000000
-4.90924215 1.55070460 0.45042089 10 5 28753 5.16800000 2210681519 2210681519 5.00000000
-3.11536694 0.98466313 -0.51748520 1 6 28754 3.30800000 2210681521 2210681521 -9.00000000
-3.87980962 1.22776759 -0.49966431 6 8 28756 4.10000000 2210681526 2210681526 -7.00000000
-5.17598009 1.63893521 -0.47499880 6 10 28757 5.45000000 2210681530 2210681530 -5.00000000
-4.10475254 1.30131578 -0.22567265 6 12 28759 4.31200000 2210681535 2210681535 -3.00000000
-9.99160480 3.16952372 2.42002344 64 13 28760 10.75800000 2210681537 2210681537 13.00000000
-3.97207355 1.26077902 -0.07274163 59 14 28761 4.16800000 2210681539 2210681539 -1.00000000
-8.53036785 2.70926952 2.39821720 45 15 28762 9.26600000 2210681542 2210681542 15.00000000
-1.88662076 0.60137194 -0.53057903 4 0 28768 2.05000000 2210681562 2210681562 -15.00000000
-4.03698921 1.28759134 0.07396330 15 1 28769 4.23800000 2210681565 2210681565 1.00000000
-2.20365334 0.70327544 -0.53403378 3 2 28770 2.37400000 2210681567 2210681567 -13.00000000
-4.11366272 1.31283724 0.22630067 7 3 28770 4.32400000 2210681569 2210681569 3.00000000
-2.57154226 0.82117838 -0.52472472 3 4 28771 2.75000000 2210681572 2210681572 -11.00000000
-4.90786886 1.56818855 0.45076951 7 5 28772 5.17200000 2210681574 2210681574 5.00000000
-3.09891367 0.99077767 -0.51529515 3 6 28773 3.29400000 2210681576 2210681576 -9.00000000
-3.88327909 1.24304748 -0.50063926 6 8 28775 4.10800000 2210681581 2210681581 -7.00000000
-5.16292667 1.65365934 -0.47430155 6 10 28776 5.44200000 2210681585 2210681585 -5.00000000
-4.11562967 1.31979954 -0.22651002 6 12 28778 4.32800000 2210681590 2210681590 -3.00000000
-9.97361755 3.20025802 2.41822386 64 13 28779 10.75000000 2210681592 2210681592 13.00000000
-3.97739077 1.27700043 -0.07291616 61 14 28780 4.17800000 2210681595 2210681595 -1.00000000
-8.48502636 2.72424388 2.38786459 45 15 28780 9.22600000 2210681597 2210681597 15.00000000
-1.89554131 0.61151254 -0.53368485 4 0 28788 2.06200000 2210681618 2210681618 -15.00000000
-4.03056717 1.30106091 0.07392839 56 1 28789 4.23600000 2210681620 2210681620 1.00000000
-2.19933057 0.71036440 -0.53358388 4 2 28790 2.37200000 2210681622 2210681622 -13.00000000
-4.12045860 1.33087182 0.22692871 7 3 28790 4.33600000 2210681625 2210681625 3.00000000
-2.58360505 0.83497971 -0.52777767 3 4 28791 2.76600000 2210681627 2210681627 -11.00000000
-4.93459225 1.59573233 0.45373279 7 5 28792 5.20600000 2210681629 2210681629 5.00000000
-3.08228040 0.99733198 -0.51310503 1 6 28793 3.28000000 2210681631 2210681631 -9.00000000
-3.88647032 1.25904214 -0.50161421 6 8 28795 4.11600000 2210681636 2210681636 -7.00000000
-5.19881964 1.68518722 -0.47813639 6 10 28796 5.48600000 2210681641 2210681641 -5.00000000
-4.10719824 1.33292472 -0.22630067 6 12 28798 4.32400000 2210681645 2210681645 -3.00000000
-9.96609211 3.23625684 2.41912365 64 13 28799 10.75400000 2210681648 2210681648 13.00000000
-3.97100711 1.29025841 -0.07288125 57 14 28800 4.17600000 2210681650 2210681650 -1.00000000
-8.45661259 2.74935198 2.38268805 47 15 28801 9.20600000 2210681652 2210681652 15.00000000
-1.89706814 0.61932456 -0.53472012 4 0 28808 2.06600000 2210681673 2210681673 -15.00000000
-4.04500961 1.32133150 0.07427744 63 1 28809 4.25600000 2210681675 2210681675 1.00000000
-2.18942833 0.71561545 -0.53178430 4 2 28810 2.36400000 2210681678 2210681678 -13.00000000
-4.11365461 1.34534431 0.22682403 7 3 28811 4.33400000 2210681680 2210681680 3.00000000
-2.57321072 0.84155202 -0.52625120 3 4 28811 2.75800000 2210681682 2210681682 -11.00000000
-4.93656635 1.61542606 0.45443004 7 5 28812 5.21400000 2210681684 2210681684 5.00000000
-3.10881710 1.01792002 -0.51811093 1 6 28813 3.31200000 2210681687 2210681687 -9.00000000
-3.88959718 1.27507436 -0.50258917 6 8 28815 4.12400000 2210681691 2210681691 -7.00000000
-5.17397404 1.69711447 -0.47639328 3 10 28816 5.46600000 2210681696 2210681696 -5.00000000
-4.07405710 1.33790612 -0.22473060 6 12 28818 4.29400000 2210681701 2210681701 -3.00000000
-9.95103264 3.26980853 2.41822386 68 13 28819 10.75000000 2210681703 2210681703 13.00000000
-3.97787690 1.30785942 -0.07309068 59 14 28820 4.18800000 2210681705 2210681705 -1.00000000
-8.45111942 2.77858663 2.38372350 45 15 28820 9.21000000 2210681708 2210681708 15.00000000
-1.88939166 0.62412494 -0.53316724 4 0 28828 2.06000000 2210681728 2210681728 -15.00000000
-2.18136644 0.72141796 -0.53043461 4 2 28830 2.35800000 2210681733 2210681733 -13.00000000
-4.10324526 1.35781312 0.22651002 7 3 28831 4.32800000 2210681735 2210681735 3.00000000
-2.56652975 0.84929556 -0.52548796 3 4 28831 2.75400000 2210681737 2210681737 -11.00000000
-4.93468046 1.63390064 0.45477867 5 5 28832 5.21800000 2210681740 2210681740 5.00000000
-3.10524487 1.02876568 -0.51811093 3 6 28833 3.31200000 2210681742 2210681742 -9.00000000
-3.86251283 1.28114438 -0.49966431 6 8 28835 4.10000000 2210681747 2210681747 -7.00000000
-5.19449234 1.72395074 -0.47883365 6 10 28836 5.49400000 2210681751 2210681751 -5.00000000
-4.10347843 1.36345494 -0.22661468 6 12 28838 4.33000000 2210681756 2210681756 -3.00000000
-9.92476463 3.29960585 2.41462469 66 13 28839 10.73400000 2210681758 2210681758 13.00000000
-3.97328758 1.32173681 -0.07309068 54 14 28840 4.18800000 2210681761 2210681761 -1.00000000
-8.43354702 2.80710244 2.38165283 47 15 28841 9.20200000 2210681763 2210681763 15.00000000
-1.89441991 0.63349640 -0.53523779 4 0 28849 2.06800000 2210681784 2210681784 -15.00000000
-4.03545094 1.35024297 0.07427744 7 1 28850 4.25600000 2210681786 2210681786 1.00000000
-2.19533896 0.73497623 -0.53448373 4 2 28851 2.37600000 2210681788 2210681788 -13.00000000
-4.11339140 1.37791836 0.22734739 7 3 28852 4.34400000 2210681790 2210681790 3.00000000
-2.56712294 0.85994387 -0.52625120 3 4 28852 2.75800000 2210681793 2210681793 -11.00000000
-4.95699501 1.66147387 0.45739335 2 5 28853 5.24800000 2210681795 2210681795 5.00000000
-3.11269069 1.04390860 -0.51998818 1 6 28854 3.32400000 2210681797 2210681797 -9.00000000
-3.87284589 1.30034745 -0.50161421 6 8 28856 4.11600000 2210681802 2210681802 -7.00000000
-5.17302942 1.73790193 -0.47743917 3 10 28857 5.47800000 2210681807 2210681807 -5.00000000
-4.11359787 1.38357949 -0.22745207 6 12 28859 4.34600000 2210681811 2210681811 -3.00000000
-9.91260433 3.33595967 2.41462469 70 13 28860 10.73400000 2210681814 2210681814 13.00000000
-3.96652126 1.33565259 -0.07305577 61 14 28861 4.18600000 2210681816 2210681816 -1.00000000
-8.41271210 2.83282495 2.37854695 47 15 28861 9.19000000 2210681818 2210681818 15.00000000
-1.88853705 0.63886720 -0.53420252 4 0 28869 2.06400000 2210681839 2210681839 -15.00000000
-4.02313662 1.36175656 0.07413782 7 1 28870 4.24800000 2210681841 2210681841 1.00000000
-2.19091439 0.74200982 -0.53403378 3 2 28871 2.37400000 2210681843 2210681843 -13.00000000
-4.11423159 1.39419138 0.22766142 7 3 28872 4.35000000 2210681846 2210681846 3.00000000
-2.57898068 0.87394029 -0.52930415 3 4 28872 2.77400000 2210681848 2210681848 -11.00000000
-4.96814728 1.68452489 0.45896214 2 5 28873 5.26600000 2210681850 2210681850 5.00000000
-3.08470917 1.04651725 -0.51592088 3 6 28874 3.29800000 2210681853 2210681853 -9.00000000
-3.87956119 1.31768870 -0.50307667 6 8 28876 4.12800000 2210681857 2210681857 -7.00000000
-5.15561295 1.75210202 -0.47639328 6 10 28877 5.46600000 2210681862 2210681862 -5.00000000
-4.12008858 1.40179014 -0.22808009 6 12 28879 4.35800000 2210681866 2210681866 -3.00000000
-9.90458870 3.37179685 2.41552448 62 13 28880 10.73800000 2210681869 2210681869 13.00000000
-3.96751356 1.35142457 -0.07316048 59 14 28881 4.19200000 2210681871 2210681871 -1.00000000
-8.39861488 2.86239362 2.37751174 47 15 28882 9.18600000 2210681873 2210681873 15.00000000
-1.87898433 0.64295375 -0.53213197 4 0 28889 2.05600000 2210681894 2210681894 -15.00000000
-4.03916931 1.38291669 0.07452177 13 1 28890 4.27000000 2210681896 2210681896 1.00000000
-2.19384146 0.75154763 -0.53538352 4 2 28891 2.38000000 2210681899 2210681899 -13.00000000
-4.12067604 1.41242993 0.22828944 7 3 28892 4.36200000 2210681901 2210681901 3.00000000
-2.56848574 0.88039100 -0.52777767 3 4 28892 2.76600000 2210681903 2210681903 -11.00000000
-5.00746775 1.71736920 0.46314561 2 5 28893 5.31400000 2210681906 2210681906 5.00000000
-3.08103752 1.05727863 -0.51592088 3 6 28894 3.29800000 2210681908 2210681908 -9.00000000
-3.87681532 1.33186781 -0.50332040 6 8 28896 4.13000000 2210681913 2210681913 -7.00000000
-5.15511799 1.77203083 -0.47691622 6 10 28897 5.47200000 2210681917 2210681917 -5.00000000
-4.07739878 1.40316510 -0.22598666 4 12 28899 4.31800000 2210681922 2210681922 -3.00000000
-9.89275837 3.40634990 2.41552448 68 13 28900 10.73800000 2210681924 2210681924 13.00000000
-3.97033453 1.36787093 -0.07330011 54 14 28901 4.20000000 2210681926 2210681926 -1.00000000
-8.38177109 2.88771152 2.37544131 47 15 28901 9.17800000 2210681929 2210681929 15.00000000
-1.88768220 0.65329963 -0.53523779 4 0 28909 2.06800000 2210681949 2210681949 -15.00000000
-4.03998613 1.39897060 0.07462649 7 1 28910 4.27600000 2210681952 2210681952 1.00000000
-2.17831540 0.75473511 -0.53223419 3 2 28911 2.36600000 2210681954 2210681954 -13.00000000
-4.11572027 1.42680514 0.22828944 7 3 28912 4.36200000 2210681956 2210681956 3.00000000
-2.58023643 0.89449579 -0.53083062 3 4 28912 2.78200000 2210681959 2210681959 -11.00000000
-5.10685492 1.77140224 0.47290707 2 5 28913 5.42600000 2210681961 2210681961 5.00000000
-3.09225750 1.07320845 -0.51842380 1 6 28914 3.31400000 2210681963 2210681963 -9.00000000
-3.86276698 1.34213471 -0.50210172 6 8 28916 4.12000000 2210681968 2210681968 -7.00000000
-5.14701939 1.78936052 -0.47674191 6 10 28917 5.47000000 2210681972 2210681972 -5.00000000
-4.11020184 1.43051934 -0.22808009 6 12 28919 4.35800000 2210681977 2210681977 -3.00000000
-9.86608505 3.43573427 2.41192532 66 13 28920 10.72200000 2210681979 2210681979 13.00000000
-3.96931219 1.38303757 -0.07336992 54 14 28921 4.20400000 2210681982 2210681982 -1.00000000
-8.37477875 2.91968489 2.37647653 45 15 28922 9.18200000 2210681984 2210681984 15.00000000
-1.89279938 0.66210729 -0.53730834 4 0 28928 2.07600000 2210682005 2210682005 -15.00000000
-4.04853678 1.41698420 0.07487082 7 1 28929 4.29000000 2210682007 2210682007 1.00000000
-2.18131828 0.76388675 -0.53358388 4 2 28930 2.37200000 2210682009 2210682009 -13.00000000
-4.10531187 1.43846416 0.22797543 7 3 28931 4.35600000 2210682012 2210682012 3.00000000
-2.56799197 0.89980119 -0.52892256 3 4 28931 2.77200000 2210682014 2210682014 -11.00000000
-6.27795124 2.20096779 0.58202606 3 5 28932 6.67800000 2210682016 2210682016 5.00000000
-3.08868170 1.08345675 -0.51842380 3 6 28933 3.31400000 2210682019 2210682019 -9.00000000
-3.86578679 1.35756767 -0.50307667 6 8 28935 4.12800000 2210682023 2210682023 -7.00000000
-5.16737318 1.81566548 -0.47918227 6 10 28936 5.49800000 2210682028 2210682028 -5.00000000
-4.09978294 1.44215310 -0.22776608 6 12 28938 4.35200000 2210682032 2210682032 -3.00000000
-9.84360790 3.46455073 2.40922570 68 13 28939 10.71000000 2210682035 2210682035 13.00000000
-3.96470404 1.39619267 -0.07336992 56 14 28940 4.20400000 2210682037 2210682037 -1.00000000
-8.36556530 2.94598055 2.37647653 45 15 28940 9.18200000 2210682039 2210682039 15.00000000
-1.87954915 0.66484499 -0.53420252 4 0 28948 2.06400000 2210682060 2210682060 -15.00000000
-4.05110645 1.43377638 0.07501044 7 1 28949 4.29800000 2210682062 2210682062 1.00000000
-3.99906921 1.41614461 -0.97943687 4 2 28950 4.35400000 2210682065 2210682065 -13.00000000
-4.11909151 1.45945585 0.22902215 7 3 28951 4.37600000 2210682067 2210682067 3.00000000
-2.55928373 0.90679264 -0.52777767 3 4 28951 2.76600000 2210682069 2210682069 -11.00000000
-3.08674264 1.09489214 -0.51873666 3 6 28953 3.31600000 2210682074 2210682074 -9.00000000
-3.87598968 1.37636769 -0.50502658 6 8 28955 4.14400000 2210682078 2210682078 -7.00000000
-5.15161705 1.83035672 -0.47831070 6 10 28956 5.48800000 2210682083 2210682083 -5.00000000
-4.12295055 1.46649516 -0.22933616 6 12 28958 4.38200000 2210682088 2210682088 -3.00000000
-9.82411098 3.49627662 2.40742612 68 13 28959 10.70200000 2210682090 2210682090 13.00000000
-3.95227098 1.40734041 -0.07323030 52 14 28960 4.19600000 2210682092 2210682092 -1.00000000
-8.34743214 2.97402859 2.37440586 47 15 28961 9.17400000 2210682095 2210682095 15.00000000
-1.87903595 0.67205238 -0.53472012 4 0 28968 2.06600000 2210682115 2210682115 -15.00000000
-4.03854561 1.44521356 0.07487082 7 1 28969 4.29000000 2210682118 2210682118 1.00000000
-4.00327492 1.43337989 -0.98168641 6 2 28970 4.36400000 2210682120 2210682120 -13.00000000
-4.11209154 1.47315168 0.22891748 7 3 28971 4.37400000 2210682122 2210682122 3.00000000
-2.55979943 0.91704494 -0.52854091 3 4 28971 2.77000000 2210682125 2210682125 -11.00000000
-3.07546425 1.10299265 -0.51748520 3 6 28973 3.30800000 2210682129 2210682129 -9.00000000
-5.71368456 2.05029655 0.74535292 2 7 28974 6.11600000 2210682131 2210682131 7.00000000
-3.85808349 1.38519347 -0.50332040 6 8 28975 4.13000000 2210682134 2210682134 -7.00000000
-5.14894676 1.84967530 -0.47865933 6 10 28976 5.49200000 2210682138 2210682138 -5.00000000
-9.90648937 3.56069732 2.04623556 9 11 28977 10.72400000 2210682141 2210682141 11.00000000
-4.11592674 1.48020208 -0.22923149 6 12 28978 4.38000000 2210682143 2210682143 -3.00000000
-9.81551361 3.53186750 2.40832591 64 13 28979 10.70600000 2210682145 2210682145 13.00000000
-3.95674181 1.42451465 -0.07340482 61 14 28980 4.20600000 2210682148 2210682148 -1.00000000
-8.32661819 2.99776697 2.37129998 45 15 28980 9.16200000 2210682150 2210682150 15.00000000
-1.88031197 0.67992121 -0.53575540 4 0 28988 2.07000000 2210682171 2210682171 -15.00000000
-4.04475880 1.46338391 0.07508025 7 1 28989 4.30200000 2210682173 2210682173 1.00000000
-3.99458241 1.44601858 -0.98078662 6 2 28990 4.36000000 2210682175 2210682175 -13.00000000
-4.12194729 1.49293780 0.22975485 7 3 28991 4.39000000 2210682178 2210682178 3.00000000
-2.56027460 0.92731190 -0.52930415 3 4 28991 2.77400000 2210682180 2210682180 -11.00000000
-3.07530951 1.11506808 -0.51811093 3 6 28993 3.31200000 2210682184 2210682184 -9.00000000
-5.59079552 2.02825522 0.73024112 2 7 28994 5.99200000 2210682187 2210682187 7.00000000
-3.87001848 1.40474808 -0.50551403 6 8 28995 4.14800000 2210682189 2210682189 -7.00000000
-5.13684034 1.86559677 -0.47813639 6 10 28996 5.48600000 2210682194 2210682194 -5.00000000
-9.90691662 3.59994936 2.04890704 12 11 28997 10.73800000 2210682196 2210682196 11.00000000
-4.11073494 1.49456036 -0.22923149 6 12 28998 4.38000000 2210682198 2210682198 -3.00000000
-9.80312538 3.56610847 2.40832591 64 13 28999 10.70600000 2210682201 2210682201 13.00000000
-3.96301985 1.44242120 -0.07361425 64 14 29000 4.21800000 2210682203 2210682203 -1.00000000
-8.32699585 3.03077841 2.37440586 45 15 29000 9.17400000 2210682205 2210682205 15.00000000
-1.88179600 0.68715024 -0.53679073 4 0 29006 2.07400000 2210682226 2210682226 -15.00000000
-4.05141115 1.48020101 0.07528968 7 1 29007 4.31400000 2210682228 2210682228 1.00000000
-2.17437768 0.79484874 -0.53448373 4 2 29008 2.37600000 2210682231 2210682231 -13.00000000
-4.11911249 1.50656593 0.22985952 7 3 29009 4.39200000 2210682233 2210682233 3.00000000
-2.56288004 0.93737376 -0.53044903 3 4 29009 2.78000000 2210682235 2210682235 -11.00000000
-5.26323938 1.92607212 0.49033821 2 5 29010 5.62600000 2210682237 2210682237 5.00000000
-3.09034061 1.13151574 -0.52123964 3 6 29011 3.33200000 2210682240 2210682240 -9.00000000
-5.56762028 2.03966379 0.72804743 2 7 29012 5.97400000 2210682242 2210682242 7.00000000
-3.86185861 1.41553283 -0.50502658 6 8 29013 4.14400000 2210682244 2210682244 -7.00000000
-5.14404821 1.88652754 -0.47935659 3 10 29014 5.50000000 2210682249 2210682249 -5.00000000
-9.89740086 3.63173127 2.04928851 15 11 29015 10.74000000 2210682251 2210682251 11.00000000
-4.10789442 1.50815558 -0.22933616 6 12 29016 4.38200000 2210682254 2210682254 -3.00000000
-9.78089905 3.59285665 2.40562654 68 13 29017 10.69400000 2210682256 2210682256 13.00000000
-3.96409965 1.45693386 -0.07371897 59 14 29018 4.22400000 2210682258 2210682258 -1.00000000
-8.31199360 3.05492425 2.37285304 47 15 29018 9.16800000 2210682260 2210682260 15.00000000
-1.88482296 0.69572163 -0.53834361 4 0 29026 2.08000000 2210682281 2210682281 -15.00000000
-4.05747461 1.49849081 0.07549911 5 1 29027 4.32600000 2210682284 2210682284 1.00000000
-2.17524576 0.80378479 -0.53538352 4 2 29028 2.38000000 2210682286 2210682286 -13.00000000
-4.10633516 1.51816475 0.22944084 7 3 29029 4.38400000 2210682288 2210682288 3.00000000
-2.55038524 0.94291013 -0.52854091 3 4 29029 2.77000000 2210682290 2210682290 -11.00000000
-5.25648403 1.94443262 0.49033821 2 5 29030 5.62600000 2210682293 2210682293 5.00000000
-3.07525682 1.13818216 -0.51936245 3 6 29031 3.32000000 2210682295 2210682295 -9.00000000
-5.60514402 2.07563019 0.73389721 2 7 29032 6.02200000 2210682297 2210682297 7.00000000
-3.85317087 1.42762530 -0.50453907 6 8 29033 4.14000000 2210682300 2210682300 -7.00000000
-5.13929987 1.90516460 -0.47953090 6 10 29034 5.50200000 2210682304 2210682304 -5.00000000
-9.91227436 3.67649841 2.05501294 21 11 29035 10.77000000 2210682307 2210682307 11.00000000
-4.11196709 1.52595997 -0.22985952 6 12 29036 4.39200000 2210682309 2210682309 -3.00000000
-9.74637508 3.61883664 2.40022779 18 13 29037 10.67000000 2210682311 2210682311 13.00000000
-3.95524073 1.46936941 -0.07364915 57 14 29038 4.22000000 2210682313 2210682313 -1.00000000
-8.30979443 3.08873415 2.37544131 47 15 29039 9.17800000 2210682316 2210682316 15.00000000
-1.87514305 0.69959551 -0.53627306 4 0 29046 2.07200000 2210682337 2210682337 -15.00000000
-4.06345987 1.51684082 0.07570854 5 1 29047 4.33800000 2210682339 2210682339 1.00000000
-2.17242694 0.81137294 -0.53538352 4 2 29048 2.38000000 2210682341 2210682341 -13.00000000
-4.11971998 1.53948057 0.23048756 7 3 29049 4.40400000 2210682343 2210682343 3.00000000
-2.54340029 0.95043248 -0.52777767 3 4 29049 2.76600000 2210682346 2210682346 -11.00000000
-3.08236599 1.15306258 -0.52123964 3 6 29051 3.33200000 2210682350 2210682350 -9.00000000
-3.84816408 1.44106662 -0.50453907 6 8 29053 4.14000000 2210682355 2210682355 -7.00000000
-5.14940977 1.92938399 -0.48109969 3 10 29054 5.52000000 2210682360 2210682360 -5.00000000
-9.89938068 3.71107650 2.05501294 25 11 29055 10.77000000 2210682362 2210682362 11.00000000
-4.09352541 1.53539431 -0.22912681 4 12 29056 4.37800000 2210682364 2210682364 -3.00000000
-3.94821548 1.48246396 -0.07361425 61 14 29058 4.21800000 2210682369 2210682369 -1.00000000
-8.29227161 3.11355710 2.37337065 47 15 29058 9.17000000 2210682371 2210682371 15.00000000
-1.86545908 0.70341033 -0.53420252 4 0 29066 2.06400000 2210682392 2210682392 -15.00000000
-4.05065632 1.52819228 0.07556892 5 1 29067 4.33000000 2210682394 2210682394 1.00000000
-2.17869735 0.82239211 -0.53763300 4 2 29068 2.39000000 2210682396 2210682396 -13.00000000
-4.12739992 1.55879128 0.23122026 7 3 29069 4.41800000 2210682399 2210682399 3.00000000
-2.54006720 0.95930481 -0.52777767 3 4 29069 2.76600000 2210682401 2210682401 -11.00000000
-3.07462668 1.16241789 -0.52061391 3 6 29071 3.32800000 2210682406 2210682406 -9.00000000
-3.85796309 1.46011162 -0.50648898 6 8 29073 4.15600000 2210682410 2210682410 -7.00000000
-5.13891697 1.94593585 -0.48075107 3 10 29074 5.51600000 2210682415 2210682415 -5.00000000
-9.89921761 3.75047803 2.05768418 28 11 29075 10.78400000 2210682417 2210682417 11.00000000
-4.10121393 1.55462956 -0.22985952 6 12 29076 4.39200000 2210682419 2210682419 -3.00000000
-3.95049524 1.49907458 -0.07375387 64 14 29078 4.22600000 2210682424 2210682424 -1.00000000
-8.26329136 3.13562965 2.36819434 47 15 29078 9.15000000 2210682426 2210682426 15.00000000
-1.86996436 0.71332210 -0.53627306 4 0 29088 2.07200000 2210682448 2210682448 -15.00000000
-4.05783653 1.54872561 0.07581326 5 1 29089 4.34400000 2210682450 2210682450 1.00000000
-2.17552352 0.83075166 -0.53763300 3 2 29090 2.39000000 2210682453 2210682453 -13.00000000
-4.12352467 1.57462108 0.23132493 7 3 29090 4.42000000 2210682455 2210682455 3.00000000
-2.54736876 0.97325498 -0.53006738 3 4 29091 2.77800000 2210682457 2210682457 -11.00000000
-5.23513603 2.00119829 0.49033821 2 5 29092 5.62600000 2210682460 2210682460 5.00000000
-3.07014084 1.17421508 -0.52061391 3 6 29093 3.32800000 2210682462 2210682462 -9.00000000
-3.84491277 1.47207522 -0.50551403 6 8 29095 4.14800000 2210682466 2210682466 -7.00000000
-5.12024403 1.96137726 -0.47970521 3 10 29096 5.50400000 2210682471 2210682471 -5.00000000
-9.88107681 3.78705525 2.05692101 28 11 29097 10.78000000 2210682473 2210682473 11.00000000
-4.11013317 1.57608640 -0.23069690 6 12 29098 4.40800000 2210682476 2210682476 -3.00000000
-3.94657683 1.51494896 -0.07378878 49 14 29100 4.22800000 2210682480 2210682480 -1.00000000
-8.25840473 3.17010450 2.37026477 47 15 29100 9.15800000 2210682483 2210682483 15.00000000
