# .PCD v0.7 - Point Cloud Data file format
VERSION 0.7
FIELDS x y z intensity laser_id azimuth distance_m adjustedtime timestamp vertical_angle
SIZE 4 4 4 1 1 2 8 8 4 8
TYPE F F F U U U F U U F
COUNT 1 1 1 1 1 1 1 1 1 1
WIDTH 539
HEIGHT 1
VIEWPOINT 0 0 0 1 0 0 0
POINTS 539
DATA ascii
7.64421749 3.45792317 -0.73402566 13 10 6566 8.42200000 2208920019 2208920019 -5.00000000
8.19555664 3.70388031 -0.47133762 17 12 6568 9.00600000 2208920023 2208920023 -3.00000000
8.24217510 3.72321677 2.08799577 68 13 6569 9.28200000 2208920026 2208920026 13.00000000
8.19955730 3.70224214 -0.15703675 16 14 6570 8.99800000 2208920028 2208920028 -1.00000000
8.04461956 3.63228512 2.36508846 47 15 6570 9.13800000 2208920030 2208920030 15.00000000
2.07011986 0.93121749 -0.60822475 4 0 6578 2.35000000 2208920051 2208920051 -15.00000000
8.20718670 3.69017792 0.15707166 12 1 6579 9.00000000 2208920053 2208920053 1.00000000
8.17820835 3.67543268 -2.06999969 8 2 6580 9.20200000 2208920056 2208920056 -13.00000000
8.21786976 3.69325709 0.47217500 13 3 6580 9.02200000 2208920058 2208920058 3.00000000
2.93343568 1.31772292 -0.62509024 5 4 6581 3.27600000 2208920060 2208920060 -11.00000000
8.21184158 3.68710327 0.78753930 86 5 6582 9.03600000 2208920063 2208920063 5.00000000
3.71614575 1.66776395 -0.64513576 6 6 6583 4.12400000 2208920065 2208920065 -9.00000000
8.22108364 3.68780494 1.10632992 99 7 6584 9.07800000 2208920067 2208920067 7.00000000
4.99933147 2.24154687 -0.67271876 9 8 6585 5.52000000 2208920069 2208920069 -7.00000000
7.65624094 3.43121886 -0.73402566 13 10 6586 8.42200000 2208920074 2208920074 -5.00000000
8.19932079 3.67116904 -0.47081426 12 12 6588 8.99600000 2208920079 2208920079 -3.00000000
8.24800682 3.69123936 2.08619618 70 13 6589 9.27400000 2208920081 2208920081 13.00000000
8.19782829 3.66706562 -0.15675752 14 14 6590 8.98200000 2208920083 2208920083 -1.00000000
7.12085247 3.18531108 2.09022260 27 15 6590 8.07600000 2208920086 2208920086 15.00000000
2.06277061 0.91926754 -0.60511893 4 0 6598 2.33800000 2208920106 2208920106 -15.00000000
8.19261837 3.64930201 0.15654808 12 1 6599 8.97000000 2208920109 2208920109 1.00000000
8.18742847 3.64527798 -2.06909990 8 2 6600 9.19800000 2208920111 2208920111 -13.00000000
8.21675301 3.65661597 0.47133762 13 3 6601 9.00600000 2208920113 2208920113 3.00000000
2.94339848 1.30986989 -0.62623513 5 4 6601 3.28200000 2208920116 2208920116 -11.00000000
8.20099640 3.64788938 0.78527325 78 5 6602 9.01000000 2208920118 2208920118 5.00000000
3.71291971 1.65076947 -0.64357138 6 6 6603 4.11400000 2208920120 2208920120 -9.00000000
8.21395206 3.65021801 1.10364878 95 7 6604 9.05600000 2208920122 2208920122 7.00000000
4.99986887 2.22085905 -0.67174381 9 8 6605 5.51200000 2208920125 2208920125 -7.00000000
7.66635084 3.40366411 -0.73385137 13 10 6606 8.42000000 2208920129 2208920129 -5.00000000
8.21026039 3.64171576 -0.47070959 17 12 6608 8.99400000 2208920134 2208920134 -3.00000000
8.25371552 3.65926671 2.08439636 70 13 6609 9.26600000 2208920136 2208920136 13.00000000
8.19046783 3.62951565 -0.15637356 18 14 6610 8.96000000 2208920139 2208920139 -1.00000000
7.11658239 3.15214920 2.08556390 49 15 6611 8.05800000 2208920141 2208920141 15.00000000
2.06950140 0.91362190 -0.60615420 4 0 6618 2.34200000 2208920162 2208920162 -15.00000000
8.19250011 3.61503124 0.15630375 12 1 6619 8.95600000 2208920164 2208920164 1.00000000
8.18227291 3.60881209 -2.06460071 8 2 6620 9.17800000 2208920166 2208920166 -13.00000000
8.21238708 3.62209439 0.47039557 13 3 6620 8.98800000 2208920169 2208920169 3.00000000
2.94795275 1.29958761 -0.62623513 5 4 6621 3.28200000 2208920171 2208920171 -11.00000000
8.20456409 3.61522341 0.78440166 86 5 6622 9.00000000 2208920173 2208920173 5.00000000
3.70600462 1.63222539 -0.64138132 6 6 6623 4.10000000 2208920175 2208920175 -9.00000000
8.21755886 3.61752462 1.10243011 99 7 6624 9.04600000 2208920178 2208920178 7.00000000
5.02939463 2.21298647 -0.67466867 9 8 6625 5.53600000 2208920180 2208920180 -7.00000000
7.67088985 3.37367439 -0.73315412 13 10 6626 8.41200000 2208920185 2208920185 -5.00000000
8.19732285 3.60178638 -0.46924418 17 12 6628 8.96600000 2208920189 2208920189 -3.00000000
8.25930119 3.62729907 2.08259678 68 13 6629 9.25800000 2208920192 2208920192 13.00000000
8.18843937 3.59447336 -0.15609433 20 14 6630 8.94400000 2208920194 2208920194 -1.00000000
7.12876511 3.12930894 2.08608150 42 15 6630 8.06000000 2208920196 2208920196 15.00000000
2.07975793 0.90948856 -0.60822475 4 0 6638 2.35000000 2208920217 2208920217 -15.00000000
8.19041061 3.58000469 0.15602452 12 1 6639 8.94000000 2208920219 2208920219 1.00000000
8.16803360 3.56852603 -2.05785227 8 2 6640 9.14800000 2208920221 2208920221 -13.00000000
8.21582985 3.58940768 0.46987221 13 3 6640 8.97800000 2208920224 2208920224 3.00000000
2.95786881 1.29164636 -0.62737995 5 4 6641 3.28800000 2208920226 2208920226 -11.00000000
8.19522095 3.57699800 0.78230995 78 5 6642 8.97600000 2208920228 2208920228 5.00000000
3.72616410 1.62559819 -0.64388424 6 6 6643 4.11600000 2208920231 2208920231 -9.00000000
8.20830154 3.57929635 1.09950519 99 7 6644 9.02200000 2208920233 2208920233 7.00000000
5.01343155 2.18510628 -0.67150009 9 8 6645 5.51000000 2208920235 2208920235 -7.00000000
7.68627262 3.34846902 -0.73350275 13 10 6646 8.41600000 2208920240 2208920240 -5.00000000
8.18786907 3.56358600 -0.46798813 17 12 6648 8.94200000 2208920245 2208920245 -3.00000000
8.25761700 3.59222770 2.07899761 62 13 6649 9.24200000 2208920247 2208920247 13.00000000
8.19543457 3.56347632 -0.15598960 18 14 6650 8.93800000 2208920249 2208920249 -1.00000000
7.14141655 3.10517621 2.08659911 45 15 6650 8.06200000 2208920251 2208920251 15.00000000
2.08808017 0.90489131 -0.60977769 4 0 6657 2.35600000 2208920272 2208920272 -15.00000000
8.19122696 3.54805589 0.15581508 15 1 6658 8.92800000 2208920274 2208920274 1.00000000
8.17445755 3.53909755 -2.05650258 8 2 6659 9.14200000 2208920277 2208920277 -13.00000000
8.20264721 3.54960227 0.46840680 10 3 6660 8.95000000 2208920279 2208920279 3.00000000
2.96213579 1.28183067 -0.62737995 6 4 6660 3.28800000 2208920281 2208920281 -11.00000000
8.20155239 3.54742908 0.78178704 78 5 6661 8.97000000 2208920284 2208920284 5.00000000
3.72246838 1.60931349 -0.64231992 6 6 6662 4.10600000 2208920286 2208920286 -9.00000000
8.21101475 3.54812002 1.09828651 95 7 6663 9.01200000 2208920288 2208920288 7.00000000
5.01336098 2.16532087 -0.67052513 9 8 6664 5.50200000 2208920291 2208920291 -7.00000000
7.71196795 3.32927942 -0.73489720 13 10 6665 8.43200000 2208920295 2208920295 -5.00000000
8.19413948 3.53404140 -0.46767411 17 12 6667 8.93600000 2208920300 2208920300 -3.00000000
8.25158787 3.55711031 2.07449865 64 13 6668 9.22200000 2208920302 2208920302 13.00000000
8.18516827 3.52678418 -0.15557075 18 14 6669 8.91400000 2208920304 2208920304 -1.00000000
7.15221214 3.08022904 2.08659911 45 15 6670 8.06200000 2208920307 2208920307 15.00000000
2.08767557 0.89607310 -0.60874242 4 0 6677 2.35200000 2208920327 2208920327 -15.00000000
8.19253635 3.51471114 0.15560566 18 1 6678 8.91600000 2208920330 2208920330 1.00000000
8.18138790 3.50823784 -2.05515289 8 2 6679 9.13600000 2208920332 2208920332 -13.00000000
8.20152378 3.51687193 0.46767411 10 3 6679 8.93600000 2208920334 2208920334 3.00000000
2.95576525 1.26684260 -0.62509024 6 4 6680 3.27600000 2208920337 2208920337 -11.00000000
8.19007683 3.50857949 0.77952099 75 5 6681 8.94400000 2208920339 2208920339 5.00000000
3.73532701 1.59942007 -0.64357138 6 6 6682 4.11400000 2208920341 2208920341 -9.00000000
8.21239948 3.51475024 1.09682405 95 7 6683 9.00000000 2208920344 2208920344 7.00000000
5.03731441 2.15483427 -0.67271876 9 8 6684 5.52000000 2208920346 2208920346 -7.00000000
7.71071863 3.29685616 -0.73367703 13 10 6685 8.41800000 2208920351 2208920351 -5.00000000
8.19356918 3.49992514 -0.46694142 21 12 6687 8.92200000 2208920355 2208920355 -3.00000000
8.25678539 3.52522445 2.07269907 66 13 6688 9.21400000 2208920357 2208920357 13.00000000
8.18455505 3.49269700 -0.15532641 20 14 6689 8.90000000 2208920360 2208920360 -1.00000000
7.16292048 3.05524445 2.08659911 45 15 6690 8.06200000 2208920362 2208920362 15.00000000
2.08723497 0.88726878 -0.60770714 4 0 6697 2.34800000 2208920383 2208920383 -15.00000000
8.19371223 3.48140049 0.15539622 15 1 6698 8.90400000 2208920385 2208920385 1.00000000
8.18999672 3.47813463 -2.05425310 8 2 6699 9.13200000 2208920387 2208920387 -13.00000000
8.20639610 3.48509908 0.46725541 10 3 6699 8.92800000 2208920390 2208920390 3.00000000
2.96378374 1.25805151 -0.62585348 6 4 6700 3.28000000 2208920392 2208920392 -11.00000000
8.18760109 3.47374392 0.77812648 75 5 6701 8.92800000 2208920394 2208920394 5.00000000
3.73725009 1.58482909 -0.64294565 6 6 6702 4.11000000 2208920397 2208920397 -9.00000000
8.21182442 3.48063946 1.09511793 90 7 6703 8.98600000 2208920399 2208920399 7.00000000
5.04846144 2.13878632 -0.67320627 6 8 6704 5.52400000 2208920401 2208920401 -7.00000000
7.71117163 3.26525927 -0.73263115 13 10 6705 8.40600000 2208920406 2208920406 -5.00000000
8.19469929 3.46663404 -0.46631336 17 12 6707 8.91000000 2208920410 2208920410 -3.00000000
8.26186085 3.49334574 2.07089949 68 13 6708 9.20600000 2208920413 2208920413 13.00000000
8.18011951 3.45710039 -0.15501228 16 14 6709 8.88200000 2208920415 2208920415 -1.00000000
7.16464376 3.02646399 2.08401084 42 15 6710 8.05200000 2208920417 2208920417 15.00000000
2.09031940 0.87997758 -0.60770714 4 0 6717 2.34800000 2208920438 2208920438 -15.00000000
8.18369675 3.44347119 0.15497737 15 1 6718 8.88000000 2208920440 2208920440 1.00000000
2.47715282 1.04180789 -0.62041503 4 2 6719 2.75800000 2208920443 2208920443 -13.00000000
8.20746517 3.45178652 0.46662739 10 3 6719 8.91600000 2208920445 2208920445 3.00000000
2.97177672 1.24921989 -0.62661672 6 4 6720 3.28400000 2208920447 2208920447 -11.00000000
8.19049263 3.44128394 0.77725494 75 5 6721 8.91800000 2208920450 2208920450 5.00000000
3.72454643 1.56412554 -0.63981694 6 6 6722 4.09000000 2208920452 2208920452 -9.00000000
8.20928097 3.44580722 1.09316802 90 7 6723 8.97000000 2208920454 2208920454 7.00000000
5.06687927 2.12575889 -0.67466867 6 8 6724 5.53600000 2208920457 2208920457 -7.00000000
7.74273396 3.24679780 -0.73454863 13 10 6725 8.42800000 2208920461 2208920461 -5.00000000
8.18648720 3.42951918 -0.46516198 17 12 6727 8.88800000 2208920466 2208920466 -3.00000000
8.27040958 3.46297979 2.06999969 66 13 6728 9.20200000 2208920468 2208920468 13.00000000
8.18475819 3.42543721 -0.15487266 18 14 6729 8.87400000 2208920470 2208920470 -1.00000000
7.17872858 3.00292730 2.08504629 42 15 6730 8.05600000 2208920473 2208920473 15.00000000
2.09500909 0.87378460 -0.60822475 4 0 6736 2.35000000 2208920493 2208920493 -15.00000000
8.19137859 3.41477513 0.15490755 15 1 6737 8.87600000 2208920496 2208920496 1.00000000
2.46440434 1.02684200 -0.61636591 4 2 6738 2.74000000 2208920498 2208920498 -13.00000000
8.19674301 3.41533232 0.46537131 13 3 6738 8.89200000 2208920500 2208920500 3.00000000
2.97409058 1.23860347 -0.62623513 5 4 6739 3.28200000 2208920503 2208920503 -11.00000000
8.20001984 3.41333866 0.77708060 78 5 6740 8.91600000 2208920505 2208920505 5.00000000
3.73518419 1.55404234 -0.64075559 6 6 6741 4.09600000 2208920507 2208920507 -9.00000000
8.20783234 3.41322970 1.09146190 92 7 6742 8.95600000 2208920509 2208920509 7.00000000
5.06290245 2.10437346 -0.67320627 6 8 6743 5.52400000 2208920512 2208920512 -7.00000000
7.74241829 3.21651769 -0.73350275 13 10 6744 8.41600000 2208920516 2208920516 -5.00000000
8.17383385 3.39240003 -0.46380123 17 12 6746 8.86200000 2208920521 2208920521 -3.00000000
8.26744747 3.42956161 2.06640029 66 13 6747 9.18600000 2208920523 2208920523 13.00000000
8.19422531 3.39751077 -0.15483776 18 14 6748 8.87200000 2208920526 2208920526 -1.00000000
7.19526529 2.98331952 2.08711672 45 15 6748 8.06400000 2208920528 2208920528 15.00000000
2.11233091 0.87236571 -0.61236584 4 0 6756 2.36600000 2208920549 2208920549 -15.00000000
8.18476486 3.37853122 0.15455851 12 1 6757 8.85600000 2208920551 2208920551 1.00000000
2.49319386 1.02863860 -0.62266451 4 2 6758 2.76800000 2208920553 2208920553 -13.00000000
8.19753742 3.38212919 0.46474329 13 3 6758 8.88000000 2208920556 2208920556 3.00000000
2.97113609 1.22522056 -0.62470865 6 4 6759 3.27400000 2208920558 2208920558 -11.00000000
8.20635796 3.38241673 0.77655768 78 5 6760 8.91000000 2208920560 2208920560 5.00000000
3.74423885 1.54249942 -0.64138132 6 6 6761 4.10000000 2208920562 2208920562 -9.00000000
8.20868301 3.38002348 1.08999944 90 7 6762 8.94400000 2208920565 2208920565 7.00000000
5.07388878 2.08819866 -0.67369372 6 8 6763 5.52800000 2208920567 2208920567 -7.00000000
7.76833963 3.19553566 -0.73489720 13 10 6764 8.43200000 2208920572 2208920572 -5.00000000
8.18193054 3.36232901 -0.46359190 17 12 6766 8.85800000 2208920576 2208920576 -3.00000000
8.25413227 3.39031625 2.06010175 68 13 6767 9.15800000 2208920579 2208920579 13.00000000
8.18383694 3.35977364 -0.15441889 18 14 6768 8.84800000 2208920581 2208920581 -1.00000000
7.20078993 2.95472741 2.08556390 40 15 6769 8.05800000 2208920583 2208920583 15.00000000
2.10478449 0.86023253 -0.60926002 4 0 6777 2.35400000 2208920604 2208920604 -15.00000000
8.19709301 3.34850979 0.15455851 12 1 6778 8.85600000 2208920606 2208920606 1.00000000
2.48973060 1.01654720 -0.62086493 4 2 6779 2.76000000 2208920609 2208920609 -13.00000000
8.20121765 3.34685469 0.46421993 13 3 6780 8.87000000 2208920611 2208920611 3.00000000
2.97015357 1.21209729 -0.62356383 8 4 6780 3.26800000 2208920613 2208920613 -11.00000000
8.19840717 3.34403896 0.77464026 78 5 6781 8.88800000 2208920615 2208920615 5.00000000
3.76450109 1.53473175 -0.64388424 6 6 6782 4.11600000 2208920618 2208920618 -9.00000000
8.21733952 3.34841609 1.08951187 95 7 6783 8.94000000 2208920620 2208920620 7.00000000
5.06312370 2.06210017 -0.67125636 6 8 6784 5.50800000 2208920622 2208920622 -7.00000000
7.77077293 3.16328597 -0.73402566 13 10 6785 8.42200000 2208920627 2208920627 -5.00000000
8.19049931 3.33081341 -0.46338254 17 12 6787 8.85400000 2208920632 2208920632 -3.00000000
8.26289272 3.35857296 2.05920196 68 13 6788 9.15400000 2208920634 2208920634 13.00000000
8.17386436 3.32072401 -0.15400003 16 14 6789 8.82400000 2208920636 2208920636 -1.00000000
7.21642923 2.93175530 2.08711672 42 15 6789 8.06400000 2208920639 2208920639 15.00000000
2.09344816 0.84708327 -0.60511893 4 0 6797 2.33800000 2208920659 2208920659 -15.00000000
8.18648529 3.31087947 0.15413965 12 1 6798 8.83200000 2208920662 2208920662 1.00000000
2.50049067 1.01077151 -0.62266451 4 2 6799 2.76800000 2208920664 2208920664 -13.00000000
8.20914650 3.31671047 0.46401060 13 3 6800 8.86600000 2208920666 2208920666 3.00000000
2.97982740 1.20392847 -0.62470865 5 4 6800 3.27400000 2208920668 2208920668 -11.00000000
8.18970871 3.30719423 0.77272284 75 5 6801 8.86600000 2208920671 2208920671 5.00000000
3.77166700 1.52232111 -0.64419711 6 6 6802 4.11800000 2208920673 2208920673 -9.00000000
8.21425056 3.31377053 1.08756196 95 7 6803 8.92400000 2208920675 2208920675 7.00000000
5.08133745 2.04886818 -0.67271876 6 8 6804 5.52000000 2208920678 2208920678 -7.00000000
7.76883173 3.13092828 -0.73280549 13 10 6805 8.40800000 2208920682 2208920682 -5.00000000
8.19836998 3.30071115 -0.46317321 17 12 6807 8.85000000 2208920687 2208920687 -3.00000000
8.26733398 3.32679963 2.05740237 68 13 6808 9.14600000 2208920689 2208920689 13.00000000
8.17984009 3.28993297 -0.15389532 18 14 6809 8.81800000 2208920692 2208920692 -1.00000000
7.21637154 2.90096283 2.08401084 40 15 6810 8.05200000 2208920694 2208920694 15.00000000
2.09639215 0.83977062 -0.60511893 4 0 6817 2.33800000 2208920715 2208920715 -15.00000000
8.18314075 3.27633691 0.15386042 12 1 6818 8.81600000 2208920717 2208920717 1.00000000
2.48952961 0.99624491 -0.61906528 4 2 6819 2.75200000 2208920719 2208920719 -13.00000000
8.21325588 3.28506804 0.46359190 10 3 6820 8.85800000 2208920721 2208920721 3.00000000
2.98765755 1.19497776 -0.62547189 5 4 6820 3.27800000 2208920724 2208920724 -11.00000000
8.19380283 3.27562833 0.77202559 78 5 6821 8.85800000 2208920726 2208920726 5.00000000
3.74760818 1.49741912 -0.63919121 6 6 6822 4.08600000 2208920728 2208920728 -9.00000000
8.20364571 3.27624249 1.08463717 95 7 6823 8.90000000 2208920731 2208920731 7.00000000
5.09583282 2.03406215 -0.67369372 6 8 6824 5.52800000 2208920733 2208920733 -7.00000000
7.79266739 3.10895896 -0.73402566 13 10 6825 8.42200000 2208920738 2208920738 -5.00000000
8.19128895 3.26467896 -0.46212649 17 12 6827 8.83000000 2208920742 2208920742 -3.00000000
8.27889633 3.29792118 2.05740237 64 13 6828 9.14600000 2208920745 2208920745 13.00000000
8.18755817 3.25988054 -0.15382551 16 14 6829 8.81400000 2208920747 2208920747 -1.00000000
7.23313093 2.87987494 2.08608150 42 15 6829 8.06000000 2208920749 2208920749 15.00000000
2.10828996 0.83600825 -0.60770714 4 0 6837 2.34800000 2208920770 2208920770 -15.00000000
8.18151474 3.24259496 0.15361609 12 1 6838 8.80200000 2208920772 2208920772 1.00000000
2.48936868 0.98611337 -0.61816549 4 2 6839 2.74800000 2208920774 2208920774 -13.00000000
8.20238876 3.24755549 0.46233582 10 3 6840 8.83400000 2208920777 2208920777 3.00000000
2.99363589 1.18526435 -0.62585348 6 4 6840 3.28000000 2208920779 2208920779 -11.00000000
8.19407082 3.24260807 0.77097970 78 5 6841 8.84600000 2208920781 2208920781 5.00000000
3.76199675 1.48796105 -0.64075559 6 6 6842 4.09600000 2208920784 2208920784 -9.00000000
8.19287872 3.23882890 1.08171225 97 7 6843 8.87600000 2208920786 2208920786 7.00000000
5.09182453 2.01188517 -0.67223132 6 8 6844 5.51600000 2208920788 2208920788 -7.00000000
7.79976606 3.08027482 -0.73367703 13 10 6845 8.41800000 2208920793 2208920793 -5.00000000
8.18591309 3.22946930 -0.46118444 17 12 6847 8.81200000 2208920797 2208920797 -3.00000000
8.28310680 3.26614285 2.05560279 60 13 6848 9.13800000 2208920800 2208920800 13.00000000
8.18400383 3.22541523 -0.15354627 18 14 6849 8.79800000 2208920802 2208920802 -1.00000000
7.24004269 2.85192871 2.08504629 42 15 6850 8.05600000 2208920804 2208920804 15.00000000
2.11644506 0.83113074 -0.60926002 4 0 6856 2.35400000 2208920825 2208920825 -15.00000000
8.18291569 3.21179318 0.15344156 15 1 6857 8.79200000 2208920827 2208920827 1.00000000
2.50532389 0.98283470 -0.62131482 4 2 6858 2.76200000 2208920830 2208920830 -13.00000000
8.19079971 3.21158862 0.46107978 13 3 6859 8.81000000 2208920832 2208920832 3.00000000
2.99572206 1.17461383 -0.62547189 5 4 6859 3.27800000 2208920834 2208920834 -11.00000000
8.20292377 3.21469069 0.77080542 86 5 6860 8.84400000 2208920837 2208920837 5.00000000
3.77426767 1.47835946 -0.64200705 6 6 6861 4.10400000 2208920839 2208920839 -9.00000000
8.19802856 3.20947146 1.08098114 99 7 6862 8.87000000 2208920841 2208920841 7.00000000
5.08367968 1.98920226 -0.67028141 6 8 6863 5.50000000 2208920844 2208920844 -7.00000000
7.80622673 3.05294156 -0.73332840 13 10 6864 8.41400000 2208920848 2208920848 -5.00000000
8.18913651 3.19939876 -0.46076575 17 12 6866 8.80400000 2208920853 2208920853 -3.00000000
8.27573967 3.23156881 2.05110383 64 13 6867 9.11800000 2208920855 2208920855 13.00000000
8.18720341 3.19535017 -0.15340665 16 14 6868 8.79000000 2208920857 2208920857 -1.00000000
7.25256586 2.83057427 2.08608150 40 15 6868 8.06000000 2208920860 2208920860 15.00000000
2.11753273 0.82303804 -0.60874242 4 0 6876 2.35200000 2208920880 2208920880 -15.00000000
8.19034863 3.18176150 0.15337175 15 1 6877 8.78800000 2208920883 2208920883 1.00000000
2.50692272 0.97337812 -0.62086493 4 2 6878 2.76000000 2208920885 2208920885 -13.00000000
8.19637489 3.18080997 0.46076575 13 3 6879 8.80400000 2208920887 2208920887 3.00000000
2.98882246 1.15988803 -0.62318218 6 4 6879 3.26600000 2208920890 2208920890 -11.00000000
8.19737720 3.17955303 0.76923656 93 5 6880 8.82600000 2208920892 2208920892 5.00000000
3.76651239 1.46017766 -0.63981694 6 6 6881 4.09000000 2208920894 2208920894 -9.00000000
8.20177746 3.17796659 1.08000612 99 7 6882 8.86200000 2208920897 2208920897 7.00000000
5.09429455 1.97287858 -0.67076886 6 8 6883 5.50400000 2208920899 2208920899 -7.00000000
7.82612610 3.02927017 -0.73420000 13 10 6884 8.42400000 2208920903 2208920903 -5.00000000
8.18907738 3.16647220 -0.46013772 17 12 6886 8.79200000 2208920908 2208920908 -3.00000000
8.29060459 3.20406628 2.05200362 57 13 6887 9.12200000 2208920910 2208920910 13.00000000
8.17965412 3.15954661 -0.15305761 14 14 6888 8.77000000 2208920913 2208920913 -1.00000000
7.25027657 2.79910278 2.08245802 45 15 6889 8.04600000 2208920915 2208920915 15.00000000
2.11123586 0.81254208 -0.60615420 4 0 6895 2.34200000 2208920936 2208920936 -15.00000000
8.17845821 3.14596868 0.15295289 15 1 6896 8.76400000 2208920938 2208920938 1.00000000
2.51377463 0.96645814 -0.62176472 4 2 6897 2.76400000 2208920940 2208920940 -13.00000000
8.20128441 3.15146327 0.46045175 13 3 6898 8.79800000 2208920943 2208920943 3.00000000
2.99815011 1.15208292 -0.62432700 5 4 6898 3.27200000 2208920945 2208920945 -11.00000000
8.17811680 3.14092278 0.76644760 78 5 6899 8.79400000 2208920947 2208920947 5.00000000
3.77502203 1.44909525 -0.64044273 4 6 6900 4.09400000 2208920950 2208920950 -9.00000000
8.20671082 3.14861798 1.07927489 95 7 6901 8.85600000 2208920952 2208920952 7.00000000
5.12305069 1.96450341 -0.67369372 6 8 6902 5.52800000 2208920954 2208920954 -7.00000000
8.28513432 3.17704749 1.40540719 2 9 6902 8.98400000 2208920956 2208920956 9.00000000
7.82682610 2.99973607 -0.73332840 13 10 6903 8.41400000 2208920959 2208920959 -5.00000000
8.29772663 3.17855406 1.72720301 3 11 6904 9.05200000 2208920961 2208920961 11.00000000
8.19020653 3.13572812 -0.45961437 17 12 6905 8.78200000 2208920963 2208920963 -3.00000000
8.31574440 3.18212771 2.05560279 57 13 6906 9.13800000 2208920966 2208920966 13.00000000
8.18448353 3.13026142 -0.15295289 16 14 6907 8.76400000 2208920968 2208920968 -1.00000000
7.26083851 2.77700162 2.08297563 42 15 6907 8.04800000 2208920970 2208920970 15.00000000
2.11586452 0.80585510 -0.60667187 4 0 6915 2.34400000 2208920991 2208920991 -15.00000000
8.16696358 3.10886455 0.15253404 18 1 6916 8.74000000 2208920993 2208920993 1.00000000
2.51349020 0.95629162 -0.62086493 4 2 6917 2.76000000 2208920996 2208920996 -13.00000000
8.20103455 3.11855674 0.45982370 10 3 6918 8.78600000 2208920998 2208920998 3.00000000
3.00582361 1.14300609 -0.62509024 5 4 6918 3.27600000 2208921000 2208921000 -11.00000000
8.17971897 3.10881758 0.76557606 78 5 6919 8.78400000 2208921003 2208921003 5.00000000
3.77636409 1.43450618 -0.63981694 4 6 6920 4.09000000 2208921005 2208921005 -9.00000000
8.20094967 3.11361051 1.07708120 99 7 6921 8.83800000 2208921007 2208921007 7.00000000
5.11874104 1.94238293 -0.67223132 6 8 6922 5.51600000 2208921009 2208921009 -7.00000000
7.84842682 2.97663617 -0.73437428 13 10 6923 8.42600000 2208921014 2208921014 -5.00000000
8.18989658 3.10287428 -0.45898634 17 12 6925 8.77000000 2208921019 2208921019 -3.00000000
8.34138107 3.15860176 2.05920196 56 13 6926 9.15400000 2208921021 2208921021 13.00000000
8.18226814 3.09671855 -0.15270856 14 14 6927 8.75000000 2208921023 2208921023 -1.00000000
7.26735449 2.74900365 2.08194041 42 15 6928 8.04400000 2208921026 2208921026 15.00000000
2.12061191 0.79877567 -0.60718948 4 0 6936 2.34600000 2208921046 2208921046 -15.00000000
8.17081738 3.07609200 0.15239441 18 1 6937 8.73200000 2208921049 2208921049 1.00000000
2.50421095 0.94226879 -0.61771560 4 2 6938 2.74600000 2208921051 2208921051 -13.00000000
8.19932270 3.08355641 0.45909101 10 3 6939 8.77200000 2208921053 2208921053 3.00000000
3.01734304 1.13474584 -0.62661672 5 4 6939 3.28400000 2208921056 2208921056 -11.00000000
8.18173313 3.07531142 0.76470447 78 5 6940 8.77400000 2208921058 2208921058 5.00000000
3.78159642 1.42065549 -0.63981694 4 6 6941 4.09000000 2208921060 2208921060 -9.00000000
8.18814659 3.07446051 1.07391262 95 7 6942 8.81200000 2208921062 2208921062 7.00000000
5.11839151 1.92081892 -0.67125636 9 8 6943 5.50800000 2208921065 2208921065 -7.00000000
7.85368776 2.94575119 -0.73385137 13 10 6944 8.42000000 2208921069 2208921069 -5.00000000
8.17128944 3.06162381 -0.45731160 17 12 6946 8.73800000 2208921074 2208921074 -3.00000000
8.34925175 3.12664104 2.05830216 56 13 6947 9.15000000 2208921076 2208921076 13.00000000
8.18981743 3.06530619 -0.15263875 14 14 6948 8.74600000 2208921079 2208921079 -1.00000000
7.28052425 2.72497344 2.08297563 42 15 6948 8.04800000 2208921081 2208921081 15.00000000
2.12700748 0.79271775 -0.60822475 4 0 6956 2.35000000 2208921102 2208921102 -15.00000000
8.18337917 3.04824972 0.15242931 12 1 6957 8.73400000 2208921104 2208921104 1.00000000
2.51479006 0.93624139 -0.61951518 4 2 6958 2.75400000 2208921106 2208921106 -13.00000000
8.19131851 3.04795146 0.45804429 10 3 6959 8.75200000 2208921109 2208921109 3.00000000
3.01024580 1.12009847 -0.62432700 5 4 6959 3.27200000 2208921111 2208921111 -11.00000000
8.18494892 3.04395509 0.76400727 78 5 6960 8.76600000 2208921113 2208921113 5.00000000
3.78653240 1.40744662 -0.63981694 4 6 6961 4.09000000 2208921115 2208921115 -9.00000000
8.19510746 3.04447722 1.07342517 90 7 6962 8.80800000 2208921118 2208921118 7.00000000
5.11017799 1.89741290 -0.66930646 6 8 6963 5.49200000 2208921120 2208921120 -7.00000000
8.28145218 3.07490945 1.39914989 2 9 6963 8.94400000 2208921122 2208921122 9.00000000
7.86579037 2.91901207 -0.73402566 13 10 6964 8.42200000 2208921125 2208921125 -5.00000000
8.23169708 3.05316639 1.70659566 9 11 6965 8.94400000 2208921127 2208921127 11.00000000
8.18192673 3.03308201 -0.45731160 17 12 6966 8.73800000 2208921129 2208921129 -3.00000000
8.26509285 3.06227136 2.03490734 40 13 6967 9.04600000 2208921132 2208921132 13.00000000
8.18171501 3.02975559 -0.15228970 14 14 6968 8.72600000 2208921134 2208921134 -1.00000000
7.28999186 2.69954324 2.08297563 42 15 6968 8.04800000 2208921136 2208921136 15.00000000
2.12599969 0.78432268 -0.60718948 4 0 6975 2.34600000 2208921157 2208921157 -15.00000000
8.19156647 3.02040410 0.15239441 12 1 6976 8.73200000 2208921159 2208921159 1.00000000
2.51605248 0.92722303 -0.61906528 10 2 6977 2.75200000 2208921162 2208921162 -13.00000000
8.18826103 3.01593900 0.45731160 10 3 6978 8.73800000 2208921164 2208921164 3.00000000
2.99920535 1.10468149 -0.62127411 5 4 6978 3.25600000 2208921166 2208921166 -11.00000000
8.17817020 3.01060152 0.76243842 78 5 6979 8.74800000 2208921168 2208921168 5.00000000
3.79117894 1.39488220 -0.63981694 4 6 6980 4.09000000 2208921171 2208921171 -9.00000000
8.20515823 3.01728439 1.07342517 95 7 6981 8.80800000 2208921173 2208921173 7.00000000
5.11271524 1.87908697 -0.66881895 6 8 6982 5.48800000 2208921175 2208921175 -7.00000000
7.88477802 2.89634705 -0.73489720 13 10 6983 8.43200000 2208921180 2208921180 -5.00000000
8.17693996 3.00042892 -0.45647421 12 12 6985 8.72200000 2208921185 2208921185 -3.00000000
8.18555260 3.00196862 2.01286197 72 13 6986 8.94800000 2208921187 2208921187 13.00000000
8.16543198 2.99297261 -0.15180103 10 14 6987 8.69800000 2208921189 2208921189 -1.00000000
7.29164839 2.67269444 2.08090520 45 15 6987 8.04000000 2208921191 2208921191 15.00000000
2.12146544 0.77424753 -0.60511893 4 0 6995 2.33800000 2208921212 2208921212 -15.00000000
8.17951584 2.98356891 0.15197556 12 1 6996 8.70800000 2208921215 2208921215 1.00000000
2.51927376 0.91843474 -0.61906528 11 2 6997 2.75200000 2208921217 2208921217 -13.00000000
8.18747902 2.98323584 0.45668355 13 3 6998 8.72600000 2208921219 2208921219 3.00000000
3.01042175 1.09689415 -0.62280059 5 4 6998 3.26400000 2208921221 2208921221 -11.00000000
8.17365265 2.97658181 0.76104397 75 5 6999 8.73200000 2208921224 2208921224 5.00000000
3.79231238 1.38028884 -0.63919121 4 6 7000 4.08600000 2208921226 2208921226 -9.00000000
8.20444679 2.98455310 1.07196271 92 7 7001 8.79600000 2208921228 2208921228 7.00000000
5.13416815 1.86665511 -0.67076886 6 8 7002 5.50400000 2208921231 2208921231 -7.00000000
8.21545696 2.98531127 1.38444507 100 9 7003 8.85000000 2208921233 2208921233 9.00000000
7.87985945 2.86336279 -0.73350275 13 10 7003 8.41600000 2208921235 2208921235 -5.00000000
8.21538258 2.98366117 1.69896328 90 11 7004 8.90400000 2208921238 2208921238 11.00000000
8.17609882 2.96777892 -0.45584619 12 12 7005 8.71000000 2208921240 2208921240 -3.00000000
8.20880508 2.97802949 2.01601124 90 13 7006 8.96200000 2208921242 2208921242 13.00000000
8.16831017 2.96172500 -0.15166141 14 14 7007 8.69000000 2208921244 2208921244 -1.00000000
7.29413033 2.64331841 2.07883453 45 15 7008 8.03200000 2208921247 2208921247 15.00000000
2.12960649 0.76880544 -0.60667187 4 0 7015 2.34400000 2208921268 2208921268 -15.00000000
8.16354656 2.94549727 0.15148689 15 1 7016 8.68000000 2208921270 2208921270 1.00000000
2.51513147 0.90699095 -0.61726570 9 2 7017 2.74400000 2208921272 2208921272 -13.00000000
8.18281174 2.94922042 0.45584619 10 3 7018 8.71000000 2208921274 2208921274 3.00000000
3.02162004 1.08904171 -0.62432700 5 4 7018 3.27200000 2208921277 2208921277 -11.00000000
8.17462063 2.94465637 0.76017237 75 5 7019 8.72200000 2208921279 2208921279 5.00000000
3.80082464 1.36838102 -0.63981694 6 6 7020 4.09000000 2208921281 2208921281 -9.00000000
8.19800472 2.94984722 1.06976914 90 7 7021 8.77800000 2208921284 2208921284 7.00000000
5.15933275 1.85543990 -0.67320627 6 8 7022 5.52400000 2208921286 2208921286 -7.00000000
8.20166111 2.94792962 1.38037777 94 9 7023 8.82400000 2208921288 2208921288 9.00000000
7.91605568 2.84527421 -0.73594308 13 10 7023 8.44400000 2208921291 2208921291 -5.00000000
8.20172787 2.94633722 1.69400227 87 11 7024 8.87800000 2208921293 2208921293 11.00000000
8.16009140 2.92977238 -0.45438078 12 12 7025 8.68200000 2208921295 2208921295 -3.00000000
8.21548176 2.94804072 2.01511145 106 13 7026 8.95800000 2208921297 2208921297 13.00000000
8.16730404 2.92914391 -0.15145199 14 14 7027 8.67800000 2208921300 2208921300 -1.00000000
7.30467415 2.61976790 2.07935214 45 15 7027 8.03400000 2208921302 2208921302 15.00000000
2.13227701 0.76136708 -0.60667187 4 0 7035 2.34400000 2208921323 2208921323 -15.00000000
8.17754555 2.91832757 0.15155670 12 1 7036 8.68400000 2208921325 2208921325 1.00000000
2.51277566 0.89624196 -0.61591601 4 2 7037 2.73800000 2208921327 2208921327 -13.00000000
8.18176842 2.91661525 0.45521814 13 3 7038 8.69800000 2208921330 2208921330 3.00000000
3.03280020 1.08112454 -0.62585348 5 4 7038 3.28000000 2208921332 2208921332 -11.00000000
8.18860340 2.91744089 0.76052099 93 5 7039 8.72600000 2208921334 2208921334 5.00000000
3.79813433 1.35245478 -0.63856548 4 6 7040 4.08200000 2208921337 2208921337 -9.00000000
8.19141960 2.91522264 1.06757545 90 7 7041 8.76000000 2208921339 2208921339 7.00000000
5.14707470 1.83076668 -0.67076886 6 8 7042 5.50400000 2208921341 2208921341 -7.00000000
8.19887257 2.91465092 1.37818766 91 9 7043 8.81000000 2208921344 2208921344 9.00000000
7.94658947 2.82496572 -0.73786050 13 10 7043 8.46600000 2208921346 2208921346 -5.00000000
8.20086288 2.91374612 1.69171250 75 11 7044 8.86600000 2208921348 2208921348 11.00000000
8.15709400 2.89659190 -0.45364806 12 12 7045 8.66800000 2208921350 2208921350 -3.00000000
8.20735741 2.91282773 2.01061249 106 13 7046 8.93800000 2208921353 2208921353 13.00000000
8.17370987 2.89927983 -0.15138218 14 14 7047 8.67400000 2208921355 2208921355 -1.00000000
7.31195354 2.59360814 2.07883453 45 15 7047 8.03200000 2208921357 2208921357 15.00000000
2.14220810 0.75649250 -0.60874242 4 0 7055 2.35200000 2208921378 2208921378 -15.00000000
8.16882610 2.88310933 0.15120766 12 1 7056 8.66400000 2208921380 2208921380 1.00000000
2.52507758 0.89070660 -0.61816549 4 2 7057 2.74800000 2208921383 2208921383 -13.00000000
8.17632771 2.88415217 0.45438078 13 3 7057 8.68200000 2208921385 2208921385 3.00000000
3.02359462 1.06596220 -0.62318218 5 4 7058 3.26600000 2208921387 2208921387 -11.00000000
8.18370342 2.88354254 0.75912654 75 5 7059 8.71000000 2208921390 2208921390 5.00000000
3.81773782 1.34443772 -0.64106846 4 6 7060 4.09800000 2208921392 2208921392 -9.00000000
8.19405556 2.88397527 1.06660044 90 7 7061 8.75200000 2208921394 2208921394 7.00000000
5.13470793 1.80620170 -0.66833150 6 8 7062 5.48400000 2208921396 2208921396 -7.00000000
8.20103931 2.88482428 1.37693620 86 9 7062 8.80200000 2208921399 2208921399 9.00000000
7.99211502 2.80976510 -0.74117243 13 10 7063 8.50400000 2208921401 2208921401 -5.00000000
8.20727921 2.88380051 1.69094932 84 11 7064 8.86200000 2208921403 2208921403 11.00000000
8.16527081 2.86743903 -0.45354339 12 12 7065 8.66600000 2208921406 2208921406 -3.00000000
8.19540977 2.87641644 2.00521374 108 13 7066 8.91400000 2208921408 2208921408 13.00000000
8.16302395 2.86344957 -0.15099822 14 14 7067 8.65200000 2208921410 2208921410 -1.00000000
7.32643127 2.56998706 2.08038759 45 15 7067 8.03800000 2208921413 2208921413 15.00000000
2.13389277 0.74518871 -0.60563654 4 0 7075 2.34000000 2208921433 2208921433 -15.00000000
8.17506409 2.85325933 0.15113784 12 1 7076 8.66000000 2208921436 2208921436 1.00000000
2.52817154 0.88188696 -0.61816549 4 2 7077 2.74800000 2208921438 2208921438 -13.00000000
8.17741394 2.85087776 0.45385742 13 3 7078 8.67200000 2208921440 2208921440 3.00000000
3.03100467 1.05669403 -0.62394542 5 4 7078 3.27000000 2208921443 2208921443 -11.00000000
8.17490482 2.84840298 0.75738341 75 5 7079 8.69000000 2208921445 2208921445 5.00000000
3.82240748 1.33110321 -0.64106846 4 6 7080 4.09800000 2208921447 2208921447 -9.00000000
8.20407295 2.85535502 1.06660044 90 7 7081 8.75200000 2208921449 2208921449 7.00000000
5.15223074 1.79218030 -0.66979390 6 8 7082 5.49600000 2208921452 2208921452 -7.00000000
8.19476509 2.84890866 1.37412035 81 9 7083 8.78400000 2208921454 2208921454 9.00000000
8.00375557 2.78250456 -0.74134678 13 10 7083 8.50600000 2208921456 2208921456 -5.00000000
8.21729565 2.85513425 1.69094932 87 11 7084 8.86200000 2208921459 2208921459 11.00000000
8.16013622 2.83367801 -0.45270601 12 12 7085 8.65000000 2208921461 2208921461 -3.00000000
8.19067192 2.84267998 2.00161457 106 13 7086 8.89800000 2208921463 2208921463 13.00000000
8.16163349 2.83100581 -0.15078880 12 14 7087 8.64000000 2208921466 2208921466 -1.00000000
7.32850075 2.54058599 2.07831693 45 15 7088 8.03000000 2208921468 2208921468 15.00000000
2.13817811 0.73873919 -0.60615420 4 0 7094 2.34200000 2208921489 2208921489 -15.00000000
8.16935921 2.82091260 0.15085860 12 1 7095 8.64400000 2208921491 2208921491 1.00000000
2.54029250 0.87667710 -0.62041503 3 2 7096 2.75800000 2208921493 2208921493 -13.00000000
8.18632984 2.82517362 0.45385742 13 3 7096 8.67200000 2208921496 2208921496 3.00000000
3.02335644 1.04279613 -0.62165570 5 4 7097 3.25800000 2208921498 2208921498 -11.00000000
8.17488766 2.81803179 0.75651187 78 5 7098 8.68000000 2208921500 2208921500 5.00000000
3.81932998 1.31584644 -0.63981694 4 6 7099 4.09000000 2208921502 2208921502 -9.00000000
8.20223522 2.82425594 1.06513810 95 7 7100 8.74000000 2208921505 2208921505 7.00000000
5.15063715 1.77250123 -0.66881895 6 8 7101 5.48800000 2208921507 2208921507 -7.00000000
8.19856262 2.81979084 1.37318170 86 9 7102 8.77800000 2208921509 2208921509 9.00000000
8.00163460 2.75205994 -0.74030089 13 10 7102 8.49400000 2208921512 2208921512 -5.00000000
8.20443821 2.82021046 1.68636990 78 11 7103 8.83800000 2208921514 2208921514 11.00000000
8.16193295 2.80400658 -0.45228735 12 12 7104 8.64200000 2208921516 2208921516 -3.00000000
8.20005417 2.81550312 2.00161457 104 13 7105 8.89800000 2208921519 2208921519 13.00000000
8.16341114 2.80132914 -0.15064918 14 14 7106 8.63200000 2208921521 2208921521 -1.00000000
7.32913685 2.51504230 2.07624626 45 15 7106 8.02200000 2208921523 2208921523 15.00000000
2.14622808 0.73314452 -0.60770714 4 0 7114 2.34800000 2208921544 2208921544 -15.00000000
8.16023159 2.78591824 0.15050955 12 1 7115 8.62400000 2208921546 2208921546 1.00000000
2.53595996 0.86528724 -0.61861539 3 2 7116 2.75000000 2208921548 2208921548 -13.00000000
8.19236088 2.79529071 0.45364806 15 3 7116 8.66800000 2208921551 2208921551 3.00000000
3.03441072 1.03477097 -0.62318218 5 4 7117 3.26600000 2208921553 2208921553 -11.00000000
8.17713070 2.78690791 0.75581461 78 5 7118 8.67200000 2208921555 2208921555 5.00000000
3.81268072 1.29868495 -0.63793975 4 6 7119 4.07800000 2208921558 2208921558 -9.00000000
8.19325161 2.78921032 1.06270063 95 7 7120 8.72000000 2208921560 2208921560 7.00000000
5.16431046 1.75706887 -0.66979390 6 8 7121 5.49600000 2208921562 2208921562 -7.00000000
8.20461559 2.78988338 1.37255597 84 9 7122 8.77400000 2208921565 2208921565 9.00000000
8.04891872 2.73694062 -0.74378711 13 10 7122 8.53400000 2208921567 2208921567 -5.00000000
8.19564438 2.78523731 1.68255377 78 11 7123 8.81800000 2208921569 2208921569 11.00000000
8.15843296 2.77100277 -0.45155463 12 12 7124 8.62800000 2208921572 2208921572 -3.00000000
8.20245075 2.78435683 1.99981487 104 13 7125 8.89000000 2208921574 2208921574 13.00000000
8.17313957 2.77281642 -0.15064918 14 14 7126 8.63200000 2208921576 2208921576 -1.00000000
7.33787155 2.48944354 2.07624626 45 15 7126 8.02200000 2208921578 2208921578 15.00000000
2.14877415 0.72564834 -0.60770714 4 0 7134 2.34800000 2208921599 2208921599 -15.00000000
8.16232777 2.75485897 0.15036993 12 1 7135 8.61600000 2208921601 2208921601 1.00000000
2.52419281 0.85144699 -0.61501616 3 2 7136 2.73400000 2208921604 2208921604 -13.00000000
8.18362522 2.75886512 0.45260134 13 3 7137 8.64800000 2208921606 2208921606 3.00000000
3.05288744 1.02918994 -0.62623513 5 4 7137 3.28200000 2208921608 2208921608 -11.00000000
8.18114471 2.75643897 0.75529164 78 5 7138 8.66600000 2208921611 2208921611 5.00000000
3.82467914 1.28788996 -0.63919121 4 6 7139 4.08600000 2208921613 2208921613 -9.00000000
8.18036079 2.75299573 1.05977583 95 7 7140 8.69600000 2208921615 2208921615 7.00000000
5.17041206 1.73903143 -0.66979390 6 8 7141 5.49600000 2208921618 2208921618 -7.00000000
8.20633316 2.76014161 1.37130451 86 9 7141 8.76600000 2208921620 2208921620 9.00000000
8.06597805 2.71136737 -0.74448436 13 10 7142 8.54200000 2208921622 2208921622 -5.00000000
8.19787312 2.75411129 1.68102729 78 11 7143 8.81000000 2208921625 2208921625 11.00000000
8.16616249 2.74187207 -0.45144996 12 12 7144 8.62600000 2208921627 2208921627 -3.00000000
8.19364452 2.74950838 1.99531591 103 13 7145 8.87000000 2208921629 2208921629 13.00000000
8.17139339 2.74045491 -0.15043974 12 14 7146 8.62000000 2208921631 2208921631 -1.00000000
7.33961964 2.46007633 2.07417583 45 15 7147 8.01400000 2208921634 2208921634 15.00000000
2.15495896 0.71936673 -0.60874242 4 0 7154 2.35200000 2208921654 2208921654 -15.00000000
8.17189407 2.72635031 0.15036993 12 1 7155 8.61600000 2208921657 2208921657 1.00000000
2.53084683 0.84386355 -0.61591601 4 2 7156 2.73800000 2208921659 2208921659 -13.00000000
8.17567635 2.72602630 0.45165929 13 3 7156 8.63000000 2208921661 2208921661 3.00000000
3.04714847 1.01542377 -0.62432700 5 4 7157 3.27200000 2208921664 2208921664 -11.00000000
8.18693638 2.72660565 0.75494307 78 5 7158 8.66200000 2208921666 2208921666 5.00000000
3.81415725 1.26954067 -0.63668829 4 6 7159 4.07000000 2208921668 2208921668 -9.00000000
8.18992138 2.72442412 1.05977583 95 7 7160 8.69600000 2208921671 2208921671 7.00000000
5.16514874 1.71721506 -0.66833150 6 8 7161 5.48400000 2208921673 2208921673 -7.00000000
8.20139694 2.72506237 1.36880159 91 9 7162 8.75000000 2208921675 2208921675 9.00000000
8.07917404 2.68445182 -0.74483299 13 10 7162 8.54600000 2208921678 2208921678 -5.00000000
8.20370960 2.72424126 1.68026400 78 11 7163 8.80600000 2208921680 2208921680 11.00000000
8.16051865 2.70831728 -0.45061257 17 12 7164 8.61000000 2208921682 2208921682 -3.00000000
8.19209480 2.71720958 1.99261642 101 13 7165 8.85800000 2208921684 2208921684 13.00000000
8.16572475 2.70688105 -0.15016051 14 14 7166 8.60400000 2208921687 2208921687 -1.00000000
7.35916519 2.43808651 2.07728171 45 15 7167 8.02600000 2208921689 2208921689 15.00000000
2.15366364 0.71100539 -0.60770714 4 0 7173 2.34800000 2208921710 2208921710 -15.00000000
8.16569805 2.69422388 0.15009069 12 1 7174 8.60000000 2208921712 2208921712 1.00000000
2.54473567 0.83912796 -0.61861539 4 2 7175 2.75000000 2208921714 2208921714 -13.00000000
8.17898083 2.69702339 0.45134529 13 3 7175 8.62400000 2208921717 2208921717 3.00000000
3.04863453 1.00469899 -0.62394542 5 4 7176 3.27000000 2208921719 2208921719 -11.00000000
8.18457890 2.69570208 0.75389719 79 5 7177 8.65000000 2208921721 2208921721 5.00000000
3.83335686 1.26182652 -0.63919121 4 6 7178 4.08600000 2208921724 2208921724 -9.00000000
8.18382454 2.69228768 1.05782592 97 7 7179 8.68000000 2208921726 2208921726 7.00000000
5.16704321 1.69883740 -0.66784400 9 8 7180 5.48000000 2208921728 2208921728 -7.00000000
8.19115257 2.69311380 1.36567283 91 9 7180 8.73000000 2208921731 2208921731 9.00000000
8.09181786 2.65888929 -0.74518162 17 10 7181 8.55000000 2208921733 2208921733 -5.00000000
8.20523834 2.69457150 1.67873752 84 11 7182 8.79800000 2208921735 2208921735 11.00000000
8.16945457 2.68124104 -0.45061257 12 12 7183 8.61000000 2208921737 2208921737 -3.00000000
8.19365406 2.68759918 1.99081683 101 13 7184 8.85000000 2208921740 2208921740 13.00000000
8.15565395 2.67355847 -0.14981146 12 14 7185 8.58400000 2208921742 2208921742 -1.00000000
7.34885120 2.40765476 2.07210517 45 15 7186 8.00600000 2208921744 2208921744 15.00000000
2.14878607 0.70108652 -0.60563654 4 0 7193 2.34000000 2208921765 2208921765 -15.00000000
8.16364670 2.66198421 0.14988127 12 1 7194 8.58800000 2208921767 2208921767 1.00000000
2.54764915 0.83024007 -0.61861539 4 2 7195 2.75000000 2208921770 2208921770 -13.00000000
8.18454742 2.66721940 0.45113593 13 3 7195 8.62000000 2208921772 2208921772 3.00000000
3.05585647 0.99526709 -0.62470865 5 4 7196 3.27400000 2208921774 2208921774 -11.00000000
8.17120361 2.65971613 0.75180542 90 5 7197 8.62600000 2208921777 2208921777 5.00000000
3.83398104 1.24721575 -0.63856548 6 6 7198 4.08200000 2208921779 2208921779 -9.00000000
8.19317341 2.66370440 1.05782592 97 7 7199 8.68000000 2208921781 2208921781 7.00000000
5.18049335 1.68324435 -0.66881895 9 8 7200 5.48800000 2208921784 2208921784 -7.00000000
8.19110966 2.66145277 1.36410856 94 9 7200 8.72000000 2208921786 2208921786 9.00000000
8.10104942 2.63062739 -0.74518162 17 10 7201 8.55000000 2208921788 2208921788 -5.00000000
8.19591999 2.65985322 1.67492139 84 11 7202 8.77800000 2208921790 2208921790 11.00000000
8.17496490 2.65147567 -0.45040324 12 12 7203 8.60600000 2208921793 2208921793 -3.00000000
8.19927788 2.65777969 1.98991704 92 13 7204 8.84600000 2208921795 2208921795 13.00000000
8.16113281 2.64384103 -0.14974165 12 14 7205 8.58000000 2208921797 2208921797 -1.00000000
7.35353470 2.38079762 2.07106996 47 15 7206 8.00200000 2208921800 2208921800 15.00000000
2.14938164 0.69298875 -0.60511893 4 0 7213 2.33800000 2208921820 2208921820 -15.00000000
8.16527557 2.63101840 0.14974165 12 1 7214 8.58000000 2208921823 2208921823 1.00000000
2.54867673 0.82074469 -0.61816549 4 2 7215 2.74800000 2208921825 2208921825 -13.00000000
8.19570923 2.63924599 0.45124063 13 3 7215 8.62200000 2208921827 2208921827 3.00000000
3.04623008 0.98038387 -0.62203735 5 4 7216 3.26000000 2208921830 2208921830 -11.00000000
8.16526508 2.62629652 0.75041097 76 5 7217 8.61000000 2208921832 2208921832 5.00000000
3.83078885 1.23140693 -0.63731402 4 6 7218 4.07400000 2208921834 2208921834 -9.00000000
8.18730164 2.63023138 1.05587602 97 7 7219 8.66400000 2208921836 2208921836 7.00000000
5.19767809 1.66879189 -0.67028141 6 8 7220 5.50000000 2208921839 2208921839 -7.00000000
8.20034981 2.63284421 1.36410856 94 9 7220 8.72000000 2208921841 2208921841 9.00000000
8.10259438 2.59989858 -0.74448436 17 10 7221 8.54200000 2208921843 2208921843 -5.00000000
8.19393730 2.62763095 1.67263162 87 11 7222 8.76600000 2208921846 2208921846 11.00000000
8.16895485 2.61804700 -0.44956586 12 12 7223 8.59000000 2208921848 2208921848 -3.00000000
8.20108128 2.62676501 1.98811746 90 13 7224 8.83800000 2208921850 2208921850 13.00000000
8.17031097 2.61533737 -0.14974165 12 14 7225 8.58000000 2208921853 2208921853 -1.00000000
7.36138964 2.35639930 2.07106996 45 15 7225 8.00200000 2208921855 2208921855 15.00000000
2.15178752 0.68548179 -0.60511893 4 0 7233 2.33800000 2208921876 2208921876 -15.00000000
8.15916538 2.59764695 0.14946240 12 1 7234 8.56400000 2208921878 2208921878 1.00000000
2.54038429 0.80829799 -0.61546606 4 2 7235 2.73600000 2208921880 2208921880 -13.00000000
8.18203259 2.60335469 0.44998455 13 3 7235 8.59800000 2208921883 2208921883 3.00000000
3.05711746 0.97212428 -0.62356383 5 4 7236 3.26800000 2208921885 2208921885 -11.00000000
8.17058468 2.59657168 0.75006235 76 5 7237 8.60600000 2208921887 2208921887 5.00000000
3.83129859 1.21683156 -0.63668829 6 6 7238 4.07000000 2208921889 2208921889 -9.00000000
8.17751217 2.59563065 1.05343866 95 7 7239 8.64400000 2208921892 2208921892 7.00000000
5.17319679 1.64103472 -0.66638160 6 8 7240 5.46800000 2208921894 2208921894 -7.00000000
8.19442654 2.59942532 1.36160553 94 9 7240 8.70400000 2208921896 2208921896 9.00000000
8.10402298 2.56919098 -0.74378711 13 10 7241 8.53400000 2208921899 2208921899 -5.00000000
8.18995857 2.59486175 1.66996038 90 11 7242 8.75200000 2208921901 2208921901 11.00000000
8.16661930 2.58589864 -0.44893783 12 12 7243 8.57800000 2208921903 2208921903 -3.00000000
8.19905281 2.59459424 1.98541796 92 13 7244 8.82600000 2208921906 2208921906 13.00000000
8.17176437 2.58438969 -0.14960203 14 14 7245 8.57200000 2208921908 2208921908 -1.00000000
7.37734461 2.33173156 2.07314062 47 15 7246 8.01000000 2208921910 2208921910 15.00000000
2.16498566 0.68220198 -0.60822475 4 0 7251 2.35000000 2208921931 2208921931 -15.00000000
8.17110062 2.57320285 0.14953221 12 1 7252 8.56800000 2208921933 2208921933 1.00000000
2.55406404 0.80382329 -0.61816549 4 2 7253 2.74800000 2208921936 2208921936 -13.00000000
8.17537880 2.57141352 0.44914716 13 3 7254 8.58200000 2208921938 2208921938 3.00000000
3.05641079 0.96133721 -0.62280059 5 4 7254 3.26400000 2208921940 2208921940 -11.00000000
8.17109966 2.56850028 0.74936509 76 5 7255 8.59800000 2208921942 2208921942 5.00000000
3.82379508 1.20123708 -0.63481104 6 6 7256 4.05800000 2208921945 2208921945 -9.00000000
8.17615604 2.56695437 1.05221987 99 7 7257 8.63400000 2208921947 2208921947 7.00000000
5.18590307 1.62715173 -0.66735655 6 8 7258 5.47600000 2208921949 2208921949 -7.00000000
8.19124413 2.57012081 1.35972834 97 9 7258 8.69200000 2208921952 2208921952 9.00000000
6.65770245 2.08767366 -0.61043882 8 10 7259 7.00400000 2208921954 2208921954 -5.00000000
8.19994354 2.56970668 1.67034197 93 11 7260 8.75400000 2208921956 2208921956 11.00000000
8.16707897 2.55784202 -0.44851914 12 12 7261 8.57000000 2208921959 2208921959 -3.00000000
8.18856621 2.56300235 1.98091900 103 13 7262 8.80600000 2208921961 2208921961 13.00000000
8.16457558 2.55392861 -0.14932279 12 14 7263 8.55600000 2208921963 2208921963 -1.00000000
7.40635586 2.31675315 2.07935214 45 15 7263 8.03400000 2208921966 2208921966 15.00000000
2.15628648 0.67119563 -0.60511893 4 0 7271 2.33800000 2208921986 2208921986 -15.00000000
8.17621422 2.54347658 0.14946240 12 1 7272 8.56400000 2208921989 2208921989 1.00000000
2.55313253 0.79374599 -0.61726570 4 2 7273 2.74400000 2208921991 2208921991 -13.00000000
8.17476845 2.53989744 0.44862381 13 3 7274 8.57200000 2208921993 2208921993 3.00000000
3.05974770 0.95066249 -0.62280059 5 4 7274 3.26400000 2208921995 2208921995 -11.00000000
8.17050171 2.53700805 0.74849349 76 5 7275 8.58800000 2208921998 2208921998 5.00000000
3.83173800 1.18905306 -0.63543677 6 6 7276 4.06200000 2208922000 2208922000 -9.00000000
8.17748260 2.53604650 1.05124497 100 7 7277 8.62600000 2208922002 2208922002 7.00000000
5.19534349 1.61021495 -0.66784400 9 8 7278 5.48000000 2208922005 2208922005 -7.00000000
8.18551350 2.53540540 1.35722542 99 9 7279 8.67600000 2208922007 2208922007 9.00000000
6.66304588 2.06383157 -0.61026454 12 10 7279 7.00200000 2208922009 2208922009 -5.00000000
8.20511341 2.53990674 1.66957867 93 11 7280 8.75000000 2208922012 2208922012 11.00000000
