# .PCD v0.7 - Point Cloud Data file format
VERSION 0.7
FIELDS x y z intensity laser_id azimuth distance_m adjustedtime timestamp vertical_angle
SIZE 4 4 4 1 1 2 8 8 4 8
TYPE F F F U U U F U U F
COUNT 1 1 1 1 1 1 1 1 1 1
WIDTH 527
HEIGHT 1
VIEWPOINT 0 0 0 1 0 0 0
POINTS 527
DATA ascii
-2.59115815 0.63597000 -0.51861882 3 4 28379 2.71800000 2209880388 2209880388 -11.00000000
-2.28896022 0.56222254 0.20621049 66 5 28380 2.36600000 2209880390 2209880390 5.00000000
-3.09801221 0.76151812 -0.50528330 3 6 28381 3.23000000 2209880392 2209880392 -9.00000000
-2.28423643 0.56190783 0.28883034 60 7 28382 2.37000000 2209880395 2209880395 7.00000000
-3.93411517 0.96849585 -0.49747065 4 8 28383 4.08200000 2209880397 2209880397 -7.00000000
-2.26902556 0.55900604 0.37012395 61 9 28384 2.36600000 2209880399 2209880399 9.00000000
-5.20586157 1.28253651 -0.46907219 9 10 28384 5.38200000 2209880401 2209880401 -5.00000000
-2.25881648 0.55690908 0.45221731 68 11 28385 2.37000000 2209880404 2209880404 11.00000000
-4.09539366 1.01047373 -0.22106709 10 12 28386 4.22400000 2209880406 2209880406 -3.00000000
-2.27976251 0.56291753 0.54213202 71 13 28387 2.41000000 2209880408 2209880408 13.00000000
-4.03014898 0.99586821 -0.07246239 100 14 28388 4.15200000 2209880411 2209880411 -1.00000000
-2.25793481 0.55836421 0.62323624 70 15 28389 2.40800000 2209880413 2209880413 15.00000000
-1.92362130 0.47782999 -0.53109670 4 0 28395 2.05200000 2209880434 2209880434 -15.00000000
-2.48206973 0.61700928 0.04464326 23 1 28396 2.55800000 2209880436 2209880436 1.00000000
-4.03560925 1.00394630 -0.96009111 16 2 28397 4.26800000 2209880438 2209880438 -13.00000000
-2.35479212 0.58624262 0.12717637 55 3 28398 2.43000000 2209880441 2209880441 3.00000000
-2.60427570 0.64835340 -0.52167177 3 4 28398 2.73400000 2209880443 2209880443 -11.00000000
-2.29094982 0.57077324 0.20655911 66 5 28399 2.37000000 2209880445 2209880445 5.00000000
-3.10697007 0.77465463 -0.50716054 4 6 28400 3.24200000 2209880448 2209880448 -9.00000000
-2.27850866 0.56851840 0.28834286 62 7 28401 2.36600000 2209880450 2209880450 7.00000000
-3.93473387 0.98249835 -0.49795812 4 8 28402 4.08600000 2209880452 2209880452 -7.00000000
-2.27492428 0.56804585 0.37137541 58 9 28402 2.37400000 2209880454 2209880454 9.00000000
-5.23444033 1.30800402 -0.47203550 10 10 28403 5.41600000 2209880457 2209880457 -5.00000000
-2.25886178 0.56487280 0.45259893 72 11 28404 2.37200000 2209880459 2209880459 11.00000000
-4.09589529 1.02501869 -0.22127642 6 12 28405 4.22800000 2209880461 2209880461 -3.00000000
-2.27032185 0.56858075 0.54033244 71 13 28406 2.40200000 2209880464 2209880464 13.00000000
-4.02682447 1.00922716 -0.07246239 100 14 28407 4.15200000 2209880466 2209880466 -1.00000000
-2.25429583 0.56498528 0.62271863 75 15 28407 2.40600000 2209880468 2209880468 15.00000000
-1.92006838 0.48406953 -0.53057903 4 0 28415 2.05000000 2209880489 2209880489 -15.00000000
-2.42173290 0.61099398 0.04359611 20 1 28416 2.49800000 2209880491 2209880491 1.00000000
-4.03585911 1.01898110 -0.96099091 17 2 28417 4.27200000 2209880494 2209880494 -13.00000000
-2.33917665 0.59103394 0.12644367 60 3 28418 2.41600000 2209880496 2209880496 3.00000000
-2.58676934 0.65359259 -0.51861882 3 4 28418 2.71800000 2209880498 2209880498 -11.00000000
-2.29666996 0.58072037 0.20725636 69 5 28419 2.37800000 2209880501 2209880501 5.00000000
-3.10424709 0.78549522 -0.50716054 3 6 28420 3.24200000 2209880503 2209880503 -9.00000000
-2.27843451 0.57695574 0.28858662 59 7 28421 2.36800000 2209880505 2209880505 7.00000000
-3.91203761 0.99135083 -0.49552074 4 8 28422 4.06600000 2209880507 2209880507 -7.00000000
-2.26708269 0.57492334 0.37043682 63 9 28423 2.36800000 2209880510 2209880510 9.00000000
-5.21632385 1.32283938 -0.47081533 10 10 28423 5.40200000 2209880512 2209880512 -5.00000000
-2.26068211 0.57372016 0.45336217 72 11 28424 2.37600000 2209880514 2209880514 11.00000000
-4.09229231 1.03930986 -0.22127642 6 12 28425 4.22800000 2209880517 2209880517 -3.00000000
-2.26076841 0.57458210 0.53853285 75 13 28426 2.39400000 2209880519 2209880519 13.00000000
-4.02327681 1.02327728 -0.07246239 100 14 28427 4.15200000 2209880521 2209880521 -1.00000000
-2.25782633 0.57467341 0.62427151 60 15 28428 2.41200000 2209880524 2209880524 15.00000000
-1.91462386 0.48981127 -0.52954376 4 0 28435 2.04600000 2209880544 2209880544 -15.00000000
-2.41764808 0.61894774 0.04356121 36 1 28436 2.49600000 2209880547 2209880547 1.00000000
-4.03038979 1.03257906 -0.96054101 13 2 28437 4.27000000 2209880549 2209880549 -13.00000000
-2.33322978 0.59820354 0.12623432 58 3 28438 2.41200000 2209880551 2209880551 3.00000000
-2.58066845 0.66164297 -0.51785558 3 4 28438 2.71400000 2209880554 2209880554 -11.00000000
-2.28111959 0.58526760 0.20603618 64 5 28439 2.36400000 2209880556 2209880556 5.00000000
-3.12827253 0.80320388 -0.51154071 3 6 28440 3.27000000 2209880558 2209880558 -9.00000000
-2.27640676 0.58490545 0.28858662 59 7 28441 2.36800000 2209880560 2209880560 7.00000000
-3.90663075 1.00450599 -0.49527702 4 8 28442 4.06400000 2209880563 2209880563 -7.00000000
-2.25751114 0.58047038 0.36918533 65 9 28442 2.36000000 2209880565 2209880565 9.00000000
-5.20781517 1.34004664 -0.47046670 10 10 28443 5.39800000 2209880567 2209880567 -5.00000000
-2.27957940 0.58699316 0.45755997 78 11 28444 2.39800000 2209880570 2209880570 11.00000000
-4.09637594 1.05558181 -0.22169511 6 12 28445 4.23600000 2209880572 2209880572 -3.00000000
-2.26629710 0.58441657 0.54033244 73 13 28446 2.40200000 2209880574 2209880574 13.00000000
-4.01580811 1.03631556 -0.07239258 100 14 28447 4.14800000 2209880577 2209880577 -1.00000000
-2.25590825 0.58215749 0.62427151 47 15 28447 2.41200000 2209880579 2209880579 15.00000000
-1.90355289 0.49406493 -0.52695560 4 0 28455 2.03600000 2209880600 2209880600 -15.00000000
-2.40192437 0.62386417 0.04331687 33 1 28456 2.48200000 2209880602 2209880602 1.00000000
-4.04184914 1.05056334 -0.96414024 5 2 28457 4.28600000 2209880604 2209880604 -13.00000000
-2.33112741 0.60634440 0.12623432 56 3 28458 2.41200000 2209880607 2209880607 3.00000000
-2.58974338 0.67361242 -0.52014530 3 4 28458 2.72600000 2209880609 2209880609 -11.00000000
-2.27135015 0.59121913 0.20533893 62 5 28459 2.35600000 2209880611 2209880611 5.00000000
-3.10633397 0.80913937 -0.50841200 3 6 28460 3.25000000 2209880613 2209880613 -9.00000000
-2.27819300 0.59384942 0.28907409 57 7 28461 2.37200000 2209880616 2209880616 7.00000000
-3.90886307 1.01963973 -0.49600822 4 8 28462 4.07000000 2209880618 2209880618 -7.00000000
-2.25738263 0.58884561 0.36949819 61 9 28462 2.36200000 2209880620 2209880620 9.00000000
-5.20696163 1.35922360 -0.47081533 10 10 28463 5.40200000 2209880623 2209880623 -5.00000000
-2.27181792 0.59345818 0.45641512 73 11 28464 2.39200000 2209880625 2209880625 11.00000000
-4.10812473 1.07391548 -0.22253248 6 12 28465 4.25200000 2209880627 2209880627 -3.00000000
-2.27555490 0.59528303 0.54303187 69 13 28466 2.41400000 2209880630 2209880630 13.00000000
-4.01216602 1.05032706 -0.07239258 100 14 28467 4.14800000 2209880632 2209880632 -1.00000000
-2.25946903 0.59149629 0.62582445 48 15 28467 2.41800000 2209880634 2209880634 15.00000000
-1.91480601 0.50448370 -0.53057903 4 0 28476 2.05000000 2209880655 2209880655 -15.00000000
-2.37641835 0.62654585 0.04289801 21 1 28477 2.45800000 2209880657 2209880657 1.00000000
-4.04362440 1.06686175 -0.96548992 5 2 28478 4.29200000 2209880660 2209880660 -13.00000000
-2.33275175 0.61590403 0.12644367 58 3 28479 2.41600000 2209880662 2209880662 3.00000000
-2.59105349 0.68410212 -0.52090853 3 4 28479 2.73000000 2209880664 2209880664 -11.00000000
-2.27879953 0.60208482 0.20621049 66 5 28480 2.36600000 2209880666 2209880666 5.00000000
-3.10334754 0.82051921 -0.50841200 3 6 28481 3.25000000 2209880669 2209880669 -9.00000000
-2.27408195 0.60168767 0.28883034 60 7 28482 2.37000000 2209880671 2209880671 7.00000000
-3.91277552 1.03599191 -0.49698317 4 8 28483 4.07800000 2209880673 2209880673 -7.00000000
-2.26656175 0.60054457 0.37137541 56 9 28484 2.37400000 2209880676 2209880676 9.00000000
-5.20579672 1.37931955 -0.47116396 10 10 28484 5.40600000 2209880678 2209880678 -5.00000000
-2.24685526 0.59574288 0.45183569 63 11 28485 2.36800000 2209880680 2209880680 11.00000000
-4.10030031 1.08794081 -0.22232315 6 12 28486 4.24800000 2209880683 2209880683 -3.00000000
-2.26959085 0.60261917 0.54213202 73 13 28487 2.41000000 2209880685 2209880685 13.00000000
-4.02375078 1.06913340 -0.07267182 100 14 28488 4.16400000 2209880687 2209880687 -1.00000000
-2.24981761 0.59778929 0.62375391 55 15 28488 2.41000000 2209880689 2209880689 15.00000000
-1.91303337 0.51116455 -0.53057903 4 0 28496 2.05000000 2209880710 2209880710 -15.00000000
-2.34910297 0.62812215 0.04244425 19 1 28497 2.43200000 2209880713 2209880713 1.00000000
-4.02669811 1.07744420 -0.96234059 5 2 28498 4.27800000 2209880715 2209880715 -13.00000000
-2.31515312 0.61991036 0.12560630 58 3 28499 2.40000000 2209880717 2209880717 3.00000000
-2.59244275 0.69415802 -0.52167177 3 4 28499 2.73400000 2209880719 2209880719 -11.00000000
-2.27668405 0.61003560 0.20621049 69 5 28500 2.36600000 2209880722 2209880722 5.00000000
-3.09283257 0.82930052 -0.50716054 3 6 28501 3.24200000 2209880724 2209880724 -9.00000000
-2.26813340 0.60859317 0.28834286 60 7 28502 2.36600000 2209880726 2209880726 7.00000000
-3.90913534 1.04964375 -0.49698317 8 8 28503 4.07800000 2209880729 2209880729 -7.00000000
-2.26445174 0.60845274 0.37137541 56 9 28504 2.37400000 2209880731 2209880731 9.00000000
-5.19325352 1.39541471 -0.47046670 10 10 28504 5.39800000 2209880733 2209880733 -5.00000000
-2.25803351 0.60715073 0.45450702 56 11 28505 2.38200000 2209880736 2209880736 11.00000000
-4.08876276 1.10017121 -0.22190446 6 12 28506 4.24000000 2209880738 2209880738 -3.00000000
-2.26371002 0.60952449 0.54123223 71 13 28507 2.40600000 2209880740 2209880740 13.00000000
-4.03157902 1.08629394 -0.07288125 100 14 28508 4.17600000 2209880742 2209880742 -1.00000000
-2.19725013 0.59245217 0.60977769 18 15 28509 2.35600000 2209880745 2209880745 15.00000000
-1.91878664 0.51952517 -0.53264958 4 0 28515 2.05800000 2209880766 2209880766 -15.00000000
-2.36051798 0.63956928 0.04268859 42 1 28516 2.44600000 2209880768 2209880768 1.00000000
-4.03250742 1.09334099 -0.96459013 5 2 28517 4.28800000 2209880770 2209880770 -13.00000000
-2.30151939 0.62444633 0.12497827 58 3 28518 2.38800000 2209880772 2209880772 3.00000000
-2.58254743 0.70069468 -0.52014530 3 4 28518 2.72600000 2209880775 2209880775 -11.00000000
-2.28233957 0.61967021 0.20690773 71 5 28519 2.37400000 2209880777 2209880777 5.00000000
-3.11675310 0.84680313 -0.51154071 3 6 28520 3.27000000 2209880779 2209880779 -9.00000000
-2.26418710 0.61559039 0.28809914 57 7 28521 2.36400000 2209880782 2209880782 7.00000000
-3.90946412 1.06364346 -0.49747065 4 8 28522 4.08200000 2209880784 2209880784 -7.00000000
-2.26813960 0.61751533 0.37231404 44 9 28523 2.38000000 2209880786 2209880786 9.00000000
-5.20782185 1.41786242 -0.47220981 10 10 28523 5.41800000 2209880789 2209880789 -5.00000000
-2.26737309 0.61773169 0.45679674 49 11 28524 2.39400000 2209880791 2209880791 11.00000000
-4.09279966 1.11582530 -0.22232315 6 12 28525 4.24800000 2209880793 2209880793 -3.00000000
-2.25791645 0.61600202 0.54033244 63 13 28526 2.40200000 2209880795 2209880795 13.00000000
-2.17115045 0.59273785 0.60304838 25 15 28527 2.33000000 2209880800 2209880800 15.00000000
-1.91696143 0.52621979 -0.53264958 4 0 28535 2.05800000 2209880821 2209880821 -15.00000000
-2.34091663 0.64303792 0.04237444 51 1 28536 2.42800000 2209880823 2209880823 1.00000000
-4.02866650 1.10741043 -0.96459013 5 2 28537 4.28800000 2209880825 2209880825 -13.00000000
-2.29932547 0.63247633 0.12497827 60 3 28538 2.38800000 2209880828 2209880828 3.00000000
-2.58008599 0.70970523 -0.52014530 3 4 28538 2.72600000 2209880830 2209880830 -11.00000000
-2.27247882 0.62551826 0.20621049 66 5 28539 2.36600000 2209880832 2209880832 5.00000000
-3.11758733 0.85872662 -0.51216644 3 6 28540 3.27400000 2209880835 2209880835 -9.00000000
-2.26776576 0.62507260 0.28883034 53 7 28541 2.37000000 2209880837 2209880837 7.00000000
-3.90190029 1.07622790 -0.49698317 6 8 28542 4.07800000 2209880839 2209880839 -7.00000000
-2.26025772 0.62385213 0.37137541 46 9 28543 2.37400000 2209880842 2209880842 9.00000000
-5.20284081 1.43603241 -0.47220981 10 10 28543 5.41800000 2209880844 2209880844 -5.00000000
-2.28791165 0.63191468 0.46137616 47 11 28544 2.41800000 2209880846 2209880846 11.00000000
-4.10813093 1.13542569 -0.22336987 6 12 28545 4.26800000 2209880848 2209880848 -3.00000000
-2.26702166 0.62699670 0.54303187 50 13 28546 2.41400000 2209880851 2209880851 13.00000000
-2.36858654 0.65553176 -0.04289801 24 14 28547 2.45800000 2209880853 2209880853 -1.00000000
-2.15417337 0.59619063 0.59890729 39 15 28547 2.31400000 2209880855 2209880855 15.00000000
-1.90208495 0.52928281 -0.52902615 4 0 28555 2.04400000 2209880876 2209880876 -15.00000000
-2.32709932 0.64798689 0.04216501 48 1 28556 2.41600000 2209880878 2209880878 1.00000000
-4.03979397 1.12565100 -0.96818936 5 2 28557 4.30400000 2209880881 2209880881 -13.00000000
-2.31068325 0.64385039 0.12571096 70 3 28557 2.40200000 2209880883 2209880883 3.00000000
-2.58137512 0.71976167 -0.52090853 3 4 28558 2.73000000 2209880885 2209880885 -11.00000000
-2.26644325 0.63237596 0.20586187 66 5 28559 2.36200000 2209880888 2209880888 5.00000000
-3.11837602 0.87066621 -0.51279217 3 6 28560 3.27800000 2209880890 2209880890 -9.00000000
-2.27321744 0.63512141 0.28980529 53 7 28561 2.37800000 2209880892 2209880892 7.00000000
-3.92679644 1.09785903 -0.50063926 6 8 28562 4.10800000 2209880894 2209880894 -7.00000000
-2.27339578 0.63559902 0.37387836 43 9 28562 2.39000000 2209880897 2209880897 9.00000000
-5.20547152 1.45633221 -0.47290707 6 10 28563 5.42600000 2209880899 2209880899 -5.00000000
-2.27245808 0.63619214 0.45870483 57 11 28564 2.40400000 2209880901 2209880901 11.00000000
-2.43863750 0.68317443 -0.13272399 1 12 28565 2.53600000 2209880904 2209880904 -3.00000000
-2.28921247 0.64174449 0.54888058 46 13 28566 2.44000000 2209880906 2209880906 13.00000000
-2.36628389 0.66379571 -0.04289801 53 14 28567 2.45800000 2209880908 2209880908 -1.00000000
-2.13719869 0.59953219 0.59476614 42 15 28567 2.29800000 2209880911 2209880911 15.00000000
-1.91324103 0.53958976 -0.53264958 4 0 28575 2.05800000 2209880931 2209880931 -15.00000000
-2.31327605 0.65284723 0.04195559 47 1 28576 2.40400000 2209880934 2209880934 1.00000000
-2.21296072 0.62495345 -0.53088450 4 2 28577 2.36000000 2209880936 2209880936 -13.00000000
-2.29485416 0.64851314 0.12497827 57 3 28578 2.38800000 2209880938 2209880938 3.00000000
-2.58640409 0.73090357 -0.52243501 3 4 28578 2.73800000 2209880941 2209880941 -11.00000000
-2.26038766 0.63919920 0.20551324 66 5 28579 2.35800000 2209880943 2209880943 5.00000000
-3.10391331 0.87831891 -0.51091498 3 6 28580 3.26600000 2209880945 2209880945 -9.00000000
-2.27289653 0.64359337 0.29004905 57 7 28581 2.38000000 2209880947 2209880947 7.00000000
-3.92675996 1.11264169 -0.50112677 6 8 28582 4.11200000 2209880950 2209880950 -7.00000000
-2.28245378 0.64716029 0.37575558 40 9 28583 2.40200000 2209880952 2209880952 9.00000000
-2.27022338 0.64412063 0.45870483 61 11 28584 2.40400000 2209880957 2209880957 11.00000000
-2.37283421 0.67368150 -0.12926981 6 12 28585 2.47000000 2209880959 2209880959 -3.00000000
-2.29820585 0.65292686 0.55158001 43 13 28586 2.45200000 2209880961 2209880961 13.00000000
-2.36202884 0.67150468 -0.04286311 57 14 28587 2.45600000 2209880964 2209880964 -1.00000000
-2.13127065 0.60630417 0.59373087 39 15 28588 2.29400000 2209880966 2209880966 15.00000000
-1.91320336 0.54679585 -0.53316724 4 0 28595 2.06000000 2209880987 2209880987 -15.00000000
-2.30713797 0.65981835 0.04188577 51 1 28596 2.40000000 2209880989 2209880989 1.00000000
-2.18828321 0.62624031 -0.52548563 4 2 28597 2.33600000 2209880991 2209880991 -13.00000000
-2.30037165 0.65831763 0.12539695 73 3 28597 2.39600000 2209880994 2209880994 3.00000000
-2.59516120 0.74317026 -0.52472472 3 4 28598 2.75000000 2209880996 2209880996 -11.00000000
-2.26963449 0.65037858 0.20655911 69 5 28599 2.37000000 2209880998 2209880998 5.00000000
-3.08943534 0.88588130 -0.50903773 3 6 28600 3.25400000 2209881000 2209881000 -9.00000000
-2.25537133 0.64714336 0.28809914 57 7 28601 2.36400000 2209881003 2209881003 7.00000000
-3.89614034 1.11867225 -0.49771440 2 8 28602 4.08400000 2209881005 2209881005 -7.00000000
-2.28397799 0.65621459 0.37638134 41 9 28603 2.40600000 2209881007 2209881007 9.00000000
-2.38407516 0.68497372 -0.21701780 2 10 28603 2.49000000 2209881010 2209881010 -5.00000000
-2.27362180 0.65366864 0.45984969 57 11 28604 2.41000000 2209881012 2209881012 11.00000000
-2.29965806 0.66202331 0.55247980 41 13 28606 2.45600000 2209881017 2209881017 13.00000000
-2.35967040 0.67974561 -0.04286311 54 14 28607 2.45600000 2209881019 2209881019 -1.00000000
-2.13481760 0.61497271 0.59528381 43 15 28607 2.30000000 2209881021 2209881021 15.00000000
-1.91870546 0.55562019 -0.53523779 4 0 28615 2.06800000 2209881042 2209881042 -15.00000000
-2.30866194 0.66898090 0.04195559 49 1 28616 2.40400000 2209881044 2209881044 1.00000000
-2.20854378 0.64038748 -0.53088450 4 2 28617 2.36000000 2209881046 2209881046 -13.00000000
-2.28271365 0.66189373 0.12455957 73 3 28617 2.38000000 2209881049 2209881049 3.00000000
-2.57369637 0.74675381 -0.52090853 3 4 28618 2.73000000 2209881051 2209881051 -11.00000000
-2.27500391 0.66051918 0.20725636 71 5 28619 2.37800000 2209881053 2209881053 5.00000000
-3.09011817 0.89776230 -0.50966346 3 6 28620 3.25800000 2209881056 2209881056 -9.00000000
-2.26644206 0.65889126 0.28980529 53 7 28621 2.37800000 2209881058 2209881058 7.00000000
-2.39975238 0.69810098 -0.30686700 6 8 28622 2.51800000 2209881060 2209881060 -7.00000000
-2.28357005 0.66473526 0.37669420 36 9 28623 2.40800000 2209881063 2209881063 9.00000000
-2.38358259 0.69384837 -0.21719211 17 10 28623 2.49200000 2209881065 2209881065 -5.00000000
-2.28263569 0.66489542 0.46213940 52 11 28624 2.42200000 2209881067 2209881067 11.00000000
-2.36040354 0.68799484 -0.12885113 46 12 28625 2.46200000 2209881070 2209881070 -3.00000000
-2.30481625 0.67222917 0.55427939 38 13 28626 2.46400000 2209881072 2209881072 13.00000000
-2.34960485 0.68573731 -0.04272349 53 14 28627 2.44800000 2209881074 2209881074 -1.00000000
-2.13265777 0.62242085 0.59528381 43 15 28627 2.30000000 2209881076 2209881076 15.00000000
-1.92612147 0.56469733 -0.53782600 5 0 28634 2.07800000 2209881097 2209881097 -15.00000000
-2.31986260 0.68057346 0.04219992 61 1 28635 2.41800000 2209881099 2209881099 1.00000000
-2.21201754 0.64935446 -0.53223419 3 2 28636 2.36600000 2209881102 2209881102 -13.00000000
-2.28805447 0.67210948 0.12497827 76 3 28637 2.38800000 2209881104 2209881104 3.00000000
-2.57120585 0.75528437 -0.52090853 3 4 28637 2.73000000 2209881106 2209881106 -11.00000000
-2.26515508 0.66581231 0.20655911 69 5 28638 2.37000000 2209881109 2209881109 5.00000000
-3.08712411 0.90800458 -0.50966346 3 6 28639 3.25800000 2209881111 2209881111 -9.00000000
-2.27757478 0.67032671 0.29151148 57 7 28640 2.39200000 2209881113 2209881113 7.00000000
-2.28526044 0.67302215 0.37731993 38 9 28641 2.41200000 2209881118 2209881118 9.00000000
-2.36406851 0.69667995 -0.21562330 30 10 28642 2.47400000 2209881120 2209881120 -5.00000000
-2.30678129 0.68023533 0.46748203 42 11 28643 2.45000000 2209881123 2209881123 11.00000000
-2.34661531 0.69242698 -0.12822309 51 12 28644 2.45000000 2209881125 2209881125 -3.00000000
-2.31939530 0.68483508 0.55832851 31 13 28645 2.48200000 2209881127 2209881127 13.00000000
-2.33197594 0.68899226 -0.04244425 47 14 28646 2.43200000 2209881129 2209881129 -1.00000000
-2.12861967 0.62931371 0.59476614 45 15 28647 2.29800000 2209881132 2209881132 15.00000000
-2.06303215 0.61266494 -0.57664883 29 0 28654 2.22800000 2209881152 2209881152 -15.00000000
-2.30213809 0.68411022 0.04192068 64 1 28655 2.40200000 2209881155 2209881155 1.00000000
-2.20786953 0.65651643 -0.53178430 4 2 28656 2.36400000 2209881157 2209881157 -13.00000000
-2.28964186 0.68083173 0.12518761 76 3 28656 2.39200000 2209881159 2209881159 3.00000000
-2.56855369 0.76425499 -0.52090853 3 4 28657 2.73000000 2209881162 2209881162 -11.00000000
-2.25517893 0.67144096 0.20586187 66 5 28658 2.36200000 2209881164 2209881164 5.00000000
-2.42890692 0.72362703 -0.40141085 2 6 28659 2.56600000 2209881166 2209881166 -9.00000000
-2.28283048 0.68054134 0.29248643 57 7 28660 2.40000000 2209881169 2209881169 7.00000000
-2.38162923 0.71044713 -0.30516085 41 8 28661 2.50400000 2209881171 2209881171 -7.00000000
-2.33199239 0.69608361 0.38545454 44 9 28662 2.46400000 2209881173 2209881173 9.00000000
-2.34634900 0.70036894 -0.21422881 53 10 28662 2.45800000 2209881176 2209881176 -5.00000000
-2.32508540 0.69446385 0.47167984 31 11 28663 2.47200000 2209881178 2209881178 11.00000000
-2.34227037 0.70004207 -0.12811843 49 12 28664 2.44800000 2209881180 2209881180 -3.00000000
-2.33752799 0.69906908 0.56327742 38 13 28665 2.50400000 2209881182 2209881182 13.00000000
-2.32572532 0.69598156 -0.04237444 53 14 28666 2.42800000 2209881185 2209881185 -1.00000000
-2.11345530 0.63286096 0.59114271 42 15 28667 2.28400000 2209881187 2209881187 15.00000000
-2.12933040 0.64045042 -0.59580141 11 0 28674 2.30200000 2209881208 2209881208 -15.00000000
-2.28824687 0.68868417 0.04171125 66 1 28675 2.39000000 2209881210 2209881210 1.00000000
-2.20556426 0.66421938 -0.53178430 4 2 28676 2.36400000 2209881212 2209881212 -13.00000000
-2.28725147 0.68881994 0.12518761 76 3 28676 2.39200000 2209881215 2209881215 3.00000000
-2.54707289 0.76755166 -0.51709241 3 4 28677 2.71000000 2209881217 2209881217 -11.00000000
-2.25854397 0.68103451 0.20638479 64 5 28678 2.36800000 2209881219 2209881219 5.00000000
-2.39988995 0.72411245 -0.39703068 24 6 28679 2.53800000 2209881222 2209881222 -9.00000000
-2.27854061 0.68793201 0.29224268 51 7 28680 2.39800000 2209881224 2209881224 7.00000000
-2.37343407 0.71703398 -0.30442962 36 8 28681 2.49800000 2209881226 2209881226 -7.00000000
-2.35047197 0.71009696 0.38889608 40 9 28681 2.48600000 2209881229 2209881229 9.00000000
-2.34007549 0.70740187 -0.21388020 55 10 28682 2.45400000 2209881231 2209881231 -5.00000000
-2.33392215 0.70598626 0.47396955 23 11 28683 2.48400000 2209881233 2209881233 11.00000000
-2.32834291 0.70474219 -0.12749039 52 12 28684 2.43600000 2209881235 2209881235 -3.00000000
-2.35558939 0.71343797 0.56822634 27 13 28685 2.52600000 2209881238 2209881238 13.00000000
-2.32710910 0.70525563 -0.04244425 53 14 28686 2.43200000 2209881240 2209881240 -1.00000000
-2.11493087 0.64135569 0.59217799 45 15 28687 2.28800000 2209881242 2209881242 15.00000000
-1.98663163 0.60510010 -0.55646098 8 0 28694 2.15000000 2209881263 2209881263 -15.00000000
-2.28965473 0.69783342 0.04178106 62 1 28695 2.39400000 2209881265 2209881265 1.00000000
-2.20882440 0.67361951 -0.53313398 4 2 28696 2.37000000 2209881268 2209881268 -13.00000000
-2.28101230 0.69563454 0.12497827 78 3 28696 2.38800000 2209881270 2209881270 3.00000000
-2.45612288 0.74950612 -0.49915633 11 4 28697 2.61600000 2209881272 2209881272 -11.00000000
-2.25996423 0.69007784 0.20673342 59 5 28698 2.37200000 2209881275 2209881275 5.00000000
-2.38601279 0.72902197 -0.39515346 54 6 28699 2.52600000 2209881277 2209881277 -9.00000000
-2.27232885 0.69472063 0.29175520 38 7 28700 2.39400000 2209881279 2209881279 7.00000000
-2.35762882 0.72124946 -0.30272344 48 8 28701 2.48400000 2209881282 2209881282 -7.00000000
-2.34797883 0.71829730 0.38889608 41 9 28701 2.48600000 2209881284 2209881284 9.00000000
-2.33378172 0.71439958 -0.21353157 59 10 28702 2.45000000 2209881286 2209881286 -5.00000000
-2.35584664 0.72160363 0.47893059 40 11 28703 2.51000000 2209881288 2209881288 11.00000000
-2.31632090 0.70993894 -0.12696703 59 12 28704 2.42600000 2209881291 2209881291 -3.00000000
-2.29719186 0.70451468 0.55472928 16 13 28705 2.46600000 2209881293 2209881293 13.00000000
-2.32845664 0.71454775 -0.04251406 53 14 28706 2.43600000 2209881295 2209881295 -1.00000000
-2.11083245 0.64816719 0.59166032 45 15 28707 2.28600000 2209881298 2209881298 15.00000000
-2.02870345 0.62604910 -0.56888425 15 0 28715 2.19800000 2209881318 2209881318 -15.00000000
-2.28708172 0.70622075 0.04178106 66 1 28716 2.39400000 2209881321 2209881321 1.00000000
-2.20634055 0.68171078 -0.53313398 4 2 28717 2.37000000 2209881323 2209881323 -13.00000000
-2.27081442 0.70163172 0.12455957 76 3 28717 2.38000000 2209881325 2209881325 3.00000000
-2.40834355 0.74458575 -0.48999751 10 4 28718 2.56800000 2209881328 2209881328 -11.00000000
-2.26884007 0.70188940 0.20777929 57 5 28719 2.38400000 2209881330 2209881330 5.00000000
-2.36634135 0.73250502 -0.39233765 57 6 28720 2.50800000 2209881332 2209881332 -9.00000000
-2.29252172 0.71009254 0.29468006 37 7 28721 2.41800000 2209881334 2209881334 7.00000000
-2.33600831 0.72400904 -0.30028605 63 8 28722 2.46400000 2209881337 2209881337 -7.00000000
-2.66986537 0.82748276 0.44270954 27 9 28722 2.83000000 2209881339 2209881339 9.00000000
-2.33114767 0.72294855 -0.21353157 59 10 28723 2.45000000 2209881341 2209881341 -5.00000000
-2.31370330 0.71842396 -0.12696703 56 12 28725 2.42600000 2209881346 2209881346 -3.00000000
-2.13082767 0.66204733 0.51513791 18 13 28726 2.29000000 2209881348 2209881348 13.00000000
-2.31436467 0.71951520 -0.04230464 50 14 28727 2.42400000 2209881351 2209881351 -1.00000000
-2.11409116 0.65725195 0.59321326 45 15 28727 2.29200000 2209881353 2209881353 15.00000000
-2.01912975 0.63082242 -0.56681371 8 0 28735 2.19000000 2209881374 2209881374 -15.00000000
-2.29223704 0.71658647 0.04192068 68 1 28736 2.40200000 2209881376 2209881376 1.00000000
-2.20394754 0.68940818 -0.53313398 4 2 28737 2.37000000 2209881378 2209881378 -13.00000000
-2.27216363 0.71074665 0.12476892 73 3 28737 2.38400000 2209881381 2209881381 3.00000000
-2.38886714 0.74770993 -0.48656294 4 4 28738 2.55000000 2209881383 2209881383 -11.00000000
-2.26067209 0.70801842 0.20725636 53 5 28739 2.37800000 2209881385 2209881385 5.00000000
-2.36942506 0.74253279 -0.39327624 51 6 28740 2.51400000 2209881387 2209881387 -9.00000000
-2.29760575 0.72046643 0.29565504 29 7 28741 2.42600000 2209881390 2209881390 7.00000000
-2.33914900 0.73394167 -0.30101728 67 8 28742 2.47000000 2209881392 2209881392 -7.00000000
-2.70654082 0.84921616 0.44927979 47 9 28742 2.87200000 2209881394 2209881394 9.00000000
-2.32480812 0.72988772 -0.21318294 67 10 28743 2.44600000 2209881397 2209881397 -5.00000000
-2.31499195 0.72769374 -0.12717637 56 12 28745 2.43000000 2209881401 2209881401 -3.00000000
-2.11920881 0.66655779 0.51288843 23 13 28746 2.28000000 2209881404 2209881404 13.00000000
-2.30420923 0.72518820 -0.04216501 54 14 28747 2.41600000 2209881406 2209881406 -1.00000000
-2.10061216 0.66151446 0.59010744 42 15 28748 2.28000000 2209881408 2209881408 15.00000000
-2.05743814 0.65068221 -0.57820177 18 0 28755 2.23400000 2209881429 2209881429 -15.00000000
-2.28590870 0.72337687 0.04185087 64 1 28756 2.39800000 2209881431 2209881431 1.00000000
-2.21267462 0.70062679 -0.53583342 4 2 28757 2.38200000 2209881434 2209881434 -13.00000000
-2.27715945 0.72148275 0.12518761 73 3 28758 2.39200000 2209881436 2209881436 3.00000000
-2.38624263 0.75604409 -0.48656294 4 4 28758 2.55000000 2209881438 2209881438 -11.00000000
-2.25818706 0.71590531 0.20725636 55 5 28759 2.37800000 2209881440 2209881440 5.00000000
-2.35928702 0.74840993 -0.39202476 51 6 28760 2.50600000 2209881443 2209881443 -9.00000000
-2.32345796 0.73749059 0.29931110 27 7 28761 2.45600000 2209881445 2209881445 7.00000000
-2.34981656 0.74630862 -0.30272344 66 8 28762 2.48400000 2209881447 2209881447 -7.00000000
-2.70167732 0.85806060 0.44896692 37 9 28762 2.87000000 2209881450 2209881450 9.00000000
-2.30895448 0.73377436 -0.21196276 59 10 28763 2.43200000 2209881452 2209881452 -5.00000000
-2.31243777 0.73577011 -0.12717637 54 12 28765 2.43000000 2209881457 2209881457 -3.00000000
-2.12243986 0.67572469 0.51423812 34 13 28766 2.28600000 2209881459 2209881459 13.00000000
-2.30928516 0.73565483 -0.04230464 71 14 28767 2.42400000 2209881461 2209881461 -1.00000000
-2.09472561 0.66730392 0.58907217 41 15 28767 2.27600000 2209881464 2209881464 15.00000000
-2.05331445 0.65727109 -0.57768410 10 0 28775 2.23200000 2209881484 2209881484 -15.00000000
-2.27956080 0.73013186 0.04178106 64 1 28776 2.39400000 2209881487 2209881487 1.00000000
-2.21949434 0.71131992 -0.53808290 4 2 28777 2.39200000 2209881489 2209881489 -13.00000000
-2.28984189 0.73430622 0.12602498 73 3 28778 2.40800000 2209881491 2209881491 3.00000000
-2.38545847 0.76496851 -0.48694456 4 4 28778 2.55200000 2209881493 2209881493 -11.00000000
-2.25567412 0.72378349 0.20725636 55 5 28779 2.37800000 2209881496 2209881496 5.00000000
-2.34537530 0.75301760 -0.39014757 54 6 28780 2.49400000 2209881498 2209881498 -9.00000000
-2.34908700 0.75511396 -0.30296719 60 8 28782 2.48600000 2209881503 2209881503 -7.00000000
-2.70791674 0.87098122 0.45053127 36 9 28783 2.88000000 2209881505 2209881505 9.00000000
-2.30637908 0.74182963 -0.21196276 60 10 28783 2.43200000 2209881507 2209881507 -5.00000000
-2.30605316 0.74261314 -0.12696703 55 12 28785 2.42600000 2209881512 2209881512 -3.00000000
-2.11821342 0.68253160 0.51378822 38 13 28786 2.28400000 2209881514 2209881514 13.00000000
-2.30670333 0.74371129 -0.04230464 59 14 28787 2.42400000 2209881517 2209881517 -1.00000000
-2.09594297 0.67616326 0.59010744 34 15 28788 2.28000000 2209881519 2209881519 15.00000000
-2.07513380 0.67145002 -0.58441341 17 0 28793 2.25800000 2209881540 2209881540 -15.00000000
-2.27535343 0.73667371 0.04174615 60 1 28794 2.39200000 2209881542 2209881542 1.00000000
-2.20427132 0.71408510 -0.53493363 4 2 28795 2.37800000 2209881544 2209881544 -13.00000000
-2.27232432 0.73656946 0.12518761 64 3 28796 2.39200000 2209881546 2209881546 3.00000000
-2.38677859 0.77366960 -0.48770779 4 4 28796 2.55600000 2209881549 2209881549 -11.00000000
-2.27044606 0.73639858 0.20882516 49 5 28797 2.39600000 2209881551 2209881551 5.00000000
-2.34299803 0.76038212 -0.39014757 52 6 28798 2.49400000 2209881553 2209881553 -9.00000000
-2.33537555 0.75880951 -0.30150476 58 8 28800 2.47400000 2209881558 2209881558 -7.00000000
-2.70907807 0.88023281 0.45115700 39 9 28800 2.88400000 2209881560 2209881560 9.00000000
-2.31161618 0.75153571 -0.21266001 59 10 28801 2.44000000 2209881563 2209881563 -5.00000000
-2.29991031 0.74861777 -0.12675768 54 12 28803 2.42200000 2209881567 2209881567 -3.00000000
-2.10679412 0.68616533 0.51153868 44 13 28804 2.27400000 2209881570 2209881570 13.00000000
-2.31196046 0.75343275 -0.04244425 61 14 28805 2.43200000 2209881572 2209881572 -1.00000000
-2.10678482 0.68656909 0.59373087 27 15 28805 2.29400000 2209881574 2209881574 15.00000000
-2.16273832 0.70814544 -0.60977769 16 0 28813 2.35600000 2209881595 2209881595 -15.00000000
-2.28226972 0.74772465 0.04192068 62 1 28814 2.40200000 2209881597 2209881597 1.00000000
-2.21472788 0.72602445 -0.53808290 4 2 28815 2.39200000 2209881599 2209881599 -13.00000000
-2.26973939 0.74449682 0.12518761 73 3 28816 2.39200000 2209881602 2209881602 3.00000000
-2.36727428 0.77648932 -0.48427323 4 4 28816 2.53800000 2209881604 2209881604 -11.00000000
-2.27164769 0.74556202 0.20917378 36 5 28817 2.40000000 2209881606 2209881606 5.00000000
-2.34032965 0.76855606 -0.39014757 54 6 28818 2.49400000 2209881609 2209881609 -9.00000000
-2.33271265 0.76695687 -0.30150476 60 8 28820 2.47400000 2209881613 2209881613 -7.00000000
-2.70208073 0.88892156 0.45053127 29 9 28821 2.88000000 2209881616 2209881616 9.00000000
-2.31654930 0.76209068 -0.21335725 59 10 28821 2.44800000 2209881618 2209881618 -5.00000000
-2.30866528 0.76039022 -0.12738572 48 12 28823 2.43400000 2209881622 2209881622 -3.00000000
-2.09883356 0.69168538 0.51018900 46 13 28824 2.26800000 2209881625 2209881625 13.00000000
-2.29412365 0.75648850 -0.04216501 54 14 28825 2.41600000 2209881627 2209881627 -1.00000000
-2.10425425 0.69428623 0.59373087 18 15 28826 2.29400000 2209881629 2209881629 15.00000000
-2.11978650 0.70269448 -0.59838963 14 0 28834 2.31200000 2209881650 2209881650 -15.00000000
-2.28520775 0.75797319 0.04202539 52 1 28835 2.40800000 2209881652 2209881652 1.00000000
-2.21390152 0.73475075 -0.53853285 4 2 28836 2.39400000 2209881655 2209881655 -13.00000000
-2.27836823 0.75658751 0.12581564 64 3 28837 2.40400000 2209881657 2209881657 3.00000000
-2.36441255 0.78516060 -0.48427323 4 4 28837 2.53800000 2209881659 2209881659 -11.00000000
-2.28402591 0.75890887 0.21056828 20 5 28838 2.41600000 2209881662 2209881662 5.00000000
-2.34499502 0.77962142 -0.39139903 50 6 28839 2.50200000 2209881664 2209881664 -9.00000000
-6.32515049 2.10409760 0.81847453 2 7 28840 6.71600000 2209881666 2209881666 7.00000000
-2.33176947 0.77612847 -0.30174848 66 8 28841 2.47600000 2209881669 2209881669 -7.00000000
-2.68584132 0.89398116 0.44834119 20 9 28841 2.86600000 2209881671 2209881671 9.00000000
-2.31374049 0.77057612 -0.21335725 59 10 28842 2.44800000 2209881673 2209881673 -5.00000000
-2.31154704 0.77074212 -0.12769973 54 12 28844 2.44000000 2209881678 2209881678 -3.00000000
-2.09258723 0.69813991 0.50928921 50 13 28845 2.26400000 2209881680 2209881680 13.00000000
-2.29133558 0.76489180 -0.04216501 46 14 28846 2.41600000 2209881682 2209881682 -1.00000000
-8.43292618 2.81507277 2.38217044 29 15 28846 9.20400000 2209881685 2209881685 15.00000000
-2.01475143 0.67569083 -0.56940192 9 0 28854 2.20000000 2209881705 2209881705 -15.00000000
-2.28254795 0.76594543 0.04202539 58 1 28855 2.40800000 2209881708 2209881708 1.00000000
-2.22425485 0.74681622 -0.54168212 4 2 28856 2.40800000 2209881710 2209881710 -13.00000000
-2.27950001 0.76580799 0.12602498 64 3 28857 2.40800000 2209881712 2209881712 3.00000000
-2.36910152 0.79591006 -0.48579970 4 4 28857 2.54600000 2209881715 2209881715 -11.00000000
-2.34225917 0.78780228 -0.39139903 47 6 28859 2.50200000 2209881719 2209881719 -9.00000000
-2.34221506 0.78869760 -0.30345467 64 8 28861 2.49000000 2209881724 2209881724 -7.00000000
-2.68441868 0.90445000 0.44865406 24 9 28862 2.86800000 2209881726 2209881726 9.00000000
-2.30348420 0.77610332 -0.21266001 60 10 28862 2.44000000 2209881728 2209881728 -5.00000000
-2.32776737 0.78518987 -0.12874645 49 12 28864 2.46000000 2209881733 2209881733 -3.00000000
-2.09752321 0.70793289 0.51108879 54 13 28865 2.27200000 2209881735 2209881735 13.00000000
-2.31517577 0.78184271 -0.04265368 45 14 28866 2.44400000 2209881738 2209881738 -1.00000000
-8.40058994 2.83854103 2.37595892 45 15 28867 9.18000000 2209881740 2209881740 15.00000000
-2.06177545 0.69947714 -0.58337814 13 0 28874 2.25400000 2209881761 2209881761 -15.00000000
-2.27986050 0.77390832 0.04202539 46 1 28875 2.40800000 2209881763 2209881763 1.00000000
-2.21794415 0.75332230 -0.54078233 4 2 28876 2.40400000 2209881765 2209881765 -13.00000000
-2.30517840 0.78340012 0.12759507 14 3 28877 2.43800000 2209881768 2209881768 3.00000000
-2.36259103 0.80291146 -0.48503646 4 4 28877 2.54200000 2209881770 2209881770 -11.00000000
-2.33388472 0.79406464 -0.39046043 37 6 28879 2.49600000 2209881775 2209881775 -9.00000000
-2.34320593 0.79814875 -0.30394214 58 8 28881 2.49400000 2209881779 2209881779 -7.00000000
-2.69262385 0.91716838 0.45053127 32 9 28881 2.88000000 2209881781 2209881781 9.00000000
-2.31207633 0.78799570 -0.21370588 57 10 28882 2.45200000 2209881784 2209881784 -5.00000000
-2.31745148 0.79073066 -0.12832777 45 12 28884 2.45200000 2209881788 2209881788 -3.00000000
-2.09135079 0.71399105 0.51018900 51 13 28885 2.26800000 2209881791 2209881791 13.00000000
-2.32757115 0.79509073 -0.04293292 57 14 28886 2.46000000 2209881793 2209881793 -1.00000000
-8.39478683 2.86763167 2.37699413 47 15 28886 9.18400000 2209881795 2209881795 15.00000000
-2.08855724 0.71670240 -0.59166032 10 0 28894 2.28600000 2209881816 2209881816 -15.00000000
-2.28849292 0.78575814 0.04223482 46 1 28895 2.42000000 2209881818 2209881818 1.00000000
-2.21161485 0.75979346 -0.53988254 4 2 28896 2.40000000 2209881821 2209881821 -13.00000000
-2.36534405 0.81306815 -0.48618132 5 4 28897 2.54800000 2209881825 2209881825 -11.00000000
-5.03234434 1.73081040 0.46558598 2 5 28898 5.34200000 2209881828 2209881828 5.00000000
-2.35351324 0.80992013 -0.39421484 39 6 28899 2.52000000 2209881830 2209881830 -9.00000000
-2.34415913 0.80761641 -0.30442962 51 8 28901 2.49800000 2209881834 2209881834 -7.00000000
-2.68924427 0.92703122 0.45053127 31 9 28902 2.88000000 2209881837 2209881837 9.00000000
-2.32438040 0.80125606 -0.21510038 55 10 28902 2.46800000 2209881839 2209881839 -5.00000000
-2.31467724 0.79881525 -0.12832777 45 12 28904 2.45200000 2209881844 2209881844 -3.00000000
-2.08147764 0.71874261 0.50838935 54 13 28905 2.26000000 2209881846 2209881846 13.00000000
-2.32856178 0.80451667 -0.04300273 51 14 28906 2.46400000 2209881848 2209881848 -1.00000000
-8.38239384 2.89774966 2.37647653 45 15 28907 9.18200000 2209881851 2209881851 15.00000000
-1.89988685 0.65938056 -0.53886127 4 0 28914 2.08200000 2209881871 2209881871 -15.00000000
-2.30840468 0.80161351 0.04265368 21 1 28915 2.44400000 2209881874 2209881874 1.00000000
-2.21631241 0.77006716 -0.54168212 4 2 28916 2.40800000 2209881876 2209881876 -13.00000000
-4.10692787 1.42777288 0.22787075 7 3 28917 4.35400000 2209881878 2209881878 3.00000000
-2.35136509 0.81745172 -0.48389161 6 4 28917 2.53600000 2209881881 2209881881 -11.00000000
-2.35813403 0.82072771 -0.39546633 39 6 28919 2.52800000 2209881885 2209881885 -9.00000000
-2.34132576 0.81579411 -0.30442962 48 8 28921 2.49800000 2209881890 2209881890 -7.00000000
-2.67869377 0.93334413 0.44927979 29 9 28921 2.87200000 2209881892 2209881892 9.00000000
-2.32721353 0.81133240 -0.21562330 49 10 28922 2.47400000 2209881894 2209881894 -5.00000000
-2.32696033 0.81215531 -0.12916514 45 12 28924 2.46800000 2209881899 2209881899 -3.00000000
-2.07527661 0.72471899 0.50748956 52 13 28925 2.25600000 2209881901 2209881901 13.00000000
-2.34084153 0.81791681 -0.04328197 21 14 28926 2.48000000 2209881904 2209881904 -1.00000000
-8.38185692 2.92871714 2.37906456 47 15 28926 9.19200000 2209881906 2209881906 15.00000000
-1.88663650 0.66216975 -0.53575540 4 0 28934 2.07000000 2209881927 2209881927 -15.00000000
-2.23015785 0.78361297 -0.54573125 5 2 28936 2.42600000 2209881931 2209881931 -13.00000000
-4.11134005 1.44541216 0.22839411 7 3 28937 4.36400000 2209881934 2209881934 3.00000000
-2.34664512 0.82500339 -0.48350999 7 4 28937 2.53400000 2209881936 2209881936 -11.00000000
-6.27188396 2.20621848 0.58167744 3 5 28938 6.67400000 2209881938 2209881938 5.00000000
-2.34408069 0.82594103 -0.30516085 29 8 28941 2.50400000 2209881945 2209881945 -7.00000000
-2.67541957 0.94268882 0.44927979 38 9 28941 2.87200000 2209881947 2209881947 9.00000000
-2.07640910 0.73325646 0.50838935 54 13 28945 2.26000000 2209881957 2209881957 13.00000000
-3.94815612 1.39501417 -0.07309068 49 14 28946 4.18800000 2209881959 2209881959 -1.00000000
-8.35518932 2.95216489 2.37440586 45 15 28946 9.17400000 2209881961 2209881961 15.00000000
-1.88078892 0.66713077 -0.53472012 4 0 28953 2.06600000 2209881982 2209881982 -15.00000000
-4.04043102 1.43396688 0.07483592 7 1 28954 4.28800000 2209881984 2209881984 1.00000000
-2.23856544 0.79491675 -0.54843068 5 2 28955 2.43800000 2209881987 2209881987 -13.00000000
-4.11217022 1.46104383 0.22870813 7 3 28956 4.37000000 2209881989 2209881989 3.00000000
-2.34204650 0.83212334 -0.48312837 6 4 28956 2.53200000 2209881991 2209881991 -11.00000000
-2.66653013 0.95003313 0.44834119 19 9 28961 2.86600000 2209882003 2209882003 9.00000000
-4.10661983 1.46472478 -0.22849879 6 12 28963 4.36600000 2209882010 2209882010 -3.00000000
-2.07763696 0.74144804 0.50928921 49 13 28964 2.26400000 2209882012 2209882012 13.00000000
-3.95480776 1.41213381 -0.07330011 56 14 28965 4.20000000 2209882014 2209882014 -1.00000000
-8.33807659 2.97725701 2.37233543 47 15 28965 9.16600000 2209882016 2209882016 15.00000000
-1.87663031 0.67303967 -0.53420252 4 0 28973 2.06400000 2209882037 2209882037 -15.00000000
-4.03728294 1.44873726 0.07487082 7 1 28974 4.29000000 2209882040 2209882040 1.00000000
-2.25962043 0.81128663 -0.55427939 9 2 28975 2.46400000 2209882042 2209882042 -13.00000000
-4.11456394 1.47809005 0.22912681 7 3 28976 4.37800000 2209882044 2209882044 3.00000000
-2.34467053 0.84228474 -0.48427323 7 4 28976 2.53800000 2209882046 2209882046 -11.00000000
-3.06520629 1.10233366 -0.51592088 1 6 28978 3.29800000 2209882051 2209882051 -9.00000000
-3.86807942 1.39259434 -0.50478280 6 8 28980 4.14200000 2209882056 2209882056 -7.00000000
-5.14358139 1.85281742 -0.47831070 6 10 28981 5.48800000 2209882060 2209882060 -5.00000000
-9.90891933 3.57133818 2.04738045 12 11 28982 10.73000000 2209882063 2209882063 11.00000000
-4.10711813 1.48108327 -0.22881280 6 12 28983 4.37200000 2209882065 2209882065 -3.00000000
-2.08603454 0.75266415 0.51198858 43 13 28984 2.27600000 2209882067 2209882067 13.00000000
-3.95925903 1.42932510 -0.07347463 63 14 28985 4.21000000 2209882069 2209882069 -1.00000000
-8.32710838 3.00779772 2.37233543 47 15 28986 9.16600000 2209882072 2209882072 15.00000000
-1.88335025 0.68287885 -0.53679073 4 0 28993 2.07400000 2209882093 2209882093 -15.00000000
-4.04723978 1.46827698 0.07515007 7 1 28994 4.30600000 2209882095 2209882095 1.00000000
-2.24578404 0.81517977 -0.55158001 9 2 28995 2.45200000 2209882097 2209882097 -13.00000000
-4.11501122 1.49448895 0.22944084 7 3 28996 4.38400000 2209882099 2209882099 3.00000000
-2.34540677 0.85180438 -0.48503646 13 4 28996 2.54200000 2209882102 2209882102 -11.00000000
-3.09290004 1.12450111 -0.52123964 3 6 28998 3.33200000 2209882106 2209882106 -9.00000000
-5.56850290 2.02566862 0.72755998 2 7 28999 5.97000000 2209882109 2209882109 7.00000000
-3.86132956 1.40540898 -0.50453907 6 8 29000 4.14000000 2209882111 2209882111 -7.00000000
-5.16516447 1.88098705 -0.48092538 6 10 29001 5.51800000 2209882116 2209882116 -5.00000000
-9.90192604 3.60792112 2.04852533 12 11 29002 10.73600000 2209882118 2209882118 11.00000000
-4.10567617 1.49677896 -0.22902215 6 12 29003 4.37600000 2209882120 2209882120 -3.00000000
-2.08339453 0.75994122 0.51198858 41 13 29004 2.27600000 2209882122 2209882122 13.00000000
-3.96175957 1.44587910 -0.07361425 64 14 29005 4.21800000 2209882125 2209882125 -1.00000000
-8.32434750 3.03804398 2.37440586 47 15 29005 9.17400000 2209882127 2209882127 15.00000000
-1.89002430 0.69277304 -0.53937888 4 0 29013 2.08400000 2209882148 2209882148 -15.00000000
-4.05335474 1.48652673 0.07535949 7 1 29014 4.31800000 2209882150 2209882150 1.00000000
-2.25573111 0.82771313 -0.55472928 9 2 29015 2.46600000 2209882152 2209882152 -13.00000000
-4.10226965 1.50609052 0.22902215 7 3 29016 4.37600000 2209882155 2209882155 3.00000000
-2.34057617 0.85930961 -0.48465484 25 4 29016 2.54000000 2209882157 2209882157 -11.00000000
-3.09266424 1.13665330 -0.52186537 3 6 29018 3.33600000 2209882162 2209882162 -9.00000000
-5.58561850 2.05400062 0.73072857 2 7 29019 5.99600000 2209882164 2209882164 7.00000000
-3.84894824 1.41613722 -0.50356412 6 8 29020 4.13200000 2209882166 2209882166 -7.00000000
-5.14734888 1.89487565 -0.47987953 3 10 29021 5.50600000 2209882171 2209882171 -5.00000000
-9.90216827 3.64721322 2.05119681 15 11 29022 10.75000000 2209882173 2209882173 11.00000000
-4.10792255 1.51386380 -0.22944084 6 12 29023 4.38400000 2209882175 2209882175 -3.00000000
-2.07707238 0.76586062 0.51108879 38 13 29024 2.27200000 2209882178 2209882178 13.00000000
-3.94730783 1.45623875 -0.07343972 59 14 29025 4.20800000 2209882180 2209882180 -1.00000000
-8.31550407 3.06775165 2.37492347 47 15 29025 9.17600000 2209882182 2209882182 15.00000000
-1.88216007 0.69735271 -0.53782600 4 0 29033 2.07800000 2209882203 2209882203 -15.00000000
-4.06314087 1.50622714 0.07563873 5 1 29034 4.33400000 2209882205 2209882205 1.00000000
-2.25100088 0.83490437 -0.55427939 9 2 29035 2.46400000 2209882208 2209882208 -13.00000000
-4.11410618 1.52593684 0.22996420 7 3 29035 4.39400000 2209882210 2209882210 3.00000000
-2.31915641 0.86064398 -0.48083866 25 4 29036 2.52000000 2209882212 2209882212 -11.00000000
-3.08867764 1.14744186 -0.52186537 3 6 29038 3.33600000 2209882217 2209882217 -9.00000000
-5.58771801 2.07694364 0.73194730 2 7 29039 6.00600000 2209882219 2209882219 7.00000000
-3.85142398 1.43233168 -0.50453907 6 8 29040 4.14000000 2209882221 2209882221 -7.00000000
-5.14630508 1.91491616 -0.48040244 6 10 29041 5.51200000 2209882226 2209882226 -5.00000000
-9.90593529 3.68792081 2.05463123 21 11 29042 10.76800000 2209882228 2209882228 11.00000000
-4.11009979 1.53098261 -0.22985952 6 12 29043 4.39200000 2209882231 2209882231 -3.00000000
-2.08169055 0.77582848 0.51288843 36 13 29044 2.28000000 2209882233 2209882233 13.00000000
-3.94969535 1.47280324 -0.07357935 57 14 29045 4.21600000 2209882235 2209882235 -1.00000000
-8.30112553 3.09540939 2.37388825 47 15 29045 9.17200000 2209882238 2209882238 15.00000000
-1.86885941 0.69985342 -0.53472012 4 0 29053 2.06600000 2209882258 2209882258 -15.00000000
-4.06160355 1.52180409 0.07570854 5 1 29054 4.33800000 2209882261 2209882261 1.00000000
-2.24807286 0.84275675 -0.55427939 8 2 29055 2.46400000 2209882263 2209882263 -13.00000000
-4.11783600 1.54451263 0.23048756 7 3 29056 4.40400000 2209882265 2209882265 3.00000000
-2.31981444 0.87011307 -0.48160189 25 4 29056 2.52400000 2209882268 2209882268 -11.00000000
-3.09205079 1.16099381 -0.52311683 3 6 29058 3.34400000 2209882272 2209882272 -9.00000000
-3.85011697 1.44716382 -0.50502658 6 8 29060 4.14400000 2209882277 2209882277 -7.00000000
-5.13585949 1.93146574 -0.48005384 3 10 29061 5.50800000 2209882281 2209882281 -5.00000000
-9.89667702 3.72385931 2.05539441 25 11 29062 10.77200000 2209882284 2209882284 11.00000000
-4.08790779 1.53898692 -0.22891748 4 12 29063 4.37400000 2209882286 2209882286 -3.00000000
-2.08079338 0.78377718 0.51333833 28 13 29064 2.28200000 2209882288 2209882288 13.00000000
-3.94453025 1.48658133 -0.07357935 59 14 29065 4.21600000 2209882291 2209882291 -1.00000000
-8.27707100 3.12104273 2.37026477 47 15 29066 9.15800000 2209882293 2209882293 15.00000000
-1.87543905 0.70979178 -0.53730834 4 0 29073 2.07600000 2209882314 2209882314 -15.00000000
-4.05252647 1.53455627 0.07563873 5 1 29074 4.33400000 2209882316 2209882316 1.00000000
-2.25605130 0.85474139 -0.55697882 9 2 29075 2.47600000 2209882318 2209882318 -13.00000000
-4.12016249 1.56098986 0.23090623 7 3 29075 4.41200000 2209882321 2209882321 3.00000000
-2.32043457 0.87959719 -0.48236513 25 4 29076 2.52800000 2209882323 2209882323 -11.00000000
-5.24035740 1.98748589 0.49033821 2 5 29077 5.62600000 2209882325 2209882325 5.00000000
-3.07320428 1.16617346 -0.52061391 3 6 29078 3.32800000 2209882327 2209882327 -9.00000000
-3.86359906 1.46764362 -0.50746393 6 8 29080 4.16400000 2209882332 2209882332 -7.00000000
-5.13653564 1.95221281 -0.48075107 3 10 29081 5.51600000 2209882337 2209882337 -5.00000000
-9.89279270 3.76187158 2.05730247 12 11 29082 10.78200000 2209882339 2209882339 11.00000000
-4.11797857 1.56674111 -0.23090623 6 12 29083 4.41200000 2209882341 2209882341 -3.00000000
-2.07986617 0.79172897 0.51378822 19 13 29084 2.28400000 2209882344 2209882344 13.00000000
-3.94866061 1.50389993 -0.07375387 66 14 29085 4.22600000 2209882346 2209882346 -1.00000000
-8.26848125 3.14916086 2.37078238 47 15 29085 9.16000000 2209882348 2209882348 15.00000000
-1.86934114 0.71495372 -0.53627306 4 0 29093 2.07200000 2209882369 2209882369 -15.00000000
-4.06021881 1.55369556 0.07588306 5 1 29094 4.34800000 2209882371 2209882371 1.00000000
-2.24759436 0.86052096 -0.55562907 10 2 29095 2.47000000 2209882373 2209882373 -13.00000000
-4.11841869 1.57679069 0.23111558 7 3 29095 4.41600000 2209882376 2209882376 3.00000000
-2.31735015 0.88769168 -0.48236513 25 4 29096 2.52800000 2209882378 2209882378 -11.00000000
-5.23338795 2.00576591 0.49033821 2 5 29097 5.62600000 2209882380 2209882380 5.00000000
-3.06911492 1.17689383 -0.52061391 3 6 29098 3.32800000 2209882383 2209882383 -9.00000000
