# .PCD v0.7 - Point Cloud Data file format
VERSION 0.7
FIELDS x y z intensity laser_id azimuth distance_m adjustedtime timestamp vertical_angle
SIZE 4 4 4 1 1 2 8 8 4 8
TYPE F F F U U U F U U F
COUNT 1 1 1 1 1 1 1 1 1 1
WIDTH 523
HEIGHT 1
VIEWPOINT 0 0 0 1 0 0 0
POINTS 523
DATA ascii
-3.56832910 5.74169159 -0.59143889 4 10 32814 6.78600000 2209292825 2209292825 -5.00000000
-6.00370932 9.66791439 -0.59642059 4 12 32816 11.39600000 2209292830 2209292830 -3.00000000
-5.82024431 9.37612724 2.54779553 59 13 32817 11.32600000 2209292832 2209292832 13.00000000
-4.40001822 7.09373760 2.23671412 45 15 32819 8.64200000 2209292837 2209292837 15.00000000
-1.12400627 1.81708252 -0.57250774 4 0 32826 2.21200000 2209292858 2209292858 -15.00000000
-1.31659353 2.13008308 -0.57812423 3 2 32828 2.57000000 2209292862 2209292862 -13.00000000
-1.56852758 2.53867149 -0.58005935 4 4 32829 3.04000000 2209292867 2209292867 -11.00000000
-1.91976547 3.10957909 -0.57880753 1 6 32831 3.70000000 2209292871 2209292871 -9.00000000
-2.50342512 4.05814171 -0.58546031 2 8 32833 4.80400000 2209292876 2209292876 -7.00000000
-3.54617381 5.75072050 -0.59109026 4 10 32834 6.78200000 2209292881 2209292881 -5.00000000
-5.97621155 9.69901466 -0.59704858 4 12 32836 11.40800000 2209292885 2209292885 -3.00000000
-5.78952408 9.39970589 2.54869556 64 13 32837 11.33000000 2209292887 2209292887 13.00000000
-4.37444448 7.10499954 2.23567891 45 15 32838 8.63800000 2209292892 2209292892 15.00000000
-1.12371981 1.83087373 -0.57561356 4 0 32846 2.22400000 2209292913 2209292913 -15.00000000
-1.31118774 2.13798833 -0.57902402 3 2 32848 2.57400000 2209292917 2209292917 -13.00000000
-1.55349982 2.53408837 -0.57776964 2 4 32849 3.02800000 2209292922 2209292922 -11.00000000
-1.91715407 3.12973714 -0.58131045 2 6 32851 3.71600000 2209292927 2209292927 -9.00000000
-2.48095369 4.05331087 -0.58351040 2 8 32853 4.78800000 2209292931 2209292931 -7.00000000
-3.52191901 5.75626612 -0.59039301 4 10 32854 6.77400000 2209292936 2209292936 -5.00000000
-5.95482063 9.74026489 -0.59830463 4 12 32856 11.43200000 2209292940 2209292940 -3.00000000
-5.75261307 9.41320610 2.54689574 62 13 32857 11.32200000 2209292943 2209292943 13.00000000
-4.34961653 7.12022591 2.23567891 45 15 32858 8.63800000 2209292947 2209292947 15.00000000
-1.12335074 1.84468508 -0.57871938 4 0 32866 2.23600000 2209292968 2209292968 -15.00000000
-1.30979466 2.15254068 -0.58172345 3 2 32868 2.58600000 2209292973 2209292973 -13.00000000
-1.55076623 2.54955983 -0.58005935 4 4 32869 3.04000000 2209292977 2209292977 -11.00000000
-1.91852903 3.15666676 -0.58506489 2 6 32871 3.74000000 2209292982 2209292982 -9.00000000
-2.47297239 4.07212639 -0.58497286 2 8 32873 4.80000000 2209292986 2209292986 -7.00000000
-3.52248240 5.80258751 -0.59387922 4 10 32874 6.81400000 2209292991 2209292991 -5.00000000
-5.93425035 9.78319168 -0.59966540 4 12 32876 11.45800000 2209292996 2209292996 -3.00000000
-5.71365738 9.42323112 2.54419637 62 13 32877 11.31000000 2209292998 2209292998 13.00000000
-4.32273340 7.13206148 2.23464370 45 15 32878 8.63400000 2209293003 2209293003 15.00000000
-1.11091065 1.83867419 -0.57561356 4 0 32886 2.22400000 2209293023 2209293023 -15.00000000
-1.29622984 2.14708996 -0.57902402 3 2 32888 2.57400000 2209293028 2209293028 -13.00000000
-1.53374207 2.54151034 -0.57700640 2 4 32889 3.02400000 2209293033 2209293033 -11.00000000
-1.90749848 3.16334462 -0.58506489 2 6 32891 3.74000000 2209293037 2209293037 -9.00000000
-2.47513461 4.10793877 -0.58887267 2 8 32893 4.83200000 2209293042 2209293042 -7.00000000
-3.50220609 5.81484795 -0.59387922 4 10 32894 6.81400000 2209293046 2209293046 -5.00000000
-5.90624380 9.81411362 -0.60029340 4 12 32896 11.47000000 2209293051 2209293051 -3.00000000
-5.68273830 9.44645786 2.54509616 59 13 32897 11.31400000 2209293053 2209293053 13.00000000
-4.29258299 7.14123392 2.23257303 45 15 32899 8.62600000 2209293058 2209293058 15.00000000
-1.09256685 1.82265723 -0.56940192 4 0 32906 2.20000000 2209293079 2209293079 -15.00000000
-1.29673803 2.16497588 -0.58262324 3 2 32908 2.59000000 2209293083 2209293083 -13.00000000
-1.52889526 2.55358624 -0.57853287 2 4 32909 3.03200000 2209293088 2209293088 -11.00000000
-1.89441645 3.16659331 -0.58443916 2 6 32911 3.73600000 2209293092 2209293092 -9.00000000
-2.44855762 4.09610748 -0.58594781 2 8 32913 4.80800000 2209293097 2209293097 -7.00000000
-3.50028276 5.85782290 -0.59701681 4 10 32914 6.85000000 2209293102 2209293102 -5.00000000
-5.88014126 9.84838963 -0.60113078 8 12 32916 11.48600000 2209293106 2209293106 -3.00000000
-5.64773226 9.46288967 2.54419637 56 13 32917 11.31000000 2209293109 2209293109 13.00000000
-4.26293945 7.14547539 2.22946715 45 15 32918 8.61400000 2209293113 2209293113 15.00000000
-1.09409750 1.83974326 -0.57354301 4 0 32926 2.21600000 2209293134 2209293134 -15.00000000
-1.28319991 2.15943742 -0.57992381 3 2 32928 2.57800000 2209293138 2209293138 -13.00000000
-1.52197754 2.56228352 -0.57929611 2 4 32929 3.03600000 2209293143 2209293143 -11.00000000
-1.87629390 3.16129589 -0.58224910 2 6 32931 3.72200000 2209293148 2209293148 -9.00000000
-2.46462202 4.15585184 -0.59325999 2 8 32933 4.86800000 2209293152 2209293152 -7.00000000
-3.44933367 5.81858969 -0.59178752 4 10 32934 6.79000000 2209293157 2209293157 -5.00000000
-5.85997820 9.89291286 -0.60259622 4 12 32936 11.51400000 2209293162 2209293162 -3.00000000
-5.61665201 9.48589993 2.54509616 59 13 32937 11.31400000 2209293164 2209293164 13.00000000
-4.23600340 7.15698719 2.22843194 47 15 32938 8.61000000 2209293168 2209293168 15.00000000
-1.09388232 1.85334337 -0.57664883 4 0 32945 2.22800000 2209293189 2209293189 -15.00000000
-1.27009225 2.15360951 -0.57722443 3 2 32947 2.56600000 2209293194 2209293194 -13.00000000
-1.51746035 2.57408142 -0.58082259 4 4 32948 3.04400000 2209293198 2209293198 -11.00000000
-1.87482357 3.18281889 -0.58506489 2 6 32950 3.74000000 2209293203 2209293203 -9.00000000
-2.43874431 4.14347267 -0.59033507 2 8 32952 4.84400000 2209293208 2209293208 -7.00000000
-3.45426726 5.87120962 -0.59597099 4 10 32953 6.83800000 2209293212 2209293212 -5.00000000
-5.82815218 9.91401291 -0.60270089 4 12 32955 11.51600000 2209293217 2209293217 -3.00000000
-5.57924080 9.49439240 2.54239678 66 13 32956 11.30200000 2209293219 2209293219 13.00000000
-4.21295118 7.17506218 2.22946715 47 15 32958 8.61400000 2209293224 2209293224 15.00000000
-1.09131074 1.86381888 -0.57871938 4 0 32965 2.23600000 2209293244 2209293244 -15.00000000
-1.26847148 2.16812181 -0.57992381 3 2 32967 2.57800000 2209293249 2209293249 -13.00000000
-1.50648367 2.57597327 -0.58005935 2 4 32968 3.04000000 2209293254 2209293254 -11.00000000
-1.86868525 3.19787145 -0.58662927 2 6 32970 3.75000000 2209293258 2209293258 -9.00000000
-2.41826034 4.14167500 -0.58887267 2 8 32972 4.83200000 2209293263 2209293263 -7.00000000
-3.44781208 5.90732193 -0.59841132 4 10 32973 6.86600000 2209293268 2209293268 -5.00000000
-5.82570791 9.98950577 -0.60605037 4 12 32975 11.58000000 2209293272 2209293272 -3.00000000
-5.54213953 9.50707626 2.54059720 57 13 32976 11.29400000 2209293274 2209293274 13.00000000
-4.18982458 7.19306278 2.23050261 45 15 32978 8.61800000 2209293279 2209293279 15.00000000
-1.08220673 1.86465371 -0.57768410 4 0 32987 2.23200000 2209293300 2209293300 -15.00000000
-1.26404762 2.17971969 -0.58172345 3 2 32989 2.58600000 2209293304 2209293304 -13.00000000
-1.50445831 2.59532690 -0.58311230 4 4 32990 3.05600000 2209293309 2209293309 -11.00000000
-1.85936272 3.21015120 -0.58756787 2 6 32992 3.75600000 2209293314 2209293314 -9.00000000
-2.40233970 4.15092945 -0.58887267 2 8 32994 4.83200000 2209293318 2209293318 -7.00000000
-3.42510438 5.92051697 -0.59841132 4 10 32995 6.86600000 2209293323 2209293323 -5.00000000
-5.79030657 10.01698875 -0.60636437 4 12 32997 11.58600000 2209293327 2209293327 -3.00000000
-4.80947351 8.32354069 2.21936703 13 13 32998 9.86600000 2209293330 2209293330 13.00000000
-4.15444708 7.19571304 2.22636151 45 15 33000 8.60200000 2209293334 2209293334 15.00000000
-1.06508863 1.85000372 -0.57199007 4 0 33007 2.21000000 2209293355 2209293355 -15.00000000
-1.25837469 2.18749714 -0.58262324 3 2 33009 2.59000000 2209293360 2209293360 -13.00000000
-1.48560321 2.58354306 -0.57929611 4 4 33010 3.03600000 2209293364 2209293364 -11.00000000
-1.84617770 3.21319628 -0.58694214 2 6 33012 3.75200000 2209293369 2209293369 -9.00000000
-2.39376569 4.16961956 -0.59033507 2 8 33014 4.84400000 2209293374 2209293374 -7.00000000
-3.39053345 5.90824366 -0.59597099 4 10 33015 6.83800000 2209293378 2209293378 -5.00000000
-5.75431204 10.03540707 -0.60625970 4 12 33017 11.58400000 2209293383 2209293383 -3.00000000
-4.79395628 8.36394787 2.22566581 59 13 33018 9.89400000 2209293385 2209293385 13.00000000
-4.12354326 7.20011282 2.22325563 45 15 33020 8.59000000 2209293390 2209293390 15.00000000
-1.06023002 1.85501778 -0.57250774 4 0 33025 2.21200000 2209293410 2209293410 -15.00000000
-1.25149620 2.19143963 -0.58262324 3 2 33027 2.59000000 2209293415 2209293415 -13.00000000
-1.47942603 2.59160757 -0.58005935 2 4 33028 3.04000000 2209293420 2209293420 -11.00000000
-1.82432938 3.19839001 -0.58318770 2 6 33030 3.72800000 2209293424 2209293424 -9.00000000
-2.38851810 4.19091654 -0.59228504 2 8 33032 4.86000000 2209293429 2209293429 -7.00000000
-3.39562535 5.96041441 -0.60015446 4 10 33033 6.88600000 2209293433 2209293433 -5.00000000
-5.74449348 10.09162140 -0.60856247 4 12 33035 11.62800000 2209293438 2209293438 -3.00000000
-4.76476526 8.37388611 2.22431612 60 13 33036 9.88800000 2209293440 2209293440 13.00000000
-4.10216236 7.21231604 2.22325563 45 15 33037 8.59000000 2209293445 2209293445 15.00000000
-1.06327593 1.87551308 -0.57768410 4 0 33045 2.23200000 2209293466 2209293466 -15.00000000
-1.23807609 2.18562126 -0.57992381 3 2 33047 2.57800000 2209293470 2209293470 -13.00000000
-1.47424006 2.60358953 -0.58158582 2 4 33048 3.04800000 2209293475 2209293475 -11.00000000
-1.82482648 3.22536993 -0.58694214 2 6 33050 3.75200000 2209293479 2209293479 -9.00000000
-2.36801314 4.18885994 -0.59082258 2 8 33052 4.84800000 2209293484 2209293484 -7.00000000
-3.37479901 5.97223091 -0.60015446 4 10 33053 6.88600000 2209293489 2209293489 -5.00000000
-5.70923233 10.11161232 -0.60856247 4 12 33055 11.62800000 2209293493 2209293493 -3.00000000
-4.73071671 8.38198185 2.22206640 55 13 33056 9.87800000 2209293496 2209293496 13.00000000
-4.07475138 7.22561979 2.22273803 42 15 33058 8.58800000 2209293500 2209293500 15.00000000
-1.06240404 1.88931644 -0.58078992 4 0 33065 2.24400000 2209293521 2209293521 -15.00000000
-1.23043931 2.18992949 -0.57992381 4 2 33067 2.57800000 2209293526 2209293526 -13.00000000
-1.45745182 2.59502554 -0.57853287 2 4 33068 3.03200000 2209293530 2209293530 -11.00000000
-1.81742358 3.23861074 -0.58819360 2 6 33070 3.76000000 2209293535 2209293535 -9.00000000
-2.36696887 4.22134113 -0.59423494 2 8 33072 4.87600000 2209293539 2209293539 -7.00000000
-3.36756921 6.00830698 -0.60259479 4 10 33073 6.91400000 2209293544 2209293544 -5.00000000
-5.66804600 10.12102413 -0.60793447 4 12 33075 11.61600000 2209293549 2209293549 -3.00000000
-4.69762182 8.39164257 2.22026682 56 13 33076 9.87000000 2209293551 2209293551 13.00000000
-4.03756094 7.21549034 2.21549106 27 15 33077 8.56000000 2209293556 2209293556 15.00000000
-1.04451060 1.87276733 -0.57457829 4 0 33085 2.22000000 2209293576 2209293576 -15.00000000
-1.23227394 2.21123385 -0.58442283 3 2 33087 2.59800000 2209293581 2209293581 -13.00000000
-1.45411694 2.61038780 -0.58082259 2 4 33088 3.04400000 2209293585 2209293585 -11.00000000
-1.80034351 3.23457885 -0.58631635 2 6 33090 3.74800000 2209293590 2209293590 -9.00000000
-2.35028958 4.22610760 -0.59374744 2 8 33092 4.87200000 2209293595 2209293595 -7.00000000
-3.33302307 5.99564600 -0.60015446 4 10 33093 6.88600000 2209293599 2209293599 -5.00000000
-5.66274643 10.19487381 -0.61117929 4 12 33095 11.67800000 2209293604 2209293604 -3.00000000
-4.66924667 8.40969276 2.22071671 53 13 33096 9.87200000 2209293606 2209293606 13.00000000
-3.95017147 7.12043524 2.18184447 18 15 33098 8.43000000 2209293611 2209293611 15.00000000
-1.03763950 1.87658310 -0.57457829 4 0 33106 2.22000000 2209293632 2209293632 -15.00000000
-1.22039151 2.20891261 -0.58262324 3 2 33108 2.59000000 2209293636 2209293636 -13.00000000
-1.44453967 2.61570001 -0.58082259 2 4 33109 3.04400000 2209293641 2209293641 -11.00000000
-1.78274989 3.23077846 -0.58443916 2 6 33111 3.73600000 2209293645 2209293645 -9.00000000
-2.33478427 4.23469353 -0.59374744 2 8 33113 4.87200000 2209293650 2209293650 -7.00000000
-3.32448888 6.03225088 -0.60259479 4 10 33114 6.91400000 2209293655 2209293655 -5.00000000
-5.61667156 10.19981384 -0.61023724 4 12 33116 11.66000000 2209293659 2209293659 -3.00000000
-4.63933229 8.42845726 2.22116661 59 13 33117 9.87400000 2209293662 2209293662 13.00000000
-3.88711047 7.06478548 2.16062140 15 15 33118 8.34800000 2209293666 2209293666 15.00000000
-1.02829599 1.87511206 -0.57302535 4 0 33126 2.21400000 2209293687 2209293687 -15.00000000
-1.21267354 2.21315908 -0.58262324 3 2 33128 2.59000000 2209293691 2209293691 -13.00000000
-1.44105899 2.63105774 -0.58311230 2 4 33129 3.05600000 2209293696 2209293696 -11.00000000
-1.77335811 3.24044752 -0.58506489 2 6 33131 3.74000000 2209293701 2209293701 -9.00000000
-2.32379770 4.24978447 -0.59472239 2 8 33133 4.88000000 2209293705 2209293705 -7.00000000
-3.30341196 6.04381847 -0.60259479 4 10 33134 6.91400000 2209293710 2209293710 -5.00000000
-5.60400867 10.26142693 -0.61274940 4 12 33136 11.70800000 2209293714 2209293714 -3.00000000
-4.61175060 8.44802094 2.22206640 56 13 33137 9.87800000 2209293717 2209293717 13.00000000
-3.85194016 7.06202507 2.15544510 18 15 33139 8.32800000 2209293721 2209293721 15.00000000
-1.03407490 1.90057194 -0.57975465 4 0 33145 2.24000000 2209293742 2209293742 -15.00000000
-1.20067394 2.20860791 -0.58037370 4 2 33147 2.58000000 2209293747 2209293747 -13.00000000
-1.43232620 2.63582206 -0.58311230 2 4 33148 3.05600000 2209293751 2209293751 -11.00000000
-1.76448786 3.24978232 -0.58569062 2 6 33150 3.74400000 2209293756 2209293756 -9.00000000
-2.30969214 4.25746727 -0.59472239 2 8 33152 4.88000000 2209293761 2209293761 -7.00000000
-3.29854822 6.08276320 -0.60538381 4 10 33153 6.94600000 2209293765 2209293765 -5.00000000
-5.56804657 10.27644253 -0.61254001 4 12 33155 11.70400000 2209293770 2209293770 -3.00000000
-4.58371067 8.46326828 2.22206640 56 13 33156 9.87800000 2209293772 2209293772 13.00000000
-3.82605624 7.06729603 2.15337443 18 15 33157 8.32000000 2209293777 2209293777 15.00000000
-1.02743435 1.90416992 -0.57975465 4 0 33165 2.24000000 2209293797 2209293797 -15.00000000
-1.19295716 2.21278548 -0.58037370 4 2 33167 2.58000000 2209293802 2209293802 -13.00000000
-1.42311668 2.64080572 -0.58311230 2 4 33168 3.05600000 2209293807 2209293807 -11.00000000
-1.75687921 3.26287889 -0.58694214 2 6 33170 3.75200000 2209293811 2209293811 -9.00000000
-2.29105473 4.25851107 -0.59374744 2 8 33172 4.87200000 2209293816 2209293816 -7.00000000
-3.27163339 6.08371162 -0.60433793 4 10 33173 6.93400000 2209293820 2209293820 -5.00000000
-5.55861092 10.34507847 -0.61547083 4 12 33175 11.76000000 2209293825 2209293825 -3.00000000
-4.55045223 8.47234917 2.22026682 57 13 33176 9.87000000 2209293827 2209293827 13.00000000
-3.79830074 7.07786703 2.15233922 18 15 33178 8.31600000 2209293832 2209293832 15.00000000
-1.01746738 1.90075386 -0.57768410 4 0 33184 2.23200000 2209293853 2209293853 -15.00000000
-1.18561280 2.21672940 -0.58037370 4 2 33186 2.58000000 2209293857 2209293857 -13.00000000
-1.40879786 2.63512230 -0.58082259 2 4 33187 3.04400000 2209293862 2209293862 -11.00000000
-1.74791098 3.27217174 -0.58756787 2 6 33189 3.75600000 2209293867 2209293867 -9.00000000
-2.29374504 4.29760790 -0.59813476 2 8 33191 4.90800000 2209293871 2209293871 -7.00000000
-3.25331664 6.09804296 -0.60468656 4 10 33192 6.93800000 2209293876 2209293876 -5.00000000
-5.53179073 10.37755394 -0.61630821 4 12 33194 11.77600000 2209293880 2209293880 -3.00000000
-4.52049875 8.48395252 2.21936703 57 13 33195 9.86600000 2209293883 2209293883 13.00000000
-3.76424026 7.06759882 2.14560986 20 15 33196 8.29000000 2209293887 2209293887 15.00000000
-1.00901484 1.90088117 -0.57664883 4 0 33204 2.22800000 2209293908 2209293908 -15.00000000
-1.18608534 2.23634863 -0.58442283 3 2 33206 2.59800000 2209293913 2209293913 -13.00000000
-1.40143013 2.64349294 -0.58158582 2 4 33207 3.04800000 2209293917 2209293917 -11.00000000
-1.74017680 3.28523540 -0.58881932 2 6 33209 3.76400000 2209293922 2209293922 -9.00000000
-2.27687240 4.30207920 -0.59764725 2 8 33211 4.90400000 2209293926 2209293926 -7.00000000
-3.23201084 6.10936213 -0.60468656 4 10 33212 6.93800000 2209293931 2209293931 -5.00000000
-5.52353287 10.44977283 -0.61944836 4 12 33214 11.83600000 2209293936 2209293936 -3.00000000
-4.49267769 8.50312710 2.22026682 55 13 33215 9.87000000 2209293938 2209293938 13.00000000
-3.72929215 7.06426382 2.14043355 20 15 33217 8.27000000 2209293943 2209293943 15.00000000
-1.00204098 1.90456665 -0.57664883 4 0 33225 2.22800000 2209293963 2209293963 -15.00000000
-1.17606723 2.23723102 -0.58352304 3 2 33227 2.59400000 2209293968 2209293968 -13.00000000
-1.39903760 2.66251516 -0.58463877 2 4 33228 3.06400000 2209293973 2209293973 -11.00000000
-1.71894181 3.27410173 -0.58569062 2 6 33230 3.74400000 2209293977 2209293977 -9.00000000
-2.25924492 4.30687952 -0.59715980 2 8 33232 4.90000000 2209293982 2209293982 -7.00000000
-3.20589614 6.11410856 -0.60398930 4 10 33233 6.93000000 2209293986 2209293986 -5.00000000
-5.46295071 10.42748737 -0.61693627 4 12 33235 11.78800000 2209293991 2209293991 -3.00000000
-4.46148205 8.51953602 2.22026682 60 13 33236 9.87000000 2209293993 2209293993 13.00000000
-3.69744325 7.06354618 2.13629246 20 15 33237 8.25400000 2209293998 2209293998 15.00000000
-0.99538672 1.90805280 -0.57664883 4 0 33245 2.22800000 2209294019 2209294019 -15.00000000
-1.16464782 2.23441029 -0.58172345 3 2 33247 2.58600000 2209294023 2209294023 -13.00000000
-1.38973510 2.66738248 -0.58463877 2 4 33248 3.06400000 2209294028 2209294028 -11.00000000
-1.72392082 3.31162119 -0.59132230 2 6 33250 3.78000000 2209294032 2209294032 -9.00000000
-2.24786139 4.32178402 -0.59813476 2 8 33252 4.90800000 2209294037 2209294037 -7.00000000
-3.20107746 6.15708160 -0.60712689 4 10 33253 6.96600000 2209294042 2209294042 -5.00000000
-5.44493246 10.48194122 -0.61902970 4 12 33255 11.82800000 2209294046 2209294046 -3.00000000
-4.42812395 8.52814007 2.21846724 57 13 33256 9.86200000 2209294049 2209294049 13.00000000
-3.67098451 7.07298040 2.13525701 20 15 33257 8.25000000 2209294053 2209294053 15.00000000
-0.99404550 1.92181110 -0.57975465 4 0 33265 2.24000000 2209294074 2209294074 -15.00000000
-1.15684116 2.23846197 -0.58172345 3 2 33267 2.58600000 2209294079 2209294079 -13.00000000
-1.38041580 2.67221737 -0.58463877 2 4 33268 3.06400000 2209294083 2209294083 -11.00000000
-1.70057261 3.29479909 -0.58725500 2 6 33270 3.75400000 2209294088 2209294088 -9.00000000
-2.23094225 4.32607555 -0.59764725 2 8 33272 4.90400000 2209294092 2209294092 -7.00000000
-3.18686891 6.18238544 -0.60852140 4 10 33273 6.98200000 2209294097 2209294097 -5.00000000
-5.40831041 10.50088406 -0.61902970 4 12 33275 11.82800000 2209294102 2209294102 -3.00000000
-4.39476013 8.53661442 2.21666765 60 13 33276 9.85400000 2209294104 2209294104 13.00000000
-3.64185309 7.07716274 2.13266897 20 15 33277 8.24000000 2209294108 2209294108 15.00000000
-0.98292339 1.91667438 -0.57716650 4 0 33285 2.23000000 2209294129 2209294129 -15.00000000
-1.15079772 2.24595523 -0.58262324 3 2 33287 2.59000000 2209294134 2209294134 -13.00000000
-1.37107956 2.67701960 -0.58463877 2 4 33288 3.06400000 2209294138 2209294138 -11.00000000
-1.69356060 3.30950761 -0.58881932 2 6 33290 3.76400000 2209294143 2209294143 -9.00000000
-2.20859838 4.31969690 -0.59569734 2 8 33292 4.88800000 2209294148 2209294148 -7.00000000
-3.15257525 6.16863441 -0.60608101 4 10 33293 6.95400000 2209294152 2209294152 -5.00000000
-5.39160490 10.55883121 -0.62133247 4 12 33295 11.87200000 2209294157 2209294157 -3.00000000
-4.36493492 8.55190277 2.21666765 56 13 33296 9.85400000 2209294159 2209294159 13.00000000
-3.60886836 7.07669497 2.12852788 15 15 33298 8.22400000 2209294164 2209294164 15.00000000
-0.97656202 1.91992331 -0.57716650 4 0 33304 2.23000000 2209294185 2209294185 -15.00000000
-1.14687502 2.25670815 -0.58442283 3 2 33306 2.59800000 2209294189 2209294189 -13.00000000
-1.36397302 2.68505239 -0.58540201 2 4 33307 3.06800000 2209294194 2209294194 -11.00000000
-1.68615270 3.32215142 -0.59007078 2 6 33309 3.77200000 2209294198 2209294198 -9.00000000
-2.20323968 4.34470177 -0.59813476 2 8 33311 4.90800000 2209294203 2209294203 -7.00000000
-3.14110994 6.19682598 -0.60782415 4 10 33312 6.97400000 2209294208 2209294208 -5.00000000
-4.97169638 9.81247902 2.13820553 12 11 33313 11.20600000 2209294210 2209294210 11.00000000
-5.36017084 10.58378029 -0.62175119 4 12 33314 11.88000000 2209294212 2209294212 -3.00000000
-4.33567190 8.56459141 2.21621776 57 13 33315 9.85200000 2209294214 2209294214 13.00000000
-3.57527947 7.06558943 2.12179852 15 15 33316 8.19800000 2209294219 2209294219 15.00000000
-0.96637499 1.91642058 -0.57509589 4 0 33324 2.22200000 2209294240 2209294240 -15.00000000
-1.13723707 2.25721693 -0.58352304 3 2 33326 2.59400000 2209294244 2209294244 -13.00000000
-1.34929383 2.67927647 -0.58311230 2 4 33327 3.05600000 2209294249 2209294249 -11.00000000
-1.67099440 3.32095861 -0.58881932 2 6 33329 3.76400000 2209294254 2209294254 -9.00000000
-2.20232654 4.38074350 -0.60203457 2 8 33331 4.94000000 2209294258 2209294258 -7.00000000
-3.10514641 6.17926884 -0.60503519 4 10 33332 6.94200000 2209294263 2209294263 -5.00000000
-4.92067099 9.79644108 2.13095474 15 11 33333 11.16800000 2209294265 2209294265 11.00000000
-5.33574009 10.62741470 -0.62321657 4 12 33334 11.90800000 2209294267 2209294267 -3.00000000
-4.30574942 8.57967377 2.21621776 57 13 33335 9.85200000 2209294270 2209294270 13.00000000
-3.54539704 7.06766558 2.11869264 9 15 33336 8.18600000 2209294274 2209294274 15.00000000
-0.96227098 1.92496622 -0.57664883 4 0 33344 2.22800000 2209294295 2209294295 -15.00000000
-1.12760949 2.25768614 -0.58262324 3 2 33346 2.59000000 2209294300 2209294300 -13.00000000
-1.34344089 2.69099617 -0.58463877 4 4 33347 3.06400000 2209294304 2209294304 -11.00000000
-1.66644561 3.34091258 -0.59132230 2 6 33349 3.78000000 2209294309 2209294309 -9.00000000
-2.17816710 4.37063742 -0.59959716 2 8 33351 4.92000000 2209294313 2209294313 -7.00000000
-3.09421825 6.21147060 -0.60712689 4 10 33352 6.96600000 2209294318 2209294318 -5.00000000
-4.87769461 9.79598331 2.12713861 18 11 33353 11.14800000 2209294320 2209294320 11.00000000
-5.30128050 10.65133953 -0.62353057 4 12 33354 11.91400000 2209294323 2209294323 -3.00000000
-4.27056646 8.58418274 2.21351838 59 13 33355 9.84000000 2209294325 2209294325 13.00000000
-3.52672577 7.09210682 2.12231612 6 15 33356 8.20000000 2209294330 2209294330 15.00000000
-0.95554572 1.92831337 -0.57664883 4 0 33364 2.22800000 2209294350 2209294350 -15.00000000
-1.11626327 2.25462294 -0.58082360 3 2 33366 2.58200000 2209294355 2209294355 -13.00000000
-1.33229780 2.69215012 -0.58387554 2 4 33367 3.06000000 2209294360 2209294360 -11.00000000
-1.64952028 3.33608460 -0.58944505 2 6 33369 3.76800000 2209294364 2209294364 -9.00000000
-2.16289735 4.37821388 -0.59959716 2 8 33371 4.92000000 2209294369 2209294369 -7.00000000
-3.13779616 6.35443163 -0.62002593 4 10 33372 7.11400000 2209294373 2209294373 -5.00000000
-4.83478117 9.79534435 2.12332249 21 11 33373 11.12800000 2209294376 2209294376 11.00000000
-5.28262520 10.70739269 -0.62572867 4 12 33374 11.95600000 2209294378 2209294378 -3.00000000
-4.23885250 8.59554195 2.21261859 57 13 33375 9.83600000 2209294380 2209294380 13.00000000
-3.51266193 7.12924623 2.12956309 2 15 33377 8.22800000 2209294385 2209294385 15.00000000
-0.95221567 1.93857300 -0.57871938 4 0 33384 2.23600000 2209294406 2209294406 -15.00000000
-1.11868894 2.27949882 -0.58622247 3 2 33386 2.60600000 2209294410 2209294410 -13.00000000
-1.32462156 2.70030951 -0.58463877 2 4 33387 3.06400000 2209294415 2209294415 -11.00000000
-1.64829743 3.36310768 -0.59319949 2 6 33389 3.79200000 2209294419 2209294419 -9.00000000
-2.15807748 4.40713120 -0.60252202 2 8 33391 4.94400000 2209294424 2209294424 -7.00000000
-3.09282231 6.31881809 -0.61549383 4 10 33392 7.06200000 2209294429 2209294429 -5.00000000
-4.79451990 9.79981709 2.12065125 21 11 33393 11.11400000 2209294431 2209294431 11.00000000
-5.25574636 10.74729824 -0.62698478 4 12 33394 11.98000000 2209294433 2209294433 -3.00000000
-4.20711088 8.60678482 2.21171880 60 13 33395 9.83200000 2209294436 2209294436 13.00000000
-3.92661047 8.03649998 2.39666438 45 15 33396 9.26000000 2209294440 2209294440 15.00000000
-0.93867773 1.92798960 -0.57457829 4 0 33404 2.22000000 2209294461 2209294461 -15.00000000
-1.10561049 2.27287531 -0.58352304 3 2 33406 2.59400000 2209294465 2209294465 -13.00000000
-1.31347072 2.70138550 -0.58387554 2 4 33407 3.06000000 2209294470 2209294470 -11.00000000
-1.62791634 3.35107279 -0.59007078 2 6 33409 3.77200000 2209294475 2209294475 -9.00000000
-2.14268064 4.41463757 -0.60252202 2 8 33411 4.94400000 2209294479 2209294479 -7.00000000
-3.04987502 6.28655386 -0.61131036 4 10 33412 7.01400000 2209294484 2209294484 -5.00000000
-4.75257301 9.80059433 2.11721659 21 11 33413 11.09600000 2209294486 2209294486 11.00000000
-5.22516870 10.77995682 -0.62782216 4 12 33414 11.99600000 2209294489 2209294489 -3.00000000
-4.17704201 8.62141800 2.21171880 59 13 33415 9.83200000 2209294491 2209294491 13.00000000
-3.91958427 8.09362507 2.40960526 42 15 33416 9.31000000 2209294495 2209294495 15.00000000
-0.93278170 1.93299437 -0.57509589 4 0 33424 2.22200000 2209294516 2209294516 -15.00000000
-1.09428465 2.26969934 -0.58172345 3 2 33426 2.58600000 2209294521 2209294521 -13.00000000
-1.30744243 2.71302843 -0.58540201 2 4 33427 3.06800000 2209294525 2209294525 -11.00000000
-1.61278117 3.34961557 -0.58881932 2 6 33429 3.76400000 2209294530 2209294530 -9.00000000
-2.11348891 4.39346790 -0.59862220 2 8 33431 4.91200000 2209294535 2209294535 -7.00000000
-3.03654623 6.31511736 -0.61305350 4 10 33432 7.03400000 2209294539 2209294539 -5.00000000
-4.70472670 9.78881264 2.11111069 18 11 33433 11.06400000 2209294542 2209294542 11.00000000
-4.15198326 8.64648628 2.21441817 57 13 33435 9.84400000 2209294546 2209294546 13.00000000
-3.91161990 8.15322208 2.42306399 45 15 33437 9.36200000 2209294551 2209294551 15.00000000
-0.93186313 1.94843805 -0.57871938 4 0 33444 2.23600000 2209294571 2209294571 -15.00000000
-1.09139645 2.28405523 -0.58442283 3 2 33446 2.59800000 2209294576 2209294576 -13.00000000
-1.30642545 2.73529124 -0.58921820 2 4 33447 3.08800000 2209294581 2209294581 -11.00000000
-1.60618341 3.36592174 -0.59069651 2 6 33449 3.77600000 2209294585 2209294585 -9.00000000
-2.12376881 4.45457458 -0.60593438 2 8 33451 4.97200000 2209294590 2209294590 -7.00000000
-3.02648354 6.35085869 -0.61549383 4 10 33452 7.06200000 2209294595 2209294595 -5.00000000
-4.66546297 9.79454136 2.10882092 21 11 33453 11.05200000 2209294597 2209294597 11.00000000
-5.14205647 10.79994297 -0.62688011 4 12 33454 11.97800000 2209294599 2209294599 -3.00000000
-4.11507702 8.64684963 2.21081901 59 13 33455 9.82800000 2209294601 2209294601 13.00000000
-3.91548872 8.23486900 2.44325185 42 15 33457 9.44000000 2209294606 2209294606 15.00000000
-0.92588359 1.95342469 -0.57923704 4 0 33464 2.23800000 2209294627 2209294627 -15.00000000
-1.08341694 2.28785086 -0.58442283 3 2 33466 2.59800000 2209294631 2209294631 -13.00000000
-1.28847015 2.72208977 -0.58540201 2 4 33467 3.06800000 2209294636 2209294636 -11.00000000
-1.59949136 3.38222218 -0.59257376 2 6 33469 3.78800000 2209294641 2209294641 -9.00000000
-2.09972620 4.44401217 -0.60349697 2 8 33471 4.95200000 2209294645 2209294645 -7.00000000
-3.00429654 6.36138439 -0.61549383 4 10 33472 7.06200000 2209294650 2209294650 -5.00000000
-4.62789297 9.80366516 2.10729456 21 11 33473 11.04400000 2209294652 2209294652 11.00000000
-4.08154345 8.65411091 2.20901942 57 13 33475 9.82000000 2209294657 2209294657 13.00000000
-3.91389370 8.30615616 2.46033382 45 15 33477 9.50600000 2209294661 2209294661 15.00000000
-0.91659522 1.95139909 -0.57768410 4 0 33484 2.23200000 2209294682 2209294682 -15.00000000
-1.07708001 2.29514718 -0.58532262 3 2 33486 2.60200000 2209294687 2209294687 -13.00000000
-1.27562547 2.71946120 -0.58387554 2 4 33487 3.06000000 2209294691 2209294691 -11.00000000
-1.58432245 3.38063025 -0.59132230 2 6 33489 3.78000000 2209294696 2209294696 -9.00000000
-2.08756781 4.45850563 -0.60447192 2 8 33491 4.96000000 2209294701 2209294701 -7.00000000
-3.57578492 7.64042473 -0.73803484 4 10 33492 8.46800000 2209294705 2209294705 -5.00000000
-4.58865213 9.80909061 2.10500479 21 11 33493 11.03200000 2209294707 2209294707 11.00000000
-3.59284854 7.68386984 -0.44454160 8 12 33494 8.49400000 2209294710 2209294710 -3.00000000
-4.04966021 8.66477489 2.20811963 59 13 33495 9.81600000 2209294712 2209294712 13.00000000
-3.91103125 8.37578106 2.47689819 45 15 33497 9.57000000 2209294717 2209294717 15.00000000
-0.90896279 1.95283520 -0.57716650 4 0 33504 2.23000000 2209294737 2209294737 -15.00000000
-1.07563567 2.31302905 -0.58892184 3 2 33506 2.61800000 2209294742 2209294742 -13.00000000
-1.26778007 2.72745800 -0.58463877 2 4 33507 3.06400000 2209294747 2209294747 -11.00000000
-1.58166444 3.40584755 -0.59476382 2 6 33509 3.80200000 2209294751 2209294751 -9.00000000
-2.97490096 6.41473818 -0.61863148 4 10 33512 7.09800000 2209294760 2209294760 -5.00000000
-4.54117346 9.79654884 2.09889889 21 11 33513 11.00000000 2209294763 2209294763 11.00000000
-3.57272196 7.71086216 -0.44537899 17 12 33514 8.51000000 2209294765 2209294765 -3.00000000
-4.01938963 8.67885780 2.20811963 57 13 33515 9.81600000 2209294767 2209294767 13.00000000
-3.90433478 8.43428612 2.49035692 47 15 33516 9.62200000 2209294772 2209294772 15.00000000
-0.90537697 1.96301329 -0.57923704 4 0 33524 2.23800000 2209294793 2209294793 -15.00000000
-1.06266189 2.30615020 -0.58622247 3 2 33526 2.60600000 2209294797 2209294797 -13.00000000
-1.26317966 2.74256587 -0.58692849 2 4 33527 3.07600000 2209294802 2209294802 -11.00000000
-1.56233430 3.39519739 -0.59194803 2 6 33529 3.78400000 2209294806 2209294806 -9.00000000
-3.53899622 7.70140982 -0.74152106 8 10 33532 8.50800000 2209294816 2209294816 -5.00000000
-4.49219942 9.78022766 2.09202981 25 11 33533 10.96400000 2209294818 2209294818 11.00000000
-3.54495096 7.72147131 -0.44527432 17 12 33534 8.50800000 2209294820 2209294820 -3.00000000
-3.98907042 8.69283485 2.20811963 59 13 33535 9.81600000 2209294823 2209294823 13.00000000
-3.54324174 7.72485828 -0.14834546 22 14 33536 8.50000000 2209294825 2209294825 -1.00000000
-3.89030290 8.48541737 2.50122714 42 15 33537 9.66400000 2209294827 2209294827 15.00000000
-0.90092814 1.97143281 -0.58078992 4 0 33544 2.24400000 2209294848 2209294848 -15.00000000
-1.04974914 2.29920936 -0.58352304 3 2 33546 2.59400000 2209294853 2209294853 -13.00000000
-1.25196838 2.74338651 -0.58616525 2 4 33547 3.07200000 2209294857 2209294857 -11.00000000
-1.55211234 3.40422487 -0.59257376 2 6 33549 3.78800000 2209294862 2209294862 -9.00000000
-3.49398708 7.67040205 -1.03491449 138 8 33551 8.49200000 2209294866 2209294866 -7.00000000
-2.95316219 6.48612213 -0.62351221 4 10 33552 7.15400000 2209294871 2209294871 -5.00000000
-4.45640612 9.79227448 2.09126663 21 11 33553 10.96000000 2209294873 2209294873 11.00000000
-3.50557184 7.70652819 -0.44370425 38 12 33554 8.47800000 2209294876 2209294876 -3.00000000
-3.95708919 8.70315838 2.20721984 56 13 33555 9.81200000 2209294878 2209294878 13.00000000
-3.51791000 7.74082041 -0.14841527 32 14 33556 8.50400000 2209294880 2209294880 -1.00000000
-3.86853695 8.51234150 2.50536847 40 15 33556 9.68000000 2209294883 2209294883 15.00000000
-0.89483792 1.97632551 -0.58130759 4 0 33564 2.24600000 2209294903 2209294903 -15.00000000
-1.04814243 2.31706381 -0.58712226 3 2 33566 2.61000000 2209294908 2209294908 -13.00000000
-1.23753154 2.73700666 -0.58387554 2 4 33567 3.06000000 2209294912 2209294912 -11.00000000
-1.53696704 3.40242124 -0.59132230 2 6 33569 3.78000000 2209294917 2209294917 -9.00000000
-3.46147490 7.66988611 -1.03320825 126 8 33571 8.47800000 2209294922 2209294922 -7.00000000
-2.91411829 6.46006823 -0.62002593 4 10 33572 7.11400000 2209294926 2209294926 -5.00000000
-4.41735601 9.79703236 2.08897686 21 11 33573 10.94800000 2209294929 2209294929 11.00000000
-3.47618771 7.71325541 -0.44339022 34 12 33574 8.47200000 2209294931 2209294931 -3.00000000
-3.93148780 8.72757912 2.20991921 62 13 33575 9.82400000 2209294933 2209294933 13.00000000
-3.47855306 7.72570229 -0.14789169 24 14 33576 8.47400000 2209294936 2209294936 -1.00000000
-3.83651900 8.52470112 2.50485063 40 15 33577 9.67800000 2209294938 2209294938 15.00000000
-0.89030582 1.98472500 -0.58286047 4 0 33584 2.25200000 2209294959 2209294959 -15.00000000
-1.03845406 2.31715178 -0.58622247 3 2 33586 2.60600000 2209294963 2209294963 -13.00000000
-1.23118043 2.74847651 -0.58540201 2 4 33587 3.06800000 2209294968 2209294968 -11.00000000
-1.53476405 3.42940211 -0.59507668 2 6 33589 3.80400000 2209294972 2209294972 -9.00000000
-2.88342142 6.45201063 -0.61828285 4 10 33592 7.09400000 2209294982 2209294982 -5.00000000
-4.38072872 9.80701447 2.08783197 12 11 33593 10.94200000 2209294984 2209294984 11.00000000
-3.46471334 7.75999355 -0.44537899 17 12 33594 8.51000000 2209294986 2209294986 -3.00000000
-3.91529393 8.77328205 2.21801734 60 13 33595 9.86000000 2209294989 2209294989 13.00000000
-3.44586182 7.72501373 -0.14764735 12 14 33596 8.46000000 2209294991 2209294991 -1.00000000
-3.80980277 8.54090500 2.50588608 40 15 33596 9.68200000 2209294993 2209294993 15.00000000
-0.87866527 1.97722828 -0.57975465 4 0 33604 2.24000000 2209295014 2209295014 -15.00000000
-4.77068329 10.74034500 0.20513558 13 1 33605 11.75400000 2209295016 2209295016 1.00000000
-1.03510392 2.33144903 -0.58892184 3 2 33606 2.61800000 2209295018 2209295018 -13.00000000
-4.77003765 10.74900341 0.61630821 13 3 33607 11.77600000 2209295021 2209295021 3.00000000
-1.22317159 2.75634646 -0.58616525 2 4 33607 3.07200000 2209295023 2209295023 -11.00000000
-4.76057529 10.73273277 1.02721763 12 5 33608 11.78600000 2209295025 2209295025 5.00000000
-1.51317644 3.41306829 -0.59132230 2 6 33609 3.78000000 2209295028 2209295028 -9.00000000
-4.76916361 10.76222992 1.44537044 12 7 33610 11.86000000 2209295030 2209295030 7.00000000
-4.76527405 10.76359367 1.86438596 9 9 33612 11.91800000 2209295035 2209295035 9.00000000
-2.87540030 6.49482965 -0.62142044 4 10 33612 7.13000000 2209295037 2209295037 -5.00000000
-3.42791009 7.75012159 -0.44412291 12 12 33614 8.48600000 2209295041 2209295041 -3.00000000
-3.90198088 8.82610607 2.22791529 64 13 33615 9.90400000 2209295044 2209295044 13.00000000
-4.74763012 10.74399757 -0.20503087 8 14 33616 11.74800000 2209295046 2209295046 -1.00000000
-3.77691221 8.55127716 2.50485063 40 15 33617 9.67800000 2209295048 2209295048 15.00000000
-0.87288237 1.98189914 -0.58027232 4 0 33623 2.24200000 2209295069 2209295069 -15.00000000
-4.72053862 10.72316265 0.20450729 16 1 33624 11.71800000 2209295071 2209295071 1.00000000
-1.02422750 2.32773399 -0.58712226 3 2 33625 2.61000000 2209295074 2209295074 -13.00000000
-4.73115015 10.75744915 0.61588955 18 3 33626 11.76800000 2209295076 2209295076 3.00000000
-1.21560526 2.76398158 -0.58692849 2 4 33626 3.07600000 2209295078 2209295078 -11.00000000
-4.71613836 10.72839642 1.02530015 17 5 33627 11.76400000 2209295081 2209295081 5.00000000
-1.50661767 3.42891836 -0.59319949 2 6 33628 3.79200000 2209295083 2209295083 -9.00000000
-4.72865915 10.76708031 1.44390798 23 7 33629 11.84800000 2209295085 2209295085 7.00000000
-4.72270155 10.75861454 1.86094439 12 9 33630 11.89600000 2209295090 2209295090 9.00000000
-3.38859296 7.72309256 -0.73786050 4 10 33631 8.46600000 2209295092 2209295092 -5.00000000
-4.53071070 10.33104324 2.19277692 31 11 33632 11.49200000 2209295094 2209295094 11.00000000
-3.39818168 7.75230026 -0.44359955 4 12 33633 8.47600000 2209295097 2209295097 -3.00000000
-3.91022921 8.92467403 2.24951053 64 13 33634 10.00000000 2209295099 2209295099 13.00000000
-4.69994307 10.73220539 -0.20450729 8 14 33635 11.71800000 2209295101 2209295101 -1.00000000
-3.74847913 8.55956078 2.50381541 38 15 33635 9.67400000 2209295104 2209295104 15.00000000
-0.86595893 1.98493409 -0.58027232 4 0 33643 2.24200000 2209295124 2209295124 -15.00000000
-4.67908239 10.73040962 0.20433277 20 1 33644 11.70800000 2209295127 2209295127 1.00000000
-1.01453865 2.32772207 -0.58622247 3 2 33645 2.60600000 2209295129 2209295129 -13.00000000
-4.67921257 10.74094009 0.61400545 21 3 33646 11.73200000 2209295131 2209295131 3.00000000
-1.20751798 2.77180791 -0.58769172 2 4 33646 3.08000000 2209295134 2209295134 -11.00000000
-4.67468309 10.73566055 1.02442861 17 5 33647 11.75400000 2209295136 2209295136 5.00000000
-1.50094593 3.44864678 -0.59570247 2 6 33648 3.80800000 2209295138 2209295138 -9.00000000
-4.67520905 10.74711418 1.43903315 19 7 33649 11.80800000 2209295141 2209295141 7.00000000
-4.67649937 10.75521183 -1.44000816 2 8 33650 11.81600000 2209295143 2209295143 -7.00000000
-4.67615128 10.75954723 1.85812855 15 9 33651 11.87800000 2209295145 2209295145 9.00000000
-4.65924597 10.72064781 -1.02268553 4 10 33651 11.73400000 2209295147 2209295147 -5.00000000
-4.48992729 10.33599091 2.19048738 43 11 33652 11.48000000 2209295150 2209295150 11.00000000
-4.65654135 10.72466469 -0.61274940 8 12 33653 11.70800000 2209295152 2209295152 -3.00000000
-3.90077519 8.98832321 2.26210785 59 13 33654 10.05600000 2209295154 2209295154 13.00000000
-4.65688133 10.73570442 -0.20426297 8 14 33655 11.70400000 2209295157 2209295157 -1.00000000
-3.72015548 8.58033276 2.50588608 42 15 33656 9.68200000 2209295159 2209295159 15.00000000
-0.86362278 1.99858487 -0.58337814 4 0 33663 2.25400000 2209295180 2209295180 -15.00000000
-4.63842630 10.73933411 0.20419316 16 1 33664 11.70000000 2209295182 2209295182 1.00000000
-1.00795197 2.33482766 -0.58712226 3 2 33665 2.61000000 2209295184 2209295184 -13.00000000
-4.63298702 10.73703575 0.61285406 21 3 33666 11.71000000 2209295187 2209295187 3.00000000
-1.19472396 2.76879549 -0.58616525 2 4 33666 3.07200000 2209295189 2209295189 -11.00000000
-4.63165712 10.73910618 1.02320838 17 5 33667 11.74000000 2209295191 2209295191 5.00000000
-1.48889875 3.45386505 -0.59570247 2 6 33668 3.80800000 2209295194 2209295194 -9.00000000
-4.63216734 10.75060749 1.43732703 19 7 33669 11.79400000 2209295196 2209295196 7.00000000
-4.60280895 10.68760300 -1.42879617 2 8 33670 11.72400000 2209295198 2209295198 -7.00000000
-4.63263226 10.75685215 1.85499990 15 9 33670 11.85800000 2209295200 2209295200 9.00000000
-4.62337112 10.74050713 -1.02303410 4 10 33671 11.73800000 2209295203 2209295203 -5.00000000
-4.45770025 10.36061859 2.19239545 46 11 33672 11.49000000 2209295205 2209295205 11.00000000
-4.61434269 10.72984505 -0.61212134 8 12 33673 11.69600000 2209295207 2209295207 -3.00000000
-3.89400244 9.05917645 2.27650476 60 13 33674 10.12000000 2209295210 2209295210 13.00000000
-4.61227417 10.73535919 -0.20394883 10 14 33675 11.68600000 2209295212 2209295212 -1.00000000
-3.69320679 8.59617138 2.50692129 40 15 33675 9.68600000 2209295214 2209295214 15.00000000
-0.85512096 1.99803531 -0.58234286 4 0 33683 2.25000000 2209295235 2209295235 -15.00000000
-4.59461880 10.74075222 0.20391391 16 1 33684 11.68400000 2209295237 2209295237 1.00000000
-1.00286031 2.34549904 -0.58892184 3 2 33685 2.61800000 2209295240 2209295240 -13.00000000
-4.58841562 10.73661327 0.61191201 18 3 33686 11.69200000 2209295242 2209295242 3.00000000
-1.18042266 2.76211715 -0.58387554 2 4 33686 3.06000000 2209295244 2209295244 -11.00000000
-4.58475065 10.73322105 1.02111673 17 5 33687 11.71600000 2209295247 2209295247 5.00000000
-1.47838473 3.46267462 -0.59632820 2 6 33688 3.81200000 2209295249 2209295249 -9.00000000
-4.59149599 10.75940800 1.43635213 19 7 33689 11.78600000 2209295251 2209295251 7.00000000
-1.94239056 4.55387068 -0.60788429 2 8 33690 4.98800000 2209295253 2209295253 -7.00000000
-4.58155489 10.74650192 1.85030687 15 9 33691 11.82800000 2209295256 2209295256 9.00000000
-4.57491207 10.73092079 -1.02059376 4 10 33691 11.71000000 2209295258 2209295258 -5.00000000
-4.42304707 10.37972736 2.19315863 46 11 33692 11.49400000 2209295260 2209295260 11.00000000
-4.56433821 10.71648598 -0.61044657 8 12 33693 11.66400000 2209295263 2209295263 -3.00000000
-3.89746857 9.15519238 2.29720020 60 13 33694 10.21200000 2209295265 2209295265 13.00000000
-4.56224537 10.72195244 -0.20339034 17 14 33695 11.65400000 2209295267 2209295267 -1.00000000
-3.66016316 8.60609436 2.50588608 40 15 33696 9.68200000 2209295270 2209295270 15.00000000
-0.84060228 1.98322129 -0.57716650 4 0 33703 2.23000000 2209295290 2209295290 -15.00000000
-4.54383755 10.72542286 0.20332053 13 1 33704 11.65000000 2209295293 2209295293 1.00000000
-0.99618661 2.35257459 -0.58982164 3 2 33705 2.62200000 2209295295 2209295295 -13.00000000
-4.54857445 10.74704647 0.61159796 18 3 33706 11.68600000 2209295297 2209295297 3.00000000
-1.17842603 2.78430080 -0.58769172 4 4 33706 3.08000000 2209295300 2209295300 -11.00000000
-4.54337549 10.73998451 1.02024508 17 5 33707 11.70600000 2209295302 2209295302 5.00000000
-1.45705712 3.44598103 -0.59257376 2 6 33708 3.78800000 2209295304 2209295304 -9.00000000
-4.54772854 10.76074123 1.43440223 19 7 33709 11.77000000 2209295306 2209295306 7.00000000
-1.91257870 4.52770805 -0.60349697 2 8 33710 4.95200000 2209295309 2209295309 -7.00000000
-4.54204941 10.75253773 1.84874249 15 9 33710 11.81800000 2209295311 2209295311 9.00000000
-4.53742647 10.74682522 -1.02059376 4 10 33711 11.71000000 2209295313 2209295313 -5.00000000
-4.38373518 10.38786888 2.19163203 43 11 33712 11.48600000 2209295316 2209295316 11.00000000
-4.52535009 10.72867298 -0.61023724 8 12 33713 11.66000000 2209295318 2209295318 -3.00000000
-3.89122677 9.22979450 2.31249690 60 13 33714 10.28000000 2209295320 2209295320 13.00000000
-4.51935530 10.72491264 -0.20314601 17 14 33715 11.64000000 2209295323 2209295323 -1.00000000
-3.63160419 8.61818504 2.50588608 38 15 33715 9.68200000 2209295325 2209295325 15.00000000
-0.83965594 2.00039387 -0.58130759 4 0 33723 2.24600000 2209295346 2209295346 -15.00000000
-4.49863482 10.72277927 0.20297149 13 1 33724 11.63000000 2209295348 2209295348 1.00000000
-0.98344690 2.34525466 -0.58712226 3 2 33725 2.61000000 2209295350 2209295350 -13.00000000
-4.50254011 10.74259663 0.61044657 21 3 33726 11.66400000 2209295353 2209295353 3.00000000
-1.16794086 2.78658652 -0.58731008 4 4 33726 3.07800000 2209295355 2209295355 -11.00000000
-4.50046968 10.74291515 1.01902497 55 5 33727 11.69200000 2209295357 2209295357 5.00000000
-1.45417488 3.47291112 -0.59632820 2 6 33728 3.81200000 2209295359 2209295359 -9.00000000
-4.49940968 10.75091362 1.43098986 19 7 33729 11.74200000 2209295362 2209295362 7.00000000
-4.49217081 10.73887920 -1.42928362 2 8 33730 11.72800000 2209295364 2209295364 -7.00000000
-4.50067711 10.75921440 1.84717822 12 9 33730 11.80800000 2209295366 2209295366 9.00000000
-4.49988556 10.76259804 -1.02059376 4 10 33731 11.71000000 2209295369 2209295369 -5.00000000
-4.34214878 10.39042759 2.18896079 50 11 33732 11.47200000 2209295371 2209295371 11.00000000
-4.47401667 10.71123028 -0.60835314 8 12 33733 11.62400000 2209295373 2209295373 -3.00000000
-3.89352083 9.32604408 2.33319235 64 13 33734 10.37200000 2209295376 2209295376 13.00000000
-4.47573042 10.72585964 -0.20286678 17 14 33735 11.62400000 2209295378 2209295378 -1.00000000
-3.59926724 8.62546062 2.50433302 38 15 33735 9.67600000 2209295380 2209295380 15.00000000
-0.83711696 2.01401591 -0.58441341 4 0 33743 2.25800000 2209295401 2209295401 -15.00000000
-4.45504045 10.72364330 0.20269226 13 1 33744 11.61400000 2209295403 2209295403 1.00000000
-0.97375983 2.34507370 -0.58622247 3 2 33745 2.60600000 2209295406 2209295406 -13.00000000
-4.46042061 10.74717999 0.60981858 23 3 33746 11.65200000 2209295408 2209295408 3.00000000
-1.16422737 2.80515289 -0.59036303 4 4 33746 3.09400000 2209295410 2209295410 -11.00000000
-4.45836163 10.74751759 1.01797903 80 5 33747 11.68000000 2209295412 2209295412 5.00000000
-1.43750381 3.46701765 -0.59445095 2 6 33748 3.80000000 2209295415 2209295415 -9.00000000
-4.45197487 10.74271393 1.42782128 19 7 33749 11.71600000 2209295417 2209295417 7.00000000
-4.43794489 10.71414661 -1.42392147 2 8 33750 11.68400000 2209295419 2209295419 -7.00000000
-4.45667839 10.76468754 1.84530091 12 9 33751 11.79600000 2209295422 2209295422 9.00000000
-2.74901414 6.63998508 -0.62874150 4 10 33751 7.21400000 2209295424 2209295424 -5.00000000
-4.30660391 10.40733528 2.18934250 46 11 33752 11.47400000 2209295426 2209295426 11.00000000
-4.43507338 10.72309113 -0.60814381 8 12 33753 11.62000000 2209295429 2209295429 -3.00000000
-3.88625598 9.40080929 2.34848905 59 13 33754 10.44000000 2209295431 2209295431 13.00000000
-4.43597174 10.73587322 -0.20276205 14 14 33755 11.61800000 2209295433 2209295433 -1.00000000
-3.57208776 8.64511299 2.50640368 38 15 33755 9.68400000 2209295435 2209295435 15.00000000
-0.82714069 2.00977993 -0.58234286 4 0 33763 2.25000000 2209295456 2209295456 -15.00000000
-4.41605949 10.73542976 0.20262244 13 1 33764 11.61000000 2209295459 2209295459 1.00000000
-0.97001427 2.35927272 -0.58892184 3 2 33765 2.61800000 2209295461 2209295461 -13.00000000
-4.41604614 10.74605751 0.60887653 21 3 33766 11.63400000 2209295463 2209295463 3.00000000
-1.15517473 2.81101561 -0.59074467 4 4 33766 3.09600000 2209295465 2209295465 -11.00000000
-4.41400576 10.74642754 1.01641023 80 5 33767 11.66200000 2209295468 2209295468 5.00000000
-1.43439531 3.49394274 -0.59820539 2 6 33768 3.82400000 2209295470 2209295470 -9.00000000
-4.41143417 10.75084305 1.42684627 21 7 33769 11.70800000 2209295472 2209295472 7.00000000
-4.40051842 10.72957325 -1.42392147 2 8 33770 11.68400000 2209295475 2209295475 -7.00000000
-4.40933561 10.75641727 1.84123361 15 9 33771 11.77000000 2209295477 2209295477 9.00000000
-2.72581959 6.64954042 -0.62874150 4 10 33771 7.21400000 2209295479 2209295479 -5.00000000
-4.27322626 10.42957115 2.19086885 46 11 33772 11.48200000 2209295482 2209295482 11.00000000
-4.38626194 10.71078300 -0.60657376 12 12 33773 11.59000000 2209295484 2209295484 -3.00000000
-3.87999249 9.47924423 2.36468554 64 13 33774 10.51200000 2209295486 2209295486 13.00000000
-4.38862610 10.72723103 -0.20230830 8 14 33775 11.59200000 2209295488 2209295488 -1.00000000
-3.54184008 8.66172409 2.50743890 38 15 33776 9.68800000 2209295491 2209295491 15.00000000
-0.81866217 2.00907683 -0.58130759 4 0 33783 2.24600000 2209295512 2209295512 -15.00000000
-4.36950779 10.72855568 0.20220359 13 1 33784 11.58600000 2209295514 2209295514 1.00000000
-0.96324241 2.36625409 -0.58982164 3 2 33785 2.62200000 2209295516 2209295516 -13.00000000
-4.37098122 10.74290752 0.60782981 23 3 33786 11.61400000 2209295518 2209295518 3.00000000
-1.13795650 2.79684567 -0.58692849 2 4 33786 3.07600000 2209295521 2209295521 -11.00000000
-4.36821079 10.74146843 1.01449287 72 5 33787 11.64000000 2209295523 2209295523 5.00000000
-1.42814100 3.51356840 -0.60070837 2 6 33788 3.84000000 2209295525 2209295525 -9.00000000
-4.37014389 10.75698090 1.42562759 21 7 33789 11.69800000 2209295528 2209295528 7.00000000
-4.34959555 10.71176243 -1.41953409 2 8 33790 11.64800000 2209295530 2209295530 -7.00000000
-4.36136150 10.74611855 1.83685350 15 9 33791 11.74200000 2209295532 2209295532 9.00000000
-2.68610787 6.61839962 -0.62490666 4 10 33791 7.17000000 2209295535 2209295535 -5.00000000
-4.23531866 10.44078541 2.19010568 43 11 33792 11.47800000 2209295537 2209295537 11.00000000
-4.35260010 10.73528290 -0.60709709 8 12 33793 11.60000000 2209295539 2209295539 -3.00000000
