# .PCD v0.7 - Point Cloud Data file format
VERSION 0.7
FIELDS x y z intensity laser_id azimuth distance_m adjustedtime timestamp vertical_angle
SIZE 4 4 4 1 1 2 8 8 4 8
TYPE F F F U U U F U U F
COUNT 1 1 1 1 1 1 1 1 1 1
WIDTH 523
HEIGHT 1
VIEWPOINT 0 0 0 1 0 0 0
POINTS 523
DATA ascii
-4.10585451 3.39424467 0.09298642 16 1 30958 5.32800000 2209787538 2209787538 1.00000000
-1.84564686 1.52630937 -0.55292970 4 2 30959 2.45800000 2209787540 2209787540 -13.00000000
-4.11044073 3.40045238 0.27957869 24 3 30960 5.34200000 2209787543 2209787543 3.00000000
-2.18133283 1.80455542 -0.55029315 3 4 30960 2.88400000 2209787545 2209787545 -11.00000000
-4.10596657 3.39795804 0.46628323 31 5 30961 5.35000000 2209787547 2209787547 5.00000000
-2.67043304 2.21074486 -0.54908496 3 6 30962 3.51000000 2209787550 2209787550 -9.00000000
-4.10350609 3.39833617 0.65419465 52 7 30963 5.36800000 2209787552 2209787552 7.00000000
-3.41043186 2.82536721 -0.54378098 70 8 30964 4.46200000 2209787554 2209787554 -7.00000000
-4.11021328 3.40510035 0.84537184 60 9 30964 5.40400000 2209787556 2209787556 9.00000000
-4.64664841 3.85087681 -0.52798951 3 10 30965 6.05800000 2209787559 2209787559 -5.00000000
-4.09136581 3.39189506 1.03303993 63 11 30966 5.41400000 2209787561 2209787561 11.00000000
-4.08393955 3.38814449 1.22508347 65 13 30968 5.44600000 2209787566 2209787566 13.00000000
-4.07620573 3.38292933 1.41936362 63 15 30969 5.48400000 2209787570 2209787570 15.00000000
-1.59770620 1.32974195 -0.55697858 4 0 30977 2.15200000 2209787591 2209787591 -15.00000000
-1.84629738 1.53773117 -0.55472928 3 2 30979 2.46600000 2209787596 2209787596 -13.00000000
-2.17200375 1.80964530 -0.54952991 3 4 30980 2.88000000 2209787600 2209787600 -11.00000000
-2.67483759 2.23017287 -0.55158794 3 6 30982 3.52600000 2209787605 2209787605 -9.00000000
-3.39445186 2.83216786 -0.54280603 98 8 30984 4.45400000 2209787609 2209787609 -7.00000000
-4.65459251 3.88494658 -0.53042984 3 10 30985 6.08600000 2209787614 2209787614 -5.00000000
-7.39316797 6.17507315 -0.50483263 8 12 30987 9.64600000 2209787619 2209787619 -3.00000000
-8.67954445 7.25207901 2.61123180 51 13 30988 11.60800000 2209787621 2209787621 13.00000000
-4.06970739 3.40280342 1.42143416 23 15 30990 5.49200000 2209787626 2209787626 15.00000000
-1.59203982 1.33351421 -0.55646098 4 0 30995 2.15000000 2209787646 2209787646 -15.00000000
-1.85041833 1.55103493 -0.55742872 3 2 30997 2.47800000 2209787651 2209787651 -13.00000000
-2.16931677 1.81898284 -0.55029315 3 4 30998 2.88400000 2209787656 2209787656 -11.00000000
-2.67084455 2.24110460 -0.55221367 3 6 31000 3.53000000 2209787660 2209787660 -9.00000000
-3.38097692 2.83898830 -0.54207486 82 8 31002 4.44800000 2209787665 2209787665 -7.00000000
-4.62405729 3.88417244 -0.52833813 3 10 31003 6.06200000 2209787669 2209787669 -5.00000000
-7.38749170 6.20983553 -0.50577468 12 12 31005 9.66400000 2209787674 2209787674 -3.00000000
-8.65075207 7.27429390 2.60943222 55 13 31006 11.60000000 2209787676 2209787676 13.00000000
-7.43765926 6.25643778 2.60423732 45 15 31007 10.06200000 2209787681 2209787681 15.00000000
-1.57703888 1.33034396 -0.55283749 4 0 31015 2.13600000 2209787702 2209787702 -15.00000000
-1.85541654 1.56628406 -0.56057805 4 2 31017 2.49200000 2209787706 2209787706 -13.00000000
-2.16595387 1.82907736 -0.55105639 3 4 31018 2.88800000 2209787711 2209787711 -11.00000000
-2.65093493 2.24021387 -0.54971069 3 6 31020 3.51400000 2209787715 2209787715 -9.00000000
-3.36346769 2.84436369 -0.54085612 90 8 31022 4.43800000 2209787720 2209787720 -7.00000000
-4.64089298 3.92602587 -0.53182435 3 10 31023 6.10200000 2209787725 2209787725 -5.00000000
-7.39320898 6.25881338 -0.50765878 12 12 31025 9.70000000 2209787729 2209787729 -3.00000000
-8.64166546 7.31829977 2.61438107 57 13 31026 11.62200000 2209787732 2209787732 13.00000000
-7.40987921 6.27736712 2.60216665 42 15 31027 10.05400000 2209787736 2209787736 15.00000000
-1.57362449 1.33736622 -0.55335510 4 0 31036 2.13800000 2209787757 2209787757 -15.00000000
-1.84372544 1.56802392 -0.55877841 4 2 31038 2.48400000 2209787762 2209787762 -13.00000000
-2.16820741 1.84463668 -0.55334610 3 4 31039 2.90000000 2209787766 2209787766 -11.00000000
-2.64872289 2.25503707 -0.55096221 3 6 31041 3.52200000 2209787771 2209787771 -9.00000000
-3.36208630 2.86439633 -0.54231858 94 8 31043 4.45000000 2209787775 2209787775 -7.00000000
-4.61585760 3.93396258 -0.53060418 3 10 31044 6.08800000 2209787780 2209787780 -5.00000000
-7.39757299 6.30919790 -0.50954288 12 12 31046 9.73600000 2209787785 2209787785 -3.00000000
-8.61478519 7.34992361 2.61438107 57 13 31047 11.62200000 2209787787 2209787787 13.00000000
-7.38535213 6.30322933 2.60164905 42 15 31048 10.05200000 2209787791 2209787791 15.00000000
-1.57775259 1.35038805 -0.55646098 4 0 31056 2.15000000 2209787812 2209787812 -15.00000000
-1.83084047 1.56811178 -0.55652893 3 2 31058 2.47400000 2209787817 2209787817 -13.00000000
-2.16175532 1.85219395 -0.55334610 3 4 31059 2.90000000 2209787821 2209787821 -11.00000000
-2.64683366 2.26941228 -0.55221367 3 6 31061 3.53000000 2209787826 2209787826 -9.00000000
-3.35206699 2.87611485 -0.54231858 94 8 31063 4.45000000 2209787831 2209787831 -7.00000000
-4.60663319 3.95394397 -0.53112710 3 10 31064 6.09400000 2209787835 2209787835 -5.00000000
-7.38914061 6.34669399 -0.51048493 12 12 31066 9.75400000 2209787840 2209787840 -3.00000000
-8.58020782 7.37233019 2.61168170 60 13 31067 11.61000000 2209787842 2209787842 13.00000000
-7.35634089 6.32521772 2.59957838 42 15 31069 10.04400000 2209787847 2209787847 15.00000000
-1.57302928 1.35588717 -0.55646098 4 0 31076 2.15000000 2209787868 2209787868 -15.00000000
-1.82535565 1.57449305 -0.55652893 3 2 31078 2.47400000 2209787872 2209787872 -13.00000000
-2.15527678 1.85972857 -0.55334610 3 4 31079 2.90000000 2209787877 2209787877 -11.00000000
-2.64786649 2.28638363 -0.55409086 3 6 31081 3.54200000 2209787881 2209787881 -9.00000000
-3.34801531 2.89298987 -0.54329354 100 8 31083 4.45800000 2209787886 2209787886 -7.00000000
-4.61089087 3.98563504 -0.53321886 3 10 31084 6.11800000 2209787891 2209787891 -5.00000000
-7.40923691 6.40903378 -0.51341575 17 12 31086 9.81000000 2209787895 2209787895 -3.00000000
-8.54557991 7.39458466 2.60898232 60 13 31087 11.59800000 2209787897 2209787897 13.00000000
-7.33824635 6.35210609 2.60061383 42 15 31088 10.04800000 2209787902 2209787902 15.00000000
-1.56828678 1.36136985 -0.55646098 4 0 31096 2.15000000 2209787923 2209787923 -15.00000000
-1.82573318 1.58596706 -0.55832851 3 2 31098 2.48200000 2209787927 2209787927 -13.00000000
-2.13988042 1.85951412 -0.55105639 3 4 31099 2.88800000 2209787932 2209787932 -11.00000000
-2.63986945 2.29561257 -0.55409086 3 6 31101 3.54200000 2209787937 2209787937 -9.00000000
-3.34538388 2.91117454 -0.54451221 100 8 31103 4.46800000 2209787941 2209787941 -7.00000000
-4.58943653 3.99516487 -0.53234726 3 10 31104 6.10800000 2209787946 2209787946 -5.00000000
-7.42898750 6.47159100 -0.51634657 17 12 31106 9.86600000 2209787950 2209787950 -3.00000000
-8.51677704 7.42180872 2.60808253 59 13 31107 11.59400000 2209787953 2209787953 13.00000000
-7.30437899 6.36752701 2.59647274 45 15 31108 10.03200000 2209787957 2209787957 15.00000000
-1.55939972 1.36274934 -0.55490804 4 0 31115 2.14400000 2209787978 2209787978 -15.00000000
-1.82339776 1.59457839 -0.55922830 4 2 31117 2.48600000 2209787983 2209787983 -13.00000000
-2.13665748 1.86918533 -0.55181962 3 4 31118 2.89200000 2209787987 2209787987 -11.00000000
-2.62926984 2.30175161 -0.55346513 3 6 31120 3.53800000 2209787992 2209787992 -9.00000000
-3.34019113 2.92617655 -0.54524344 100 8 31122 4.47400000 2209787996 2209787996 -7.00000000
-4.59264565 4.02480650 -0.53426468 3 10 31123 6.13000000 2209788001 2209788001 -5.00000000
-7.40298128 6.49223995 -0.51603252 12 12 31125 9.86000000 2209788006 2209788006 -3.00000000
-8.49504852 7.45258093 2.60898232 59 13 31126 11.59800000 2209788008 2209788008 13.00000000
-7.27741528 6.38661718 2.59440207 47 15 31127 10.02400000 2209788013 2209788013 15.00000000
-1.55608356 1.36946058 -0.55542564 4 0 31135 2.14600000 2209788033 2209788033 -15.00000000
-1.81782055 1.60093355 -0.55922830 3 2 31137 2.48600000 2209788038 2209788038 -13.00000000
-2.14779711 1.89220595 -0.55639905 3 4 31138 2.91600000 2209788043 2209788043 -11.00000000
-2.62714624 2.31614089 -0.55471659 3 6 31140 3.54600000 2209788047 2209788047 -9.00000000
-3.32995653 2.93781805 -0.54524344 100 8 31142 4.47400000 2209788052 2209788052 -7.00000000
-4.60246944 4.06190729 -0.53705370 3 10 31143 6.16200000 2209788056 2209788056 -5.00000000
-7.36081266 6.50085449 -0.51467180 8 12 31145 9.83400000 2209788061 2209788061 -3.00000000
-8.46168041 7.47573757 2.60673285 53 13 31146 11.58800000 2209788063 2209788063 13.00000000
-7.24816895 6.40812922 2.59233165 47 15 31148 10.01600000 2209788068 2209788068 15.00000000
-1.55442560 1.37717545 -0.55646098 4 0 31154 2.15000000 2209788089 2209788089 -15.00000000
-1.80375266 1.59919608 -0.55652893 3 2 31156 2.47400000 2209788093 2209788093 -13.00000000
-2.14444828 1.90192330 -0.55716228 3 4 31157 2.92000000 2209788098 2209788098 -11.00000000
-2.62240601 2.32746267 -0.55534238 3 6 31159 3.55000000 2209788102 2209788102 -9.00000000
-3.30832243 2.93829870 -0.54329354 100 8 31161 4.45800000 2209788107 2209788107 -7.00000000
-3.74594951 3.32814860 -0.43839338 3 10 31162 5.03000000 2209788112 2209788112 -5.00000000
-7.33324385 6.51991940 -0.51425308 8 12 31164 9.82600000 2209788116 2209788116 -3.00000000
-8.42665005 7.49469090 2.60358357 49 13 31165 11.57400000 2209788119 2209788119 13.00000000
-7.22944498 6.43215227 2.59284925 42 15 31166 10.01800000 2209788123 2209788123 15.00000000
-1.55681646 1.38902366 -0.55904913 4 0 31174 2.16000000 2209788144 2209788144 -15.00000000
-1.80397403 1.61067414 -0.55832851 3 2 31176 2.48200000 2209788148 2209788148 -13.00000000
-2.13193917 1.90416598 -0.55563581 3 4 31177 2.91200000 2209788153 2209788153 -11.00000000
-2.59659171 2.32080555 -0.55158794 3 6 31179 3.52600000 2209788158 2209788158 -9.00000000
-3.28916788 2.94188881 -0.54183108 100 8 31181 4.44600000 2209788162 2209788162 -7.00000000
-3.78479290 3.38637352 -0.44431996 3 10 31182 5.09800000 2209788167 2209788167 -5.00000000
-7.32234430 6.55613565 -0.51509047 8 12 31184 9.84200000 2209788172 2209788172 -3.00000000
-8.38156700 7.50715733 2.59773469 44 13 31185 11.54800000 2209788174 2209788174 13.00000000
-7.21270370 6.46250534 2.59491968 42 15 31186 10.02600000 2209788178 2209788178 15.00000000
-1.53902531 1.38282907 -0.55439037 4 0 31194 2.14200000 2209788199 2209788199 -15.00000000
-1.79834068 1.61696136 -0.55832851 3 2 31196 2.48200000 2209788204 2209788204 -13.00000000
-2.11944079 1.90634453 -0.55410933 3 4 31197 2.90400000 2209788208 2209788208 -11.00000000
-2.60902977 2.34835672 -0.55596811 3 6 31199 3.55400000 2209788213 2209788213 -9.00000000
-3.27592874 2.95069504 -0.54134363 100 8 31201 4.44200000 2209788218 2209788218 -7.00000000
-3.72854424 3.35955381 -0.43909064 3 10 31202 5.03800000 2209788222 2209788222 -5.00000000
-7.29051495 6.57363081 -0.51446247 12 12 31204 9.83000000 2209788227 2209788227 -3.00000000
-8.35820484 7.53897953 2.59863448 42 13 31205 11.55200000 2209788229 2209788229 13.00000000
-7.17319393 6.47465897 2.58922577 42 15 31207 10.00400000 2209788234 2209788234 15.00000000
-1.53705394 1.39078522 -0.55542564 4 0 31214 2.14600000 2209788254 2209788254 -15.00000000
-1.80135274 1.63107693 -0.56102794 3 2 31216 2.49400000 2209788259 2209788259 -13.00000000
-2.11568356 1.91636717 -0.55487257 3 4 31217 2.90800000 2209788264 2209788264 -11.00000000
-2.59496236 2.35214305 -0.55471659 3 6 31219 3.54600000 2209788268 2209788268 -9.00000000
-3.27002001 2.96611333 -0.54207486 100 8 31221 4.44800000 2209788273 2209788273 -7.00000000
-3.71679449 3.37254834 -0.43909064 3 10 31222 5.03800000 2209788278 2209788278 -5.00000000
-7.26308823 6.59501171 -0.51414841 12 12 31224 9.82400000 2209788282 2209788282 -3.00000000
-8.33183861 7.56810904 2.59863448 42 13 31225 11.55200000 2209788284 2209788284 13.00000000
-7.14197254 6.49186230 2.58611989 45 15 31227 9.99200000 2209788289 2209788289 15.00000000
-1.53622925 1.40031362 -0.55697858 4 0 31235 2.15200000 2209788310 2209788310 -15.00000000
-1.78096509 1.62453532 -0.55652893 3 2 31237 2.47400000 2209788314 2209788314 -13.00000000
-2.11154604 1.92675531 -0.55563581 3 4 31238 2.91200000 2209788319 2209788319 -11.00000000
-2.58924127 2.36430216 -0.55534238 3 6 31240 3.55000000 2209788324 2209788324 -9.00000000
-3.26791930 2.98611283 -0.54353726 100 8 31242 4.46000000 2209788328 2209788328 -7.00000000
-3.62940860 3.31759191 -0.43020076 3 10 31243 4.93600000 2209788333 2209788333 -5.00000000
-7.26392031 6.64450455 -0.51592785 8 12 31245 9.85800000 2209788337 2209788337 -3.00000000
-8.30404377 7.59859610 2.59863448 43 13 31246 11.55200000 2209788340 2209788340 13.00000000
-7.12098026 6.52060461 2.58715510 45 15 31248 9.99600000 2209788344 2209788344 15.00000000
-1.53133190 1.40566754 -0.55697858 4 0 31255 2.15200000 2209788365 2209788365 -15.00000000
-1.77241325 1.62810552 -0.55562907 3 2 31257 2.47000000 2209788370 2209788370 -13.00000000
-2.11348128 1.94208455 -0.55792552 3 4 31258 2.92400000 2209788374 2209788374 -11.00000000
-2.58097243 2.37332582 -0.55534238 3 6 31260 3.55000000 2209788379 2209788379 -9.00000000
-3.25309372 2.99346948 -0.54280603 100 8 31262 4.45400000 2209788384 2209788384 -7.00000000
-3.61633992 3.32889152 -0.43002644 3 10 31263 4.93400000 2209788388 2209788388 -5.00000000
-7.25537252 6.68335152 -0.51697457 8 12 31265 9.87800000 2209788393 2209788393 -3.00000000
-8.26027203 7.61168957 2.59323573 41 13 31266 11.52800000 2209788395 2209788395 13.00000000
-7.09391499 6.54149294 2.58560228 47 15 31268 9.99000000 2209788400 2209788400 15.00000000
-1.52949977 1.41336012 -0.55801386 4 0 31274 2.15600000 2209788420 2209788420 -15.00000000
-1.76986599 1.63662028 -0.55652893 3 2 31276 2.47400000 2209788425 2209788425 -13.00000000
-2.09694099 1.93975019 -0.55525416 3 4 31277 2.91000000 2209788430 2209788430 -11.00000000
-2.57018876 2.37918782 -0.55471659 3 6 31279 3.54600000 2209788434 2209788434 -9.00000000
-3.26208091 3.02177763 -0.54597467 100 8 31281 4.48000000 2209788439 2209788439 -7.00000000
-3.57897592 3.31648922 -0.42688882 5 10 31282 4.89800000 2209788443 2209788443 -5.00000000
-7.25806618 6.73046160 -0.51875401 8 12 31284 9.91200000 2209788448 2209788448 -3.00000000
-8.22355556 7.62843704 2.58963656 41 13 31285 11.51200000 2209788450 2209788450 13.00000000
-7.07616138 6.56637526 2.58663750 47 15 31286 9.99400000 2209788455 2209788455 15.00000000
-1.52172852 1.41605842 -0.55697858 4 0 31294 2.15200000 2209788476 2209788476 -15.00000000
-1.77269924 1.65075648 -0.55922830 3 2 31296 2.48600000 2209788480 2209788480 -13.00000000
-2.08010149 1.93769085 -0.55258286 3 4 31297 2.89600000 2209788485 2209788485 -11.00000000
-2.56620312 2.39218593 -0.55565524 3 6 31299 3.55200000 2209788489 2209788489 -9.00000000
-3.26167393 3.04262471 -0.54768085 100 8 31301 4.49400000 2209788494 2209788494 -7.00000000
-3.59359741 3.35342979 -0.43002644 3 10 31302 4.93400000 2209788499 2209788499 -5.00000000
-7.25350523 6.77347660 -0.52011472 4 12 31304 9.93800000 2209788503 2209788503 -3.00000000
-8.19972610 7.65975666 2.59053636 43 13 31305 11.51600000 2209788506 2209788506 13.00000000
-7.03934574 6.58039331 2.58197880 40 15 31307 9.97600000 2209788510 2209788510 15.00000000
-1.51677620 1.42136157 -0.55697858 4 0 31314 2.15200000 2209788531 2209788531 -15.00000000
-1.77261221 1.66226637 -0.56102794 3 2 31316 2.49400000 2209788536 2209788536 -13.00000000
-2.08477998 1.95568550 -0.55563581 3 4 31317 2.91200000 2209788540 2209788540 -11.00000000
-2.56215787 2.40518498 -0.55659384 3 6 31319 3.55800000 2209788545 2209788545 -9.00000000
-3.26839542 3.07030106 -0.55060571 66 8 31321 4.51800000 2209788549 2209788549 -7.00000000
-4.47915220 4.20914698 -0.53775096 3 10 31322 6.17000000 2209788554 2209788554 -5.00000000
-7.22836208 6.79738665 -0.52001005 4 12 31324 9.93600000 2209788559 2209788559 -3.00000000
-8.16726017 7.68299150 2.58873677 41 13 31325 11.50800000 2209788561 2209788561 13.00000000
-7.00623083 6.59310913 2.57783771 45 15 31326 9.96000000 2209788566 2209788566 15.00000000
-1.50618541 1.42134392 -0.55490804 4 0 31334 2.14400000 2209788586 2209788586 -15.00000000
-1.76396537 1.66576791 -0.56012815 3 2 31336 2.49000000 2209788591 2209788591 -13.00000000
-2.08935785 1.97373629 -0.55868876 3 4 31337 2.92800000 2209788595 2209788595 -11.00000000
-2.55374646 2.41411400 -0.55659384 3 6 31339 3.55800000 2209788600 2209788600 -9.00000000
-3.26486850 3.08851218 -0.55182439 50 8 31341 4.52800000 2209788605 2209788605 -7.00000000
-4.47890377 4.23845100 -0.53949404 3 10 31342 6.19000000 2209788609 2209788609 -5.00000000
-7.23069429 6.84729624 -0.52189416 4 12 31344 9.97200000 2209788614 2209788614 -3.00000000
-8.14039230 7.71145391 2.58873677 46 13 31345 11.50800000 2209788616 2209788616 13.00000000
-6.98902845 6.62538910 2.58042598 45 15 31347 9.97000000 2209788621 2209788621 15.00000000
-1.50986755 1.43431401 -0.55801386 4 0 31353 2.15600000 2209788642 2209788642 -15.00000000
-1.76125658 1.67429364 -0.56102794 3 2 31355 2.49400000 2209788646 2209788646 -13.00000000
-2.07141972 1.96983063 -0.55563581 2 4 31356 2.91200000 2209788651 2209788651 -11.00000000
-2.54858899 2.42529273 -0.55721956 3 6 31358 3.56200000 2209788655 2209788655 -9.00000000
-3.28623462 3.12943912 -0.55718666 52 8 31360 4.57200000 2209788660 2209788660 -7.00000000
-4.48357773 4.27114582 -0.54176009 3 10 31361 6.21600000 2209788665 2209788665 -5.00000000
-7.23107862 6.89328623 -0.52356893 4 12 31363 10.00400000 2209788669 2209788669 -3.00000000
-8.10349274 7.72764683 2.58513761 41 13 31364 11.49200000 2209788672 2209788672 13.00000000
-6.96538448 6.64464617 2.57939053 45 15 31365 9.96600000 2209788676 2209788676 15.00000000
-1.51043546 1.44491732 -0.56008440 4 0 31373 2.16400000 2209788697 2209788697 -15.00000000
-1.74695528 1.67234588 -0.55832851 3 2 31375 2.48200000 2209788701 2209788701 -13.00000000
-2.07587481 1.98791218 -0.55868876 3 4 31376 2.92800000 2209788706 2209788706 -11.00000000
-2.53155017 2.42597365 -0.55534238 3 6 31378 3.55000000 2209788711 2209788711 -9.00000000
-3.28675294 3.15188289 -0.55913657 86 8 31380 4.58800000 2209788715 2209788715 -7.00000000
-4.48158121 4.29918337 -0.54332888 3 10 31381 6.23400000 2209788720 2209788720 -5.00000000
-7.21273565 6.92401791 -0.52398759 4 12 31383 10.01200000 2209788724 2209788724 -3.00000000
-8.06522465 7.74508810 2.58153820 42 13 31384 11.47600000 2209788727 2209788727 13.00000000
-6.94376945 6.67280817 2.58042598 45 15 31386 9.97000000 2209788731 2209788731 15.00000000
-1.50095630 1.44642210 -0.55853152 4 0 31394 2.15800000 2209788752 2209788752 -15.00000000
-1.74923062 1.68685389 -0.56102794 3 2 31396 2.49400000 2209788757 2209788757 -13.00000000
-2.05727100 1.98460293 -0.55563581 3 4 31397 2.91200000 2209788761 2209788761 -11.00000000
-2.53827477 2.45032763 -0.55878389 1 6 31399 3.57200000 2209788766 2209788766 -9.00000000
-4.45863008 4.30865812 -0.54245734 3 10 31402 6.22400000 2209788775 2209788775 -5.00000000
-7.21028137 6.97262239 -0.52566236 4 12 31404 10.04400000 2209788780 2209788780 -3.00000000
-8.03958416 7.77730656 2.58243799 43 13 31405 11.48000000 2209788782 2209788782 13.00000000
-6.90932894 6.68625832 2.57628489 45 15 31406 9.95400000 2209788787 2209788787 15.00000000
-1.49173903 1.44761646 -0.55697858 4 0 31414 2.15200000 2209788807 2209788807 -15.00000000
-1.75171983 1.70109522 -0.56372732 3 2 31416 2.50600000 2209788812 2209788812 -13.00000000
-2.06441283 2.00545168 -0.55945200 3 4 31417 2.93200000 2209788817 2209788817 -11.00000000
-2.52120781 2.45091128 -0.55690670 1 6 31419 3.56000000 2209788821 2209788821 -9.00000000
-3.26980615 3.18085814 -0.56011152 18 8 31421 4.59600000 2209788826 2209788826 -7.00000000
-4.44641876 4.32697439 -0.54280597 3 10 31422 6.22800000 2209788830 2209788830 -5.00000000
-7.19591427 7.00750208 -0.52639502 4 12 31424 10.05800000 2209788835 2209788835 -3.00000000
-8.00680447 7.79988337 2.58063841 43 13 31425 11.47200000 2209788837 2209788837 13.00000000
-6.87785959 6.70479488 2.57369661 45 15 31427 9.94400000 2209788842 2209788842 15.00000000
-1.49358523 1.45956576 -0.55956680 4 0 31434 2.16200000 2209788863 2209788863 -15.00000000
-1.73741162 1.69902468 -0.56102794 3 2 31436 2.49400000 2209788867 2209788867 -13.00000000
-2.05178642 2.00715423 -0.55792552 3 4 31437 2.92400000 2209788872 2209788872 -11.00000000
-2.51404858 2.46107888 -0.55721956 1 6 31439 3.56200000 2209788877 2209788877 -9.00000000
-3.24308443 3.17697191 -0.55743039 22 8 31441 4.57400000 2209788881 2209788881 -7.00000000
-4.42844152 4.33967972 -0.54245734 7 10 31442 6.22400000 2209788886 2209788886 -5.00000000
-7.17853975 7.03956985 -0.52691841 4 12 31444 10.06800000 2209788890 2209788890 -3.00000000
-7.98509312 7.83324337 2.58243799 43 13 31445 11.48000000 2209788893 2209788893 13.00000000
-6.85558748 6.72756577 2.57369661 42 15 31446 9.94400000 2209788897 2209788897 15.00000000
-1.48435044 1.46070552 -0.55801386 4 0 31454 2.15600000 2209788918 2209788918 -15.00000000
-1.72869325 1.70234430 -0.56012815 3 2 31456 2.49000000 2209788923 2209788923 -13.00000000
-2.05315924 2.02257061 -0.56021523 3 4 31457 2.93600000 2209788927 2209788927 -11.00000000
-2.50403595 2.46845293 -0.55690670 1 6 31459 3.56000000 2209788932 2209788932 -9.00000000
-3.19664502 3.15342093 -0.55133688 28 8 31461 4.52400000 2209788936 2209788936 -7.00000000
-4.42319345 4.36490774 -0.54367751 7 10 31462 6.23800000 2209788941 2209788941 -5.00000000
-7.17950392 7.08984566 -0.52880251 4 12 31464 10.10400000 2209788946 2209788946 -3.00000000
-7.94938326 7.85285187 2.57973862 46 13 31465 11.46800000 2209788948 2209788948 13.00000000
-6.83637953 6.75808001 2.57576704 45 15 31467 9.95200000 2209788953 2209788953 15.00000000
-1.49047792 1.47649634 -0.56215495 4 0 31473 2.17200000 2209788973 2209788973 -15.00000000
-1.73411036 1.71904302 -0.56372732 3 2 31475 2.50600000 2209788978 2209788978 -13.00000000
-2.03807664 2.02107358 -0.55792552 3 4 31476 2.92400000 2209788983 2209788983 -11.00000000
-2.51126003 2.49204874 -0.56034827 1 6 31478 3.58200000 2209788987 2209788987 -9.00000000
-3.16926765 3.14721894 -0.54841202 12 8 31480 4.50000000 2209788992 2209788992 -7.00000000
-3.50405693 3.48089385 -0.43211818 6 10 31481 4.95800000 2209788996 2209788996 -5.00000000
-7.15028763 7.10798216 -0.52838379 4 12 31483 10.09600000 2209789001 2209789001 -3.00000000
-7.91777134 7.87367296 2.57793903 43 13 31484 11.46000000 2209789003 2209789003 13.00000000
-6.81648397 6.78088617 2.57628489 45 15 31485 9.95400000 2209789008 2209789008 15.00000000
-1.48257959 1.47896135 -0.56111968 4 0 31493 2.16800000 2209789029 2209789029 -15.00000000
-1.72258246 1.71957862 -0.56192774 3 2 31495 2.49800000 2209789033 2209789033 -13.00000000
-2.02823091 2.02540112 -0.55716228 3 4 31496 2.92000000 2209789038 2209789038 -11.00000000
-2.50813508 2.50638461 -0.56159973 1 6 31498 3.59000000 2209789042 2209789042 -9.00000000
-3.14984059 3.14984059 -0.54694963 14 8 31500 4.48800000 2209789047 2209789047 -7.00000000
-7.18895149 7.19648409 -0.53309405 4 12 31503 10.18600000 2209789056 2209789056 -3.00000000
-7.88748455 7.89850569 2.57703924 46 13 31504 11.45600000 2209789059 2209789059 13.00000000
-6.78594875 6.79780293 2.57369661 42 15 31505 9.94400000 2209789063 2209789063 15.00000000
-1.46838212 1.47403121 -0.55749625 4 0 31511 2.15400000 2209789084 2209789084 -15.00000000
-1.72267115 1.73050618 -0.56372732 3 2 31513 2.50600000 2209789089 2209789089 -13.00000000
-2.02185798 2.03176284 -0.55716228 3 4 31514 2.92000000 2209789093 2209789093 -11.00000000
-2.49606991 2.51004982 -0.56066114 1 6 31516 3.58400000 2209789098 2209789098 -9.00000000
-3.13992953 3.15972042 -0.54694963 16 8 31518 4.48800000 2209789102 2209789102 -7.00000000
-3.45702338 3.48002744 -0.42915487 100 10 31519 4.92400000 2209789107 2209789107 -5.00000000
-7.18319273 7.23604250 -0.53435010 4 12 31521 10.21000000 2209789112 2209789112 -3.00000000
-7.85714149 7.91771269 2.57523966 46 13 31522 11.44800000 2209789114 2209789114 13.00000000
-6.75503540 6.80948734 2.57007313 45 15 31523 9.93000000 2209789118 2209789118 15.00000000
-1.46730375 1.48326802 -0.55904913 4 0 31531 2.16000000 2209789139 2209789139 -15.00000000
-1.71662009 1.73650885 -0.56372732 3 2 31533 2.50600000 2209789144 2209789144 -13.00000000
-2.02579331 2.04997969 -0.56021523 3 4 31534 2.93600000 2209789148 2209789148 -11.00000000
-2.47757697 2.50890851 -0.55847102 1 6 31536 3.57000000 2209789153 2209789153 -9.00000000
-3.13306379 3.17490053 -0.54768085 18 8 31538 4.49400000 2209789158 2209789158 -7.00000000
-3.44625401 3.49349189 -0.42932919 99 10 31539 4.92600000 2209789162 2209789162 -5.00000000
-7.24201870 7.34641314 -0.54063040 4 12 31541 10.33000000 2209789167 2209789167 -3.00000000
-7.83219099 7.94786692 2.57613945 47 13 31542 11.45200000 2209789169 2209789169 13.00000000
-6.73816538 6.84245872 2.57317901 45 15 31544 9.94200000 2209789174 2209789174 15.00000000
-1.46997881 1.49690616 -0.56215495 4 0 31552 2.17200000 2209789195 2209789195 -15.00000000
-1.70205438 1.73444355 -0.56102794 3 2 31554 2.49400000 2209789199 2209789199 -13.00000000
-2.02926493 2.06860280 -0.56326813 3 4 31555 2.95200000 2209789204 2209789204 -11.00000000
-2.47666192 2.52643609 -0.56034827 1 6 31557 3.58200000 2209789208 2209789208 -9.00000000
-3.11307144 3.17785406 -0.54621840 30 8 31559 4.48200000 2209789213 2209789213 -7.00000000
-3.42785048 3.50040555 -0.42863193 100 10 31560 4.91800000 2209789218 2209789218 -5.00000000
-7.18710566 7.34435749 -0.53853697 4 12 31562 10.29000000 2209789222 2209789222 -3.00000000
-7.80300808 7.97652006 2.57613945 55 13 31563 11.45200000 2209789224 2209789224 13.00000000
-6.71288872 6.86455679 2.57266140 42 15 31564 9.94000000 2209789229 2209789229 15.00000000
-1.46744215 1.50479436 -0.56319022 4 0 31572 2.17600000 2209789250 2209789250 -15.00000000
-1.69870985 1.74316561 -0.56192774 3 2 31574 2.49800000 2209789254 2209789254 -13.00000000
-2.00559235 2.05879807 -0.55868876 3 4 31575 2.92800000 2209789259 2209789259 -11.00000000
-2.47058368 2.53789687 -0.56097400 3 6 31577 3.58600000 2209789264 2209789264 -9.00000000
-3.09227037 3.17874098 -0.54451221 38 8 31579 4.46800000 2209789268 2209789268 -7.00000000
-3.40449882 3.50092292 -0.42723745 100 10 31580 4.90200000 2209789273 2209789273 -5.00000000
-7.15307379 7.36080647 -0.53790897 4 12 31582 10.27800000 2209789277 2209789277 -3.00000000
-7.77104378 7.99951553 2.57478976 55 13 31583 11.44600000 2209789280 2209789280 13.00000000
-6.69023180 6.88933325 2.57317901 45 15 31584 9.94200000 2209789284 2209789284 15.00000000
-1.45437908 1.50132704 -0.56008440 4 0 31591 2.16400000 2209789305 2209789305 -15.00000000
-1.70376325 1.75999033 -0.56552696 3 2 31593 2.51400000 2209789310 2209789310 -13.00000000
-1.99875414 2.06543756 -0.55868876 3 4 31594 2.92800000 2209789314 2209789314 -11.00000000
-2.46490049 2.54891562 -0.56159973 3 6 31596 3.59000000 2209789319 2209789319 -9.00000000
-3.06515861 3.17184830 -0.54158735 30 8 31598 4.44400000 2209789323 2209789323 -7.00000000
-3.38318062 3.50216246 -0.42601728 100 10 31599 4.88800000 2209789328 2209789328 -5.00000000
-7.11475372 7.37011671 -0.53686225 4 12 31601 10.25800000 2209789333 2209789333 -3.00000000
-7.74312067 8.02383900 2.57433987 54 13 31602 11.44400000 2209789335 2209789335 13.00000000
-6.66869068 6.91287136 2.57369661 42 15 31603 9.94400000 2209789340 2209789340 15.00000000
-1.44912958 1.50639462 -0.56008440 4 0 31611 2.16400000 2209789360 2209789360 -15.00000000
-1.69490838 1.76311707 -0.56462717 3 2 31613 2.51000000 2209789365 2209789365 -13.00000000
-1.99969423 2.08089542 -0.56097847 3 4 31614 2.94000000 2209789370 2209789370 -11.00000000
-2.45188332 2.55322981 -0.56066114 1 6 31616 3.58400000 2209789374 2209789374 -9.00000000
-3.05681705 3.18539286 -0.54207486 18 8 31618 4.44800000 2209789379 2209789379 -7.00000000
-3.35714245 3.49957299 -0.42427415 100 10 31619 4.86800000 2209789383 2209789383 -5.00000000
-7.12077284 7.42806816 -0.53926969 8 12 31621 10.30400000 2209789388 2209789388 -3.00000000
-7.71506500 8.05081844 2.57433987 53 13 31622 11.44400000 2209789390 2209789390 13.00000000
-6.63796425 6.93168545 2.57162595 45 15 31624 9.93600000 2209789395 2209789395 15.00000000
-1.44626713 1.51449013 -0.56111968 4 0 31632 2.16800000 2209789416 2209789416 -15.00000000
-1.68574405 1.76649773 -0.56372732 3 2 31634 2.50600000 2209789420 2209789420 -13.00000000
-1.98663342 2.08252859 -0.55945200 3 4 31635 2.93200000 2209789425 2209789425 -11.00000000
-2.43841982 2.55790997 -0.55972254 1 6 31637 3.57800000 2209789429 2209789429 -9.00000000
-3.05744433 3.20951104 -0.54426849 10 8 31639 4.46600000 2209789434 2209789434 -7.00000000
-3.34154534 3.50896835 -0.42392552 100 10 31640 4.86400000 2209789439 2209789439 -5.00000000
-7.28625822 7.65667486 -0.55392379 12 12 31642 10.58400000 2209789443 2209789443 -3.00000000
-7.68819141 8.08186531 2.57523966 54 13 31643 11.44800000 2209789446 2209789446 13.00000000
-6.61372757 6.95481443 2.57162595 42 15 31644 9.93600000 2209789450 2209789450 15.00000000
-1.43831313 1.51672578 -0.56008440 4 0 31652 2.16400000 2209789471 2209789471 -15.00000000
-1.67956758 1.77237141 -0.56372732 3 2 31654 2.50600000 2209789475 2209789475 -13.00000000
-1.98745298 2.09800220 -0.56174171 3 4 31655 2.94400000 2209789480 2209789480 -11.00000000
-2.43762422 2.57501340 -0.56159973 1 6 31657 3.59000000 2209789485 2209789485 -9.00000000
-3.04349422 3.21727991 -0.54378098 10 8 31659 4.46200000 2209789489 2209789489 -7.00000000
-3.31832480 3.50903010 -0.42253104 100 10 31660 4.84800000 2209789494 2209789494 -5.00000000
-7.18541050 7.60367346 -0.54827148 12 12 31662 10.47600000 2209789499 2209789499 -3.00000000
-7.65190458 8.10015392 2.57254028 53 13 31663 11.43600000 2209789501 2209789501 13.00000000
-6.58410501 6.97223997 2.56955552 45 15 31664 9.92800000 2209789505 2209789505 15.00000000
-1.43884063 1.52686059 -0.56215495 4 0 31670 2.17200000 2209789526 2209789526 -15.00000000
-1.68200719 1.78615141 -0.56642675 3 2 31672 2.51800000 2209789531 2209789531 -13.00000000
-1.97816074 2.10137653 -0.56097847 3 4 31673 2.94000000 2209789535 2209789535 -11.00000000
-2.42952251 2.58265853 -0.56159973 1 6 31675 3.59000000 2209789540 2209789540 -9.00000000
-3.03065252 3.22393274 -0.54329354 10 8 31677 4.45800000 2209789545 2209789545 -7.00000000
-3.30319142 3.51508188 -0.42200810 94 10 31678 4.84200000 2209789549 2209789549 -5.00000000
-7.09449387 7.55486870 -0.54314256 8 12 31680 10.37800000 2209789554 2209789554 -3.00000000
-7.61441565 8.11136532 2.56849122 57 13 31681 11.41800000 2209789556 2209789556 13.00000000
-6.56887817 7.00248909 2.57266140 42 15 31683 9.94000000 2209789561 2209789561 15.00000000
-1.43614209 1.53469491 -0.56319022 4 0 31690 2.17600000 2209789581 2209789581 -15.00000000
-1.67309999 1.78916502 -0.56552696 3 2 31692 2.51400000 2209789586 2209789586 -13.00000000
-1.97081351 2.10826874 -0.56097847 2 4 31693 2.94000000 2209789591 2209789591 -11.00000000
-2.41644716 2.58679295 -0.56066114 1 6 31695 3.58400000 2209789595 2209789595 -9.00000000
-3.02886248 3.24464965 -0.54499972 10 8 31697 4.47200000 2209789600 2209789600 -7.00000000
-3.27866745 3.51348066 -0.42043930 43 10 31698 4.82400000 2209789605 2209789605 -5.00000000
-7.86638355 8.43271255 2.24162412 3 11 31699 11.74800000 2209789607 2209789607 11.00000000
-7.02585316 7.53430510 -0.53989774 8 12 31700 10.31600000 2209789609 2209789609 -3.00000000
-7.59137058 8.14359760 2.57029080 57 13 31701 11.42600000 2209789611 2209789611 13.00000000
-6.53386068 7.01406765 2.56852031 42 15 31703 9.92400000 2209789616 2209789616 15.00000000
-1.42025590 1.52837729 -0.55904913 4 0 31710 2.16000000 2209789637 2209789637 -15.00000000
-1.67214870 1.80070639 -0.56732655 3 2 31712 2.52200000 2209789641 2209789641 -13.00000000
-1.96077096 2.11225772 -0.56021523 2 4 31713 2.93600000 2209789646 2209789646 -11.00000000
-2.42218065 2.61114264 -0.56410271 1 6 31715 3.60600000 2209789651 2209789651 -9.00000000
-3.02291608 3.26102591 -0.54597467 10 8 31717 4.48000000 2209789655 2209789655 -7.00000000
-7.03886414 7.60128212 -0.54293323 4 12 31720 10.37400000 2209789664 2209789664 -3.00000000
-7.56554556 8.17290688 2.57119060 57 13 31721 11.43000000 2209789667 2209789667 13.00000000
-6.50408983 7.03115940 2.56644964 42 15 31723 9.91600000 2209789671 2209789671 15.00000000
-1.42277277 1.54184413 -0.56215495 4 0 31730 2.17200000 2209789692 2209789692 -15.00000000
-1.66321075 1.80366707 -0.56642675 3 2 31732 2.51800000 2209789697 2209789697 -13.00000000
-1.96669221 2.13352442 -0.56403136 3 4 31733 2.95600000 2209789701 2209789701 -11.00000000
-2.40903616 2.61522293 -0.56316406 1 6 31735 3.60000000 2209789706 2209789706 -9.00000000
-3.02092576 3.28178144 -0.54768085 10 8 31737 4.49400000 2209789711 2209789711 -7.00000000
-4.29017735 4.66226530 -0.55431050 3 10 31738 6.36000000 2209789715 2209789715 -5.00000000
-7.02175140 7.63609695 -0.54366589 8 12 31740 10.38800000 2209789720 2209789720 -3.00000000
-7.53697062 8.19926548 2.57119060 56 13 31741 11.43000000 2209789722 2209789722 13.00000000
-6.48081398 7.05524302 2.56696725 40 15 31743 9.91800000 2209789727 2209789727 15.00000000
-1.42206061 1.55299485 -0.56422549 4 0 31752 2.18000000 2209789747 2209789747 -15.00000000
-1.64837956 1.80141389 -0.56372732 3 2 31754 2.50600000 2209789752 2209789752 -13.00000000
-1.95848560 2.14106011 -0.56403136 3 4 31755 2.95600000 2209789757 2209789757 -11.00000000
-2.38831449 2.61278939 -0.56066114 1 6 31757 3.58400000 2209789761 2209789761 -9.00000000
-3.01097989 3.29628825 -0.54816830 10 8 31759 4.49800000 2209789766 2209789766 -7.00000000
-4.27358723 4.68017530 -0.55448484 3 10 31760 6.36200000 2209789770 2209789770 -5.00000000
-6.98968649 7.66005182 -0.54345655 8 12 31762 10.38400000 2209789775 2209789775 -3.00000000
-7.49755239 8.21950626 2.56849122 57 13 31763 11.41800000 2209789777 2209789777 13.00000000
-6.45621347 7.08037663 2.56748486 45 15 31764 9.92000000 2209789782 2209789782 15.00000000
-1.41793072 1.55937862 -0.56474316 4 0 31772 2.18200000 2209789803 2209789803 -15.00000000
-1.64732349 1.81292593 -0.56552696 3 2 31774 2.51400000 2209789807 2209789807 -13.00000000
-1.94835997 2.14497709 -0.56326813 2 4 31775 2.95200000 2209789812 2209789812 -11.00000000
-2.38847327 2.63134909 -0.56285119 1 6 31777 3.59800000 2209789816 2209789816 -9.00000000
-2.99145317 3.29795647 -0.54670590 12 8 31779 4.48600000 2209789821 2209789821 -7.00000000
-4.26793098 4.70687246 -0.55587935 3 10 31780 6.37800000 2209789826 2209789826 -5.00000000
-6.97095203 7.69328403 -0.54408461 4 12 31782 10.39600000 2209789830 2209789830 -3.00000000
-7.45834923 8.23407269 2.56489182 57 13 31783 11.40200000 2209789833 2209789833 13.00000000
-6.43410826 7.10828876 2.56903791 40 15 31785 9.92600000 2209789837 2209789837 15.00000000
-1.40341616 1.55428171 -0.56111968 4 0 31792 2.16800000 2209789858 2209789858 -15.00000000
-1.64881814 1.82734609 -0.56822634 3 2 31794 2.52600000 2209789863 2209789863 -13.00000000
-1.94349062 2.15468073 -0.56403136 2 4 31795 2.95600000 2209789867 2209789867 -11.00000000
-2.38588643 2.64700675 -0.56441557 1 6 31797 3.60800000 2209789872 2209789872 -9.00000000
-2.98523712 3.31427836 -0.54768085 12 8 31799 4.49400000 2209789876 2209789876 -7.00000000
-4.26347351 4.73506689 -0.55744815 7 10 31800 6.39600000 2209789881 2209789881 -5.00000000
-6.96943712 7.74577999 -0.54607338 4 12 31802 10.43400000 2209789886 2209789886 -3.00000000
-7.42825842 8.25860882 2.56444192 52 13 31803 11.40000000 2209789888 2209789888 13.00000000
-6.40533447 7.12383986 2.56696725 45 15 31804 9.91800000 2209789893 2209789893 15.00000000
-1.40185106 1.56348622 -0.56267262 4 0 31812 2.17400000 2209789913 2209789913 -15.00000000
-1.64503026 1.83599317 -0.56912619 3 2 31814 2.53000000 2209789918 2209789918 -13.00000000
-1.93595755 2.16145158 -0.56403136 2 4 31815 2.95600000 2209789922 2209789922 -11.00000000
-2.38980627 2.67003798 -0.56754422 1 6 31817 3.62800000 2209789927 2209789927 -9.00000000
-2.97894359 3.33059692 -0.54865581 12 8 31819 4.50200000 2209789932 2209789932 -7.00000000
-4.23629522 4.73803854 -0.55605364 7 10 31820 6.38000000 2209789936 2209789936 -5.00000000
-6.95566416 7.78495407 -0.54712009 4 12 31822 10.45400000 2209789941 2209789941 -3.00000000
-7.38640356 8.26995373 2.55994296 17 13 31823 11.38000000 2209789943 2209789943 13.00000000
-6.37274933 7.14006233 2.56437922 45 15 31825 9.90800000 2209789948 2209789948 15.00000000
-1.39564717 1.56644011 -0.56215495 4 0 31830 2.17200000 2209789969 2209789969 -15.00000000
-1.63666248 1.83824122 -0.56822634 3 2 31832 2.52600000 2209789973 2209789973 -13.00000000
-1.93437862 2.17338896 -0.56555784 3 4 31833 2.96400000 2209789978 2209789978 -11.00000000
-2.35515046 2.64801192 -0.56128687 1 6 31835 3.58800000 2209789982 2209789982 -9.00000000
-2.97110295 3.34290671 -0.54914325 12 8 31837 4.50600000 2209789987 2209789987 -7.00000000
-4.22535944 4.75579214 -0.55657655 7 10 31838 6.38600000 2209789992 2209789992 -5.00000000
-6.94178104 7.81871605 -0.54795748 4 12 31840 10.47000000 2209789996 2209789996 -3.00000000
-6.33070850 7.13295555 2.20182085 16 13 31841 9.78800000 2209789999 2209789999 13.00000000
-6.34897184 7.15604925 2.56334376 45 15 31842 9.90400000 2209790003 2209790003 15.00000000
-1.39785135 1.57998347 -0.56526077 4 0 31850 2.18400000 2209790024 2209790024 -15.00000000
-1.61861897 1.83080328 -0.56417722 4 2 31852 2.50800000 2209790028 2209790028 -13.00000000
-1.93718123 2.19189668 -0.56861079 2 4 31853 2.98000000 2209790033 2209790033 -11.00000000
-2.35896921 2.67102289 -0.56441557 1 6 31855 3.60800000 2209790038 2209790038 -9.00000000
-2.95153475 3.34432721 -0.54768085 12 8 31857 4.49400000 2209790042 2209790042 -7.00000000
-4.23245859 4.79740524 -0.55971420 7 10 31858 6.42200000 2209790047 2209790047 -5.00000000
-6.88142586 7.80544567 -0.54534066 4 12 31860 10.42000000 2209790051 2209790051 -3.00000000
-6.27227116 7.11699867 2.19012356 16 13 31861 9.73600000 2209790054 2209790054 13.00000000
-6.32270098 7.17927122 2.56334376 42 15 31863 9.90400000 2209790058 2209790058 15.00000000
-1.39615273 1.58920729 -0.56681371 4 0 31870 2.19000000 2209790079 2209790079 -15.00000000
-1.61478972 1.83937109 -0.56507707 4 2 31872 2.51200000 2209790084 2209790084 -13.00000000
-1.92174840 2.18979168 -0.56632107 3 4 31873 2.96800000 2209790088 2209790088 -11.00000000
-2.35353851 2.68369651 -0.56535417 1 6 31875 3.61400000 2209790093 2209790093 -9.00000000
-2.93460941 3.34863806 -0.54670590 12 8 31877 4.48600000 2209790098 2209790098 -7.00000000
-4.22225142 4.81964350 -0.56058574 3 10 31878 6.43200000 2209790102 2209790102 -5.00000000
-6.88834286 7.86849070 -0.54806215 4 12 31880 10.47200000 2209790107 2209790107 -3.00000000
-6.09210348 6.96140480 2.13568521 51 13 31881 9.49400000 2209790109 2209790109 13.00000000
-6.28868341 7.18856668 2.55920267 42 15 31882 9.88800000 2209790114 2209790114 15.00000000
-1.39440668 1.59843838 -0.56836665 4 0 31890 2.19600000 2209790134 2209790134 -15.00000000
-1.62116468 1.85968602 -0.56957608 4 2 31892 2.53200000 2209790139 2209790139 -13.00000000
-1.91925216 2.20240688 -0.56784755 3 4 31893 2.97600000 2209790144 2209790144 -11.00000000
-2.34545374 2.69338512 -0.56566703 1 6 31895 3.61600000 2209790148 2209790148 -9.00000000
-2.92811513 3.36485124 -0.54768085 12 8 31897 4.49400000 2209790153 2209790153 -7.00000000
-4.20670938 4.83585548 -0.56076002 3 10 31898 6.43400000 2209790157 2209790157 -5.00000000
-6.90276480 7.94072294 -0.55141163 4 12 31900 10.53600000 2209790162 2209790162 -3.00000000
-6.13295650 7.05764675 2.15863037 32 13 31901 9.59600000 2209790164 2209790164 13.00000000
-6.13436222 7.06424379 2.50692129 45 15 31903 9.68600000 2209790169 2209790169 15.00000000
-1.36984563 1.58139312 -0.56060207 4 0 31910 2.16600000 2209790190 2209790190 -15.00000000
-1.60573542 1.85501981 -0.56642675 4 2 31912 2.51800000 2209790194 2209790194 -13.00000000
-1.89870620 2.19424677 -0.56403136 3 4 31913 2.95600000 2209790199 2209790199 -11.00000000
-2.32570124 2.68960214 -0.56316406 1 6 31915 3.60000000 2209790204 2209790204 -9.00000000
-2.92154336 3.38105989 -0.54865581 12 8 31917 4.50200000 2209790208 2209790208 -7.00000000
-4.19892025 4.86106443 -0.56198025 3 10 31918 6.44800000 2209790213 2209790213 -5.00000000
-6.88283491 7.97384119 -0.55203968 4 12 31920 10.54800000 2209790217 2209790217 -3.00000000
-6.15029526 7.12770033 2.17347717 18 13 31921 9.66200000 2209790220 2209790220 13.00000000
-6.23582125 7.22936869 2.55816746 42 15 31922 9.88400000 2209790224 2209790224 15.00000000
-1.37943435 1.60374033 -0.56681371 4 0 31930 2.19000000 2209790245 2209790245 -15.00000000
-1.60052073 1.86209142 -0.56687665 4 2 31932 2.52000000 2209790250 2209790250 -13.00000000
-1.90638876 2.21873021 -0.56861079 3 4 31933 2.98000000 2209790254 2209790254 -11.00000000
-2.31629872 2.69770408 -0.56316406 1 6 31935 3.60000000 2209790259 2209790259 -9.00000000
-2.91489387 3.39726353 -0.54963076 12 8 31937 4.51000000 2209790263 2209790263 -7.00000000
-4.18711519 4.88174105 -0.56267750 7 10 31938 6.45600000 2209790268 2209790268 -5.00000000
-6.87835503 8.02511406 -0.55392379 4 12 31940 10.58400000 2209790273 2209790273 -3.00000000
-6.11016226 7.13136721 2.16807818 19 13 31941 9.63800000 2209790275 2209790275 13.00000000
-6.21682072 7.26098013 2.56127334 42 15 31943 9.89600000 2209790280 2209790280 15.00000000
-1.37382782 1.60854566 -0.56681371 4 0 31950 2.19000000 2209790300 2209790300 -15.00000000
-1.59401107 1.86766684 -0.56687665 4 2 31952 2.52000000 2209790305 2209790305 -13.00000000
-1.90118086 2.22835827 -0.56937402 3 4 31953 2.98400000 2209790310 2209790310 -11.00000000
-2.31840205 2.71930170 -0.56597990 1 6 31955 3.61800000 2209790314 2209790314 -9.00000000
-2.89271855 3.39532924 -0.54768085 12 8 31957 4.49400000 2209790319 2209790319 -7.00000000
-4.17004919 4.89632702 -0.56267750 7 10 31958 6.45600000 2209790323 2209790323 -5.00000000
-6.03380013 7.08718491 1.80925095 12 11 31959 9.48200000 2209790326 2209790326 11.00000000
-6.85029984 8.04907513 -0.55392379 4 12 31960 10.58400000 2209790328 2209790328 -3.00000000
-6.06502771 7.12890387 2.16087985 19 13 31961 9.60600000 2209790330 2209790330 13.00000000
-6.19896603 7.28891420 2.56386137 45 15 31962 9.90600000 2209790335 2209790335 15.00000000
-1.36820459 1.61333144 -0.56681371 4 0 31970 2.19000000 2209790356 2209790356 -15.00000000
-1.58622205 1.87173295 -0.56642675 4 2 31972 2.51800000 2209790360 2209790360 -13.00000000
-1.88323855 2.22299719 -0.56632107 3 4 31973 2.96800000 2209790365 2209790365 -11.00000000
-2.30251408 2.71983957 -0.56441557 1 6 31975 3.60800000 2209790369 2209790369 -9.00000000
-2.88084912 3.40540600 -0.54768085 10 8 31977 4.49400000 2209790374 2209790374 -7.00000000
-4.16451120 4.92454576 -0.56424630 7 10 31978 6.47400000 2209790379 2209790379 -5.00000000
-6.02676916 7.12919378 1.81459355 25 11 31979 9.51000000 2209790381 2209790381 11.00000000
-6.82602930 8.07751465 -0.55423778 4 12 31980 10.59000000 2209790383 2209790383 -3.00000000
-6.01369715 7.11876965 2.15143180 14 13 31981 9.56400000 2209790386 2209790386 13.00000000
-6.17473173 7.31198406 2.56437922 45 15 31982 9.90800000 2209790390 2209790390 15.00000000
-1.35911322 1.61342728 -0.56526077 4 0 31989 2.18400000 2209790411 2209790411 -15.00000000
-1.57749653 1.87400103 -0.56552696 4 2 31991 2.51400000 2209790416 2209790416 -13.00000000
-1.87585652 2.22923017 -0.56632107 3 4 31992 2.96800000 2209790420 2209790420 -11.00000000
-2.31000948 2.74711466 -0.56848282 1 6 31994 3.63400000 2209790425 2209790425 -9.00000000
-2.87337160 3.41949987 -0.54841202 10 8 31996 4.50000000 2209790429 2209790429 -7.00000000
-4.14303207 4.93222618 -0.56354904 7 10 31997 6.46600000 2209790434 2209790434 -5.00000000
-6.02329445 7.17319632 1.82069945 12 11 31998 9.54200000 2209790436 2209790436 11.00000000
-6.81589890 8.11999321 -0.55559850 4 12 31999 10.61600000 2209790439 2209790439 -3.00000000
-5.98003674 7.12672997 2.14783263 14 13 32000 9.54800000 2209790441 2209790441 13.00000000
-6.14424276 7.32501936 2.56179094 45 15 32001 9.89800000 2209790445 2209790445 15.00000000
-1.34851527 1.61223423 -0.56319022 4 0 32009 2.17600000 2209790466 2209790466 -15.00000000
-1.57719421 1.88697231 -0.56777644 4 2 32011 2.52400000 2209790471 2209790471 -13.00000000
-1.88065159 2.25083017 -0.57013726 3 4 32012 2.98800000 2209790475 2209790475 -11.00000000
-2.29534197 2.74909616 -0.56723136 1 6 32014 3.62600000 2209790480 2209790480 -9.00000000
-2.86777663 3.43713021 -0.54963076 10 8 32016 4.51000000 2209790485 2209790485 -7.00000000
-4.12834215 4.94971800 -0.56389767 3 10 32017 6.47000000 2209790489 2209790489 -5.00000000
-6.01330519 7.21227217 1.82527888 3 11 32018 9.56600000 2209790492 2209790492 11.00000000
-6.78751326 8.14373589 -0.55559850 4 12 32019 10.61600000 2209790494 2209790494 -3.00000000
-5.99254560 7.19247627 2.16132975 27 13 32020 9.60800000 2209790496 2209790496 13.00000000
-6.03577280 7.24950361 2.52762675 45 15 32022 9.76600000 2209790501 2209790501 15.00000000
-1.34781635 1.62287629 -0.56526077 4 0 32029 2.18400000 2209790522 2209790522 -15.00000000
-1.56561971 1.88646793 -0.56597686 4 2 32031 2.51600000 2209790526 2209790526 -13.00000000
-1.86275506 2.24529362 -0.56708431 3 4 32032 2.97200000 2209790531 2209790531 -11.00000000
-2.28068900 2.75100875 -0.56597990 1 6 32034 3.61800000 2209790535 2209790535 -9.00000000
-2.87222457 3.46699214 -0.55279934 8 8 32036 4.53600000 2209790540 2209790540 -7.00000000
-4.12755966 4.98404694 -0.56616372 3 10 32037 6.49600000 2209790545 2209790545 -5.00000000
-6.00687218 7.25590277 1.83100307 9 11 32038 9.59600000 2209790547 2209790547 11.00000000
-6.77050495 8.18122673 -0.55654055 4 12 32039 10.63400000 2209790549 2209790549 -3.00000000
-7.05554676 8.52869129 2.55544400 43 13 32040 11.36000000 2209790551 2209790551 13.00000000
-6.08064365 7.35284805 2.55661464 40 15 32041 9.87800000 2209790556 2209790556 15.00000000
-1.34705949 1.63353288 -0.56733137 4 0 32049 2.19200000 2209790577 2209790577 -15.00000000
-1.56522167 1.89944100 -0.56822634 4 2 32051 2.52600000 2209790581 2209790581 -13.00000000
-1.86489213 2.26390481 -0.57013726 2 4 32052 2.98800000 2209790586 2209790586 -11.00000000
-2.27609396 2.76505351 -0.56723136 1 6 32054 3.62600000 2209790591 2209790591 -9.00000000
-2.89163184 3.51532364 -0.55889279 8 8 32056 4.58600000 2209790595 2209790595 -7.00000000
-4.12911844 5.02150822 -0.56877840 4 10 32057 6.52600000 2209790600 2209790600 -5.00000000
-6.74444199 8.20789719 -0.55674988 8 12 32059 10.63800000 2209790604 2209790604 -3.00000000
-7.02202225 8.54874992 2.55409431 51 13 32060 11.35400000 2209790607 2209790607 13.00000000
-6.06842613 7.39045191 2.56230855 45 15 32061 9.90000000 2209790611 2209790611 15.00000000
-1.34595764 1.64443898 -0.56940192 4 0 32070 2.20000000 2209790632 2209790632 -15.00000000
-1.56318438 1.91119885 -0.57002598 4 2 32072 2.53400000 2209790637 2209790637 -13.00000000
-1.85658205 2.27072477 -0.57013726 3 4 32073 2.98800000 2209790641 2209790641 -11.00000000
-2.26594424 2.77337718 -0.56723136 1 6 32075 3.62600000 2209790646 2209790646 -9.00000000
-2.89379334 3.54435062 -0.56181765 8 8 32077 4.61000000 2209790650 2209790650 -7.00000000
-4.10060787 5.02426004 -0.56738389 4 10 32078 6.51000000 2209790655 2209790655 -5.00000000
-6.72946119 8.25113487 -0.55800599 8 12 32080 10.66200000 2209790660 2209790660 -3.00000000
-6.98202276 8.56385708 2.55094504 57 13 32081 11.34000000 2209790662 2209790662 13.00000000
-6.03885698 7.40964937 2.56127334 42 15 32082 9.89600000 2209790667 2209790667 15.00000000
-1.33899093 1.64762795 -0.56888425 5 0 32090 2.19800000 2209790687 2209790687 -15.00000000
-1.55773199 1.91815650 -0.57047588 4 2 32092 2.53600000 2209790692 2209790692 -13.00000000
-1.83627057 2.26194930 -0.56632107 3 4 32093 2.96800000 2209790697 2209790697 -11.00000000
