# .PCD v0.7 - Point Cloud Data file format
VERSION 0.7
FIELDS x y z intensity laser_id azimuth distance_m adjustedtime timestamp vertical_angle
SIZE 4 4 4 1 1 2 8 8 4 8
TYPE F F F U U U F U U F
COUNT 1 1 1 1 1 1 1 1 1 1
WIDTH 522
HEIGHT 1
VIEWPOINT 0 0 0 1 0 0 0
POINTS 522
DATA ascii
-3.69040442 11.31085873 0.62353057 5 3 34193 11.91400000 2209696526 2209696526 3.00000000
-0.94946891 2.91178608 -0.59532404 2 4 34194 3.12000000 2209696528 2209696528 -11.00000000
-1.16841650 3.58749247 -0.59757966 2 6 34196 3.82000000 2209696532 2209696532 -9.00000000
-1.56223536 4.80236149 -0.62007123 2 8 34198 5.08800000 2209696537 2209696537 -7.00000000
-3.46656370 10.66898537 2.18056512 56 11 34200 11.42800000 2209696544 2209696544 11.00000000
-3.32053852 10.23171806 2.48345971 46 13 34202 11.04000000 2209696549 2209696549 13.00000000
-2.86145782 8.82237720 2.48518038 38 15 34203 9.60200000 2209696553 2209696553 15.00000000
-0.67356181 2.08663249 -0.58751923 4 0 34211 2.27000000 2209696574 2209696574 -15.00000000
-0.78754902 2.44267082 -0.59252107 3 2 34213 2.63400000 2209696578 2209696578 -13.00000000
-0.93929911 2.91508269 -0.59532404 4 4 34214 3.12000000 2209696583 2209696583 -11.00000000
-1.16920054 3.63291764 -0.60446280 2 6 34216 3.86400000 2209696588 2209696588 -9.00000000
-1.53331268 4.76998854 -0.61519647 2 8 34218 5.04800000 2209696592 2209696592 -7.00000000
-3.42690015 10.67354393 2.17903876 53 11 34220 11.42000000 2209696599 2209696599 11.00000000
-3.28242254 10.23582363 2.48166013 47 13 34222 11.03200000 2209696604 2209696604 13.00000000
-2.83300304 8.83967018 2.48725104 36 15 34223 9.61000000 2209696608 2209696608 15.00000000
-0.67133737 2.10357785 -0.59166032 4 0 34230 2.28600000 2209696629 2209696629 -15.00000000
-0.77944452 2.44526911 -0.59252107 3 2 34232 2.63400000 2209696634 2209696634 -13.00000000
-0.93201083 2.92566395 -0.59685051 2 4 34233 3.12800000 2209696638 2209696638 -11.00000000
-1.14995968 3.61418629 -0.60070837 2 6 34235 3.84000000 2209696643 2209696643 -9.00000000
-1.52951086 4.81288385 -0.62007123 2 8 34237 5.08800000 2209696648 2209696648 -7.00000000
-3.38792276 10.67362213 2.17674899 56 11 34239 11.40800000 2209696655 2209696655 11.00000000
-3.24433899 10.23364925 2.47851062 51 13 34241 11.01800000 2209696659 2209696659 13.00000000
-2.80154634 8.84766388 2.48673344 38 15 34243 9.60800000 2209696664 2209696664 15.00000000
-0.65934306 2.09116912 -0.58751923 4 0 34250 2.27000000 2209696684 2209696684 -15.00000000
-0.77324557 2.45541000 -0.59432071 3 2 34252 2.64200000 2209696689 2209696689 -13.00000000
-0.92297143 2.93264484 -0.59761375 4 4 34253 3.13200000 2209696694 2209696694 -11.00000000
-1.15273833 3.66717458 -0.60884291 2 6 34255 3.89200000 2209696698 2209696698 -9.00000000
-1.51270139 4.81819344 -0.62007123 2 8 34257 5.08800000 2209696703 2209696703 -7.00000000
-3.35064435 10.68538284 2.17674899 56 11 34259 11.40800000 2209696710 2209696710 11.00000000
-3.20917964 10.24677086 2.47896051 50 13 34261 11.02000000 2209696714 2209696714 13.00000000
-2.76833820 8.85001469 2.48466277 38 15 34263 9.60000000 2209696719 2209696719 15.00000000
-0.65125525 2.08965516 -0.58648396 4 0 34269 2.26600000 2209696740 2209696740 -15.00000000
-0.76741564 2.46540332 -0.59612030 3 2 34271 2.65000000 2209696744 2209696744 -13.00000000
-0.91674036 2.94693732 -0.59990346 4 4 34272 3.14400000 2209696749 2209696749 -11.00000000
-1.12767673 3.62947559 -0.60195982 2 6 34274 3.84800000 2209696754 2209696754 -9.00000000
-1.49436200 4.81559992 -0.61909628 2 8 34276 5.08000000 2209696758 2209696758 -7.00000000
-3.30937982 10.67768288 2.17293286 59 11 34278 11.38800000 2209696765 2209696765 11.00000000
-3.17518234 10.25735664 2.47896051 50 13 34280 11.02000000 2209696770 2209696770 13.00000000
-2.73954606 8.86099148 2.48518038 40 15 34282 9.60200000 2209696774 2209696774 15.00000000
-0.64395702 2.09191585 -0.58648396 4 0 34289 2.26600000 2209696795 2209696795 -15.00000000
-0.75536901 2.45689106 -0.59342086 3 2 34291 2.63800000 2209696800 2209696800 -13.00000000
-0.89952862 2.92759919 -0.59532404 4 4 34292 3.12000000 2209696804 2209696804 -11.00000000
-1.11731875 3.64094377 -0.60321128 2 6 34294 3.85600000 2209696809 2209696809 -9.00000000
-1.47521651 4.81319523 -0.61812133 2 8 34296 5.07200000 2209696814 2209696814 -7.00000000
-3.26519179 10.66664219 2.16835332 56 11 34298 11.36400000 2209696820 2209696820 11.00000000
-3.14049768 10.27210522 2.47986031 48 13 34300 11.02400000 2209696825 2209696825 13.00000000
-2.70747042 8.86680508 2.48414516 38 15 34302 9.59800000 2209696830 2209696830 15.00000000
-0.63889861 2.10154414 -0.58855450 4 0 34309 2.27400000 2209696850 2209696850 -15.00000000
-0.74452353 2.45205402 -0.59162128 3 2 34311 2.63000000 2209696855 2209696855 -13.00000000
-0.89158416 2.93823600 -0.59685051 2 4 34312 3.12800000 2209696860 2209696860 -11.00000000
-1.11262357 3.67128825 -0.60759145 2 6 34314 3.88400000 2209696864 2209696864 -9.00000000
-1.46300697 4.83351469 -0.62007123 2 8 34316 5.08800000 2209696869 2209696869 -7.00000000
-3.22452974 10.66669941 2.16606379 59 11 34318 11.35200000 2209696876 2209696876 11.00000000
-3.10349560 10.27927399 2.47896051 48 13 34320 11.02000000 2209696880 2209696880 13.00000000
-2.67693591 8.87203598 2.48310995 38 15 34321 9.59400000 2209696885 2209696885 15.00000000
-0.63600266 2.11856389 -0.59269559 4 0 34329 2.29000000 2209696906 2209696906 -15.00000000
-0.73931772 2.46583772 -0.59432071 3 2 34331 2.64200000 2209696910 2209696910 -13.00000000
-0.88470340 2.95261431 -0.59914023 2 4 34332 3.14000000 2209696915 2209696915 -11.00000000
-1.09923530 3.67325711 -0.60727859 2 6 34334 3.88200000 2209696919 2209696919 -9.00000000
-1.44612598 4.83859253 -0.62007123 2 8 34336 5.08800000 2209696924 2209696924 -7.00000000
-3.18952250 10.68541527 2.16759014 56 11 34338 11.36000000 2209696931 2209696931 11.00000000
-3.06425500 10.27883911 2.47626114 50 13 34340 11.00800000 2209696936 2209696936 13.00000000
-2.64495158 8.88363934 2.48362756 40 15 34342 9.59600000 2209696940 2209696940 15.00000000
-0.62640762 2.11336207 -0.59062505 4 0 34349 2.28200000 2209696961 2209696961 -15.00000000
-0.73402470 2.47961497 -0.59702009 3 2 34351 2.65400000 2209696966 2209696966 -13.00000000
-0.87216371 2.94815397 -0.59761375 2 4 34352 3.13200000 2209696970 2209696970 -11.00000000
-1.08976483 3.68843842 -0.60915583 2 6 34354 3.89400000 2209696975 2209696975 -9.00000000
-1.43821621 4.87407351 -0.62397105 2 8 34356 5.12000000 2209696979 2209696979 -7.00000000
-3.14887428 10.68518448 2.16530037 56 11 34358 11.34800000 2209696986 2209696986 11.00000000
-3.02835655 10.28947258 2.47626114 50 13 34360 11.00800000 2209696991 2209696991 13.00000000
-2.61275220 8.88309479 2.48103929 40 15 34361 9.58600000 2209696996 2209696996 15.00000000
-0.61685669 2.10811949 -0.58855450 4 0 34369 2.27400000 2209697016 2209697016 -15.00000000
-0.72427154 2.47842121 -0.59612030 3 2 34371 2.65000000 2209697021 2209697021 -13.00000000
-0.86406887 2.95871854 -0.59914023 2 4 34372 3.14000000 2209697025 2209697025 -11.00000000
-1.07854247 3.69790912 -0.61009443 2 6 34374 3.90000000 2209697030 2209697030 -9.00000000
-1.42008340 4.87525272 -0.62348354 2 8 34376 5.11600000 2209697035 2209697035 -7.00000000
-3.10716963 10.68103027 2.16224742 56 11 34378 11.33200000 2209697042 2209697042 11.00000000
-2.99133372 10.29623795 2.47536135 50 13 34380 11.00400000 2209697046 2209697046 13.00000000
-2.57856154 8.88704491 2.47948647 42 15 34382 9.58000000 2209697051 2209697051 15.00000000
-0.60986251 2.11015344 -0.58855450 4 0 34388 2.27400000 2209697072 2209697072 -15.00000000
-0.71712965 2.48455381 -0.59702009 3 2 34390 2.65400000 2209697076 2209697076 -13.00000000
-0.85534090 2.96534038 -0.59990346 2 4 34391 3.14400000 2209697081 2209697081 -11.00000000
-1.05533767 3.66350150 -0.60383701 2 6 34393 3.86000000 2209697085 2209697085 -9.00000000
-1.40500629 4.88375044 -0.62397105 2 8 34395 5.12000000 2209697090 2209697090 -7.00000000
-3.06305885 10.66108418 2.15614176 50 11 34397 11.30000000 2209697097 2209697097 11.00000000
-2.95824862 10.30984783 2.47626114 50 13 34399 11.00800000 2209697102 2209697102 13.00000000
-2.54956436 8.89138794 2.47845125 40 15 34400 9.57600000 2209697106 2209697106 15.00000000
-0.60249299 2.11226940 -0.58855450 4 0 34408 2.27400000 2209697127 2209697127 -15.00000000
-0.70524931 2.47579694 -0.59432071 3 2 34410 2.64200000 2209697131 2209697131 -13.00000000
-0.84390968 2.96453166 -0.59914023 2 4 34411 3.14000000 2209697136 2209697136 -11.00000000
-1.05010569 3.69376421 -0.60821718 2 6 34413 3.88800000 2209697141 2209697141 -9.00000000
-1.38469732 4.87716722 -0.62250859 2 8 34415 5.10800000 2209697145 2209697145 -7.00000000
-3.02689719 10.67548943 2.15690494 50 11 34417 11.30400000 2209697152 2209697152 11.00000000
-2.91852617 10.30698586 2.47311187 53 13 34419 10.99400000 2209697157 2209697157 13.00000000
-2.51801014 8.90439034 2.47948647 40 15 34421 9.58000000 2209697161 2209697161 15.00000000
-0.59788561 2.12562156 -0.59166032 4 0 34429 2.28600000 2209697182 2209697182 -15.00000000
-0.69617033 2.47836518 -0.59432071 3 2 34431 2.64200000 2209697187 2209697187 -13.00000000
-0.83303845 2.96760464 -0.59914023 2 4 34432 3.14000000 2209697191 2209697191 -11.00000000
-1.03656030 3.69758821 -0.60821718 2 6 34434 3.88800000 2209697196 2209697196 -9.00000000
-1.36146057 4.86309385 -0.62007123 2 8 34436 5.08800000 2209697201 2209697201 -7.00000000
-2.98722053 10.68462086 2.15652323 46 11 34438 11.30200000 2209697207 2209697207 11.00000000
-2.88177752 10.32136726 2.47401166 60 13 34440 10.99800000 2209697212 2209697212 13.00000000
-2.48795104 8.91684723 2.48052168 42 15 34441 9.58400000 2209697217 2209697217 15.00000000
-0.58736259 2.11652660 -0.58855450 4 0 34449 2.27400000 2209697237 2209697237 -15.00000000
-0.68855584 2.48453593 -0.59522051 3 2 34451 2.64600000 2209697242 2209697242 -13.00000000
-0.81953055 2.95914221 -0.59685051 2 4 34452 3.12800000 2209697247 2209697247 -11.00000000
-1.02575326 3.70879960 -0.60946870 2 6 34454 3.89600000 2209697251 2209697251 -9.00000000
-1.35187578 4.89460468 -0.62348354 2 8 34456 5.11600000 2209697256 2209697256 -7.00000000
-2.95095015 10.69876862 2.15728641 50 11 34458 11.30600000 2209697263 2209697263 11.00000000
-2.84366179 10.32384872 2.47221208 59 13 34460 10.99000000 2209697267 2209697267 13.00000000
-2.44910407 8.90355396 2.47431016 40 15 34462 9.56000000 2209697272 2209697272 15.00000000
-0.58034074 2.11846280 -0.58855450 4 0 34468 2.27400000 2209697293 2209697293 -15.00000000
-0.68442684 2.50184321 -0.59881973 3 2 34470 2.66200000 2209697297 2209697297 -13.00000000
-0.81385487 2.97699380 -0.59990346 2 4 34471 3.14400000 2209697302 2209697302 -11.00000000
-1.01761091 3.72742581 -0.61197162 2 6 34473 3.91200000 2209697307 2209697307 -9.00000000
-1.33459306 4.89523029 -0.62299609 2 8 34475 5.11200000 2209697311 2209697311 -7.00000000
-2.91236115 10.69712925 2.15499687 43 11 34477 11.29400000 2209697318 2209697318 11.00000000
-2.81043363 10.33698273 2.47311187 60 13 34479 10.99400000 2209697323 2209697323 13.00000000
-2.41656208 8.89442635 2.46965122 40 15 34480 9.54200000 2209697327 2209697327 15.00000000
-0.57596582 2.13166547 -0.59166032 4 0 34488 2.28600000 2209697348 2209697348 -15.00000000
-0.67162836 2.48916531 -0.59522051 3 2 34490 2.64600000 2209697353 2209697353 -13.00000000
-0.80345827 2.97981644 -0.59990346 4 4 34491 3.14400000 2209697357 2209697357 -11.00000000
-0.99945754 3.71188068 -0.60884291 2 6 34493 3.89200000 2209697362 2209697362 -9.00000000
-1.32574463 4.93053150 -0.62689590 2 8 34495 5.14400000 2209697366 2209697366 -7.00000000
-2.87093043 10.69206142 2.15194392 40 11 34497 11.27800000 2209697373 2209697373 11.00000000
-2.77534294 10.35049438 2.47401166 59 13 34499 10.99800000 2209697378 2209697378 13.00000000
-2.38444591 8.90508938 2.47016907 42 15 34501 9.54400000 2209697383 2209697383 15.00000000
-0.56752664 2.12992954 -0.59062505 4 0 34508 2.28200000 2209697403 2209697403 -15.00000000
-0.66093111 2.48396158 -0.59342086 3 2 34510 2.63800000 2209697408 2209697408 -13.00000000
-0.79506981 2.99019241 -0.60142994 4 4 34511 3.15200000 2209697413 2209697413 -11.00000000
-0.99156392 3.73443913 -0.61197162 2 6 34513 3.91200000 2209697417 2209697417 -9.00000000
-1.30649066 4.92745399 -0.62592095 2 8 34515 5.13600000 2209697422 2209697422 -7.00000000
-2.83409309 10.70391560 2.15232539 43 11 34517 11.28000000 2209697429 2209697429 11.00000000
-2.73521113 10.34504700 2.47041249 59 13 34519 10.98200000 2209697433 2209697433 13.00000000
-2.35342193 8.90734482 2.46861601 40 15 34520 9.53800000 2209697438 2209697438 15.00000000
-0.56107008 2.13563442 -0.59166032 4 0 34528 2.28600000 2209697459 2209697459 -15.00000000
-0.65423447 2.49379349 -0.59522051 3 2 34530 2.64600000 2209697463 2209697463 -13.00000000
-0.78363156 2.98915124 -0.60066670 4 4 34531 3.14800000 2209697468 2209697468 -11.00000000
-0.97652119 3.73023367 -0.61072016 2 6 34533 3.90400000 2209697472 2209697472 -9.00000000
-1.28928268 4.93198442 -0.62592095 2 8 34535 5.13600000 2209697477 2209697477 -7.00000000
-2.79819989 10.71944237 2.15347028 43 11 34537 11.28600000 2209697484 2209697484 11.00000000
-2.69515109 10.33944607 2.46681333 56 13 34539 10.96600000 2209697489 2209697489 13.00000000
-2.32474995 8.92485237 2.47120428 42 15 34540 9.54800000 2209697493 2209697493 15.00000000
-0.55241799 2.12990665 -0.58958977 4 0 34546 2.27800000 2209697514 2209697514 -15.00000000
-0.64541960 2.49206352 -0.59432071 3 2 34548 2.64200000 2209697519 2209697519 -13.00000000
-0.77522081 2.99539971 -0.60142994 2 4 34549 3.15200000 2209697523 2209697523 -11.00000000
-0.97171718 3.76005864 -0.61510032 2 6 34551 3.93200000 2209697528 2209697528 -9.00000000
-1.27576613 4.94369888 -0.62689590 2 8 34553 5.14400000 2209697532 2209697532 -7.00000000
-2.76450992 10.72817993 2.15347028 43 11 34555 11.28600000 2209697539 2209697539 11.00000000
-2.66168427 10.34408760 2.46591353 59 13 34557 10.96200000 2209697544 2209697544 13.00000000
-2.29092717 8.90966034 2.46499252 42 15 34558 9.52400000 2209697548 2209697548 15.00000000
-0.54497987 2.13182187 -0.58958977 4 0 34566 2.27800000 2209697569 2209697569 -15.00000000
-0.63768071 2.49807763 -0.59522051 3 2 34568 2.64600000 2209697574 2209697574 -13.00000000
-0.76281917 2.99047804 -0.59990346 2 4 34569 3.14400000 2209697578 2209697578 -11.00000000
-0.94980973 3.72897100 -0.60946870 2 6 34571 3.89600000 2209697583 2209697583 -9.00000000
-1.25165141 4.92118835 -0.62348354 2 8 34573 5.11600000 2209697588 2209697588 -7.00000000
-2.72607827 10.73395920 2.15270710 46 11 34575 11.28200000 2209697595 2209697595 11.00000000
-2.62460232 10.34953785 2.46501374 56 13 34577 10.95800000 2209697599 2209697599 13.00000000
-2.25635934 8.91050625 2.46292210 40 15 34579 9.51600000 2209697604 2209697604 15.00000000
-0.53753513 2.13371134 -0.58958977 4 0 34586 2.27800000 2209697625 2209697625 -15.00000000
-0.62990773 2.50406814 -0.59612030 3 2 34588 2.65000000 2209697629 2209697629 -13.00000000
-0.75333303 2.99693060 -0.60066670 2 4 34589 3.14800000 2209697634 2209697634 -11.00000000
-0.93678743 3.73226380 -0.60946870 2 6 34591 3.89600000 2209697638 2209697638 -9.00000000
-1.23736107 4.93708038 -0.62494600 2 8 34593 5.12800000 2209697643 2209697643 -7.00000000
-2.68763995 10.73960018 2.15194392 43 11 34595 11.27800000 2209697650 2209697650 11.00000000
-2.58845973 10.35863590 2.46501374 57 13 34597 10.95800000 2209697654 2209697654 13.00000000
-2.22633076 8.91606522 2.46240449 40 15 34598 9.51400000 2209697659 2209697659 15.00000000
-0.53008378 2.13557458 -0.58958977 4 0 34606 2.27800000 2209697680 2209697680 -15.00000000
-0.62116307 2.50625157 -0.59612030 3 2 34608 2.65000000 2209697684 2209697684 -13.00000000
-0.74947464 3.02622151 -0.60600936 4 4 34609 3.17600000 2209697689 2209697689 -11.00000000
-0.93039256 3.76235771 -0.61384887 2 6 34611 3.92400000 2209697694 2209697694 -9.00000000
-1.21536136 4.92209768 -0.62250859 2 8 34613 5.10800000 2209697698 2209697698 -7.00000000
-2.64778543 10.73938560 2.15003586 40 11 34615 11.26800000 2209697705 2209697705 11.00000000
-2.54949069 10.35625553 2.46231413 57 13 34617 10.94600000 2209697710 2209697710 13.00000000
-2.19427133 8.92002964 2.46136904 40 15 34618 9.51000000 2209697714 2209697714 15.00000000
-0.52492023 2.14679480 -0.59217799 4 0 34626 2.28800000 2209697735 2209697735 -15.00000000
-0.61425960 2.51597714 -0.59791988 3 2 34628 2.65800000 2209697740 2209697740 -13.00000000
-0.73053110 2.99448752 -0.59914023 4 4 34629 3.14000000 2209697744 2209697744 -11.00000000
-0.91865635 3.77134013 -0.61478746 2 6 34631 3.93000000 2209697749 2209697749 -9.00000000
-1.20567870 4.95717192 -0.62640840 2 8 34633 5.14000000 2209697753 2209697753 -7.00000000
-2.61028194 10.74856281 2.15003586 40 11 34635 11.26800000 2209697760 2209697760 11.00000000
-2.51056981 10.35372829 2.45961475 57 13 34637 10.93400000 2209697765 2209697765 13.00000000
-2.16357613 8.92951298 2.46188664 40 15 34638 9.51200000 2209697770 2209697770 15.00000000
-0.51697105 2.14673591 -0.59166032 4 0 34646 2.28600000 2209697790 2209697790 -15.00000000
-0.60638463 2.52189541 -0.59881973 3 2 34648 2.66200000 2209697795 2209697795 -13.00000000
-0.72649497 3.02374434 -0.60448289 4 4 34649 3.16800000 2209697800 2209697800 -11.00000000
-0.90087825 3.75531507 -0.61165875 2 6 34651 3.91000000 2209697804 2209697804 -9.00000000
-1.18004441 4.92660141 -0.62202114 2 8 34653 5.10400000 2209697809 2209697809 -7.00000000
-2.57365990 10.76142788 2.15079904 40 11 34655 11.27200000 2209697816 2209697816 11.00000000
-2.47350788 10.35863781 2.45871496 59 13 34657 10.93000000 2209697820 2209697820 13.00000000
-2.12814522 8.92610741 2.45878100 38 15 34659 9.50000000 2209697825 2209697825 15.00000000
-0.50628084 2.13340116 -0.58751923 4 0 34665 2.27000000 2209697846 2209697846 -15.00000000
-0.59711981 2.52009988 -0.59791988 3 2 34667 2.65800000 2209697850 2209697850 -13.00000000
-0.71375000 3.01467419 -0.60219318 2 4 34668 3.15600000 2209697855 2209697855 -11.00000000
-0.89114684 3.76981640 -0.61353600 2 6 34670 3.92200000 2209697859 2209697859 -9.00000000
-1.17099667 4.96139956 -0.62592095 2 8 34672 5.13600000 2209697864 2209697864 -7.00000000
-2.53300619 10.74888325 2.14660120 40 11 34674 11.25000000 2209697871 2209697871 11.00000000
-2.43914390 10.36678314 2.45871496 57 13 34676 10.93000000 2209697876 2209697876 13.00000000
-2.09611344 8.91582394 2.45412207 40 15 34677 9.48200000 2209697880 2209697880 15.00000000
-0.50190729 2.14832377 -0.59114271 4 0 34685 2.28400000 2209697901 2209697901 -15.00000000
-0.59009010 2.52976012 -0.59971952 3 2 34687 2.66600000 2209697905 2209697905 -13.00000000
-0.70411372 3.02097130 -0.60295641 2 4 34688 3.16000000 2209697910 2209697910 -11.00000000
-0.87619138 3.76520824 -0.61228448 2 6 34690 3.91400000 2209697915 2209697915 -9.00000000
-1.15367103 4.96545696 -0.62592095 2 8 34692 5.13600000 2209697919 2209697919 -7.00000000
-2.49458265 10.75383472 2.14583802 40 11 34694 11.24600000 2209697926 2209697926 11.00000000
-2.40250254 10.37333584 2.45826507 54 13 34696 10.92800000 2209697931 2209697931 13.00000000
-2.06541419 8.92496872 2.45463991 38 15 34697 9.48400000 2209697935 2209697935 15.00000000
-0.49570400 2.15571094 -0.59269559 4 0 34705 2.29000000 2209697956 2209697956 -15.00000000
-0.57776761 2.51660991 -0.59612030 3 2 34707 2.65000000 2209697961 2209697961 -13.00000000
-0.69619811 3.03489208 -0.60524613 2 4 34708 3.17200000 2209697965 2209697965 -11.00000000
-0.86436599 3.77402020 -0.61322308 2 6 34710 3.92000000 2209697970 2209697970 -9.00000000
-1.13190639 4.95010233 -0.62348354 6 8 34712 5.11600000 2209697975 2209697975 -7.00000000
-2.45397091 10.74907875 2.14316654 37 11 34714 11.23200000 2209697982 2209697982 11.00000000
-2.36194754 10.36265850 2.45376611 54 13 34716 10.90800000 2209697986 2209697986 13.00000000
-2.03397465 8.93812943 2.45619273 40 15 34718 9.49000000 2209697991 2209697991 15.00000000
-0.48988155 2.16496491 -0.59476614 4 0 34725 2.29800000 2209698011 2209698011 -15.00000000
-0.56983829 2.52241302 -0.59702009 3 2 34727 2.65400000 2209698016 2209698016 -13.00000000
-0.68473554 3.03347349 -0.60448289 2 4 34728 3.16800000 2209698021 2209698021 -11.00000000
-0.85118699 3.77701449 -0.61322308 2 6 34730 3.92000000 2209698025 2209698025 -9.00000000
-1.11636329 4.96177006 -0.62445849 2 8 34732 5.12400000 2209698030 2209698030 -7.00000000
-2.41815591 10.76524067 2.14469314 40 11 34734 11.24000000 2209698037 2209698037 11.00000000
-2.32405496 10.36323452 2.45196652 54 13 34736 10.90000000 2209698041 2209698041 13.00000000
-2.00107408 8.93763447 2.45412207 42 15 34738 9.48200000 2209698046 2209698046 15.00000000
-0.47896323 2.15157628 -0.59062505 4 0 34745 2.28200000 2209698067 2209698067 -15.00000000
-0.56525779 2.54341006 -0.60151911 3 2 34747 2.67400000 2209698071 2209698071 -13.00000000
-0.66988659 3.01667953 -0.60066670 2 4 34748 3.14800000 2209698076 2209698076 -11.00000000
-0.83970773 3.78767681 -0.61447459 2 6 34750 3.92800000 2209698081 2209698081 -9.00000000
-1.10933220 5.01215315 -0.63030827 2 8 34752 5.17200000 2209698085 2209698085 -7.00000000
-2.38183427 10.77936745 2.14583802 40 11 34754 11.24600000 2209698092 2209698092 11.00000000
-2.28618717 10.36367226 2.45016694 53 13 34756 10.89200000 2209698097 2209698097 13.00000000
-1.96695518 8.93135834 2.45049882 38 15 34758 9.46800000 2209698101 2209698101 15.00000000
-0.46979716 2.14568639 -0.58855450 4 0 34765 2.27400000 2209698122 2209698122 -15.00000000
-0.55471158 2.53775239 -0.59971952 3 2 34767 2.66600000 2209698127 2209698127 -13.00000000
-0.66102797 3.02667165 -0.60219318 2 4 34768 3.15600000 2209698131 2209698131 -11.00000000
-0.82858527 3.80023503 -0.61603892 2 6 34770 3.93800000 2209698136 2209698136 -9.00000000
-1.10196269 5.06254673 -0.63615799 2 8 34772 5.22000000 2209698141 2209698141 -7.00000000
-2.33877301 10.76267529 2.14087701 37 11 34774 11.22000000 2209698147 2209698147 11.00000000
-2.25082350 10.37539768 2.45106673 52 13 34776 10.89600000 2209698152 2209698152 13.00000000
-1.93290460 8.92495346 2.44687533 40 15 34778 9.45400000 2209698157 2209698157 15.00000000
-0.46555725 2.16242194 -0.59269559 4 0 34785 2.29000000 2209698177 2209698177 -15.00000000
-0.54339290 2.52824187 -0.59702009 3 2 34787 2.65400000 2209698182 2209698182 -13.00000000
-0.65458095 3.04815555 -0.60600936 2 4 34788 3.17600000 2209698187 2209698187 -11.00000000
-0.81614304 3.80696726 -0.61666465 2 6 34790 3.94200000 2209698191 2209698191 -9.00000000
-2.29913902 10.76117420 2.13896894 37 11 34794 11.21000000 2209698203 2209698203 11.00000000
-2.21499944 10.38509750 2.45151663 55 13 34796 10.89800000 2209698207 2209698207 13.00000000
-1.90450561 8.93698215 2.44842815 38 15 34797 9.46000000 2209698212 2209698212 15.00000000
-0.45760614 2.16214371 -0.59217799 3 0 34805 2.28800000 2209698233 2209698233 -15.00000000
-0.53617573 2.53775001 -0.59881973 3 2 34807 2.66200000 2209698237 2209698237 -13.00000000
-0.64474791 3.05426383 -0.60677260 2 4 34808 3.18000000 2209698242 2209698242 -11.00000000
-0.79796129 3.78659773 -0.61291021 2 6 34810 3.91800000 2209698246 2209698246 -9.00000000
-1.06577563 5.06623125 -0.63567048 2 8 34812 5.21600000 2209698251 2209698251 -7.00000000
-2.26317549 10.77681923 2.14049530 46 11 34814 11.21800000 2209698258 2209698258 11.00000000
-2.17673588 10.38322926 2.44926715 53 13 34816 10.88800000 2209698263 2209698263 13.00000000
-1.87134147 8.94201183 2.44791055 38 15 34818 9.45800000 2209698267 2209698267 15.00000000
-0.45122117 2.16743207 -0.59321326 3 0 34824 2.29200000 2209698288 2209698288 -15.00000000
-0.52736074 2.53760600 -0.59836978 3 2 34826 2.66000000 2209698293 2209698293 -13.00000000
-0.63541430 3.06022954 -0.60753584 2 4 34827 3.18400000 2209698297 2209698297 -11.00000000
-0.79422033 3.83177686 -0.61979336 2 6 34829 3.96200000 2209698302 2209698302 -9.00000000
-1.04333854 5.04252291 -0.63225818 2 8 34831 5.18800000 2209698306 2209698306 -7.00000000
-2.22583747 10.77657413 2.13896894 43 11 34833 11.21000000 2209698313 2209698313 11.00000000
-2.14150500 10.38657379 2.44836736 54 13 34835 10.88400000 2209698318 2209698318 13.00000000
-1.84557879 8.95919991 2.45101643 38 15 34836 9.47000000 2209698323 2209698323 15.00000000
-0.44249129 2.16331577 -0.59166032 4 0 34844 2.28600000 2209698343 2209698343 -15.00000000
-0.51888949 2.54134083 -0.59881973 3 2 34846 2.66200000 2209698348 2209698348 -13.00000000
-0.62158889 3.04703975 -0.60448289 2 4 34847 3.16800000 2209698352 2209698352 -11.00000000
-0.77532178 3.80742669 -0.61541319 2 6 34849 3.93400000 2209698357 2209698357 -9.00000000
-1.01703119 5.00333738 -0.62689590 2 8 34851 5.14400000 2209698362 2209698362 -7.00000000
-2.18976808 10.79197502 2.14049530 43 11 34853 11.21800000 2209698369 2209698369 11.00000000
-2.10368872 10.38634586 2.44656777 52 13 34855 10.87600000 2209698373 2209698373 13.00000000
-1.80890083 8.94696808 2.44583988 38 15 34857 9.45000000 2209698378 2209698378 15.00000000
-0.43265408 2.15348315 -0.58855450 4 0 34864 2.27400000 2209698399 2209698399 -15.00000000
-0.51384723 2.56224346 -0.60331875 3 2 34866 2.68200000 2209698403 2209698403 -13.00000000
-0.61172038 3.05304098 -0.60524613 2 4 34867 3.17200000 2209698408 2209698408 -11.00000000
-0.76512593 3.82560611 -0.61791611 2 6 34869 3.95000000 2209698412 2209698412 -9.00000000
-2.14978170 10.78800011 2.13820553 43 11 34873 11.20600000 2209698424 2209698424 11.00000000
-2.06970167 10.40509319 2.44926715 55 13 34875 10.88800000 2209698429 2209698429 13.00000000
-1.77733898 8.94344425 2.44325185 38 15 34876 9.44000000 2209698433 2209698433 15.00000000
-0.42812565 2.17014289 -0.59269559 4 0 34884 2.29000000 2209698454 2209698454 -15.00000000
-0.50188810 2.54872537 -0.59971952 3 2 34886 2.66600000 2209698458 2209698458 -13.00000000
-0.60105956 3.05515766 -0.60524613 2 4 34887 3.17200000 2209698463 2209698463 -11.00000000
-0.74605775 3.79917812 -0.61322308 2 6 34889 3.92000000 2209698468 2209698468 -9.00000000
-0.99964112 5.09992456 -0.63810790 2 8 34891 5.23600000 2209698472 2209698472 -7.00000000
-2.10909581 10.78002453 2.13515258 40 11 34893 11.19000000 2209698479 2209698479 11.00000000
-2.03262162 10.40842915 2.44836736 51 13 34895 10.88400000 2209698484 2209698484 13.00000000
-1.74639571 8.95937920 2.44583988 38 15 34897 9.45000000 2209698488 2209698488 15.00000000
-0.42054781 2.17162418 -0.59269559 4 0 34904 2.29000000 2209698509 2209698509 -15.00000000
-0.49224868 2.54663515 -0.59881973 3 2 34906 2.66200000 2209698514 2209698514 -13.00000000
-0.58964688 3.05338192 -0.60448289 2 4 34907 3.16800000 2209698518 2209698518 -11.00000000
-0.73690420 3.82309580 -0.61666465 2 6 34909 3.94200000 2209698523 2209698523 -9.00000000
-2.07219410 10.79117775 2.13591599 43 11 34913 11.19400000 2209698534 2209698534 11.00000000
-1.99627697 10.41546154 2.44836736 55 13 34915 10.88400000 2209698539 2209698539 13.00000000
-1.71812904 8.97271061 2.44791055 36 15 34916 9.45800000 2209698544 2209698544 15.00000000
-0.41476822 2.18256831 -0.59528381 4 0 34924 2.30000000 2209698564 2209698564 -15.00000000
-0.48190364 2.54067945 -0.59702009 3 2 34926 2.65400000 2209698569 2209698569 -13.00000000
-0.57971603 3.05927944 -0.60524613 2 4 34927 3.17200000 2209698574 2209698574 -11.00000000
-0.72539014 3.83534956 -0.61822903 2 6 34929 3.95200000 2209698578 2209698578 -9.00000000
-0.96106708 5.09117413 -0.63615799 2 8 34931 5.22000000 2209698583 2209698583 -7.00000000
-2.03669429 10.80992126 2.13820553 43 11 34933 11.20600000 2209698590 2209698590 11.00000000
-1.95774722 10.41087532 2.44566774 52 13 34935 10.87200000 2209698594 2209698594 13.00000000
-1.68416178 8.97325134 2.44635773 38 15 34937 9.45200000 2209698599 2209698599 15.00000000
-0.40504768 2.17063832 -0.59166032 4 0 34943 2.28600000 2209698620 2209698620 -15.00000000
-0.47561663 2.55375838 -0.59971952 3 2 34945 2.66600000 2209698624 2209698624 -13.00000000
-0.56813145 3.05346441 -0.60371965 2 4 34946 3.16400000 2209698629 2209698629 -11.00000000
-0.71194637 3.83384967 -0.61760324 2 6 34948 3.94800000 2209698634 2209698634 -9.00000000
-0.94200832 5.08262205 -0.63469553 2 8 34950 5.20800000 2209698638 2209698638 -7.00000000
-2.00083590 10.81661510 2.13820553 43 11 34952 11.20600000 2209698645 2209698645 11.00000000
-1.92392039 10.42114258 2.44656777 55 13 34954 10.87600000 2209698650 2209698650 13.00000000
-1.65351045 8.96519947 2.44273424 36 15 34955 9.43800000 2209698654 2209698654 15.00000000
-0.39746827 2.17203879 -0.59166032 4 0 34963 2.28600000 2209698675 2209698675 -15.00000000
-0.46950033 2.57073927 -0.60331875 3 2 34965 2.68200000 2209698680 2209698680 -13.00000000
-0.56028843 3.07087994 -0.60677260 2 4 34966 3.18000000 2209698684 2209698684 -11.00000000
-0.69678998 3.82659435 -0.61603892 2 6 34968 3.93800000 2209698689 2209698689 -9.00000000
-0.92568064 5.09369183 -0.63567048 2 8 34970 5.21600000 2209698693 2209698693 -7.00000000
-1.34993434 7.43558598 -0.66116345 4 10 34971 7.58600000 2209698698 2209698698 -5.00000000
-1.96096468 10.81194305 2.13591599 43 11 34972 11.19400000 2209698700 2209698700 11.00000000
-1.88649070 10.42204189 2.44521785 50 13 34974 10.87000000 2209698705 2209698705 13.00000000
-1.61926651 8.96359539 2.44066358 36 15 34976 9.43000000 2209698710 2209698710 15.00000000
-0.39124843 2.18101907 -0.59373087 4 0 34983 2.29400000 2209698730 2209698730 -15.00000000
-0.45846343 2.56085300 -0.60061932 3 2 34985 2.67000000 2209698735 2209698735 -13.00000000
-0.55025691 3.07668233 -0.60753584 2 4 34986 3.18400000 2209698740 2209698740 -11.00000000
-0.68273425 3.82511401 -0.61541319 2 6 34988 3.93400000 2209698744 2209698744 -9.00000000
-0.91067964 5.11252642 -0.63762039 2 8 34990 5.23200000 2209698749 2209698749 -7.00000000
-1.32885790 7.46771479 -0.66360384 4 10 34991 7.61400000 2209698753 2209698753 -5.00000000
-1.92046309 10.80325890 2.13286304 43 11 34992 11.17800000 2209698756 2209698756 11.00000000
-1.85112071 10.43432045 2.44656777 59 13 34994 10.87600000 2209698760 2209698760 13.00000000
-1.58953321 8.96891594 2.44066358 38 15 34995 9.43000000 2209698765 2209698765 15.00000000
-0.38296396 2.17856622 -0.59269559 4 0 35003 2.29000000 2209698786 2209698786 -15.00000000
-0.44985831 2.56435704 -0.60106921 3 2 35005 2.67200000 2209698790 2209698790 -13.00000000
-0.54019171 3.08245182 -0.60829908 2 4 35006 3.18800000 2209698795 2209698795 -11.00000000
-0.67210037 3.84304047 -0.61791611 2 6 35008 3.95000000 2209698799 2209698799 -9.00000000
-0.88531959 5.07265234 -0.63225818 2 8 35010 5.18800000 2209698804 2209698804 -7.00000000
-1.88341463 10.81376457 2.13362622 43 11 35012 11.18200000 2209698811 2209698811 11.00000000
-1.81301832 10.43111801 2.44431806 55 13 35014 10.86600000 2209698816 2209698816 13.00000000
-1.55656374 8.96489239 2.43807530 40 15 35015 9.42000000 2209698820 2209698820 15.00000000
-0.37732393 2.19131279 -0.59580141 4 0 35023 2.30200000 2209698841 2209698841 -15.00000000
-0.44189432 2.57167363 -0.60241890 3 2 35025 2.67800000 2209698846 2209698846 -13.00000000
-0.52677155 3.06883907 -0.60524613 2 4 35026 3.17200000 2209698850 2209698850 -11.00000000
-0.65934861 3.84925723 -0.61854190 2 6 35028 3.95400000 2209698855 2209698855 -9.00000000
-0.87162095 5.09919262 -0.63518304 2 8 35030 5.21200000 2209698859 2209698859 -7.00000000
-1.29345918 7.57500792 -0.67231941 4 10 35031 7.71400000 2209698864 2209698864 -5.00000000
-1.84136462 10.79511452 2.12866521 50 11 35032 11.15600000 2209698866 2209698866 11.00000000
-1.77430689 10.42393589 2.44116879 52 13 35034 10.85200000 2209698871 2209698871 13.00000000
-1.52752781 8.98360252 2.44169879 40 15 35035 9.43400000 2209698875 2209698875 15.00000000
-0.36903018 2.18880653 -0.59476614 4 0 35043 2.29800000 2209698896 2209698896 -15.00000000
-0.43517801 2.58665252 -0.60556823 3 2 35045 2.69200000 2209698901 2209698901 -13.00000000
-0.51800841 3.08227563 -0.60753584 2 4 35046 3.18400000 2209698905 2209698905 -11.00000000
-0.64884853 3.86906886 -0.62135768 2 6 35048 3.97200000 2209698910 2209698910 -9.00000000
-0.84988451 5.07870960 -0.63225818 2 8 35050 5.18800000 2209698915 2209698915 -7.00000000
-1.80852175 10.83052254 2.13438940 43 11 35052 11.18600000 2209698922 2209698922 11.00000000
-1.73887062 10.43583202 2.44251847 55 13 35054 10.85800000 2209698926 2209698926 13.00000000
-1.49237311 8.97580147 2.43807530 42 15 35056 9.42000000 2209698931 2209698931 15.00000000
-0.35988066 2.17858219 -0.59166032 4 0 35062 2.28600000 2209698952 2209698952 -15.00000000
-0.42342860 2.56885338 -0.60106921 3 2 35064 2.67200000 2209698956 2209698956 -13.00000000
-0.50714642 3.08010221 -0.60677260 4 4 35065 3.18000000 2209698961 2209698961 -11.00000000
-0.63249195 3.84975767 -0.61791611 2 6 35067 3.95000000 2209698965 2209698965 -9.00000000
-0.83753419 5.10892487 -0.63567048 2 8 35069 5.21600000 2209698970 2209698970 -7.00000000
-1.77132881 10.82871056 2.13286304 40 11 35071 11.17800000 2209698977 2209698977 11.00000000
-1.70488250 10.44538784 2.44341826 56 13 35073 10.86200000 2209698981 2209698981 13.00000000
-1.46168053 8.96519184 2.43393421 42 15 35074 9.40400000 2209698986 2209698986 15.00000000
-0.35227379 2.17982507 -0.59166032 4 0 35082 2.28600000 2209699007 2209699007 -15.00000000
-0.41507950 2.57416368 -0.60196900 3 2 35084 2.67600000 2209699011 2209699011 -13.00000000
-0.49826497 3.09348345 -0.60906231 2 4 35085 3.19200000 2209699016 2209699016 -11.00000000
-0.61716926 3.84023976 -0.61603892 2 6 35087 3.93800000 2209699021 2209699021 -9.00000000
-0.82723880 5.15885878 -0.64152020 2 8 35089 5.26400000 2209699025 2209699025 -7.00000000
-1.73165774 10.82319641 2.13057327 43 11 35091 11.16600000 2209699032 2209699032 11.00000000
-1.66810369 10.44935131 2.44296837 52 13 35093 10.86000000 2209699037 2209699037 13.00000000
-1.43037724 8.97023964 2.43393421 42 15 35094 9.40400000 2209699041 2209699041 15.00000000
-0.34488440 2.18491793 -0.59269559 4 0 35103 2.29000000 2209699062 2209699062 -15.00000000
-0.40442923 2.56796765 -0.60016942 3 2 35105 2.66800000 2209699067 2209699067 -13.00000000
-0.48814380 3.10304642 -0.61058879 2 4 35106 3.20000000 2209699071 2209699071 -11.00000000
-0.60676545 3.86589384 -0.61979336 2 6 35108 3.96200000 2209699076 2209699076 -9.00000000
-0.80709666 5.15401125 -0.64054525 2 8 35110 5.25600000 2209699080 2209699080 -7.00000000
-1.18756950 7.59232903 -0.67231941 4 10 35111 7.71400000 2209699085 2209699085 -5.00000000
-1.69076490 10.82171154 2.12904668 46 11 35112 11.15800000 2209699087 2209699087 11.00000000
-1.62799287 10.44384193 2.44026899 55 13 35114 10.84800000 2209699092 2209699092 13.00000000
-1.39689565 8.97160435 2.43289900 42 15 35115 9.40000000 2209699097 2209699097 15.00000000
-0.33843368 2.19374561 -0.59476614 4 0 35123 2.29800000 2209699117 2209699117 -15.00000000
-0.39635223 2.57514191 -0.60151911 3 2 35125 2.67400000 2209699122 2209699122 -13.00000000
-0.47611591 3.09696960 -0.60906231 2 4 35126 3.19200000 2209699127 2209699127 -11.00000000
-0.59147042 3.85627317 -0.61791611 2 6 35128 3.95000000 2209699131 2209699131 -9.00000000
-0.78669870 5.14109898 -0.63859534 2 8 35130 5.24000000 2209699136 2209699136 -7.00000000
-1.65357232 10.83142853 2.12981009 43 11 35132 11.16200000 2209699143 2209699143 11.00000000
-1.59064686 10.44368172 2.43891931 55 13 35134 10.84200000 2209699147 2209699147 13.00000000
-1.36516452 8.98430347 2.43496966 42 15 35136 9.40800000 2209699152 2209699152 15.00000000
-0.33038598 2.18715739 -0.59269559 4 0 35141 2.29000000 2209699173 2209699173 -15.00000000
-0.38942185 2.58408237 -0.60331875 3 2 35143 2.68200000 2209699177 2209699177 -13.00000000
-0.46638414 3.09845018 -0.60906231 2 4 35144 3.19200000 2209699182 2209699182 -11.00000000
-0.58169943 3.87373996 -0.62041909 2 6 35146 3.96600000 2209699186 2209699186 -9.00000000
-0.77172005 5.15139818 -0.63957030 2 8 35148 5.24800000 2209699191 2209699191 -7.00000000
-1.62069702 10.84433746 2.13133645 46 11 35150 11.17000000 2209699198 2209699198 11.00000000
-1.55782926 10.44862652 2.43891931 55 13 35152 10.84200000 2209699203 2209699203 13.00000000
-1.33622527 8.97302818 2.43082857 42 15 35153 9.39200000 2209699207 2209699207 15.00000000
-0.32218561 2.18447495 -0.59166032 4 0 35161 2.28600000 2209699228 2209699228 -15.00000000
-0.38039935 2.58542585 -0.60331875 3 2 35163 2.68200000 2209699232 2209699232 -13.00000000
-0.45556569 3.10005927 -0.60906231 2 4 35164 3.19200000 2209699237 2209699237 -11.00000000
-0.56903356 3.88161039 -0.62135768 2 6 35166 3.97200000 2209699242 2209699242 -9.00000000
-0.75947851 5.19334459 -0.64444506 2 8 35168 5.28800000 2209699246 2209699246 -7.00000000
-1.11065340 7.60396147 -0.67231941 4 10 35169 7.71400000 2209699251 2209699251 -5.00000000
-1.58169973 10.84215736 2.12981009 46 11 35170 11.16200000 2209699253 2209699253 11.00000000
-1.52218914 10.45978642 2.44026899 54 13 35172 10.84800000 2209699258 2209699258 13.00000000
-1.30378389 8.96999073 2.42875791 42 15 35173 9.38400000 2209699262 2209699262 15.00000000
-0.31510884 2.18941045 -0.59269559 4 0 35181 2.29000000 2209699283 2209699283 -15.00000000
-0.37247995 2.59445381 -0.60511833 3 2 35183 2.69000000 2209699288 2209699288 -13.00000000
-0.44362706 3.09385705 -0.60753584 2 4 35184 3.18400000 2209699292 2209699292 -11.00000000
-0.55464166 3.87770653 -0.62041909 2 6 35186 3.96600000 2209699297 2209699297 -9.00000000
-0.73461640 5.14879942 -0.63859534 2 8 35188 5.24000000 2209699302 2209699302 -7.00000000
-1.08410394 7.60779238 -0.67231941 4 10 35189 7.71400000 2209699306 2209699306 -5.00000000
-1.53997111 10.82040119 2.12446737 43 11 35190 11.13400000 2209699309 2209699309 11.00000000
-1.48457277 10.45731831 2.43846941 54 13 35192 10.84000000 2209699313 2209699313 13.00000000
-1.27116930 8.97662258 2.42927551 45 15 35194 9.38600000 2209699318 2209699318 15.00000000
-0.30827001 2.19623637 -0.59424853 3 0 35201 2.29600000 2209699338 2209699338 -15.00000000
-0.36071932 2.57643890 -0.60061932 3 2 35203 2.67000000 2209699343 2209699343 -13.00000000
-0.43663102 3.12260747 -0.61287850 2 4 35204 3.21200000 2209699348 2209699348 -11.00000000
-0.54110253 3.87961912 -0.62041909 2 6 35206 3.96600000 2209699352 2209699352 -9.00000000
-0.71992159 5.17492628 -0.64152020 2 8 35208 5.26400000 2209699357 2209699357 -7.00000000
-1.05754113 7.61152983 -0.67231941 4 10 35209 7.71400000 2209699362 2209699362 -5.00000000
-1.50219154 10.82571125 2.12446737 43 11 35210 11.13400000 2209699364 2209699364 11.00000000
-1.44725931 10.45664597 2.43711972 55 13 35212 10.83400000 2209699368 2209699368 13.00000000
-1.24009156 8.98291874 2.42979312 42 15 35214 9.38800000 2209699373 2209699373 15.00000000
-0.30098534 2.19724655 -0.59424853 3 0 35220 2.29600000 2209699394 2209699394 -15.00000000
-0.35296497 2.58341336 -0.60196900 3 2 35222 2.67600000 2209699398 2209699398 -13.00000000
-0.42361942 3.10458589 -0.60906231 2 4 35223 3.19200000 2209699403 2209699403 -11.00000000
-0.53036535 3.89705086 -0.62292206 2 6 35225 3.98200000 2209699408 2209699408 -9.00000000
-0.70596105 5.20088959 -0.64444506 2 8 35227 5.28800000 2209699412 2209699412 -7.00000000
-1.03229463 7.61499500 -0.67231941 4 10 35228 7.71400000 2209699417 2209699417 -5.00000000
-1.46523035 10.82285118 2.12294078 40 11 35229 11.12600000 2209699419 2209699419 11.00000000
-1.41153288 10.45366287 2.43532014 59 13 35231 10.82600000 2209699424 2209699424 13.00000000
-1.21081197 8.99081039 2.43082857 42 15 35233 9.39200000 2209699428 2209699428 15.00000000
-0.29254720 2.19253922 -0.59269559 4 0 35240 2.29000000 2209699449 2209699449 -15.00000000
-0.34471619 2.59042501 -0.60331875 3 2 35242 2.68200000 2209699454 2209699454 -13.00000000
-0.41329709 3.10993791 -0.60982555 2 4 35243 3.19600000 2209699458 2209699458 -11.00000000
-0.51675886 3.89887834 -0.62292206 2 6 35245 3.98200000 2209699463 2209699463 -9.00000000
-0.68468058 5.17970657 -0.64152020 2 8 35247 5.26400000 2209699468 2209699468 -7.00000000
-1.00570703 7.61855221 -0.67231941 4 10 35248 7.71400000 2209699472 2209699472 -5.00000000
-1.42821240 10.83373833 2.12408566 40 11 35249 11.13200000 2209699474 2209699474 11.00000000
-1.37452614 10.45466232 2.43442035 56 13 35251 10.82200000 2209699479 2209699479 13.00000000
-1.17690921 8.97582722 2.42565203 45 15 35253 9.37200000 2209699484 2209699484 15.00000000
-0.28412631 2.19364643 -0.59269559 4 0 35262 2.29000000 2209699504 2209699504 -15.00000000
-0.33376861 2.58399868 -0.60151911 3 2 35264 2.67400000 2209699509 2209699509 -13.00000000
-0.40185508 3.11539626 -0.61058879 2 4 35265 3.20000000 2209699514 2209699514 -11.00000000
-0.50178444 3.90083385 -0.62292206 2 6 35267 3.98200000 2209699518 2209699518 -9.00000000
-0.66276634 5.16654587 -0.63957030 2 8 35269 5.24800000 2209699523 2209699523 -7.00000000
-0.97644651 7.62235737 -0.67231941 4 10 35270 7.71400000 2209699527 2209699527 -5.00000000
-1.38535786 10.82940578 2.12217760 40 11 35271 11.12200000 2209699530 2209699530 11.00000000
-1.33486629 10.46372890 2.43532014 55 13 35273 10.82600000 2209699534 2209699534 13.00000000
-1.14058542 8.95325184 2.41840506 42 15 35274 9.34400000 2209699539 2209699539 15.00000000
-0.27791604 2.20612502 -0.59580141 4 0 35282 2.30200000 2209699560 2209699560 -15.00000000
-0.32474673 2.58514810 -0.60151911 3 2 35284 2.67400000 2209699564 2209699564 -13.00000000
-0.39048916 3.11288404 -0.60982555 2 4 35285 3.19600000 2209699569 2209699569 -11.00000000
-0.48816496 3.90256166 -0.62292206 2 6 35287 3.98200000 2209699573 2209699573 -9.00000000
-0.64964175 5.20822430 -0.64444506 2 8 35289 5.28800000 2209699578 2209699578 -7.00000000
-1.34560907 10.81858921 2.11912465 43 11 35291 11.10600000 2209699585 2209699585 11.00000000
-1.29881263 10.47219276 2.43621993 56 13 35293 10.83000000 2209699590 2209699590 13.00000000
-1.10918510 8.96887589 2.42151093 45 15 35295 9.35600000 2209699594 2209699594 15.00000000
-0.27012855 2.20319939 -0.59476614 4 0 35301 2.29800000 2209699615 2209699615 -15.00000000
-0.31711820 2.59394813 -0.60331875 3 2 35303 2.68200000 2209699620 2209699620 -13.00000000
-0.38254330 3.13364959 -0.61364174 2 4 35304 3.21600000 2209699624 2209699624 -11.00000000
-0.47283408 3.88454986 -0.61979336 2 6 35306 3.96200000 2209699629 2209699629 -9.00000000
-0.63236707 5.21035004 -0.64444506 2 8 35308 5.28800000 2209699633 2209699633 -7.00000000
-1.30854666 10.81324768 2.11721659 40 11 35310 11.09600000 2209699640 2209699640 11.00000000
-1.26314461 10.46870327 2.43442035 57 13 35312 10.82200000 2209699645 2209699645 13.00000000
-1.08077204 8.97039795 2.42099333 45 15 35313 9.35400000 2209699650 2209699650 15.00000000
-0.26266471 2.20604730 -0.59528381 4 0 35321 2.30000000 2209699670 2209699670 -15.00000000
-0.30852115 2.59890962 -0.60421854 3 2 35323 2.68600000 2209699675 2209699675 -13.00000000
-0.36882934 3.11157060 -0.60906231 2 4 35324 3.19200000 2209699679 2209699679 -11.00000000
-0.46112630 3.90187049 -0.62229627 2 6 35326 3.97800000 2209699684 2209699684 -9.00000000
-0.61138827 5.18886805 -0.64152020 2 8 35328 5.26400000 2209699689 2209699689 -7.00000000
-1.27216780 10.82944775 2.11950636 40 11 35330 11.10800000 2209699696 2209699696 11.00000000
-1.22523427 10.46143532 2.43172097 57 13 35332 10.81000000 2209699700 2209699700 13.00000000
-1.04766262 8.97237968 2.42047572 42 15 35334 9.35200000 2209699705 2209699705 15.00000000
-0.25468162 2.20114899 -0.59373087 4 0 35340 2.29400000 2209699726 2209699726 -15.00000000
-0.29945454 2.59604645 -0.60331875 3 2 35342 2.68200000 2209699730 2209699730 -13.00000000
-0.35895824 3.11667728 -0.60982555 2 4 35343 3.19600000 2209699735 2209699735 -11.00000000
-0.45088866 3.92692804 -0.62605071 2 6 35345 4.00200000 2209699739 2209699739 -9.00000000
-0.59327495 5.18297815 -0.64054525 2 8 35347 5.25600000 2209699744 2209699744 -7.00000000
-0.87259179 7.63494396 -0.67231941 4 10 35348 7.71400000 2209699749 2209699749 -5.00000000
-1.23602641 10.83165646 2.11912465 40 11 35349 11.10600000 2209699751 2209699751 11.00000000
-1.19097674 10.46931362 2.43262076 57 13 35351 10.81400000 2209699756 2209699756 13.00000000
-1.01946986 8.97562695 2.42047572 42 15 35352 9.35200000 2209699760 2209699760 15.00000000
-0.24656595 2.19818497 -0.59269559 4 0 35360 2.29000000 2209699781 2209699781 -15.00000000
-0.29233977 2.61450601 -0.60736787 3 2 35362 2.70000000 2209699785 2209699785 -13.00000000
-0.34894809 3.12571597 -0.61135203 4 4 35363 3.20400000 2209699790 2209699790 -11.00000000
-0.43936318 3.94811058 -0.62917942 2 6 35365 4.02200000 2209699795 2209699795 -9.00000000
-0.57868123 5.21658516 -0.64444506 2 8 35367 5.28800000 2209699799 2209699799 -7.00000000
-0.84154904 7.59833765 -0.66883320 4 10 35368 7.67400000 2209699804 2209699804 -5.00000000
-1.19734621 10.82809925 2.11759830 40 11 35369 11.09800000 2209699806 2209699806 11.00000000
-1.15442467 10.47340679 2.43262076 59 13 35371 10.81400000 2209699811 2209699811 13.00000000
-0.98424488 8.95818043 2.41478181 40 15 35373 9.33000000 2209699815 2209699815 15.00000000
-0.23993455 2.20863509 -0.59528381 3 0 35380 2.30000000 2209699836 2209699836 -15.00000000
-0.28237250 2.60776091 -0.60556823 3 2 35382 2.69200000 2209699841 2209699841 -13.00000000
-0.33845720 3.13081861 -0.61211526 2 4 35383 3.20800000 2209699845 2209699845 -11.00000000
-0.42219302 3.91819596 -0.62417352 2 6 35385 3.99000000 2209699850 2209699850 -9.00000000
-0.55834866 5.19883633 -0.64200771 2 8 35387 5.26800000 2209699855 2209699855 -7.00000000
-0.81926894 7.64084959 -0.67231941 4 10 35388 7.71400000 2209699859 2209699859 -5.00000000
-1.15745223 10.81269264 2.11378217 40 11 35389 11.07800000 2209699861 2209699861 11.00000000
-1.11744523 10.47349739 2.43172097 59 13 35391 10.81000000 2209699866 2209699866 13.00000000
-0.95473772 8.96331596 2.41529942 40 15 35392 9.33200000 2209699871 2209699871 15.00000000
-0.23242544 2.21138024 -0.59580141 4 0 35400 2.30200000 2209699891 2209699891 -15.00000000
-0.27204987 2.59710193 -0.60286885 3 2 35402 2.68000000 2209699896 2209699896 -13.00000000
-0.32752654 3.13198113 -0.61211526 2 4 35403 3.20800000 2209699901 2209699901 -11.00000000
-0.41076583 3.94125795 -0.62761509 2 6 35405 4.01200000 2209699905 2209699905 -9.00000000
-0.53650635 5.16521311 -0.63762039 2 8 35407 5.23200000 2209699910 2209699910 -7.00000000
-1.12010610 10.82057190 2.11454535 40 11 35409 11.08200000 2209699917 2209699917 11.00000000
-1.08047903 10.47345734 2.43082118 59 13 35411 10.80600000 2209699921 2209699921 13.00000000
-0.92306453 8.97828484 2.41840506 42 15 35413 9.34400000 2209699926 2209699926 15.00000000
-0.22490010 2.21410012 -0.59631908 3 0 35420 2.30400000 2209699947 2209699947 -15.00000000
-0.26219761 2.59028029 -0.60106921 3 2 35422 2.67200000 2209699951 2209699951 -13.00000000
-0.31619716 3.12919855 -0.61135203 2 4 35423 3.20400000 2209699956 2209699956 -11.00000000
-0.39621413 3.93480611 -0.62636358 2 6 35425 4.00400000 2209699961 2209699961 -9.00000000
-0.52005869 5.18285561 -0.63957030 2 8 35427 5.24800000 2209699965 2209699965 -7.00000000
-1.08174241 10.81855583 2.11340046 37 11 35429 11.07600000 2209699972 2209699972 11.00000000
-1.04275405 10.46553040 2.42812157 59 13 35431 10.79400000 2209699977 2209699977 13.00000000
-0.89252162 8.97360706 2.41633463 42 15 35432 9.33600000 2209699981 2209699981 15.00000000
-0.21698156 2.21294904 -0.59580141 4 0 35440 2.30200000 2209700002 2209700002 -15.00000000
-0.25504911 2.61057496 -0.60556823 3 2 35442 2.69200000 2209700007 2209700007 -13.00000000
-0.30565339 3.13419127 -0.61211526 2 4 35443 3.20800000 2209700011 2209700011 -11.00000000
-0.38133040 3.92436838 -0.62448639 2 6 35445 3.99200000 2209700016 2209700016 -9.00000000
-0.50311178 5.19649458 -0.64103276 2 8 35447 5.26000000 2209700020 2209700020 -7.00000000
-1.04397202 10.82226562 2.11340046 40 11 35449 11.07600000 2209700027 2209700027 11.00000000
-1.00621617 10.46910667 2.42812157 59 13 35451 10.79400000 2209700032 2209700032 13.00000000
-0.85925740 8.97297192 2.41529942 42 15 35453 9.33200000 2209700037 2209700037 15.00000000
-0.20850630 2.20988297 -0.59476614 4 0 35461 2.29800000 2209700057 2209700057 -15.00000000
