# .PCD v0.7 - Point Cloud Data file format
VERSION 0.7
FIELDS x y z intensity laser_id azimuth distance_m adjustedtime timestamp vertical_angle
SIZE 4 4 4 1 1 2 8 8 4 8
TYPE F F F U U U F U U F
COUNT 1 1 1 1 1 1 1 1 1 1
WIDTH 523
HEIGHT 1
VIEWPOINT 0 0 0 1 0 0 0
POINTS 523
DATA ascii
-7.33650017 6.53428698 -0.51488113 8 12 31169 9.83800000 2209188264 2209188264 -3.00000000
-8.42010689 7.50204182 2.60358357 46 13 31170 11.57400000 2209188267 2209188267 13.00000000
-7.22238684 6.43717337 2.59233165 42 15 31171 10.01600000 2209188271 2209188271 15.00000000
-1.54119992 1.37750781 -0.55387276 4 0 31179 2.14000000 2209188292 2209188292 -15.00000000
-1.81128275 1.62004268 -0.56102794 3 2 31181 2.49400000 2209188296 2209188296 -13.00000000
-2.11564565 1.89293492 -0.55181962 3 4 31182 2.89200000 2209188301 2209188301 -11.00000000
-2.60633874 2.33361197 -0.55409086 3 6 31184 3.54200000 2209188306 2209188306 -9.00000000
-3.29251313 2.95005655 -0.54280603 100 8 31186 4.45400000 2209188310 2209188310 -7.00000000
-3.76699996 3.37637711 -0.44257686 3 10 31187 5.07800000 2209188315 2209188315 -5.00000000
-7.32256746 6.56785774 -0.51550919 8 12 31189 9.85000000 2209188320 2209188320 -3.00000000
-8.38951683 7.52748346 2.60223389 44 13 31190 11.56800000 2209188322 2209188322 13.00000000
-7.19412231 6.45718336 2.59026098 42 15 31191 10.00800000 2209188326 2209188326 15.00000000
-1.54068971 1.38675642 -0.55542564 4 0 31199 2.14600000 2209188347 2209188347 -15.00000000
-1.79692900 1.61853004 -0.55832851 3 2 31201 2.48200000 2209188352 2209188352 -13.00000000
-2.12069345 1.91082180 -0.55487257 3 4 31202 2.90800000 2209188356 2209188356 -11.00000000
-2.59524298 2.34004998 -0.55346513 3 6 31204 3.53800000 2209188361 2209188361 -9.00000000
-3.28366947 2.96286154 -0.54304981 100 8 31206 4.45600000 2209188366 2209188366 -7.00000000
-3.76702309 3.40018559 -0.44397137 3 10 31207 5.09400000 2209188370 2209188370 -5.00000000
-7.27884674 6.57463551 -0.51404375 12 12 31209 9.82200000 2209188375 2209188375 -3.00000000
-8.35451508 7.54888344 2.59953427 42 13 31210 11.55600000 2209188377 2209188377 13.00000000
-7.16754103 6.48091650 2.58922577 45 15 31212 10.00400000 2209188382 2209188382 15.00000000
-1.54156506 1.39731562 -0.55749625 4 0 31219 2.15400000 2209188402 2209188402 -15.00000000
-1.79704189 1.63002968 -0.56012815 3 2 31221 2.49000000 2209188407 2209188407 -13.00000000
-2.11401057 1.91821277 -0.55487257 3 4 31222 2.90800000 2209188412 2209188412 -11.00000000
-2.59290862 2.35440660 -0.55471659 3 6 31224 3.54600000 2209188416 2209188416 -9.00000000
-3.26449203 2.96629572 -0.54158735 100 8 31226 4.44400000 2209188421 2209188421 -7.00000000
-3.73154211 3.39187217 -0.44118237 3 10 31227 5.06200000 2209188426 2209188426 -5.00000000
-7.25585270 6.60000324 -0.51404375 8 12 31229 9.82200000 2209188430 2209188430 -3.00000000
-8.32234764 7.57275391 2.59773469 40 13 31230 11.54800000 2209188432 2209188432 13.00000000
-7.14487505 6.50589657 2.58922577 47 15 31232 10.00400000 2209188437 2209188437 15.00000000
-1.53977704 1.40502429 -0.55853152 4 0 31238 2.15800000 2209188458 2209188458 -15.00000000
-1.78587043 1.63072383 -0.55832851 3 2 31240 2.48200000 2209188462 2209188462 -13.00000000
-2.10473871 1.92256439 -0.55410933 3 4 31241 2.90400000 2209188467 2209188467 -11.00000000
-2.59091902 2.36832309 -0.55596811 3 6 31243 3.55400000 2209188472 2209188472 -9.00000000
-3.25170803 2.97442532 -0.54109991 100 8 31245 4.44000000 2209188476 2209188476 -7.00000000
-3.62620115 3.31814694 -0.43002644 3 10 31246 4.93400000 2209188481 2209188481 -5.00000000
-7.26338625 6.65100479 -0.51613718 8 12 31248 9.86200000 2209188485 2209188485 -3.00000000
-8.27994633 7.58451462 2.59233594 41 13 31249 11.52400000 2209188488 2209188488 13.00000000
-7.12326145 6.52955389 2.58922577 45 15 31251 10.00400000 2209188492 2209188492 15.00000000
-1.53201818 1.40777636 -0.55749625 4 0 31258 2.15400000 2209188513 2209188513 -15.00000000
-1.78590512 1.64222395 -0.56012815 3 2 31260 2.49000000 2209188518 2209188518 -13.00000000
-2.10090470 1.93255782 -0.55487257 3 4 31261 2.90800000 2209188522 2209188522 -11.00000000
-2.57682276 2.37200117 -0.55471659 3 6 31263 3.54600000 2209188527 2209188527 -9.00000000
-3.25444603 2.99786210 -0.54329354 100 8 31265 4.45800000 2209188532 2209188532 -7.00000000
-3.63071346 3.34563589 -0.43194386 3 10 31266 4.95600000 2209188536 2209188536 -5.00000000
-7.26508665 6.69933510 -0.51791662 8 12 31268 9.89600000 2209188541 2209188541 -3.00000000
-8.25342083 7.61337090 2.59233594 43 13 31269 11.52400000 2209188543 2209188543 13.00000000
-7.09048891 6.54520655 2.58560228 47 15 31271 9.99000000 2209188548 2209188548 15.00000000
-1.52142322 1.40786719 -0.55542564 4 0 31278 2.14600000 2209188568 2209188568 -15.00000000
-1.78302145 1.65109599 -0.56102794 3 2 31280 2.49400000 2209188573 2209188573 -13.00000000
-2.09414601 1.93987954 -0.55487257 3 4 31281 2.90800000 2209188578 2209188578 -11.00000000
-2.57142448 2.38366747 -0.55534238 3 6 31283 3.55000000 2209188582 2209188582 -9.00000000
-3.26724720 3.03080440 -0.54719335 100 8 31285 4.49000000 2209188587 2209188587 -7.00000000
-3.56497598 3.30814528 -0.42549434 5 10 31286 4.88200000 2209188591 2209188591 -5.00000000
-7.26068354 6.74232197 -0.51927733 8 12 31288 9.92200000 2209188596 2209188596 -3.00000000
-8.22679520 7.64213419 2.59233594 42 13 31289 11.52400000 2209188598 2209188598 13.00000000
-7.06166935 6.56210804 2.58301401 42 15 31290 9.98000000 2209188603 2209188603 15.00000000
-1.52215278 1.41843748 -0.55749625 4 0 31298 2.15400000 2209188624 2209188624 -15.00000000
-1.78009772 1.65996790 -0.56192774 3 2 31300 2.49800000 2209188628 2209188628 -13.00000000
-2.08449078 1.94449925 -0.55410933 3 4 31301 2.90400000 2209188633 2209188633 -11.00000000
-2.55875635 2.38858485 -0.55440372 3 6 31303 3.54400000 2209188637 2209188637 -9.00000000
-3.27405524 3.05845189 -0.55011821 94 8 31305 4.51400000 2209188642 2209188642 -7.00000000
-3.61454678 3.37770295 -0.43281543 3 10 31306 4.96600000 2209188647 2209188647 -5.00000000
-7.22105742 6.75261974 -0.51812595 4 12 31308 9.90000000 2209188651 2209188651 -3.00000000
-8.19722271 7.66814184 2.59143615 41 13 31309 11.52000000 2209188654 2209188654 13.00000000
-7.02910852 6.58002520 2.57990813 42 15 31311 9.96800000 2209188658 2209188658 15.00000000
-1.51155734 1.41845429 -0.55542564 4 0 31318 2.14600000 2209188679 2209188679 -15.00000000
-1.76292789 1.65549946 -0.55832851 3 2 31320 2.48200000 2209188684 2209188684 -13.00000000
-2.08627582 1.95982885 -0.55639905 3 4 31321 2.91600000 2209188688 2209188688 -11.00000000
-2.55759954 2.40426707 -0.55596811 3 6 31323 3.55400000 2209188693 2209188693 -9.00000000
-3.26335931 3.06986189 -0.55011821 66 8 31325 4.51400000 2209188697 2209188697 -7.00000000
-4.47911453 4.21500397 -0.53809953 3 10 31326 6.17400000 2209188702 2209188702 -5.00000000
-7.23233938 6.81064701 -0.52063811 4 12 31328 9.94800000 2209188707 2209188707 -3.00000000
-8.16473198 7.69136381 2.58963656 44 13 31329 11.51200000 2209188709 2209188709 13.00000000
-7.01287365 6.60859776 2.58197880 42 15 31330 9.97600000 2209188714 2209188714 15.00000000
-1.51221323 1.42902946 -0.55749625 4 0 31338 2.15400000 2209188734 2209188734 -15.00000000
-1.75713837 1.66164315 -0.55832851 3 2 31340 2.48200000 2209188739 2209188739 -13.00000000
-2.08227444 1.96979773 -0.55716228 3 4 31341 2.92000000 2209188743 2209188743 -11.00000000
-2.55492973 2.41861224 -0.55721956 3 6 31343 3.56200000 2209188748 2209188748 -9.00000000
-3.25694704 3.08533001 -0.55084944 50 8 31345 4.52000000 2209188753 2209188753 -7.00000000
-4.48172808 4.24705887 -0.54019129 3 10 31346 6.19800000 2209188757 2209188757 -5.00000000
-7.23750639 6.86333704 -0.52273154 4 12 31348 9.98800000 2209188762 2209188762 -3.00000000
-8.12652397 7.70908785 2.58603740 42 13 31349 11.49600000 2209188764 2209188764 13.00000000
-6.99000597 6.63558674 2.58249640 45 15 31351 9.97800000 2209188769 2209188769 15.00000000
-1.50696540 1.43456233 -0.55749625 4 0 31359 2.15400000 2209188790 2209188790 -15.00000000
-1.76232421 1.67882526 -0.56192774 3 2 31361 2.49800000 2209188794 2209188794 -13.00000000
-2.07788348 1.98012519 -0.55792552 3 4 31362 2.92400000 2209188799 2209188799 -11.00000000
-2.55891395 2.44022942 -0.56003541 1 6 31364 3.58000000 2209188803 2209188803 -9.00000000
-3.29300857 3.14247179 -0.55889279 64 8 31366 4.58600000 2209188808 2209188808 -7.00000000
-4.47045565 4.26758385 -0.54071420 3 10 31367 6.20400000 2209188813 2209188813 -5.00000000
-7.24118614 6.91741037 -0.52482498 4 12 31369 10.02800000 2209188817 2209188817 -3.00000000
-8.09257889 7.73343611 2.58423781 43 13 31370 11.48800000 2209188820 2209188820 13.00000000
-6.96261168 6.65594149 2.58094358 45 15 31371 9.97200000 2209188824 2209188824 15.00000000
-1.49637043 1.43446636 -0.55542564 4 0 31379 2.14600000 2209188845 2209188845 -15.00000000
-1.76770365 1.69575918 -0.56552696 3 2 31381 2.51400000 2209188849 2209188849 -13.00000000
-2.05962658 1.97649145 -0.55487257 3 4 31382 2.90800000 2209188854 2209188854 -11.00000000
-2.53043318 2.42999148 -0.55565524 1 6 31384 3.55200000 2209188859 2209188859 -9.00000000
-3.28917575 3.16082478 -0.56011152 70 8 31386 4.59600000 2209188863 2209188863 -7.00000000
-4.45122242 4.27902031 -0.54019129 3 10 31387 6.19800000 2209188868 2209188868 -5.00000000
-7.22707129 6.95233727 -0.52555770 4 12 31389 10.04200000 2209188872 2209188872 -3.00000000
-8.06553459 7.76163721 2.58423781 43 13 31390 11.48800000 2209188875 2209188875 13.00000000
-6.92842865 6.67203569 2.57732010 45 15 31392 9.95800000 2209188879 2209188879 15.00000000
-1.49716580 1.44478667 -0.55749625 4 0 31398 2.15400000 2209188900 2209188900 -15.00000000
-1.76207054 1.70161176 -0.56552696 3 2 31400 2.51400000 2209188905 2209188905 -13.00000000
-2.07282925 2.00240707 -0.56021523 3 4 31401 2.93600000 2209188909 2209188909 -11.00000000
-2.52520156 2.44111538 -0.55628097 3 6 31403 3.55600000 2209188914 2209188914 -9.00000000
-3.28438306 3.17723560 -0.56108648 12 8 31405 4.60400000 2209188919 2209188919 -7.00000000
-4.45848465 4.31454039 -0.54280597 7 10 31406 6.22800000 2209188923 2209188923 -5.00000000
-7.18102074 6.95403385 -0.52388293 4 12 31408 10.01000000 2209188928 2209188928 -3.00000000
-8.03975201 7.78834105 2.58423781 43 13 31409 11.48800000 2209188930 2209188930 13.00000000
-6.89910984 6.68570280 2.57421422 45 15 31410 9.94600000 2209188935 2209188935 15.00000000
-1.49488437 1.45269656 -0.55853152 4 0 31418 2.15800000 2209188955 2209188955 -15.00000000
-1.73376691 1.68601465 -0.55832851 3 2 31420 2.48200000 2209188960 2209188960 -13.00000000
-2.06864119 2.01236844 -0.56097847 3 4 31421 2.94000000 2209188965 2209188965 -11.00000000
-2.52515793 2.45818257 -0.55815816 1 6 31423 3.56800000 2209188969 2209188969 -9.00000000
-3.26758480 3.18314004 -0.56011152 20 8 31425 4.59600000 2209188974 2209188974 -7.00000000
-4.44339705 4.33007717 -0.54280597 7 10 31426 6.22800000 2209188978 2209188978 -5.00000000
-7.18816090 7.00973511 -0.52618569 4 12 31428 10.05400000 2209188983 2209188983 -3.00000000
-8.00414658 7.80819273 2.58153820 44 13 31429 11.47600000 2209188985 2209188985 13.00000000
-6.88561821 6.72174025 2.57835531 45 15 31431 9.96200000 2209188990 2209188990 15.00000000
-1.49532723 1.46331048 -0.56060207 4 0 31438 2.16600000 2209189011 2209189011 -15.00000000
-1.73065567 1.69478333 -0.55922830 3 2 31440 2.48600000 2209189015 2209189015 -13.00000000
-2.05318952 2.01133394 -0.55868876 3 4 31441 2.92800000 2209189020 2209189020 -11.00000000
-2.51797247 2.46836472 -0.55847102 1 6 31443 3.57000000 2209189025 2209189025 -9.00000000
-3.22102666 3.15977335 -0.55401802 24 8 31445 4.54600000 2209189029 2209189029 -7.00000000
-4.43536520 4.35253859 -0.54367751 7 10 31446 6.23800000 2209189034 2209189034 -5.00000000
-7.19214916 7.06277180 -0.52827913 4 12 31448 10.09400000 2209189038 2209189038 -3.00000000
-7.96850109 7.82789087 2.57883883 43 13 31449 11.46400000 2209189041 2209189041 13.00000000
-6.85915661 6.74047422 2.57680249 42 15 31450 9.95600000 2209189045 2209189045 15.00000000
-1.49021029 1.46852124 -0.56060207 4 0 31458 2.16600000 2209189066 2209189066 -15.00000000
-1.73027945 1.70628738 -0.56102794 3 2 31460 2.49400000 2209189071 2209189071 -13.00000000
-2.04056549 2.01297355 -0.55716228 2 4 31461 2.92000000 2209189075 2209189075 -11.00000000
-2.51918149 2.48685336 -0.56066114 1 6 31463 3.58400000 2209189080 2209189080 -9.00000000
-3.18596959 3.14728141 -0.54987448 26 8 31465 4.51200000 2209189084 2209189084 -7.00000000
-4.41447639 4.36239290 -0.54298025 3 10 31466 6.23000000 2209189089 2209189089 -5.00000000
-7.18449354 7.10468674 -0.52953523 4 12 31468 10.11800000 2209189094 2209189094 -3.00000000
-7.94389915 7.85839939 2.57973862 44 13 31469 11.46800000 2209189096 2209189096 13.00000000
-6.83440542 6.76556921 2.57680249 45 15 31471 9.95600000 2209189101 2209189101 15.00000000
-1.47436035 1.46257067 -0.55646098 4 0 31477 2.15000000 2209189121 2209189121 -15.00000000
-1.73014379 1.71750736 -0.56282753 3 2 31479 2.50200000 2209189126 2209189126 -13.00000000
-2.02830672 2.01419568 -0.55563581 3 4 31480 2.91200000 2209189131 2209189131 -11.00000000
-2.50111270 2.48544693 -0.55847102 1 6 31482 3.57000000 2209189135 2209189135 -9.00000000
-3.16425467 3.14663124 -0.54792458 12 8 31484 4.49600000 2209189140 2209189140 -7.00000000
-3.49456334 3.47631359 -0.43124661 6 10 31485 4.94800000 2209189144 2209189144 -5.00000000
-7.17787933 7.14538097 -0.53079128 4 12 31487 10.14200000 2209189149 2209189149 -3.00000000
-7.91779566 7.88469934 2.57973862 42 13 31488 11.46800000 2209189151 2209189151 13.00000000
-6.79943085 6.77337265 2.57162595 42 15 31489 9.93600000 2209189156 2209189156 15.00000000
-1.47471297 1.47316945 -0.55853152 4 0 31497 2.15800000 2209189177 2209189177 -15.00000000
-1.72413802 1.72353625 -0.56282753 3 2 31499 2.50200000 2209189181 2209189181 -13.00000000
-2.02959299 2.02959299 -0.55792552 3 4 31500 2.92400000 2209189186 2209189186 -11.00000000
-2.50359201 2.50534058 -0.56097400 1 6 31502 3.58600000 2209189190 2209189190 -9.00000000
-3.14764071 3.15203881 -0.54694963 16 8 31504 4.48800000 2209189195 2209189195 -7.00000000
-7.16840982 7.18594694 -0.53194267 4 12 31507 10.16400000 2209189204 2209189204 -3.00000000
-7.88747263 7.90952969 2.57883883 48 13 31508 11.46400000 2209189207 2209189207 13.00000000
-6.77983761 6.80117035 2.57317901 45 15 31509 9.94200000 2209189211 2209189211 15.00000000
-1.47254407 1.48079133 -0.55956680 4 0 31516 2.16200000 2209189232 2209189232 -15.00000000
-1.71291852 1.72371507 -0.56102794 3 2 31518 2.49400000 2209189237 2209189237 -13.00000000
-2.02285147 2.03631210 -0.55792552 2 4 31519 2.92400000 2209189241 2209189241 -11.00000000
-2.48413682 2.50241375 -0.55847102 1 6 31521 3.57000000 2209189246 2209189246 -9.00000000
-3.13437486 3.15964079 -0.54646212 16 8 31523 4.48400000 2209189250 2209189250 -7.00000000
-3.46661139 3.49577546 -0.43072367 100 10 31524 4.94200000 2209189255 2209189255 -5.00000000
-7.19515181 7.26075077 -0.53571087 4 12 31526 10.23600000 2209189260 2209189260 -3.00000000
-7.85571480 7.93010426 2.57703924 38 13 31527 11.45600000 2209189262 2209189262 13.00000000
-6.75045013 6.81675243 2.57059073 45 15 31528 9.93200000 2209189266 2209189266 15.00000000
-1.47279584 1.49142075 -0.56163734 4 0 31536 2.17000000 2209189287 2209189287 -15.00000000
-1.70689118 1.72968376 -0.56102794 3 2 31538 2.49400000 2209189292 2209189292 -13.00000000
-2.02124596 2.04895139 -0.55945200 3 4 31539 2.93200000 2209189296 2209189296 -11.00000000
-2.48925447 2.52513719 -0.56159973 1 6 31541 3.59000000 2209189301 2209189301 -9.00000000
-3.12193346 3.16914845 -0.54621840 20 8 31543 4.48200000 2209189306 2209189306 -7.00000000
-3.45159173 3.50501585 -0.43037507 93 10 31544 4.93800000 2209189310 2209189310 -5.00000000
-7.20198345 7.31856441 -0.53811830 4 12 31546 10.28200000 2209189315 2209189315 -3.00000000
-7.81978607 7.94914198 2.57433987 47 13 31547 11.44400000 2209189317 2209189317 13.00000000
-6.73760843 6.85384703 2.57524943 45 15 31549 9.95000000 2209189322 2209189322 15.00000000
-1.46758080 1.49655271 -0.56163734 4 0 31556 2.17000000 2209189343 2209189343 -15.00000000
-1.70902681 1.74398243 -0.56372732 3 2 31558 2.50600000 2209189347 2209189347 -13.00000000
-2.02232480 2.06440902 -0.56174171 3 4 31559 2.94400000 2209189352 2209189352 -11.00000000
-2.47627926 2.52957630 -0.56066114 1 6 31561 3.58400000 2209189356 2209189356 -9.00000000
-3.10946393 3.17860770 -0.54597467 32 8 31563 4.48000000 2209189361 2209189361 -7.00000000
-3.42540598 3.50279784 -0.42863193 94 10 31564 4.91800000 2209189366 2209189366 -5.00000000
-7.16243410 7.32937479 -0.53707159 4 12 31566 10.26200000 2209189370 2209189370 -3.00000000
-7.79062891 7.97499561 2.57388997 53 13 31567 11.44200000 2209189372 2209189372 13.00000000
-6.70539522 6.86647701 2.57162595 45 15 31568 9.93600000 2209189377 2209189377 15.00000000
-1.45965230 1.49889839 -0.56060207 4 0 31576 2.16600000 2209189398 2209189398 -15.00000000
-1.70836508 1.75552392 -0.56552696 3 2 31578 2.51400000 2209189402 2209189402 -13.00000000
-2.01236844 2.06864119 -0.56097847 3 4 31579 2.94000000 2209189407 2209189407 -11.00000000
-2.46468043 2.53537178 -0.56003541 1 6 31581 3.58000000 2209189412 2209189412 -9.00000000
-3.09281683 3.18374681 -0.54499972 38 8 31583 4.47200000 2209189416 2209189416 -7.00000000
-3.40066576 3.50186944 -0.42706314 100 10 31584 4.90000000 2209189421 2209189421 -5.00000000
-7.14654255 7.36436510 -0.53780431 4 12 31586 10.27600000 2209189425 2209189425 -3.00000000
-7.76952791 8.00913525 2.57613945 53 13 31587 11.45200000 2209189428 2209189428 13.00000000
-6.67869616 6.88706779 2.57059073 45 15 31588 9.93200000 2209189432 2209189432 15.00000000
-1.44930100 1.49817657 -0.55853152 4 0 31595 2.15800000 2209189453 2209189453 -15.00000000
-1.70524299 1.76398158 -0.56642675 4 2 31597 2.51800000 2209189458 2209189458 -13.00000000
-2.01368308 2.08377385 -0.56326813 3 4 31598 2.95200000 2209189462 2209189462 -11.00000000
-2.46037602 2.54779387 -0.56097400 3 6 31600 3.58600000 2209189467 2209189467 -9.00000000
-3.06294346 3.17398739 -0.54158735 28 8 31602 4.44400000 2209189471 2209189471 -7.00000000
-3.38073468 3.50452352 -0.42601728 100 10 31603 4.88800000 2209189476 2209189476 -5.00000000
-7.12485456 7.39089918 -0.53801364 4 12 31605 10.28000000 2209189481 2209189481 -3.00000000
-7.74292564 8.03485584 2.57613945 52 13 31606 11.45200000 2209189483 2209189483 13.00000000
-6.65582132 6.90917730 2.57059073 45 15 31607 9.93200000 2209189488 2209189488 15.00000000
-1.44941592 1.50879908 -0.56060207 4 0 31615 2.16600000 2209189508 2209189508 -15.00000000
-1.68692935 1.75727081 -0.56237763 4 2 31617 2.50000000 2209189513 2209189513 -13.00000000
-2.00639725 2.09079027 -0.56326813 3 4 31618 2.95200000 2209189518 2209189518 -11.00000000
-2.44463134 2.54923797 -0.55940962 1 6 31620 3.57600000 2209189522 2209189522 -9.00000000
-3.05047226 3.18322635 -0.54134363 16 8 31622 4.44200000 2209189527 2209189527 -7.00000000
-3.36021137 3.50767064 -0.42497140 100 10 31623 4.87600000 2209189531 2209189531 -5.00000000
-7.14873266 7.46766329 -0.54178184 8 12 31625 10.35200000 2209189536 2209189536 -3.00000000
-7.70135832 8.04775524 2.57164049 50 13 31626 11.43200000 2209189538 2209189538 13.00000000
-6.63445854 6.93771410 2.57214355 45 15 31628 9.93800000 2209189543 2209189543 15.00000000
-1.44680738 1.51664495 -0.56163734 4 0 31635 2.17000000 2209189564 2209189564 -15.00000000
-1.67944038 1.76173818 -0.56192774 3 2 31637 2.49800000 2209189568 2209189568 -13.00000000
-1.99096036 2.08925343 -0.56097847 3 4 31638 2.94000000 2209189573 2209189573 -11.00000000
-2.43435574 2.55632520 -0.55909675 1 6 31640 3.57400000 2209189577 2209189577 -9.00000000
-3.03934193 3.19385529 -0.54134363 10 8 31642 4.44200000 2209189582 2209189582 -7.00000000
-3.34520054 3.51649165 -0.42462277 100 10 31643 4.87200000 2209189587 2209189587 -5.00000000
-7.26848698 7.64601326 -0.55287707 12 12 31645 10.56400000 2209189591 2209189591 -3.00000000
-7.66516495 8.06611347 2.56894112 47 13 31646 11.42000000 2209189594 2209189594 13.00000000
-6.61274624 6.96107721 2.57266140 45 15 31647 9.94000000 2209189598 2209189598 15.00000000
-1.43884730 1.51888108 -0.56060207 4 0 31655 2.16600000 2209189619 2209189619 -15.00000000
-1.67595994 1.77042019 -0.56282753 3 2 31657 2.50200000 2209189623 2209189623 -13.00000000
-1.98095644 2.09333849 -0.56021523 3 4 31658 2.93600000 2209189628 2209189628 -11.00000000
-2.44849110 2.58920670 -0.56441557 1 6 31660 3.60800000 2209189633 2209189633 -9.00000000
-3.04044580 3.21743011 -0.54353726 10 8 31662 4.46000000 2209189637 2209189637 -7.00000000
-3.31375074 3.50787044 -0.42218241 66 10 31663 4.84400000 2209189642 2209189642 -5.00000000
-7.16497612 7.59000635 -0.54701543 8 12 31665 10.45200000 2209189647 2209189647 -3.00000000
-7.63428736 8.08998585 2.56804132 50 13 31666 11.41600000 2209189649 2209189649 13.00000000
-6.58045340 6.97568607 2.56955552 42 15 31667 9.92800000 2209189653 2209189653 15.00000000
-1.42797697 1.51851523 -0.55853152 4 0 31676 2.15800000 2209189674 2209189674 -15.00000000
-1.68814278 1.79643238 -0.56912619 3 2 31678 2.53000000 2209189679 2209189679 -13.00000000
-1.97327065 2.10058498 -0.56021523 3 4 31679 2.93600000 2209189683 2209189683 -11.00000000
-2.42005682 2.57800031 -0.56003541 1 6 31681 3.58000000 2209189688 2209189688 -9.00000000
-3.03678155 3.23723912 -0.54499972 10 8 31683 4.47200000 2209189693 2209189693 -7.00000000
-3.29269409 3.51127219 -0.42113656 40 10 31684 4.83200000 2209189697 2209189697 -5.00000000
-7.10433245 7.58123970 -0.54450327 8 12 31686 10.40400000 2209189702 2209189702 -3.00000000
-7.60724974 8.12075710 2.56894112 48 13 31687 11.42000000 2209189704 2209189704 13.00000000
-6.54437876 6.99102974 2.56593204 40 15 31689 9.91400000 2209189709 2209189709 15.00000000
-1.42530465 1.52631438 -0.55956680 4 0 31696 2.16200000 2209189729 2209189729 -15.00000000
-1.67654359 1.79661512 -0.56732655 3 2 31698 2.52200000 2209189734 2209189734 -13.00000000
-1.97663975 2.11894512 -0.56326813 3 4 31699 2.95200000 2209189739 2209189739 -11.00000000
-2.43798208 2.61533093 -0.56629276 1 6 31701 3.62000000 2209189743 2209189743 -9.00000000
-3.03358150 3.25653481 -0.54646212 10 8 31703 4.48400000 2209189748 2209189748 -7.00000000
-7.83079481 8.41220570 2.23399162 3 11 31705 11.70800000 2209189755 2209189755 11.00000000
-7.03564739 7.56066608 -0.54125845 4 12 31706 10.34200000 2209189757 2209189757 -3.00000000
-7.58151102 8.15011597 2.56984091 48 13 31707 11.42400000 2209189759 2209189759 13.00000000
-6.53045797 7.02515078 2.57007313 45 15 31709 9.93000000 2209189764 2209189764 15.00000000
-1.43047667 1.54261267 -0.56370789 4 0 31716 2.17800000 2209189785 2209189785 -15.00000000
-1.66496384 1.79673886 -0.56552696 3 2 31718 2.51400000 2209189789 2209189789 -13.00000000
-1.97189951 2.12871242 -0.56403136 3 4 31719 2.95600000 2209189794 2209189794 -11.00000000
-2.41407728 2.60787916 -0.56285119 1 6 31721 3.59800000 2209189799 2209189799 -9.00000000
-3.01815152 3.26273251 -0.54573095 10 8 31723 4.47800000 2209189803 2209189803 -7.00000000
-4.29479313 4.64445448 -0.55343896 3 10 31724 6.35000000 2209189808 2209189808 -5.00000000
-7.01056814 7.58664608 -0.54136312 4 12 31726 10.34400000 2209189812 2209189812 -3.00000000
-7.54508162 8.16794205 2.56714153 50 13 31727 11.41200000 2209189815 2209189815 13.00000000
-6.50720644 7.04932308 2.57059073 45 15 31729 9.93200000 2209189819 2209189819 15.00000000
-1.42377460 1.54617548 -0.56319022 4 0 31736 2.17600000 2209189840 2209189840 -15.00000000
-1.64812541 1.79106772 -0.56192774 3 2 31738 2.49800000 2209189845 2209189845 -13.00000000
-1.96977353 2.14136243 -0.56555784 2 4 31739 2.96400000 2209189849 2209189849 -11.00000000
-2.40228558 2.61338139 -0.56222546 1 6 31741 3.59400000 2209189854 2209189854 -9.00000000
-3.00674415 3.27324796 -0.54573095 8 8 31743 4.47800000 2209189859 2209189859 -7.00000000
-4.28664017 4.66822290 -0.55448484 3 10 31744 6.36200000 2209189863 2209189863 -5.00000000
-7.00429869 7.63314486 -0.54293323 8 12 31746 10.37400000 2209189868 2209189868 -3.00000000
-7.50993776 8.18704891 2.56489182 51 13 31747 11.40200000 2209189870 2209189870 13.00000000
-6.47994900 7.06914616 2.56955552 42 15 31749 9.92800000 2209189875 2209189875 15.00000000
-1.41967249 1.55256164 -0.56370789 4 0 31756 2.17800000 2209189895 2209189895 -15.00000000
-1.65500879 1.81119585 -0.56642675 3 2 31758 2.51800000 2209189900 2209189900 -13.00000000
-1.95963860 2.14532590 -0.56479460 2 4 31759 2.96000000 2209189905 2209189905 -11.00000000
-2.37450409 2.60132551 -0.55784529 1 6 31761 3.56600000 2209189909 2209189909 -9.00000000
-3.00734019 3.29692292 -0.54792458 10 8 31763 4.49600000 2209189914 2209189914 -7.00000000
-4.27971601 4.69346333 -0.55570501 3 10 31764 6.37600000 2209189918 2209189918 -5.00000000
-6.98568249 7.66640568 -0.54356122 8 12 31766 10.38600000 2209189923 2209189923 -3.00000000
-7.48131418 8.21321297 2.56489182 51 13 31767 11.40200000 2209189925 2209189925 13.00000000
-6.45387030 7.08773899 2.56852031 40 15 31768 9.92400000 2209189930 2209189930 15.00000000
-1.41424441 1.55750775 -0.56370789 4 0 31776 2.17800000 2209189951 2209189951 -15.00000000
-1.65129554 1.81984830 -0.56732655 3 2 31778 2.52200000 2209189955 2209189955 -13.00000000
-1.94422400 2.14342833 -0.56250495 2 4 31779 2.94800000 2209189960 2209189960 -11.00000000
-2.38398242 2.63008857 -0.56222546 1 6 31781 3.59400000 2209189964 2209189964 -9.00000000
-2.99448085 3.30592895 -0.54768085 12 8 31783 4.49400000 2209189969 2209189969 -7.00000000
-4.25394583 4.69803524 -0.55448484 7 10 31784 6.36200000 2209189974 2209189974 -5.00000000
-6.98836040 7.72332525 -0.54586405 4 12 31786 10.43000000 2209189978 2209189978 -3.00000000
-7.44867706 8.23494244 2.56354213 50 13 31787 11.39600000 2209189981 2209189981 13.00000000
-6.41878080 7.10131359 2.56489682 40 15 31789 9.91000000 2209189985 2209189985 15.00000000
-1.40362442 1.55669594 -0.56163734 4 0 31796 2.17000000 2209190006 2209190006 -15.00000000
-1.64493299 1.82560122 -0.56732655 3 2 31798 2.52200000 2209190011 2209190011 -13.00000000
-1.94724154 2.16187191 -0.56555784 2 4 31799 2.96400000 2209190015 2209190015 -11.00000000
-2.38403797 2.64867187 -0.56441557 1 6 31801 3.60800000 2209190020 2209190020 -9.00000000
-2.98956013 3.32374120 -0.54889953 10 8 31803 4.50400000 2209190024 2209190024 -7.00000000
-4.25350618 4.73063469 -0.55657655 7 10 31804 6.38600000 2209190029 2209190029 -5.00000000
-6.96402788 7.75064373 -0.54607338 4 12 31806 10.43400000 2209190034 2209190034 -3.00000000
-7.42249107 8.26379204 2.56444192 44 13 31807 11.40000000 2209190036 2209190036 13.00000000
-6.39648771 7.12399769 2.56541443 40 15 31808 9.91200000 2209190041 2209190041 15.00000000
-1.40075922 1.56446445 -0.56267262 4 0 31816 2.17400000 2209190061 2209190061 -15.00000000
-1.62815523 1.81971371 -0.56372732 3 2 31818 2.50600000 2209190066 2209190066 -13.00000000
-1.94753635 2.17743587 -0.56784755 2 4 31819 2.97600000 2209190070 2209190070 -11.00000000
-2.38004327 2.66286874 -0.56566703 1 6 31821 3.61600000 2209190075 2209190075 -9.00000000
-2.97265053 3.32823420 -0.54792458 10 8 31823 4.49600000 2209190080 2209190080 -7.00000000
-4.24094820 4.74991179 -0.55709952 7 10 31824 6.39200000 2209190084 2209190084 -5.00000000
-6.95155716 7.79129839 -0.54722476 4 12 31826 10.45600000 2209190089 2209190089 -3.00000000
-7.36895418 8.26201916 2.55589390 11 13 31827 11.36200000 2209190091 2209190091 13.00000000
-6.37804604 7.15604687 2.56852031 42 15 31829 9.92400000 2209190096 2209190096 15.00000000
-1.39684749 1.57054448 -0.56319022 4 0 31835 2.17600000 2209190117 2209190117 -15.00000000
-1.62729025 1.83092928 -0.56552696 3 2 31837 2.51400000 2209190121 2209190121 -13.00000000
-1.92987323 2.17214084 -0.56479460 2 4 31838 2.96000000 2209190126 2209190126 -11.00000000
-2.36070776 2.65892935 -0.56316406 1 6 31840 3.60000000 2209190130 2209190130 -9.00000000
-2.95632768 3.33213401 -0.54694963 12 8 31842 4.48800000 2209190135 2209190135 -7.00000000
-4.23178339 4.77140236 -0.55797106 7 10 31843 6.40200000 2209190140 2209190140 -5.00000000
-6.93760443 7.82776022 -0.54816681 4 12 31845 10.47400000 2209190144 2209190144 -3.00000000
-6.31155872 7.12389135 2.19732189 16 13 31846 9.76800000 2209190147 2209190147 13.00000000
-6.34656715 7.16592550 2.56489682 45 15 31847 9.91000000 2209190151 2209190151 15.00000000
-1.39519322 1.57975483 -0.56474316 4 0 31855 2.18200000 2209190172 2209190172 -15.00000000
-1.62862611 1.84536493 -0.56822634 3 2 31857 2.52600000 2209190176 2209190176 -13.00000000
-1.91708398 2.17297530 -0.56326813 3 4 31858 2.95200000 2209190181 2209190181 -11.00000000
-2.36447549 2.68197107 -0.56629276 1 6 31860 3.62000000 2209190186 2209190186 -9.00000000
-2.94467831 3.34243321 -0.54694963 12 8 31862 4.48800000 2209190190 2209190190 -7.00000000
-4.22827053 4.80109692 -0.55971420 3 10 31863 6.42200000 2209190195 2209190195 -5.00000000
-6.91023827 7.85192919 -0.54816681 4 12 31865 10.47400000 2209190199 2209190199 -3.00000000
-6.26477098 7.12100649 2.18967366 16 13 31866 9.73400000 2209190202 2209190202 13.00000000
-6.31388283 7.18188429 2.56230855 42 15 31868 9.90000000 2209190206 2209190206 15.00000000
-1.38302624 1.57759452 -0.56215495 4 0 31876 2.17200000 2209190227 2209190227 -15.00000000
-1.61928332 1.84839010 -0.56732655 3 2 31878 2.52200000 2209190232 2209190232 -13.00000000
-1.91686738 2.18884897 -0.56555784 3 4 31879 2.96400000 2209190236 2209190236 -11.00000000
-2.35072708 2.68615961 -0.56535417 1 6 31881 3.61400000 2209190241 2209190241 -9.00000000
-2.93763494 3.35918069 -0.54792458 12 8 31883 4.49600000 2209190246 2209190246 -7.00000000
-4.20802259 4.81356192 -0.55936557 3 10 31884 6.41800000 2209190250 2209190250 -5.00000000
-6.88929701 7.88622856 -0.54879487 4 12 31886 10.48600000 2209190255 2209190255 -3.00000000
-6.27861118 7.19223738 2.55816746 45 15 31888 9.88400000 2209190262 2209190262 15.00000000
-1.38258469 1.58824098 -0.56422549 4 0 31896 2.18000000 2209190282 2209190282 -15.00000000
-1.60898435 1.84962034 -0.56597686 4 2 31898 2.51600000 2209190287 2209190287 -13.00000000
-1.90663862 2.19256377 -0.56479460 3 4 31899 2.96000000 2209190292 2209190292 -11.00000000
-2.33615351 2.68838453 -0.56410271 1 6 31901 3.60600000 2209190296 2209190296 -9.00000000
-2.93109751 3.37540984 -0.54889953 12 8 31903 4.50400000 2209190301 2209190301 -7.00000000
-4.21470404 4.85530424 -0.56250316 3 10 31904 6.45400000 2209190305 2209190305 -5.00000000
-6.90884161 7.96454287 -0.55256301 4 12 31906 10.55800000 2209190310 2209190310 -3.00000000
-6.16896963 7.11412334 2.17392707 19 13 31907 9.66400000 2209190312 2209190312 13.00000000
-6.05231953 6.98452520 2.47638059 47 15 31909 9.56800000 2209190317 2209190317 15.00000000
-1.38110101 1.59720087 -0.56577843 4 0 31915 2.18600000 2209190338 2209190338 -15.00000000
-1.59901953 1.85052228 -0.56462717 4 2 31917 2.51000000 2209190342 2209190342 -13.00000000
-1.90449071 2.20481730 -0.56632107 3 4 31918 2.96800000 2209190347 2209190347 -11.00000000
-2.32335329 2.69163060 -0.56316406 1 6 31920 3.60000000 2209190352 2209190352 -9.00000000
-2.91340542 3.37759542 -0.54768085 12 8 31922 4.49400000 2209190356 2209190356 -7.00000000
-4.19857979 4.86925364 -0.56250316 3 10 31923 6.45400000 2209190361 2209190361 -5.00000000
-6.87717772 7.98135757 -0.55214435 4 12 31925 10.55000000 2209190365 2209190365 -3.00000000
-6.13898563 7.12715864 2.17167759 18 13 31926 9.65400000 2209190368 2209190368 13.00000000
-6.24463606 7.25237513 2.56437922 42 15 31927 9.90800000 2209190372 2209190372 15.00000000
-1.37677574 1.60347784 -0.56629604 4 0 31935 2.18800000 2209190393 2209190393 -15.00000000
-1.58874345 1.85165572 -0.56327742 4 2 31937 2.50400000 2209190398 2209190398 -13.00000000
-1.89933920 2.21443224 -0.56708431 3 4 31938 2.97200000 2209190402 2209190402 -11.00000000
-2.32679892 2.71472287 -0.56629276 1 6 31940 3.62000000 2209190407 2209190407 -9.00000000
-2.89772367 3.38322163 -0.54694963 14 8 31942 4.48800000 2209190411 2209190411 -7.00000000
-4.19321966 4.89750099 -0.56407195 7 10 31943 6.47200000 2209190416 2209190416 -5.00000000
-6.88822889 8.05084229 -0.55528450 4 12 31945 10.61000000 2209190421 2209190421 -3.00000000
-6.09253693 7.12336826 2.16402912 20 13 31946 9.62000000 2209190423 2209190423 13.00000000
-6.22052336 7.27815104 2.56541443 42 15 31948 9.91200000 2209190428 2209190428 15.00000000
-1.36490345 1.60092354 -0.56370789 4 0 31955 2.17800000 2209190448 2209190448 -15.00000000
-1.59238064 1.86905718 -0.56687665 4 2 31957 2.52000000 2209190453 2209190453 -13.00000000
-1.89414370 2.22403789 -0.56784755 2 4 31958 2.97600000 2209190458 2209190458 -11.00000000
-2.31730843 2.72282839 -0.56629276 1 6 31960 3.62000000 2209190462 2209190462 -9.00000000
-2.88975453 3.39785242 -0.54768085 10 8 31962 4.49400000 2209190467 2209190467 -7.00000000
-4.17093658 4.90603638 -0.56337470 7 10 31963 6.46400000 2209190471 2209190471 -5.00000000
-6.03778410 7.10441542 1.81230378 15 11 31964 9.49800000 2209190474 2209190474 11.00000000
-6.84197998 8.05352783 -0.55381906 4 12 31965 10.58200000 2209190476 2209190476 -3.00000000
-6.05249691 7.12676716 2.15863037 17 13 31966 9.59600000 2209190478 2209190478 13.00000000
-6.19635391 7.29873896 2.56541443 45 15 31967 9.91200000 2209190483 2209190483 15.00000000
-1.36055505 1.60715258 -0.56422549 4 0 31975 2.18000000 2209190504 2209190504 -15.00000000
-1.58962250 1.87906766 -0.56822634 4 2 31977 2.52600000 2209190508 2209190508 -13.00000000
-1.88129795 2.22463989 -0.56632107 3 4 31978 2.96800000 2209190513 2209190513 -11.00000000
-2.31161499 2.73542690 -0.56723136 1 6 31980 3.62600000 2209190517 2209190517 -9.00000000
-2.88299918 3.41398549 -0.54865581 10 8 31982 4.50200000 2209190522 2209190522 -7.00000000
-4.14221907 4.90686369 -0.56180590 7 10 31983 6.44600000 2209190527 2209190527 -5.00000000
-6.02814245 7.14345312 1.81688321 25 11 31984 9.52200000 2209190529 2209190529 11.00000000
-6.83185577 8.09873486 -0.55528450 4 12 31985 10.61000000 2209190531 2209190531 -3.00000000
-6.01125145 7.12848425 2.15278149 12 13 31986 9.57000000 2209190534 2209190534 13.00000000
-6.15838766 7.30555344 2.56023788 42 15 31987 9.89200000 2209190538 2209190538 15.00000000
-1.35148811 1.60721982 -0.56267262 4 0 31994 2.17400000 2209190559 2209190559 -15.00000000
-1.57836783 1.87836087 -0.56642675 4 2 31996 2.51800000 2209190564 2209190564 -13.00000000
-1.88653779 2.24589896 -0.57013726 3 4 31997 2.98800000 2209190568 2209190568 -11.00000000
-2.28983116 2.72794747 -0.56410271 1 6 31999 3.60600000 2209190573 2209190573 -9.00000000
-2.86911082 3.42048526 -0.54816830 10 8 32001 4.49800000 2209190577 2209190577 -7.00000000
-4.14256668 4.94041967 -0.56407195 7 10 32002 6.47200000 2209190582 2209190582 -5.00000000
-6.00568199 7.16490841 1.81726491 9 11 32003 9.52400000 2209190584 2209190584 11.00000000
-6.81778955 8.13665390 -0.55633122 4 12 32004 10.63000000 2209190587 2209190587 -3.00000000
-5.98007154 7.13941526 2.15008211 13 13 32005 9.55800000 2209190589 2209190589 13.00000000
-6.13784838 7.33037853 2.56179094 45 15 32006 9.89800000 2209190593 2209190593 15.00000000
-1.35329854 1.62082505 -0.56577843 4 0 32014 2.18600000 2209190614 2209190614 -15.00000000
-1.56306243 1.87338471 -0.56327742 4 2 32016 2.50400000 2209190619 2209190619 -13.00000000
-1.87114179 2.24342442 -0.56784755 3 4 32017 2.97600000 2209190623 2209190623 -11.00000000
-2.28914785 2.74654579 -0.56629276 1 6 32019 3.62000000 2209190628 2209190628 -9.00000000
-2.86604643 3.44115686 -0.54987448 10 8 32021 4.51200000 2209190633 2209190633 -7.00000000
-4.13549471 4.96709919 -0.56546646 3 10 32022 6.48800000 2209190637 2209190637 -5.00000000
-6.02835941 7.24317026 1.83176637 6 11 32023 9.60000000 2209190640 2209190640 11.00000000
-6.77784920 8.14658546 -0.55538917 4 12 32024 10.61200000 2209190642 2209190642 -3.00000000
-5.99623537 7.20968914 2.16492891 42 13 32025 9.62400000 2209190644 2209190644 13.00000000
-6.01833105 7.24139690 2.52296805 47 15 32027 9.74800000 2209190649 2209190649 15.00000000
-1.34981430 1.62874913 -0.56681371 4 0 32035 2.19000000 2209190670 2209190670 -15.00000000
-1.56488633 1.88960731 -0.56642675 4 2 32037 2.51800000 2209190674 2209190674 -13.00000000
-1.86040270 2.24724293 -0.56708431 3 4 32038 2.97200000 2209190679 2209190679 -11.00000000
-2.28410268 2.76100588 -0.56754422 1 6 32040 3.62800000 2209190683 2209190683 -9.00000000
-2.87491655 3.47764802 -0.55401802 8 8 32042 4.54600000 2209190688 2209190688 -7.00000000
-4.11980009 4.98529482 -0.56581509 3 10 32043 6.49200000 2209190693 2209190693 -5.00000000
-6.76193428 8.18831253 -0.55654055 4 12 32045 10.63400000 2209190697 2209190697 -3.00000000
-7.03916788 8.52705765 2.55274463 45 13 32046 11.34800000 2209190699 2209190699 13.00000000
-6.08646584 7.37560225 2.56230855 42 15 32047 9.90000000 2209190704 2209190704 15.00000000
-1.34903073 1.63941789 -0.56888425 4 0 32055 2.19800000 2209190725 2209190725 -15.00000000
-1.56694484 1.90559471 -0.56957608 4 2 32057 2.53200000 2209190729 2209190729 -13.00000000
-1.84506702 2.24462342 -0.56479460 2 4 32058 2.96000000 2209190734 2209190734 -11.00000000
-2.27445102 2.76896191 -0.56754422 1 6 32060 3.62800000 2209190739 2209190739 -9.00000000
-2.88794899 3.51834989 -0.55889279 8 8 32062 4.58600000 2209190743 2209190743 -7.00000000
-4.11753893 5.01812840 -0.56790680 4 10 32063 6.51600000 2209190748 2209190748 -5.00000000
-6.74977303 8.23194408 -0.55790132 8 12 32065 10.66000000 2209190752 2209190752 -3.00000000
-7.01183081 8.55459118 2.55364442 55 13 32066 11.35200000 2209190755 2209190755 13.00000000
-6.05823469 7.39381409 2.56127334 42 15 32067 9.89600000 2209190759 2209190759 15.00000000
-1.32985461 1.62766075 -0.56319022 4 0 32075 2.17600000 2209190781 2209190781 -15.00000000
-1.56028354 1.91105270 -0.56957608 4 2 32077 2.53200000 2209190786 2209190786 -13.00000000
-1.84715152 2.26321816 -0.56784755 3 4 32078 2.97600000 2209190790 2209190790 -11.00000000
-2.25728059 2.76769948 -0.56566703 1 6 32080 3.61600000 2209190795 2209190795 -9.00000000
-2.90073204 3.55918479 -0.56376761 8 8 32082 4.62600000 2209190799 2209190799 -7.00000000
-4.08615446 5.01547956 -0.56598938 3 10 32083 6.49400000 2209190804 2209190804 -5.00000000
-6.73612881 8.27404213 -0.55915737 8 12 32085 10.68400000 2209190809 2209190809 -3.00000000
-6.98315716 8.58052635 2.55409431 60 13 32086 11.35400000 2209190811 2209190811 13.00000000
-6.02507353 7.40592480 2.55816746 40 15 32087 9.88400000 2209190816 2209190816 15.00000000
-1.33146727 1.64129448 -0.56629604 5 0 32095 2.18800000 2209190836 2209190836 -15.00000000
-1.55605757 1.91951513 -0.57047588 4 2 32097 2.53600000 2209190841 2209190841 -13.00000000
-1.84418440 2.27575326 -0.56937402 3 4 32098 2.98400000 2209190846 2209190846 -11.00000000
-2.25133538 2.78016758 -0.56660563 1 6 32100 3.62200000 2209190850 2209190850 -9.00000000
-2.88704181 3.56774545 -0.56352383 8 8 32102 4.62400000 2209190855 2209190855 -7.00000000
-4.09493589 5.06224203 -0.56964993 4 10 32103 6.53600000 2209190859 2209190859 -5.00000000
-6.71473932 8.30682468 -0.55978537 8 12 32105 10.69600000 2209190864 2209190864 -3.00000000
-6.95316267 8.60484982 2.55409431 60 13 32106 11.35400000 2209190866 2209190866 13.00000000
-5.99910259 7.42946148 2.55868506 40 15 32108 9.88600000 2209190871 2209190871 15.00000000
-1.32965350 1.65021372 -0.56784898 5 0 32114 2.19400000 2209190892 2209190892 -15.00000000
-1.54723930 1.92162883 -0.56957608 4 2 32116 2.53200000 2209190896 2209190896 -13.00000000
-1.83170366 2.27573872 -0.56784755 2 4 32117 2.97600000 2209190901 2209190901 -11.00000000
-2.25696015 2.80608916 -0.57036006 1 6 32119 3.64600000 2209190905 2209190905 -9.00000000
-2.87643838 3.57884669 -0.56376761 8 8 32121 4.62600000 2209190910 2209190910 -7.00000000
-4.09060526 5.09132528 -0.57139307 4 10 32122 6.55600000 2209190915 2209190915 -5.00000000
-6.69715929 8.34150505 -0.56062275 4 12 32124 10.71200000 2209190919 2209190919 -3.00000000
-6.91849136 8.62026119 2.55184484 53 13 32125 11.34400000 2209190922 2209190922 13.00000000
-5.98298645 7.45731211 2.56179094 45 15 32126 9.89800000 2209190926 2209190926 15.00000000
-1.32388508 1.65484500 -0.56784898 5 0 32134 2.19400000 2209190947 2209190947 -15.00000000
-1.54173899 1.92854023 -0.57002598 4 2 32136 2.53400000 2209190951 2209190951 -13.00000000
-1.82865119 2.28825355 -0.56937402 3 4 32137 2.98400000 2209190956 2209190956 -11.00000000
-2.24222064 2.80777597 -0.56910861 1 6 32139 3.63800000 2209190961 2209190961 -9.00000000
-2.86516666 3.59041715 -0.56401134 8 8 32141 4.62800000 2209190965 2209190965 -7.00000000
-4.06162643 5.09155560 -0.56982422 4 10 32142 6.53800000 2209190970 2209190970 -5.00000000
-6.68792057 8.38982010 -0.56229752 4 12 32144 10.74400000 2209190975 2209190975 -3.00000000
-6.88471508 8.63978672 2.55049515 57 13 32145 11.33800000 2209190977 2209190977 13.00000000
-5.95812273 7.47966242 2.56230855 42 15 32146 9.90000000 2209190981 2209190981 15.00000000
-1.31089115 1.65037978 -0.56474316 4 0 32154 2.18200000 2209191002 2209191002 -15.00000000
-1.53742075 1.93696284 -0.57092577 4 2 32156 2.53800000 2209191007 2209191007 -13.00000000
-1.81821203 2.29154682 -0.56861079 2 4 32157 2.98000000 2209191011 2209191011 -11.00000000
-2.22504234 2.80629849 -0.56723136 1 6 32159 3.62600000 2209191016 2209191016 -9.00000000
-2.85015059 3.59728479 -0.56352383 8 8 32161 4.62400000 2209191021 2209191021 -7.00000000
-4.05496168 5.11975861 -0.57139307 8 10 32162 6.55600000 2209191025 2209191025 -5.00000000
-6.66355181 8.41937828 -0.56271619 4 12 32164 10.75200000 2209191030 2209191030 -3.00000000
-6.85451508 8.66376591 2.55049515 55 13 32165 11.33800000 2209191032 2209191032 13.00000000
-5.92347956 7.49235725 2.55920267 42 15 32167 9.88800000 2209191037 2209191037 15.00000000
-1.29794478 1.64584410 -0.56163734 4 0 32174 2.17000000 2209191057 2209191057 -15.00000000
-1.53306258 1.94537878 -0.57182556 4 2 32176 2.54200000 2209191062 2209191062 -13.00000000
-1.81263173 2.30096388 -0.56937402 3 4 32177 2.98400000 2209191067 2209191067 -11.00000000
-2.22256422 2.82336116 -0.56910861 1 6 32179 3.63800000 2209191071 2209191071 -9.00000000
-2.84862232 3.62125373 -0.56571752 8 8 32181 4.64200000 2209191076 2209191076 -7.00000000
-4.03706598 5.13388205 -0.57139307 8 10 32182 6.55600000 2209191081 2209191081 -5.00000000
-6.64893055 8.46143246 -0.56397223 4 12 32184 10.77600000 2209191085 2209191085 -3.00000000
-6.82423115 8.68764019 2.55049515 57 13 32185 11.33800000 2209191087 2209191087 13.00000000
-5.89490461 7.50994921 2.55816746 45 15 32187 9.88400000 2209191092 2209191092 15.00000000
-1.29695559 1.65644908 -0.56370789 4 0 32194 2.17800000 2209191113 2209191113 -15.00000000
-1.52266002 1.94611394 -0.57047588 4 2 32196 2.53600000 2209191117 2209191117 -13.00000000
-1.80458879 2.30727720 -0.56937402 2 4 32197 2.98400000 2209191122 2209191122 -11.00000000
-2.21026230 2.82798934 -0.56848282 1 6 32199 3.63400000 2209191127 2209191127 -9.00000000
-2.83474255 3.62961078 -0.56547374 8 8 32201 4.64000000 2209191131 2209191131 -7.00000000
-4.02279902 5.15265417 -0.57191598 8 10 32202 6.56200000 2209191136 2209191136 -5.00000000
-6.62426805 8.49088860 -0.56439096 4 12 32204 10.78400000 2209191140 2209191140 -3.00000000
-6.78907013 8.70526123 2.54869556 59 13 32205 11.33000000 2209191143 2209191143 13.00000000
-5.87102890 7.53352785 2.55920267 42 15 32207 9.88800000 2209191147 2209191147 15.00000000
-1.29472256 1.66554189 -0.56526077 3 0 32214 2.18400000 2209191168 2209191168 -15.00000000
-1.51585758 1.95141721 -0.57047588 4 2 32216 2.53600000 2209191173 2209191173 -13.00000000
-1.81097317 2.33217001 -0.57395345 4 4 32217 3.00800000 2209191177 2209191177 -11.00000000
-2.20522141 2.84192991 -0.56973433 1 6 32219 3.64200000 2209191182 2209191182 -9.00000000
-2.81718993 3.63320875 -0.56449878 8 8 32221 4.63200000 2209191187 2209191187 -7.00000000
-4.01333237 5.17768812 -0.57313615 8 10 32222 6.57600000 2209191191 2209191191 -5.00000000
-6.62516499 8.55343437 -0.56700772 4 12 32224 10.83400000 2209191196 2209191196 -3.00000000
-6.75864172 8.72890663 2.54869556 59 13 32225 11.33000000 2209191198 2209191198 13.00000000
-5.84706068 7.55703163 2.56023788 42 15 32227 9.89200000 2209191203 2209191203 15.00000000
-1.30335927 1.68817592 -0.57147247 4 0 32233 2.20800000 2209191223 2209191223 -15.00000000
-1.50699735 1.95334733 -0.56957608 4 2 32235 2.53200000 2209191228 2209191228 -13.00000000
-1.78884208 2.31950712 -0.56937402 2 4 32236 2.98400000 2209191233 2209191233 -11.00000000
-2.19819665 2.85235643 -0.57036006 1 6 32238 3.64600000 2209191237 2209191237 -9.00000000
-2.79907036 3.63466692 -0.56328011 8 8 32240 4.62200000 2209191242 2209191242 -7.00000000
-4.00829411 5.20675564 -0.57487929 4 10 32241 6.59600000 2209191246 2209191246 -5.00000000
-6.59432888 8.57219124 -0.56679839 4 12 32243 10.83000000 2209191251 2209191251 -3.00000000
-6.72490692 8.74509239 2.54689574 56 13 32244 11.32200000 2209191253 2209191253 13.00000000
-5.82329082 7.57536316 2.56023788 42 15 32245 9.89200000 2209191258 2209191258 15.00000000
-1.29040706 1.68351567 -0.56836665 4 0 32253 2.19600000 2209191279 2209191279 -15.00000000
-1.50490963 1.96478415 -0.57137567 4 2 32255 2.54000000 2209191283 2209191283 -13.00000000
-1.78312159 2.32885480 -0.57013726 2 4 32256 2.98800000 2209191288 2209191288 -11.00000000
-2.19662905 2.87099409 -0.57255012 1 6 32258 3.66000000 2209191292 2209191292 -9.00000000
-2.79239440 3.65230036 -0.56449878 8 8 32260 4.63200000 2209191297 2209191297 -7.00000000
-3.97799635 5.20488596 -0.57313615 4 10 32261 6.57600000 2209191302 2209191302 -5.00000000
-6.58982325 8.62849045 -0.56899649 4 12 32263 10.87200000 2209191306 2209191306 -3.00000000
-6.69433975 8.76851273 2.54689574 55 13 32264 11.32200000 2209191309 2209191309 13.00000000
-5.79079962 7.59051228 2.55816746 45 15 32266 9.88400000 2209191313 2209191313 15.00000000
-1.27984309 1.68186033 -0.56629604 4 0 32273 2.18800000 2209191334 2209191334 -15.00000000
-1.50511944 1.97933257 -0.57407510 4 2 32275 2.55200000 2209191339 2209191339 -13.00000000
-1.77735770 2.33819079 -0.57090050 2 4 32276 2.99200000 2209191343 2209191343 -11.00000000
-2.18420434 2.87549829 -0.57192439 1 6 32278 3.65600000 2209191348 2209191348 -9.00000000
-2.78442931 3.66835022 -0.56547374 6 8 32280 4.64000000 2209191352 2209191352 -7.00000000
-3.95498633 5.21239090 -0.57243890 4 10 32281 6.56800000 2209191357 2209191357 -5.00000000
-6.53794336 8.62279415 -0.56711245 4 12 32283 10.83600000 2209191362 2209191362 -3.00000000
-6.66839981 8.79803944 2.54869556 59 13 32284 11.33000000 2209191364 2209191364 13.00000000
-5.75976372 7.60197449 2.55557919 40 15 32285 9.87400000 2209191369 2209191369 15.00000000
-1.27978706 1.69402468 -0.56888425 4 0 32293 2.19800000 2209191389 2209191389 -15.00000000
-1.49350452 1.97835314 -0.57227546 4 2 32295 2.54400000 2209191394 2209191394 -13.00000000
-1.77391541 2.35064912 -0.57242697 2 4 32296 3.00000000 2209191398 2209191398 -11.00000000
-2.17653251 2.88625932 -0.57255012 1 6 32298 3.66000000 2209191403 2209191403 -9.00000000
-2.79311132 3.70658374 -0.56986105 4 8 32300 4.67600000 2209191408 2209191408 -7.00000000
-3.94396043 5.23571301 -0.57348478 4 10 32301 6.58000000 2209191412 2209191412 -5.00000000
-6.53543091 8.68226433 -0.56951988 4 12 32303 10.88200000 2209191417 2209191417 -3.00000000
-6.64233494 8.82749176 2.55049515 57 13 32304 11.33800000 2209191419 2209191419 13.00000000
-5.73302317 7.62457800 2.55609679 42 15 32306 9.87600000 2209191424 2209191424 15.00000000
-1.27850246 1.70466363 -0.57095480 4 0 32313 2.20600000 2209191445 2209191445 -15.00000000
-1.48658967 1.98355436 -0.57227546 4 2 32315 2.54400000 2209191449 2209191449 -13.00000000
-1.77276218 2.36625433 -0.57471669 4 4 32316 3.01200000 2209191454 2209191454 -11.00000000
-2.16052508 2.88593268 -0.57098579 1 6 32318 3.65000000 2209191458 2209191458 -9.00000000
-2.78966880 3.72902727 -0.57181096 2 8 32320 4.69200000 2209191463 2209191463 -7.00000000
