# .PCD v0.7 - Point Cloud Data file format
VERSION 0.7
FIELDS x y z intensity laser_id azimuth distance_m adjustedtime timestamp vertical_angle
SIZE 4 4 4 1 1 2 8 8 4 8
TYPE F F F U U U F U U F
COUNT 1 1 1 1 1 1 1 1 1 1
WIDTH 530
HEIGHT 1
VIEWPOINT 0 0 0 1 0 0 0
POINTS 530
DATA ascii
8.12612343 0.41733953 0.42643338 15 3 8706 8.14800000 2333825547 2333825547 3.00000000
3.14883661 0.16171721 -0.61287850 4 4 8706 3.21200000 2333825549 2333825549 -11.00000000
8.13623047 0.41643479 0.71275967 83 5 8707 8.17800000 2333825552 2333825552 5.00000000
3.97324324 0.20266633 -0.63011801 9 6 8708 4.02800000 2333825554 2333825554 -9.00000000
8.13433075 0.41349080 1.00005984 95 7 8709 8.20600000 2333825556 2333825556 7.00000000
5.28547859 0.26775080 -0.64980733 4 8 8710 5.33200000 2333825558 2333825558 -7.00000000
8.22487164 0.41521484 1.30435061 10 9 8711 8.33800000 2333825561 2333825561 9.00000000
6.61825895 0.33410847 -0.57976002 64 10 8711 6.65200000 2333825563 2333825563 -5.00000000
8.12263775 0.40721127 -0.42622402 21 12 8713 8.14400000 2333825568 2333825568 -3.00000000
8.11870766 0.40417320 -0.14188807 16 14 8715 8.13000000 2333825572 2333825572 -1.00000000
8.18677902 0.40612963 2.19633842 49 15 8716 8.48600000 2333825575 2333825575 15.00000000
2.22675204 0.10773766 -0.59735435 4 0 8723 2.30800000 2333825595 2333825595 -15.00000000
8.12931919 0.39190131 0.14206259 15 1 8724 8.14000000 2333825598 2333825598 1.00000000
2.62971592 0.12631431 -0.60781777 6 2 8725 2.70200000 2333825600 2333825600 -13.00000000
8.13351631 0.38925797 0.42674738 18 3 8726 8.15400000 2333825602 2333825602 3.00000000
3.14938188 0.15072472 -0.61287850 5 4 8726 3.21200000 2333825605 2333825605 -11.00000000
8.12370300 0.38736725 0.71153951 76 5 8727 8.16400000 2333825607 2333825607 5.00000000
3.96998024 0.18860839 -0.62949228 9 6 8728 4.02400000 2333825609 2333825609 -9.00000000
8.13969040 0.38528189 1.00054729 97 7 8729 8.21000000 2333825611 2333825611 7.00000000
5.28043222 0.24901886 -0.64907610 6 8 8730 5.32600000 2333825614 2333825614 -7.00000000
8.20252514 0.38682127 1.30059612 7 9 8730 8.31400000 2333825616 2333825616 9.00000000
6.62336540 0.31119144 -0.58010864 80 10 8731 6.65600000 2333825618 2333825618 -5.00000000
8.12600517 0.37894854 -0.42632869 17 12 8733 8.14600000 2333825623 2333825623 -3.00000000
8.11008072 0.37536889 -0.14171354 16 14 8735 8.12000000 2333825628 2333825628 -1.00000000
8.18036175 0.37862176 2.19426775 58 15 8735 8.47800000 2333825630 2333825630 15.00000000
2.22711444 0.09996419 -0.59735435 4 0 8743 2.30800000 2333825651 2333825651 -15.00000000
8.11865139 0.36298642 0.14185315 21 1 8744 8.12800000 2333825653 2333825653 1.00000000
2.62624717 0.11696072 -0.60691792 5 2 8745 2.69800000 2333825655 2333825655 -13.00000000
8.13083458 0.36068729 0.42653805 13 3 8746 8.15000000 2333825658 2333825658 3.00000000
3.14792752 0.13964340 -0.61249685 5 4 8746 3.21000000 2333825660 2333825660 -11.00000000
8.11306286 0.35848019 0.71049362 76 5 8747 8.15200000 2333825662 2333825662 5.00000000
3.97456121 0.17492314 -0.63011801 9 6 8748 4.02800000 2333825664 2333825664 -9.00000000
8.14891911 0.35721445 1.00152230 95 7 8749 8.21800000 2333825667 2333825667 7.00000000
5.28523588 0.23075838 -0.64956361 6 8 8750 5.33000000 2333825669 2333825669 -7.00000000
8.21171951 0.35853142 1.30184758 10 9 8750 8.32200000 2333825671 2333825671 9.00000000
6.60052538 0.28703097 -0.57801688 64 10 8751 6.63200000 2333825674 2333825674 -5.00000000
8.12528324 0.35049510 -0.42622402 21 12 8753 8.14400000 2333825678 2333825678 -3.00000000
8.11533737 0.34722811 -0.14178336 18 14 8755 8.12400000 2333825683 2333825683 -1.00000000
8.17005348 0.34956917 2.19116211 49 15 8755 8.46600000 2333825685 2333825685 15.00000000
2.24096131 0.09274870 -0.60097784 4 0 8763 2.32200000 2333825706 2333825706 -15.00000000
8.11187744 0.33431545 0.14171354 21 1 8764 8.12000000 2333825708 2333825708 1.00000000
2.62274528 0.10763288 -0.60601813 6 2 8765 2.69400000 2333825711 2333825711 -13.00000000
8.13603497 0.33246627 0.42674738 13 3 8766 8.15400000 2333825713 2333825713 3.00000000
3.16212702 0.12921534 -0.61516821 5 4 8766 3.22400000 2333825715 2333825715 -11.00000000
8.12222767 0.33048213 0.71119088 79 5 8767 8.16000000 2333825717 2333825717 5.00000000
3.95935750 0.16040856 -0.62761509 9 6 8768 4.01200000 2333825720 2333825720 -9.00000000
8.13424778 0.32812715 0.99957234 95 7 8769 8.20200000 2333825722 2333825722 7.00000000
5.28402567 0.21222839 -0.64931989 4 8 8770 5.32800000 2333825724 2333825724 -7.00000000
8.20903015 0.32827368 1.30122185 10 9 8771 8.31800000 2333825727 2333825727 9.00000000
6.60945034 0.26430753 -0.57871413 52 10 8771 6.64000000 2333825729 2333825729 -5.00000000
8.11847401 0.32181400 -0.42580533 25 12 8773 8.13600000 2333825734 2333825734 -3.00000000
8.11250401 0.31874114 -0.14171354 18 14 8775 8.12000000 2333825738 2333825738 -1.00000000
8.17315388 0.32112408 2.19167972 51 15 8775 8.46800000 2333825740 2333825740 15.00000000
2.23741031 0.08477943 -0.59994256 4 0 8783 2.31800000 2333825761 2333825761 -15.00000000
8.11699104 0.30614841 0.14178336 15 1 8784 8.12400000 2333825764 2333825764 1.00000000
2.61726308 0.09825782 -0.60466844 6 2 8785 2.68800000 2333825766 2333825766 -13.00000000
8.13115883 0.30384046 0.42643338 10 3 8786 8.14800000 2333825768 2333825768 3.00000000
3.15863514 0.11803006 -0.61440498 5 4 8786 3.22000000 2333825770 2333825770 -11.00000000
8.12134075 0.30205420 0.71101654 83 5 8787 8.15800000 2333825773 2333825773 5.00000000
3.96384144 0.14673299 -0.62824082 9 6 8788 4.01600000 2333825775 2333825775 -9.00000000
8.12740898 0.29943898 0.99859738 90 7 8789 8.19400000 2333825777 2333825777 7.00000000
5.27283192 0.19334596 -0.64785743 4 8 8790 5.31600000 2333825780 2333825780 -7.00000000
8.22591877 0.30019313 1.30372488 10 9 8791 8.33400000 2333825782 2333825782 9.00000000
6.60435915 0.24101664 -0.57819122 44 10 8791 6.63400000 2333825784 2333825784 -5.00000000
8.11555576 0.29332900 -0.42559600 21 12 8793 8.13200000 2333825789 2333825789 -3.00000000
8.12555790 0.29085049 -0.14192297 18 14 8795 8.13200000 2333825793 2333825793 -1.00000000
8.18006802 0.29137212 2.19323254 63 15 8796 8.47400000 2333825796 2333825796 15.00000000
2.23576212 0.07690248 -0.59942490 4 0 8803 2.31600000 2333825817 2333825817 -15.00000000
8.11401367 0.27767617 0.14171354 15 1 8804 8.12000000 2333825819 2333825819 1.00000000
2.61174726 0.08892233 -0.60331875 6 2 8805 2.68200000 2333825821 2333825821 -13.00000000
8.12618160 0.27525273 0.42611936 13 3 8806 8.14200000 2333825823 2333825823 3.00000000
3.15902781 0.10700364 -0.61440498 5 4 8806 3.22000000 2333825826 2333825826 -11.00000000
8.12831974 0.27390489 0.71153951 79 5 8807 8.16400000 2333825828 2333825828 5.00000000
3.97025228 0.13309425 -0.62917942 6 6 8808 4.02200000 2333825830 2333825830 -9.00000000
8.12840462 0.27106720 0.99859738 92 7 8809 8.19400000 2333825833 2333825833 7.00000000
5.27347469 0.17493917 -0.64785743 4 8 8810 5.31600000 2333825835 2333825835 -7.00000000
8.21901989 0.27121690 1.30247331 10 9 8811 8.32600000 2333825837 2333825837 9.00000000
6.61312580 0.21822450 -0.57888842 44 10 8811 6.64200000 2333825840 2333825840 -5.00000000
8.10854530 0.26473793 -0.42517731 21 12 8813 8.12400000 2333825844 2333825844 -3.00000000
8.11653042 0.26216245 -0.14174844 20 14 8815 8.12200000 2333825849 2333825849 -1.00000000
8.18678188 0.26443154 2.19478559 54 15 8815 8.48000000 2333825851 2333825851 15.00000000
2.22829318 0.06885907 -0.59735435 4 0 8823 2.30800000 2333825872 2333825872 -15.00000000
8.12692547 0.24971978 0.14192297 21 1 8824 8.13200000 2333825874 2333825874 1.00000000
2.62957215 0.08034070 -0.60736787 6 2 8825 2.70000000 2333825876 2333825876 -13.00000000
8.12908936 0.24694602 0.42622402 10 3 8826 8.14400000 2333825879 2333825879 3.00000000
3.14564562 0.09555864 -0.61173362 5 4 8826 3.20600000 2333825881 2333825881 -11.00000000
8.11926937 0.24522933 0.71066791 76 5 8827 8.15400000 2333825883 2333825883 5.00000000
3.97464156 0.11935326 -0.62980515 6 6 8828 4.02600000 2333825886 2333825886 -9.00000000
8.13326931 0.24281059 0.99908489 90 7 8829 8.19800000 2333825888 2333825888 7.00000000
5.26810026 0.15635356 -0.64712620 6 8 8830 5.31000000 2333825890 2333825890 -7.00000000
8.21201801 0.24229248 1.30122185 10 9 8831 8.31800000 2333825893 2333825893 9.00000000
6.60388947 0.19484526 -0.57801688 16 10 8831 6.63200000 2333825895 2333825895 -5.00000000
8.12738800 0.23695607 -0.42611936 17 12 8833 8.14200000 2333825899 2333825899 -3.00000000
8.11139965 0.23365612 -0.14164373 20 14 8835 8.11600000 2333825904 2333825904 -1.00000000
8.17993069 0.23563023 2.19271493 51 15 8835 8.47200000 2333825906 2333825906 15.00000000
2.22850919 0.06146940 -0.59735435 4 0 8842 2.30800000 2333825927 2333825927 -15.00000000
8.11171722 0.22233026 0.14164373 15 1 8843 8.11600000 2333825929 2333825929 1.00000000
2.63177204 0.07167333 -0.60781777 5 2 8844 2.70200000 2333825932 2333825932 -13.00000000
8.12586975 0.21987958 0.42601469 10 3 8845 8.14000000 2333825934 2333825934 3.00000000
3.14594531 0.08512677 -0.61173362 5 4 8845 3.20600000 2333825936 2333825936 -11.00000000
8.10808754 0.21798225 0.70962209 76 5 8846 8.14200000 2333825939 2333825939 5.00000000
3.96909165 0.10601398 -0.62886655 6 6 8847 4.02000000 2333825941 2333825941 -9.00000000
8.14593697 0.21615431 1.00054729 95 7 8848 8.21000000 2333825943 2333825943 7.00000000
5.27652740 0.13909230 -0.64810115 6 8 8849 5.31800000 2333825945 2333825945 -7.00000000
8.20882702 0.21495570 1.30059612 10 9 8850 8.31400000 2333825948 2333825948 9.00000000
6.60054588 0.17168859 -0.57766825 16 10 8851 6.62800000 2333825950 2333825950 -5.00000000
8.12213993 0.20984863 -0.42580533 17 12 8852 8.13600000 2333825955 2333825955 -3.00000000
8.10413361 0.20655267 -0.14150411 18 14 8854 8.10800000 2333825959 2333825959 -1.00000000
8.17490959 0.20692885 2.19116211 49 15 8855 8.46600000 2333825962 2333825962 15.00000000
2.23644471 0.05348585 -0.59942490 4 0 8863 2.31600000 2333825982 2333825982 -15.00000000
8.10844612 0.19391809 0.14157392 15 1 8863 8.11200000 2333825985 2333825985 1.00000000
2.61836886 0.06216253 -0.60466844 6 2 8864 2.68800000 2333825987 2333825987 -13.00000000
8.13058186 0.19160777 0.42622402 15 3 8865 8.14400000 2333825989 2333825989 3.00000000
3.15408707 0.07377938 -0.61326009 5 4 8866 3.21400000 2333825992 2333825992 -11.00000000
8.11281586 0.18835564 0.70997065 76 5 8867 8.14600000 2333825994 2333825994 5.00000000
3.95167971 0.09105628 -0.62605071 6 6 8868 4.00200000 2333825996 2333825996 -9.00000000
8.13473415 0.18744399 0.99908489 90 7 8868 8.19800000 2333825998 2333825998 7.00000000
5.26904249 0.12049140 -0.64712620 6 8 8869 5.31000000 2333826001 2333826001 -7.00000000
8.21150208 0.18634506 1.30090904 10 9 8870 8.31600000 2333826003 2333826003 9.00000000
6.61504841 0.14896131 -0.57888842 44 10 8871 6.64200000 2333826005 2333826005 -5.00000000
8.11087322 0.17981249 -0.42517731 25 12 8873 8.12400000 2333826010 2333826010 -3.00000000
8.10080624 0.17817476 -0.14143430 16 14 8874 8.10400000 2333826015 2333826015 -1.00000000
8.16978741 0.17826541 2.18960905 51 15 8875 8.46000000 2333826017 2333826017 15.00000000
2.23660183 0.04645960 -0.59942490 4 0 8881 2.31600000 2333826038 2333826038 -15.00000000
8.11304283 0.16711082 0.14164373 15 1 8882 8.11600000 2333826040 2333826040 1.00000000
2.61466408 0.05339978 -0.60376865 6 2 8883 2.68400000 2333826042 2333826042 -13.00000000
8.12717819 0.16456388 0.42601469 13 3 8884 8.14000000 2333826045 2333826045 3.00000000
3.15626597 0.06390993 -0.61364174 5 4 8884 3.21600000 2333826047 2333826047 -11.00000000
8.11735153 0.16294757 0.71031928 76 5 8885 8.15000000 2333826049 2333826049 5.00000000
3.96379638 0.07887708 -0.62792796 6 6 8886 4.01400000 2333826051 2333826051 -9.00000000
8.12141800 0.16019316 0.99737871 90 7 8887 8.18400000 2333826054 2333826054 7.00000000
5.26544380 0.10294036 -0.64663875 6 8 8888 5.30600000 2333826056 2333826056 -7.00000000
8.22392464 0.15934330 1.30278623 10 9 8889 8.32800000 2333826058 2333826058 9.00000000
6.62347412 0.12717719 -0.57958567 88 10 8890 6.65000000 2333826061 2333826061 -5.00000000
8.10940170 0.15429258 -0.42507264 17 12 8891 8.12200000 2333826065 2333826065 -3.00000000
8.11334896 0.15153459 -0.14164373 18 14 8893 8.11600000 2333826070 2333826070 -1.00000000
8.17806053 0.15131539 2.19167972 51 15 8894 8.46800000 2333826072 2333826072 15.00000000
2.23675704 0.03826173 -0.59942490 4 0 8902 2.31600000 2333826093 2333826093 -15.00000000
8.11157799 0.13875580 0.14160882 18 1 8902 8.11400000 2333826095 2333826095 1.00000000
2.61483455 0.04427258 -0.60376865 6 2 8903 2.68400000 2333826097 2333826097 -13.00000000
8.12171268 0.13609333 0.42570066 13 3 8904 8.13400000 2333826100 2333826100 3.00000000
3.14666414 0.05217845 -0.61173362 5 4 8905 3.20600000 2333826102 2333826102 -11.00000000
8.12387085 0.13329294 0.71084225 79 5 8906 8.15600000 2333826104 2333826104 5.00000000
3.96208358 0.06431645 -0.62761509 9 6 8907 4.01200000 2333826107 2333826107 -9.00000000
8.13185215 0.13200425 0.99859738 90 7 8907 8.19400000 2333826109 2333826109 7.00000000
5.26577091 0.08455990 -0.64663875 6 8 8908 5.30600000 2333826111 2333826111 -7.00000000
8.21850586 0.13054137 1.30184758 10 9 8909 8.32200000 2333826114 2333826114 9.00000000
6.61192465 0.10386841 -0.57853985 100 10 8910 6.63800000 2333826116 2333826116 -5.00000000
8.11190987 0.12459978 -0.42517731 17 12 8912 8.12400000 2333826121 2333826121 -3.00000000
8.10583019 0.12309135 -0.14150411 18 14 8913 8.10800000 2333826125 2333826125 -1.00000000
8.17660713 0.12273871 2.19116211 49 15 8914 8.46600000 2333826127 2333826127 15.00000000
2.22915030 0.03034856 -0.59735435 4 0 8922 2.30800000 2333826148 2333826148 -15.00000000
8.12202930 0.10915881 0.14178336 15 1 8923 8.12400000 2333826150 2333826150 1.00000000
2.61887622 0.03474013 -0.60466844 6 2 8924 2.68800000 2333826153 2333826153 -13.00000000
8.11217117 0.10619414 0.42517731 13 3 8925 8.12400000 2333826155 2333826155 3.00000000
3.14290094 0.04114283 -0.61097038 5 4 8925 3.20200000 2333826157 2333826157 -11.00000000
8.11432552 0.10480588 0.70997065 76 5 8926 8.14600000 2333826160 2333826160 5.00000000
3.97808576 0.05068715 -0.63011801 9 6 8927 4.02800000 2333826162 2333826162 -9.00000000
8.13625050 0.10224853 0.99908489 90 7 8928 8.19800000 2333826164 2333826164 7.00000000
5.26604557 0.06525932 -0.64663875 8 8 8929 5.30600000 2333826167 2333826167 -7.00000000
8.20905304 0.10029749 1.30028331 10 9 8930 8.31200000 2333826169 2333826169 9.00000000
6.60429192 0.07953782 -0.57784259 40 10 8931 6.63000000 2333826171 2333826171 -5.00000000
8.11429214 0.09630688 -0.42528197 17 12 8932 8.12600000 2333826176 2333826176 -3.00000000
8.10222816 0.09333510 -0.14143430 20 14 8934 8.10400000 2333826180 2333826180 -1.00000000
8.17313862 0.09272529 2.19012666 47 15 8935 8.46200000 2333826183 2333826183 15.00000000
2.22151947 0.02210124 -0.59528381 4 0 8943 2.30000000 2333826203 2333826203 -15.00000000
8.11436272 0.08072740 0.14164373 15 1 8943 8.11600000 2333826206 2333826206 1.00000000
2.62872481 0.02569356 -0.60691792 7 2 8944 2.69800000 2333826208 2333826208 -13.00000000
8.12647247 0.07801093 0.42591003 15 3 8945 8.13800000 2333826210 2333826210 3.00000000
3.14695692 0.02966025 -0.61173362 5 4 8946 3.20600000 2333826213 2333826213 -11.00000000
8.10469341 0.07497254 0.70909911 76 5 8947 8.13600000 2333826215 2333826215 5.00000000
3.96046710 0.03594505 -0.62730223 2 6 8948 4.01000000 2333826217 2333826217 -9.00000000
8.13655853 0.07384709 0.99908489 90 7 8948 8.19800000 2333826220 2333826220 7.00000000
5.25830126 0.04680632 -0.64566380 8 8 8949 5.29800000 2333826222 2333826222 -7.00000000
8.20342731 0.07159022 1.29934466 10 9 8950 8.30600000 2333826224 2333826224 9.00000000
6.59058332 0.05636479 -0.57662237 24 10 8951 6.61600000 2333826227 2333826227 -5.00000000
8.12058258 0.06661502 -0.42559600 17 12 8953 8.13200000 2333826231 2333826231 -3.00000000
8.10650349 0.06508458 -0.14150411 18 14 8954 8.10800000 2333826236 2333826236 -1.00000000
8.16954899 0.06416480 2.18909144 47 15 8955 8.45800000 2333826238 2333826238 15.00000000
2.22930527 0.01517463 -0.59735435 4 0 8961 2.30800000 2333826259 2333826259 -15.00000000
8.10658646 0.05376571 0.14150411 15 1 8962 8.10800000 2333826261 2333826261 1.00000000
2.62489820 0.01695109 -0.60601813 7 2 8963 2.69400000 2333826263 2333826263 -13.00000000
8.12868404 0.05107470 0.42601469 15 3 8964 8.14000000 2333826266 2333826266 3.00000000
3.15096116 0.01979833 -0.61249685 5 4 8964 3.21000000 2333826268 2333826268 -11.00000000
8.10887337 0.04953491 0.70944774 76 5 8965 8.14000000 2333826270 2333826270 5.00000000
3.93883181 0.02337377 -0.62386066 2 6 8966 3.98800000 2333826273 2333826273 -9.00000000
8.13080311 0.04683058 0.99835366 90 7 8967 8.19200000 2333826275 2333826275 7.00000000
5.26636791 0.02941325 -0.64663875 8 8 8968 5.30600000 2333826277 2333826277 -7.00000000
8.20757008 0.04440766 1.29997039 10 9 8969 8.31000000 2333826280 2333826280 9.00000000
6.59471846 0.03453018 -0.57697099 20 10 8970 6.62000000 2333826282 2333826282 -5.00000000
8.10677052 0.04103240 -0.42486328 25 12 8971 8.11800000 2333826286 2333826286 -3.00000000
8.10667515 0.03820209 -0.14150411 18 14 8973 8.10800000 2333826291 2333826291 -1.00000000
8.16585255 0.03705572 2.18805623 47 15 8974 8.45400000 2333826293 2333826293 15.00000000
2.22934580 0.00700372 -0.59735435 4 0 8982 2.30800000 2333826314 2333826314 -15.00000000
8.10272598 0.02545555 0.14143430 21 1 8982 8.10400000 2333826316 2333826316 1.00000000
2.61714649 0.00776525 -0.60421854 7 2 8983 2.68600000 2333826319 2333826319 -13.00000000
8.12681580 0.02269441 0.42591003 15 3 8984 8.13800000 2333826321 2333826321 3.00000000
3.15101242 0.00824935 -0.61249685 5 4 8985 3.21000000 2333826323 2333826323 -11.00000000
8.11896229 0.01983841 0.71031928 83 5 8986 8.15000000 2333826326 2333826326 5.00000000
3.94284177 0.00894604 -0.62448639 2 6 8987 3.99200000 2333826328 2333826328 -9.00000000
8.11702156 0.01841697 0.99664748 90 7 8987 8.17800000 2333826330 2333826330 7.00000000
5.24658728 0.01098844 -0.64420134 6 8 8988 5.28600000 2333826333 2333826333 -7.00000000
8.21952724 0.01578038 1.30184758 10 9 8989 8.32200000 2333826335 2333826335 9.00000000
6.60276842 0.01152402 -0.57766825 12 10 8990 6.62800000 2333826337 2333826337 -5.00000000
8.09488297 0.01130260 -0.42423525 21 12 8992 8.10600000 2333826342 2333826342 -3.00000000
8.11475754 0.00991405 -0.14164373 18 14 8993 8.11600000 2333826346 2333826346 -1.00000000
8.17366028 0.00855944 2.19012666 47 15 8994 8.46200000 2333826349 2333826349 15.00000000
-3.15467668 -0.00000000 -0.49965167 3 6 27000 3.19400000 2333876260 2333876260 -9.00000000
-3.81534743 0.00066590 0.46846575 68 7 27001 3.84400000 2333876263 2333876263 7.00000000
-4.00393105 0.00139764 -0.49162093 28 8 27002 4.03400000 2333876265 2333876265 -7.00000000
-3.82432866 0.00200241 0.60571426 78 9 27003 3.87200000 2333876267 2333876267 9.00000000
-3.99474025 0.00209164 -0.34949452 83 10 27003 4.01000000 2333876270 2333876270 -5.00000000
-3.66539502 0.00255893 0.71248078 31 11 27004 3.73400000 2333876272 2333876272 11.00000000
-3.95457149 0.00345102 -0.20725039 61 12 27005 3.96000000 2333876274 2333876274 -3.00000000
-3.92476058 0.00411000 0.90610284 29 13 27006 4.02800000 2333876276 2333876276 13.00000000
-3.89140439 0.00475425 -0.06792477 56 14 27007 3.89200000 2333876279 2333876279 -1.00000000
-10.16925907 0.01242410 2.72484684 47 15 27007 10.52800000 2333876281 2333876281 15.00000000
-1.94923162 0.00510309 -0.52229685 5 0 27015 2.01800000 2333876302 2333876302 -15.00000000
-3.86339641 0.01078867 0.06743610 71 1 27016 3.86400000 2333876304 2333876304 1.00000000
-2.23909259 0.00664354 -0.51693749 4 2 27017 2.29800000 2333876306 2333876306 -13.00000000
-3.84869933 0.01209109 0.20170277 66 3 27018 3.85400000 2333876309 2333876309 3.00000000
-2.61307859 0.00820926 -0.50793356 3 4 27018 2.66200000 2333876311 2333876311 -11.00000000
-3.80942750 0.01263259 0.33328357 63 5 27019 3.82400000 2333876313 2333876313 5.00000000
-3.14280510 0.01097050 -0.49777448 3 6 27020 3.18200000 2333876316 2333876316 -9.00000000
-3.81333661 0.01397667 0.46822202 63 7 27021 3.84200000 2333876318 2333876318 7.00000000
-3.96618509 0.01522913 -0.48698989 22 8 27022 3.99600000 2333876320 2333876320 -7.00000000
-3.84010124 0.01541524 0.60821718 73 9 27023 3.88800000 2333876323 2333876323 9.00000000
-3.98474669 0.01599588 -0.34862298 78 10 27023 4.00000000 2333876325 2333876325 -5.00000000
-3.71051812 0.01554267 0.72125798 26 11 27024 3.78000000 2333876327 2333876327 11.00000000
-3.95054078 0.01723760 -0.20704104 59 12 27025 3.95600000 2333876329 2333876329 -3.00000000
-3.93251705 0.01784532 0.90790248 31 13 27026 4.03600000 2333876332 2333876332 13.00000000
-3.88136554 0.01829064 -0.06775025 52 14 27027 3.88200000 2333876334 2333876334 -1.00000000
-10.16722202 0.04791226 2.72432923 45 15 27027 10.52600000 2333876336 2333876336 15.00000000
-1.95886099 0.01196615 -0.52488500 5 0 27035 2.02800000 2333876357 2333876357 -15.00000000
-3.86733460 0.02429950 0.06750591 71 1 27036 3.86800000 2333876359 2333876359 1.00000000
-2.22736359 0.01438389 -0.51423812 4 2 27037 2.28600000 2333876362 2333876362 -13.00000000
-3.84464359 0.02482797 0.20149343 73 3 27037 3.85000000 2333876364 2333876364 3.00000000
-2.61892366 0.01736961 -0.50907838 3 4 27038 2.66800000 2333876366 2333876366 -11.00000000
-3.82529902 0.02603839 0.33467805 61 5 27039 3.84000000 2333876369 2333876369 5.00000000
-3.15459967 0.02202362 -0.49965167 3 6 27040 3.19400000 2333876371 2333876371 -9.00000000
-3.81326461 0.02728762 0.46822202 65 7 27041 3.84200000 2333876373 2333876373 7.00000000
-3.94625735 0.02892810 -0.48455250 22 8 27042 3.97600000 2333876375 2333876375 -7.00000000
-3.86768365 0.02835211 0.61259735 75 9 27042 3.91600000 2333876378 2333876378 9.00000000
-3.97868967 0.02986029 -0.34810004 76 10 27043 3.99400000 2333876380 2333876380 -5.00000000
-3.82626987 0.02938422 0.74377346 54 11 27044 3.89800000 2333876382 2333876382 11.00000000
-3.94646215 0.03099608 -0.20683169 59 12 27045 3.95200000 2333876385 2333876385 -3.00000000
-3.91489267 0.03143145 0.90385336 34 13 27046 4.01800000 2333876387 2333876387 13.00000000
-3.87727880 0.03180622 -0.06768043 39 14 27047 3.87800000 2333876389 2333876389 -1.00000000
-10.16699314 0.08340220 2.72432923 45 15 27047 10.52600000 2333876392 2333876392 15.00000000
-1.96267080 0.01884087 -0.52592027 5 0 27055 2.03200000 2333876412 2333876412 -15.00000000
-3.85722828 0.03770114 0.06733138 63 1 27056 3.85800000 2333876415 2333876415 1.00000000
-2.23704290 0.02225568 -0.51648760 4 2 27057 2.29600000 2333876417 2333876417 -13.00000000
-3.84452677 0.03891912 0.20149343 73 3 27058 3.85000000 2333876419 2333876419 3.00000000
-2.61884713 0.02651126 -0.50907838 3 4 27058 2.66800000 2333876422 2333876422 -11.00000000
-3.84112310 0.03955514 0.33607253 61 5 27059 3.85600000 2333876424 2333876424 5.00000000
-3.15055299 0.03299372 -0.49902594 3 6 27060 3.19000000 2333876426 2333876426 -9.00000000
-3.81314611 0.04059823 0.46822202 55 7 27061 3.84200000 2333876428 2333876428 7.00000000
-3.89849305 0.04218740 -0.47870278 28 8 27062 3.92800000 2333876431 2333876431 -7.00000000
-3.85570216 0.04239737 0.61072016 67 9 27063 3.90400000 2333876433 2333876433 9.00000000
-3.98453784 0.04381405 -0.34862298 99 10 27063 4.00000000 2333876435 2333876435 -5.00000000
-3.86344361 0.04315687 0.75102419 80 11 27064 3.93600000 2333876438 2333876438 11.00000000
-3.95032430 0.04481693 -0.20704104 57 12 27065 3.95600000 2333876440 2333876440 -3.00000000
-3.91670775 0.04511923 0.90430325 25 13 27066 4.02000000 2333876442 2333876442 13.00000000
-3.89114118 0.04550394 -0.06792477 47 14 27067 3.89200000 2333876445 2333876445 -1.00000000
-10.16661930 0.12066553 2.72432923 42 15 27068 10.52600000 2333876447 2333876447 15.00000000
-1.95100749 0.02519951 -0.52281445 5 0 27074 2.02000000 2333876468 2333876468 -15.00000000
-3.86308050 0.05057050 0.06743610 69 1 27075 3.86400000 2333876470 2333876470 1.00000000
-2.24864817 0.02982895 -0.51918703 4 2 27076 2.30800000 2333876472 2333876472 -13.00000000
-3.85037684 0.05107633 0.20180745 71 3 27076 3.85600000 2333876475 2333876475 3.00000000
-2.61874485 0.03519552 -0.50907838 3 4 27077 2.66800000 2333876477 2333876477 -11.00000000
-3.84296298 0.05231967 0.33624685 52 5 27078 3.85800000 2333876479 2333876479 5.00000000
-3.16227746 0.04360456 -0.50090313 3 6 27079 3.20200000 2333876481 2333876481 -9.00000000
-3.85467339 0.05382489 0.47334054 43 7 27080 3.88400000 2333876484 2333876484 7.00000000
-3.87252808 0.05475022 -0.47553417 37 8 27081 3.90200000 2333876486 2333876486 -7.00000000
-3.85554028 0.05518311 0.61072016 65 9 27082 3.90400000 2333876488 2333876488 9.00000000
-3.98237848 0.05699850 -0.34844866 89 10 27082 3.99800000 2333876491 2333876491 -5.00000000
-3.85150099 0.05579764 0.74873447 37 11 27083 3.92400000 2333876493 2333876493 11.00000000
-3.95015383 0.05791643 -0.20704104 56 12 27084 3.95600000 2333876495 2333876495 -3.00000000
-3.90874243 0.05799162 0.90250361 27 13 27085 4.01200000 2333876498 2333876498 13.00000000
-3.91696191 0.05879736 -0.06837853 45 14 27086 3.91800000 2333876500 2333876500 -1.00000000
-10.15073681 0.15237230 2.72018814 45 15 27086 10.51000000 2333876502 2333876502 15.00000000
-1.93738639 0.03178780 -0.51919103 5 0 27094 2.00600000 2333876523 2333876523 -15.00000000
-3.85688210 0.06395539 0.06733138 63 1 27095 3.85800000 2333876525 2333876525 1.00000000
-2.24268508 0.03758007 -0.51783735 4 2 27096 2.30200000 2333876527 2333876527 -13.00000000
-3.85017490 0.06451634 0.20180745 63 3 27096 3.85600000 2333876530 2333876530 3.00000000
-2.61468005 0.04426996 -0.50831515 3 4 27097 2.66400000 2333876532 2333876532 -11.00000000
-3.84873319 0.06583603 0.33676979 54 5 27098 3.86400000 2333876534 2333876534 5.00000000
-3.14630532 0.05436967 -0.49840021 3 6 27099 3.18600000 2333876537 2333876537 -9.00000000
-3.87827969 0.06769563 0.47626540 53 7 27100 3.90800000 2333876539 2333876539 7.00000000
-3.85841990 0.06802260 -0.47382802 50 8 27101 3.88800000 2333876541 2333876541 -7.00000000
-3.88890028 0.06923892 0.61603892 73 9 27102 3.93800000 2333876544 2333876544 9.00000000
-3.97817111 0.07082831 -0.34810004 76 10 27102 3.99400000 2333876546 2333876546 -5.00000000
-3.82772732 0.06881806 0.74415511 45 11 27103 3.90000000 2333876548 2333876548 11.00000000
-3.98187852 0.07228471 -0.20871580 42 12 27104 3.98800000 2333876551 2333876551 -3.00000000
-3.91630983 0.07177816 0.90430325 32 13 27105 4.02000000 2333876553 2333876553 13.00000000
-3.95272136 0.07313562 -0.06900682 39 14 27106 3.95400000 2333876555 2333876555 -1.00000000
-10.13855362 0.18758962 2.71708226 45 15 27106 10.49800000 2333876557 2333876557 15.00000000
-1.95464003 0.03923741 -0.52384973 5 0 27115 2.02400000 2333876578 2333876578 -15.00000000
-3.85662198 0.07809114 0.06733138 63 1 27116 3.85800000 2333876580 2333876580 1.00000000
-2.22694564 0.04548134 -0.51423812 4 2 27117 2.28600000 2333876583 2333876583 -13.00000000
-3.86387682 0.07958735 0.20254014 58 3 27118 3.87000000 2333876585 2333876585 3.00000000
-2.61842585 0.05393381 -0.50907838 3 4 27118 2.66800000 2333876587 2333876587 -11.00000000
-3.85643387 0.08010741 0.33746704 43 5 27119 3.87200000 2333876590 2333876590 5.00000000
-3.14213514 0.06581835 -0.49777448 3 6 27120 3.18200000 2333876592 2333876592 -9.00000000
-3.89388251 0.08224513 0.47821531 39 7 27121 3.92400000 2333876594 2333876594 7.00000000
-3.85814476 0.08216396 -0.47382802 73 8 27122 3.88800000 2333876597 2333876597 -7.00000000
-3.89258480 0.08289740 0.61666465 69 9 27122 3.94200000 2333876599 2333876599 9.00000000
-3.98784447 0.08562240 -0.34897161 78 10 27123 4.00400000 2333876601 2333876601 -5.00000000
-3.81959820 0.08267697 0.74262863 39 11 27124 3.89200000 2333876604 2333876604 11.00000000
-3.98558044 0.08696567 -0.20892514 43 12 27125 3.99200000 2333876606 2333876606 -3.00000000
-3.91407228 0.08608882 0.90385336 35 13 27126 4.01800000 2333876608 2333876608 13.00000000
-10.13775921 0.22651739 2.71708226 42 15 27128 10.49800000 2333876613 2333876613 15.00000000
-1.94869721 0.04592360 -0.52229685 5 0 27135 2.01800000 2333876633 2333876633 -15.00000000
-3.87631702 0.09202740 0.06768043 55 1 27136 3.87800000 2333876636 2333876636 1.00000000
-2.23846245 0.05353410 -0.51693749 4 2 27137 2.29800000 2333876638 2333876638 -13.00000000
-3.87357497 0.09263875 0.20306350 35 3 27137 3.88000000 2333876640 2333876640 3.00000000
-2.62607241 0.06326262 -0.51060486 3 4 27138 2.67600000 2333876643 2333876643 -11.00000000
-3.88202429 0.09419668 0.33973309 37 5 27139 3.89800000 2333876645 2333876645 5.00000000
-3.15373492 0.07707562 -0.49965167 3 6 27140 3.19400000 2333876647 2333876647 -9.00000000
-3.92333913 0.09656951 0.48187140 34 7 27141 3.95400000 2333876650 2333876650 7.00000000
-3.83798957 0.09513897 -0.47139063 84 8 27142 3.86800000 2333876652 2333876652 -7.00000000
-3.95347238 0.09869208 0.62636358 42 9 27143 4.00400000 2333876654 2333876654 9.00000000
-3.82124901 0.09605869 0.74301022 39 11 27144 3.89400000 2333876659 2333876659 11.00000000
-3.93322897 0.10024748 0.90835238 19 13 27146 4.03800000 2333876663 2333876663 13.00000000
-10.14849377 0.26220277 2.72018814 45 15 27148 10.51000000 2333876668 2333876668 15.00000000
-1.96397424 0.05314358 -0.52643794 5 0 27155 2.03400000 2333876689 2333876689 -15.00000000
-3.89995980 0.10621098 0.06809929 45 1 27156 3.90200000 2333876691 2333876691 1.00000000
-2.22852182 0.06108050 -0.51468801 4 2 27157 2.28800000 2333876693 2333876693 -13.00000000
-3.88720369 0.10654254 0.20379621 16 3 27157 3.89400000 2333876696 2333876696 3.00000000
-2.60817313 0.07194174 -0.50717032 3 4 27158 2.65800000 2333876698 2333876698 -11.00000000
-3.90158796 0.10829974 0.34147620 25 5 27159 3.91800000 2333876700 2333876700 5.00000000
-3.14949727 0.08797343 -0.49902594 3 6 27160 3.19000000 2333876703 2333876703 -9.00000000
-3.95671153 0.11121207 0.48601493 17 7 27161 3.98800000 2333876705 2333876705 7.00000000
-3.83763409 0.10853547 -0.47139063 84 8 27162 3.86800000 2333876707 2333876707 -7.00000000
-5.18409109 0.14752132 -0.45373279 9 10 27163 5.20600000 2333876712 2333876712 -5.00000000
-3.82481527 0.10950913 0.74377346 37 11 27164 3.89800000 2333876714 2333876714 11.00000000
-7.64433432 0.22020189 -0.40078875 12 12 27165 7.65800000 2333876716 2333876716 -3.00000000
-10.14172363 0.29745612 2.71863532 42 15 27168 10.50400000 2333876723 2333876723 15.00000000
-1.94832921 0.05952684 -0.52229685 4 0 27175 2.01800000 2333876744 2333876744 -15.00000000
-2.24192977 0.06928047 -0.51783735 4 2 27177 2.30200000 2333876749 2333876749 -13.00000000
-2.60594368 0.08098455 -0.50678867 3 4 27178 2.65600000 2333876753 2333876753 -11.00000000
-3.16891503 0.09958717 -0.50215465 3 6 27180 3.21000000 2333876758 2333876758 -9.00000000
-3.84715223 0.12224588 -0.47260931 67 8 27182 3.87800000 2333876763 2333876763 -7.00000000
-5.17358780 0.16529815 -0.45286125 9 10 27183 5.19600000 2333876767 2333876767 -5.00000000
-3.84403229 0.12348993 0.74758965 35 11 27184 3.91800000 2333876769 2333876769 11.00000000
-7.66747332 0.24765798 -0.40204480 16 12 27185 7.68200000 2333876772 2333876772 -3.00000000
-10.13869286 0.33279216 2.71811771 42 15 27188 10.50200000 2333876779 2333876779 15.00000000
-1.94039810 0.06572581 -0.52022630 4 0 27194 2.01000000 2333876799 2333876799 -15.00000000
-2.24947810 0.07698119 -0.51963693 4 2 27196 2.31000000 2333876804 2333876804 -13.00000000
-2.62135768 0.09016564 -0.50984162 3 4 27197 2.67200000 2333876809 2333876809 -11.00000000
-3.15672231 0.10968355 -0.50027740 3 6 27199 3.19800000 2333876813 2333876813 -9.00000000
-3.85466123 0.13528132 -0.47358426 65 8 27201 3.88600000 2333876818 2333876818 -7.00000000
-5.18097544 0.18273439 -0.45355847 6 10 27202 5.20400000 2333876822 2333876822 -5.00000000
-3.84556365 0.13630606 0.74797124 28 11 27203 3.92000000 2333876825 2333876825 11.00000000
-7.66062212 0.27286959 -0.40173081 12 12 27204 7.67600000 2333876827 2333876827 -3.00000000
-10.13759708 0.36464211 2.71811771 45 15 27206 10.50200000 2333876834 2333876834 15.00000000
-1.95560086 0.07307576 -0.52436739 4 0 27214 2.02600000 2333876855 2333876855 -15.00000000
-2.23945880 0.08446563 -0.51738745 4 2 27216 2.30000000 2333876859 2333876859 -13.00000000
-2.62102699 0.09931533 -0.50984162 3 4 27217 2.67200000 2333876864 2333876864 -11.00000000
-3.13658094 0.11994705 -0.49714872 3 6 27219 3.17800000 2333876868 2333876868 -9.00000000
-3.87796879 0.14965437 -0.47650912 48 8 27221 3.91000000 2333876873 2333876873 -7.00000000
-5.20021534 0.20159003 -0.45530161 6 10 27222 5.22400000 2333876878 2333876878 -5.00000000
-7.65962315 0.29960850 -0.40173081 16 12 27224 7.67600000 2333876882 2333876882 -3.00000000
-10.13233185 0.40164277 2.71708226 45 15 27227 10.49800000 2333876889 2333876889 15.00000000
-1.95145941 0.08008449 -0.52333212 4 0 27235 2.02200000 2333876910 2333876910 -15.00000000
-2.22355771 0.09202840 -0.51378822 4 2 27237 2.28400000 2333876915 2333876915 -13.00000000
-2.62456846 0.10908426 -0.51060486 3 4 27238 2.67600000 2333876919 2333876919 -11.00000000
-3.16769862 0.13276590 -0.50215465 3 6 27240 3.21000000 2333876924 2333876924 -9.00000000
-3.88929415 0.16436975 -0.47797155 22 8 27242 3.92200000 2333876928 2333876928 -7.00000000
-5.18351650 0.21997263 -0.45390710 6 10 27243 5.20800000 2333876933 2333876933 -5.00000000
-7.64450550 0.32708275 -0.40099809 16 12 27245 7.66200000 2333876938 2333876938 -3.00000000
-10.14244843 0.43750829 2.72018814 45 15 27247 10.51000000 2333876945 2333876945 15.00000000
-1.95695782 0.08715371 -0.52488500 5 0 27255 2.02800000 2333876965 2333876965 -15.00000000
-2.24074388 0.10057594 -0.51783735 4 2 27257 2.30200000 2333876970 2333876970 -13.00000000
-2.62417173 0.11824505 -0.51060486 3 4 27258 2.67600000 2333876974 2333876974 -11.00000000
-3.16326904 0.14364322 -0.50152892 3 6 27260 3.20600000 2333876979 2333876979 -9.00000000
-3.94025517 0.18030421 -0.48430878 5 8 27262 3.97400000 2333876984 2333876984 -7.00000000
-5.20262003 0.23897937 -0.45565021 6 10 27263 5.22800000 2333876988 2333876988 -5.00000000
-7.65528774 0.35431913 -0.40162614 28 12 27265 7.67400000 2333876993 2333876993 -3.00000000
-10.13691711 0.47449863 2.71915293 47 15 27268 10.50600000 2333877000 2333877000 15.00000000
-1.94315052 0.09299629 -0.52126157 5 0 27274 2.01400000 2333877021 2333877021 -15.00000000
-2.24039793 0.10800596 -0.51783735 4 2 27276 2.30200000 2333877025 2333877025 -13.00000000
-2.61984324 0.12675671 -0.50984162 3 4 27277 2.67200000 2333877030 2333877030 -11.00000000
-3.17461348 0.15470912 -0.50340611 3 6 27279 3.21800000 2333877034 2333877034 -9.00000000
-3.95549726 0.19414811 -0.48625869 5 8 27281 3.99000000 2333877039 2333877039 -7.00000000
-5.18189907 0.25525033 -0.45390710 6 10 27282 5.20800000 2333877044 2333877044 -5.00000000
-7.64808607 0.37940615 -0.40131211 24 12 27284 7.66800000 2333877048 2333877048 -3.00000000
-10.13537693 0.50634229 2.71915293 42 15 27286 10.50600000 2333877055 2333877055 15.00000000
-1.94860208 0.10007584 -0.52281445 4 0 27294 2.02000000 2333877076 2333877076 -15.00000000
-2.24195337 0.11592638 -0.51828724 4 2 27296 2.30400000 2333877080 2333877080 -13.00000000
-2.61938477 0.13590090 -0.50984162 3 4 27297 2.67200000 2333877085 2333877085 -11.00000000
-3.17010880 0.16558357 -0.50278038 3 6 27299 3.21400000 2333877090 2333877090 -9.00000000
-3.95876026 0.20816267 -0.48674616 5 8 27301 3.99400000 2333877094 2333877094 -7.00000000
-5.19689369 0.27417672 -0.45530161 6 10 27302 5.22400000 2333877099 2333877099 -5.00000000
-7.66665983 0.40715984 -0.40235883 24 12 27304 7.68800000 2333877103 2333877103 -3.00000000
-10.11802006 0.54265922 2.71501184 45 15 27307 10.49000000 2333877110 2333877110 15.00000000
-1.94824088 0.10687712 -0.52281445 4 0 27314 2.02000000 2333877131 2333877131 -15.00000000
-2.23180628 0.12321444 -0.51603770 4 2 27316 2.29400000 2333877136 2333877136 -13.00000000
-2.61497402 0.14482631 -0.50907838 3 4 27317 2.66800000 2333877140 2333877140 -11.00000000
-3.16951156 0.17664830 -0.50278038 3 6 27319 3.21400000 2333877145 2333877145 -9.00000000
-3.95800948 0.22198005 -0.48674616 5 8 27321 3.99400000 2333877150 2333877150 -7.00000000
-5.18396950 0.29164413 -0.45425573 6 10 27322 5.21200000 2333877154 2333877154 -5.00000000
-7.65920973 0.43358037 -0.40204480 28 12 27324 7.68200000 2333877159 2333877159 -3.00000000
-10.12387943 0.57664824 2.71708226 45 15 27326 10.49800000 2333877166 2333877166 15.00000000
-1.94592726 0.11356455 -0.52229685 4 0 27334 2.01800000 2333877186 2333877186 -15.00000000
-2.23330808 0.13111836 -0.51648760 4 2 27336 2.29600000 2333877191 2333877191 -13.00000000
-2.62621164 0.15464583 -0.51136810 3 4 27337 2.68000000 2333877196 2333877196 -11.00000000
-3.14915633 0.18654279 -0.49965167 3 6 27339 3.19400000 2333877200 2333877200 -9.00000000
-3.95324731 0.23555858 -0.48625869 5 8 27341 3.99000000 2333877205 2333877205 -7.00000000
-5.20280838 0.31092635 -0.45599884 6 10 27342 5.23200000 2333877209 2333877209 -5.00000000
-7.64967489 0.45983398 -0.40162614 36 12 27344 7.67400000 2333877214 2333877214 -3.00000000
-10.12169838 0.61375022 2.71708226 45 15 27347 10.49800000 2333877221 2333877221 15.00000000
-1.94744718 0.12047569 -0.52281445 4 0 27354 2.02000000 2333877242 2333877242 -15.00000000
-2.22505665 0.13842924 -0.51468801 4 2 27356 2.28800000 2333877246 2333877246 -13.00000000
-2.62565589 0.16381207 -0.51136810 3 4 27357 2.68000000 2333877251 2333877251 -11.00000000
-3.15242910 0.19778165 -0.50027740 3 6 27359 3.19800000 2333877256 2333877256 -9.00000000
-3.95636344 0.24960653 -0.48674616 5 8 27361 3.99400000 2333877260 2333877260 -7.00000000
-5.20964479 0.32958883 -0.45669609 6 10 27362 5.24000000 2333877265 2333877265 -5.00000000
-7.65599585 0.48704073 -0.40204480 28 12 27364 7.68200000 2333877269 2333877269 -3.00000000
-10.12924671 0.64792824 2.71967053 47 15 27366 10.50800000 2333877276 2333877276 15.00000000
-1.94701481 0.12727281 -0.52281445 4 0 27374 2.02000000 2333877297 2333877297 -15.00000000
-2.24011636 0.14721765 -0.51828724 4 2 27376 2.30400000 2333877302 2333877302 -13.00000000
-2.61331391 0.17220180 -0.50907838 3 4 27377 2.66800000 2333877306 2333877306 -11.00000000
-3.16354585 0.20956790 -0.50215465 3 6 27379 3.21000000 2333877311 2333877311 -9.00000000
-3.96537137 0.26407483 -0.48796484 4 8 27381 4.00400000 2333877315 2333877315 -7.00000000
-5.20647478 0.34763914 -0.45652178 9 10 27382 5.23800000 2333877320 2333877320 -5.00000000
-7.65823507 0.51402968 -0.40225416 32 12 27384 7.68600000 2333877325 2333877325 -3.00000000
-10.11909485 0.68452787 2.71759987 42 15 27387 10.50000000 2333877332 2333877332 15.00000000
-1.93694556 0.13306662 -0.52022630 4 0 27393 2.01000000 2333877352 2333877352 -15.00000000
-2.24155998 0.15477957 -0.51873714 4 2 27395 2.30600000 2333877357 2333877357 -13.00000000
-2.62056279 0.18140925 -0.51060486 3 4 27396 2.67600000 2333877362 2333877362 -11.00000000
-3.16283345 0.22005746 -0.50215465 3 6 27398 3.21000000 2333877366 2333877366 -9.00000000
-3.95061207 0.27625370 -0.48625869 5 8 27400 3.99000000 2333877371 2333877371 -7.00000000
-5.19138050 0.36392722 -0.45530161 6 10 27401 5.22400000 2333877375 2333877375 -5.00000000
-7.65648794 0.53942251 -0.40225416 32 12 27403 7.68600000 2333877380 2333877380 -3.00000000
-10.10533142 0.71549588 2.71449423 42 15 27405 10.48800000 2333877387 2333877387 15.00000000
-1.94224977 0.14024441 -0.52177918 4 0 27413 2.01600000 2333877408 2333877408 -15.00000000
-2.22156978 0.16119286 -0.51423812 4 2 27415 2.28600000 2333877412 2333877412 -13.00000000
-2.63166213 0.19141012 -0.51289457 3 4 27416 2.68800000 2333877417 2333877417 -11.00000000
-3.15022540 0.23023255 -0.50027740 4 6 27418 3.19800000 2333877421 2333877421 -9.00000000
-3.97140121 0.29164147 -0.48893979 4 8 27420 4.01200000 2333877426 2333877426 -7.00000000
-5.21590996 0.38394776 -0.45756766 6 10 27421 5.25000000 2333877431 2333877431 -5.00000000
-7.65655041 0.56629264 -0.40235883 44 12 27423 7.68800000 2333877435 2333877435 -3.00000000
-10.11625862 0.75176787 2.71811771 45 15 27425 10.50200000 2333877442 2333877442 15.00000000
-1.94560099 0.14731500 -0.52281445 4 0 27433 2.02000000 2333877463 2333877463 -15.00000000
-2.22293663 0.16909441 -0.51468801 4 2 27435 2.28800000 2333877468 2333877468 -13.00000000
-2.61923242 0.19969966 -0.51060486 3 4 27436 2.67600000 2333877472 2333877472 -11.00000000
-3.15334177 0.24152921 -0.50090313 3 6 27438 3.20200000 2333877477 2333877477 -9.00000000
-3.96442127 0.30504557 -0.48820859 6 8 27440 4.00600000 2333877481 2333877481 -7.00000000
-5.21056509 0.40184593 -0.45721903 3 10 27441 5.24600000 2333877486 2333877486 -5.00000000
-7.63859653 0.59178138 -0.40152144 40 12 27443 7.67200000 2333877491 2333877491 -3.00000000
-10.11357307 0.78707564 2.71811771 42 15 27445 10.50200000 2333877497 2333877497 15.00000000
-1.94892657 0.15441066 -0.52384973 4 0 27453 2.02400000 2333877518 2333877518 -15.00000000
-2.24175882 0.17839880 -0.51918703 4 2 27455 2.30800000 2333877523 2333877523 -13.00000000
-2.62439060 0.20930952 -0.51174974 3 4 27456 2.68200000 2333877527 2333877527 -11.00000000
-3.16429377 0.25348136 -0.50278038 3 6 27458 3.21400000 2333877532 2333877532 -9.00000000
-3.95739627 0.31840453 -0.48747736 6 8 27460 4.00000000 2333877537 2333877537 -7.00000000
-5.19920063 0.41923109 -0.45634747 6 10 27461 5.23600000 2333877541 2333877541 -5.00000000
-7.64643812 0.61924756 -0.40204480 20 12 27463 7.68200000 2333877546 2333877546 -3.00000000
-10.11832142 0.82476622 2.72018814 42 15 27466 10.51000000 2333877553 2333877553 15.00000000
-1.95222628 0.16153134 -0.52488500 4 0 27473 2.02800000 2333877574 2333877574 -15.00000000
-2.23529625 0.18573880 -0.51783735 4 2 27475 2.30200000 2333877578 2333877578 -13.00000000
-2.60994864 0.21732867 -0.50907838 3 4 27476 2.66800000 2333877583 2333877583 -11.00000000
-3.15945268 0.26419604 -0.50215465 3 6 27478 3.21000000 2333877587 2333877587 -9.00000000
-3.96021676 0.33254871 -0.48796484 4 8 27480 4.00400000 2333877592 2333877592 -7.00000000
-5.20167637 0.43771124 -0.45669609 6 10 27481 5.24000000 2333877597 2333877597 -5.00000000
-7.65418100 0.64677566 -0.40256816 32 12 27483 7.69200000 2333877601 2333877601 -3.00000000
-10.10783100 0.85766190 2.71811771 47 15 27485 10.50200000 2333877608 2333877608 15.00000000
-1.94010234 0.16734879 -0.52177918 4 0 27493 2.01600000 2333877629 2333877629 -15.00000000
-2.23657584 0.19370846 -0.51828724 4 2 27495 2.30400000 2333877633 2333877633 -13.00000000
-2.61308575 0.22677726 -0.50984162 3 4 27496 2.67200000 2333877638 2333877638 -11.00000000
-3.14670372 0.27419412 -0.50027740 3 6 27498 3.19800000 2333877643 2333877643 -9.00000000
-3.96496463 0.34688944 -0.48869607 6 8 27500 4.01000000 2333877647 2333877647 -7.00000000
-5.21797991 0.45743176 -0.45826489 3 10 27501 5.25800000 2333877652 2333877652 -5.00000000
-7.66182423 0.67436540 -0.40309155 32 12 27503 7.70200000 2333877656 2333877656 -3.00000000
-10.10862446 0.89327973 2.71915293 45 15 27505 10.50600000 2333877663 2333877663 15.00000000
-1.94332409 0.17480464 -0.52281445 4 0 27514 2.02000000 2333877684 2333877684 -15.00000000
-2.23585081 0.20190462 -0.51828724 4 2 27516 2.30400000 2333877689 2333877689 -13.00000000
-2.61419249 0.23653008 -0.51022327 3 4 27517 2.67400000 2333877693 2333877693 -11.00000000
-5.57376528 0.50529069 0.48964095 8 5 27518 5.61800000 2333877696 2333877696 5.00000000
-3.15354657 0.28644028 -0.50152892 3 6 27519 3.20600000 2333877698 2333877698 -9.00000000
-3.97157407 0.36214048 -0.48967102 6 8 27521 4.01800000 2333877702 2333877702 -7.00000000
-5.20436335 0.47546595 -0.45721903 6 10 27522 5.24600000 2333877707 2333877707 -5.00000000
-7.64338970 0.70098358 -0.40225416 28 12 27524 7.68600000 2333877712 2333877712 -3.00000000
-7.58078241 0.69791031 -0.13288262 2 14 27526 7.61400000 2333877716 2333877716 -1.00000000
-10.10912991 0.93067789 2.72018814 45 15 27526 10.51000000 2333877719 2333877719 15.00000000
-1.94462550 0.18176682 -0.52333212 4 0 27534 2.02200000 2333877739 2333877739 -15.00000000
-2.22737145 0.20897982 -0.51648760 4 2 27536 2.29600000 2333877744 2333877744 -13.00000000
-2.62312388 0.24657255 -0.51213133 3 4 27537 2.68400000 2333877749 2333877749 -11.00000000
-5.55213118 0.52287561 0.48789784 8 5 27538 5.59800000 2333877751 2333877751 5.00000000
-3.15252757 0.29744646 -0.50152892 3 6 27539 3.20600000 2333877753 2333877753 -9.00000000
-3.96633315 0.37562734 -0.48918355 6 8 27541 4.01400000 2333877758 2333877758 -7.00000000
-5.20068836 0.49344146 -0.45704472 3 10 27542 5.24400000 2333877762 2333877762 -5.00000000
-7.11647558 0.68022466 -0.12478471 6 14 27546 7.15000000 2333877772 2333877772 -1.00000000
-10.10949707 0.96809173 2.72122335 47 15 27547 10.51400000 2333877774 2333877774 15.00000000
-1.95551610 0.18967274 -0.52643794 4 0 27554 2.03400000 2333877795 2333877795 -15.00000000
-2.23050761 0.21713114 -0.51738745 4 2 27556 2.30000000 2333877799 2333877799 -13.00000000
-2.63397121 0.25687081 -0.51442105 3 4 27557 2.69600000 2333877804 2333877804 -11.00000000
-5.55225515 0.54244673 0.48807216 11 5 27558 5.60000000 2333877806 2333877806 5.00000000
-3.15540218 0.30883387 -0.50215465 3 6 27559 3.21000000 2333877808 2333877808 -9.00000000
-3.94919324 0.38791770 -0.48723364 5 8 27561 3.99800000 2333877813 2333877813 -7.00000000
-5.22669363 0.51432389 -0.45948508 6 10 27562 5.27200000 2333877818 2333877818 -5.00000000
-7.27656841 0.71860296 -0.38320386 3 12 27564 7.32200000 2333877822 2333877822 -3.00000000
-6.46135521 0.64037353 -0.11333593 6 14 27566 6.49400000 2333877827 2333877827 -1.00000000
-10.11392117 1.00237286 2.72329402 45 15 27566 10.52200000 2333877829 2333877829 15.00000000
-1.94330919 0.19533834 -0.52333212 4 0 27574 2.02200000 2333877850 2333877850 -15.00000000
-5.80973101 0.58500916 0.10192205 5 1 27575 5.84000000 2333877852 2333877852 1.00000000
-2.23749161 0.22569805 -0.51918703 4 2 27576 2.30800000 2333877854 2333877854 -13.00000000
-6.19203711 0.62459707 0.32615769 2 3 27576 6.23200000 2333877857 2333877857 3.00000000
-2.61352539 0.26408976 -0.51060486 3 4 27577 2.67600000 2333877859 2333877859 -11.00000000
-5.53843403 0.56062049 0.48702630 11 5 27578 5.58800000 2333877861 2333877861 5.00000000
-3.15037417 0.31944785 -0.50152892 3 6 27579 3.20600000 2333877864 2333877864 -9.00000000
-3.95571470 0.40250438 -0.48820859 6 8 27581 4.00600000 2333877868 2333877868 -7.00000000
-5.20108128 0.53014088 -0.45739335 6 10 27582 5.24800000 2333877873 2333877873 -5.00000000
-7.28196335 0.74481148 -0.38362256 3 12 27584 7.33000000 2333877878 2333877878 -3.00000000
-6.19848967 0.63617831 -0.10876340 2 14 27586 6.23200000 2333877882 2333877882 -1.00000000
-10.07576942 1.03412068 2.71397662 42 15 27586 10.48600000 2333877884 2333877884 15.00000000
-1.93112159 0.20058399 -0.52022630 4 0 27593 2.01000000 2333877905 2333877905 -15.00000000
-5.49151468 0.57136786 0.09637219 2 1 27594 5.52200000 2333877907 2333877907 1.00000000
-2.24448395 0.23392463 -0.52098662 4 2 27595 2.31600000 2333877910 2333877910 -13.00000000
-5.70909500 0.59602064 0.30082709 4 3 27596 5.74800000 2333877912 2333877912 3.00000000
-2.62044597 0.27357048 -0.51213133 3 4 27596 2.68400000 2333877914 2333877914 -11.00000000
-5.51672888 0.57691127 0.48528317 14 5 27597 5.56800000 2333877917 2333877917 5.00000000
-3.14929748 0.32989311 -0.50152892 3 6 27598 3.20600000 2333877919 2333877919 -9.00000000
-3.94843554 0.41499731 -0.48747736 4 8 27600 4.00000000 2333877924 2333877924 -7.00000000
-4.86839437 0.51254797 -0.42828333 2 10 27601 4.91400000 2333877928 2333877928 -5.00000000
-5.12640381 0.54152071 -0.27015820 2 12 27603 5.16200000 2333877933 2333877933 -3.00000000
-5.10462761 0.54102224 -0.08960065 2 14 27605 5.13400000 2333877937 2333877937 -1.00000000
-10.07209778 1.06928527 2.71397662 47 15 27606 10.48600000 2333877940 2333877940 15.00000000
-1.93617213 0.20794252 -0.52177918 4 0 27613 2.01600000 2333877960 2333877960 -15.00000000
