# .PCD v0.7 - Point Cloud Data file format
VERSION 0.7
FIELDS x y z intensity laser_id azimuth distance_m adjustedtime timestamp vertical_angle
SIZE 4 4 4 1 1 2 8 8 4 8
TYPE F F F U U U F U U F
COUNT 1 1 1 1 1 1 1 1 1 1
WIDTH 539
HEIGHT 1
VIEWPOINT 0 0 0 1 0 0 0
POINTS 539
DATA ascii
8.21448231 4.35301638 0.16227247 12 1 6208 9.29800000 2332718626 2332718626 1.00000000
2.38851166 1.26518559 -0.62401420 3 2 6209 2.77400000 2332718628 2332718628 -13.00000000
8.22364235 4.35419464 0.48766643 10 3 6210 9.31800000 2332718630 2332718630 3.00000000
2.84722805 1.50752974 -0.62623513 5 4 6210 3.28200000 2332718633 2332718633 -11.00000000
8.22195911 4.35146618 0.81386030 81 5 6211 9.33800000 2332718635 2332718635 5.00000000
3.59520459 1.90195632 -0.64419711 6 6 6212 4.11800000 2332718637 2332718637 -9.00000000
8.24600506 4.36050844 1.14532804 90 7 6213 9.39800000 2332718640 2332718640 7.00000000
4.85083199 2.56404924 -0.67369372 4 8 6214 5.52800000 2332718642 2332718642 -7.00000000
8.21129322 4.33481979 -0.48661971 17 12 6217 9.29800000 2332718651 2332718651 -3.00000000
8.27969933 4.36908436 2.16132975 70 13 6218 9.60800000 2332718653 2332718653 13.00000000
8.20513725 4.32790852 -0.16192342 16 14 6219 9.27800000 2332718656 2332718656 -1.00000000
7.78394461 4.10400867 2.35784149 45 15 6220 9.11000000 2332718658 2332718658 15.00000000
2.01075053 1.05745888 -0.60874242 4 0 6226 2.35200000 2332718679 2332718679 -15.00000000
8.20409203 4.31272554 0.16178381 15 1 6227 9.27000000 2332718681 2332718681 1.00000000
2.39269400 1.25725806 -0.62401420 3 2 6228 2.77400000 2332718683 2332718683 -13.00000000
8.22919559 4.32225657 0.48714307 10 3 6229 9.30800000 2332718686 2332718686 3.00000000
2.85394979 1.49899256 -0.62661672 5 4 6229 3.28400000 2332718688 2332718688 -11.00000000
8.22399616 4.31769419 0.81264013 81 5 6230 9.32400000 2332718690 2332718690 5.00000000
3.60149193 1.89002383 -0.64419711 6 6 6231 4.11800000 2332718693 2332718693 -9.00000000
8.23405075 4.31930733 1.14167202 85 7 6232 9.36800000 2332718695 2332718695 7.00000000
4.88040495 2.55901098 -0.67661858 4 8 6233 5.55200000 2332718697 2332718697 -7.00000000
6.69525290 3.50912595 -0.66133779 67 10 6234 7.58800000 2332718702 2332718702 -5.00000000
8.21323776 4.30108070 -0.48588702 21 12 6236 9.28400000 2332718706 2332718706 -3.00000000
8.28378296 4.33618164 2.15863037 70 13 6237 9.59600000 2332718709 2332718709 13.00000000
8.20526886 4.29325867 -0.16164419 16 14 6238 9.26200000 2332718711 2332718711 -1.00000000
7.79679966 4.07953453 2.35784149 45 15 6238 9.11000000 2332718713 2332718713 15.00000000
2.01956820 1.05311334 -0.61029530 3 0 6246 2.35800000 2332718734 2332718734 -15.00000000
8.20491028 4.27666759 0.16150457 12 1 6247 9.25400000 2332718736 2332718736 1.00000000
2.38669872 1.24349570 -0.62131482 3 2 6248 2.76200000 2332718739 2332718739 -13.00000000
8.22828960 4.28520203 0.48620105 13 3 6249 9.29000000 2332718741 2332718741 3.00000000
2.87309480 1.49627590 -0.62966967 5 4 6249 3.30000000 2332718743 2332718743 -11.00000000
8.22311211 4.28068113 0.81107134 78 5 6250 9.30600000 2332718746 2332718746 5.00000000
3.60806751 1.87744069 -0.64419711 6 6 6251 4.11800000 2332718748 2332718748 -9.00000000
8.23322773 4.28229475 1.13947833 85 7 6252 9.35000000 2332718750 2332718750 7.00000000
4.88050175 2.53738117 -0.67539990 6 8 6253 5.54200000 2332718752 2332718752 -7.00000000
8.19629574 4.25581837 -0.48400292 17 12 6256 9.24800000 2332718762 2332718762 -3.00000000
8.27465343 4.29467106 2.15233159 75 13 6257 9.56800000 2332718764 2332718764 13.00000000
8.21133041 4.25998640 -0.16146967 14 14 6258 9.25200000 2332718766 2332718766 -1.00000000
7.81512928 4.05270910 2.35887671 42 15 6259 9.11400000 2332718769 2332718769 15.00000000
2.02494812 1.04694450 -0.61081296 4 0 6266 2.36000000 2332718789 2332718789 -15.00000000
8.21268272 4.24432850 0.16136494 12 1 6267 9.24600000 2332718792 2332718792 1.00000000
2.39448738 1.23694587 -0.62221462 3 2 6268 2.76600000 2332718794 2332718794 -13.00000000
8.22190189 4.24545765 0.48494497 13 3 6269 9.26600000 2332718796 2332718796 3.00000000
2.86434507 1.47903180 -0.62661672 5 4 6269 3.28400000 2332718799 2332718799 -11.00000000
8.22738171 4.24646807 0.81002545 78 5 6270 9.29400000 2332718801 2332718801 5.00000000
3.61108780 1.86302340 -0.64357138 6 6 6271 4.11400000 2332718803 2332718803 -9.00000000
8.23753929 4.24807072 1.13801599 87 7 6272 9.33800000 2332718805 2332718805 7.00000000
4.87521315 2.51305342 -0.67344999 6 8 6273 5.52600000 2332718808 2332718808 -7.00000000
8.34193802 4.30006552 1.48644030 2 9 6273 9.50200000 2332718810 2332718810 9.00000000
8.20577335 4.22443914 -0.48368892 17 12 6276 9.24200000 2332718817 2332718817 -3.00000000
8.26880074 4.25506115 2.14693284 78 13 6277 9.54400000 2332718819 2332718819 13.00000000
8.20303345 4.21940660 -0.16101590 16 14 6278 9.22600000 2332718822 2332718822 -1.00000000
7.83024359 4.02765417 2.35939431 45 15 6278 9.11600000 2332718824 2332718824 15.00000000
2.02515197 1.03810728 -0.60977769 4 0 6286 2.35600000 2332718845 2332718845 -15.00000000
8.21498966 4.20925188 0.16112062 12 1 6287 9.23200000 2332718847 2332718847 1.00000000
8.17808914 4.18854284 -2.12128854 6 2 6288 9.43000000 2332718849 2332718849 -13.00000000
8.21889305 4.20763016 0.48389825 13 3 6289 9.24600000 2332718852 2332718852 3.00000000
2.86774278 1.46812975 -0.62623513 5 4 6289 3.28200000 2332718854 2332718854 -11.00000000
8.22264385 4.20773935 0.80810803 75 5 6290 9.27200000 2332718856 2332718856 5.00000000
3.63163829 1.85760355 -0.64607435 6 6 6291 4.13000000 2332718858 2332718858 -9.00000000
8.24171352 4.21386814 1.13655353 90 7 6292 9.32600000 2332718861 2332718861 7.00000000
4.88042068 2.49421358 -0.67296249 6 8 6293 5.52200000 2332718863 2332718863 -7.00000000
6.66953278 3.40709877 -0.65523690 12 10 6294 7.51800000 2332718868 2332718868 -5.00000000
8.21335411 4.19213820 -0.48327023 17 12 6296 9.23400000 2332718872 2332718872 -3.00000000
8.26450920 4.21642971 2.14198399 74 13 6297 9.52200000 2332718875 2332718875 13.00000000
8.19989777 4.18166256 -0.16066685 16 14 6298 9.20600000 2332718877 2332718877 -1.00000000
7.83392906 3.99503136 2.35628867 45 15 6298 9.10400000 2332718879 2332718879 15.00000000
2.02169514 1.02788377 -0.60770714 4 0 6305 2.34800000 2332718900 2332718900 -15.00000000
8.20216274 4.16839743 0.16059704 12 1 6306 9.20200000 2332718902 2332718902 1.00000000
2.40458894 1.22150111 -0.62266451 4 2 6307 2.76800000 2332718905 2332718905 -13.00000000
8.22923946 4.17854404 0.48368892 13 3 6308 9.24200000 2332718907 2332718907 3.00000000
2.87434602 1.45950079 -0.62661672 5 4 6308 3.28400000 2332718909 2332718909 -11.00000000
8.21523190 4.16962814 0.80601633 78 5 6309 9.24800000 2332718911 2332718911 5.00000000
3.63073182 1.84197545 -0.64482284 6 6 6310 4.12200000 2332718914 2332718914 -9.00000000
8.24147797 4.17933178 1.13460362 92 7 6311 9.31000000 2332718916 2332718916 7.00000000
4.89220619 2.47981095 -0.67344999 6 8 6312 5.52600000 2332718918 2332718918 -7.00000000
6.67901707 3.38406277 -0.65506256 12 10 6313 7.51600000 2332718923 2332718923 -5.00000000
8.20760918 4.15495586 -0.48211882 17 12 6315 9.21200000 2332718928 2332718928 -3.00000000
8.26975155 4.18460131 2.13973451 78 13 6316 9.51200000 2332718930 2332718930 13.00000000
8.19944382 4.14722729 -0.16038762 16 14 6317 9.19000000 2332718932 2332718932 -1.00000000
7.84196234 3.96641541 2.35473561 42 15 6317 9.09800000 2332718934 2332718934 15.00000000
2.02527070 1.02082050 -0.60770714 4 0 6325 2.34800000 2332718955 2332718955 -15.00000000
8.19701862 4.12984371 0.16021310 12 1 6326 9.18000000 2332718958 2332718958 1.00000000
2.41580009 1.21660614 -0.62446415 4 2 6327 2.77600000 2332718960 2332718960 -13.00000000
8.22593498 4.14081287 0.48264217 15 3 6328 9.22200000 2332718962 2332718962 3.00000000
2.88293028 1.45122397 -0.62737995 5 4 6328 3.28800000 2332718964 2332718964 -11.00000000
8.21371937 4.13286638 0.80444753 78 5 6329 9.23000000 2332718967 2332718967 5.00000000
3.63008046 1.82574034 -0.64357138 6 6 6330 4.11400000 2332718969 2332718969 -9.00000000
8.23118591 4.13805532 1.13119125 95 7 6331 9.28200000 2332718971 2332718971 7.00000000
4.90437984 2.46450138 -0.67393744 6 8 6332 5.53000000 2332718974 2332718974 -7.00000000
8.30354595 4.17080212 1.47173548 2 9 6333 9.40800000 2332718976 2332718976 9.00000000
6.69791079 3.36430502 -0.65575981 8 10 6333 7.52400000 2332718978 2332718978 -5.00000000
8.20956707 4.12000942 -0.48138613 17 12 6335 9.19800000 2332718983 2332718983 -3.00000000
8.26688957 4.14697123 2.13523531 80 13 6336 9.49200000 2332718985 2332718985 13.00000000
8.20672035 4.11499548 -0.16024800 16 14 6337 9.18200000 2332718987 2332718987 -1.00000000
7.85817432 3.93851209 2.35525322 47 15 6338 9.10000000 2332718990 2332718990 15.00000000
2.03227806 1.01547170 -0.60874242 4 0 6345 2.35200000 2332719011 2332719011 -15.00000000
8.19886208 4.09495115 0.15996876 12 1 6346 9.16600000 2332719013 2332719013 1.00000000
8.18591595 4.08669996 -2.11229038 8 2 6347 9.39000000 2332719015 2332719015 -13.00000000
8.22425556 4.10404730 0.48170015 13 3 6348 9.20400000 2332719017 2332719017 3.00000000
2.89324856 1.44378173 -0.62852484 5 4 6348 3.29400000 2332719020 2332719020 -11.00000000
8.22274685 4.10150242 0.80392456 78 5 6349 9.22400000 2332719022 2332719022 5.00000000
3.63996696 1.81482065 -0.64419711 6 6 6350 4.11800000 2332719024 2332719024 -9.00000000
8.21715355 4.09513140 1.12729144 95 7 6351 9.25000000 2332719027 2332719027 7.00000000
4.90939903 2.44559669 -0.67344999 6 8 6352 5.52600000 2332719029 2332719029 -7.00000000
6.75598478 3.36399436 -0.66029191 8 10 6353 7.57600000 2332719034 2332719034 -5.00000000
8.20959282 4.08421087 -0.48054874 17 12 6355 9.18200000 2332719038 2332719038 -3.00000000
8.26561069 4.11027956 2.13118625 73 13 6356 9.47400000 2332719040 2332719040 13.00000000
8.21387196 4.08276320 -0.16010837 16 14 6357 9.17400000 2332719043 2332719043 -1.00000000
7.88157129 3.91759109 2.35835910 45 15 6357 9.11200000 2332719045 2332719045 15.00000000
2.03927255 1.01008654 -0.60977769 4 0 6365 2.35600000 2332719066 2332719066 -15.00000000
8.20593834 4.06275797 0.15982914 12 1 6366 9.15800000 2332719068 2332719068 1.00000000
8.18965149 4.05291462 -2.10959101 8 2 6367 9.37800000 2332719070 2332719070 -13.00000000
8.20630741 4.05937433 0.47981605 10 3 6368 9.16800000 2332719073 2332719073 3.00000000
2.88771224 1.42845070 -0.62623513 5 4 6368 3.28200000 2332719075 2332719075 -11.00000000
8.22272491 4.06571007 0.80253005 82 5 6369 9.20800000 2332719077 2332719077 5.00000000
3.64982152 1.80385423 -0.64482284 4 6 6370 4.12200000 2332719080 2332719080 -9.00000000
8.22427940 4.06290627 1.12631643 97 7 6371 9.24200000 2332719082 2332719082 7.00000000
4.91790581 2.42844486 -0.67344999 6 8 6372 5.52600000 2332719084 2332719084 -7.00000000
6.83200455 3.37213707 -0.66656715 4 10 6373 7.64800000 2332719089 2332719089 -5.00000000
8.20588684 4.04669571 -0.47950202 17 12 6375 9.16200000 2332719093 2332719093 -3.00000000
8.25718498 4.07020140 2.12533760 72 13 6376 9.44800000 2332719096 2332719096 13.00000000
8.20296001 4.04169321 -0.15961970 18 14 6377 9.14600000 2332719098 2332719098 -1.00000000
7.89866400 3.89176297 2.35939431 45 15 6377 9.11600000 2332719100 2332719100 15.00000000
2.04278588 1.00296199 -0.60977769 4 0 6385 2.35600000 2332719121 2332719121 -15.00000000
8.20929909 4.02880287 0.15961970 12 1 6386 9.14600000 2332719123 2332719123 1.00000000
8.20024967 4.02258635 -2.10869122 8 2 6387 9.37400000 2332719126 2332719126 -13.00000000
8.22151661 4.03301859 0.47992072 13 3 6387 9.17000000 2332719128 2332719128 3.00000000
2.89268088 1.41836202 -0.62623513 5 4 6388 3.28200000 2332719130 2332719130 -11.00000000
8.22255516 4.02996778 0.80113560 82 5 6389 9.19200000 2332719133 2332719133 5.00000000
3.65609598 1.79110289 -0.64482284 4 6 6390 4.12200000 2332719135 2332719135 -9.00000000
8.22771454 4.02893543 1.12485409 97 7 6391 9.23000000 2332719137 2332719137 7.00000000
4.92991877 2.41300869 -0.67393744 6 8 6392 5.53000000 2332719139 2332719139 -7.00000000
7.54886723 3.69325209 -0.73524582 13 10 6393 8.43600000 2332719144 2332719144 -5.00000000
8.20919609 4.01276445 -0.47887400 17 12 6395 9.15000000 2332719149 2332719149 -3.00000000
8.26083660 4.03622103 2.12263823 72 13 6396 9.43600000 2332719151 2332719151 13.00000000
8.20084667 4.00513697 -0.15930557 14 14 6397 9.12800000 2332719153 2332719153 -1.00000000
7.90872908 3.86247230 2.35835910 45 15 6397 9.11200000 2332719156 2332719156 15.00000000
2.03237796 0.98906237 -0.60563654 4 0 6405 2.34000000 2332719176 2332719176 -15.00000000
8.19993496 3.98875117 0.15916595 15 1 6406 9.12000000 2332719179 2332719179 1.00000000
8.19671535 3.98541641 -2.10419226 8 2 6407 9.35400000 2332719181 2332719181 -13.00000000
8.21827984 3.99412799 0.47887400 10 3 6408 9.15000000 2332719183 2332719183 3.00000000
2.90467739 1.41168869 -0.62776160 5 4 6408 3.29000000 2332719186 2332719186 -11.00000000
8.21148205 3.98905277 0.79869521 82 5 6409 9.16400000 2332719188 2332719188 5.00000000
3.67298770 1.78350699 -0.64670008 4 6 6410 4.13400000 2332719190 2332719190 -9.00000000
8.23101234 3.99498987 1.12339163 92 7 6411 9.21800000 2332719192 2332719192 7.00000000
4.93831158 2.39578533 -0.67393744 6 8 6412 5.53000000 2332719195 2332719195 -7.00000000
8.32364368 4.03635979 1.46516526 2 9 6413 9.36600000 2332719197 2332719197 9.00000000
7.55454254 3.66340160 -0.73454863 13 10 6413 8.42800000 2332719199 2332719199 -5.00000000
8.21596336 3.98060107 -0.47845531 17 12 6415 9.14200000 2332719204 2332719204 -3.00000000
8.26786041 4.00396299 2.12083864 68 13 6416 9.42800000 2332719206 2332719206 13.00000000
8.19497776 3.96690226 -0.15892161 16 14 6417 9.10600000 2332719209 2332719209 -1.00000000
7.91935444 3.83177662 2.35732388 45 15 6418 9.10800000 2332719211 2332719211 15.00000000
2.04956555 0.98903406 -0.60977769 4 0 6424 2.35600000 2332719232 2332719232 -15.00000000
8.19510555 3.95284963 0.15881690 21 1 6425 9.10000000 2332719234 2332719234 1.00000000
8.20110989 3.95398164 -2.10194254 8 2 6426 9.34400000 2332719236 2332719236 -13.00000000
8.21819305 3.96221805 0.47814131 10 3 6426 9.13600000 2332719239 2332719239 3.00000000
2.90049958 1.39778721 -0.62585348 5 4 6427 3.28000000 2332719241 2332719241 -11.00000000
8.21748543 3.95834208 0.79799795 82 5 6428 9.15600000 2332719243 2332719243 5.00000000
3.66820288 1.76617539 -0.64482284 4 6 6429 4.12200000 2332719245 2332719245 -9.00000000
8.22275066 3.95734262 1.12046671 92 7 6430 9.19400000 2332719248 2332719248 7.00000000
4.94980669 2.38111734 -0.67442495 6 8 6431 5.53400000 2332719250 2332719250 -7.00000000
7.56305790 3.63660312 -0.73420000 13 10 6432 8.42400000 2332719255 2332719255 -5.00000000
8.19671345 3.93776631 -0.47657123 17 12 6434 9.10600000 2332719259 2332719259 -3.00000000
8.27055168 3.97146249 2.11813903 68 13 6435 9.41600000 2332719262 2332719262 13.00000000
8.20087624 3.93624377 -0.15878199 16 14 6436 9.09800000 2332719264 2332719264 -1.00000000
7.94180298 3.81189394 2.36042976 47 15 6436 9.12000000 2332719266 2332719266 15.00000000
2.05300546 0.98187369 -0.60977769 4 0 6444 2.35600000 2332719287 2332719287 -15.00000000
8.20163727 3.92076945 0.15867728 18 1 6445 9.09200000 2332719289 2332719289 1.00000000
8.18321228 3.91020703 -2.09384441 8 2 6446 9.30800000 2332719291 2332719291 -13.00000000
8.21395302 3.92489600 0.47709459 10 3 6446 9.11600000 2332719294 2332719294 3.00000000
2.90536118 1.38765407 -0.62585348 5 4 6447 3.28000000 2332719296 2332719296 -11.00000000
8.21327209 3.92104983 0.79625487 78 5 6448 9.13600000 2332719298 2332719298 5.00000000
3.67077994 1.75165868 -0.64419711 6 6 6449 4.11800000 2332719301 2332719301 -9.00000000
8.21501350 3.91836047 1.11754191 90 7 6450 9.17000000 2332719303 2332719303 7.00000000
4.95450449 2.36211610 -0.67393744 6 8 6451 5.53000000 2332719305 2332719305 -7.00000000
7.59728909 3.62046623 -0.73629171 13 10 6452 8.44800000 2332719310 2332719310 -5.00000000
8.19417953 3.90140319 -0.47562918 17 12 6454 9.08800000 2332719315 2332719315 -3.00000000
8.26676846 3.93419456 2.11364007 70 13 6455 9.39600000 2332719317 2332719317 13.00000000
8.20373154 3.90243936 -0.15857257 16 14 6456 9.08600000 2332719319 2332719319 -1.00000000
7.95854998 3.78580832 2.36146498 45 15 6456 9.12400000 2332719321 2332719321 15.00000000
2.05991173 0.97635621 -0.61081296 4 0 6464 2.36000000 2332719342 2332719342 -15.00000000
8.20985222 3.88954806 0.15857257 21 1 6465 9.08600000 2332719344 2332719344 1.00000000
8.18272114 3.87494612 -2.09024525 8 2 6466 9.29200000 2332719347 2332719347 -13.00000000
8.20842552 3.88536477 0.47594318 10 3 6467 9.09400000 2332719349 2332719349 3.00000000
2.91196179 1.37834394 -0.62623513 5 4 6467 3.28200000 2332719351 2332719351 -11.00000000
8.22330761 3.89065194 0.79590625 82 5 6468 9.13200000 2332719354 2332719354 5.00000000
3.66972899 1.73545659 -0.64294565 6 6 6469 4.11000000 2332719356 2332719356 -9.00000000
8.21966743 3.88541913 1.11632323 90 7 6470 9.16000000 2332719358 2332719358 7.00000000
4.96271992 2.34480715 -0.67393744 6 8 6471 5.53000000 2332719361 2332719361 -7.00000000
8.28549004 3.91476417 1.45139897 2 9 6471 9.27800000 2332719363 2332719363 9.00000000
7.60627747 3.59222317 -0.73594308 13 10 6472 8.44400000 2332719365 2332719365 -5.00000000
8.20052242 3.86936736 -0.47521049 17 12 6474 9.08000000 2332719370 2332719370 -3.00000000
8.25753784 3.89450765 2.10779142 74 13 6475 9.37000000 2332719372 2332719372 13.00000000
8.19017220 3.86098886 -0.15804899 18 14 6476 9.05600000 2332719374 2332719374 -1.00000000
7.98635244 3.76320100 2.36560607 47 15 6477 9.14000000 2332719377 2332719377 15.00000000
2.05281591 0.96423191 -0.60770714 4 0 6484 2.34800000 2332719397 2332719397 -15.00000000
8.20165730 3.85066843 0.15815371 15 1 6485 9.06200000 2332719400 2332719400 1.00000000
8.18208504 3.83973646 -2.08664608 8 2 6486 9.27600000 2332719402 2332719402 -13.00000000
8.21041679 3.85303211 0.47531515 13 3 6486 9.08200000 2332719404 2332719404 3.00000000
2.90964580 1.36483586 -0.62470865 5 4 6487 3.27400000 2332719407 2332719407 -11.00000000
8.21338654 3.85092831 0.79364020 78 5 6488 9.10600000 2332719409 2332719409 5.00000000
3.68649673 1.72766590 -0.64482284 6 6 6489 4.12200000 2332719411 2332719411 -9.00000000
8.22778797 3.85417724 1.11559200 92 7 6490 9.15400000 2332719414 2332719414 7.00000000
4.96548128 2.32494450 -0.67320627 9 8 6491 5.52400000 2332719416 2332719416 -7.00000000
8.38029385 3.92204976 1.46547806 2 9 6492 9.36800000 2332719418 2332719418 9.00000000
7.60794306 3.56058311 -0.73489720 13 10 6492 8.43200000 2332719421 2332719421 -5.00000000
8.20312405 3.83564281 -0.47458246 17 12 6494 9.06800000 2332719425 2332719425 -3.00000000
8.26225471 3.86153412 2.10554194 72 13 6495 9.36000000 2332719427 2332719427 13.00000000
8.19454098 3.82814431 -0.15787446 16 14 6496 9.04600000 2332719430 2332719430 -1.00000000
7.99243832 3.73203111 2.36353540 45 15 6497 9.13200000 2332719432 2332719432 15.00000000
2.05792046 0.95787561 -0.60822475 4 0 6504 2.35000000 2332719453 2332719453 -15.00000000
8.19510460 3.81273699 0.15776975 15 1 6505 9.04000000 2332719455 2332719455 1.00000000
8.17953491 3.80375671 -2.08259678 8 2 6506 9.25800000 2332719457 2332719457 -13.00000000
8.21294975 3.81929588 0.47468713 10 3 6506 9.07000000 2332719460 2332719460 3.00000000
2.91617250 1.35549855 -0.62509024 5 4 6507 3.27600000 2332719462 2332719462 -11.00000000
8.19967556 3.80964231 0.79102552 75 5 6508 9.07600000 2332719464 2332719464 5.00000000
3.68175530 1.70979500 -0.64294565 6 6 6509 4.11000000 2332719467 2332719467 -9.00000000
8.23038769 3.82041883 1.11412954 92 7 6510 9.14200000 2332719469 2332719469 7.00000000
4.98076916 2.31093955 -0.67418122 9 8 6511 5.53200000 2332719471 2332719471 -7.00000000
7.61309576 3.53065181 -0.73420000 13 10 6512 8.42400000 2332719476 2332719476 -5.00000000
8.21102619 3.80446625 -0.47426844 17 12 6514 9.06200000 2332719480 2332719480 -3.00000000
8.25976849 3.82529926 2.10149264 74 13 6515 9.34200000 2332719483 2332719483 13.00000000
8.19696522 3.79447651 -0.15766504 16 14 6516 9.03400000 2332719485 2332719485 -1.00000000
8.00191021 3.70248723 2.36250019 45 15 6517 9.12800000 2332719487 2332719487 15.00000000
2.06476021 0.95230448 -0.60926002 4 0 6524 2.35400000 2332719508 2332719508 -15.00000000
8.18838787 3.77489853 0.15738580 12 1 6525 9.01800000 2332719510 2332719510 1.00000000
8.17152405 3.76539493 -2.07719803 10 2 6526 9.23400000 2332719513 2332719513 -13.00000000
8.21534824 3.78558898 0.47405910 13 3 6526 9.05800000 2332719515 2332719515 3.00000000
2.92266941 1.34613228 -0.62547189 5 4 6527 3.27800000 2332719517 2332719517 -11.00000000
8.20025539 3.77516460 0.78980535 78 5 6528 9.06200000 2332719520 2332719520 5.00000000
3.68411207 1.69528139 -0.64231992 4 6 6529 4.10600000 2332719522 2332719522 -9.00000000
8.22924519 3.78502989 1.11217964 95 7 6530 9.12600000 2332719524 2332719524 7.00000000
4.98700190 2.29271007 -0.67393744 9 8 6531 5.53000000 2332719527 2332719527 -7.00000000
7.62537336 3.50405550 -0.73420000 13 10 6532 8.42400000 2332719531 2332719531 -5.00000000
8.20429039 3.76661468 -0.47311705 17 12 6534 9.04000000 2332719536 2332719536 -3.00000000
8.26421547 3.79238033 2.09924316 75 13 6535 9.33200000 2332719538 2332719538 13.00000000
8.20107269 3.76167202 -0.15749052 16 14 6536 9.02400000 2332719540 2332719540 -1.00000000
8.01829720 3.67614293 2.36353540 45 15 6537 9.13200000 2332719543 2332719543 15.00000000
2.07685709 0.94910610 -0.61184824 4 0 6544 2.36400000 2332719563 2332719563 -15.00000000
8.19605827 3.74380016 0.15728109 12 1 6545 9.01200000 2332719566 2332719566 1.00000000
8.16511822 3.72794509 -2.07224917 8 2 6546 9.21200000 2332719568 2332719568 -13.00000000
8.22124481 3.75357103 0.47364041 13 3 6546 9.05000000 2332719570 2332719570 3.00000000
2.93092275 1.33755219 -0.62623513 5 4 6547 3.28200000 2332719573 2332719573 -11.00000000
8.20613194 3.74320984 0.78910810 78 5 6548 9.05400000 2332719575 2332719575 5.00000000
3.69719672 1.68568897 -0.64357138 4 6 6549 4.11400000 2332719577 2332719577 -9.00000000
8.20989323 3.74146390 1.10779238 95 7 6550 9.09000000 2332719579 2332719579 7.00000000
4.98413563 2.27035093 -0.67247504 6 8 6551 5.51800000 2332719582 2332719582 -7.00000000
8.30878067 3.78477836 1.44608021 2 9 6551 9.24400000 2332719584 2332719584 9.00000000
7.64118481 3.47906804 -0.73454863 13 10 6552 8.42800000 2332719586 2332719586 -5.00000000
8.18830013 3.72472167 -0.47144228 17 12 6554 9.00800000 2332719591 2332719591 -3.00000000
8.25079346 3.75141096 2.09249473 73 13 6555 9.30200000 2332719593 2332719593 13.00000000
8.20141029 3.72723055 -0.15724619 16 14 6556 9.01000000 2332719596 2332719596 -1.00000000
8.02692699 3.64793444 2.36250019 45 15 6556 9.12800000 2332719598 2332719598 15.00000000
2.07663774 0.94025713 -0.61081296 4 0 6564 2.36000000 2332719619 2332719619 -15.00000000
8.20178890 3.71186972 0.15714146 12 1 6565 9.00400000 2332719621 2332719621 1.00000000
8.17453003 3.69781446 -2.07134938 8 2 6566 9.20800000 2332719623 2332719623 -13.00000000
8.20154190 3.71003342 0.47175631 13 3 6566 9.01400000 2332719626 2332719626 3.00000000
2.93378496 1.32650435 -0.62585348 5 4 6567 3.28000000 2332719628 2332719628 -11.00000000
8.21188641 3.71126008 0.78841084 78 5 6568 9.04600000 2332719630 2332719630 5.00000000
3.70665884 1.67439950 -0.64419711 6 6 6569 4.11800000 2332719632 2332719632 -9.00000000
8.20842934 3.70624804 1.10584247 97 7 6570 9.07400000 2332719635 2332719635 7.00000000
4.99203014 2.25293922 -0.67247504 6 8 6571 5.51800000 2332719637 2332719637 -7.00000000
7.64965057 3.45073557 -0.73420000 13 10 6572 8.42400000 2332719642 2332719642 -5.00000000
8.19943047 3.69529581 -0.47133762 17 12 6574 9.00600000 2332719646 2332719646 -3.00000000
8.24429321 3.71378326 2.08754587 66 13 6575 9.28000000 2332719649 2332719649 13.00000000
8.20160675 3.69283271 -0.15700185 14 14 6576 8.99600000 2332719651 2332719651 -1.00000000
8.05433655 3.62483239 2.36664128 45 15 6577 9.14400000 2332719653 2332719653 15.00000000
2.06916928 0.92861962 -0.60770714 4 0 6583 2.34800000 2332719674 2332719674 -15.00000000
8.20857906 3.68219590 0.15703675 12 1 6584 8.99800000 2332719676 2332719676 1.00000000
8.17963505 3.66749716 -2.06954980 8 2 6585 9.20000000 2332719679 2332719679 -13.00000000
8.20532990 3.67729807 0.47123295 13 3 6586 9.00400000 2332719681 2332719681 3.00000000
2.93816757 1.31676829 -0.62585348 5 4 6586 3.28000000 2332719683 2332719683 -11.00000000
8.20596504 3.67586303 0.78666770 78 5 6587 9.02600000 2332719685 2332719685 5.00000000
3.70497942 1.65886962 -0.64294565 6 6 6588 4.11000000 2332719688 2332719688 -9.00000000
8.22248650 3.67981839 1.10608613 99 7 6589 9.07600000 2332719690 2332719690 7.00000000
5.00309801 2.23799396 -0.67296249 9 8 6590 5.52200000 2332719692 2332719692 -7.00000000
7.66832685 3.42860222 -0.73489720 13 10 6591 8.43200000 2332719697 2332719697 -5.00000000
8.20616913 3.66564155 -0.47102362 12 12 6593 9.00000000 2332719702 2332719702 -3.00000000
8.24944496 3.68324566 2.08574629 68 13 6594 9.27200000 2332719704 2332719704 13.00000000
8.19189453 3.65583563 -0.15658300 14 14 6595 8.97200000 2332719706 2332719706 -1.00000000
7.11657286 3.17594671 2.08815217 38 15 6595 8.06800000 2332719709 2332719709 15.00000000
2.06886768 0.91982156 -0.60667187 4 0 6603 2.34400000 2332719729 2332719729 -15.00000000
8.19579983 3.64215112 0.15654808 12 1 6604 8.97000000 2332719732 2332719732 1.00000000
8.18704414 3.63654947 -2.06820011 8 2 6605 9.19400000 2332719734 2332719734 -13.00000000
8.21263981 3.64620233 0.47091892 13 3 6606 8.99800000 2332719736 2332719736 3.00000000
2.93556857 1.30331755 -0.62432700 5 4 6606 3.27200000 2332719738 2332719738 -11.00000000
8.20235634 3.63992310 0.78509891 82 5 6607 9.00800000 2332719741 2332719741 5.00000000
3.69991302 1.64112115 -0.64106846 6 6 6608 4.09800000 2332719743 2332719743 -9.00000000
8.21713448 3.64304852 1.10364878 99 7 6609 9.05600000 2332719745 2332719745 7.00000000
5.00724983 2.21890759 -0.67247504 9 8 6610 5.51800000 2332719748 2332719748 -7.00000000
7.66749620 3.39616585 -0.73367703 13 10 6611 8.41800000 2332719752 2332719752 -5.00000000
8.19882393 3.62808394 -0.46987221 17 12 6613 8.97800000 2332719757 2332719757 -3.00000000
8.25155926 3.64969778 2.08304667 70 13 6614 9.26000000 2332719759 2332719759 13.00000000
8.18997383 3.62074971 -0.15630375 18 14 6615 8.95600000 2332719762 2332719762 -1.00000000
7.11579609 3.14437604 2.08452868 45 15 6616 8.05400000 2332719764 2332719764 15.00000000
2.07222509 0.91223258 -0.60667187 4 0 6624 2.34400000 2332719785 2332719785 -15.00000000
8.19445038 3.60564470 0.15626885 12 1 6625 8.95400000 2332719787 2332719787 1.00000000
8.18247986 3.59867263 -2.06370091 8 2 6626 9.17400000 2332719789 2332719789 -13.00000000
8.22046280 3.61366582 0.47060493 13 3 6627 8.99200000 2332719791 2332719791 3.00000000
2.94751477 1.29570973 -0.62585348 5 4 6627 3.28000000 2332719794 2332719794 -11.00000000
8.21016979 3.60743117 0.78457600 97 5 6628 9.00200000 2332719796 2332719796 5.00000000
3.70771194 1.62834358 -0.64138132 6 6 6629 4.10000000 2332719798 2332719798 -9.00000000
8.21043682 3.60412979 1.10096765 95 7 6630 9.03400000 2332719801 2332719801 7.00000000
5.02262020 2.20373058 -0.67344999 9 8 6631 5.52600000 2332719803 2332719803 -7.00000000
7.68171692 3.36884046 -0.73385137 13 10 6632 8.42000000 2332719808 2332719808 -5.00000000
8.20840740 3.59640622 -0.46966287 17 12 6634 8.97400000 2332719812 2332719812 -3.00000000
8.26130962 3.61786628 2.08214688 64 13 6635 9.25600000 2332719815 2332719815 13.00000000
8.19036674 3.58509469 -0.15605941 20 14 6636 8.94200000 2332719817 2332719817 -1.00000000
7.13026810 3.12106752 2.08556390 42 15 6636 8.05800000 2332719819 2332719819 15.00000000
2.08247995 0.90808237 -0.60874242 4 0 6644 2.35200000 2332719840 2332719840 -15.00000000
8.18682194 3.56822991 0.15588489 15 1 6645 8.93200000 2332719842 2332719842 1.00000000
8.17712593 3.56230545 -2.05920196 8 2 6646 9.15400000 2332719844 2332719844 -13.00000000
8.20189667 3.57139397 0.46882549 13 3 6647 8.95800000 2332719847 2332719847 3.00000000
2.96281981 1.29011583 -0.62814319 6 4 6647 3.29200000 2332719849 2332719849 -11.00000000
8.19348240 3.56602859 0.78178704 78 5 6648 8.97000000 2332719851 2332719851 5.00000000
3.72605300 1.62090731 -0.64357138 6 6 6649 4.11400000 2332719854 2332719854 -9.00000000
8.20476341 3.56753254 1.09853029 97 7 6650 9.01400000 2332719856 2332719856 7.00000000
5.03210258 2.18697619 -0.67369372 9 8 6651 5.52800000 2332719858 2332719858 -7.00000000
7.69891214 3.34438705 -0.73437428 13 10 6652 8.42600000 2332719863 2332719863 -5.00000000
8.18610001 3.55262423 -0.46767411 17 12 6654 8.93600000 2332719867 2332719867 -3.00000000
8.25958633 3.58280301 2.07854772 64 13 6655 9.24000000 2332719870 2332719870 13.00000000
8.19549274 3.55330133 -0.15591981 18 14 6656 8.93400000 2332719872 2332719872 -1.00000000
7.14697742 3.09721708 2.08711672 45 15 6657 8.06400000 2332719874 2332719874 15.00000000
2.09080005 0.90347052 -0.61029530 4 0 6663 2.35800000 2332719895 2332719895 -15.00000000
8.19493866 3.53947616 0.15581508 15 1 6664 8.92800000 2332719897 2332719897 1.00000000
8.18173695 3.53207994 -2.05740237 8 2 6665 9.14600000 2332719900 2332719900 -13.00000000
8.19168949 3.53468037 0.46756944 10 3 6666 8.93400000 2332719902 2332719902 3.00000000
2.95266080 1.27406108 -0.62509024 6 4 6666 3.27600000 2332719904 2332719904 -11.00000000
8.19977379 3.53647137 0.78126407 78 5 6667 8.96400000 2332719907 2332719907 5.00000000
3.73140764 1.60854232 -0.64357138 6 6 6668 4.11400000 2332719909 2332719909 -9.00000000
8.21290207 3.53873396 1.09804273 92 7 6669 9.01000000 2332719911 2332719911 7.00000000
5.02656460 2.16478086 -0.67198753 9 8 6670 5.51400000 2332719914 2332719914 -7.00000000
7.70446968 3.31647491 -0.73385137 13 10 6671 8.42000000 2332719918 2332719918 -5.00000000
8.18682766 3.52072430 -0.46704608 17 12 6673 8.92400000 2332719923 2332719923 -3.00000000
8.25351810 3.54769778 2.07404876 66 13 6674 9.22000000 2332719925 2332719925 13.00000000
8.19069481 3.51900029 -0.15560566 18 14 6675 8.91600000 2332719927 2332719927 -1.00000000
7.16022205 3.07627416 2.08815217 45 15 6675 8.06800000 2332719930 2332719930 15.00000000
2.08683681 0.89312631 -0.60822475 4 0 6683 2.35000000 2332719950 2332719950 -15.00000000
8.19988918 3.50770283 0.15567547 18 1 6684 8.92000000 2332719953 2332719953 1.00000000
8.17788982 3.49660373 -2.05335331 8 2 6685 9.12800000 2332719955 2332719955 -13.00000000
8.20030403 3.50449467 0.46736008 10 3 6686 8.93000000 2332719957 2332719957 3.00000000
2.95167422 1.26143205 -0.62394542 6 4 6686 3.27000000 2332719960 2332719960 -11.00000000
8.18824959 3.49765301 0.77899802 75 5 6687 8.93800000 2332719962 2332719962 5.00000000
3.74063325 1.59705877 -0.64419711 6 6 6688 4.11800000 2332719964 2332719964 -9.00000000
8.21607590 3.50614834 1.09682405 99 7 6689 9.00000000 2332719967 2332719967 7.00000000
5.04869795 2.15345216 -0.67393744 6 8 6690 5.53000000 2332719969 2332719969 -7.00000000
7.70500278 3.28487301 -0.73280549 13 10 6691 8.40800000 2332719973 2332719973 -5.00000000
8.19539165 3.49056029 -0.46683672 17 12 6693 8.92000000 2332719978 2332719978 -3.00000000
8.26226521 3.51733947 2.07314897 64 13 6694 9.21600000 2332719980 2332719980 13.00000000
8.18452835 3.48255849 -0.15525661 18 14 6695 8.89600000 2332719983 2332719983 -1.00000000
7.16256046 3.04622960 2.08556390 42 15 6696 8.05800000 2332719985 2332719985 15.00000000
2.08104825 0.88206697 -0.60563654 4 0 6703 2.34000000 2332720006 2332720006 -15.00000000
8.19551182 3.47203803 0.15536132 15 1 6704 8.90200000 2332720008 2332720008 1.00000000
2.48716116 1.05317664 -0.62356430 4 2 6705 2.77200000 2332720010 2332720010 -13.00000000
8.20513058 3.47273517 0.46694142 10 3 6706 8.92200000 2332720013 2332720013 3.00000000
2.95967555 1.25265157 -0.62470865 6 4 6706 3.27400000 2332720015 2332720015 -11.00000000
8.18389416 3.46206307 0.77742922 75 5 6707 8.92000000 2332720017 2332720017 5.00000000
3.72435212 1.57476020 -0.64044273 6 6 6708 4.09400000 2332720020 2332720020 -9.00000000
8.21546459 3.47203803 1.09511793 92 7 6709 8.98600000 2332720022 2332720022 7.00000000
5.05984163 2.13736081 -0.67442495 6 8 6710 5.53400000 2332720024 2332720024 -7.00000000
7.71458673 3.25718236 -0.73263115 13 10 6711 8.40600000 2332720029 2332720029 -5.00000000
8.19096470 3.45494580 -0.46589467 17 12 6713 8.90200000 2332720033 2332720033 -3.00000000
8.26731014 3.48544908 2.07134938 66 13 6714 9.20800000 2332720036 2332720036 13.00000000
8.18742085 3.45008516 -0.15508208 18 14 6715 8.88600000 2332720038 2332720038 -1.00000000
7.16906214 3.02096057 2.08452868 42 15 6715 8.05400000 2332720040 2332720040 15.00000000
2.09123993 0.87778813 -0.60770714 4 0 6723 2.34800000 2332720061 2332720061 -15.00000000
8.18729782 3.43489933 0.15497737 15 1 6724 8.88000000 2332720063 2332720063 1.00000000
2.48003936 1.03996682 -0.62086493 4 2 6725 2.76000000 2332720066 2332720066 -13.00000000
8.20799255 3.44021249 0.46641803 10 3 6726 8.91200000 2332720068 2332720068 3.00000000
2.96584082 1.24307156 -0.62509024 6 4 6726 3.27600000 2332720070 2332720070 -11.00000000
8.19776726 3.43424463 0.77760351 86 5 6727 8.92200000 2332720073 2332720073 5.00000000
3.72982645 1.56175017 -0.64044273 6 6 6728 4.09400000 2332720075 2332720075 -9.00000000
8.21654701 3.43874145 1.09365547 92 7 6729 8.97400000 2332720077 2332720077 7.00000000
5.06360865 2.11815333 -0.67393744 6 8 6730 5.53000000 2332720079 2332720079 -7.00000000
7.73326206 3.23330784 -0.73332840 13 10 6731 8.41400000 2332720084 2332720084 -5.00000000
8.19007397 3.42094445 -0.46516198 17 12 6733 8.88800000 2332720089 2332720089 -3.00000000
8.26863670 3.45206499 2.06865001 66 13 6734 9.19600000 2332720091 2332720091 13.00000000
8.19387722 3.41917443 -0.15497737 18 14 6735 8.88000000 2332720093 2332720093 -1.00000000
7.18186951 2.99540806 2.08504629 40 15 6736 8.05600000 2332720096 2332720096 15.00000000
2.09429121 0.87048298 -0.60770714 4 0 6743 2.34800000 2332720116 2332720116 -15.00000000
8.19185162 3.40323067 0.15483776 15 1 6744 8.87200000 2332720119 2332720119 1.00000000
2.47645545 1.02831423 -0.61906528 4 2 6745 2.75200000 2332720121 2332720121 -13.00000000
8.20334816 3.40464973 0.46547601 13 3 6746 8.89400000 2332720123 2332720123 3.00000000
2.98285484 1.23797929 -0.62776160 6 4 6746 3.29000000 2332720126 2332720126 -11.00000000
8.20050335 3.40179110 0.77673197 82 5 6747 8.91200000 2332720128 2332720128 5.00000000
3.74802852 1.55401719 -0.64263278 6 6 6748 4.10800000 2332720130 2332720130 -9.00000000
8.21016216 3.40243959 1.09121811 92 7 6749 8.95400000 2332720132 2332720132 7.00000000
5.04896402 2.09134936 -0.67101258 6 8 6750 5.50600000 2332720135 2332720135 -7.00000000
7.74634218 3.20705628 -0.73350275 13 10 6751 8.41600000 2332720139 2332720139 -5.00000000
8.18535423 3.38546467 -0.46421993 17 12 6753 8.87000000 2332720144 2332720144 -3.00000000
8.26622868 3.41722488 2.06505060 68 13 6754 9.18000000 2332720146 2332720146 13.00000000
8.19282532 3.38520622 -0.15473303 16 14 6755 8.86600000 2332720149 2332720149 -1.00000000
7.20069027 2.97526431 2.08763433 42 15 6755 8.06600000 2332720151 2332720151 15.00000000
2.10803580 0.86757863 -0.61081296 4 0 6763 2.36000000 2332720172 2332720172 -15.00000000
8.19073582 3.36928988 0.15459342 12 1 6764 8.85800000 2332720174 2332720174 1.00000000
2.46561122 1.01373529 -0.61546606 4 2 6765 2.73600000 2332720176 2332720176 -13.00000000
8.18932056 3.36536574 0.46401060 10 3 6766 8.86600000 2332720179 2332720179 3.00000000
2.97081494 1.22084355 -0.62432700 6 4 6766 3.27200000 2332720181 2332720181 -11.00000000
8.20864105 3.37163138 0.77638334 82 5 6767 8.90800000 2332720183 2332720183 5.00000000
3.76439452 1.54542589 -0.64450997 6 6 6768 4.12000000 2332720185 2332720185 -9.00000000
8.21647930 3.37149930 1.09048688 90 7 6769 8.94800000 2332720188 2332720188 7.00000000
5.04888678 2.07069945 -0.67003763 6 8 6770 5.49800000 2332720190 2332720190 -7.00000000
7.77223778 3.18604255 -0.73489720 13 10 6771 8.43200000 2332720195 2332720195 -5.00000000
8.18233585 3.35081673 -0.46338254 17 12 6773 8.85400000 2332720199 2332720199 -3.00000000
8.26007175 3.38096762 2.06055164 68 13 6774 9.16000000 2332720202 2332720202 13.00000000
8.18978596 3.35052991 -0.15445380 16 14 6775 8.85000000 2332720204 2332720204 -1.00000000
7.20924425 2.94937968 2.08711672 40 15 6775 8.06400000 2332720206 2332720206 15.00000000
2.10359597 0.85803330 -0.60874242 4 0 6781 2.35200000 2332720227 2332720227 -15.00000000
8.19387341 3.34052157 0.15445380 12 1 6782 8.85000000 2332720229 2332720229 1.00000000
2.49043965 1.01480877 -0.62086493 4 2 6783 2.76000000 2332720232 2332720232 -13.00000000
8.19985199 3.33962178 0.46401060 13 3 6784 8.86600000 2332720234 2332720234 3.00000000
2.96918082 1.20928288 -0.62318218 8 4 6784 3.26600000 2332720236 2332720236 -11.00000000
8.19335842 3.33530974 0.77394301 75 5 6785 8.88000000 2332720238 2332720238 5.00000000
3.76923084 1.53359210 -0.64450997 6 6 6786 4.12000000 2332720241 2332720241 -9.00000000
8.21415901 3.34043527 1.08878076 92 7 6787 8.93400000 2332720243 2332720243 7.00000000
5.06640100 2.05931258 -0.67150009 6 8 6788 5.51000000 2332720245 2332720245 -7.00000000
7.76928759 3.15636039 -0.73367703 13 10 6789 8.41800000 2332720250 2332720250 -5.00000000
8.19097137 3.32434344 -0.46327788 17 12 6791 8.85200000 2332720255 2332720255 -3.00000000
8.26704121 3.35353613 2.05965185 70 13 6792 9.15600000 2332720257 2332720257 13.00000000
8.18173981 3.31727076 -0.15410475 16 14 6793 8.83000000 2332720259 2332720259 -1.00000000
7.21310329 2.92453885 2.08556390 40 15 6793 8.05800000 2332720261 2332720261 15.00000000
2.09583020 0.84634495 -0.60563654 4 0 6801 2.34000000 2332720282 2332720282 -15.00000000
8.18694019 3.30441475 0.15410475 12 1 6802 8.83000000 2332720285 2332720285 1.00000000
2.50119567 1.00902557 -0.62266451 4 2 6803 2.76800000 2332720287 2332720287 -13.00000000
8.20405006 3.30799103 0.46359190 10 3 6804 8.85800000 2332720289 2332720289 3.00000000
2.98248792 1.20258200 -0.62509024 6 4 6804 3.27600000 2332720291 2332720291 -11.00000000
8.19016743 3.30073118 0.77254850 78 5 6805 8.86400000 2332720294 2332720294 5.00000000
3.75807047 1.51378310 -0.64169419 6 6 6806 4.10200000 2332720296 2332720296 -9.00000000
8.21103764 3.30581093 1.08683085 95 7 6807 8.91800000 2332720298 2332720298 7.00000000
5.07355833 2.04161501 -0.67150009 6 8 6808 5.51000000 2332720301 2332720301 -7.00000000
7.78765202 3.13219500 -0.73437428 13 10 6809 8.42600000 2332720305 2332720305 -5.00000000
8.18955326 3.29051900 -0.46254519 12 12 6811 8.83800000 2332720310 2332720310 -3.00000000
8.27869701 3.32465839 2.05965185 64 13 6812 9.15600000 2332720312 2332720312 13.00000000
8.18399048 3.28496647 -0.15393023 18 14 6813 8.82000000 2332720314 2332720314 -1.00000000
7.21839476 2.89592409 2.08401084 40 15 6814 8.05200000 2332720317 2332720317 15.00000000
2.10774088 0.84260952 -0.60822475 4 0 6821 2.35000000 2332720338 2332720338 -15.00000000
8.17985535 3.26839733 0.15375569 12 1 6822 8.81000000 2332720340 2332720340 1.00000000
2.50108314 0.99884313 -0.62176472 4 2 6823 2.76400000 2332720342 2332720342 -13.00000000
8.20627308 3.27563119 0.46306854 10 3 6824 8.84800000 2332720344 2332720344 3.00000000
2.99031425 1.19361949 -0.62585348 6 4 6824 3.28000000 2332720347 2332720347 -11.00000000
8.19053555 3.26769233 0.77150261 78 5 6825 8.85200000 2332720349 2332720349 5.00000000
3.74498296 1.49333906 -0.63856548 6 6 6826 4.08200000 2332720351 2332720351 -9.00000000
8.20408630 3.26977944 1.08439338 95 7 6827 8.89800000 2332720354 2332720354 7.00000000
5.08065414 2.02389240 -0.67150009 6 8 6828 5.51000000 2332720356 2332720356 -7.00000000
7.78187847 3.09835887 -0.73280549 13 10 6829 8.40800000 2332720361 2332720361 -5.00000000
8.18614292 3.25600696 -0.46170780 12 12 6831 8.82200000 2332720365 2332720365 -3.00000000
8.28300762 3.29286051 2.05785227 64 13 6832 9.14800000 2332720367 2332720367 13.00000000
8.18797398 3.25342536 -0.15379061 18 14 6833 8.81200000 2332720370 2332720370 -1.00000000
7.22975397 2.87268448 2.08452868 42 15 6833 8.05400000 2332720372 2332720372 15.00000000
2.11246562 0.83595788 -0.60874242 4 0 6841 2.35200000 2332720393 2332720393 -15.00000000
8.17819786 3.23467588 0.15351136 15 1 6842 8.79600000 2332720395 2332720395 1.00000000
2.49911785 0.98795736 -0.62041503 4 2 6843 2.75800000 2332720397 2332720397 -13.00000000
8.20093918 3.24036050 0.46212649 13 3 6844 8.83000000 2332720400 2332720400 3.00000000
2.99811435 1.18461692 -0.62661672 6 4 6844 3.28400000 2332720402 2332720402 -11.00000000
8.19262695 3.23542309 0.77063107 86 5 6845 8.84200000 2332720404 2332720404 5.00000000
3.75935984 1.48388386 -0.64012980 6 6 6846 4.09200000 2332720407 2332720407 -9.00000000
8.18590450 3.22946596 1.08049357 97 7 6847 8.86600000 2332720409 2332720409 7.00000000
5.09507465 2.00905800 -0.67247504 6 8 6848 5.51800000 2332720411 2332720411 -7.00000000
7.81303644 3.07921219 -0.73472291 13 10 6849 8.43000000 2332720416 2332720416 -5.00000000
8.18073273 3.22082710 -0.46076575 17 12 6851 8.80400000 2332720420 2332720420 -3.00000000
8.28357124 3.25964570 2.05515289 62 13 6852 9.13600000 2332720423 2332720423 13.00000000
8.19369793 3.22262859 -0.15368590 16 14 6853 8.80600000 2332720425 2332720425 -1.00000000
7.24333286 2.84884453 2.08556390 40 15 6853 8.05800000 2332720427 2332720427 15.00000000
2.11162877 0.82753831 -0.60770714 4 0 6860 2.34800000 2332720448 2332720448 -15.00000000
8.18329334 3.20535016 0.15340665 15 1 6861 8.79000000 2332720450 2332720450 1.00000000
2.50238013 0.97966456 -0.62041503 4 2 6862 2.75800000 2332720453 2332720453 -13.00000000
8.19062042 3.20657134 0.46097511 13 3 6862 8.80800000 2332720455 2332720455 3.00000000
3.00019789 1.17395294 -0.62623513 5 4 6863 3.28200000 2332720457 2332720457 -11.00000000
8.20145512 3.20751190 0.77045679 82 5 6864 8.84000000 2332720460 2332720460 5.00000000
3.76793957 1.47284746 -0.64075559 6 6 6865 4.09600000 2332720462 2332720462 -9.00000000
8.20026684 3.20374751 1.08098114 97 7 6866 8.87000000 2332720464 2332720464 7.00000000
5.09431267 1.98926294 -0.67150009 9 8 6867 5.51000000 2332720466 2332720466 -7.00000000
7.82506037 3.05401063 -0.73489720 13 10 6868 8.43200000 2332720471 2332720471 -5.00000000
8.18764687 3.19222999 -0.46055642 17 12 6870 8.80000000 2332720476 2332720476 -3.00000000
8.28344059 3.22791314 2.05245352 62 13 6871 9.12400000 2332720478 2332720478 13.00000000
8.19129562 3.19035935 -0.15344156 14 14 6872 8.79200000 2332720480 2332720480 -1.00000000
7.25634050 2.82621145 2.08659911 40 15 6872 8.06200000 2332720483 2332720483 15.00000000
2.11090231 0.81876510 -0.60667187 4 0 6880 2.34400000 2332720503 2332720503 -15.00000000
8.19070339 3.17532015 0.15333684 15 1 6881 8.78600000 2332720506 2332720506 1.00000000
2.51123595 0.97303587 -0.62176472 4 2 6882 2.76400000 2332720508 2332720508 -13.00000000
8.19300556 3.17292333 0.46045175 13 3 6883 8.79800000 2332720510 2332720510 3.00000000
2.99512386 1.15992808 -0.62432700 5 4 6883 3.27200000 2332720513 2332720513 -11.00000000
8.19402122 3.17167187 0.76871365 82 5 6884 8.82000000 2332720515 2332720515 5.00000000
3.77490020 1.46039867 -0.64106846 6 6 6885 4.09800000 2332720517 2332720517 -9.00000000
8.20214272 3.17152405 1.07976234 99 7 6886 8.86000000 2332720519 2332720519 7.00000000
5.10492849 1.97289956 -0.67198753 6 8 6887 5.51400000 2332720522 2332720522 -7.00000000
7.82080460 3.02093434 -0.73350275 13 10 6888 8.41600000 2332720526 2332720526 -5.00000000
8.19314957 3.16147327 -0.46024239 17 12 6890 8.79400000 2332720531 2332720531 -3.00000000
8.29829407 3.20038128 2.05335331 57 13 6891 9.12800000 2332720533 2332720533 13.00000000
8.17812634 3.15239692 -0.15298779 16 14 6892 8.76600000 2332720536 2332720536 -1.00000000
7.25583410 2.79542947 2.08349323 45 15 6893 8.05000000 2332720538 2332720538 15.00000000
2.10681558 0.80788708 -0.60460126 4 0 6902 2.33600000 2332720559 2332720559 -15.00000000
8.18229580 3.13597465 0.15295289 15 1 6903 8.76400000 2332720561 2332720561 1.00000000
2.50403476 0.95920372 -0.61906528 4 2 6904 2.75200000 2332720563 2332720563 -13.00000000
8.20271492 3.14215875 0.46034706 13 3 6904 8.79600000 2332720566 2332720566 3.00000000
2.99772191 1.14771724 -0.62394542 5 4 6905 3.27000000 2332720568 2332720568 -11.00000000
8.19311333 3.13520145 0.76749349 86 5 6906 8.80600000 2332720570 2332720570 5.00000000
3.78047991 1.44589341 -0.64106846 4 6 6907 4.09800000 2332720572 2332720572 -9.00000000
8.20128059 3.13504529 1.07805622 95 7 6908 8.84600000 2332720575 2332720575 7.00000000
5.11617517 1.95470047 -0.67247504 6 8 6909 5.51800000 2332720577 2332720577 -7.00000000
7.83420801 2.99159312 -0.73367703 13 10 6910 8.41800000 2332720582 2332720582 -5.00000000
8.19029999 3.12429595 -0.45940503 17 12 6912 8.77800000 2332720586 2332720586 -3.00000000
8.31780529 3.17127156 2.05515289 56 13 6913 9.13600000 2332720589 2332720589 13.00000000
8.18269539 3.11812377 -0.15284817 18 14 6914 8.75800000 2332720591 2332720591 -1.00000000
7.25519991 2.76468921 2.08038759 42 15 6914 8.03800000 2332720593 2332720593 15.00000000
2.11323524 0.80189872 -0.60563654 4 0 6922 2.34000000 2332720614 2332720614 -15.00000000
8.16888618 3.09817529 0.15249912 18 1 6923 8.73800000 2332720616 2332720616 1.00000000
2.50372338 0.94907570 -0.61816549 4 2 6924 2.74800000 2332720618 2332720618 -13.00000000
8.20616341 3.11067510 0.45992839 13 3 6924 8.78800000 2332720621 2332720621 3.00000000
3.00905371 1.14002848 -0.62547189 5 4 6925 3.27800000 2332720623 2332720623 -11.00000000
8.19469070 3.10305524 0.76662189 93 5 6926 8.79600000 2332720625 2332720625 5.00000000
3.78550386 1.43268824 -0.64106846 4 6 6927 4.09800000 2332720628 2332720628 -9.00000000
8.19731998 3.10077953 1.07610631 95 7 6928 8.83000000 2332720630 2332720630 7.00000000
5.12296724 1.93682981 -0.67247504 9 8 6929 5.51800000 2332720632 2332720632 -7.00000000
7.84646654 2.96493268 -0.73385137 13 10 6930 8.42000000 2332720637 2332720637 -5.00000000
8.18994427 3.09145546 -0.45877698 17 12 6932 8.76600000 2332720642 2332720642 -3.00000000
8.34158707 3.14703274 2.05830216 54 13 6933 9.15000000 2332720644 2332720644 13.00000000
8.18417454 3.08601403 -0.15267365 14 14 6934 8.74800000 2332720646 2332720646 -1.00000000
7.26842165 2.74071026 2.08142281 42 15 6934 8.04200000 2332720648 2332720648 15.00000000
2.12297726 0.79797471 -0.60770714 4 0 6940 2.34800000 2332720669 2332720669 -15.00000000
8.18232250 3.07390308 0.15256894 18 1 6941 8.74200000 2332720671 2332720671 1.00000000
2.51216578 0.94326037 -0.61951518 4 2 6942 2.75400000 2332720674 2332720674 -13.00000000
8.18838406 3.07291913 0.45835832 13 3 6943 8.75800000 2332720676 2332720676 3.00000000
3.01262021 1.13056958 -0.62547189 5 4 6943 3.27800000 2332720678 2332720678 -11.00000000
8.18014717 3.06819940 0.76435584 78 5 6944 8.77000000 2332720681 2332720681 5.00000000
3.78628683 1.41940188 -0.64044273 4 6 6945 4.09400000 2332720683 2332720683 -9.00000000
8.19215012 3.06943989 1.07415640 92 7 6946 8.81400000 2332720685 2332720685 7.00000000
5.11787224 1.91654897 -0.67101258 6 8 6947 5.50600000 2332720688 2332720688 -7.00000000
7.83894873 2.93398213 -0.73228258 13 10 6948 8.40200000 2332720692 2332720692 -5.00000000
8.17716599 3.05731726 -0.45752093 17 12 6950 8.74200000 2332720697 2332720697 -3.00000000
8.35143280 3.12081146 2.05830216 54 13 6951 9.15000000 2332720699 2332720699 13.00000000
8.18071556 3.05538988 -0.15242931 12 14 6952 8.73400000 2332720701 2332720701 -1.00000000
7.28108978 2.71794343 2.08245802 42 15 6953 8.04600000 2332720704 2332720704 15.00000000
2.12574983 0.79055923 -0.60770714 4 0 6960 2.34800000 2332720724 2332720724 -15.00000000
8.19300270 3.04532290 0.15256894 12 1 6961 8.74200000 2332720727 2332720727 1.00000000
2.50996280 0.93244958 -0.61816549 6 2 6962 2.74800000 2332720729 2332720729 -13.00000000
8.18916798 3.04227090 0.45783496 10 3 6962 8.74800000 2332720731 2332720731 3.00000000
3.01286745 1.11868000 -0.62470865 5 4 6963 3.27400000 2332720734 2332720734 -11.00000000
