# .PCD v0.7 - Point Cloud Data file format
VERSION 0.7
FIELDS x y z intensity laser_id azimuth distance_m adjustedtime timestamp vertical_angle
SIZE 4 4 4 1 1 2 8 8 4 8
TYPE F F F U U U F U U F
COUNT 1 1 1 1 1 1 1 1 1 1
WIDTH 533
HEIGHT 1
VIEWPOINT 0 0 0 1 0 0 0
POINTS 533
DATA ascii
8.13356972 0.61442149 1.00152230 97 7 8568 8.21800000 2332825195 2332825195 7.00000000
5.28718710 0.39847362 -0.65102601 9 8 8569 5.34200000 2332825197 2332825197 -7.00000000
6.62790155 0.49835443 -0.58150309 72 10 8570 6.67200000 2332825202 2332825202 -5.00000000
8.11812496 0.60755521 -0.42664272 17 12 8572 8.15200000 2332825206 2332825206 -3.00000000
8.12823963 0.60545903 -0.14227201 14 14 8574 8.15200000 2332825211 2332825211 -1.00000000
8.17805386 0.60916960 2.19737363 47 15 8574 8.49000000 2332825213 2332825213 15.00000000
2.24076700 0.16376528 -0.60201311 4 0 8582 2.32600000 2332825234 2332825234 -15.00000000
8.13316917 0.59298134 0.14234182 15 1 8583 8.15600000 2332825236 2332825236 1.00000000
2.61803722 0.19041914 -0.60601813 5 2 8584 2.69400000 2332825238 2332825238 -13.00000000
8.12545872 0.58956784 0.42695674 18 3 8585 8.15800000 2332825241 2332825241 3.00000000
3.14471936 0.22817485 -0.61287850 4 4 8585 3.21200000 2332825243 2332825243 -11.00000000
8.12760925 0.58829784 0.71293396 76 5 8586 8.18000000 2332825245 2332825245 5.00000000
3.97792888 0.28723511 -0.63168240 6 6 8587 4.03800000 2332825248 2332825248 -9.00000000
8.13566494 0.58602631 1.00152230 95 7 8588 8.21800000 2332825250 2332825250 7.00000000
5.28656578 0.37987319 -0.65078229 9 8 8589 5.34000000 2332825252 2332825252 -7.00000000
6.62165165 0.47464591 -0.58080590 48 10 8590 6.66400000 2332825257 2332825257 -5.00000000
8.12418079 0.57949817 -0.42685205 17 12 8592 8.15600000 2332825261 2332825261 -3.00000000
8.12232494 0.57651621 -0.14213240 14 14 8594 8.14400000 2332825266 2332825266 -1.00000000
8.18591118 0.58102947 2.19892669 56 15 8594 8.49600000 2332825268 2332825268 15.00000000
2.22585344 0.15564683 -0.59787202 4 0 8600 2.31000000 2332825289 2332825289 -15.00000000
8.13299751 0.56728816 0.14230692 18 1 8601 8.15400000 2332825291 2332825291 1.00000000
2.62639856 0.18273443 -0.60781777 6 2 8602 2.70200000 2332825294 2332825294 -13.00000000
8.13912678 0.56628829 0.42758477 21 3 8602 8.17000000 2332825296 2332825296 3.00000000
3.14542079 0.21829431 -0.61287850 4 4 8603 3.21200000 2332825298 2332825298 -11.00000000
8.12146664 0.56221098 0.71223670 76 5 8604 8.17200000 2332825301 2332825301 5.00000000
3.98275280 0.27500883 -0.63230813 6 6 8605 4.04200000 2332825303 2332825303 -9.00000000
8.14340782 0.56087369 1.00225353 99 7 8606 8.22400000 2332825305 2332825305 7.00000000
5.27386999 0.36231074 -0.64907610 8 8 8607 5.32600000 2332825307 2332825307 -7.00000000
8.23174572 0.56551445 1.30685353 2 9 8607 8.35400000 2332825310 2332825310 9.00000000
6.60720825 0.45275140 -0.57941139 20 10 8608 6.64800000 2332825312 2332825312 -5.00000000
8.22843456 0.56240118 1.60317719 3 11 8609 8.40200000 2332825314 2332825314 11.00000000
8.12795353 0.55410832 -0.42695674 17 12 8610 8.15800000 2332825317 2332825317 -3.00000000
8.21834660 0.55882967 1.90173626 5 13 8611 8.45400000 2332825319 2332825319 13.00000000
8.11013031 0.55004919 -0.14188807 16 14 8612 8.13000000 2332825321 2332825321 -1.00000000
8.17998695 0.55478698 2.19685602 54 15 8612 8.48800000 2332825324 2332825324 15.00000000
2.22252798 0.14762014 -0.59683675 4 0 8620 2.30600000 2332825344 2332825344 -15.00000000
8.11697006 0.53770566 0.14199278 18 1 8621 8.13600000 2332825347 2332825347 1.00000000
2.63285398 0.17395090 -0.60916746 6 2 8622 2.70800000 2332825349 2332825349 -13.00000000
8.14911938 0.53697836 0.42800346 23 3 8623 8.17800000 2332825351 2332825351 3.00000000
3.15791750 0.20808794 -0.61516821 4 4 8623 3.22400000 2332825354 2332825354 -11.00000000
8.11343956 0.53320509 0.71136516 76 5 8624 8.16200000 2332825356 2332825356 5.00000000
3.97974634 0.26084635 -0.63168240 9 6 8625 4.03800000 2332825358 2332825358 -9.00000000
8.14729691 0.53257394 1.00249720 97 7 8626 8.22600000 2332825360 2332825360 7.00000000
5.27906466 0.34415755 -0.64956361 8 8 8627 5.33000000 2332825363 2332825363 -7.00000000
8.22193623 0.53457081 1.30497634 7 9 8628 8.34200000 2332825365 2332825365 9.00000000
6.60874844 0.42968518 -0.57941139 24 10 8628 6.64800000 2332825367 2332825367 -5.00000000
8.13980389 0.52637750 -0.42748010 17 12 8630 8.16800000 2332825372 2332825372 -3.00000000
8.11998367 0.52224958 -0.14202769 16 14 8632 8.13800000 2332825377 2332825377 -1.00000000
8.17425346 0.52430749 2.19478559 54 15 8633 8.48000000 2332825379 2332825379 15.00000000
2.23079062 0.13956769 -0.59890729 4 0 8642 2.31400000 2332825400 2332825400 -15.00000000
8.10899639 0.50591224 0.14181826 18 1 8643 8.12600000 2332825402 2332825402 1.00000000
2.62183261 0.16311418 -0.60646802 6 2 8644 2.69600000 2332825404 2332825404 -13.00000000
8.14106560 0.50648665 0.42748010 21 3 8644 8.16800000 2332825407 2332825407 3.00000000
3.15085530 0.19547464 -0.61364174 4 4 8645 3.21600000 2332825409 2332825409 -11.00000000
8.12537003 0.50266296 0.71223670 83 5 8646 8.17200000 2332825411 2332825411 5.00000000
3.96888876 0.24483359 -0.62980515 9 6 8647 4.02600000 2332825413 2332825413 -9.00000000
8.13739300 0.50055546 1.00103474 95 7 8648 8.21400000 2332825416 2332825416 7.00000000
5.29619789 0.32485718 -0.65151352 9 8 8649 5.34600000 2332825418 2332825418 -7.00000000
6.60438347 0.40394142 -0.57888842 16 10 8650 6.64200000 2332825423 2332825423 -5.00000000
8.13379097 0.49463418 -0.42706141 17 12 8652 8.16000000 2332825427 2332825427 -3.00000000
8.11993217 0.49094662 -0.14199278 14 14 8654 8.13600000 2332825432 2332825432 -1.00000000
8.17226315 0.49411064 2.19375014 54 15 8654 8.47600000 2332825434 2332825434 15.00000000
2.22740722 0.13155213 -0.59787202 4 0 8662 2.31000000 2332825455 2332825455 -15.00000000
8.12668228 0.47854391 0.14209749 18 1 8663 8.14200000 2332825457 2332825457 1.00000000
2.62044072 0.15384707 -0.60601813 5 2 8664 2.69400000 2332825459 2332825459 -13.00000000
8.14079094 0.47794890 0.42737541 21 3 8664 8.16600000 2332825462 2332825462 3.00000000
3.15935802 0.18493381 -0.61516821 4 4 8665 3.22400000 2332825464 2332825464 -11.00000000
8.12309647 0.47406489 0.71188813 83 5 8666 8.16800000 2332825466 2332825466 5.00000000
3.97760749 0.23143706 -0.63105661 6 6 8667 4.03400000 2332825469 2332825469 -9.00000000
8.13116360 0.47168776 1.00005984 92 7 8668 8.20600000 2332825471 2332825471 7.00000000
5.28739071 0.30579495 -0.65029484 9 8 8669 5.33600000 2332825473 2332825473 -7.00000000
6.63360071 0.38249099 -0.58132881 44 10 8670 6.67000000 2332825478 2332825478 -5.00000000
8.11951637 0.46532473 -0.42622402 17 12 8672 8.14400000 2332825483 2332825483 -3.00000000
8.12758636 0.46294090 -0.14209749 16 14 8674 8.14200000 2332825487 2332825487 -1.00000000
8.18165302 0.46602052 2.19582081 49 15 8674 8.48400000 2332825489 2332825489 15.00000000
2.23938251 0.12520093 -0.60097784 4 0 8680 2.32200000 2332825510 2332825510 -15.00000000
8.12614918 0.45289958 0.14206259 15 1 8681 8.14000000 2332825512 2332825512 1.00000000
2.61701965 0.14539775 -0.60511833 5 2 8682 2.69000000 2332825515 2332825515 -13.00000000
8.13036537 0.45028776 0.42674738 15 3 8683 8.15400000 2332825517 2332825517 3.00000000
3.14816189 0.17435610 -0.61287850 4 4 8683 3.21200000 2332825519 2332825519 -11.00000000
8.11857796 0.44821364 0.71136516 79 5 8684 8.16200000 2332825522 2332825522 5.00000000
3.97239757 0.21861427 -0.63011801 9 6 8685 4.02800000 2332825524 2332825524 -9.00000000
8.13458824 0.44624943 1.00030363 90 7 8686 8.20800000 2332825526 2332825526 7.00000000
5.27048635 0.28820711 -0.64810115 8 8 8687 5.31800000 2332825529 2332825529 -7.00000000
8.20728016 0.44880047 1.30184758 7 9 8687 8.32200000 2332825531 2332825531 9.00000000
6.62681198 0.36121532 -0.58063155 56 10 8688 6.66200000 2332825533 2332825533 -5.00000000
8.11894321 0.43970627 -0.42611936 17 12 8690 8.14200000 2332825538 2332825538 -3.00000000
8.11502266 0.43665299 -0.14185315 14 14 8692 8.12800000 2332825542 2332825542 -1.00000000
8.19279957 0.43940395 2.19840908 58 15 8693 8.49400000 2332825545 2332825545 15.00000000
2.23401833 0.11707994 -0.59942490 4 0 8700 2.31600000 2332825565 2332825565 -15.00000000
8.12568378 0.42442694 0.14202769 18 1 8701 8.13800000 2332825568 2332825568 1.00000000
2.62334943 0.13656570 -0.60646802 6 2 8702 2.69600000 2332825570 2332825570 -13.00000000
8.13181400 0.42332402 0.42674738 13 3 8702 8.15400000 2332825572 2332825572 3.00000000
3.14875150 0.16336590 -0.61287850 4 4 8703 3.21200000 2332825575 2332825575 -11.00000000
8.12407207 0.42007756 0.71171379 76 5 8704 8.16600000 2332825577 2332825577 5.00000000
3.97313666 0.20474668 -0.63011801 9 6 8705 4.02800000 2332825579 2332825579 -9.00000000
8.13807869 0.41795349 1.00054729 90 7 8706 8.21000000 2332825582 2332825582 7.00000000
5.27740765 0.27011234 -0.64883238 4 8 8707 5.32400000 2332825584 2332825584 -7.00000000
8.20887089 0.41871628 1.30184758 10 9 8708 8.32200000 2332825586 2332825586 9.00000000
6.60813427 0.33706626 -0.57888842 68 10 8708 6.64200000 2332825589 2332825589 -5.00000000
8.12840748 0.41176736 -0.42653805 21 12 8710 8.15000000 2332825593 2332825593 -3.00000000
8.10850906 0.40792173 -0.14171354 18 14 8712 8.12000000 2332825598 2332825598 -1.00000000
8.18077660 0.41012597 2.19478559 49 15 8713 8.48000000 2332825600 2332825600 15.00000000
2.23250294 0.10879704 -0.59890729 4 0 8721 2.31400000 2332825621 2332825621 -15.00000000
8.11719799 0.39415705 0.14185315 15 1 8722 8.12800000 2332825623 2332825623 1.00000000
2.63161826 0.12732643 -0.60826766 6 2 8723 2.70400000 2332825625 2332825625 -13.00000000
8.13331127 0.39351660 0.42674738 18 3 8723 8.15400000 2332825628 2332825628 3.00000000
3.15128994 0.15191859 -0.61326009 5 4 8724 3.21400000 2332825630 2332825630 -11.00000000
8.10764694 0.38943821 0.71014500 76 5 8725 8.14800000 2332825632 2332825632 5.00000000
3.96991396 0.18999417 -0.62949228 9 6 8726 4.02400000 2332825635 2332825635 -9.00000000
8.14748669 0.38850135 1.00152230 92 7 8727 8.21800000 2332825637 2332825637 7.00000000
5.28827667 0.25123888 -0.65005106 6 8 8728 5.33400000 2332825639 2332825639 -7.00000000
8.21422863 0.39024690 1.30247331 10 9 8728 8.32600000 2332825642 2332825642 9.00000000
6.61330557 0.31303239 -0.57923704 76 10 8729 6.64600000 2332825644 2332825644 -5.00000000
8.13385296 0.38215998 -0.42674738 17 12 8731 8.15400000 2332825648 2332825648 -3.00000000
8.11594200 0.37847927 -0.14181826 16 14 8733 8.12600000 2332825653 2332825653 -1.00000000
8.16678715 0.37942192 2.19064450 51 15 8734 8.46400000 2332825655 2332825655 15.00000000
2.22707939 0.10074159 -0.59735435 4 0 8741 2.30800000 2332825676 2332825676 -15.00000000
8.11452866 0.36564031 0.14178336 21 1 8742 8.12400000 2332825678 2332825678 1.00000000
2.61841917 0.11752792 -0.60511833 6 2 8743 2.69000000 2332825681 2332825681 -13.00000000
8.14660645 0.36566100 0.42737541 15 3 8743 8.16600000 2332825683 2332825683 3.00000000
3.14983988 0.14082992 -0.61287850 5 4 8744 3.21200000 2332825685 2332825685 -11.00000000
8.11492825 0.36140078 0.71066791 76 5 8745 8.15400000 2332825688 2332825688 5.00000000
3.96660614 0.17596035 -0.62886655 9 6 8746 4.02000000 2332825690 2332825690 -9.00000000
8.14086056 0.35970843 1.00054729 92 7 8747 8.21000000 2332825692 2332825692 7.00000000
5.27722216 0.23225413 -0.64858866 6 8 8748 5.32200000 2332825695 2332825695 -7.00000000
8.22146130 0.36183208 1.30341196 10 9 8748 8.33200000 2332825697 2332825697 9.00000000
6.60838652 0.28968397 -0.57871413 68 10 8749 6.64000000 2332825699 2332825699 -5.00000000
8.11518288 0.35289750 -0.42570066 21 12 8751 8.13400000 2332825704 2332825704 -3.00000000
8.11721420 0.35014704 -0.14181826 18 14 8753 8.12600000 2332825708 2332825708 -1.00000000
8.17964268 0.35140970 2.19375014 51 15 8754 8.47600000 2332825711 2332825711 15.00000000
2.23706841 0.09336982 -0.59994256 4 0 8761 2.31800000 2332825731 2332825731 -15.00000000
8.11575603 0.33731309 0.14178336 21 1 8762 8.12400000 2332825734 2332825734 1.00000000
2.61297226 0.10814546 -0.60376865 6 2 8763 2.68400000 2332825736 2332825736 -13.00000000
8.13586044 0.33672625 0.42674738 15 3 8763 8.15400000 2332825738 2332825738 3.00000000
3.15815854 0.13015744 -0.61440498 5 4 8764 3.22000000 2332825741 2332825741 -11.00000000
8.12012196 0.33323559 0.71101654 79 5 8765 8.15800000 2332825743 2332825743 5.00000000
3.96324873 0.16195193 -0.62824082 9 6 8766 4.01600000 2332825745 2332825745 -9.00000000
8.12223244 0.33048230 0.99810994 90 7 8767 8.19000000 2332825747 2332825747 7.00000000
5.26609993 0.21334964 -0.64712620 6 8 8768 5.31000000 2332825750 2332825750 -7.00000000
8.22070026 0.33305165 1.30309904 10 9 8768 8.33000000 2332825752 2332825752 9.00000000
6.61532974 0.26685557 -0.57923704 52 10 8769 6.64600000 2332825754 2332825754 -5.00000000
8.11237431 0.32440847 -0.42549133 25 12 8771 8.13000000 2332825759 2332825759 -3.00000000
8.12038517 0.32188976 -0.14185315 18 14 8773 8.12800000 2332825764 2332825764 -1.00000000
8.18462372 0.32443616 2.19478559 56 15 8773 8.48000000 2332825766 2332825766 15.00000000
2.23931122 0.08563425 -0.60046017 4 0 8781 2.32000000 2332825787 2332825787 -15.00000000
8.11688423 0.30898175 0.14178336 15 1 8782 8.12400000 2332825789 2332825789 1.00000000
2.61722851 0.09917141 -0.60466844 6 2 8783 2.68800000 2332825791 2332825791 -13.00000000
8.11702728 0.30756849 0.42570066 13 3 8783 8.13400000 2332825794 2332825794 3.00000000
3.14486074 0.11861465 -0.61173362 5 4 8784 3.20600000 2332825796 2332825796 -11.00000000
8.13318157 0.30533752 0.71206242 90 5 8785 8.17000000 2332825798 2332825798 5.00000000
3.97563386 0.14855920 -0.63011801 9 6 8786 4.02800000 2332825800 2332825800 -9.00000000
8.13127136 0.30242351 0.99908489 92 7 8787 8.19800000 2332825803 2332825803 7.00000000
5.26879644 0.19503964 -0.64736998 4 8 8788 5.31200000 2332825805 2332825805 -7.00000000
8.20602036 0.30376944 1.30059612 10 9 8788 8.31400000 2332825807 2332825807 9.00000000
6.61622095 0.24376212 -0.57923704 44 10 8789 6.64600000 2332825810 2332825810 -5.00000000
8.10946560 0.29594332 -0.42528197 25 12 8791 8.12600000 2332825814 2332825814 -3.00000000
8.11746216 0.29339790 -0.14178336 18 14 8793 8.12400000 2332825819 2332825819 -1.00000000
8.18189621 0.29429695 2.19375014 54 15 8794 8.47600000 2332825821 2332825821 15.00000000
2.22801232 0.07741457 -0.59735435 4 0 8801 2.30800000 2332825842 2332825842 -15.00000000
8.12590694 0.28092301 0.14192297 18 1 8802 8.13200000 2332825844 2332825844 1.00000000
2.61950636 0.09010196 -0.60511833 6 2 8803 2.69000000 2332825847 2332825847 -13.00000000
8.12408829 0.27802098 0.42601469 10 3 8804 8.14000000 2332825849 2332825849 3.00000000
3.14917970 0.10777061 -0.61249685 5 4 8804 3.21000000 2332825851 2332825851 -11.00000000
8.11428547 0.27626762 0.71031928 76 5 8805 8.15000000 2332825853 2332825853 5.00000000
3.97810245 0.13474761 -0.63043088 6 6 8806 4.03000000 2332825856 2332825856 -9.00000000
8.13227749 0.27403823 0.99908489 95 7 8807 8.19800000 2332825858 2332825858 7.00000000
5.26944494 0.17664693 -0.64736998 4 8 8808 5.31200000 2332825860 2332825860 -7.00000000
8.20308208 0.27499086 1.29997039 10 9 8808 8.31000000 2332825863 2332825863 9.00000000
6.60508394 0.22026728 -0.57819122 44 10 8809 6.63400000 2332825865 2332825865 -5.00000000
8.11843395 0.26789770 -0.42570066 21 12 8811 8.13400000 2332825870 2332825870 -3.00000000
8.10444641 0.26460409 -0.14153902 20 14 8813 8.11000000 2332825874 2332825874 -1.00000000
8.18282700 0.26716319 2.19375014 60 15 8813 8.47600000 2332825877 2332825877 15.00000000
2.22440720 0.06951620 -0.59631908 4 0 8821 2.30400000 2332825897 2332825897 -15.00000000
8.12084198 0.25237027 0.14181826 18 1 8822 8.12600000 2332825900 2332825900 1.00000000
2.63149166 0.08131877 -0.60781777 5 2 8823 2.70200000 2332825902 2332825902 -13.00000000
8.13299465 0.24990627 0.42643338 13 3 8824 8.14800000 2332825904 2332825904 3.00000000
3.14953685 0.09677727 -0.61249685 5 4 8824 3.21000000 2332825906 2332825906 -11.00000000
8.10922527 0.24775925 0.70979637 83 5 8825 8.14400000 2332825909 2332825909 5.00000000
3.95880413 0.12026082 -0.62730223 6 6 8826 4.01000000 2332825911 2332825911 -9.00000000
8.14112091 0.24588934 1.00005984 95 7 8827 8.20600000 2332825913 2332825913 7.00000000
5.27002954 0.15825206 -0.64736998 4 8 8828 5.31200000 2332825916 2332825916 -7.00000000
8.20995808 0.24510005 1.30090904 10 9 8829 8.31600000 2332825918 2332825918 9.00000000
6.59983826 0.19703153 -0.57766825 20 10 8829 6.62800000 2332825920 2332825920 -5.00000000
8.12730503 0.23979306 -0.42611936 17 12 8831 8.14200000 2332825925 2332825925 -3.00000000
8.10731983 0.23637097 -0.14157392 20 14 8833 8.11200000 2332825930 2332825930 -1.00000000
8.18375111 0.23716982 2.19375014 54 15 8834 8.47600000 2332825932 2332825932 15.00000000
2.22462535 0.06213941 -0.59631908 4 0 8840 2.30400000 2332825953 2332825953 -15.00000000
8.10964012 0.22510627 0.14160882 18 1 8841 8.11400000 2332825955 2332825955 1.00000000
2.61421490 0.07210840 -0.60376865 6 2 8842 2.68400000 2332825957 2332825957 -13.00000000
8.13777161 0.22304437 0.42664272 10 3 8843 8.15200000 2332825959 2332825959 3.00000000
3.14984035 0.08633249 -0.61249685 5 4 8843 3.21000000 2332825962 2332825962 -11.00000000
8.11199474 0.22092097 0.70997065 79 5 8844 8.14600000 2332825964 2332825964 5.00000000
3.96707964 0.10734602 -0.62855369 6 6 8845 4.01800000 2332825966 2332825966 -9.00000000
8.13395405 0.21867765 0.99908489 92 7 8846 8.19800000 2332825969 2332825969 7.00000000
5.28044748 0.14104015 -0.64858866 6 8 8847 5.32200000 2332825971 2332825971 -7.00000000
8.21858692 0.21951751 1.30216050 10 9 8847 8.32400000 2332825973 2332825973 9.00000000
6.59647179 0.17503889 -0.57731962 16 10 8848 6.62400000 2332825976 2332825976 -5.00000000
8.10808945 0.21231779 -0.42507264 17 12 8850 8.12200000 2332825980 2332825980 -3.00000000
8.11405563 0.20963977 -0.14167863 18 14 8852 8.11800000 2332825985 2332825985 -1.00000000
8.17673111 0.21125910 2.19167972 49 15 8852 8.46800000 2332825987 2332825987 15.00000000
2.23255396 0.05456244 -0.59838963 4 0 8860 2.31200000 2332826008 2332826008 -15.00000000
8.11637402 0.19694249 0.14171354 15 1 8861 8.12000000 2332826010 2332826010 1.00000000
2.61834717 0.06307651 -0.60466844 6 2 8862 2.68800000 2332826012 2332826012 -13.00000000
8.12452412 0.19430262 0.42591003 13 3 8863 8.13800000 2332826015 2332826015 3.00000000
3.16582417 0.07571248 -0.61554980 5 4 8863 3.22600000 2332826017 2332826017 -11.00000000
8.11669922 0.19269805 0.71031928 79 5 8864 8.15000000 2332826019 2332826019 5.00000000
3.96348047 0.09340460 -0.62792796 6 6 8865 4.01400000 2332826022 2332826022 -9.00000000
8.12871456 0.19014427 0.99835366 90 7 8866 8.19200000 2332826024 2332826024 7.00000000
5.26106215 0.12214633 -0.64615124 6 8 8867 5.30200000 2332826026 2332826026 -7.00000000
8.21736145 0.18934791 1.30184758 10 9 8868 8.32200000 2332826029 2332826029 9.00000000
6.62094498 0.15256262 -0.57941139 40 10 8868 6.64800000 2332826031 2332826031 -5.00000000
8.10079479 0.18383275 -0.42465395 29 12 8870 8.11400000 2332826035 2332826035 -3.00000000
8.11673737 0.18135983 -0.14171354 14 14 8872 8.12000000 2332826040 2332826040 -1.00000000
8.17551899 0.18124564 2.19116211 49 15 8873 8.46600000 2332826042 2332826042 15.00000000
2.24044824 0.04732190 -0.60046017 4 0 8879 2.32000000 2332826063 2332826063 -15.00000000
8.10898590 0.16985904 0.14157392 15 1 8880 8.11200000 2332826065 2332826065 1.00000000
2.61854196 0.05439341 -0.60466844 6 2 8881 2.68800000 2332826068 2332826068 -13.00000000
8.11114597 0.16707174 0.42517731 13 3 8882 8.12400000 2332826070 2332826070 3.00000000
3.15035510 0.06489038 -0.61249685 5 4 8882 3.21000000 2332826072 2332826072 -11.00000000
8.11330986 0.16569968 0.70997065 76 5 8883 8.14600000 2332826075 2332826075 5.00000000
3.95981860 0.08018073 -0.62730223 9 6 8884 4.01000000 2332826077 2332826077 -9.00000000
8.12731552 0.16314758 0.99810994 92 7 8885 8.19000000 2332826079 2332826079 7.00000000
5.25746870 0.10462037 -0.64566380 6 8 8886 5.29800000 2332826082 2332826082 -7.00000000
8.20804024 0.16333491 1.30028331 10 9 8886 8.31200000 2332826084 2332826084 9.00000000
6.61942244 0.13056664 -0.57923704 76 10 8887 6.64600000 2332826086 2332826086 -5.00000000
8.11134434 0.15716198 -0.42517731 17 12 8889 8.12400000 2332826091 2332826091 -3.00000000
8.10929680 0.15429060 -0.14157392 20 14 8891 8.11200000 2332826095 2332826095 -1.00000000
8.17797947 0.15559739 2.19167972 51 15 8891 8.46800000 2332826098 2332826098 15.00000000
2.23287344 0.03936478 -0.59838963 4 0 8899 2.31200000 2332826118 2332826118 -15.00000000
8.12352467 0.14179665 0.14181826 18 1 8900 8.12600000 2332826121 2332826121 1.00000000
2.63040638 0.04545468 -0.60736787 6 2 8901 2.70000000 2332826123 2332826123 -13.00000000
8.12166405 0.13892834 0.42570066 13 3 8902 8.13400000 2332826125 2332826125 3.00000000
3.13878465 0.05369172 -0.61020714 5 4 8902 3.19800000 2332826128 2332826128 -11.00000000
8.12379932 0.13754658 0.71084225 83 5 8903 8.15600000 2332826130 2332826130 5.00000000
3.97390008 0.06658956 -0.62949228 9 6 8904 4.02400000 2332826132 2332826132 -9.00000000
8.13180542 0.13484280 0.99859738 90 7 8905 8.19400000 2332826135 2332826135 7.00000000
5.26574135 0.08639800 -0.64663875 6 8 8906 5.30600000 2332826137 2332826137 -7.00000000
8.20858383 0.13324985 1.30028331 10 9 8907 8.31200000 2332826139 2332826139 9.00000000
6.61186934 0.10733040 -0.57853985 100 10 8907 6.63800000 2332826141 2332826141 -5.00000000
8.11783409 0.12894231 -0.42549133 17 12 8909 8.13000000 2332826146 2332826146 -3.00000000
8.10578728 0.12592080 -0.14150411 18 14 8911 8.10800000 2332826151 2332826151 -1.00000000
8.18235874 0.12568189 2.19271493 49 15 8912 8.47200000 2332826153 2332826153 15.00000000
2.21368623 0.03091090 -0.59321326 4 0 8920 2.29200000 2332826174 2332826174 -15.00000000
8.11799145 0.11193878 0.14171354 15 1 8921 8.12000000 2332826176 2332826176 1.00000000
2.62860680 0.03578693 -0.60691792 7 2 8922 2.69800000 2332826178 2332826178 -13.00000000
8.12810993 0.10924054 0.42601469 15 3 8923 8.14000000 2332826181 2332826181 3.00000000
3.14288640 0.04223990 -0.61097038 5 4 8923 3.20200000 2332826183 2332826183 -11.00000000
8.10034275 0.10745332 0.70875049 76 5 8924 8.13200000 2332826185 2332826185 5.00000000
3.97016692 0.05197233 -0.62886655 9 6 8925 4.02000000 2332826188 2332826188 -9.00000000
8.13025951 0.10501169 0.99835366 87 7 8926 8.19200000 2332826190 2332826190 7.00000000
5.26602221 0.06709751 -0.64663875 8 8 8927 5.30600000 2332826192 2332826192 -7.00000000
8.20702362 0.10457056 1.29997039 10 9 8927 8.31000000 2332826194 2332826194 9.00000000
6.59628057 0.08289567 -0.57714534 44 10 8928 6.62200000 2332826197 2332826197 -5.00000000
8.12823772 0.09931010 -0.42601469 17 12 8930 8.14000000 2332826201 2332826201 -3.00000000
8.10619450 0.09621076 -0.14150411 20 14 8932 8.10800000 2332826206 2332826206 -1.00000000
8.16536140 0.09691302 2.18805623 49 15 8932 8.45400000 2332826208 2332826208 15.00000000
2.22923446 0.02334534 -0.59735435 4 0 8940 2.30800000 2332826229 2332826229 -15.00000000
8.11233425 0.08353925 0.14160882 18 1 8941 8.11400000 2332826231 2332826231 1.00000000
2.61897254 0.02651253 -0.60466844 6 2 8942 2.68800000 2332826234 2332826234 -13.00000000
8.12844181 0.08086747 0.42601469 15 3 8943 8.14000000 2332826236 2332826236 3.00000000
3.15086722 0.03134705 -0.61249685 5 4 8943 3.21000000 2332826238 2332826238 -11.00000000
8.11859894 0.07935245 0.71031928 76 5 8944 8.15000000 2332826241 2332826241 5.00000000
3.94069481 0.03782912 -0.62417352 2 6 8945 3.99000000 2332826243 2332826243 -9.00000000
8.12859154 0.07661244 0.99810994 90 7 8946 8.19000000 2332826245 2332826245 7.00000000
5.26622438 0.04871526 -0.64663875 8 8 8947 5.30600000 2332826247 2332826247 -7.00000000
8.21525288 0.07456132 1.30122185 10 9 8948 8.31800000 2332826250 2332826250 9.00000000
6.60051441 0.05990601 -0.57749397 28 10 8948 6.62600000 2332826252 2332826252 -5.00000000
8.11255741 0.07079721 -0.42517731 17 12 8950 8.12400000 2332826257 2332826257 -3.00000000
8.11048031 0.06794779 -0.14157392 18 14 8952 8.11200000 2332826261 2332826261 -1.00000000
8.16952610 0.06701651 2.18909144 49 15 8953 8.45800000 2332826264 2332826264 15.00000000
2.22929978 0.01595281 -0.59735435 4 0 8959 2.30800000 2332826284 2332826284 -15.00000000
8.10656738 0.05659544 0.14150411 15 1 8960 8.10800000 2332826287 2332826287 1.00000000
2.61319995 0.01778776 -0.60331875 7 2 8961 2.68200000 2332826289 2332826289 -13.00000000
8.12666798 0.05389890 0.42591003 13 3 8962 8.13800000 2332826291 2332826291 3.00000000
3.15095401 0.02089822 -0.61249685 5 4 8962 3.21000000 2332826294 2332826294 -11.00000000
8.11284065 0.05239117 0.70979637 76 5 8963 8.14400000 2332826296 2332826296 5.00000000
3.95067549 0.02482315 -0.62573785 2 6 8964 4.00000000 2332826298 2332826298 -9.00000000
8.12681580 0.04964451 0.99786621 90 7 8965 8.18800000 2332826300 2332826300 7.00000000
5.27032709 0.03127512 -0.64712620 6 8 8966 5.31000000 2332826303 2332826303 -7.00000000
8.21939754 0.04877546 1.30184758 10 9 8966 8.32200000 2332826305 2332826305 9.00000000
6.60665369 0.03805202 -0.57801688 20 10 8967 6.63200000 2332826307 2332826307 -5.00000000
8.09876728 0.04381897 -0.42444462 25 12 8969 8.11000000 2332826312 2332826312 -3.00000000
8.11066055 0.04105209 -0.14157392 20 14 8971 8.11200000 2332826317 2332826317 -1.00000000
8.17549133 0.04138023 2.19064450 51 15 8971 8.46400000 2332826319 2332826319 15.00000000
2.23706913 0.00819932 -0.59942490 4 0 8979 2.31600000 2332826340 2332826340 -15.00000000
8.11071491 0.02831185 0.14157392 18 1 8980 8.11200000 2332826342 2332826342 1.00000000
2.61324620 0.00866588 -0.60331875 7 2 8981 2.68200000 2332826344 2332826344 -13.00000000
8.11881828 0.02550610 0.42549133 13 3 8982 8.13000000 2332826347 2332826347 3.00000000
3.14315462 0.00987454 -0.61097038 5 4 8982 3.20200000 2332826349 2332826349 -11.00000000
8.10898876 0.02405993 0.70944774 76 5 8983 8.14000000 2332826351 2332826351 5.00000000
3.94876266 0.01102705 -0.62542498 2 6 8984 3.99800000 2332826353 2332826353 -9.00000000
8.12296963 0.02126593 0.99737871 90 7 8985 8.18400000 2332826356 2332826356 7.00000000
5.24261332 0.01281015 -0.64371389 6 8 8986 5.28200000 2332826358 2332826358 -7.00000000
8.21556664 0.02007446 1.30122185 10 9 8986 8.31800000 2332826360 2332826360 9.00000000
6.60674620 0.01499026 -0.57801688 12 10 8987 6.63200000 2332826363 2332826363 -5.00000000
8.10685921 0.01556407 -0.42486328 25 12 8989 8.11800000 2332826367 2332826367 -3.00000000
8.10275555 0.01272779 -0.14143430 20 14 8991 8.10400000 2332826372 2332826372 -1.00000000
8.17751789 0.01284523 2.19116211 49 15 8991 8.46600000 2332826374 2332826374 15.00000000
2.22935677 0.00038910 -0.59735435 4 0 8999 2.30800000 2332826395 2332826395 -15.00000000
8.11276436 0.00000000 0.14160882 28 1 9000 8.11400000 2332826397 2332826397 1.00000000
-1.95310187 0.00068176 -0.52333212 6 0 27002 2.02200000 2332876327 2332876327 -15.00000000
-3.88140821 0.00203230 0.06775025 66 1 27003 3.88200000 2332876330 2332876330 1.00000000
-2.23520446 0.00156047 -0.51603770 4 2 27004 2.29400000 2332876332 2332876332 -13.00000000
-3.85870314 0.00336735 0.20222613 68 3 27005 3.86400000 2332876334 2332876334 3.00000000
-2.62683344 0.00229235 -0.51060486 3 4 27005 2.67600000 2332876336 2332876336 -11.00000000
-3.81542349 0.00399550 0.33380648 60 5 27006 3.83000000 2332876339 2332876339 5.00000000
-3.15862489 0.00385899 -0.50027740 3 6 27007 3.19800000 2332876341 2332876341 -9.00000000
-3.81931376 0.00533277 0.46895322 68 7 27008 3.84800000 2332876343 2332876343 7.00000000
-3.98804545 0.00626441 -0.48967102 24 8 27009 4.01800000 2332876346 2332876346 -7.00000000
-3.85197878 0.00672298 0.61009443 76 9 27010 3.90000000 2332876348 2332876348 9.00000000
-3.99871945 0.00697909 -0.34984314 83 10 27010 4.01400000 2332876350 2332876350 -5.00000000
-3.71054387 0.00712374 0.72125798 33 11 27011 3.78000000 2332876353 2332876353 11.00000000
-3.95056987 0.00827407 -0.20704104 61 12 27012 3.95600000 2332876355 2332876355 -3.00000000
-3.93254757 0.00892268 0.90790248 9 13 27013 4.03600000 2332876357 2332876357 13.00000000
-3.91139245 0.00955735 -0.06827381 56 14 27014 3.91200000 2332876360 2332876360 -1.00000000
-10.17116451 0.02662811 2.72536445 45 15 27015 10.53000000 2332876362 2332876362 15.00000000
-1.95502079 0.00716556 -0.52384973 5 0 27021 2.02400000 2332876383 2332876383 -15.00000000
-3.88737917 0.01492654 0.06785496 68 1 27022 3.88800000 2332876385 2332876385 1.00000000
-2.24103308 0.00899613 -0.51738745 4 2 27023 2.30000000 2332876387 2332876387 -13.00000000
-3.85068178 0.01612979 0.20180745 68 3 27024 3.85600000 2332876389 2332876389 3.00000000
-2.61503196 0.01095388 -0.50831515 3 4 27024 2.66400000 2332876392 2332876392 -11.00000000
-3.83531308 0.01673482 0.33554962 60 5 27025 3.85000000 2332876394 2332876394 5.00000000
-3.14674258 0.01427956 -0.49840021 3 6 27026 3.18600000 2332876396 2332876396 -9.00000000
-3.82920051 0.01804482 0.47017193 63 7 27027 3.85800000 2332876399 2332876399 7.00000000
-3.95028663 0.01930490 -0.48503998 22 8 27028 3.98000000 2332876401 2332876401 -7.00000000
-3.85983992 0.01886289 0.61134589 78 9 27028 3.90800000 2332876403 2332876403 9.00000000
-3.99867439 0.02023928 -0.34984314 90 10 27029 4.01400000 2332876406 2332876406 -5.00000000
-3.86363173 0.02023011 0.75102419 60 11 27030 3.93600000 2332876408 2332876408 11.00000000
-3.95850945 0.02141781 -0.20745973 57 12 27031 3.96400000 2332876410 2332876410 -3.00000000
-3.59731817 0.02009142 0.83051932 3 13 27032 3.69200000 2332876413 2332876413 13.00000000
-3.88934302 0.02240125 -0.06788986 47 14 27033 3.89000000 2332876415 2332876415 -1.00000000
-10.17103004 0.05858158 2.72536445 45 15 27033 10.53000000 2332876417 2332876417 15.00000000
-1.95305204 0.01397599 -0.52333212 5 0 27041 2.02200000 2332876438 2332876438 -15.00000000
-3.88730335 0.02849593 0.06785496 68 1 27042 3.88800000 2332876440 2332876440 1.00000000
-2.24098802 0.01681874 -0.51738745 4 2 27043 2.30000000 2332876442 2332876442 -13.00000000
-3.85060191 0.02957108 0.20180745 68 3 27044 3.85600000 2332876445 2332876445 3.00000000
-2.61497760 0.02008198 -0.50831515 3 4 27044 2.66400000 2332876447 2332876447 -11.00000000
-3.84320068 0.03018505 0.33624685 57 5 27045 3.85800000 2332876449 2332876449 5.00000000
-3.16642666 0.02542225 -0.50152892 3 6 27046 3.20600000 2332876452 2332876452 -9.00000000
-3.83308434 0.03144368 0.47065940 63 7 27047 3.86200000 2332876454 2332876454 7.00000000
-3.93828487 0.03299407 -0.48357755 22 8 27048 3.96800000 2332876456 2332876456 -7.00000000
-3.86369538 0.03304357 0.61197162 76 9 27049 3.91200000 2332876459 2332876459 9.00000000
-3.98264074 0.03406082 -0.34844866 80 10 27049 3.99800000 2332876461 2332876461 -5.00000000
-3.88905883 0.03393930 0.75598526 93 11 27050 3.96200000 2332876463 2332876463 11.00000000
-3.96240497 0.03527101 -0.20766908 57 12 27051 3.96800000 2332876465 2332876465 -3.00000000
-3.88524199 0.03594046 -0.06782005 40 14 27053 3.88600000 2332876470 2332876470 -1.00000000
-10.15529346 0.09571422 2.72122335 45 15 27054 10.51400000 2332876472 2332876472 15.00000000
-1.93754101 0.02029062 -0.51919103 5 0 27060 2.00600000 2332876493 2332876493 -15.00000000
-3.87319040 0.04123751 0.06761062 65 1 27061 3.87400000 2332876495 2332876495 1.00000000
-2.23702264 0.02420786 -0.51648760 4 2 27062 2.29600000 2332876498 2332876498 -13.00000000
-3.85447693 0.04238389 0.20201679 71 3 27063 3.86000000 2332876500 2332876500 3.00000000
-2.60311794 0.02862393 -0.50602543 3 4 27063 2.65200000 2332876502 2332876502 -11.00000000
-3.84507155 0.04295165 0.33642116 61 5 27064 3.86000000 2332876505 2332876505 5.00000000
-3.14262199 0.03565345 -0.49777448 3 6 27065 3.18200000 2332876507 2332876507 -9.00000000
-3.85876346 0.04445173 0.47382802 48 7 27066 3.88800000 2332876509 2332876509 7.00000000
-3.90242457 0.04563589 -0.47919026 31 8 27067 3.93200000 2332876512 2332876512 -7.00000000
-3.87542415 0.04532013 0.61384887 69 9 27067 3.92400000 2332876514 2332876514 9.00000000
-3.97055244 0.04712568 -0.34740278 89 10 27068 3.98600000 2332876516 2332876516 -5.00000000
-3.89874053 0.04695391 0.75789332 76 11 27069 3.97200000 2332876518 2332876518 11.00000000
-3.96226621 0.04841062 -0.20766908 57 12 27070 3.96800000 2332876521 2332876521 -3.00000000
-3.93225574 0.04873037 0.90790248 18 13 27071 4.03600000 2332876523 2332876523 13.00000000
-3.91909361 0.04925137 -0.06841344 47 14 27072 3.92000000 2332876525 2332876525 -1.00000000
-10.14142036 0.12744756 2.71759987 42 15 27072 10.50000000 2332876528 2332876528 15.00000000
-1.95291162 0.02726956 -0.52333212 5 0 27080 2.02200000 2332876548 2332876548 -15.00000000
-3.85702705 0.05453107 0.06733138 66 1 27081 3.85800000 2332876551 2332876551 1.00000000
-2.23692465 0.03201638 -0.51648760 4 2 27082 2.29600000 2332876553 2332876553 -13.00000000
-3.86828494 0.05604080 0.20274949 65 3 27083 3.87400000 2332876555 2332876555 3.00000000
-2.63048482 0.03810848 -0.51136810 3 4 27083 2.68000000 2332876558 2332876558 -11.00000000
-3.85286689 0.05649003 0.33711842 55 5 27084 3.86800000 2332876560 2332876560 5.00000000
-3.15037918 0.04674025 -0.49902594 3 6 27085 3.19000000 2332876562 2332876562 -9.00000000
-3.87049389 0.05809982 0.47529045 53 7 27086 3.90000000 2332876565 2332876565 7.00000000
-3.88040805 0.05892606 -0.47650912 39 8 27087 3.91000000 2332876567 2332876567 -7.00000000
-3.89300823 0.05979702 0.61666465 67 9 27088 3.94200000 2332876569 2332876569 9.00000000
-3.97833228 0.06110760 -0.34810004 85 10 27088 3.99400000 2332876571 2332876571 -5.00000000
-3.85144043 0.05983089 0.74873447 37 11 27089 3.92400000 2332876574 2332876574 11.00000000
-3.96606708 0.06230396 -0.20787841 52 12 27090 3.97200000 2332876576 2332876576 -3.00000000
-3.93011308 0.06242526 0.90745252 20 13 27091 4.03400000 2332876578 2332876578 13.00000000
-3.95688701 0.06354131 -0.06907663 40 14 27092 3.95800000 2332876581 2332876581 -1.00000000
-10.14281654 0.16464822 2.71811771 45 15 27093 10.50200000 2332876583 2332876583 15.00000000
-1.95279860 0.03442716 -0.52333212 4 0 27101 2.02200000 2332876604 2332876604 -15.00000000
-3.86879754 0.06888100 0.06754081 63 1 27102 3.87000000 2332876606 2332876606 1.00000000
-2.22510171 0.04000472 -0.51378822 4 2 27103 2.28400000 2332876608 2332876608 -13.00000000
-3.86805344 0.07021839 0.20274949 65 3 27104 3.87400000 2332876611 2332876611 3.00000000
-2.62443876 0.04764253 -0.51022327 3 4 27104 2.67400000 2332876613 2332876613 -11.00000000
-3.86458635 0.07083017 0.33816427 49 5 27105 3.88000000 2332876615 2332876615 5.00000000
-3.15018654 0.05828665 -0.49902594 3 6 27106 3.19000000 2332876618 2332876618 -9.00000000
-3.88017869 0.07247085 0.47650912 55 7 27107 3.91000000 2332876620 2332876620 7.00000000
-3.85436440 0.07266166 -0.47334054 58 8 27108 3.88400000 2332876622 2332876622 -7.00000000
-3.91647601 0.07383258 0.62041909 67 9 27108 3.96600000 2332876624 2332876624 9.00000000
-3.99202585 0.07595382 -0.34932020 65 10 27109 4.00800000 2332876627 2332876627 -5.00000000
-3.83941793 0.07372059 0.74644476 50 11 27110 3.91200000 2332876629 2332876629 11.00000000
-3.98178720 0.07714944 -0.20871580 45 12 27111 3.98800000 2332876631 2332876631 -3.00000000
-3.94154811 0.07705797 0.91015196 18 13 27112 4.04600000 2332876634 2332876634 13.00000000
-3.99261498 0.07875345 -0.06970491 29 14 27113 3.99400000 2332876636 2332876636 -1.00000000
-10.14990616 0.20020464 2.72018814 47 15 27113 10.51000000 2332876638 2332876638 15.00000000
-1.95846081 0.04136587 -0.52488500 5 0 27121 2.02800000 2332876659 2332876659 -15.00000000
-3.88852596 0.08281096 0.06788986 60 1 27122 3.89000000 2332876661 2332876661 1.00000000
-2.23274159 0.04793886 -0.51558781 4 2 27123 2.29200000 2332876664 2332876664 -13.00000000
-3.86778474 0.08371999 0.20274949 58 3 27124 3.87400000 2332876666 2332876666 3.00000000
-2.61836791 0.05667578 -0.50907838 3 4 27124 2.66800000 2332876668 2332876668 -11.00000000
-3.88423467 0.08475430 0.33990741 42 5 27125 3.90000000 2332876671 2332876671 5.00000000
-3.16971302 0.06971687 -0.50215465 3 6 27126 3.21000000 2332876673 2332876673 -9.00000000
-3.90173268 0.08649873 0.47919026 39 7 27127 3.93200000 2332876675 2332876675 7.00000000
-3.84217978 0.08584940 -0.47187811 76 8 27128 3.87200000 2332876677 2332876677 -7.00000000
-3.91420436 0.08814222 0.62010622 63 9 27129 3.96400000 2332876680 2332876680 9.00000000
-3.99572015 0.08997783 -0.34966883 65 10 27129 4.01200000 2332876682 2332876682 -5.00000000
-3.83913708 0.08712221 0.74644476 46 11 27130 3.91200000 2332876684 2332876684 11.00000000
-4.00146103 0.09150460 -0.20976251 33 12 27131 4.00800000 2332876687 2332876687 -3.00000000
-3.93346214 0.09063650 0.90835238 20 13 27132 4.03800000 2332876689 2332876689 13.00000000
-10.14524174 0.23731421 2.71915293 45 15 27134 10.50600000 2332876694 2332876694 15.00000000
-1.95057940 0.04801178 -0.52281445 5 0 27141 2.02000000 2332876714 2332876714 -15.00000000
-3.92019844 0.09717682 0.06844833 48 1 27142 3.92200000 2332876717 2332876717 1.00000000
-2.24230123 0.05597545 -0.51783735 4 2 27143 2.30200000 2332876719 2332876719 -13.00000000
-3.88543868 0.09767229 0.20369154 30 3 27144 3.89200000 2332876721 2332876721 3.00000000
-2.61422896 0.06571658 -0.50831515 3 4 27144 2.66400000 2332876724 2332876724 -11.00000000
-3.88989043 0.09846355 0.34043032 33 5 27145 3.90600000 2332876726 2332876726 5.00000000
-3.16155124 0.08057948 -0.50090313 3 6 27146 3.20200000 2332876728 2332876728 -9.00000000
-3.95498681 0.10149276 0.48577121 32 7 27147 3.98600000 2332876730 2332876730 7.00000000
-3.83788776 0.09915805 -0.47139063 88 8 27148 3.86800000 2332876733 2332876733 -7.00000000
-3.95338488 0.10214210 0.62636358 42 9 27148 4.00400000 2332876735 2332876735 9.00000000
-3.84273481 0.10062555 0.74720800 41 11 27150 3.91600000 2332876740 2332876740 11.00000000
-10.14826107 0.27105892 2.72018814 42 15 27153 10.51000000 2332876749 2332876749 15.00000000
-1.95426202 0.05492883 -0.52384973 5 0 27161 2.02400000 2332876770 2332876770 -15.00000000
-3.92783093 0.11108641 0.06858796 34 1 27162 3.93000000 2332876772 2332876772 1.00000000
-2.25377989 0.06413479 -0.52053672 4 2 27163 2.31400000 2332876774 2332876774 -13.00000000
-2.61005878 0.07472917 -0.50755191 3 4 27164 2.66000000 2332876779 2332876779 -11.00000000
-3.90147257 0.11238541 0.34147620 19 5 27165 3.91800000 2332876781 2332876781 5.00000000
-3.15335274 0.09138598 -0.49965167 3 6 27166 3.19400000 2332876783 2332876783 -9.00000000
-3.84545517 0.11278696 -0.47236559 86 8 27168 3.87600000 2332876788 2332876788 -7.00000000
-5.17596769 0.15271497 -0.45303556 9 10 27169 5.19800000 2332876793 2332876793 -5.00000000
-3.84039783 0.11398035 0.74682641 37 11 27170 3.91400000 2332876795 2332876795 11.00000000
-7.64809179 0.22832610 -0.40099809 12 12 27171 7.66200000 2332876797 2332876797 -3.00000000
-10.13373661 0.30607304 2.71656466 42 15 27173 10.49600000 2332876804 2332876804 15.00000000
-1.95213830 0.06134842 -0.52333212 4 0 27180 2.02200000 2332876825 2332876825 -15.00000000
-2.23602509 0.07105122 -0.51648760 4 2 27182 2.29600000 2332876830 2332876830 -13.00000000
-2.62549448 0.08388558 -0.51060486 3 4 27183 2.67600000 2332876834 2332876834 -11.00000000
-3.15698099 0.10196991 -0.50027740 3 6 27185 3.19800000 2332876839 2332876839 -9.00000000
-3.85894823 0.12599178 -0.47407174 69 8 27187 3.89000000 2332876843 2332876843 -7.00000000
-5.18538952 0.17020507 -0.45390710 9 10 27188 5.20800000 2332876848 2332876848 -5.00000000
-3.83803654 0.12665018 0.74644476 35 11 27189 3.91200000 2332876850 2332876850 11.00000000
-7.65128517 0.25381926 -0.40120745 16 12 27190 7.66600000 2332876853 2332876853 -3.00000000
-10.13845825 0.33987021 2.71811771 42 15 27192 10.50200000 2332876859 2332876859 15.00000000
-1.95384288 0.06822970 -0.52384973 5 0 27200 2.02400000 2332876880 2332876880 -15.00000000
-2.22992086 0.07864990 -0.51513791 4 2 27202 2.29000000 2332876885 2332876885 -13.00000000
-2.62910986 0.09318884 -0.51136810 3 4 27203 2.68000000 2332876889 2332876889 -11.00000000
-3.15660572 0.11298920 -0.50027740 3 6 27205 3.19800000 2332876894 2332876894 -9.00000000
-3.84856606 0.13910273 -0.47285306 63 8 27207 3.88000000 2332876899 2332876899 -7.00000000
-5.19671011 0.18873830 -0.45495299 6 10 27208 5.22000000 2332876903 2332876903 -5.00000000
-3.85915232 0.14083424 0.75064260 20 11 27209 3.93400000 2332876906 2332876906 11.00000000
-7.63638115 0.28001338 -0.40047473 12 12 27210 7.65200000 2332876908 2332876908 -3.00000000
-10.14100552 0.37717083 2.71915293 47 15 27213 10.50600000 2332876915 2332876915 15.00000000
-1.95360589 0.07470850 -0.52384973 4 0 27219 2.02400000 2332876936 2332876936 -15.00000000
-2.23938417 0.08641989 -0.51738745 4 2 27221 2.30000000 2332876940 2332876940 -13.00000000
-2.60524487 0.10099417 -0.50678867 3 4 27222 2.65600000 2332876945 2332876945 -11.00000000
-3.15621376 0.12345626 -0.50027740 3 6 27224 3.19800000 2332876949 2332876949 -9.00000000
-3.86990261 0.15272535 -0.47553417 43 8 27226 3.90200000 2332876954 2332876954 -7.00000000
-5.20003748 0.20612800 -0.45530161 9 10 27227 5.22400000 2332876959 2332876959 -5.00000000
-7.65137577 0.30597344 -0.40131211 16 12 27229 7.66800000 2332876963 2332876963 -3.00000000
-10.14363098 0.40918356 2.72018814 45 15 27231 10.51000000 2332876970 2332876970 15.00000000
-1.94947290 0.08136628 -0.52281445 4 0 27239 2.02000000 2332876991 2332876991 -15.00000000
-2.24491000 0.09448211 -0.51873714 4 2 27241 2.30600000 2332876995 2332876995 -13.00000000
-2.60879970 0.11025336 -0.50755191 3 4 27242 2.66000000 2332877000 2332877000 -11.00000000
-3.15971065 0.13464095 -0.50090313 3 6 27244 3.20200000 2332877005 2332877005 -9.00000000
-3.90504456 0.16776659 -0.47992146 11 8 27246 3.93800000 2332877009 2332877009 -7.00000000
-5.18336201 0.22359134 -0.45390710 6 10 27247 5.20800000 2332877014 2332877014 -5.00000000
-7.65824270 0.33302695 -0.40173081 20 12 27249 7.67600000 2332877018 2332877018 -3.00000000
-10.13828087 0.44441974 2.71915293 42 15 27251 10.50600000 2332877025 2332877025 15.00000000
-1.93951225 0.08807274 -0.52022630 4 0 27260 2.01000000 2332877046 2332877046 -15.00000000
-2.24065518 0.10253132 -0.51783735 4 2 27262 2.30200000 2332877051 2332877051 -13.00000000
-2.60837793 0.11981434 -0.50755191 3 4 27263 2.66000000 2332877055 2332877055 -11.00000000
-3.15524960 0.14603831 -0.50027740 3 6 27265 3.19800000 2332877060 2332877060 -9.00000000
-3.96190882 0.18475986 -0.48698989 5 8 27267 3.99600000 2332877064 2332877064 -7.00000000
-5.19444895 0.24314678 -0.45495299 6 10 27268 5.22000000 2332877069 2332877069 -5.00000000
-7.65896559 0.36118767 -0.40183547 28 12 27270 7.67800000 2332877074 2332877074 -3.00000000
-10.13079453 0.48130038 2.71759987 42 15 27272 10.50000000 2332877081 2332877081 15.00000000
-1.94884074 0.09531421 -0.52281445 4 0 27280 2.02000000 2332877101 2332877101 -15.00000000
-2.24028373 0.11035204 -0.51783735 4 2 27282 2.30200000 2332877106 2332877106 -13.00000000
-2.62755251 0.12988786 -0.51136810 3 4 27283 2.68000000 2332877111 2332877111 -11.00000000
-3.16261220 0.15744416 -0.50152892 3 6 27285 3.20600000 2332877115 2332877115 -9.00000000
-3.96322227 0.19868776 -0.48723364 5 8 27287 3.99800000 2332877120 2332877120 -7.00000000
-5.18958855 0.26107711 -0.45460436 6 10 27288 5.21600000 2332877124 2332877124 -5.00000000
-7.64768457 0.38741499 -0.40131211 24 12 27290 7.66800000 2332877129 2332877129 -3.00000000
-10.12317467 0.51813215 2.71604705 45 15 27293 10.49400000 2332877136 2332877136 15.00000000
-1.94465554 0.10157474 -0.52177918 4 0 27299 2.01600000 2332877157 2332877157 -15.00000000
-2.23601341 0.11757582 -0.51693749 4 2 27301 2.29800000 2332877161 2332877161 -13.00000000
-2.62318611 0.13839357 -0.51060486 3 4 27302 2.67600000 2332877166 2332877166 -11.00000000
-3.16207266 0.16793090 -0.50152892 3 6 27304 3.20600000 2332877170 2332877170 -9.00000000
-3.96254158 0.21182920 -0.48723364 5 8 27306 3.99800000 2332877175 2332877175 -7.00000000
-5.19267321 0.27849835 -0.45495299 6 10 27307 5.22000000 2332877180 2332877180 -5.00000000
-7.63638639 0.41223520 -0.40078875 28 12 27309 7.65800000 2332877184 2332877184 -3.00000000
-10.13307095 0.55056125 2.71915293 45 15 27311 10.50600000 2332877191 2332877191 15.00000000
-1.95393336 0.10889975 -0.52436739 4 0 27319 2.02600000 2332877212 2332877212 -15.00000000
-2.23169780 0.12516201 -0.51603770 4 2 27321 2.29400000 2332877216 2332877216 -13.00000000
-2.61876678 0.14732879 -0.50984162 3 4 27322 2.67200000 2332877221 2332877221 -11.00000000
-3.16146731 0.17896757 -0.50152892 3 6 27324 3.20600000 2332877226 2332877226 -9.00000000
-3.95385051 0.22520821 -0.48625869 5 8 27326 3.99000000 2332877230 2332877230 -7.00000000
-5.20360422 0.29730436 -0.45599884 6 10 27327 5.23200000 2332877235 2332877235 -5.00000000
-7.64686441 0.43957639 -0.40141678 28 12 27329 7.67000000 2332877240 2332877240 -3.00000000
-10.13108730 0.58592892 2.71915293 45 15 27331 10.50600000 2332877246 2332877246 15.00000000
-1.94773579 0.11571683 -0.52281445 4 0 27340 2.02000000 2332877267 2332877267 -15.00000000
-2.23706007 0.13368951 -0.51738745 4 2 27342 2.30000000 2332877272 2332877272 -13.00000000
-2.61820936 0.15692607 -0.50984162 3 4 27343 2.67200000 2332877276 2332877276 -11.00000000
-3.15684652 0.19031598 -0.50090313 3 6 27345 3.20200000 2332877281 2332877281 -9.00000000
-3.95299840 0.23969829 -0.48625869 5 8 27347 3.99000000 2332877286 2332877286 -7.00000000
-5.19452477 0.31589079 -0.45530161 6 10 27348 5.22400000 2332877290 2332877290 -5.00000000
-7.66115046 0.46857601 -0.40225416 36 12 27350 7.68600000 2332877295 2332877295 -3.00000000
-10.12104988 0.62434930 2.71708226 45 15 27353 10.49800000 2332877302 2332877302 15.00000000
-1.94924808 0.12263629 -0.52333212 4 0 27360 2.02200000 2332877322 2332877322 -15.00000000
-2.24824882 0.14223574 -0.52008682 4 2 27362 2.31200000 2332877327 2332877327 -13.00000000
-2.62940145 0.16681015 -0.51213133 3 4 27363 2.68400000 2332877332 2332877332 -11.00000000
-3.16404843 0.20183729 -0.50215465 3 6 27365 3.21000000 2332877336 2332877336 -9.00000000
-3.96402383 0.25425777 -0.48772112 6 8 27367 4.00200000 2332877341 2332877341 -7.00000000
-5.18543768 0.33350962 -0.45460436 6 10 27368 5.21600000 2332877346 2332877346 -5.00000000
-7.65149546 0.49480003 -0.40183547 28 12 27370 7.67800000 2332877350 2332877350 -3.00000000
-10.11109829 0.65917188 2.71501184 42 15 27373 10.49000000 2332877357 2332877357 15.00000000
-1.94688046 0.12931165 -0.52281445 4 0 27380 2.02000000 2332877378 2332877378 -15.00000000
-2.23996091 0.14956340 -0.51828724 4 2 27382 2.30400000 2332877382 2332877382 -13.00000000
-2.61704993 0.17520064 -0.50984162 3 4 27383 2.67200000 2332877387 2332877387 -11.00000000
-3.15149903 0.21208483 -0.50027740 3 6 27385 3.19800000 2332877392 2332877392 -9.00000000
-3.95717049 0.26769128 -0.48698989 3 8 27387 3.99600000 2332877396 2332877396 -7.00000000
-5.19219303 0.35214740 -0.45530161 6 10 27388 5.22400000 2332877401 2332877401 -5.00000000
-7.65370703 0.52177739 -0.40204480 32 12 27390 7.68200000 2332877405 2332877405 -3.00000000
-10.11258984 0.69472694 2.71604705 42 15 27393 10.49400000 2332877412 2332877412 15.00000000
-1.94641721 0.13610674 -0.52281445 4 0 27400 2.02000000 2332877433 2332877433 -15.00000000
-2.22581768 0.15642510 -0.51513791 4 2 27402 2.29000000 2332877438 2332877438 -13.00000000
-2.62425590 0.18488668 -0.51136810 3 4 27403 2.68000000 2332877442 2332877442 -11.00000000
-3.16256213 0.22392142 -0.50215465 3 6 27405 3.21000000 2332877447 2332877447 -9.00000000
-3.97007251 0.28248900 -0.48869607 6 8 27407 4.01000000 2332877452 2332877452 -7.00000000
-5.19689417 0.37069467 -0.45582452 6 10 27408 5.23000000 2332877456 2332877456 -5.00000000
-7.63988638 0.54763383 -0.40141678 28 12 27410 7.67000000 2332877461 2332877461 -3.00000000
-10.12166405 0.73085707 2.71915293 47 15 27413 10.50600000 2332877468 2332877468 15.00000000
-1.94978356 0.14318316 -0.52384973 4 0 27420 2.02400000 2332877488 2332877488 -15.00000000
