# .PCD v0.7 - Point Cloud Data file format
VERSION 0.7
FIELDS x y z intensity laser_id azimuth distance_m adjustedtime timestamp vertical_angle
SIZE 4 4 4 1 1 2 8 8 4 8
TYPE F F F U U U F U U F
COUNT 1 1 1 1 1 1 1 1 1 1
WIDTH 522
HEIGHT 1
VIEWPOINT 0 0 0 1 0 0 0
POINTS 522
DATA ascii
-3.76210380 10.12139893 2.49290752 54 13 33961 11.08200000 2333995551 2333995551 13.00000000
-3.97565413 10.70164394 -0.19927157 12 14 33962 11.41800000 2333995553 2333995553 -1.00000000
-3.25412750 8.75944328 2.50381541 36 15 33962 9.67400000 2333995555 2333995555 15.00000000
-0.75869834 2.05102801 -0.58596629 4 0 33970 2.26400000 2333995576 2333995576 -15.00000000
-3.96299982 10.71912956 0.19948101 30 1 33971 11.43000000 2333995578 2333995578 1.00000000
-0.88416326 2.39277053 -0.58892184 3 2 33972 2.61800000 2333995581 2333995581 -13.00000000
-3.96066165 10.72431278 0.59914201 13 3 33973 11.44800000 2333995583 2333995583 3.00000000
-1.05764687 2.86379838 -0.59341598 4 4 33973 3.11000000 2333995585 2333995585 -11.00000000
-3.96155620 10.73249912 1.00089657 12 5 33974 11.48400000 2333995587 2333995587 5.00000000
-1.31204247 3.55644679 -0.60039550 2 6 33975 3.83800000 2333995590 2333995590 -9.00000000
-3.96048284 10.74113178 1.40564096 21 7 33976 11.53400000 2333995592 2333995592 7.00000000
-1.72498393 4.68080473 -0.61251533 2 8 33977 5.02600000 2333995594 2333995594 -7.00000000
-3.95580196 10.73998451 1.81276262 21 9 33978 11.58800000 2333995597 2333995597 9.00000000
-2.49556303 6.77544212 -0.63170481 4 10 33978 7.24800000 2333995599 2333995599 -5.00000000
-3.89371705 10.57711601 2.19086885 50 11 33979 11.48200000 2333995601 2333995601 11.00000000
-3.93859100 10.70477676 -0.59778130 8 12 33980 11.42200000 2333995604 2333995604 -3.00000000
-3.72338772 10.12532425 2.49065804 56 13 33981 11.07200000 2333995606 2333995606 13.00000000
-3.93482494 10.70607185 -0.19909705 6 14 33982 11.40800000 2333995608 2333995608 -1.00000000
-3.21953297 8.75986862 2.50070953 38 15 33982 9.66200000 2333995610 2333995610 15.00000000
-0.74887872 2.04640722 -0.58389574 4 0 33990 2.25600000 2333995631 2333995631 -15.00000000
-3.91800308 10.71223927 0.19909705 10 1 33991 11.40800000 2333995634 2333995634 1.00000000
-0.87714368 2.39950275 -0.58982164 3 2 33992 2.62200000 2333995636 2333995636 -13.00000000
-3.92183185 10.73432159 0.59893268 10 3 33993 11.44400000 2333995638 2333995638 3.00000000
-1.04629636 2.86378455 -0.59265274 4 4 33993 3.10600000 2333995640 2333995640 -11.00000000
-3.92133498 10.73877621 1.00019932 12 5 33994 11.47600000 2333995643 2333995643 5.00000000
-1.30029738 3.56286073 -0.60070837 2 6 33995 3.84000000 2333995645 2333995645 -9.00000000
-3.91820359 10.74183655 1.40393484 19 7 33996 11.52000000 2333995647 2333995647 7.00000000
-1.70591474 4.67933750 -0.61154038 2 8 33997 5.01800000 2333995650 2333995650 -7.00000000
-3.91896462 10.75558376 1.81307542 15 9 33998 11.59000000 2333995652 2333995652 9.00000000
-2.47326112 6.78785610 -0.63205343 4 10 33998 7.25200000 2333995654 2333995654 -5.00000000
-3.87826967 10.64967537 2.20308065 59 11 33999 11.54600000 2333995657 2333995657 11.00000000
-3.92579198 10.78602505 -0.60154951 4 12 34000 11.49400000 2333995659 2333995659 -3.00000000
-3.68602252 10.13276577 2.48930836 53 13 34001 11.06600000 2333995661 2333995661 13.00000000
-3.90357947 10.73665619 -0.19941120 6 14 34002 11.42600000 2333995663 2333995663 -1.00000000
-3.18146682 8.75526905 2.49605083 38 15 34003 9.64400000 2333995666 2333995666 15.00000000
-0.74167246 2.05108428 -0.58441341 4 0 34012 2.25800000 2333995687 2333995687 -15.00000000
-3.88635778 10.75353336 0.19958572 10 1 34013 11.43600000 2333995689 2333995689 1.00000000
-0.86924785 2.40651870 -0.59072149 3 2 34014 2.62600000 2333995691 2333995691 -13.00000000
-3.89754081 10.79626560 0.60154951 7 3 34015 11.49400000 2333995693 2333995693 3.00000000
-1.03395927 2.86408782 -0.59188950 4 4 34015 3.10200000 2333995696 2333995696 -11.00000000
-3.89427257 10.79310989 1.00385988 38 5 34016 11.51800000 2333995698 2333995698 5.00000000
-1.28593731 3.56596899 -0.60039550 2 6 34017 3.83800000 2333995700 2333995700 -9.00000000
-3.89442897 10.80535698 1.41027200 40 7 34018 11.57200000 2333995703 2333995703 7.00000000
-3.93761754 10.93116665 -1.42660248 2 8 34019 11.70600000 2333995705 2333995705 -7.00000000
-3.88031387 10.77798653 1.81432688 34 9 34020 11.59800000 2333995707 2333995707 9.00000000
-2.45392847 6.81604862 -0.63379657 4 10 34020 7.27200000 2333995710 2333995710 -5.00000000
-3.84466124 10.68480778 2.20727849 59 11 34021 11.56800000 2333995712 2333995712 11.00000000
-3.91949415 10.89874935 -0.60699242 4 12 34022 11.59800000 2333995714 2333995714 -3.00000000
-3.64840651 10.15051174 2.49020815 54 13 34023 11.07000000 2333995716 2333995716 13.00000000
-3.90829682 10.87953758 -0.20178473 8 14 34024 11.56200000 2333995719 2333995719 -1.00000000
-3.14804959 8.76323509 2.49501562 36 15 34024 9.64000000 2333995721 2333995721 15.00000000
-0.73450834 2.05366063 -0.58441341 4 0 34032 2.25800000 2333995742 2333995742 -15.00000000
-3.89456820 10.89507866 0.20195925 10 1 34033 11.57200000 2333995744 2333995744 1.00000000
-0.85821974 2.40219784 -0.58892184 3 2 34034 2.61800000 2333995746 2333995746 -13.00000000
-3.89475560 10.90761375 0.60699242 18 3 34035 11.59800000 2333995749 2333995749 3.00000000
-1.02263510 2.86398172 -0.59112626 4 4 34035 3.09800000 2333995751 2333995751 -11.00000000
-3.89139628 10.90421486 1.01292408 63 5 34036 11.62200000 2333995753 2333995753 5.00000000
-1.26684582 3.55183029 -0.59726679 2 6 34037 3.81800000 2333995756 2333995756 -9.00000000
-3.88668251 10.90302753 1.42124033 42 7 34038 11.66200000 2333995758 2333995758 7.00000000
-1.68489242 4.72911549 -0.61641514 2 8 34039 5.05800000 2333995760 2333995760 -7.00000000
-3.87513757 10.88265038 1.82965755 43 9 34040 11.69600000 2333995763 2333995763 9.00000000
-2.44348812 6.86211205 -0.63728279 4 10 34040 7.31200000 2333995765 2333995765 -5.00000000
-3.79878354 10.67411804 2.20231748 62 11 34041 11.54200000 2333995767 2333995767 11.00000000
-3.91087699 10.99516201 -0.61159796 4 12 34042 11.68600000 2333995769 2333995769 -3.00000000
-3.55877447 10.01078320 2.45286632 55 13 34043 10.90400000 2333995772 2333995772 13.00000000
-3.90444016 10.98921299 -0.20356487 6 14 34044 11.66400000 2333995774 2333995774 -1.00000000
-3.11614728 8.77052975 2.49398041 36 15 34044 9.63600000 2333995776 2333995776 15.00000000
-0.73321187 2.07052660 -0.58855450 4 0 34050 2.27400000 2333995797 2333995797 -15.00000000
-3.89501452 11.00528526 0.20377430 10 1 34051 11.67600000 2333995799 2333995799 1.00000000
-0.85196853 2.40855646 -0.58982164 3 2 34052 2.62200000 2333995802 2333995802 -13.00000000
-3.85971069 10.91159058 0.60657376 28 3 34052 11.59000000 2333995804 2333995804 3.00000000
-1.02017641 2.88569021 -0.59494245 4 4 34053 3.11800000 2333995806 2333995806 -11.00000000
-3.86973190 10.95207882 1.01623595 17 5 34054 11.66000000 2333995809 2333995809 5.00000000
-1.26094329 3.57069373 -0.59976971 2 6 34055 3.83400000 2333995811 2333995811 -9.00000000
-3.88346243 11.00316525 1.43269598 38 7 34056 11.75600000 2333995813 2333995813 7.00000000
-1.66342366 4.71566486 -0.61397773 2 8 34057 5.03800000 2333995815 2333995815 -7.00000000
-3.87831545 10.99469566 1.84655237 31 9 34057 11.80400000 2333995818 2333995818 9.00000000
-2.42191815 6.86975431 -0.63728279 4 10 34058 7.31200000 2333995820 2333995820 -5.00000000
-3.76001167 10.67118645 2.19926453 62 11 34059 11.52600000 2333995822 2333995822 11.00000000
-3.90749574 11.09593582 -0.61651754 4 12 34060 11.78000000 2333995825 2333995825 -3.00000000
-3.57712436 10.16345596 2.48750877 52 13 34061 11.05800000 2333995827 2333995827 13.00000000
-3.91236544 11.12215424 -0.20579877 6 14 34062 11.79200000 2333995829 2333995829 -1.00000000
-3.08921957 8.78209782 2.49449801 38 15 34062 9.63800000 2333995832 2333995832 15.00000000
-0.72342592 2.06578016 -0.58648396 4 0 34070 2.26600000 2333995852 2333995852 -15.00000000
-3.89422941 11.12639809 0.20576388 10 1 34071 11.79000000 2333995855 2333995855 1.00000000
-0.84226900 2.40783668 -0.58892184 3 2 34072 2.61800000 2333995857 2333995857 -13.00000000
-3.80387259 10.88041496 0.60406160 26 3 34073 11.54200000 2333995859 2333995859 3.00000000
-1.00620973 2.87811399 -0.59265274 4 4 34073 3.10600000 2333995862 2333995862 -11.00000000
-3.82622099 10.95047379 1.01484144 8 5 34074 11.64400000 2333995864 2333995864 5.00000000
-1.25303042 3.58812809 -0.60195982 2 6 34075 3.84800000 2333995866 2333995866 -9.00000000
-3.88100815 11.11973572 1.44610167 40 7 34076 11.86600000 2333995868 2333995868 7.00000000
-1.65610611 4.74768353 -0.61739010 2 8 34077 5.06600000 2333995871 2333995871 -7.00000000
-3.86855531 11.09650421 1.86125731 34 9 34078 11.89800000 2333995873 2333995873 9.00000000
-2.39792347 6.87816668 -0.63728279 4 10 34078 7.31200000 2333995875 2333995875 -5.00000000
-3.72144747 10.68053818 2.19850135 59 11 34079 11.52200000 2333995878 2333995878 11.00000000
-3.91012025 11.22833633 -0.62311190 8 12 34080 11.90600000 2333995880 2333995880 -3.00000000
-3.53906322 10.16851902 2.48570919 51 13 34081 11.05000000 2333995882 2333995882 13.00000000
-3.90308189 11.22073460 -0.20736949 8 14 34082 11.88200000 2333995885 2333995885 -1.00000000
-3.05510783 8.78788757 2.49294496 38 15 34083 9.63200000 2333995887 2333995887 15.00000000
-0.71684271 2.07011819 -0.58700162 4 0 34090 2.26800000 2333995908 2333995908 -15.00000000
-3.89395356 11.25141811 0.20782326 6 1 34091 11.90800000 2333995910 2333995910 1.00000000
-0.83895510 2.42549562 -0.59252107 3 2 34092 2.63400000 2333995912 2333995912 -13.00000000
-3.76711798 10.89108181 0.60395694 26 3 34092 11.54000000 2333995915 2333995915 3.00000000
-0.99487424 2.87789774 -0.59188950 2 4 34093 3.10200000 2333995917 2333995917 -11.00000000
-3.76390004 10.89408588 1.00839198 4 5 34094 11.57000000 2333995919 2333995919 5.00000000
-1.23920834 3.58874583 -0.60133410 2 6 34095 3.84400000 2333995921 2333995921 -9.00000000
-3.87778711 11.23642254 1.45950723 36 7 34096 11.97600000 2333995924 2333995924 7.00000000
-1.63563991 4.74217558 -0.61592764 2 8 34097 5.05400000 2333995926 2333995926 -7.00000000
-3.86005497 11.19771385 1.87596214 35 9 34098 11.99200000 2333995928 2333995928 9.00000000
-2.37389970 6.88649511 -0.63728279 4 10 34098 7.31200000 2333995931 2333995931 -5.00000000
-3.67838717 10.67675781 2.19506669 59 11 34099 11.50400000 2333995933 2333995933 11.00000000
-3.50227857 10.17712593 2.48480940 47 13 34101 11.04600000 2333995938 2333995938 13.00000000
-3.02343607 8.79066277 2.49087453 36 15 34102 9.62400000 2333995942 2333995942 15.00000000
-0.70398045 2.05615854 -0.58234286 4 0 34110 2.25000000 2333995963 2333995963 -15.00000000
-0.83048344 2.42840934 -0.59252107 3 2 34112 2.63400000 2333995967 2333995967 -13.00000000
-3.72520041 10.89282608 0.60332888 26 3 34112 11.52800000 2333995970 2333995970 3.00000000
-0.99117202 2.89993048 -0.59570569 4 4 34113 3.12200000 2333995972 2333995972 -11.00000000
-3.71618867 10.87887669 1.00577724 4 5 34114 11.54000000 2333995974 2333995974 5.00000000
-1.22539735 3.58931065 -0.60070837 2 6 34115 3.84000000 2333995977 2333995977 -9.00000000
-1.61907673 4.74785614 -0.61592764 2 8 34117 5.05400000 2333995981 2333995981 -7.00000000
-2.34984684 6.89473963 -0.63728279 4 10 34118 7.31200000 2333995986 2333995986 -5.00000000
-3.63793087 10.68024158 2.19315863 59 11 34119 11.49400000 2333995988 2333995988 11.00000000
-3.46673250 10.18928909 2.48480940 50 13 34121 11.04600000 2333995993 2333995993 13.00000000
-2.99148870 8.79750538 2.48983932 36 15 34122 9.62000000 2333995997 2333995997 15.00000000
-0.69556010 2.05494380 -0.58130759 4 0 34130 2.24600000 2333996018 2333996018 -15.00000000
-0.82075334 2.42760134 -0.59162128 3 2 34132 2.63000000 2333996023 2333996023 -13.00000000
-3.68972659 10.91965199 0.60406160 7 3 34133 11.54200000 2333996025 2333996025 3.00000000
-0.97852945 2.89593291 -0.59417921 2 4 34133 3.11400000 2333996027 2333996027 -11.00000000
-3.68456650 10.91065884 1.00752044 12 5 34134 11.56000000 2333996030 2333996030 5.00000000
-1.20843887 3.58046460 -0.59851825 2 6 34135 3.82600000 2333996032 2333996032 -9.00000000
-1.61264014 4.78357649 -0.61982751 2 8 34137 5.08600000 2333996037 2333996037 -7.00000000
-3.59060335 10.66310501 2.18705273 56 11 34139 11.46200000 2333996044 2333996044 11.00000000
-3.43176532 10.20317459 2.48525929 51 13 34141 11.04800000 2333996048 2333996048 13.00000000
-2.95553279 8.79742241 2.48673344 38 15 34143 9.60800000 2333996053 2333996053 15.00000000
-0.69512558 2.07751131 -0.58700162 4 0 34150 2.26800000 2333996073 2333996073 -15.00000000
-0.81227446 2.43045139 -0.59162128 3 2 34152 2.63000000 2333996078 2333996078 -13.00000000
-3.68894792 11.03790665 0.60992324 2 3 34152 11.65400000 2333996080 2333996080 3.00000000
-0.97214663 2.91050363 -0.59646893 2 4 34153 3.12600000 2333996083 2333996083 -11.00000000
-3.68431115 11.03684616 1.01797903 12 5 34154 11.68000000 2333996085 2333996085 5.00000000
-1.19968438 3.59590411 -0.60039550 2 6 34155 3.83800000 2333996087 2333996087 -9.00000000
-1.59593248 4.78917646 -0.61982751 2 8 34157 5.08600000 2333996092 2333996092 -7.00000000
-3.55212021 10.67184830 2.18628955 59 11 34159 11.45800000 2333996099 2333996099 11.00000000
-3.39551401 10.21324253 2.48480940 52 13 34161 11.04600000 2333996103 2333996103 13.00000000
-2.92724133 8.81501961 2.48880386 38 15 34163 9.61600000 2333996108 2333996108 15.00000000
-0.68908268 2.08359337 -0.58803689 4 0 34170 2.27200000 2333996129 2333996129 -15.00000000
-0.80378562 2.43327212 -0.59162128 3 2 34172 2.63000000 2333996133 2333996133 -13.00000000
-3.68234563 11.14743519 0.61526150 2 3 34172 11.75600000 2333996136 2333996136 3.00000000
-0.96198118 2.91387939 -0.59646893 2 4 34173 3.12600000 2333996138 2333996138 -11.00000000
-3.67510390 11.13856602 1.02617168 12 5 34174 11.77400000 2333996140 2333996140 5.00000000
-1.19949734 3.63759017 -0.60665286 2 6 34175 3.87800000 2333996143 2333996143 -9.00000000
-1.57920539 4.79471779 -0.61982751 2 8 34177 5.08600000 2333996147 2333996147 -7.00000000
-3.51239276 10.67672253 2.18476295 56 11 34179 11.45000000 2333996154 2333996154 11.00000000
-3.35680079 10.21577644 2.48255992 55 13 34181 11.03600000 2333996159 2333996159 13.00000000
-2.89524841 8.82151318 2.48776865 38 15 34183 9.61200000 2333996163 2333996163 15.00000000
-0.67940462 2.07864118 -0.58596629 4 0 34190 2.26400000 2333996184 2333996184 -15.00000000
-0.79770613 2.44347310 -0.59342086 3 2 34192 2.63800000 2333996189 2333996189 -13.00000000
-3.68865943 11.29882240 0.62290257 5 3 34192 11.90200000 2333996191 2333996191 3.00000000
-0.94327855 2.89108968 -0.59112626 2 4 34193 3.09800000 2333996193 2333996193 -11.00000000
-1.17822361 3.61546087 -0.60227269 2 6 34195 3.85000000 2333996198 2333996198 -9.00000000
-1.56245911 4.80020142 -0.61982751 2 8 34197 5.08600000 2333996203 2333996203 -7.00000000
-3.47146058 10.67771626 2.18247318 56 11 34199 11.43800000 2333996209 2333996209 11.00000000
-3.32051873 10.22557831 2.48211002 51 13 34201 11.03400000 2333996214 2333996214 13.00000000
-2.86384201 8.82972813 2.48725104 38 15 34203 9.61000000 2333996219 2333996219 15.00000000
-0.67214471 2.08100009 -0.58596629 4 0 34210 2.26400000 2333996239 2333996239 -15.00000000
-0.79036862 2.44995189 -0.59432071 3 2 34212 2.64200000 2333996244 2333996244 -13.00000000
-0.93679565 2.90557599 -0.59341598 2 4 34213 3.11000000 2333996249 2333996249 -11.00000000
-1.15954101 3.60074878 -0.59914398 2 6 34215 3.83000000 2333996253 2333996253 -9.00000000
-1.54569376 4.80562592 -0.61982751 2 8 34217 5.08600000 2333996258 2333996258 -7.00000000
-3.43056440 10.67855358 2.18018365 53 11 34219 11.42600000 2333996265 2333996265 11.00000000
-3.28361368 10.23339558 2.48121023 48 13 34221 11.03000000 2333996269 2333996269 13.00000000
-2.83159614 8.82997799 2.48466277 38 15 34222 9.60000000 2333996274 2333996274 15.00000000
-0.66605121 2.08701444 -0.58700162 4 0 34230 2.26800000 2333996295 2333996295 -15.00000000
-0.77826089 2.44155574 -0.59162128 3 2 34232 2.63000000 2333996299 2333996299 -13.00000000
-0.93141490 2.92379332 -0.59646893 2 4 34233 3.12600000 2333996304 2333996304 -11.00000000
-1.15654802 3.63489246 -0.60414988 2 6 34235 3.86200000 2333996308 2333996308 -9.00000000
-1.52890956 4.81099224 -0.61982751 2 8 34237 5.08600000 2333996313 2333996313 -7.00000000
-3.38732886 10.67175102 2.17636728 53 11 34239 11.40600000 2333996320 2333996320 11.00000000
-3.24846148 10.24665260 2.48166013 51 13 34241 11.03200000 2333996325 2333996325 13.00000000
-2.80212951 8.84950542 2.48725104 38 15 34243 9.61000000 2333996329 2333996329 15.00000000
-0.65760028 2.08564162 -0.58596629 4 0 34250 2.26400000 2333996350 2333996350 -15.00000000
-0.77090418 2.44797492 -0.59252107 3 2 34252 2.63400000 2333996355 2333996355 -13.00000000
-0.92591834 2.94200826 -0.59952188 4 4 34253 3.14200000 2333996359 2333996359 -11.00000000
-1.14859176 3.65398312 -0.60665286 2 6 34255 3.87800000 2333996364 2333996364 -9.00000000
-1.51210678 4.81629992 -0.61982751 2 8 34257 5.08600000 2333996368 2333996368 -7.00000000
-3.34653234 10.67226982 2.17407775 56 11 34259 11.39400000 2333996375 2333996375 11.00000000
-3.21092677 10.25234985 2.48031044 48 13 34261 11.02600000 2333996380 2333996380 13.00000000
-2.77045989 8.85137463 2.48518038 38 15 34262 9.60200000 2333996385 2333996385 15.00000000
-0.65376294 2.09899116 -0.58907217 4 0 34270 2.27600000 2333996405 2333996405 -15.00000000
-0.76351219 2.45437264 -0.59342086 3 2 34272 2.63800000 2333996410 2333996410 -13.00000000
-0.90981477 2.92647505 -0.59570569 4 4 34273 3.12200000 2333996414 2333996414 -11.00000000
-1.13231528 3.64665103 -0.60477567 2 6 34275 3.86600000 2333996419 2333996419 -9.00000000
-1.48587751 4.79121256 -0.61592764 2 8 34277 5.05400000 2333996424 2333996424 -7.00000000
-3.30809712 10.68013573 2.17331457 56 11 34279 11.39000000 2333996431 2333996431 11.00000000
-3.17166424 10.25232601 2.47761083 50 13 34281 11.01400000 2333996435 2333996435 13.00000000
-2.74256182 8.87623596 2.48932147 42 15 34283 9.61800000 2333996440 2333996440 15.00000000
-0.64338869 2.09006953 -0.58596629 4 0 34289 2.26400000 2333996461 2333996461 -15.00000000
-0.75651437 2.46061635 -0.59432071 3 2 34291 2.64200000 2333996465 2333996465 -13.00000000
-0.89664549 2.91821599 -0.59341598 4 4 34292 3.11000000 2333996470 2333996470 -11.00000000
-1.12021637 3.65038610 -0.60477567 2 6 34294 3.86600000 2333996474 2333996474 -9.00000000
-1.47928846 4.82648087 -0.61982751 2 8 34296 5.08600000 2333996479 2333996479 -7.00000000
-3.27036357 10.68353748 2.17178798 56 11 34298 11.38200000 2333996486 2333996486 11.00000000
-3.13878846 10.26651478 2.47851062 48 13 34300 11.01800000 2333996491 2333996491 13.00000000
-2.71184039 8.87557030 2.48673344 38 15 34301 9.60800000 2333996495 2333996495 15.00000000
-0.63608903 2.09230256 -0.58596629 4 0 34309 2.26400000 2333996516 2333996516 -15.00000000
-0.75244999 2.47815967 -0.59791988 3 2 34311 2.65800000 2333996520 2333996520 -13.00000000
-0.89215422 2.94011474 -0.59723216 4 4 34312 3.13000000 2333996525 2333996525 -11.00000000
-1.10975897 3.66183591 -0.60602713 2 6 34314 3.87400000 2333996530 2333996530 -9.00000000
-1.47163320 4.86201429 -0.62372732 2 8 34316 5.11800000 2333996534 2333996534 -7.00000000
-3.22737026 10.67609596 2.16797185 59 11 34318 11.36200000 2333996541 2333996541 11.00000000
-3.10518551 10.28487015 2.48031044 48 13 34320 11.02600000 2333996546 2333996546 13.00000000
-2.67427206 8.86880302 2.48207474 38 15 34322 9.59000000 2333996550 2333996550 15.00000000
-0.63174695 2.10572219 -0.58907217 4 0 34330 2.27600000 2333996571 2333996571 -15.00000000
-0.73776865 2.46223330 -0.59342086 3 2 34332 2.63800000 2333996576 2333996576 -13.00000000
-0.88813031 2.96593380 -0.60181159 2 4 34333 3.15400000 2333996580 2333996580 -11.00000000
-1.08670831 3.63370538 -0.60070837 2 6 34335 3.84000000 2333996585 2333996585 -9.00000000
-1.45153069 4.85976744 -0.62275237 2 8 34337 5.11000000 2333996590 2333996590 -7.00000000
-3.18485141 10.67656517 2.16568208 56 11 34339 11.35000000 2333996596 2333996596 11.00000000
-3.06691217 10.29431438 2.47986031 51 13 34341 11.02400000 2333996601 2333996601 13.00000000
-2.64495158 8.88363934 2.48362756 38 15 34342 9.59600000 2333996606 2333996606 15.00000000
-0.62549007 2.11161923 -0.59010744 4 0 34350 2.28000000 2333996626 2333996626 -15.00000000
-0.72806370 2.46105623 -0.59252107 3 2 34352 2.63400000 2333996631 2333996631 -13.00000000
-0.87331897 2.95395422 -0.59875864 2 4 34353 3.13800000 2333996636 2333996636 -11.00000000
-1.08576477 3.67726135 -0.60727859 2 6 34355 3.88200000 2333996640 2333996640 -9.00000000
-1.42445159 4.83053207 -0.61836505 2 8 34357 5.07400000 2333996645 2333996645 -7.00000000
-3.14534521 10.68008423 2.16415572 56 11 34359 11.34200000 2333996652 2333996652 11.00000000
-3.02601075 10.28813171 2.47581124 50 13 34361 11.00600000 2333996656 2333996656 13.00000000
-2.60856247 8.88029861 2.48000407 40 15 34363 9.58200000 2333996661 2333996661 15.00000000
-0.61956930 2.11738992 -0.59114271 4 0 34369 2.28400000 2333996682 2333996682 -15.00000000
-0.72099179 2.46719813 -0.59342086 3 2 34371 2.63800000 2333996686 2333996686 -13.00000000
-0.86461926 2.96060324 -0.59952188 2 4 34372 3.14200000 2333996691 2333996691 -11.00000000
-1.07798934 3.69601274 -0.60978156 2 6 34374 3.89800000 2333996696 2333996696 -9.00000000
-1.41175604 4.84666443 -0.61982751 2 8 34376 5.08600000 2333996700 2333996700 -7.00000000
-3.10552454 10.67537498 2.16110277 56 11 34378 11.32600000 2333996707 2333996707 11.00000000
-2.98970270 10.29062462 2.47401166 50 13 34380 10.99800000 2333996712 2333996712 13.00000000
-2.58442187 8.90143681 2.48362756 40 15 34381 9.59600000 2333996716 2333996716 15.00000000
-0.61003023 2.11211586 -0.58907217 4 0 34389 2.27600000 2333996737 2333996737 -15.00000000
-0.71237528 2.46969986 -0.59342086 3 2 34391 2.63800000 2333996742 2333996742 -13.00000000
-0.84992933 2.94851160 -0.59646893 2 4 34392 3.12600000 2333996746 2333996746 -11.00000000
-1.06234896 3.69026160 -0.60821718 2 6 34394 3.88800000 2333996751 2333996751 -9.00000000
-1.40360546 4.88208771 -0.62372732 2 8 34396 5.11800000 2333996755 2333996755 -7.00000000
-3.06824160 10.68615055 2.16110277 53 11 34398 11.32600000 2333996762 2333996762 11.00000000
-2.95322633 10.29912472 2.47356176 51 13 34400 10.99600000 2333996767 2333996767 13.00000000
-2.54805613 8.89784908 2.48000407 42 15 34402 9.58200000 2333996772 2333996772 15.00000000
-0.60159475 2.11051655 -0.58803689 4 0 34409 2.27200000 2333996792 2333996792 -15.00000000
-0.70588428 2.47966862 -0.59522051 3 2 34411 2.64600000 2333996797 2333996797 -13.00000000
-0.84607822 2.97412038 -0.60104835 2 4 34412 3.15000000 2333996802 2333996802 -11.00000000
-1.04676175 3.68444657 -0.60665286 2 6 34414 3.87800000 2333996806 2333996806 -9.00000000
-1.38438785 4.87931871 -0.62275237 2 8 34416 5.11000000 2333996811 2333996811 -7.00000000
-3.02770996 10.68546200 2.15881300 53 11 34418 11.31400000 2333996818 2333996818 11.00000000
-2.91725779 10.30937004 2.47356176 51 13 34420 10.99600000 2333996822 2333996822 13.00000000
-2.51380467 8.88951874 2.47534537 40 15 34421 9.56400000 2333996827 2333996827 15.00000000
-0.59422398 2.11260366 -0.58803689 4 0 34429 2.27200000 2333996848 2333996848 -15.00000000
-0.69722432 2.48211741 -0.59522051 3 2 34431 2.64600000 2333996852 2333996852 -13.00000000
-0.83356905 2.96949482 -0.59952188 2 4 34432 3.14200000 2333996857 2333996857 -11.00000000
-1.02856219 3.66905737 -0.60352415 2 6 34434 3.85800000 2333996861 2333996861 -9.00000000
-1.37805080 4.92235327 -0.62762713 2 8 34436 5.15000000 2333996866 2333996866 -7.00000000
-2.98352027 10.67138577 2.15385199 50 11 34438 11.28800000 2333996873 2333996873 11.00000000
-2.88230157 10.32324409 2.47446156 51 13 34440 11.00000000 2333996878 2333996878 13.00000000
-2.48327827 8.90010071 2.47586298 42 15 34441 9.56600000 2333996882 2333996882 15.00000000
-0.58787918 2.11838818 -0.58907217 4 0 34449 2.27600000 2333996903 2333996903 -15.00000000
-0.68647408 2.47702432 -0.59342086 3 2 34451 2.63800000 2333996908 2333996908 -13.00000000
-0.82634246 2.98373866 -0.60181159 2 4 34452 3.15400000 2333996912 2333996912 -11.00000000
-1.02627993 3.71070337 -0.60978156 2 6 34454 3.89800000 2333996917 2333996917 -9.00000000
-1.34817636 4.88121080 -0.62177742 2 8 34456 5.10200000 2333996921 2333996921 -7.00000000
-2.94729590 10.68552017 2.15461516 50 11 34458 11.29200000 2333996928 2333996928 11.00000000
-2.84624934 10.33324242 2.47446156 56 13 34460 11.00000000 2333996933 2333996933 13.00000000
-2.45219612 8.90871429 2.47586298 42 15 34461 9.56600000 2333996937 2333996937 15.00000000
-0.58150125 2.12415385 -0.59010744 4 0 34469 2.28000000 2333996958 2333996958 -15.00000000
-0.68193460 2.49444342 -0.59702009 3 2 34471 2.65400000 2333996963 2333996963 -13.00000000
-0.80971360 2.96387887 -0.59723216 4 4 34472 3.13000000 2333996967 2333996967 -11.00000000
-1.00812173 3.69520593 -0.60665286 2 6 34474 3.87800000 2333996972 2333996972 -9.00000000
-1.33530402 4.90120935 -0.62372732 2 8 34476 5.11800000 2333996977 2333996977 -7.00000000
-2.90894771 10.69195461 2.15385199 43 11 34478 11.28800000 2333996984 2333996984 11.00000000
-2.80709648 10.33183193 2.47176218 59 13 34480 10.98800000 2333996988 2333996988 13.00000000
-2.42155099 8.92510033 2.47793365 42 15 34482 9.57400000 2333996993 2333996993 15.00000000
-0.57106149 2.11498046 -0.58700162 4 0 34489 2.26800000 2333997014 2333997014 -15.00000000
-0.67322320 2.49680877 -0.59702009 3 2 34491 2.65400000 2333997018 2333997018 -13.00000000
-0.80140591 2.97426987 -0.59875864 4 4 34492 3.13800000 2333997023 2333997023 -11.00000000
-1.00650859 3.74066806 -0.61353600 2 6 34494 3.92200000 2333997027 2333997027 -9.00000000
-1.31612706 4.89817190 -0.62275237 2 8 34496 5.11000000 2333997032 2333997032 -7.00000000
-2.87466097 10.71342087 2.15614176 46 11 34498 11.30000000 2333997039 2333997039 11.00000000
-2.77202344 10.34533215 2.47266197 59 13 34500 10.99200000 2333997043 2333997043 13.00000000
-2.38794351 8.91815186 2.47379231 42 15 34501 9.55800000 2333997048 2333997048 15.00000000
-0.56466949 2.12069440 -0.58803689 4 0 34509 2.27200000 2333997069 2333997069 -15.00000000
-0.66550511 2.50291014 -0.59791988 3 2 34511 2.65800000 2333997073 2333997073 -13.00000000
-0.79001057 2.97325420 -0.59799540 4 4 34512 3.13400000 2333997078 2333997078 -11.00000000
-0.98837912 3.72506571 -0.61040729 2 6 34514 3.90200000 2333997083 2333997083 -9.00000000
-1.30918968 4.94111395 -0.62762713 2 8 34516 5.15000000 2333997087 2333997087 -7.00000000
-2.83423352 10.71200180 2.15385199 46 11 34518 11.28800000 2333997094 2333997094 11.00000000
-2.73290777 10.34364033 2.46996260 59 13 34520 10.98000000 2333997099 2333997099 13.00000000
-2.34940147 8.89841557 2.46602798 40 15 34521 9.52800000 2333997103 2333997103 15.00000000
-0.55861568 2.12629223 -0.58907217 4 0 34528 2.27600000 2333997124 2333997124 -15.00000000
-0.65423447 2.49379349 -0.59522051 3 2 34530 2.64600000 2333997129 2333997129 -13.00000000
-0.78412944 2.99105024 -0.60104835 2 4 34531 3.15000000 2333997133 2333997133 -11.00000000
-0.97502041 3.72450066 -0.60978156 2 6 34533 3.89800000 2333997138 2333997138 -9.00000000
-1.28878069 4.93006372 -0.62567723 2 8 34535 5.13400000 2333997142 2333997142 -7.00000000
-2.79472876 10.70614529 2.15079904 40 11 34537 11.27200000 2333997149 2333997149 11.00000000
-2.69957495 10.35641766 2.47086239 56 13 34539 10.98400000 2333997154 2333997154 13.00000000
-2.32085419 8.90989685 2.46706319 40 15 34540 9.53200000 2333997159 2333997159 15.00000000
-0.55312753 2.13570976 -0.59114271 4 0 34548 2.28400000 2333997179 2333997179 -15.00000000
-0.64454967 2.49228859 -0.59432071 3 2 34550 2.64200000 2333997184 2333997184 -13.00000000
-0.77564883 3.00137234 -0.60257483 4 4 34551 3.15800000 2333997189 2333997189 -11.00000000
-0.96694946 3.74700856 -0.61291021 2 6 34553 3.91800000 2333997193 2333997193 -9.00000000
-1.27354503 4.94222164 -0.62665218 2 8 34555 5.14200000 2333997198 2333997198 -7.00000000
-2.75880814 10.72153950 2.15194392 46 11 34557 11.27800000 2333997205 2333997205 11.00000000
-2.65855837 10.34690380 2.46636343 59 13 34559 10.96400000 2333997209 2333997209 13.00000000
-2.28866243 8.92021465 2.46758080 42 15 34561 9.53400000 2333997214 2333997214 15.00000000
-0.54662478 2.14137125 -0.59217799 4 0 34568 2.28800000 2333997235 2333997235 -15.00000000
-0.63680869 2.49830008 -0.59522051 3 2 34570 2.64600000 2333997239 2333997239 -13.00000000
-0.76322901 2.99645162 -0.60104835 2 4 34571 3.15000000 2333997244 2333997244 -11.00000000
-0.94802111 3.72738791 -0.60915583 2 6 34573 3.89400000 2333997248 2333997248 -9.00000000
-1.24846756 4.91585255 -0.62275237 2 8 34575 5.11000000 2333997253 2333997253 -7.00000000
-2.72281384 10.73681259 2.15308881 43 11 34577 11.28400000 2333997260 2333997260 11.00000000
-2.62051129 10.34856415 2.46456385 55 13 34579 10.95600000 2333997265 2333997265 13.00000000
-2.25669980 8.91839123 2.46499252 40 15 34580 9.52400000 2333997269 2333997269 15.00000000
-0.53726155 2.13577223 -0.59010744 4 0 34588 2.28000000 2333997290 2333997290 -15.00000000
-0.63188207 2.51562786 -0.59881973 3 2 34590 2.66200000 2333997294 2333997294 -13.00000000
-0.75276482 2.99909759 -0.60104835 4 4 34591 3.15000000 2333997299 2333997299 -11.00000000
-0.94364840 3.76516461 -0.61478746 2 6 34593 3.93000000 2333997304 2333997304 -9.00000000
-1.24190259 4.96254635 -0.62811458 2 8 34595 5.15400000 2333997308 2333997308 -7.00000000
-2.68389082 10.74053764 2.15194392 37 11 34597 11.27800000 2333997315 2333997315 11.00000000
-2.58248496 10.35008526 2.46276402 60 13 34599 10.94800000 2333997320 2333997320 13.00000000
-2.22368574 8.91871548 2.46292210 40 15 34600 9.51600000 2333997324 2333997324 15.00000000
-0.52980304 2.13763475 -0.59010744 4 0 34608 2.28000000 2333997345 2333997345 -15.00000000
-0.62122446 2.51025152 -0.59702009 3 2 34610 2.65400000 2333997350 2333997350 -13.00000000
-0.74229139 3.00170684 -0.60104835 4 4 34611 3.15000000 2333997354 2333997354 -11.00000000
-0.92623794 3.75117564 -0.61197162 2 6 34613 3.91200000 2333997359 2333997359 -9.00000000
-1.22362220 4.96299648 -0.62762713 2 8 34615 5.15000000 2333997364 2333997364 -7.00000000
-2.64544439 10.74602795 2.15118051 40 11 34617 11.27400000 2333997371 2333997371 11.00000000
-2.54727101 10.36282158 2.46366405 59 13 34619 10.95200000 2333997375 2333997375 13.00000000
-2.18729806 8.91179657 2.45878100 40 15 34621 9.50000000 2333997380 2333997380 15.00000000
-0.52233809 2.13947105 -0.59010744 4 0 34628 2.28000000 2333997400 2333997400 -15.00000000
-0.61153519 2.50861812 -0.59612030 3 2 34630 2.65000000 2333997405 2333997405 -13.00000000
-0.73552608 3.01953959 -0.60410130 2 4 34631 3.16600000 2333997410 2333997410 -11.00000000
-0.91360509 3.75630522 -0.61228448 2 6 34633 3.91400000 2333997414 2333997414 -9.00000000
-1.21097517 4.98652744 -0.63006449 2 8 34635 5.17000000 2333997419 2333997419 -7.00000000
-2.60745502 10.75328922 2.15079904 40 11 34637 11.27200000 2333997426 2333997426 11.00000000
-2.50924826 10.36407375 2.46186423 59 13 34639 10.94400000 2333997430 2333997430 13.00000000
-2.15663075 8.92125511 2.45929861 42 15 34641 9.50200000 2333997435 2333997435 15.00000000
-0.51470959 2.13734508 -0.58907217 4 0 34646 2.27600000 2333997456 2333997456 -15.00000000
-0.60091764 2.49915862 -0.59342086 3 2 34648 2.63800000 2333997460 2333997460 -13.00000000
-0.72420174 3.01419973 -0.60257483 2 4 34649 3.15800000 2333997465 2333997465 -11.00000000
-0.90133905 3.75723600 -0.61197162 2 6 34651 3.91200000 2333997470 2333997470 -9.00000000
-1.19160438 4.97486353 -0.62811458 2 8 34653 5.15400000 2333997474 2333997474 -7.00000000
-2.56818008 10.73851490 2.14621949 40 11 34655 11.24800000 2333997481 2333997481 11.00000000
-2.47577095 10.36811543 2.46096444 56 13 34657 10.94000000 2333997486 2333997486 13.00000000
-2.12769723 8.92422867 2.45826340 38 15 34659 9.49800000 2333997490 2333997490 15.00000000
-0.51081157 2.15416646 -0.59321326 4 0 34666 2.29200000 2333997511 2333997511 -15.00000000
-0.59488410 2.51261878 -0.59612030 3 2 34668 2.65000000 2333997516 2333997516 -13.00000000
-0.71186787 3.00906706 -0.60104835 2 4 34669 3.15000000 2333997520 2333997520 -11.00000000
-0.89230525 3.77766156 -0.61478746 2 6 34671 3.93000000 2333997525 2333997525 -9.00000000
-1.16967511 4.95967197 -0.62567723 2 8 34673 5.13400000 2333997530 2333997530 -7.00000000
-2.53292990 10.75696850 2.14812756 40 11 34675 11.25800000 2333997536 2333997536 11.00000000
-2.43510461 10.35772419 2.45646548 56 13 34677 10.92000000 2333997541 2333997541 13.00000000
-2.09785724 8.93724346 2.45981622 42 15 34679 9.50400000 2333997546 2333997546 15.00000000
-0.50109321 2.14653015 -0.59062505 4 0 34686 2.28200000 2333997566 2333997566 -15.00000000
-0.58787918 2.52227163 -0.59791988 3 2 34688 2.65800000 2333997571 2333997571 -13.00000000
-0.69957870 3.00388527 -0.59952188 2 4 34689 3.14200000 2333997576 2333997576 -11.00000000
-0.87866592 3.77882934 -0.61447459 2 6 34691 3.92800000 2333997580 2333997580 -9.00000000
-1.15684462 4.98306131 -0.62811458 2 8 34693 5.15400000 2333997585 2333997585 -7.00000000
-2.49492240 10.76383209 2.14774609 37 11 34695 11.25600000 2333997592 2333997592 11.00000000
-2.39761639 10.36046505 2.45511580 54 13 34697 10.91400000 2333997596 2333997596 13.00000000
-2.06298590 8.92156410 2.45360446 40 15 34698 9.48000000 2333997601 2333997601 15.00000000
-0.49273214 2.14450073 -0.58958977 4 0 34706 2.27800000 2333997622 2333997622 -15.00000000
-0.58342844 2.54330230 -0.60241890 3 2 34708 2.67800000 2333997626 2333997626 -13.00000000
-0.69435251 3.02927256 -0.60410130 2 4 34709 3.16600000 2333997631 2333997631 -11.00000000
-0.86591065 3.78379893 -0.61478746 2 6 34711 3.93000000 2333997635 2333997635 -9.00000000
-1.12794721 4.93675327 -0.62177742 6 8 34713 5.10200000 2333997640 2333997640 -7.00000000
-2.45602441 10.76673317 2.14660120 37 11 34715 11.25000000 2333997647 2333997647 11.00000000
-2.36186981 10.37067127 2.45556569 56 13 34717 10.91600000 2333997652 2333997652 13.00000000
-2.02855968 8.92153072 2.45153403 38 15 34719 9.47200000 2333997656 2333997656 15.00000000
-0.48604438 2.14800692 -0.59010744 4 0 34725 2.28000000 2333997677 2333997677 -15.00000000
-0.56983829 2.52241302 -0.59702009 3 2 34727 2.65400000 2333997682 2333997682 -13.00000000
-0.68257409 3.02389812 -0.60257483 2 4 34728 3.15800000 2333997686 2333997686 -11.00000000
-0.85422695 3.79050374 -0.61541319 2 6 34730 3.93400000 2333997691 2333997691 -9.00000000
-1.12289941 4.99081993 -0.62811458 2 8 34732 5.15400000 2333997695 2333997695 -7.00000000
-2.41428328 10.74800110 2.14125848 40 11 34734 11.22200000 2333997702 2333997702 11.00000000
-2.32746649 10.37844658 2.45556569 55 13 34736 10.91600000 2333997707 2333997707 13.00000000
-2.00052190 8.92785931 2.45153403 42 15 34737 9.47200000 2333997712 2333997712 15.00000000
-0.47938302 2.15346193 -0.59114271 4 0 34745 2.28400000 2333997732 2333997732 -15.00000000
-0.55933881 2.51677752 -0.59522051 3 2 34747 2.64600000 2333997737 2333997737 -13.00000000
-0.67286575 3.03009558 -0.60333806 2 4 34748 3.16200000 2333997741 2333997741 -11.00000000
-0.84184551 3.79731965 -0.61603892 2 6 34750 3.93800000 2333997746 2333997746 -9.00000000
-1.11576676 5.04122591 -0.63396430 2 8 34752 5.20200000 2333997751 2333997751 -7.00000000
-2.37886906 10.76594830 2.14316654 40 11 34754 11.23200000 2333997758 2333997758 11.00000000
-2.28744650 10.36938095 2.45151663 54 13 34756 10.89800000 2333997762 2333997762 13.00000000
-1.96861708 8.93890476 2.45256925 38 15 34758 9.47600000 2333997767 2333997767 15.00000000
-0.47313839 2.16275334 -0.59321326 4 0 34766 2.29200000 2333997788 2333997788 -15.00000000
-0.55260545 2.53023386 -0.59791988 3 2 34768 2.65800000 2333997792 2333997792 -13.00000000
-0.66008115 3.02486897 -0.60181159 2 4 34769 3.15400000 2333997797 2333997797 -11.00000000
-0.82960385 3.80809999 -0.61729038 2 6 34771 3.94600000 2333997801 2333997801 -9.00000000
-2.33731103 10.76500225 2.14125848 37 11 34775 11.22200000 2333997813 2333997813 11.00000000
-2.24859977 10.37388611 2.45061684 53 13 34777 10.89400000 2333997818 2333997818 13.00000000
-1.93658471 8.94194603 2.45153403 42 15 34778 9.47200000 2333997822 2333997822 15.00000000
-0.46558610 2.16439176 -0.59321326 4 0 34786 2.29200000 2333997843 2333997843 -15.00000000
-0.54622489 2.54357910 -0.60061932 3 2 34788 2.67000000 2333997847 2333997847 -13.00000000
-0.64951837 3.02715445 -0.60181159 2 4 34789 3.15400000 2333997852 2333997852 -11.00000000
-0.81837475 3.82063055 -0.61885476 2 6 34791 3.95600000 2333997857 2333997857 -9.00000000
-2.29931021 10.77117538 2.14087701 37 11 34795 11.22000000 2333997868 2333997868 11.00000000
-2.21156216 10.37786007 2.44971704 53 13 34797 10.89000000 2333997873 2333997873 13.00000000
-1.90218985 8.94142628 2.44946337 38 15 34799 9.46400000 2333997877 2333997877 15.00000000
-0.45560613 2.15269399 -0.58958977 4 0 34805 2.27800000 2333997898 2333997898 -15.00000000
-0.53778708 2.54537654 -0.60061932 3 2 34807 2.67000000 2333997903 2333997903 -13.00000000
-0.64028740 3.03313375 -0.60257483 2 4 34808 3.15800000 2333997907 2333997907 -11.00000000
-0.80366397 3.81365871 -0.61729038 2 6 34810 3.94600000 2333997912 2333997912 -9.00000000
-1.05637646 5.02155209 -0.63006449 2 8 34812 5.17000000 2333997917 2333997917 -7.00000000
-2.26156163 10.76913452 2.13896894 37 11 34814 11.21000000 2333997923 2333997923 11.00000000
-2.17713594 10.38513660 2.44971704 54 13 34816 10.89000000 2333997928 2333997928 13.00000000
-1.87092185 8.93223095 2.44532228 38 15 34817 9.44800000 2333997933 2333997933 15.00000000
-0.44926926 2.15994525 -0.59114271 4 0 34825 2.28400000 2333997953 2333997953 -15.00000000
-0.52889878 2.54723811 -0.60061932 3 2 34827 2.67000000 2333997958 2333997958 -13.00000000
-0.63288623 3.05072880 -0.60562778 2 4 34828 3.17400000 2333997963 2333997963 -11.00000000
-0.78874457 3.80870342 -0.61603892 2 6 34830 3.93800000 2333997967 2333997967 -9.00000000
-1.03803778 5.02132130 -0.62957704 2 8 34832 5.16600000 2333997972 2333997972 -7.00000000
-2.22197247 10.76734924 2.13706064 40 11 34834 11.20000000 2333997979 2333997979 11.00000000
-2.14244437 10.40030766 2.45151663 51 13 34836 10.89800000 2333997983 2333997983 13.00000000
-1.83778191 8.93713665 2.44480467 40 15 34838 9.44600000 2333997988 2333997988 15.00000000
-0.44327411 2.16907120 -0.59321326 4 0 34845 2.29200000 2333998009 2333998009 -15.00000000
-0.51688790 2.53379369 -0.59702009 3 2 34847 2.65400000 2333998013 2333998013 -13.00000000
-0.62458581 3.06446171 -0.60791749 2 4 34848 3.18600000 2333998018 2333998018 -11.00000000
-0.77623254 3.81530499 -0.61666465 2 6 34850 3.94200000 2333998023 2333998023 -9.00000000
-1.02208412 5.03269529 -0.63055199 2 8 34852 5.17400000 2333998027 2333998027 -7.00000000
-2.18437386 10.77503967 2.13706064 50 11 34854 11.20000000 2333998034 2333998034 11.00000000
-2.10342193 10.39435291 2.44836736 53 13 34856 10.88400000 2333998039 2333998039 13.00000000
-1.81004941 8.95264912 2.44739294 38 15 34857 9.45600000 2333998043 2333998043 15.00000000
-0.43646032 2.17439342 -0.59424853 4 0 34865 2.29600000 2333998064 2333998064 -15.00000000
-0.50880587 2.53940392 -0.59791988 3 2 34867 2.65800000 2333998069 2333998069 -13.00000000
-0.61157286 3.05507278 -0.60562778 2 4 34868 3.17400000 2333998073 2333998073 -11.00000000
-0.76600647 3.83348799 -0.61916763 2 6 34870 3.95800000 2333998078 2333998078 -9.00000000
-1.00994658 5.06348705 -0.63396430 2 8 34872 5.20200000 2333998082 2333998082 -7.00000000
-2.14751554 10.78645039 2.13782406 43 11 34874 11.20400000 2333998089 2333998089 11.00000000
-2.06522679 10.39207458 2.44611788 53 13 34876 10.87400000 2333998094 2333998094 13.00000000
-1.77684820 8.95732784 2.44687533 40 15 34878 9.45400000 2333998099 2333998099 15.00000000
-0.42700392 2.16445708 -0.59114271 4 0 34884 2.28400000 2333998119 2333998119 -15.00000000
-0.50188810 2.54872537 -0.59971952 3 2 34886 2.66600000 2333998124 2333998124 -13.00000000
-0.60068053 3.05323148 -0.60486454 2 4 34887 3.17000000 2333998129 2333998129 -11.00000000
-0.75062549 3.82243848 -0.61697751 2 6 34889 3.94400000 2333998133 2333998133 -9.00000000
-0.99009526 5.05122423 -0.63201439 2 8 34891 5.18600000 2333998138 2333998138 -7.00000000
-2.11248851 10.79736519 2.13858724 43 11 34893 11.20800000 2333998145 2333998145 11.00000000
-2.03224802 10.40651703 2.44791746 53 13 34895 10.88200000 2333998149 2333998149 13.00000000
-1.74980903 8.96855450 2.44842815 38 15 34896 9.46000000 2333998154 2333998154 15.00000000
-0.42018053 2.16972756 -0.59217799 4 0 34904 2.28800000 2333998175 2333998175 -15.00000000
-0.49446768 2.55811501 -0.60151911 3 2 34906 2.67400000 2333998179 2333998179 -13.00000000
-0.59299713 3.07073069 -0.60791749 2 4 34907 3.18600000 2333998184 2333998184 -11.00000000
-0.73839968 3.83085442 -0.61791611 2 6 34909 3.95000000 2333998188 2333998188 -9.00000000
-2.07108331 10.78539371 2.13477111 46 11 34913 11.18800000 2333998200 2333998200 11.00000000
-1.99627697 10.41546154 2.44836736 56 13 34915 10.88400000 2333998205 2333998205 13.00000000
-1.71522248 8.95753098 2.44376945 38 15 34916 9.44200000 2333998209 2333998209 15.00000000
-0.41188288 2.16738534 -0.59114271 4 0 34924 2.28400000 2333998230 2333998230 -15.00000000
-0.48335627 2.54833794 -0.59881973 3 2 34926 2.66200000 2333998235 2333998235 -13.00000000
-0.58081257 3.06506610 -0.60639101 2 4 34927 3.17800000 2333998239 2333998239 -11.00000000
-0.72135204 3.81399894 -0.61478746 2 6 34929 3.93000000 2333998244 2333998244 -9.00000000
-0.96290815 5.10092735 -0.63737667 2 8 34931 5.23000000 2333998248 2333998248 -7.00000000
-2.03560376 10.80413342 2.13706064 43 11 34933 11.20000000 2333998255 2333998255 11.00000000
-1.96134865 10.43002701 2.45016694 55 13 34935 10.89200000 2333998260 2333998260 13.00000000
-1.68323100 8.95966625 2.44273424 38 15 34936 9.43800000 2333998264 2333998264 15.00000000
-0.40643904 2.18020463 -0.59424853 4 0 34944 2.29600000 2333998285 2333998285 -15.00000000
-0.47445795 2.55000949 -0.59881973 3 2 34946 2.66200000 2333998290 2333998290 -13.00000000
-0.57154512 3.07479572 -0.60791749 2 4 34947 3.18600000 2333998294 2333998294 -11.00000000
-0.71343917 3.84562731 -0.61948049 2 6 34949 3.96000000 2333998299 2333998299 -9.00000000
-0.93714565 5.06131506 -0.63201439 2 8 34951 5.18600000 2333998304 2333998304 -7.00000000
-1.39741552 7.55449486 -0.67214507 4 10 34952 7.71200000 2333998308 2333998308 -5.00000000
-1.99645078 10.80345058 2.13553429 43 11 34953 11.19200000 2333998311 2333998311 11.00000000
-1.92174804 10.41956139 2.44611788 54 13 34955 10.87400000 2333998315 2333998315 13.00000000
-1.65038085 8.96577549 2.44273424 38 15 34957 9.43800000 2333998320 2333998320 15.00000000
-0.39775130 2.17787886 -0.59321326 4 0 34965 2.29200000 2333998341 2333998341 -15.00000000
-0.46371076 2.54406285 -0.59702009 3 2 34967 2.65400000 2333998345 2333998345 -13.00000000
-0.56027162 3.07686996 -0.60791749 2 4 34968 3.18600000 2333998350 2333998350 -11.00000000
-0.69404137 3.81906319 -0.61478746 2 6 34970 3.93000000 2333998354 2333998354 -9.00000000
-0.91646314 5.05299664 -0.63055199 2 8 34972 5.17400000 2333998359 2333998359 -7.00000000
-1.35479832 7.47722626 -0.66482401 4 10 34973 7.62800000 2333998364 2333998364 -5.00000000
-1.95684075 10.81069565 2.13553429 46 11 34974 11.19200000 2333998366 2333998366 11.00000000
-1.88181341 10.41694641 2.44386816 50 13 34976 10.86400000 2333998370 2333998370 13.00000000
-1.61907446 8.97148228 2.44273424 40 15 34977 9.43800000 2333998375 2333998375 15.00000000
-0.38946578 2.17545056 -0.59217799 4 0 34985 2.28800000 2333998396 2333998396 -15.00000000
-0.45825499 2.56484962 -0.60151911 3 2 34987 2.67400000 2333998400 2333998400 -13.00000000
-0.54883796 3.07494140 -0.60715425 2 4 34988 3.18200000 2333998405 2333998405 -11.00000000
-0.68590236 3.85063386 -0.61948049 2 6 34990 3.96000000 2333998410 2333998410 -9.00000000
-0.90507317 5.09134483 -0.63493925 2 8 34992 5.21000000 2333998414 2333998414 -7.00000000
-1.32172227 7.44267607 -0.66133779 4 10 34993 7.58800000 2333998419 2333998419 -5.00000000
-1.92115009 10.82905865 2.13782406 43 11 34994 11.20400000 2333998421 2333998421 11.00000000
-1.84577966 10.42537117 2.44431806 57 13 34996 10.86600000 2333998426 2333998426 13.00000000
-1.58707535 8.97327423 2.44169879 42 15 34997 9.43400000 2333998430 2333998430 15.00000000
-0.38224956 2.17673016 -0.59217799 4 0 35004 2.28800000 2333998451 2333998451 -15.00000000
-0.45176542 2.57787204 -0.60421854 3 2 35006 2.68600000 2333998456 2333998456 -13.00000000
-0.53931516 3.08061218 -0.60791749 2 4 35007 3.18600000 2333998460 2333998460 -11.00000000
-0.67414933 3.85872507 -0.62041909 2 6 35009 3.96600000 2333998465 2333998465 -9.00000000
-0.88818473 5.09431839 -0.63493925 2 8 35011 5.21000000 2333998469 2333998469 -7.00000000
-1.88253689 10.81989574 2.13477111 43 11 35013 11.18800000 2333998476 2333998476 11.00000000
-1.81053102 10.42759418 2.44341826 54 13 35015 10.86200000 2333998481 2333998481 13.00000000
-1.55532920 8.96706772 2.43859315 45 15 35016 9.42200000 2333998486 2333998486 15.00000000
-0.37530401 2.18185902 -0.59321326 4 0 35024 2.29200000 2333998506 2333998506 -15.00000000
-0.44078612 2.56790924 -0.60151911 3 2 35026 2.67400000 2333998511 2333998511 -13.00000000
-0.52855855 3.08247590 -0.60791749 2 4 35027 3.18600000 2333998516 2333998516 -11.00000000
-0.65734404 3.84158397 -0.61729038 2 6 35029 3.94600000 2333998520 2333998520 -9.00000000
-0.87306982 5.11304188 -0.63688916 2 8 35031 5.22600000 2333998525 2333998525 -7.00000000
-1.27974164 7.50256491 -0.66586989 4 10 35032 7.64000000 2333998529 2333998529 -5.00000000
-1.84014010 10.79930687 2.12942839 50 11 35033 11.16000000 2333998532 2333998532 11.00000000
-1.77575421 10.44345665 2.44566774 56 13 35035 10.87200000 2333998536 2333998536 13.00000000
-1.52309918 8.97651672 2.43962836 42 15 35037 9.42600000 2333998541 2333998541 15.00000000
-0.36742431 2.17928171 -0.59217799 4 0 35043 2.28800000 2333998562 2333998562 -15.00000000
-0.43065163 2.55974817 -0.59926963 3 2 35045 2.66400000 2333998566 2333998566 -13.00000000
-0.51703227 3.07646728 -0.60639101 2 4 35046 3.17800000 2333998571 2333998571 -11.00000000
-0.64525473 3.84763908 -0.61791611 2 6 35048 3.95000000 2333998575 2333998575 -9.00000000
-0.85479903 5.10807753 -0.63591421 2 8 35050 5.21800000 2333998580 2333998580 -7.00000000
-1.80625832 10.81696796 2.13171816 43 11 35052 11.17200000 2333998587 2333998587 11.00000000
-1.73887062 10.43583202 2.44251847 54 13 35054 10.85800000 2333998592 2333998592 13.00000000
-1.49298811 8.96982384 2.43652248 42 15 35055 9.41400000 2333998596 2333998596 15.00000000
-0.36170208 2.19198751 -0.59528381 4 0 35063 2.30000000 2333998617 2333998617 -15.00000000
-0.42361343 2.57277298 -0.60196900 3 2 35065 2.67600000 2333998621 2333998621 -13.00000000
-0.50629026 3.07825351 -0.60639101 4 4 35066 3.17800000 2333998626 2333998626 -11.00000000
-0.63565892 3.87325954 -0.62167054 2 6 35068 3.97400000 2333998631 2333998631 -9.00000000
-0.83503848 5.09927607 -0.63445181 2 8 35070 5.20600000 2333998635 2333998635 -7.00000000
-1.76912224 10.82708168 2.13248134 43 11 35072 11.17600000 2333998642 2333998642 11.00000000
-1.70211864 10.43991470 2.44206858 55 13 35074 10.85600000 2333998647 2333998647 13.00000000
-1.46228945 8.97879410 2.43755770 40 15 35075 9.41800000 2333998651 2333998651 15.00000000
-0.35343269 2.18942237 -0.59424853 4 0 35083 2.29600000 2333998672 2333998672 -15.00000000
-0.41586977 2.58193183 -0.60376865 3 2 35085 2.68400000 2333998677 2333998677 -13.00000000
-0.49678949 3.08775520 -0.60791749 2 4 35086 3.18600000 2333998681 2333998681 -11.00000000
-0.62182176 3.87350440 -0.62135768 2 6 35088 3.97200000 2333998686 2333998686 -9.00000000
-0.82979196 5.18056440 -0.64420134 2 8 35090 5.28600000 2333998691 2333998691 -7.00000000
-1.73069823 10.82931423 2.13171816 46 11 35092 11.17200000 2333998698 2333998698 11.00000000
