# .PCD v0.7 - Point Cloud Data file format
VERSION 0.7
FIELDS x y z intensity laser_id azimuth distance_m adjustedtime timestamp vertical_angle
SIZE 4 4 4 1 1 2 8 8 4 8
TYPE F F F U U U F U U F
COUNT 1 1 1 1 1 1 1 1 1 1
WIDTH 539
HEIGHT 1
VIEWPOINT 0 0 0 1 0 0 0
POINTS 539
DATA ascii
7.70440340 4.29526377 2.36353540 45 15 6086 9.13200000 2334118146 2334118146 15.00000000
1.98566425 1.10384512 -0.60874242 4 0 6093 2.35200000 2334118166 2334118166 -15.00000000
8.22238922 4.56900740 0.16419224 16 1 6094 9.40800000 2334118169 2334118169 1.00000000
2.37308884 1.31813323 -0.62671363 3 2 6095 2.78600000 2334118171 2334118171 -13.00000000
8.23411942 4.57364511 0.49363273 15 3 6095 9.43200000 2334118173 2334118173 3.00000000
2.81838799 1.56483114 -0.62661672 4 4 6096 3.28400000 2334118176 2334118176 -11.00000000
8.22957230 4.56736088 0.82344747 81 5 6097 9.44800000 2334118178 2334118178 5.00000000
3.56701684 1.97885776 -0.64607435 4 6 6098 4.13000000 2334118180 2334118180 -9.00000000
8.24789238 4.57376337 1.15800250 87 7 6099 9.50200000 2334118183 2334118183 7.00000000
4.80580378 2.66390061 -0.67466867 4 8 6100 5.53600000 2334118185 2334118185 -7.00000000
8.22477150 4.55343723 -0.49269068 17 12 6103 9.41400000 2334118194 2334118194 -3.00000000
8.28320885 4.58390093 2.18562436 80 13 6104 9.71600000 2334118196 2334118196 13.00000000
8.21364689 4.54353333 -0.16384318 14 14 6105 9.38800000 2334118199 2334118199 -1.00000000
7.70920610 4.26273537 2.36042976 45 15 6106 9.12000000 2334118201 2334118201 15.00000000
1.99269700 1.09912050 -0.60977769 4 0 6112 2.35600000 2334118222 2334118222 -15.00000000
8.20947647 4.52626753 0.16363376 16 1 6113 9.37600000 2334118224 2334118224 1.00000000
2.36037993 1.30085051 -0.62221462 3 2 6114 2.76600000 2334118226 2334118226 -13.00000000
8.24224377 4.54245853 0.49321404 15 3 6114 9.42400000 2334118229 2334118229 3.00000000
2.83731842 1.56305492 -0.62966967 4 4 6115 3.30000000 2334118231 2334118231 -11.00000000
8.22721958 4.53043461 0.82170433 81 5 6116 9.42800000 2334118233 2334118233 5.00000000
3.55971527 1.95939779 -0.64357138 4 6 6117 4.11400000 2334118236 2334118236 -9.00000000
8.24562168 4.53681755 1.15556514 92 7 6118 9.48200000 2334118238 2334118238 7.00000000
4.80765390 2.64412284 -0.67369372 6 8 6119 5.52800000 2334118240 2334118240 -7.00000000
8.21881962 4.51459885 -0.49143463 17 12 6122 9.39000000 2334118249 2334118249 -3.00000000
8.28469849 4.54890442 2.18202519 82 13 6123 9.70000000 2334118252 2334118252 13.00000000
8.20938587 4.50568771 -0.16345924 18 14 6124 9.36600000 2334118254 2334118254 -1.00000000
7.72668695 4.23900557 2.36146498 45 15 6125 9.12400000 2334118256 2334118256 15.00000000
1.99652147 1.09215796 -0.60977769 4 0 6132 2.35600000 2334118277 2334118277 -15.00000000
8.20768070 4.48798990 0.16328472 13 1 6133 9.35600000 2334118279 2334118279 1.00000000
2.35806632 1.28886473 -0.62041503 3 2 6134 2.75800000 2334118282 2334118282 -13.00000000
8.22475147 4.49545956 0.49122527 10 3 6134 9.38600000 2334118284 2334118284 3.00000000
2.82897401 1.54561090 -0.62661672 4 4 6135 3.28400000 2334118286 2334118286 -11.00000000
8.23598957 4.49786901 0.82100707 85 5 6136 9.42000000 2334118289 2334118289 5.00000000
3.58040380 1.95453227 -0.64607435 4 6 6137 4.13000000 2334118291 2334118291 -9.00000000
8.23178482 4.49184322 1.15142155 94 7 6138 9.44800000 2334118293 2334118293 7.00000000
4.80291271 2.61972046 -0.67174381 4 8 6139 5.51200000 2334118296 2334118296 -7.00000000
8.20646572 4.47059488 -0.48975989 21 12 6142 9.35800000 2334118305 2334118305 -3.00000000
8.27143192 4.50411463 2.17437696 75 13 6143 9.66600000 2334118307 2334118307 13.00000000
8.22681999 4.47796011 -0.16349414 14 14 6144 9.36800000 2334118309 2334118309 -1.00000000
7.74143696 4.21200848 2.36146498 45 15 6145 9.12400000 2334118312 2334118312 15.00000000
2.00352812 1.08737421 -0.61081296 4 0 6151 2.36000000 2334118332 2334118332 -15.00000000
8.20845699 4.45311880 0.16300547 13 1 6152 9.34000000 2334118335 2334118335 1.00000000
2.36575365 1.28289592 -0.62131482 3 2 6153 2.76200000 2334118337 2334118337 -13.00000000
8.22381210 4.45959187 0.49028325 13 3 6153 9.36800000 2334118339 2334118339 3.00000000
2.84098792 1.53996348 -0.62814319 4 4 6154 3.29200000 2334118342 2334118342 -11.00000000
8.23509407 4.46199036 0.81943828 89 5 6155 9.40200000 2334118344 2334118344 5.00000000
3.58339167 1.94076693 -0.64544863 4 6 6156 4.12600000 2334118346 2334118346 -9.00000000
8.23441505 4.45790529 1.14971542 92 7 6157 9.43400000 2334118348 2334118348 7.00000000
4.82030249 2.60850286 -0.67296249 4 8 6158 5.52200000 2334118351 2334118351 -7.00000000
6.69080496 3.61921382 -0.66552126 17 10 6159 7.63600000 2334118355 2334118355 -5.00000000
8.20894623 4.43670940 -0.48902717 21 12 6161 9.34400000 2334118360 2334118360 -3.00000000
8.27432156 4.47017670 2.17122769 72 13 6162 9.65200000 2334118362 2334118362 13.00000000
8.21171188 4.43450117 -0.16290076 18 14 6163 9.33400000 2334118365 2334118365 -1.00000000
7.76143026 4.19133902 2.36353540 47 15 6163 9.13200000 2334118367 2334118367 15.00000000
2.00050712 1.07671177 -0.60874242 4 0 6171 2.35200000 2334118388 2334118388 -15.00000000
8.21690655 4.42064953 0.16286586 13 1 6172 9.33200000 2334118390 2334118390 1.00000000
2.37021732 1.27463007 -0.62131482 3 2 6173 2.76200000 2334118392 2334118392 -13.00000000
8.21822071 4.41950655 0.48902717 10 3 6173 9.34400000 2334118395 2334118395 3.00000000
2.83942914 1.52631903 -0.62661672 4 4 6174 3.28400000 2334118397 2334118397 -11.00000000
8.22780228 4.42095804 0.81717223 85 5 6175 9.37600000 2334118399 2334118399 5.00000000
3.59362483 1.93011606 -0.64607435 6 6 6176 4.13000000 2334118401 2334118401 -9.00000000
8.23593426 4.42162275 1.14776552 92 7 6177 9.41800000 2334118404 2334118404 7.00000000
4.83462620 2.59447694 -0.67369372 4 8 6178 5.52800000 2334118406 2334118406 -7.00000000
6.68584013 3.58641839 -0.66377813 12 10 6179 7.61600000 2334118411 2334118411 -5.00000000
8.21558189 4.40331030 -0.48850381 17 12 6181 9.33400000 2334118415 2334118415 -3.00000000
8.27269745 4.43206406 2.16672850 70 13 6182 9.63200000 2334118418 2334118418 13.00000000
8.20598793 4.39448166 -0.16248190 16 14 6183 9.31000000 2334118420 2334118420 -1.00000000
7.77163076 4.16012907 2.36198258 45 15 6184 9.12600000 2334118422 2334118422 15.00000000
1.99725008 1.06643224 -0.60667187 4 0 6190 2.34400000 2334118443 2334118443 -15.00000000
8.21211529 4.38301945 0.16248190 12 1 6191 9.31000000 2334118445 2334118445 1.00000000
2.38130856 1.27043235 -0.62311441 3 2 6192 2.77000000 2334118448 2334118448 -13.00000000
8.22478580 4.38609409 0.48850381 10 3 6193 9.33400000 2334118450 2334118450 3.00000000
2.84101033 1.51504707 -0.62585348 4 4 6193 3.28000000 2334118452 2334118452 -11.00000000
8.22307777 4.38333988 0.81525481 89 5 6194 9.35400000 2334118454 2334118454 5.00000000
3.58605886 1.91075730 -0.64357138 6 6 6195 4.11400000 2334118457 2334118457 -9.00000000
8.24354267 4.39055443 1.14679050 90 7 6196 9.41000000 2334118459 2334118459 7.00000000
4.84670782 2.58029628 -0.67418122 4 8 6197 5.53200000 2334118461 2334118461 -7.00000000
8.21955776 4.37041616 -0.48787579 17 12 6200 9.32200000 2334118471 2334118471 -3.00000000
8.28046608 4.40094805 2.16492891 68 13 6201 9.62400000 2334118473 2334118473 13.00000000
8.20462132 4.35880184 -0.16216776 16 14 6202 9.29200000 2334118475 2334118475 -1.00000000
7.76760101 4.12662935 2.35680628 45 15 6202 9.10600000 2334118478 2334118478 15.00000000
2.00778961 1.06306982 -0.60874242 4 0 6210 2.35200000 2334118498 2334118498 -15.00000000
8.20438862 4.34216690 0.16202815 12 1 6211 9.28400000 2334118501 2334118501 1.00000000
2.38917375 1.26393473 -0.62401420 3 2 6212 2.77400000 2334118503 2334118503 -13.00000000
8.23651505 4.35549021 0.48829448 13 3 6213 9.33000000 2334118505 2334118505 3.00000000
2.84628153 1.50512087 -0.62585348 5 4 6213 3.28000000 2334118507 2334118507 -11.00000000
8.22247505 4.34622955 0.81368601 81 5 6214 9.33600000 2334118510 2334118510 5.00000000
3.58572054 1.89453673 -0.64231992 6 6 6215 4.10600000 2334118512 2334118512 -9.00000000
8.24126530 4.35248184 1.14435315 90 7 6216 9.39000000 2334118514 2334118514 7.00000000
4.86621809 2.56892276 -0.67564362 4 8 6217 5.54400000 2334118517 2334118517 -7.00000000
8.20472813 4.32586241 -0.48609635 17 12 6220 9.28800000 2334118526 2334118526 -3.00000000
8.28198528 4.36474848 2.16132975 72 13 6221 9.60800000 2334118528 2334118528 13.00000000
8.21447849 4.32733965 -0.16206305 16 14 6222 9.28600000 2334118531 2334118531 -1.00000000
7.79122066 4.10263252 2.35939431 45 15 6223 9.11600000 2334118533 2334118533 15.00000000
2.01851487 1.05929470 -0.61081296 4 0 6231 2.36000000 2334118554 2334118554 -15.00000000
8.20431042 4.30370665 0.16171400 15 1 6232 9.26600000 2334118556 2334118556 1.00000000
2.38170910 1.24883485 -0.62086493 4 2 6233 2.76000000 2334118558 2334118558 -13.00000000
8.22411919 4.31043768 0.48661971 10 3 6234 9.29800000 2334118560 2334118560 3.00000000
2.86568999 1.50196981 -0.62890643 5 4 6234 3.29600000 2334118563 2334118563 -11.00000000
8.22599602 4.30959129 0.81246585 86 5 6235 9.32200000 2334118565 2334118565 5.00000000
3.61013961 1.89054585 -0.64544863 6 6 6236 4.12600000 2334118567 2334118567 -9.00000000
8.23254108 4.30935860 1.14094079 85 7 6237 9.36200000 2334118570 2334118570 7.00000000
4.87032413 2.54830909 -0.67491245 6 8 6238 5.53800000 2334118572 2334118572 -7.00000000
8.20105648 4.28558636 -0.48494497 21 12 6241 9.26600000 2334118581 2334118581 -3.00000000
8.27892780 4.32443953 2.15638089 74 13 6242 9.58600000 2334118584 2334118584 13.00000000
8.21433067 4.28887320 -0.16174890 14 14 6243 9.26800000 2334118586 2334118586 -1.00000000
7.80549431 4.07541132 2.35939431 45 15 6243 9.11600000 2334118588 2334118588 15.00000000
2.01877284 1.05045879 -0.60977769 4 0 6251 2.35600000 2334118609 2334118609 -15.00000000
8.21750927 4.27411938 0.16167909 12 1 6252 9.26400000 2334118611 2334118611 1.00000000
2.39469886 1.24500811 -0.62311441 3 2 6253 2.77000000 2334118613 2334118613 -13.00000000
8.21962070 4.27157307 0.48546833 13 3 6254 9.27600000 2334118616 2334118616 3.00000000
2.86046314 1.48652565 -0.62661672 5 4 6254 3.28400000 2334118618 2334118618 -11.00000000
8.22684479 4.27350330 0.81107134 78 5 6255 9.30600000 2334118620 2334118620 5.00000000
3.60970449 1.87429130 -0.64419711 6 6 6256 4.11800000 2334118623 2334118623 -9.00000000
8.23696136 4.27510834 1.13947833 87 7 6257 9.35000000 2334118625 2334118625 7.00000000
4.87566566 2.52946472 -0.67442495 6 8 6258 5.53400000 2334118627 2334118627 -7.00000000
8.19645977 4.24682617 -0.48379359 17 12 6261 9.24400000 2334118636 2334118636 -3.00000000
8.27147675 4.28386354 2.15053201 75 13 6262 9.56000000 2334118639 2334118639 13.00000000
8.21504498 4.25281906 -0.16146967 14 14 6263 9.25200000 2334118641 2334118641 -1.00000000
7.82037878 4.04677534 2.35939431 45 15 6264 9.11600000 2334118643 2334118643 15.00000000
2.02911186 1.04730272 -0.61184824 4 0 6270 2.36400000 2334118664 2334118664 -15.00000000
8.21386623 4.23767710 0.16133004 12 1 6271 9.24400000 2334118666 2334118666 1.00000000
2.39535046 1.23527384 -0.62221462 3 2 6272 2.76600000 2334118669 2334118669 -13.00000000
8.22663975 4.24063158 0.48504964 13 3 6273 9.26800000 2334118671 2334118671 3.00000000
2.86363173 1.47613227 -0.62623513 5 4 6273 3.28200000 2334118673 2334118673 -11.00000000
8.21794605 4.23433542 0.80880529 82 5 6274 9.28000000 2334118676 2334118676 5.00000000
3.62292457 1.86592877 -0.64544863 6 6 6275 4.12600000 2334118678 2334118678 -9.00000000
8.24050331 4.24231863 1.13801599 87 7 6276 9.33800000 2334118680 2334118680 7.00000000
4.88049650 2.51146579 -0.67393744 6 8 6277 5.53000000 2334118683 2334118683 -7.00000000
8.30453968 4.27345181 1.47924435 2 9 6277 9.45600000 2334118685 2334118685 9.00000000
6.68302488 3.43755770 -0.65750295 12 10 6278 7.54400000 2334118687 2334118687 -5.00000000
8.20339203 4.21597052 -0.48337489 17 12 6280 9.23600000 2334118692 2334118692 -3.00000000
8.26830292 4.24750614 2.14603305 78 13 6281 9.54000000 2334118694 2334118694 13.00000000
8.20064068 4.21093893 -0.16091119 18 14 6282 9.22000000 2334118696 2334118696 -1.00000000
7.82617950 4.01865721 2.35732388 45 15 6282 9.10800000 2334118699 2334118699 15.00000000
2.01899719 1.03317308 -0.60770714 4 0 6290 2.34800000 2334118719 2334118719 -15.00000000
8.20368385 4.19623089 0.16084138 12 1 6291 9.21600000 2334118722 2334118722 1.00000000
2.40658808 1.23045349 -0.62401420 3 2 6292 2.77400000 2334118724 2334118724 -13.00000000
8.22182846 4.20189142 0.48389825 13 3 6293 9.24600000 2334118726 2334118726 3.00000000
2.87750793 1.47059453 -0.62814319 5 4 6293 3.29200000 2334118729 2334118729 -11.00000000
8.21138477 4.19474697 0.80671358 78 5 6294 9.25600000 2334118731 2334118731 5.00000000
3.61886001 1.84788096 -0.64357138 6 6 6295 4.11400000 2334118733 2334118733 -9.00000000
8.24465275 4.20811319 1.13655353 90 7 6296 9.32600000 2334118736 2334118736 7.00000000
4.90337944 2.50163150 -0.67588741 6 8 6297 5.54600000 2334118738 2334118738 -7.00000000
6.67190981 3.40244174 -0.65523690 12 10 6298 7.51800000 2334118742 2334118742 -5.00000000
8.20738125 4.18186951 -0.48274687 17 12 6300 9.22400000 2334118747 2334118747 -3.00000000
8.27613258 4.21508121 2.14423347 80 13 6301 9.53200000 2334118749 2334118749 13.00000000
8.20637894 4.17775154 -0.16073667 16 14 6302 9.21000000 2334118752 2334118752 -1.00000000
7.83396912 3.98644114 2.35525322 45 15 6303 9.10000000 2334118754 2334118754 15.00000000
2.01914573 1.02437103 -0.60667187 4 0 6310 2.34400000 2334118775 2334118775 -15.00000000
8.18974590 4.15309811 0.16028289 12 1 6311 9.18400000 2334118777 2334118777 1.00000000
2.40565395 1.21940219 -0.62266451 4 2 6312 2.76800000 2334118779 2334118779 -13.00000000
8.23822784 4.17406893 0.48400292 15 3 6313 9.24800000 2334118782 2334118782 3.00000000
2.88262367 1.46054113 -0.62814319 5 4 6313 3.29200000 2334118784 2334118784 -11.00000000
8.21886826 4.16245747 0.80601633 78 5 6314 9.24800000 2334118786 2334118786 5.00000000
3.62528825 1.83523750 -0.64357138 6 6 6315 4.11400000 2334118789 2334118789 -9.00000000
8.23803711 4.16855335 1.13362861 92 7 6316 9.30200000 2334118791 2334118791 7.00000000
4.90145350 2.47912455 -0.67442495 6 8 6317 5.53400000 2334118793 2334118793 -7.00000000
6.66774321 3.37104130 -0.65366805 12 10 6318 7.50000000 2334118798 2334118798 -5.00000000
8.20231819 4.14328909 -0.48159546 17 12 6320 9.20200000 2334118802 2334118802 -3.00000000
8.26992130 4.17562628 2.13883471 80 13 6321 9.50800000 2334118805 2334118805 13.00000000
8.21377087 4.14547634 -0.16059704 16 14 6322 9.20200000 2334118807 2334118807 -1.00000000
7.84886980 3.96131134 2.35577106 45 15 6322 9.10200000 2334118809 2334118809 15.00000000
2.03306437 1.02252483 -0.60977769 4 0 6330 2.35600000 2334118830 2334118830 -15.00000000
8.19704628 4.12089252 0.16014329 12 1 6331 9.17600000 2334118832 2334118832 1.00000000
2.40641332 1.20924747 -0.62176472 4 2 6332 2.76400000 2334118835 2334118835 -13.00000000
8.22419167 4.13094330 0.48232818 15 3 6333 9.21600000 2334118837 2334118837 3.00000000
2.88770437 1.45047009 -0.62814319 5 4 6333 3.29200000 2334118839 2334118839 -11.00000000
8.22266388 4.12837934 0.80497044 82 5 6334 9.23600000 2334118842 2334118842 5.00000000
3.63167238 1.82257175 -0.64357138 6 6 6335 4.11400000 2334118844 2334118844 -9.00000000
8.22059917 4.12375021 1.12924135 97 7 6336 9.26600000 2334118846 2334118846 7.00000000
4.90297937 2.45844102 -0.67344999 9 8 6337 5.52600000 2334118848 2334118848 -7.00000000
8.32307625 4.17152023 1.47455132 2 9 6338 9.42600000 2334118851 2334118851 9.00000000
6.71509361 3.36560059 -0.65715432 8 10 6338 7.54000000 2334118853 2334118853 -5.00000000
8.20423031 4.10837221 -0.48086277 17 12 6340 9.18800000 2334118858 2334118858 -3.00000000
8.26353455 4.13626623 2.13343573 76 13 6341 9.48400000 2334118860 2334118860 13.00000000
8.21388531 4.10962152 -0.16031781 16 14 6342 9.18600000 2334118862 2334118862 -1.00000000
7.86506414 3.93338132 2.35628867 45 15 6343 9.10400000 2334118865 2334118865 15.00000000
2.04353666 1.01886976 -0.61184824 4 0 6350 2.36400000 2334118885 2334118885 -15.00000000
8.20422268 4.08868647 0.16000366 12 1 6351 9.16800000 2334118888 2334118888 1.00000000
8.18947887 4.07955503 -2.11229038 8 2 6352 9.39000000 2334118890 2334118890 -13.00000000
8.21174240 4.08885670 0.48075810 13 3 6353 9.18600000 2334118892 2334118892 3.00000000
2.89099240 1.43950617 -0.62776160 5 4 6353 3.29000000 2334118895 2334118895 -11.00000000
8.22275543 4.09254932 0.80357593 82 5 6354 9.22000000 2334118897 2334118897 5.00000000
3.65216112 1.81692266 -0.64607435 4 6 6355 4.13000000 2334118899 2334118899 -9.00000000
8.22427940 4.08972645 1.12777889 92 7 6356 9.25400000 2334118901 2334118901 7.00000000
4.89731026 2.43424296 -0.67150009 6 8 6357 5.51000000 2334118904 2334118904 -7.00000000
6.77140808 3.36430287 -0.66151208 8 10 6358 7.59000000 2334118908 2334118908 -5.00000000
8.20063114 4.07082891 -0.47981605 17 12 6360 9.16800000 2334118913 2334118913 -3.00000000
8.25872040 4.09786797 2.12848687 74 13 6361 9.46200000 2334118915 2334118915 13.00000000
8.20668221 4.07026243 -0.15989895 16 14 6362 9.16200000 2334118918 2334118918 -1.00000000
7.88498688 3.91071153 2.35835910 45 15 6362 9.11200000 2334118920 2334118920 15.00000000
2.04015326 1.00830650 -0.60977769 4 0 6370 2.35600000 2334118941 2334118941 -15.00000000
8.21127319 4.05648088 0.15986404 12 1 6371 9.16000000 2334118943 2334118943 1.00000000
8.19668007 4.04749203 -2.11049080 8 2 6372 9.38200000 2334118945 2334118945 -13.00000000
8.22596550 4.06016731 0.48075810 13 3 6373 9.18600000 2334118948 2334118948 3.00000000
2.89247870 1.42766809 -0.62699836 5 4 6373 3.28600000 2334118950 2334118950 -11.00000000
8.22091007 4.05588818 0.80200714 86 5 6374 9.20200000 2334118952 2334118952 5.00000000
3.65139437 1.80066848 -0.64482284 4 6 6375 4.12200000 2334118954 2334118954 -9.00000000
8.22782135 4.05572748 1.12631643 95 7 6376 9.24200000 2334118957 2334118957 7.00000000
4.92358446 2.42590690 -0.67393744 9 8 6377 5.53000000 2334118959 2334118959 -7.00000000
8.20045471 4.03512383 -0.47897866 17 12 6380 9.15200000 2334118968 2334118968 -3.00000000
8.26248264 4.06385422 2.12578750 74 13 6381 9.45000000 2334118971 2334118971 13.00000000
8.19751167 4.03012180 -0.15944518 18 14 6382 9.13600000 2334118973 2334118973 -1.00000000
7.89165545 3.87975478 2.35628867 45 15 6382 9.10400000 2334118975 2334118975 15.00000000
2.03654695 0.99813479 -0.60770714 4 0 6389 2.34800000 2334118996 2334118996 -15.00000000
8.20133495 4.01779222 0.15941028 12 1 6390 9.13400000 2334118998 2334118998 1.00000000
8.19955540 4.01514673 -2.10779142 8 2 6391 9.37000000 2334119001 2334119001 -13.00000000
8.21785736 4.02233028 0.47950202 13 3 6392 9.16200000 2334119003 2334119003 3.00000000
2.88485360 1.41202676 -0.62432700 5 4 6392 3.27200000 2334119005 2334119005 -11.00000000
8.20388985 4.01371908 0.79904383 78 5 6393 9.16800000 2334119007 2334119007 5.00000000
3.65734553 1.78855002 -0.64482284 4 6 6394 4.12200000 2334119010 2334119010 -9.00000000
8.22695827 4.02144670 1.12436652 95 7 6395 9.22600000 2334119012 2334119012 7.00000000
4.93516922 2.41130924 -0.67442495 6 8 6396 5.53400000 2334119014 2334119014 -7.00000000
7.54786348 3.68623233 -0.73489720 13 10 6397 8.43200000 2334119019 2334119019 -5.00000000
8.21558571 4.00878382 -0.47908333 17 12 6399 9.15400000 2334119024 2334119024 -3.00000000
8.26715565 4.03216124 2.12353802 70 13 6400 9.44000000 2334119026 2334119026 13.00000000
8.19285583 3.99415278 -0.15909614 14 14 6401 9.11600000 2334119028 2334119028 -1.00000000
7.90795040 3.85525680 2.35732388 45 15 6401 9.10800000 2334119030 2334119030 15.00000000
2.04523158 0.99355227 -0.60926002 4 0 6409 2.35400000 2334119051 2334119051 -15.00000000
8.19552231 3.97953176 0.15902632 18 1 6410 9.11200000 2334119054 2334119054 1.00000000
8.19248295 3.97628927 -2.10239244 8 2 6411 9.34600000 2334119056 2334119056 -13.00000000
8.22465992 3.99013305 0.47908333 10 3 6412 9.15400000 2334119058 2334119058 3.00000000
2.90036297 1.40708971 -0.62661672 5 4 6412 3.28400000 2334119060 2334119060 -11.00000000
8.20171642 3.97723365 0.79747504 75 5 6413 9.15000000 2334119063 2334119063 5.00000000
3.64579082 1.76715660 -0.64169419 6 6 6414 4.10200000 2334119065 2334119065 -9.00000000
8.22665405 3.98578048 1.12241662 92 7 6415 9.21000000 2334119067 2334119067 7.00000000
4.96499538 2.40445018 -0.67734981 6 8 6416 5.55800000 2334119070 2334119070 -7.00000000
7.56068468 3.65986300 -0.73489720 13 10 6417 8.43200000 2334119074 2334119074 -5.00000000
8.19536686 3.96355963 -0.47709459 17 12 6419 9.11600000 2334119079 2334119079 -3.00000000
8.27065277 3.99818993 2.12083864 66 13 6420 9.42800000 2334119081 2334119081 13.00000000
8.20134640 3.96292019 -0.15899143 18 14 6421 9.11000000 2334119083 2334119083 -1.00000000
7.92550707 3.82792735 2.35835910 45 15 6422 9.11200000 2334119086 2334119086 15.00000000
2.06087136 0.99227351 -0.61288351 4 0 6429 2.36800000 2334119107 2334119107 -15.00000000
8.19674969 3.94482946 0.15878199 21 1 6430 9.09800000 2334119109 2334119109 1.00000000
8.18172741 3.93584108 -2.09609389 8 2 6431 9.31800000 2334119111 2334119111 -13.00000000
8.20973873 3.94755125 0.47740859 10 3 6432 9.12200000 2334119113 2334119113 3.00000000
2.91056514 1.39950931 -0.62776160 5 4 6432 3.29000000 2334119116 2334119116 -11.00000000
8.20297909 3.94253850 0.79625487 75 5 6433 9.13600000 2334119118 2334119118 5.00000000
3.66974282 1.76297355 -0.64482284 6 6 6434 4.12200000 2334119120 2334119120 -9.00000000
8.21904278 3.94672823 1.11949182 90 7 6435 9.18600000 2334119123 2334119123 7.00000000
4.94830370 2.37507892 -0.67393744 6 8 6436 5.53000000 2334119125 2334119125 -7.00000000
7.57700682 3.63517261 -0.73524582 13 10 6437 8.43600000 2334119130 2334119130 -5.00000000
8.19294262 3.92715859 -0.47615254 17 12 6439 9.09800000 2334119134 2334119134 -3.00000000
8.26698494 3.96087551 2.11633945 70 13 6440 9.40800000 2334119136 2334119136 13.00000000
8.20430851 3.92908549 -0.15878199 18 14 6441 9.09800000 2334119139 2334119139 -1.00000000
7.94861126 3.80663085 2.36146498 45 15 6441 9.12400000 2334119141 2334119141 15.00000000
2.05734849 0.98174572 -0.61081296 4 0 6449 2.36000000 2334119162 2334119162 -15.00000000
8.20325089 3.91274977 0.15864238 18 1 6450 9.09000000 2334119164 2334119164 1.00000000
8.18486214 3.90222573 -2.09339452 8 2 6451 9.30600000 2334119166 2334119166 -13.00000000
8.20904350 3.91199613 0.47657123 10 3 6452 9.10600000 2334119169 2334119169 3.00000000
2.90302634 1.38342893 -0.62509024 5 4 6452 3.27600000 2334119171 2334119171 -11.00000000
8.21669102 3.91388083 0.79625487 82 5 6453 9.13600000 2334119173 2334119173 5.00000000
3.66160607 1.74335968 -0.64231992 6 6 6454 4.10600000 2334119176 2334119176 -9.00000000
8.22560024 3.91460228 1.11851680 90 7 6455 9.17800000 2334119178 2334119178 7.00000000
4.95297861 2.35608602 -0.67344999 6 8 6456 5.52600000 2334119180 2334119180 -7.00000000
7.59324837 3.61041284 -0.73559445 13 10 6457 8.44000000 2334119185 2334119185 -5.00000000
8.20299244 3.89682198 -0.47594318 17 12 6459 9.09400000 2334119189 2334119189 -3.00000000
8.26315689 3.92363524 2.11184049 72 13 6460 9.38800000 2334119192 2334119192 13.00000000
8.19268227 3.88841939 -0.15829332 16 14 6461 9.07000000 2334119194 2334119194 -1.00000000
7.96185064 3.77886176 2.36146498 45 15 6461 9.12400000 2334119196 2334119196 15.00000000
2.05552363 0.97208053 -0.60926002 4 0 6469 2.35400000 2334119218 2334119218 -15.00000000
8.20601177 3.87896371 0.15843295 18 1 6470 9.07800000 2334119220 2334119220 1.00000000
8.19138622 3.87030149 -2.09159493 8 2 6471 9.29800000 2334119223 2334119223 -13.00000000
8.20933056 3.87877989 0.47583851 10 3 6471 9.09200000 2334119225 2334119225 3.00000000
2.91671395 1.37747896 -0.62699836 5 4 6472 3.28600000 2334119227 2334119227 -11.00000000
8.21588898 3.87837124 0.79486036 78 5 6473 9.12000000 2334119230 2334119230 5.00000000
3.67481518 1.73393941 -0.64357138 6 6 6474 4.11400000 2334119232 2334119232 -9.00000000
8.22485065 3.87909150 1.11656690 92 7 6475 9.16200000 2334119234 2334119234 7.00000000
4.95399046 2.33539677 -0.67247504 6 8 6476 5.51800000 2334119236 2334119236 -7.00000000
8.30319786 3.91427088 1.45390189 2 9 6476 9.29400000 2334119239 2334119239 9.00000000
7.60400248 3.58303618 -0.73542017 13 10 6477 8.43800000 2334119241 2334119241 -5.00000000
8.19847488 3.85965753 -0.47489646 17 12 6479 9.07400000 2334119246 2334119246 -3.00000000
8.26093292 3.88730001 2.10779142 74 13 6480 9.37000000 2334119248 2334119248 13.00000000
8.18630028 3.85043550 -0.15790938 18 14 6481 9.04800000 2334119250 2334119250 -1.00000000
7.97499275 3.75104666 2.36146498 45 15 6481 9.12400000 2334119253 2334119253 15.00000000
2.05015802 0.96080053 -0.60667187 4 0 6489 2.34400000 2334119273 2334119273 -15.00000000
8.20320415 3.84266138 0.15811880 15 1 6490 9.06000000 2334119276 2334119276 1.00000000
8.18543243 3.83259463 -2.08664608 8 2 6491 9.27600000 2334119278 2334119278 -13.00000000
8.21082878 3.84273887 0.47510582 13 3 6492 9.07800000 2334119280 2334119280 3.00000000
2.91439199 1.36396062 -0.62547189 5 4 6492 3.27800000 2334119283 2334119283 -11.00000000
8.20591640 3.83869386 0.79259431 78 5 6493 9.09400000 2334119285 2334119285 5.00000000
3.68084526 1.72110140 -0.64357138 6 6 6494 4.11400000 2334119287 2334119287 -9.00000000
8.23114777 3.84699583 1.11559200 92 7 6495 9.15400000 2334119289 2334119289 7.00000000
4.96391106 2.31893015 -0.67271876 9 8 6496 5.52000000 2334119292 2334119292 -7.00000000
8.35507584 3.90136290 1.46047211 2 9 6497 9.33600000 2334119294 2334119294 9.00000000
7.60021591 3.54888487 -0.73385137 13 10 6497 8.42000000 2334119296 2334119296 -5.00000000
8.20103836 3.82594943 -0.47426844 17 12 6499 9.06200000 2334119301 2334119301 -3.00000000
8.26032257 3.85185170 2.10419226 74 13 6500 9.35400000 2334119303 2334119303 13.00000000
8.19787884 3.82099175 -0.15787446 16 14 6501 9.04600000 2334119306 2334119306 -1.00000000
7.98518515 3.72016001 2.36042976 45 15 6502 9.12000000 2334119308 2334119308 15.00000000
2.06225991 0.95770669 -0.60926002 4 0 6509 2.35400000 2334119329 2334119329 -15.00000000
8.18935966 3.80137444 0.15759523 12 1 6510 9.03000000 2334119331 2334119331 1.00000000
8.17931557 3.79497695 -2.08169699 8 2 6511 9.25400000 2334119333 2334119333 -13.00000000
8.22352695 3.81548977 0.47510582 10 3 6511 9.07800000 2334119336 2334119336 3.00000000
2.92091632 1.35460520 -0.62585348 5 4 6512 3.28000000 2334119338 2334119338 -11.00000000
8.21022797 3.80583692 0.79172277 75 5 6513 9.08400000 2334119340 2334119340 5.00000000
3.68683052 1.70824230 -0.64357138 6 6 6514 4.11400000 2334119342 2334119342 -9.00000000
8.22651291 3.80989790 1.11315453 95 7 6515 9.13400000 2334119345 2334119345 7.00000000
4.98278379 2.30659223 -0.67418122 9 8 6516 5.53200000 2334119347 2334119347 -7.00000000
7.61617374 3.52400684 -0.73420000 13 10 6517 8.42400000 2334119352 2334119352 -5.00000000
8.19983959 3.79059458 -0.47343105 17 12 6519 9.04600000 2334119356 2334119356 -3.00000000
8.26133442 3.81727242 2.10104275 78 13 6520 9.34000000 2334119359 2334119359 13.00000000
8.19664288 3.78564501 -0.15759523 16 14 6521 9.03000000 2334119361 2334119361 -1.00000000
8.00800037 3.69851995 2.36353540 47 15 6521 9.13200000 2334119363 2334119363 15.00000000
2.06910038 0.95211738 -0.61029530 4 0 6529 2.35800000 2334119384 2334119384 -15.00000000
8.19349575 3.76858687 0.15742071 12 1 6530 9.02000000 2334119386 2334119386 1.00000000
8.16772461 3.75500655 -2.07539845 8 2 6531 9.22600000 2334119388 2334119388 -13.00000000
8.21864891 3.77841830 0.47405910 13 3 6531 9.05800000 2334119391 2334119391 3.00000000
2.93097878 1.34686029 -0.62699836 5 4 6532 3.28600000 2334119393 2334119393 -11.00000000
8.21078873 3.77133346 0.79050261 78 5 6533 9.07000000 2334119395 2334119395 5.00000000
3.69636154 1.69701087 -0.64419711 6 6 6534 4.11800000 2334119398 2334119398 -9.00000000
8.21630764 3.77039576 1.10998595 99 7 6535 9.10800000 2334119400 2334119400 7.00000000
4.97817469 2.28339171 -0.67247504 9 8 6536 5.51800000 2334119402 2334119402 -7.00000000
8.32464695 3.81659484 1.45046031 2 9 6537 9.27200000 2334119405 2334119405 9.00000000
7.63567305 3.50072122 -0.73489720 13 10 6537 8.43200000 2334119407 2334119407 -5.00000000
8.18760014 3.75030446 -0.47196564 17 12 6539 9.01800000 2334119412 2334119412 -3.00000000
8.25689030 3.78029966 2.09654379 76 13 6540 9.32000000 2334119414 2334119414 13.00000000
8.20071602 3.75284958 -0.15742071 14 14 6541 9.02000000 2334119416 2334119416 -1.00000000
8.02086258 3.67054415 2.36353540 45 15 6541 9.13200000 2334119418 2334119418 15.00000000
2.06697345 0.94284552 -0.60874242 4 0 6548 2.35200000 2334119439 2334119439 -15.00000000
8.20412827 3.74056602 0.15738580 12 1 6549 9.01800000 2334119441 2334119441 1.00000000
8.17481136 3.72547626 -2.07404876 8 2 6550 9.22000000 2334119444 2334119444 -13.00000000
8.21179485 3.74059963 0.47290769 13 3 6551 9.03600000 2334119446 2334119446 3.00000000
2.93542910 1.33713341 -0.62699836 5 4 6551 3.28600000 2334119448 2334119448 -11.00000000
8.21236992 3.73913121 0.78945673 78 5 6552 9.05800000 2334119451 2334119451 5.00000000
3.70916033 1.68801689 -0.64544863 6 6 6553 4.12600000 2334119453 2334119453 -9.00000000
8.20888901 3.73408747 1.10730481 95 7 6554 9.08600000 2334119455 2334119455 7.00000000
4.98571920 2.26687074 -0.67247504 6 8 6555 5.51800000 2334119458 2334119458 -7.00000000
8.34378910 3.79369378 1.45171189 2 9 6555 9.28000000 2334119460 2334119460 9.00000000
7.64361191 3.47373247 -0.73454863 13 10 6556 8.42800000 2334119462 2334119462 -5.00000000
8.19453526 3.72065568 -0.47165164 17 12 6558 9.01200000 2334119467 2334119467 -3.00000000
8.24808598 3.74323392 2.09114504 72 13 6559 9.29600000 2334119469 2334119469 13.00000000
8.19672585 3.71819973 -0.15710656 16 14 6560 9.00200000 2334119471 2334119471 -1.00000000
8.04594231 3.64810801 2.36715889 47 15 6561 9.14600000 2334119474 2334119474 15.00000000
2.05968952 0.93085110 -0.60563654 4 0 6568 2.34000000 2334119494 2334119494 -15.00000000
8.20073414 3.70449638 0.15707166 12 1 6569 9.00000000 2334119497 2334119497 1.00000000
8.17710972 3.69210672 -2.07134938 8 2 6570 9.20800000 2334119499 2334119499 -13.00000000
8.21323204 3.70841622 0.47227967 13 3 6570 9.02400000 2334119501 2334119501 3.00000000
2.93649960 1.32526350 -0.62623513 5 4 6571 3.28200000 2334119504 2334119504 -11.00000000
8.21265888 3.70470691 0.78823656 78 5 6572 9.04400000 2334119506 2334119506 5.00000000
3.70422530 1.67018747 -0.64357138 6 6 6573 4.11400000 2334119508 2334119508 -9.00000000
8.21825409 3.70377898 1.10681736 97 7 6574 9.08200000 2334119511 2334119511 7.00000000
4.98998213 2.24782300 -0.67198753 9 8 6575 5.51400000 2334119513 2334119513 -7.00000000
7.65569115 3.44703007 -0.73454863 13 10 6576 8.42800000 2334119518 2334119518 -5.00000000
8.20747280 3.69202876 -0.47165164 17 12 6578 9.01200000 2334119522 2334119522 -3.00000000
8.24688339 3.70802665 2.08754587 70 13 6579 9.28000000 2334119524 2334119524 13.00000000
8.18959141 3.68054819 -0.15672261 14 14 6580 8.98000000 2334119527 2334119527 -1.00000000
2.06997895 0.92681360 -0.60770714 4 0 6588 2.34800000 2334119550 2334119550 -15.00000000
8.19901276 3.66931319 0.15679242 12 1 6589 8.98400000 2334119552 2334119552 1.00000000
8.18816853 3.66274500 -2.07089949 8 2 6590 9.20600000 2334119554 2334119554 -13.00000000
8.21883392 3.67646194 0.47186098 13 3 6590 9.01600000 2334119557 2334119557 3.00000000
2.93752337 1.31340241 -0.62547189 5 4 6591 3.27800000 2334119559 2334119559 -11.00000000
8.20189381 3.66544890 0.78597051 86 5 6592 9.01800000 2334119561 2334119561 5.00000000
3.70281839 1.65402448 -0.64231992 6 6 6593 4.10600000 2334119564 2334119564 -9.00000000
8.22569466 3.67264152 1.10608613 99 7 6594 9.07600000 2334119566 2334119566 7.00000000
5.01230001 2.23686290 -0.67393744 9 8 6595 5.53000000 2334119568 2334119568 -7.00000000
7.66585732 3.41947412 -0.73437428 13 10 6596 8.42600000 2334119573 2334119573 -5.00000000
8.21118927 3.65929174 -0.47112828 12 12 6598 9.00200000 2334119577 2334119577 -3.00000000
8.24909592 3.67445946 2.08484626 68 13 6599 9.26800000 2334119580 2334119580 13.00000000
8.19508171 3.64868546 -0.15658300 14 14 6600 8.97200000 2334119582 2334119582 -1.00000000
7.12165976 3.16927791 2.08866978 45 15 6601 8.07000000 2334119584 2334119584 15.00000000
2.08379698 0.92428207 -0.61081296 4 0 6608 2.36000000 2334119605 2334119605 -15.00000000
8.18617821 3.62932420 0.15630375 12 1 6609 8.95600000 2334119607 2334119607 1.00000000
8.17952442 3.62466645 -2.06550050 8 2 6610 9.18200000 2334119610 2334119610 -13.00000000
8.21700859 3.64127707 0.47102362 13 3 6610 9.00000000 2334119612 2334119612 3.00000000
2.94747519 1.30552578 -0.62661672 5 4 6611 3.28400000 2334119614 2334119614 -11.00000000
8.18731117 3.62469816 0.78335583 75 5 6612 8.98800000 2334119617 2334119617 5.00000000
3.70856953 1.64108920 -0.64231992 6 6 6613 4.10600000 2334119619 2334119619 -9.00000000
8.21304798 3.63266444 1.10267377 99 7 6614 9.04800000 2334119621 2334119621 7.00000000
5.01281548 2.21614242 -0.67296249 9 8 6615 5.52200000 2334119624 2334119624 -7.00000000
7.66134501 3.38544679 -0.73280549 13 10 6616 8.40800000 2334119628 2334119628 -5.00000000
8.20381355 3.62173438 -0.46997687 17 12 6618 8.98000000 2334119633 2334119633 -3.00000000
8.25830650 3.64406896 2.08394647 70 13 6619 9.26400000 2334119635 2334119635 13.00000000
8.19313049 3.61360121 -0.15630375 18 14 6620 8.95600000 2334119637 2334119637 -1.00000000
7.12914371 3.14284086 2.08763433 45 15 6621 8.06600000 2334119640 2334119640 15.00000000
2.08347344 0.91544843 -0.60977769 4 0 6628 2.35600000 2334119660 2334119660 -15.00000000
8.18781185 3.59590244 0.15609433 12 1 6629 8.94400000 2334119663 2334119663 1.00000000
8.17071438 3.58669305 -2.06010175 8 2 6630 9.15800000 2334119665 2334119665 -13.00000000
8.20772362 3.60293865 0.46976754 13 3 6630 8.97600000 2334119667 2334119667 3.00000000
2.95381212 1.29601800 -0.62699836 5 4 6631 3.28600000 2334119670 2334119670 -11.00000000
8.20356274 3.59769750 0.78370446 93 5 6632 8.99200000 2334119672 2334119672 5.00000000
3.71608448 1.62892687 -0.64263278 6 6 6633 4.10800000 2334119674 2334119674 -9.00000000
8.20204163 3.59361720 1.09950519 95 7 6634 9.02200000 2334119676 2334119676 7.00000000
5.01870203 2.19783473 -0.67271876 9 8 6635 5.52000000 2334119679 2334119679 -7.00000000
7.67676640 3.36028099 -0.73315412 13 10 6636 8.41200000 2334119683 2334119683 -5.00000000
8.19078732 3.58187222 -0.46851149 17 12 6638 8.95200000 2334119688 2334119688 -3.00000000
8.25669098 3.60897589 2.08034730 66 13 6639 9.24800000 2334119690 2334119690 13.00000000
8.19286728 3.57937574 -0.15605941 20 14 6640 8.94200000 2334119693 2334119693 -1.00000000
7.13952637 3.11918235 2.08763433 42 15 6640 8.06600000 2334119695 2334119695 15.00000000
2.08311343 0.90662825 -0.60874242 4 0 6648 2.35200000 2334119716 2334119716 -15.00000000
8.18931103 3.56251359 0.15588489 15 1 6649 8.93200000 2334119718 2334119718 1.00000000
8.18497181 3.55892706 -2.06055164 8 2 6650 9.16000000 2334119720 2334119720 -13.00000000
8.20559692 3.56789517 0.46893016 13 3 6650 8.96000000 2334119723 2334119723 3.00000000
2.95471692 1.28413439 -0.62623513 6 4 6651 3.28200000 2334119725 2334119725 -11.00000000
8.19779682 3.56110144 0.78196132 78 5 6652 8.97200000 2334119727 2334119727 5.00000000
3.72718382 1.61830568 -0.64357138 6 6 6653 4.11400000 2334119729 2334119729 -9.00000000
8.21089363 3.56338429 1.09901774 92 7 6654 9.01800000 2334119732 2334119732 7.00000000
5.02270126 2.17872286 -0.67223132 9 8 6655 5.51600000 2334119734 2334119734 -7.00000000
7.70490074 3.34059668 -0.73472291 13 10 6656 8.43000000 2334119739 2334119739 -5.00000000
8.19957447 3.55167150 -0.46830213 17 12 6658 8.94800000 2334119743 2334119743 -3.00000000
8.25135517 3.57239032 2.07584834 62 13 6659 9.22800000 2334119746 2334119746 13.00000000
8.18328953 3.54122543 -0.15564056 16 14 6660 8.91800000 2334119748 2334119748 -1.00000000
7.15268421 3.09376073 2.08815217 45 15 6661 8.06800000 2334119750 2334119750 15.00000000
2.07708263 0.89625263 -0.60615420 4 0 6666 2.34200000 2334119771 2334119771 -15.00000000
8.18944550 3.53201699 0.15567547 18 1 6667 8.92000000 2334119773 2334119773 1.00000000
8.18358517 3.52779555 -2.05740237 8 2 6668 9.14600000 2334119776 2334119776 -13.00000000
8.19720745 3.53197122 0.46777877 13 3 6669 8.93800000 2334119778 2334119778 3.00000000
2.95513058 1.27329183 -0.62547189 6 4 6669 3.27800000 2334119780 2334119780 -11.00000000
8.18698502 3.52587295 0.77986956 75 5 6670 8.94800000 2334119782 2334119782 5.00000000
3.72862053 1.60502636 -0.64294565 6 6 6671 4.11000000 2334119785 2334119785 -9.00000000
8.21840096 3.53600240 1.09853029 95 7 6672 9.01400000 2334119787 2334119787 7.00000000
5.02769756 2.16214848 -0.67198753 9 8 6673 5.51400000 2334119789 2334119789 -7.00000000
7.70437479 3.31165361 -0.73367703 13 10 6674 8.41800000 2334119794 2334119794 -5.00000000
8.19601059 3.51958966 -0.46746477 21 12 6676 8.93200000 2334119799 2334119799 -3.00000000
8.25179291 3.54183841 2.07314897 66 13 6677 9.21600000 2334119801 2334119801 13.00000000
8.17415905 3.50682712 -0.15525661 20 14 6678 8.89600000 2334119803 2334119803 -1.00000000
7.15117979 3.06795478 2.08504629 45 15 6678 8.05600000 2334119806 2334119806 15.00000000
2.08019853 0.88899684 -0.60615420 4 0 6686 2.34200000 2334119826 2334119826 -15.00000000
8.19069099 3.49869585 0.15546604 18 1 6687 8.90800000 2334119829 2334119829 1.00000000
8.18688869 3.49538207 -2.05515289 8 2 6688 9.13600000 2334119831 2334119831 -13.00000000
8.20397472 3.50098443 0.46746477 10 3 6689 8.93200000 2334119833 2334119833 3.00000000
2.95955729 1.26296866 -0.62547189 6 4 6689 3.27800000 2334119835 2334119835 -11.00000000
8.19374466 3.49492836 0.77934664 86 5 6690 8.94200000 2334119838 2334119838 5.00000000
3.72693205 1.58890247 -0.64169419 6 6 6691 4.10200000 2334119840 2334119840 -9.00000000
8.21973705 3.50262403 1.09706783 95 7 6692 9.00200000 2334119842 2334119842 7.00000000
5.05713034 2.15391994 -0.67491245 6 8 6693 5.53800000 2334119845 2334119845 -7.00000000
7.71588755 3.28474021 -0.73367703 13 10 6694 8.41800000 2334119849 2334119849 -5.00000000
8.19354248 3.48470545 -0.46662739 17 12 6696 8.91600000 2334119854 2334119854 -3.00000000
8.26051903 3.51148796 2.07224917 64 13 6697 9.21200000 2334119856 2334119856 13.00000000
8.18634987 3.47827244 -0.15525661 18 14 6698 8.89600000 2334119859 2334119859 -1.00000000
7.16059828 3.04096866 2.08452868 40 15 6699 8.05400000 2334119861 2334119861 15.00000000
2.08684707 0.88323611 -0.60718948 4 0 6706 2.34600000 2334119882 2334119882 -15.00000000
8.18443680 3.46229267 0.15511699 15 1 6707 8.88800000 2334119884 2334119884 1.00000000
2.47335315 1.04580283 -0.61996508 4 2 6708 2.75600000 2334119886 2334119886 -13.00000000
8.20694733 3.46843839 0.46694142 13 3 6709 8.92200000 2334119888 2334119888 3.00000000
2.96033096 1.25110173 -0.62470865 6 4 6709 3.27400000 2334119891 2334119891 -11.00000000
8.19671822 3.46242929 0.77847511 78 5 6710 8.93200000 2334119893 2334119893 5.00000000
3.71789694 1.56973648 -0.63919121 6 6 6711 4.08600000 2334119895 2334119895 -9.00000000
8.21545315 3.46696424 1.09487414 90 7 6712 8.98400000 2334119898 2334119898 7.00000000
5.06095982 2.13471103 -0.67442495 6 8 6713 5.53400000 2334119900 2334119900 -7.00000000
7.72363472 3.25623870 -0.73332840 13 10 6714 8.41400000 2334119905 2334119905 -5.00000000
8.18725014 3.44833088 -0.46558067 17 12 6716 8.89600000 2334119909 2334119909 -3.00000000
8.27631855 3.48414421 2.07314897 64 13 6717 9.21600000 2334119912 2334119912 13.00000000
8.18553925 3.44424677 -0.15501228 18 14 6718 8.88200000 2334119914 2334119914 -1.00000000
7.17420435 3.01870513 2.08556390 40 15 6718 8.05800000 2334119916 2334119916 15.00000000
2.09526253 0.87818652 -0.60874242 4 0 6726 2.35200000 2334119937 2334119937 -15.00000000
8.19093990 3.43138456 0.15501228 15 1 6727 8.88200000 2334119939 2334119939 1.00000000
2.47339344 1.03565753 -0.61906528 4 2 6728 2.75200000 2334119941 2334119941 -13.00000000
8.20058060 3.43205881 0.46589467 10 3 6729 8.90200000 2334119944 2334119944 3.00000000
2.97554636 1.24530828 -0.62699836 6 4 6729 3.28600000 2334119946 2334119946 -11.00000000
8.19404984 3.42764521 0.77708060 78 5 6730 8.91600000 2334119948 2334119948 5.00000000
3.73975611 1.56360698 -0.64200705 6 6 6731 4.10400000 2334119951 2334119951 -9.00000000
8.20369434 3.42831540 1.09170556 90 7 6732 8.95800000 2334119953 2334119953 7.00000000
5.05006361 2.10938096 -0.67198753 6 8 6733 5.51400000 2334119955 2334119955 -7.00000000
7.74046993 3.23156118 -0.73385137 13 10 6734 8.42000000 2334119960 2334119960 -5.00000000
8.17527390 3.40973616 -0.46421993 17 12 6736 8.87000000 2334119964 2334119964 -3.00000000
8.26684570 3.44623542 2.06774998 66 13 6737 9.19200000 2334119967 2334119967 13.00000000
8.19197464 3.41334558 -0.15490755 18 14 6738 8.87600000 2334119969 2334119969 -1.00000000
7.18165350 2.99090457 2.08452868 45 15 6739 8.05400000 2334119971 2334119971 15.00000000
2.10188389 0.87234843 -0.60977769 4 0 6746 2.35600000 2334119992 2334119992 -15.00000000
8.19363213 3.39894104 0.15483776 12 1 6747 8.87200000 2334119994 2334119994 1.00000000
2.48059392 1.02851021 -0.61996508 4 2 6748 2.75600000 2334119997 2334119997 -13.00000000
8.19221401 3.39500165 0.46474329 13 3 6749 8.88000000 2334119999 2334119999 3.00000000
2.96899319 1.23040438 -0.62470865 6 4 6749 3.27400000 2334120001 2334120001 -11.00000000
8.19860172 3.39597201 0.77638334 75 5 6750 8.90800000 2334120004 2334120004 5.00000000
3.74884176 1.55205452 -0.64263278 6 6 6751 4.10800000 2334120006 2334120006 -9.00000000
8.20827389 3.39662218 1.09073067 90 7 6752 8.95000000 2334120008 2334120008 7.00000000
5.05005836 2.08870530 -0.67101258 6 8 6753 5.50600000 2334120011 2334120011 -7.00000000
7.76090956 3.20832801 -0.73472291 13 10 6754 8.43000000 2334120015 2334120015 -5.00000000
8.17789555 3.37736654 -0.46369657 17 12 6756 8.86000000 2334120020 2334120020 -3.00000000
8.25360680 3.40694785 2.06145144 70 13 6757 9.16400000 2334120022 2334120022 13.00000000
8.17980862 3.37481475 -0.15445380 16 14 6758 8.85000000 2334120024 2334120024 -1.00000000
7.20581865 2.97296715 2.08866978 42 15 6758 8.07000000 2334120027 2334120027 15.00000000
2.09955549 0.86280328 -0.60822475 4 0 6766 2.35000000 2334120047 2334120047 -15.00000000
8.18694973 3.36272144 0.15448870 12 1 6767 8.85200000 2334120050 2334120050 1.00000000
2.48777437 1.02132523 -0.62086493 4 2 6768 2.76000000 2334120052 2334120052 -13.00000000
8.19847202 3.36411023 0.46442929 13 3 6769 8.87400000 2334120054 2334120054 3.00000000
2.97326994 1.22003317 -0.62470865 6 4 6769 3.27400000 2334120057 2334120057 -11.00000000
8.19934559 3.36279655 0.77533752 78 5 6770 8.89600000 2334120059 2334120059 5.00000000
3.77251410 1.54645169 -0.64576149 6 6 6771 4.12800000 2334120061 2334120061 -9.00000000
8.21640682 3.36644411 1.09024310 95 7 6772 8.94600000 2334120064 2334120064 7.00000000
5.06834030 2.07557845 -0.67247504 6 8 6773 5.51800000 2334120066 2334120066 -7.00000000
7.76837349 3.17970824 -0.73437428 13 10 6774 8.42600000 2334120070 2334120070 -5.00000000
8.18593788 3.34728789 -0.46348724 17 12 6776 8.85600000 2334120075 2334120075 -3.00000000
8.25823307 3.37516761 2.05965185 68 13 6777 9.15600000 2334120077 2334120077 13.00000000
8.18043232 3.34170389 -0.15424436 16 14 6778 8.83800000 2334120080 2334120080 -1.00000000
7.20951271 2.94361567 2.08659911 42 15 6779 8.06200000 2334120082 2334120082 15.00000000
2.10076499 0.85474116 -0.60770714 4 0 6786 2.34800000 2334120103 2334120103 -15.00000000
8.18196583 3.32734346 0.15417455 12 1 6787 8.83400000 2334120105 2334120105 1.00000000
2.49854565 1.01557028 -0.62266451 4 2 6788 2.76800000 2334120107 2334120107 -13.00000000
8.19906235 3.33096123 0.46380123 13 3 6789 8.86200000 2334120110 2334120110 3.00000000
2.98114824 1.21112490 -0.62547189 6 4 6789 3.27800000 2334120112 2334120112 -11.00000000
8.18703556 3.32441044 0.77307147 75 5 6790 8.87000000 2334120114 2334120114 5.00000000
3.75592494 1.52435935 -0.64200705 6 6 6791 4.10400000 2334120117 2334120117 -9.00000000
8.21707058 3.33326578 1.08878076 95 7 6792 8.93400000 2334120119 2334120119 7.00000000
5.07923412 2.05936575 -0.67296249 6 8 6793 5.52200000 2334120121 2334120121 -7.00000000
7.76465321 3.14658594 -0.73297977 13 10 6794 8.41000000 2334120126 2334120126 -5.00000000
8.18461323 3.31344700 -0.46275452 17 12 6796 8.84200000 2334120130 2334120130 -3.00000000
8.26996422 3.34632039 2.05965185 68 13 6797 9.15600000 2334120133 2334120133 13.00000000
8.18648529 3.31087947 -0.15413965 18 14 6798 8.83200000 2334120135 2334120135 -1.00000000
7.21207094 2.91679454 2.08452868 42 15 6798 8.05400000 2334120137 2334120137 15.00000000
2.10731959 0.84884650 -0.60874242 4 0 6806 2.35200000 2334120158 2334120158 -15.00000000
8.18054581 3.29353499 0.15393023 12 1 6807 8.82000000 2334120160 2334120160 1.00000000
2.49122810 1.00247765 -0.61996508 4 2 6808 2.75600000 2334120163 2334120163 -13.00000000
8.20878696 3.30157566 0.46369657 13 3 6809 8.86000000 2334120165 2334120165 3.00000000
2.99082208 1.20290923 -0.62661672 6 4 6809 3.28400000 2334120167 2334120167 -11.00000000
8.18934727 3.29209638 0.77219987 82 5 6810 8.86000000 2334120170 2334120170 5.00000000
3.75205827 1.50755715 -0.64044273 6 6 6811 4.09400000 2334120172 2334120172 -9.00000000
8.20655060 3.29568529 1.08585584 92 7 6812 8.91000000 2334120174 2334120174 7.00000000
5.08639145 2.04162335 -0.67296249 6 8 6813 5.52200000 2334120176 2334120176 -7.00000000
7.79223156 3.12613964 -0.73454863 13 10 6814 8.42800000 2334120181 2334120181 -5.00000000
8.19056797 3.28262806 -0.46244052 17 12 6816 8.83600000 2334120186 2334120186 -3.00000000
8.27435875 3.31453395 2.05785227 64 13 6817 9.14800000 2334120188 2334120188 13.00000000
8.18499756 3.27708006 -0.15389532 18 14 6818 8.81800000 2334120190 2334120190 -1.00000000
7.22988749 2.89321232 2.08659911 42 15 6819 8.06200000 2334120193 2334120193 15.00000000
2.10653424 0.84042197 -0.60770714 4 0 6825 2.34800000 2334120213 2334120213 -15.00000000
8.18027782 3.26194501 0.15372080 12 1 6826 8.80800000 2334120216 2334120216 1.00000000
2.49091840 0.99276787 -0.61906528 4 2 6827 2.75200000 2334120218 2334120218 -13.00000000
8.19742489 3.26546645 0.46244052 10 3 6828 8.83600000 2334120220 2334120220 3.00000000
2.99844241 1.19443774 -0.62737995 6 4 6828 3.28800000 2334120223 2334120223 -11.00000000
8.19281483 3.26197362 0.77150261 82 5 6829 8.85200000 2334120225 2334120225 5.00000000
3.75887227 1.49583697 -0.64075559 6 6 6830 4.09600000 2334120227 2334120227 -9.00000000
8.19714451 3.26038289 1.08317471 100 7 6831 8.88800000 2334120229 2334120229 7.00000000
5.08944464 2.02327847 -0.67247504 6 8 6832 5.51800000 2334120232 2334120232 -7.00000000
7.80811024 3.10248971 -0.73507154 13 10 6833 8.43400000 2334120236 2334120236 -5.00000000
8.18098831 3.24734354 -0.46128911 12 12 6835 8.81400000 2334120241 2334120241 -3.00000000
8.27081394 3.28132772 2.05425310 64 13 6836 9.13200000 2334120243 2334120243 13.00000000
8.17908955 3.24328566 -0.15358117 18 14 6837 8.80000000 2334120246 2334120246 -1.00000000
7.23534918 2.86906052 2.08556390 42 15 6837 8.05800000 2334120248 2334120248 15.00000000
2.11304879 0.83448285 -0.60874242 4 0 6845 2.35200000 2334120269 2334120269 -15.00000000
8.18231392 3.22969985 0.15354627 15 1 6846 8.79800000 2334120271 2334120271 1.00000000
2.50343227 0.98764277 -0.62131482 4 2 6847 2.76200000 2334120273 2334120273 -13.00000000
8.19205093 3.23023844 0.46149847 10 3 6848 8.81800000 2334120276 2334120276 3.00000000
3.00259352 1.18396389 -0.62737995 5 4 6848 3.28800000 2334120278 2334120278 -11.00000000
8.19673729 3.23043323 0.77080542 82 5 6849 8.84400000 2334120280 2334120280 5.00000000
3.76407075 1.48270690 -0.64075559 6 6 6850 4.09600000 2334120282 2334120282 -9.00000000
8.19923973 3.22811365 1.08195603 95 7 6851 8.87800000 2334120285 2334120285 7.00000000
5.09647608 2.00550056 -0.67247504 6 8 6852 5.51800000 2334120287 2334120287 -7.00000000
