# .PCD v0.7 - Point Cloud Data file format
VERSION 0.7
FIELDS x y z intensity laser_id azimuth distance_m adjustedtime timestamp vertical_angle
SIZE 4 4 4 1 1 2 8 8 4 8
TYPE F F F U U U F U U F
COUNT 1 1 1 1 1 1 1 1 1 1
WIDTH 522
HEIGHT 1
VIEWPOINT 0 0 0 1 0 0 0
POINTS 522
DATA ascii
-0.75418991 2.06092072 -0.58803689 4 0 33990 2.27200000 2333395890 2333395890 -15.00000000
-3.91800308 10.71223927 0.19909705 10 1 33991 11.40800000 2333395892 2333395892 1.00000000
-0.87848181 2.40316319 -0.59072149 3 2 33992 2.62600000 2333395894 2333395894 -13.00000000
-3.92114639 10.73244476 0.59882802 13 3 33993 11.44200000 2333395897 2333395897 3.00000000
-1.04629636 2.86378455 -0.59265274 2 4 33993 3.10600000 2333395899 2333395899 -11.00000000
-3.91928482 10.73316097 0.99967635 17 5 33994 11.47000000 2333395901 2333395901 5.00000000
-1.29352498 3.54430413 -0.59757966 2 6 33995 3.82000000 2333395904 2333395904 -9.00000000
-3.91684294 10.73810673 1.40344739 19 7 33996 11.51600000 2333395906 2333395906 7.00000000
-1.70999420 4.69052744 -0.61300278 2 8 33997 5.03000000 2333395908 2333395908 -7.00000000
-3.91896462 10.75558376 1.81307542 12 9 33998 11.59000000 2333395911 2333395911 9.00000000
-2.48417473 6.81780815 -0.63484246 4 10 33998 7.28400000 2333395913 2333395913 -5.00000000
-3.87423897 10.63860607 2.20079088 56 11 33999 11.53400000 2333395915 2333395915 11.00000000
-3.91349602 10.75224209 -0.59966540 4 12 34000 11.45800000 2333395917 2333395917 -3.00000000
-3.68602252 10.13276577 2.48930836 53 13 34001 11.06600000 2333395920 2333395920 13.00000000
-3.90494585 10.74041462 -0.19948101 6 14 34002 11.43000000 2333395922 2333395922 -1.00000000
-3.18629527 8.76379108 2.49863911 38 15 34002 9.65400000 2333395924 2333395924 15.00000000
-0.74167246 2.05108428 -0.58441341 4 0 34012 2.25800000 2333395945 2333395945 -15.00000000
-3.89451361 10.77610111 0.20000458 10 1 34013 11.46000000 2333395947 2333395947 1.00000000
-0.86792380 2.40285301 -0.58982164 3 2 34014 2.62200000 2333395950 2333395950 -13.00000000
-3.89535403 10.78431416 0.60092145 7 3 34014 11.48200000 2333395952 2333395952 3.00000000
-1.03129268 2.85670137 -0.59036303 4 4 34015 3.09400000 2333395954 2333395954 -11.00000000
-3.90035844 10.80997753 1.00542867 42 5 34016 11.53600000 2333395957 2333395957 5.00000000
-1.29062808 3.57897663 -0.60258555 2 6 34017 3.85200000 2333395959 2333395959 -9.00000000
-3.89375591 10.80348969 1.41002834 38 7 34018 11.57000000 2333395961 2333395961 7.00000000
-1.69466233 4.70452929 -0.61397773 2 8 34019 5.03800000 2333395963 2333395963 -7.00000000
-3.88085604 10.77359200 1.81370115 34 9 34019 11.59400000 2333395966 2333395966 9.00000000
-2.45527840 6.81979799 -0.63414520 4 10 34020 7.27600000 2333395968 2333395968 -5.00000000
-3.84665537 10.69035053 2.20842338 59 11 34021 11.57400000 2333395970 2333395970 11.00000000
-3.91543889 10.88747215 -0.60636437 4 12 34022 11.58600000 2333395973 2333395973 -3.00000000
-3.64445162 10.13950825 2.48750877 52 13 34023 11.05800000 2333395975 2333395975 13.00000000
-3.90897298 10.88142014 -0.20181963 8 14 34024 11.56400000 2333395977 2333395977 -1.00000000
-3.15327454 8.77777958 2.49915671 38 15 34024 9.65600000 2333395980 2333395980 15.00000000
-0.73255658 2.04820371 -0.58286047 4 0 34032 2.25200000 2333396000 2333396000 -15.00000000
-3.89456820 10.89507866 0.20195925 6 1 34033 11.57200000 2333396003 2333396003 1.00000000
-0.86215353 2.41320848 -0.59162128 3 2 34034 2.63000000 2333396005 2333396005 -13.00000000
-3.89475560 10.90761375 0.60699242 18 3 34035 11.59800000 2333396007 2333396007 3.00000000
-1.02791655 2.87877297 -0.59417921 4 4 34035 3.11400000 2333396010 2333396010 -11.00000000
-3.89139628 10.90421486 1.01292408 63 5 34036 11.62200000 2333396012 2333396012 5.00000000
-1.26950026 3.55927253 -0.59851825 2 6 34037 3.82600000 2333396014 2333396014 -9.00000000
-3.88668251 10.90302753 1.42124033 40 7 34038 11.66200000 2333396016 2333396016 7.00000000
-1.67823017 4.71041584 -0.61397773 2 8 34039 5.03800000 2333396019 2333396019 -7.00000000
-3.87248683 10.87520695 1.82840598 37 9 34040 11.68800000 2333396021 2333396021 9.00000000
-2.44348812 6.86211205 -0.63728279 4 10 34040 7.31200000 2333396023 2333396023 -5.00000000
-3.80273318 10.68521595 2.20460725 59 11 34041 11.55400000 2333396026 2333396026 11.00000000
-3.91221547 10.99892521 -0.61180735 4 12 34042 11.69000000 2333396028 2333396028 -3.00000000
-3.53331733 9.93917274 2.43532014 107 13 34043 10.82600000 2333396030 2333396030 13.00000000
-3.90109277 10.97979164 -0.20339034 6 14 34044 11.65400000 2333396033 2333396033 -1.00000000
-3.11332369 8.76743221 2.49294496 38 15 34045 9.63200000 2333396035 2333396035 15.00000000
-0.72869784 2.05777907 -0.58493102 4 0 34050 2.26000000 2333396056 2333396056 -15.00000000
-3.89568162 11.00717068 0.20380920 10 1 34051 11.67800000 2333396058 2333396058 1.00000000
-0.85456795 2.41590524 -0.59162128 3 2 34052 2.63000000 2333396060 2333396060 -13.00000000
-3.86237502 10.91912174 0.60699242 28 3 34052 11.59800000 2333396063 2333396063 3.00000000
-1.01625013 2.87458420 -0.59265274 2 4 34053 3.10600000 2333396065 2333396065 -11.00000000
-3.86840439 10.94832230 1.01588738 17 5 34054 11.65600000 2333396067 2333396067 5.00000000
-1.26225889 3.57441902 -0.60039550 2 6 34055 3.83800000 2333396069 2333396069 -9.00000000
-3.88610506 11.01065254 1.43367100 36 7 34056 11.76400000 2333396072 2333396072 7.00000000
-1.66606510 4.72315311 -0.61495268 2 8 34057 5.04600000 2333396074 2333396074 -7.00000000
-3.87639642 10.99537182 1.84655237 31 9 34058 11.80400000 2333396076 2333396076 9.00000000
-2.42191815 6.86975431 -0.63728279 4 10 34058 7.31200000 2333396079 2333396079 -5.00000000
-3.75935912 10.66933537 2.19888282 59 11 34059 11.52400000 2333396081 2333396081 11.00000000
-3.91346645 11.11289024 -0.61745960 4 12 34060 11.79800000 2333396083 2333396083 -3.00000000
-3.58035922 10.17264748 2.48975825 55 13 34061 11.06800000 2333396086 2333396086 13.00000000
-3.90639329 11.10517597 -0.20548463 6 14 34062 11.77400000 2333396088 2333396088 -1.00000000
-3.08729649 8.77663040 2.49294496 38 15 34062 9.63200000 2333396090 2333396090 15.00000000
-0.72278738 2.06395674 -0.58596629 4 0 34070 2.26400000 2333396111 2333396111 -15.00000000
-3.89422941 11.12639809 0.20576388 10 1 34071 11.79000000 2333396113 2333396113 1.00000000
-0.84484279 2.41519451 -0.59072149 3 2 34072 2.62600000 2333396115 2333396115 -13.00000000
-3.81236625 10.89860344 0.60510832 26 3 34072 11.56200000 2333396118 2333396118 3.00000000
-1.01009727 2.88923359 -0.59494245 2 4 34073 3.11800000 2333396120 2333396120 -11.00000000
-3.82359219 10.94295025 1.01414418 8 5 34074 11.63600000 2333396122 2333396122 5.00000000
-1.24847162 3.57507348 -0.59976971 2 6 34075 3.83400000 2333396125 2333396125 -9.00000000
-3.87969995 11.11598682 1.44561410 40 7 34076 11.86200000 2333396127 2333396127 7.00000000
-1.64041460 4.70269966 -0.61154038 2 8 34077 5.01800000 2333396129 2333396129 -7.00000000
-3.87115645 11.10396576 1.86250877 37 9 34078 11.90600000 2333396132 2333396132 9.00000000
-2.39136457 6.85935354 -0.63553965 4 10 34078 7.29200000 2333396134 2333396134 -5.00000000
-3.71886349 10.67312336 2.19697475 59 11 34079 11.51400000 2333396136 2333396136 11.00000000
-3.91012025 11.22833633 -0.62311190 4 12 34080 11.90600000 2333396139 2333396139 -3.00000000
-3.53970385 10.17035961 2.48615909 51 13 34081 11.05200000 2333396141 2333396141 13.00000000
-3.90439582 11.22451115 -0.20743930 8 14 34082 11.88600000 2333396143 2333396143 -1.00000000
-3.05600691 8.78552914 2.49242735 33 15 34082 9.63000000 2333396145 2333396145 15.00000000
-0.71684271 2.07011819 -0.58700162 4 0 34090 2.26800000 2333396166 2333396166 -15.00000000
-3.89264560 11.24763775 0.20775345 6 1 34091 11.90400000 2333396168 2333396168 1.00000000
-0.83640701 2.41812897 -0.59072149 3 2 34092 2.62600000 2333396171 2333396171 -13.00000000
-3.76130176 10.88041306 0.60332888 26 3 34093 11.52800000 2333396173 2333396173 3.00000000
-0.99615711 2.88160896 -0.59265274 2 4 34093 3.10600000 2333396175 2333396175 -11.00000000
-3.77170753 10.91668320 1.01048362 4 5 34094 11.59400000 2333396178 2333396178 5.00000000
-1.23082662 3.56447220 -0.59726679 2 6 34095 3.81800000 2333396180 2333396180 -9.00000000
-3.87649179 11.23266888 1.45901978 36 7 34096 11.97200000 2333396182 2333396182 7.00000000
-1.62010562 4.69713736 -0.61007792 2 8 34097 5.00600000 2333396185 2333396185 -7.00000000
-2.37389970 6.88649511 -0.63728279 4 10 34098 7.31200000 2333396189 2333396189 -5.00000000
-3.67774773 10.67490196 2.19468498 59 11 34099 11.50200000 2333396192 2333396192 11.00000000
-3.50354695 10.18081093 2.48570919 50 13 34101 11.05000000 2333396196 2333396196 13.00000000
-3.02441382 8.79849815 2.49294496 36 15 34103 9.63200000 2333396201 2333396201 15.00000000
-0.70898652 2.07078028 -0.58648396 4 0 34110 2.26600000 2333396221 2333396221 -15.00000000
-0.83048344 2.42840934 -0.59252107 3 2 34112 2.63400000 2333396226 2333396226 -13.00000000
-3.72584677 10.89471626 0.60343355 26 3 34112 11.53000000 2333396228 2333396228 3.00000000
-0.98990214 2.89621496 -0.59494245 2 4 34113 3.11800000 2333396231 2333396231 -11.00000000
-3.71554470 10.87699127 1.00560296 4 5 34114 11.53800000 2333396233 2333396233 5.00000000
-1.23369431 3.61361337 -0.60477567 2 6 34115 3.86600000 2333396235 2333396235 -9.00000000
-1.62932813 4.77791786 -0.61982751 2 8 34117 5.08600000 2333396240 2333396240 -7.00000000
-2.34984684 6.89473963 -0.63728279 4 10 34118 7.31200000 2333396245 2333396245 -5.00000000
-3.63919687 10.68395805 2.19392180 59 11 34119 11.49800000 2333396247 2333396247 11.00000000
-3.46484947 10.18375397 2.48345971 51 13 34121 11.04000000 2333396251 2333396251 13.00000000
-2.99119639 8.80168533 2.49087453 36 15 34123 9.62400000 2333396256 2333396256 15.00000000
-0.69803756 2.06226325 -0.58337814 4 0 34130 2.25400000 2333396277 2333396277 -15.00000000
-0.82449824 2.43867779 -0.59432071 3 2 34132 2.64200000 2333396281 2333396281 -13.00000000
-3.68907380 10.91143894 0.60364294 7 3 34132 11.53400000 2333396284 2333396284 3.00000000
-0.98104334 2.90337253 -0.59570569 2 4 34133 3.12200000 2333396286 2333396286 -11.00000000
-3.68137908 10.90122032 1.00664878 12 5 34134 11.55000000 2333396288 2333396288 5.00000000
-1.21728265 3.60666776 -0.60289842 2 6 34135 3.85400000 2333396291 2333396291 -9.00000000
-1.61264014 4.78357649 -0.61982751 2 8 34137 5.08600000 2333396295 2333396295 -7.00000000
-3.59498906 10.67612934 2.18972397 59 11 34139 11.47600000 2333396302 2333396302 11.00000000
-3.43114400 10.20132732 2.48480940 53 13 34141 11.04600000 2333396307 2333396307 13.00000000
-2.95491743 8.79559135 2.48621583 38 15 34143 9.60600000 2333396311 2333396311 15.00000000
-0.69328666 2.07201529 -0.58544868 4 0 34150 2.26200000 2333396332 2333396332 -15.00000000
-0.81474525 2.43784451 -0.59342086 3 2 34152 2.63800000 2333396337 2333396337 -13.00000000
-3.69591188 11.05874348 0.61107463 2 3 34152 11.67600000 2333396339 2333396339 3.00000000
-0.97090268 2.90677953 -0.59570569 2 4 34153 3.12200000 2333396341 2333396341 -11.00000000
-3.68304944 11.03306580 1.01763046 8 5 34154 11.67600000 2333396344 2333396344 5.00000000
-1.19468307 3.58091331 -0.59789252 2 6 34155 3.82200000 2333396346 2333396346 -9.00000000
-1.59593248 4.78917646 -0.61982751 2 8 34157 5.08600000 2333396351 2333396351 -7.00000000
-3.55336022 10.67557335 2.18705273 56 11 34159 11.46200000 2333396357 2333396357 11.00000000
-3.39674354 10.21694088 2.48570919 52 13 34161 11.05000000 2333396362 2333396362 13.00000000
-2.92358828 8.80401897 2.48569822 38 15 34163 9.60400000 2333396367 2333396367 15.00000000
-0.68786949 2.07992506 -0.58700162 4 0 34170 2.26800000 2333396387 2333396387 -15.00000000
-0.80134064 2.42587042 -0.58982164 3 2 34172 2.62200000 2333396392 2333396392 -13.00000000
-3.68359852 11.15122890 0.61547083 2 3 34172 11.76000000 2333396394 2333396394 3.00000000
-0.96075022 2.91015077 -0.59570569 2 4 34173 3.12200000 2333396397 2333396397 -11.00000000
-3.67385530 11.13478184 1.02582312 12 5 34174 11.77000000 2333396399 2333396399 5.00000000
-1.18959951 3.60757399 -0.60164696 2 6 34175 3.84600000 2333396401 2333396401 -9.00000000
-1.58914149 4.82488537 -0.62372732 2 8 34177 5.11800000 2333396406 2333396406 -7.00000000
-3.50993872 10.66926289 2.18323660 56 11 34179 11.44200000 2333396413 2333396413 11.00000000
-3.35558391 10.21207333 2.48166013 53 13 34181 11.03200000 2333396417 2333396417 13.00000000
-2.89739084 8.82284260 2.48828626 38 15 34182 9.61400000 2333396422 2333396422 15.00000000
-0.68420607 2.09333110 -0.59010744 4 0 34190 2.28000000 2333396443 2333396443 -15.00000000
-0.79528701 2.43606305 -0.59162128 3 2 34192 2.63000000 2333396447 2333396447 -13.00000000
-3.68865943 11.29882240 0.62290257 5 3 34192 11.90200000 2333396450 2333396450 3.00000000
-0.95058608 2.91348672 -0.59570569 4 4 34193 3.12200000 2333396452 2333396452 -11.00000000
-1.18801665 3.64551139 -0.60727859 2 6 34195 3.88200000 2333396456 2333396456 -9.00000000
-1.55508614 4.77754974 -0.61690259 2 8 34197 5.06200000 2333396461 2333396461 -7.00000000
-3.47388864 10.68518448 2.18399978 56 11 34199 11.44600000 2333396468 2333396468 11.00000000
-3.32232428 10.23113823 2.48345971 50 13 34201 11.04000000 2333396473 2333396473 13.00000000
-2.86562991 8.83524036 2.48880386 38 15 34203 9.61600000 2333396477 2333396477 15.00000000
-0.67415524 2.08847094 -0.58803689 4 0 34211 2.27200000 2333396498 2333396498 -15.00000000
-0.78994101 2.45008993 -0.59432071 3 2 34213 2.64200000 2333396503 2333396503 -13.00000000
-0.93628854 2.90573931 -0.59341598 4 4 34214 3.11000000 2333396507 2333396507 -11.00000000
-1.16617465 3.62351561 -0.60289842 2 6 34216 3.85400000 2333396512 2333396512 -9.00000000
-1.54485500 4.80589581 -0.61982751 2 8 34218 5.08600000 2333396516 2333396516 -7.00000000
-3.42990088 10.68289089 2.18094683 53 11 34220 11.43000000 2333396523 2333396523 11.00000000
-3.28182769 10.23396778 2.48121023 48 13 34222 11.03000000 2333396528 2333396528 13.00000000
-2.83241343 8.83783054 2.48673344 36 15 34223 9.60800000 2333396533 2333396533 15.00000000
-0.66216481 2.07608747 -0.58389574 4 0 34231 2.25600000 2333396553 2333396553 -15.00000000
-0.78493285 2.46397305 -0.59702009 3 2 34233 2.65400000 2333396558 2333396558 -13.00000000
-0.92971343 2.92021441 -0.59570569 2 4 34234 3.12200000 2333396562 2333396562 -11.00000000
-1.16070247 3.65015435 -0.60665286 2 6 34236 3.87800000 2333396567 2333396567 -9.00000000
-1.52806985 4.81125879 -0.61982751 2 8 34238 5.08600000 2333396572 2333396572 -7.00000000
-3.38784075 10.67982769 2.17789388 53 11 34240 11.41400000 2333396579 2333396579 11.00000000
-3.24490714 10.24164581 2.48031044 50 13 34242 11.02600000 2333396583 2333396583 13.00000000
-2.79708791 8.83894348 2.48414516 40 15 34244 9.59800000 2333396588 2333396588 15.00000000
-0.66145176 2.09658098 -0.58907217 4 0 34249 2.27600000 2333396609 2333396609 -15.00000000
-0.77367413 2.45527506 -0.59432071 3 2 34251 2.64200000 2333396613 2333396613 -13.00000000
-0.92053473 2.92312074 -0.59570569 4 4 34252 3.12200000 2333396618 2333396618 -11.00000000
-1.14567327 3.64247656 -0.60477567 2 6 34254 3.86600000 2333396622 2333396622 -9.00000000
-1.51770687 4.83118629 -0.62177742 2 8 34256 5.10200000 2333396627 2333396627 -7.00000000
-3.34839487 10.67168522 2.17407775 56 11 34258 11.39400000 2333396634 2333396634 11.00000000
-3.21388173 10.25550842 2.48121023 47 13 34260 11.03000000 2333396639 2333396639 13.00000000
-2.77315950 8.85457802 2.48621583 40 15 34261 9.60600000 2333396643 2333396643 15.00000000
-0.65297967 2.09518838 -0.58803689 4 0 34269 2.27200000 2333396664 2333396664 -15.00000000
-0.76509893 2.45796061 -0.59432071 3 2 34271 2.64200000 2333396668 2333396668 -13.00000000
-0.91149187 2.93006539 -0.59646893 4 4 34272 3.12600000 2333396673 2333396673 -11.00000000
-1.13412392 3.65022635 -0.60540140 2 6 34274 3.87000000 2333396678 2333396678 -9.00000000
-1.49142039 4.80612040 -0.61787754 2 8 34276 5.07000000 2333396682 2333396682 -7.00000000
-3.30647373 10.66830635 2.17102480 56 11 34278 11.37800000 2333396689 2333396689 11.00000000
-3.17633486 10.26107979 2.47986031 51 13 34280 11.02400000 2333396694 2333396694 13.00000000
-2.74125791 8.86652851 2.48673344 40 15 34282 9.60800000 2333396698 2333396698 15.00000000
-0.64793557 2.10484028 -0.59010744 4 0 34289 2.28000000 2333396719 2333396719 -15.00000000
-0.75193292 2.44571495 -0.59072149 3 2 34291 2.62600000 2333396724 2333396724 -13.00000000
-0.90471822 2.94448924 -0.59875864 4 4 34292 3.13800000 2333396728 2333396728 -11.00000000
-1.11847770 3.64472055 -0.60383701 2 6 34294 3.86000000 2333396733 2333396733 -9.00000000
-1.47463477 4.81129694 -0.61787754 2 8 34296 5.07000000 2333396738 2333396738 -7.00000000
-3.26921439 10.67978382 2.17102480 56 11 34298 11.37800000 2333396744 2333396744 11.00000000
-3.13992786 10.27024174 2.47941041 54 13 34300 11.02200000 2333396749 2333396749 13.00000000
-2.71184039 8.87557030 2.48673344 40 15 34301 9.60800000 2333396754 2333396754 15.00000000
-0.63833672 2.09969592 -0.58803689 4 0 34309 2.27200000 2333396774 2333396774 -15.00000000
-0.74792057 2.46324205 -0.59432071 3 2 34311 2.64200000 2333396779 2333396779 -13.00000000
-0.88873386 2.92884278 -0.59494245 2 4 34312 3.11800000 2333396784 2333396784 -11.00000000
-1.11090481 3.66561675 -0.60665286 2 6 34314 3.87800000 2333396788 2333396788 -9.00000000
-1.45898139 4.82021523 -0.61836505 2 8 34316 5.07400000 2333396793 2333396793 -7.00000000
-3.23191500 10.69112968 2.17102480 59 11 34318 11.37800000 2333396800 2333396800 11.00000000
-3.10405898 10.28113937 2.47941041 52 13 34320 11.02200000 2333396804 2333396804 13.00000000
-2.67706060 8.87805176 2.48466277 38 15 34322 9.60000000 2333396809 2333396809 15.00000000
-0.62989259 2.09821081 -0.58700162 4 0 34329 2.26800000 2333396830 2333396830 -15.00000000
-0.74155641 2.47330451 -0.59612030 3 2 34331 2.65000000 2333396834 2333396834 -13.00000000
-0.88075888 2.93944979 -0.59646893 2 4 34332 3.12600000 2333396839 2333396839 -11.00000000
-1.09923530 3.67325711 -0.60727859 2 6 34334 3.88200000 2333396844 2333396844 -9.00000000
-1.45124197 4.85571003 -0.62226486 2 8 34336 5.10600000 2333396848 2333396848 -7.00000000
-3.18783784 10.67977142 2.16644526 56 11 34338 11.35400000 2333396855 2333396855 11.00000000
-3.06648207 10.28630924 2.47806072 53 13 34340 11.01600000 2333396860 2333396860 13.00000000
-2.64539886 8.87947464 2.48259234 38 15 34341 9.59200000 2333396864 2333396864 15.00000000
-0.62366265 2.10410118 -0.58803689 4 0 34349 2.27200000 2333396885 2333396885 -15.00000000
-0.73070586 2.46840358 -0.59432071 3 2 34351 2.64200000 2333396890 2333396890 -13.00000000
-0.87160677 2.94627142 -0.59723216 2 4 34352 3.13000000 2333396894 2333396894 -11.00000000
-1.08584690 3.67517734 -0.60696572 2 6 34354 3.88000000 2333396899 2333396899 -9.00000000
-1.43315995 4.85693836 -0.62177742 2 8 34356 5.10200000 2333396903 2333396903 -7.00000000
-3.14387941 10.66823578 2.16186595 56 11 34358 11.33000000 2333396910 2333396910 11.00000000
-3.03495908 10.31190586 2.48166013 55 13 34360 11.03200000 2333396915 2333396915 13.00000000
-2.61011219 8.87984371 2.48000407 40 15 34362 9.58200000 2333396920 2333396920 15.00000000
-0.61703092 2.11008120 -0.58907217 4 0 34370 2.27600000 2333396940 2333396940 -15.00000000
-0.71946859 2.46358275 -0.59252107 3 2 34372 2.63400000 2333396945 2333396945 -13.00000000
-0.86520261 2.96452332 -0.60028511 2 4 34373 3.14600000 2333396950 2333396950 -11.00000000
-1.06905270 3.66775393 -0.60508853 2 6 34375 3.86800000 2333396954 2333396954 -9.00000000
-1.40536201 4.82785082 -0.61739010 2 8 34377 5.06600000 2333396959 2333396959 -7.00000000
-3.10256505 10.67214680 2.16033936 53 11 34379 11.32200000 2333396966 2333396966 11.00000000
-2.99279690 10.30798912 2.47806072 57 13 34381 11.01600000 2333396970 2333396970 13.00000000
-2.57909989 8.88889980 2.48000407 45 15 34382 9.58200000 2333396975 2333396975 15.00000000
-0.61073309 2.11593437 -0.59010744 4 0 34390 2.28000000 2333396996 2333396996 -15.00000000
-0.71086472 2.46607900 -0.59252107 3 2 34392 2.63400000 2333397000 2333397000 -13.00000000
-0.85484922 2.96752524 -0.60028511 2 4 34393 3.14600000 2333397005 2333397005 -11.00000000
-1.06170487 3.69044685 -0.60821718 2 6 34395 3.88800000 2333397009 2333397009 -9.00000000
-1.39946437 4.87088537 -0.62226486 2 8 34397 5.10600000 2333397014 2333397014 -7.00000000
-3.06637645 10.68668556 2.16110277 53 11 34399 11.32600000 2333397021 2333397021 11.00000000
-2.95357609 10.30713272 2.47536135 56 13 34401 11.00400000 2333397026 2333397026 13.00000000
-2.55124712 8.90899181 2.48310995 40 15 34402 9.59400000 2333397030 2333397030 15.00000000
-0.60228485 2.11433744 -0.58907217 4 0 34410 2.27600000 2333397051 2333397051 -15.00000000
-0.70438504 2.47604299 -0.59432071 3 2 34412 2.64200000 2333397056 2333397056 -13.00000000
-0.83804303 2.94783020 -0.59570569 2 4 34413 3.12200000 2333397060 2333397060 -11.00000000
-1.05367196 3.71123290 -0.61103302 2 6 34415 3.90600000 2333397065 2333397065 -9.00000000
-1.38786829 4.89483881 -0.62470227 2 8 34417 5.12600000 2333397069 2333397069 -7.00000000
-3.02798438 10.69354630 2.16033936 50 11 34419 11.32200000 2333397076 2333397076 11.00000000
-2.91864014 10.32113075 2.47626114 57 13 34421 11.00800000 2333397081 2333397081 13.00000000
-2.51698136 8.90668869 2.48000407 40 15 34422 9.58200000 2333397085 2333397085 15.00000000
-0.59385526 2.11270738 -0.58803689 4 0 34430 2.27200000 2333397106 2333397106 -15.00000000
-0.69573772 2.47848654 -0.59432071 3 2 34432 2.64200000 2333397111 2333397111 -13.00000000
-0.83517182 2.97720146 -0.60104835 2 4 34433 3.15000000 2333397115 2333397115 -11.00000000
-1.03964508 3.71108413 -0.61040729 2 6 34435 3.90200000 2333397120 2333397120 -9.00000000
-1.37291300 4.90730000 -0.62567723 2 8 34437 5.13400000 2333397125 2333397125 -7.00000000
-2.98377085 10.67947006 2.15537834 50 11 34439 11.29600000 2333397132 2333397132 11.00000000
-2.88364220 10.33500957 2.47716093 59 13 34441 11.01200000 2333397136 2333397136 13.00000000
-2.48069000 8.90282726 2.47638059 40 15 34443 9.56800000 2333397141 2333397141 15.00000000
-0.58684599 2.11466503 -0.58803689 4 0 34449 2.27200000 2333397162 2333397162 -15.00000000
-0.68751496 2.48078012 -0.59432071 3 2 34451 2.64200000 2333397166 2333397166 -13.00000000
-0.82529449 2.97995472 -0.60104835 2 4 34452 3.15000000 2333397171 2333397171 -11.00000000
-1.02943933 3.72212696 -0.61165875 2 6 34454 3.91000000 2333397175 2333397175 -9.00000000
-1.35663223 4.91182566 -0.62567723 2 8 34456 5.13400000 2333397180 2333397180 -7.00000000
-2.94625187 10.68173504 2.15385199 46 11 34458 11.28800000 2333397187 2333397187 11.00000000
-2.84831929 10.34075737 2.47626114 57 13 34460 11.00800000 2333397191 2333397191 13.00000000
-2.45065808 8.90312672 2.47431016 40 15 34461 9.56000000 2333397196 2333397196 15.00000000
-0.58150125 2.12415385 -0.59010744 4 0 34469 2.28000000 2333397217 2333397217 -15.00000000
-0.67987901 2.48692441 -0.59522051 3 2 34471 2.64600000 2333397221 2333397221 -13.00000000
-0.81281793 2.97524190 -0.59952188 4 4 34472 3.14200000 2333397226 2333397226 -11.00000000
-1.00916147 3.69901729 -0.60727859 2 6 34474 3.88200000 2333397231 2333397231 -9.00000000
-1.34156573 4.92419243 -0.62665218 2 8 34476 5.14200000 2333397235 2333397235 -7.00000000
-2.90791702 10.68816566 2.15308881 43 11 34478 11.28400000 2333397242 2333397242 11.00000000
-2.80811834 10.33559322 2.47266197 59 13 34480 10.99200000 2333397247 2333397247 13.00000000
-2.42057776 8.91535568 2.47534537 40 15 34481 9.56400000 2333397251 2333397251 15.00000000
-0.57546192 2.12980032 -0.59114271 4 0 34488 2.28400000 2333397272 2333397272 -15.00000000
-0.67061305 2.48540235 -0.59432071 3 2 34490 2.64200000 2333397277 2333397277 -13.00000000
-0.80499160 2.98550320 -0.60104835 4 4 34491 3.15000000 2333397281 2333397281 -11.00000000
-0.99894398 3.70997334 -0.60853004 2 6 34493 3.89000000 2333397286 2333397286 -9.00000000
-1.31801283 4.90177631 -0.62323982 2 8 34495 5.11400000 2333397290 2333397290 -7.00000000
-2.87449431 10.70533466 2.15461516 40 11 34497 11.29200000 2333397297 2333397297 11.00000000
-2.77181005 10.33731937 2.47086239 62 13 34499 10.98400000 2333397302 2333397302 13.00000000
-2.39050007 8.92146778 2.47482777 42 15 34500 9.56200000 2333397307 2333397307 15.00000000
-0.56702924 2.12806273 -0.59010744 4 0 34508 2.28000000 2333397327 2333397327 -15.00000000
-0.66293544 2.49149466 -0.59522051 3 2 34510 2.64600000 2333397332 2333397332 -13.00000000
-0.79456538 2.98829508 -0.60104835 4 4 34511 3.15000000 2333397337 2333397337 -11.00000000
-0.99105698 3.73252988 -0.61165875 2 6 34513 3.91000000 2333397341 2333397341 -9.00000000
-1.30089438 4.90634727 -0.62323982 2 8 34515 5.11400000 2333397346 2333397346 -7.00000000
-2.83761072 10.71720028 2.15499687 46 11 34517 11.29400000 2333397353 2333397353 11.00000000
-2.73471308 10.34316349 2.46996260 62 13 34519 10.98000000 2333397357 2333397357 13.00000000
-2.35137415 8.90588760 2.46809840 40 15 34521 9.53600000 2333397362 2333397362 15.00000000
-0.55763394 2.12255526 -0.58803689 4 0 34528 2.27200000 2333397383 2333397383 -15.00000000
-0.65621251 2.50133324 -0.59702009 3 2 34530 2.65400000 2333397387 2333397387 -13.00000000
-0.78512514 2.99484849 -0.60181159 2 4 34531 3.15400000 2333397392 2333397392 -11.00000000
-0.97702146 3.73214459 -0.61103302 2 6 34533 3.90600000 2333397396 2333397396 -9.00000000
-1.29380119 4.94926929 -0.62811458 2 8 34535 5.15400000 2333397401 2333397401 -7.00000000
-2.79770398 10.71754265 2.15308881 43 11 34537 11.28400000 2333397408 2333397408 11.00000000
-2.69760895 10.34887505 2.46906281 57 13 34539 10.97600000 2333397413 2333397413 13.00000000
-2.31841946 8.90054893 2.46447492 42 15 34540 9.52200000 2333397417 2333397417 15.00000000
-0.55312753 2.13570976 -0.59114271 4 0 34548 2.28400000 2333397438 2333397438 -15.00000000
-0.64650136 2.49983525 -0.59612030 3 2 34550 2.65000000 2333397442 2333397442 -13.00000000
-0.77466637 2.99757075 -0.60181159 2 4 34551 3.15400000 2333397447 2333397447 -11.00000000
-0.96300071 3.73170686 -0.61040729 2 6 34553 3.90200000 2333397452 2333397452 -9.00000000
-1.26363802 4.90377569 -0.62177742 2 8 34555 5.10200000 2333397456 2333397456 -7.00000000
-2.75831890 10.71963787 2.15156221 40 11 34557 11.27600000 2333397463 2333397463 11.00000000
-2.66146803 10.35822868 2.46906281 57 13 34559 10.97600000 2333397468 2333397468 13.00000000
-2.28637576 8.90484524 2.46343970 42 15 34560 9.51800000 2333397472 2333397472 15.00000000
-0.54471350 2.13388395 -0.59010744 4 0 34568 2.28000000 2333397493 2333397493 -15.00000000
-0.63680869 2.49830008 -0.59522051 3 2 34570 2.64600000 2333397498 2333397498 -13.00000000
-0.76516736 3.00406170 -0.60257483 2 4 34571 3.15800000 2333397502 2333397502 -11.00000000
-0.95970702 3.77333426 -0.61666465 2 6 34573 3.94200000 2333397507 2333397507 -9.00000000
-1.25237668 4.93124485 -0.62470227 2 8 34575 5.12600000 2333397512 2333397512 -7.00000000
-2.72233129 10.73491001 2.15270710 43 11 34577 11.28200000 2333397519 2333397519 11.00000000
-2.62146807 10.35234261 2.46546364 56 13 34579 10.96000000 2333397523 2333397523 13.00000000
-2.25656390 8.92440319 2.46654558 40 15 34581 9.53000000 2333397528 2333397528 15.00000000
-0.53914666 2.14326620 -0.59217799 4 0 34588 2.28800000 2333397548 2333397548 -15.00000000
-0.62713462 2.49672771 -0.59432071 3 2 34590 2.64200000 2333397553 2333397553 -13.00000000
-0.75085300 2.99148083 -0.59952188 4 4 34591 3.14200000 2333397558 2333397558 -11.00000000
-0.94172752 3.75750017 -0.61353600 2 6 34593 3.92200000 2333397562 2333397562 -9.00000000
-1.23033655 4.91632938 -0.62226486 2 8 34595 5.10600000 2333397567 2333397567 -7.00000000
-2.68436694 10.74244213 2.15232539 43 11 34597 11.28000000 2333397574 2333397574 11.00000000
-2.58059788 10.34252262 2.46096444 57 13 34599 10.94000000 2333397578 2333397578 13.00000000
-2.22212887 8.91910362 2.46292210 40 15 34601 9.51600000 2333397583 2333397583 15.00000000
-0.53166199 2.14513516 -0.59217799 4 0 34608 2.28800000 2333397604 2333397604 -15.00000000
-0.62216073 2.51403499 -0.59791988 3 2 34610 2.65800000 2333397608 2333397608 -13.00000000
-0.74700439 3.02076530 -0.60486454 4 4 34611 3.17000000 2333397613 2333397613 -11.00000000
-0.92481738 3.74542212 -0.61103302 2 6 34613 3.90600000 2333397618 2333397618 -9.00000000
-1.21601903 4.93215847 -0.62372732 2 8 34615 5.11800000 2333397622 2333397622 -7.00000000
-2.64779091 10.75555992 2.15308881 40 11 34617 11.28400000 2333397629 2333397629 11.00000000
-2.54541039 10.35525227 2.46186423 55 13 34619 10.94400000 2333397634 2333397634 13.00000000
-2.18914008 8.91930199 2.46085143 40 15 34621 9.50800000 2333397638 2333397638 15.00000000
-0.52233809 2.13947105 -0.59010744 4 0 34628 2.28000000 2333397659 2333397659 -15.00000000
-0.61707366 2.53133774 -0.60151911 3 2 34630 2.67400000 2333397664 2333397664 -13.00000000
-0.73552608 3.01953959 -0.60410130 4 4 34631 3.16600000 2333397668 2333397668 -11.00000000
-0.91733980 3.77166057 -0.61478746 2 6 34633 3.93000000 2333397673 2333397673 -9.00000000
-1.21191216 4.99038553 -0.63055199 2 8 34635 5.17400000 2333397678 2333397678 -7.00000000
-2.60560465 10.74565697 2.14927244 40 11 34637 11.26400000 2333397684 2333397684 11.00000000
-2.50924826 10.36407375 2.46186423 57 13 34639 10.94400000 2333397689 2333397689 13.00000000
-2.15345311 8.90811062 2.45567513 38 15 34641 9.48800000 2333397694 2333397694 15.00000000
-0.51561415 2.14110136 -0.59010744 4 0 34646 2.28000000 2333397714 2333397714 -15.00000000
-0.60456228 2.51431656 -0.59702009 3 2 34648 2.65400000 2333397719 2333397719 -13.00000000
-0.72328442 3.01038170 -0.60181159 4 4 34649 3.15400000 2333397724 2333397724 -11.00000000
-0.89857417 3.74571085 -0.61009443 2 6 34651 3.90000000 2333397728 2333397728 -9.00000000
-1.18698049 4.95555878 -0.62567723 2 8 34653 5.13400000 2333397733 2333397733 -7.00000000
-2.56955004 10.74424267 2.14736438 37 11 34655 11.25400000 2333397740 2333397740 11.00000000
-2.47667623 10.37190628 2.46186423 59 13 34657 10.94400000 2333397744 2333397744 13.00000000
-2.12970304 8.92573547 2.45878100 40 15 34658 9.50000000 2333397749 2333397749 15.00000000
-0.50902867 2.14664769 -0.59114271 4 0 34666 2.28400000 2333397770 2333397770 -15.00000000
-0.59443510 2.51072264 -0.59567040 3 2 34668 2.64800000 2333397774 2333397774 -13.00000000
-0.71367580 3.01670933 -0.60257483 2 4 34669 3.15800000 2333397779 2333397779 -11.00000000
-0.88776428 3.75843692 -0.61165875 2 6 34671 3.91000000 2333397783 2333397783 -9.00000000
-1.17058635 4.96353579 -0.62616467 2 8 34673 5.13800000 2333397788 2333397788 -7.00000000
-2.53113008 10.74932480 2.14660120 43 11 34675 11.25000000 2333397795 2333397795 11.00000000
-2.43599653 10.36151791 2.45736527 59 13 34677 10.92400000 2333397800 2333397800 13.00000000
-2.09432554 8.92219734 2.45567513 38 15 34679 9.48800000 2333397804 2333397804 15.00000000
-0.50284988 2.15405512 -0.59269559 4 0 34686 2.29000000 2333397825 2333397825 -15.00000000
-0.58610976 2.51468015 -0.59612030 3 2 34688 2.65000000 2333397830 2333397830 -13.00000000
-0.70314115 3.01918197 -0.60257483 2 4 34689 3.15800000 2333397834 2333397834 -11.00000000
-0.87687635 3.77113318 -0.61322308 2 6 34691 3.92000000 2333397839 2333397839 -9.00000000
-1.15145767 4.95985699 -0.62518972 2 8 34693 5.13000000 2333397843 2333397843 -7.00000000
-2.49447894 10.76191998 2.14736438 40 11 34695 11.25400000 2333397850 2333397850 11.00000000
-2.39498019 10.34907341 2.45241642 53 13 34697 10.90200000 2333397855 2333397855 13.00000000
-2.06559730 8.93285751 2.45671034 38 15 34698 9.49200000 2333397860 2333397860 15.00000000
-0.49446255 2.15203190 -0.59166032 4 0 34706 2.28600000 2333397880 2333397880 -15.00000000
-0.57907122 2.52430820 -0.59791988 3 2 34708 2.65800000 2333397885 2333397885 -13.00000000
-0.69084346 3.01396346 -0.60104835 2 4 34709 3.15000000 2333397889 2333397889 -11.00000000
-0.87119865 3.80690622 -0.61854190 2 6 34711 3.95400000 2333397894 2333397894 -9.00000000
-1.12794721 4.93675327 -0.62177742 6 8 34713 5.10200000 2333397899 2333397899 -7.00000000
-2.45384145 10.75716305 2.14469314 40 11 34715 11.24000000 2333397906 2333397906 11.00000000
-2.35884070 10.35737038 2.45241642 54 13 34717 10.90200000 2333397910 2333397910 13.00000000
-2.03198624 8.93660069 2.45567513 40 15 34719 9.48800000 2333397915 2333397915 15.00000000
-0.48566946 2.14809179 -0.59010744 4 0 34726 2.28000000 2333397936 2333397936 -15.00000000
-0.57197255 2.53391790 -0.59971952 3 2 34728 2.66600000 2333397940 2333397940 -13.00000000
-0.68377411 3.03167796 -0.60410130 2 4 34729 3.16600000 2333397945 2333397945 -11.00000000
-0.85356534 3.79065275 -0.61541319 2 6 34731 3.93400000 2333397949 2333397949 -9.00000000
-1.12115753 4.98714256 -0.62762713 2 8 34733 5.15000000 2333397954 2333397954 -7.00000000
-2.41713691 10.76949406 2.14545631 43 11 34735 11.24400000 2333397961 2333397961 11.00000000
-2.32352448 10.36934471 2.45331621 54 13 34737 10.90600000 2333397966 2333397966 13.00000000
-1.99854147 8.92632389 2.45101643 40 15 34738 9.47000000 2333397970 2333397970 15.00000000
-0.47858772 2.15165973 -0.59062505 4 0 34746 2.28200000 2333397991 2333397991 -15.00000000
-0.56312406 2.53589892 -0.59971952 3 2 34748 2.66600000 2333397995 2333397995 -13.00000000
-0.67318743 3.03404617 -0.60410130 2 4 34749 3.16600000 2333398000 2333398000 -11.00000000
-0.83691061 3.77818012 -0.61291021 2 6 34751 3.91800000 2333398005 2333398005 -9.00000000
-1.11145782 5.02591419 -0.63201439 2 8 34753 5.18600000 2333398009 2333398009 -7.00000000
-2.37699008 10.76636314 2.14316654 40 11 34755 11.23200000 2333398016 2333398016 11.00000000
-2.28731465 10.37739182 2.45331621 54 13 34757 10.90600000 2333398021 2333398021 13.00000000
-1.96498108 8.92981529 2.44998097 38 15 34759 9.46600000 2333398025 2333398025 15.00000000
-0.47268948 2.15889645 -0.59217799 4 0 34765 2.28800000 2333398046 2333398046 -15.00000000
-0.54805338 2.50729179 -0.59252107 3 2 34767 2.63400000 2333398051 2333398051 -13.00000000
-0.66563588 3.04777002 -0.60639101 2 4 34768 3.17800000 2333398055 2333398055 -11.00000000
-0.82858527 3.80023503 -0.61603892 2 6 34770 3.93800000 2333398060 2333398060 -9.00000000
-2.33835602 10.76075745 2.14049530 34 11 34774 11.21800000 2333398071 2333398071 11.00000000
-2.25123668 10.37730217 2.45151663 51 13 34776 10.89800000 2333398076 2333398076 13.00000000
-1.93773615 8.93972015 2.45101643 40 15 34777 9.47000000 2333398081 2333398081 15.00000000
-0.46596384 2.16431046 -0.59321326 4 0 34785 2.29200000 2333398101 2333398101 -15.00000000
-0.54503083 2.53586292 -0.59881973 3 2 34787 2.66200000 2333398106 2333398106 -13.00000000
-0.65087110 3.03088021 -0.60257483 2 4 34788 3.15800000 2333398111 2333398111 -11.00000000
-0.81448674 3.79924130 -0.61541319 2 6 34790 3.93400000 2333398115 2333398115 -9.00000000
-1.07722199 5.03336334 -0.63201439 2 8 34792 5.18600000 2333398120 2333398120 -7.00000000
-2.29995942 10.76501369 2.13973212 34 11 34794 11.21400000 2333398127 2333398127 11.00000000
-2.21256042 10.37366199 2.44881725 55 13 34796 10.88600000 2333398131 2333398131 13.00000000
-1.90495741 8.94676208 2.45101643 38 15 34798 9.47000000 2333398136 2333398136 15.00000000
-0.45600611 2.15458393 -0.59010744 4 0 34805 2.28000000 2333398157 2333398157 -15.00000000
-0.53698140 2.54156327 -0.59971952 3 2 34807 2.66600000 2333398161 2333398161 -13.00000000
-0.64190936 3.04081726 -0.60410130 2 4 34808 3.16600000 2333398166 2333398166 -11.00000000
-0.80203462 3.80592704 -0.61603892 2 6 34810 3.93800000 2333398171 2333398171 -9.00000000
-1.05719376 5.02543736 -0.63055199 2 8 34812 5.17400000 2333398175 2333398175 -7.00000000
-2.26196504 10.77105522 2.13935041 37 11 34814 11.21200000 2333398182 2333398182 11.00000000
-2.17753577 10.38704395 2.45016694 55 13 34816 10.89200000 2333398187 2333398187 13.00000000
-1.87290215 8.94168568 2.44791055 40 15 34817 9.45800000 2333398191 2333398191 15.00000000
-0.44848245 2.15616250 -0.59010744 4 0 34825 2.28000000 2333398212 2333398212 -15.00000000
-0.53127581 2.55868649 -0.60331875 3 2 34827 2.68200000 2333398217 2333398217 -13.00000000
-0.63288623 3.05072880 -0.60562778 2 4 34828 3.17400000 2333398221 2333398221 -11.00000000
-0.78714222 3.80096602 -0.61478746 2 6 34830 3.93000000 2333398226 2333398226 -9.00000000
-1.04205656 5.04076099 -0.63201439 2 8 34832 5.18600000 2333398230 2333398230 -7.00000000
-2.22594047 10.78657627 2.14087701 43 11 34834 11.22000000 2333398237 2333398237 11.00000000
-2.14087176 10.39267349 2.44971704 51 13 34836 10.89000000 2333398242 2333398242 13.00000000
-1.83817101 8.93902874 2.44532228 38 15 34838 9.44800000 2333398247 2333398247 15.00000000
-0.44250050 2.16528583 -0.59217799 4 0 34845 2.28800000 2333398267 2333398267 -15.00000000
-0.52000403 2.54906893 -0.60061932 3 2 34847 2.67000000 2333398272 2333398272 -13.00000000
-0.62144917 3.04907203 -0.60486454 2 4 34848 3.17000000 2333398277 2333398277 -11.00000000
-0.77386957 3.80369067 -0.61478746 2 6 34850 3.93000000 2333398281 2333398281 -9.00000000
-1.02682519 5.05604029 -0.63347685 2 8 34852 5.19800000 2333398286 2333398286 -7.00000000
-2.18515420 10.77888775 2.13782406 43 11 34854 11.20400000 2333398293 2333398293 11.00000000
-2.10496807 10.40199280 2.45016694 53 13 34856 10.89200000 2333398297 2333398297 13.00000000
-1.80813527 8.94318104 2.44480467 36 15 34857 9.44600000 2333398302 2333398302 15.00000000
-0.43493956 2.16681719 -0.59217799 4 0 34865 2.28800000 2333398323 2333398323 -15.00000000
-0.50957155 2.54322553 -0.59881973 3 2 34867 2.66200000 2333398327 2333398327 -13.00000000
-0.61157286 3.05507278 -0.60562778 2 4 34868 3.17400000 2333398332 2333398332 -11.00000000
-0.76213580 3.81411719 -0.61603892 2 6 34870 3.93800000 2333398336 2333398336 -9.00000000
-1.00684023 5.04791307 -0.63201439 2 8 34872 5.18600000 2333398341 2333398341 -7.00000000
-2.14674878 10.78259945 2.13706064 43 11 34874 11.20000000 2333398348 2333398348 11.00000000
-2.06674623 10.39972019 2.44791746 54 13 34876 10.88200000 2333398353 2333398353 13.00000000
-1.77728295 8.95133305 2.44532228 38 15 34877 9.44800000 2333398357 2333398357 15.00000000
-0.42924738 2.17582893 -0.59424853 4 0 34884 2.29600000 2333398378 2333398378 -15.00000000
-0.50264114 2.55254936 -0.60061932 3 2 34886 2.67000000 2333398383 2333398383 -13.00000000
-0.60143852 3.05708408 -0.60562778 2 4 34887 3.17400000 2333398387 2333398387 -11.00000000
-0.74948353 3.81662345 -0.61603892 2 6 34889 3.93800000 2333398392 2333398392 -9.00000000
-0.99009526 5.05122423 -0.63201439 2 8 34891 5.18600000 2333398396 2333398396 -7.00000000
-2.11098051 10.78965855 2.13706064 43 11 34893 11.20000000 2333398403 2333398403 11.00000000
-2.03112745 10.40077877 2.44656777 55 13 34895 10.87600000 2333398408 2333398408 13.00000000
-1.74906921 8.96476173 2.44739294 40 15 34896 9.45600000 2333398412 2333398412 15.00000000
-0.42091513 2.17352080 -0.59321326 4 0 34904 2.29200000 2333398433 2333398433 -15.00000000
-0.49372801 2.55428839 -0.60061932 3 2 34906 2.67000000 2333398438 2333398438 -13.00000000
-0.59001911 3.05530953 -0.60486454 2 4 34907 3.17000000 2333398442 2333398442 -11.00000000
-0.74064296 3.84249234 -0.61979336 2 6 34909 3.96200000 2333398447 2333398447 -9.00000000
-2.07404518 10.80081749 2.13782406 43 11 34913 11.20400000 2333398459 2333398459 11.00000000
-1.99517655 10.40971947 2.44701767 53 13 34915 10.87800000 2333398463 2333398463 13.00000000
-1.71547401 8.96731758 2.44635773 40 15 34917 9.45200000 2333398468 2333398468 15.00000000
-0.41152221 2.16548729 -0.59062505 4 0 34924 2.28200000 2333398489 2333398489 -15.00000000
-0.48480889 2.55599618 -0.60061932 3 2 34926 2.67000000 2333398493 2333398493 -13.00000000
-0.58081257 3.06506610 -0.60639101 2 4 34927 3.17800000 2333398498 2333398498 -11.00000000
-0.72392172 3.82758570 -0.61697751 2 6 34929 3.94400000 2333398502 2333398502 -9.00000000
-0.95480722 5.05801296 -0.63201439 2 8 34931 5.18600000 2333398507 2333398507 -7.00000000
-2.03633070 10.80799198 2.13782406 43 11 34933 11.20400000 2333398514 2333398514 11.00000000
-1.95990813 10.42236614 2.44836736 56 13 34935 10.88400000 2333398518 2333398518 13.00000000
-1.68358767 8.96156502 2.44325185 40 15 34936 9.44000000 2333398523 2333398523 15.00000000
-0.40431479 2.16880989 -0.59114271 4 0 34944 2.28400000 2333398544 2333398544 -15.00000000
-0.47374502 2.54617786 -0.59791988 3 2 34946 2.65800000 2333398548 2333398548 -13.00000000
-0.57154512 3.07479572 -0.60791749 2 4 34947 3.18600000 2333398553 2333398553 -11.00000000
-0.70731366 3.81260920 -0.61416173 2 6 34949 3.92600000 2333398558 2333398558 -9.00000000
-0.94220543 5.08864212 -0.63542676 2 8 34951 5.21400000 2333398562 2333398562 -7.00000000
-1.99573720 10.79958916 2.13477111 46 11 34953 11.18800000 2333398569 2333398569 11.00000000
-1.92316186 10.42722702 2.44791746 54 13 34955 10.88200000 2333398574 2333398574 13.00000000
-1.65229571 8.96738720 2.44325185 40 15 34956 9.44000000 2333398578 2333398578 15.00000000
-0.39813140 2.17780924 -0.59321326 4 0 34964 2.29200000 2333398599 2333398599 -15.00000000
-0.46415478 2.54398179 -0.59702009 3 2 34966 2.65400000 2333398604 2333398604 -13.00000000
-0.56080860 3.07677197 -0.60791749 2 4 34967 3.18600000 2333398608 2333398608 -11.00000000
-0.69470793 3.81894183 -0.61478746 2 6 34969 3.93000000 2333398613 2333398613 -9.00000000
-0.91947263 5.06455564 -0.63201439 2 8 34971 5.18600000 2333398617 2333398617 -7.00000000
-1.34970331 7.44170237 -0.66168642 4 10 34972 7.59200000 2333398622 2333398622 -5.00000000
-1.95802748 10.80648994 2.13477111 43 11 34973 11.18800000 2333398624 2333398624 11.00000000
-1.88467169 10.42237091 2.44521785 51 13 34975 10.87000000 2333398629 2333398629 13.00000000
-1.62167048 8.97690296 2.44428706 40 15 34976 9.44400000 2333398634 2333398634 15.00000000
-0.39120853 2.18298888 -0.59424853 4 0 34984 2.29600000 2333398654 2333398654 -15.00000000
-0.45664412 2.55325961 -0.59881973 3 2 34986 2.66200000 2333398659 2333398659 -13.00000000
-0.54937464 3.07484555 -0.60715425 2 4 34987 3.18200000 2333398664 2333398664 -11.00000000
-0.68484068 3.84079075 -0.61791611 2 6 34989 3.95000000 2333398668 2333398668 -9.00000000
-0.89691955 5.04037285 -0.62860209 2 8 34991 5.15800000 2333398673 2333398673 -7.00000000
-1.33348262 7.50129414 -0.66656715 4 10 34992 7.64800000 2333398677 2333398677 -5.00000000
-1.92098045 10.81712532 2.13553429 43 11 34993 11.19200000 2333398680 2333398680 11.00000000
-1.84691906 10.42121124 2.44341826 55 13 34995 10.86200000 2333398684 2333398684 13.00000000
-1.58774829 8.97707939 2.44273424 40 15 34997 9.43800000 2333398689 2333398689 15.00000000
-0.38358611 2.18434119 -0.59424853 4 0 35004 2.29600000 2333398710 2333398710 -15.00000000
-0.45109266 2.57403302 -0.60331875 3 2 35006 2.68200000 2333398714 2333398714 -13.00000000
-0.53796095 3.07287693 -0.60639101 4 4 35007 3.17800000 2333398719 2333398719 -11.00000000
-0.67142963 3.84315777 -0.61791611 2 6 35009 3.95000000 2333398723 2333398723 -9.00000000
-0.88750279 5.09040737 -0.63445181 2 8 35011 5.20600000 2333398728 2333398728 -7.00000000
-1.31822979 7.56871414 -0.67214507 4 10 35012 7.71200000 2333398733 2333398733 -5.00000000
-1.88388300 10.82763290 2.13629746 43 11 35013 11.19600000 2333398735 2333398735 11.00000000
-1.81119776 10.43143463 2.44431806 52 13 35015 10.86600000 2333398740 2333398740 13.00000000
-1.55664980 8.97468090 2.44066358 40 15 35016 9.43000000 2333398744 2333398744 15.00000000
-0.37464905 2.17805123 -0.59217799 4 0 35024 2.28800000 2333398765 2333398765 -15.00000000
-0.44441262 2.58903646 -0.60646802 3 2 35026 2.69600000 2333398769 2333398769 -13.00000000
-0.53054935 3.09408617 -0.61020714 2 4 35027 3.19800000 2333398774 2333398774 -11.00000000
-0.65801042 3.84547806 -0.61791611 2 6 35029 3.95000000 2333398779 2333398779 -9.00000000
-0.87440634 5.12086916 -0.63786417 2 8 35031 5.23400000 2333398783 2333398783 -7.00000000
-1.84211874 10.81091881 2.13171816 50 11 35033 11.17200000 2333398790 2333398790 11.00000000
-1.77510095 10.43961430 2.44476795 57 13 35035 10.86800000 2333398795 2333398795 13.00000000
-1.52401888 8.97244167 2.43859315 42 15 35036 9.42200000 2333398799 2333398799 15.00000000
-0.36870900 2.18690157 -0.59424853 4 0 35043 2.29600000 2333398820 2333398820 -15.00000000
-0.43323815 2.57512212 -0.60286885 3 2 35045 2.68000000 2333398825 2333398825 -13.00000000
-0.51768303 3.08033967 -0.60715425 2 4 35046 3.18200000 2333398829 2333398829 -11.00000000
-0.64623487 3.85348344 -0.61885476 2 6 35048 3.95600000 2333398834 2333398834 -9.00000000
-0.85610956 5.11590910 -0.63688916 2 8 35050 5.22600000 2333398839 2333398839 -7.00000000
-1.80496490 10.80922222 2.13019156 43 11 35052 11.16400000 2333398846 2333398846 11.00000000
-1.74111271 10.44928837 2.44566774 57 13 35054 10.87200000 2333398850 2333398850 13.00000000
-1.49078882 8.96627331 2.43548727 42 15 35056 9.41000000 2333398855 2333398855 15.00000000
-0.36044398 2.18436313 -0.59321326 4 0 35063 2.29200000 2333398875 2333398875 -15.00000000
-0.42298025 2.56892729 -0.60106921 3 2 35065 2.67200000 2333398880 2333398880 -13.00000000
-0.50820196 3.08987689 -0.60868067 4 4 35066 3.19000000 2333398885 2333398885 -11.00000000
-0.63469923 3.86741161 -0.62073195 2 6 35068 3.96800000 2333398889 2333398889 -9.00000000
-0.84145445 5.13845634 -0.63932657 2 8 35070 5.24600000 2333398894 2333398894 -7.00000000
-1.76785576 10.81933212 2.13095474 43 11 35072 11.16800000 2333398901 2333398901 11.00000000
-1.70274580 10.44376183 2.44296837 57 13 35074 10.86000000 2333398905 2333398905 13.00000000
-1.46010196 8.97523594 2.43652248 42 15 35076 9.41400000 2333398910 2333398910 15.00000000
-0.35343269 2.18942237 -0.59424853 4 0 35083 2.29600000 2333398931 2333398931 -15.00000000
-0.41277087 2.56269240 -0.59926963 3 2 35085 2.66400000 2333398935 2333398935 -13.00000000
-0.49678949 3.08775520 -0.60791749 2 4 35086 3.18600000 2333398940 2333398940 -11.00000000
-0.62119555 3.86960363 -0.62073195 2 6 35088 3.96800000 2333398945 2333398945 -9.00000000
-0.82037318 5.12176085 -0.63688916 2 8 35090 5.22600000 2333398949 2333398949 -7.00000000
-1.21374965 7.58617020 -0.67214507 4 10 35091 7.71200000 2333398954 2333398954 -5.00000000
-1.73007858 10.82543659 2.13095474 43 11 35092 11.16800000 2333398956 2333398956 11.00000000
-1.66413188 10.43617058 2.43981910 54 13 35094 10.84600000 2333398961 2333398961 13.00000000
-1.42754948 8.97264671 2.43445206 42 15 35096 9.40600000 2333398965 2333398965 15.00000000
-0.34398076 2.17919326 -0.59114271 4 0 35103 2.28400000 2333398986 2333398986 -15.00000000
-0.40655142 2.58144259 -0.60331875 3 2 35105 2.68200000 2333398991 2333398991 -13.00000000
-0.48661834 3.09334946 -0.60868067 2 4 35106 3.19000000 2333398995 2333398995 -11.00000000
-0.60982835 3.88540888 -0.62292206 2 6 35108 3.98200000 2333399000 2333399000 -9.00000000
-0.80556107 5.14420557 -0.63932657 2 8 35110 5.24600000 2333399005 2333399005 -7.00000000
-1.18726158 7.59036064 -0.67214507 4 10 35111 7.71200000 2333399009 2333399009 -5.00000000
-1.69228017 10.83141041 2.13095474 43 11 35112 11.16800000 2333399011 2333399011 11.00000000
-1.62889326 10.44961834 2.44161868 53 13 35114 10.85400000 2333399016 2333399016 13.00000000
-1.39443910 8.96612167 2.43134618 45 15 35116 9.39400000 2333399021 2333399021 15.00000000
-0.33716816 2.18807673 -0.59321326 4 0 35124 2.29200000 2333399041 2333399041 -15.00000000
-0.39619890 2.57713723 -0.60196900 3 2 35126 2.67600000 2333399046 2333399046 -13.00000000
-0.47766122 3.11063623 -0.61173362 2 4 35127 3.20600000 2333399051 2333399051 -11.00000000
-0.59199387 3.86418676 -0.61916763 2 6 35129 3.95800000 2333399055 2333399055 -9.00000000
-0.78550148 5.13927412 -0.63835162 2 8 35131 5.23800000 2333399060 2333399060 -7.00000000
-1.15943348 7.59466124 -0.67214507 4 10 35132 7.71200000 2333399064 2333399064 -5.00000000
-1.65138590 10.82977676 2.12942839 43 11 35133 11.16000000 2333399067 2333399067 11.00000000
-1.59058249 10.45551777 2.44161868 54 13 35135 10.85400000 2333399071 2333399071 13.00000000
