# .PCD v0.7 - Point Cloud Data file format
VERSION 0.7
FIELDS x y z intensity laser_id azimuth distance_m adjustedtime timestamp vertical_angle
SIZE 4 4 4 1 1 2 8 8 4 8
TYPE F F F U U U F U U F
COUNT 1 1 1 1 1 1 1 1 1 1
WIDTH 539
HEIGHT 1
VIEWPOINT 0 0 0 1 0 0 0
POINTS 539
DATA ascii
4.92900991 2.43285799 -0.67491245 9 8 6373 5.53800000 2334018984 2334018984 -7.00000000
6.88976955 3.39915323 -0.67214507 4 10 6374 7.71200000 2334018988 2334018988 -5.00000000
8.20121861 4.04261398 -0.47918802 17 12 6376 9.15600000 2334018993 2334018993 -3.00000000
8.26663589 4.07306671 2.12758708 75 13 6377 9.45800000 2334018995 2334018995 13.00000000
8.19828320 4.03761101 -0.15951499 18 14 6378 9.14000000 2334018998 2334018998 -1.00000000
7.89308929 3.88559270 2.35732388 47 15 6379 9.10800000 2334019000 2334019000 15.00000000
2.04660487 1.00395048 -0.61081296 4 0 6387 2.36000000 2334019021 2334019021 -15.00000000
8.19993114 4.02065468 0.15941028 12 1 6388 9.13400000 2334019023 2334019023 1.00000000
8.18590450 4.01200485 -2.10464215 8 2 6389 9.35600000 2334019025 2334019025 -13.00000000
8.22362709 4.02871323 0.47992072 13 3 6390 9.17000000 2334019027 2334019027 3.00000000
2.90375423 1.42253447 -0.62852484 5 4 6390 3.29400000 2334019030 2334019030 -11.00000000
8.20606709 4.01833487 0.79939246 75 5 6391 9.17200000 2334019032 2334019032 5.00000000
3.64962387 1.78635287 -0.64357138 4 6 6392 4.11400000 2334019034 2334019034 -9.00000000
8.21842194 4.02082872 1.12339163 97 7 6393 9.21800000 2334019037 2334019037 7.00000000
4.93076038 2.41128778 -0.67393744 6 8 6394 5.53000000 2334019039 2334019039 -7.00000000
7.54657602 3.68886685 -0.73489720 13 10 6395 8.43200000 2334019044 2334019044 -5.00000000
8.20521259 4.00726891 -0.47855997 17 12 6397 9.14400000 2334019048 2334019048 -3.00000000
8.27275276 4.03846645 2.12533760 72 13 6398 9.44800000 2334019051 2334019051 13.00000000
8.20943260 4.00578165 -0.15944518 14 14 6399 9.13600000 2334019053 2334019053 -1.00000000
7.91875792 3.86394715 2.36094737 47 15 6399 9.12200000 2334019055 2334019055 15.00000000
2.05357146 0.99848986 -0.61184824 4 0 6407 2.36400000 2334019076 2334019076 -15.00000000
8.19952774 3.98501444 0.15913104 15 1 6408 9.11800000 2334019078 2334019078 1.00000000
8.19460106 3.98085189 -2.10329247 8 2 6409 9.35000000 2334019080 2334019080 -13.00000000
8.20889378 3.98602462 0.47824597 10 3 6410 9.13800000 2334019083 2334019083 3.00000000
2.89987183 1.40810204 -0.62661672 5 4 6410 3.28400000 2334019085 2334019085 -11.00000000
8.22362900 3.99140596 0.79974109 82 5 6411 9.17600000 2334019087 2334019087 5.00000000
3.64872813 1.77015352 -0.64231992 6 6 6412 4.10600000 2334019090 2334019090 -9.00000000
8.22169018 3.98691964 1.12192917 92 7 6413 9.20600000 2334019092 2334019092 7.00000000
4.94271994 2.39579320 -0.67442495 6 8 6414 5.53400000 2334019094 2334019094 -7.00000000
8.31794167 4.03000879 1.46391368 2 9 6415 9.35800000 2334019097 2334019097 9.00000000
7.56478596 3.66510797 -0.73542017 13 10 6415 8.43800000 2334019099 2334019099 -5.00000000
8.19218445 3.96554995 -0.47698990 17 12 6417 9.11400000 2334019103 2334019103 -3.00000000
8.26224041 3.99768162 2.11903882 68 13 6418 9.42000000 2334019106 2334019106 13.00000000
8.19636250 3.96404147 -0.15892161 16 14 6419 9.10600000 2334019108 2334019108 -1.00000000
7.93808460 3.83741999 2.36250019 45 15 6420 9.12800000 2334019110 2334019110 15.00000000
2.04643035 0.98664057 -0.60874242 4 0 6426 2.35200000 2334019131 2334019131 -15.00000000
8.20549202 3.95432949 0.15899143 21 1 6427 9.11000000 2334019133 2334019133 1.00000000
8.19195557 3.94604445 -2.09924316 8 2 6428 9.33200000 2334019136 2334019136 -13.00000000
8.20946980 3.95271587 0.47751325 10 3 6429 9.12400000 2334019138 2334019138 3.00000000
2.90098739 1.39677465 -0.62585348 5 4 6429 3.28000000 2334019140 2334019140 -11.00000000
8.21886635 3.95547342 0.79799795 82 5 6430 9.15600000 2334019143 2334019143 5.00000000
3.67593956 1.76832020 -0.64607435 4 6 6431 4.13000000 2334019145 2334019145 -9.00000000
8.23128796 3.95791316 1.12144172 95 7 6432 9.20200000 2334019147 2334019147 7.00000000
4.93632412 2.37250996 -0.67247504 6 8 6433 5.51800000 2334019150 2334019150 -7.00000000
7.58049011 3.64172769 -0.73576880 13 10 6434 8.44200000 2334019154 2334019154 -5.00000000
8.20348930 3.93749762 -0.47688523 17 12 6436 9.11200000 2334019159 2334019159 -3.00000000
8.26490974 3.96520352 2.11633945 72 13 6437 9.40800000 2334019161 2334019161 13.00000000
8.19143200 3.92819285 -0.15857257 16 14 6438 9.08600000 2334019163 2334019163 -1.00000000
7.94313335 3.80912161 2.36042976 45 15 6438 9.12000000 2334019166 2334019166 15.00000000
2.04637575 0.97782540 -0.60770714 4 0 6446 2.34800000 2334019186 2334019186 -15.00000000
8.20300484 3.91790628 0.15867728 21 1 6447 9.09200000 2334019189 2334019189 1.00000000
8.20216274 3.91574597 -2.09834337 8 2 6448 9.32800000 2334019191 2334019191 -13.00000000
8.21961212 3.92231512 0.47730392 10 3 6449 9.12000000 2334019193 2334019193 3.00000000
2.90407348 1.38579428 -0.62547189 5 4 6449 3.27800000 2334019196 2334019196 -11.00000000
8.20924568 3.91560936 0.79573190 78 5 6450 9.13000000 2334019198 2334019198 5.00000000
3.67852354 1.75377774 -0.64544863 4 6 6451 4.12600000 2334019200 2334019200 -9.00000000
8.23071671 3.92232466 1.11949182 95 7 6452 9.18600000 2334019203 2334019203 7.00000000
4.95891333 2.36209393 -0.67442495 6 8 6453 5.53400000 2334019205 2334019205 -7.00000000
7.58056355 3.60924911 -0.73454863 13 10 6454 8.42800000 2334019209 2334019209 -5.00000000
8.20816612 3.90454841 -0.47636187 17 12 6456 9.10200000 2334019214 2334019214 -3.00000000
8.26814079 3.93130851 2.11364007 70 13 6457 9.39600000 2334019216 2334019216 13.00000000
8.19425678 3.89442515 -0.15836313 16 14 6458 9.07400000 2334019219 2334019219 -1.00000000
7.95355082 3.77832508 2.35939431 45 15 6459 9.11600000 2334019221 2334019221 15.00000000
2.05501437 0.97315669 -0.60926002 4 0 6466 2.35400000 2334019242 2334019242 -15.00000000
8.20036411 3.88154888 0.15836313 25 1 6467 9.07400000 2334019244 2334019244 1.00000000
8.18759632 3.87375641 -2.09114504 8 2 6468 9.29600000 2334019246 2334019246 -13.00000000
8.22242069 3.88847613 0.47667590 10 3 6469 9.10800000 2334019249 2334019249 3.00000000
2.92131686 1.38152397 -0.62814319 5 4 6469 3.29200000 2334019251 2334019251 -11.00000000
8.20845318 3.88011813 0.79433745 78 5 6470 9.11400000 2334019253 2334019253 5.00000000
3.67033458 1.73417556 -0.64294565 6 6 6471 4.11000000 2334019256 2334019256 -9.00000000
8.22820377 3.88594055 1.11729813 87 7 6472 9.16800000 2334019258 2334019258 7.00000000
4.96712828 2.34476972 -0.67442495 9 8 6473 5.53400000 2334019260 2334019260 -7.00000000
8.29042912 3.91355824 1.45202470 2 9 6473 9.28200000 2334019262 2334019262 9.00000000
7.59311581 3.58276606 -0.73454863 13 10 6474 8.42800000 2334019265 2334019265 -5.00000000
8.19645309 3.86394954 -0.47489646 17 12 6476 9.07400000 2334019269 2334019269 -3.00000000
8.27476215 3.89910078 2.11184049 72 13 6477 9.38800000 2334019272 2334019272 13.00000000
8.20056534 3.86238980 -0.15822351 18 14 6478 9.06600000 2334019274 2334019274 -1.00000000
7.97652292 3.75686812 2.36250019 47 15 6478 9.12800000 2334019276 2334019276 15.00000000
2.06014776 0.96679813 -0.60977769 4 0 6486 2.35600000 2334019297 2334019297 -15.00000000
8.19937992 3.84610677 0.15808390 18 1 6487 9.05800000 2334019299 2334019299 1.00000000
8.17283821 3.83191633 -2.08394647 8 2 6488 9.26400000 2334019302 2334019302 -13.00000000
8.21424198 3.84958029 0.47541982 13 3 6489 9.08400000 2334019304 2334019304 3.00000000
2.91723275 1.36715257 -0.62623513 5 4 6489 3.28200000 2334019306 2334019306 -11.00000000
8.21112251 3.84637070 0.79329157 78 5 6490 9.10200000 2334019309 2334019309 5.00000000
3.67994356 1.72302842 -0.64357138 6 6 6491 4.11400000 2334019311 2334019311 -9.00000000
8.21834469 3.84625626 1.11412954 92 7 6492 9.14200000 2334019313 2334019313 7.00000000
4.96988869 2.32489347 -0.67369372 9 8 6493 5.52800000 2334019315 2334019315 -7.00000000
8.35303116 3.90573716 1.46047211 2 9 6494 9.33600000 2334019318 2334019318 9.00000000
7.60918570 3.55792713 -0.73489720 13 10 6494 8.43200000 2334019320 2334019320 -5.00000000
8.18817616 3.82517099 -0.47364041 17 12 6496 9.05000000 2334019325 2334019325 -3.00000000
8.26536751 3.85947418 2.10599184 74 13 6497 9.36200000 2334019327 2334019327 13.00000000
8.20312500 3.82866669 -0.15801409 16 14 6498 9.05400000 2334019329 2334019329 -1.00000000
7.99374056 3.72924113 2.36353540 47 15 6499 9.13200000 2334019332 2334019332 15.00000000
2.07210016 0.96403563 -0.61236584 4 0 6505 2.36600000 2334019352 2334019352 -15.00000000
8.20483589 3.81552267 0.15794428 15 1 6506 9.05000000 2334019355 2334019355 1.00000000
8.16959572 3.79740047 -2.07989740 8 2 6507 9.24600000 2334019357 2334019357 -13.00000000
8.20522594 3.81222105 0.47416377 13 3 6508 9.06000000 2334019359 2334019359 3.00000000
2.91462851 1.35416234 -0.62470865 5 4 6508 3.27400000 2334019362 2334019362 -11.00000000
8.21298981 3.81408525 0.79224569 75 5 6509 9.09000000 2334019364 2334019364 5.00000000
3.68563724 1.71081579 -0.64357138 6 6 6510 4.11400000 2334019366 2334019366 -9.00000000
8.22025013 3.81396937 1.11266708 95 7 6511 9.13000000 2334019368 2334019368 7.00000000
4.96676540 2.30338883 -0.67223132 9 8 6512 5.51600000 2334019371 2334019371 -7.00000000
7.62817287 3.53602624 -0.73559445 13 10 6513 8.44000000 2334019375 2334019375 -5.00000000
8.19356632 3.79463959 -0.47322172 17 12 6515 9.04200000 2334019380 2334019380 -3.00000000
8.24805737 3.81812716 2.09834337 75 13 6516 9.32800000 2334019382 2334019382 13.00000000
8.19399834 3.79136634 -0.15759523 16 14 6517 9.03000000 2334019385 2334019385 -1.00000000
8.01593590 3.70897698 2.36664128 45 15 6517 9.14400000 2334019387 2334019387 15.00000000
2.06141758 0.95032650 -0.60822475 4 0 6525 2.35000000 2334019408 2334019408 -15.00000000
8.20357609 3.78016424 0.15766504 12 1 6526 9.03400000 2334019410 2334019410 1.00000000
8.17926121 3.76722980 -2.07899761 10 2 6527 9.24200000 2334019412 2334019412 -13.00000000
8.21122646 3.78021550 0.47374508 13 3 6528 9.05200000 2334019415 2334019415 3.00000000
2.92468762 1.34644318 -0.62585348 5 4 6528 3.28000000 2334019417 2334019417 -11.00000000
8.20634365 3.77623177 0.79032826 75 5 6529 9.06800000 2334019419 2334019419 5.00000000
3.70235443 1.70289278 -0.64544863 6 6 6530 4.12600000 2334019421 2334019421 -9.00000000
8.22629833 3.78193521 1.11169219 92 7 6531 9.12200000 2334019424 2334019424 7.00000000
4.97657967 2.28686643 -0.67247504 9 8 6532 5.51800000 2334019426 2334019426 -7.00000000
7.62598515 3.50272465 -0.73420000 13 10 6533 8.42400000 2334019431 2334019431 -5.00000000
8.19950199 3.76268363 -0.47280303 17 12 6535 9.03400000 2334019435 2334019435 -3.00000000
8.25424957 3.78606296 2.09654379 75 13 6536 9.32000000 2334019438 2334019438 13.00000000
8.18718719 3.75357366 -0.15721127 16 14 6537 9.00800000 2334019440 2334019440 -1.00000000
8.02532196 3.67936325 2.36560607 45 15 6537 9.14000000 2334019442 2334019442 15.00000000
2.05593610 0.93911171 -0.60563654 4 0 6545 2.34000000 2334019463 2334019463 -15.00000000
8.19671154 3.74236965 0.15728109 12 1 6546 9.01200000 2334019465 2334019465 1.00000000
8.18349743 3.73461056 -2.07674813 8 2 6547 9.23200000 2334019468 2334019468 -13.00000000
8.21528625 3.74738550 0.47322172 13 3 6548 9.04200000 2334019470 2334019470 3.00000000
2.92758369 1.33541107 -0.62547189 5 4 6548 3.27800000 2334019472 2334019472 -11.00000000
8.20315933 3.74012446 0.78875947 78 5 6549 9.05000000 2334019474 2334019474 5.00000000
3.69389606 1.68340540 -0.64294565 6 6 6550 4.11000000 2334019477 2334019477 -9.00000000
8.22499752 3.74661398 1.10974228 97 7 6551 9.10600000 2334019479 2334019479 7.00000000
4.99898481 2.27606153 -0.67442495 6 8 6552 5.53400000 2334019481 2334019481 -7.00000000
8.33886909 3.79496956 1.45108604 2 9 6553 9.27600000 2334019484 2334019484 9.00000000
7.62365770 3.46948147 -0.73280549 13 10 6553 8.40800000 2334019486 2334019486 -5.00000000
8.20531273 3.73073244 -0.47238433 17 12 6555 9.02600000 2334019491 2334019491 -3.00000000
8.25499630 3.75158334 2.09339452 75 13 6556 9.30600000 2334019493 2334019493 13.00000000
8.18749523 3.71918273 -0.15696694 16 14 6557 8.99400000 2334019495 2334019495 -1.00000000
8.02756310 3.64653349 2.36250019 45 15 6557 9.12800000 2334019497 2334019497 15.00000000
2.06800175 0.93591207 -0.60822475 4 0 6565 2.35000000 2334019518 2334019518 -15.00000000
8.18421745 3.70219660 0.15679242 12 1 6566 8.98400000 2334019521 2334019521 1.00000000
8.17872715 3.69799328 -2.07224917 8 2 6567 9.21200000 2334019523 2334019523 -13.00000000
8.22467709 3.71704078 0.47301236 13 3 6568 9.03800000 2334019525 2334019525 3.00000000
2.92864919 1.32356668 -0.62470865 5 4 6568 3.27400000 2334019527 2334019527 -11.00000000
8.21071815 3.70900655 0.78823656 78 5 6569 9.04400000 2334019530 2334019530 5.00000000
3.69254827 1.66724944 -0.64169419 6 6 6570 4.10200000 2334019532 2334019532 -9.00000000
8.21812344 3.70889831 1.10706115 99 7 6571 9.08400000 2334019534 2334019534 7.00000000
4.99604225 2.25370049 -0.67296249 9 8 6572 5.52200000 2334019537 2334019537 -7.00000000
7.65570164 3.45185709 -0.73472291 13 10 6573 8.43000000 2334019541 2334019541 -5.00000000
8.19461250 3.69140387 -0.47102362 17 12 6575 9.00000000 2334019546 2334019546 -3.00000000
8.25560284 3.71714473 2.09024525 72 13 6576 9.29200000 2334019548 2334019548 13.00000000
8.20589828 3.69304252 -0.15707166 14 14 6577 9.00000000 2334019550 2334019550 -1.00000000
8.03911304 3.61629391 2.36198258 42 15 6578 9.12600000 2334019553 2334019553 15.00000000
2.07654452 0.93105876 -0.60977769 4 0 6585 2.35600000 2334019574 2334019574 -15.00000000
8.19891548 3.67442346 0.15682733 12 1 6586 8.98600000 2334019576 2334019576 1.00000000
8.17202282 3.66065860 -2.06730008 8 2 6587 9.19000000 2334019578 2334019578 -13.00000000
8.21572685 3.67851448 0.47175631 13 3 6588 9.01400000 2334019580 2334019580 3.00000000
2.94221067 1.31734717 -0.62661672 5 4 6588 3.28400000 2334019583 2334019583 -11.00000000
8.20542908 3.67218447 0.78649342 78 5 6589 9.02400000 2334019585 2334019585 5.00000000
3.68391991 1.64789701 -0.63919121 6 6 6590 4.08600000 2334019587 2334019587 -9.00000000
8.20383644 3.66803503 1.10340500 97 7 6591 9.05400000 2334019590 2334019590 7.00000000
5.00387907 2.23624730 -0.67296249 9 8 6592 5.52200000 2334019592 2334019592 -7.00000000
7.65860844 3.42104983 -0.73385137 13 10 6593 8.42000000 2334019597 2334019597 -5.00000000
8.18738556 3.65382338 -0.46987221 12 12 6595 8.97800000 2334019601 2334019601 -3.00000000
8.25073051 3.68036604 2.08574629 70 13 6596 9.27200000 2334019603 2334019603 13.00000000
8.21143341 3.66111875 -0.15693204 14 14 6597 8.99200000 2334019606 2334019606 -1.00000000
7.11944532 3.17424893 2.08866978 40 15 6597 8.07000000 2334019608 2334019608 15.00000000
2.07271981 0.92066777 -0.60770714 4 0 6605 2.34800000 2334019629 2334019629 -15.00000000
8.20438099 3.64253569 0.15668771 12 1 6606 8.97800000 2334019631 2334019631 1.00000000
8.17406368 3.62736773 -2.06460071 8 2 6607 9.17800000 2334019633 2334019633 -13.00000000
8.19200325 3.63361764 0.46966287 13 3 6608 8.97400000 2334019636 2334019636 3.00000000
2.94679117 1.30706894 -0.62661672 5 4 6608 3.28400000 2334019638 2334019638 -11.00000000
8.20909023 3.63948226 0.78562188 86 5 6609 9.01400000 2334019640 2334019640 5.00000000
3.71854568 1.64783263 -0.64419711 6 6 6610 4.11800000 2334019643 2334019643 -9.00000000
8.21296024 3.63776827 1.10291755 92 7 6611 9.05000000 2334019645 2334019645 7.00000000
5.00439358 2.21555257 -0.67198753 9 8 6612 5.51400000 2334019647 2334019647 -7.00000000
7.67961311 3.39832664 -0.73472291 13 10 6613 8.43000000 2334019652 2334019652 -5.00000000
8.20557022 3.62764454 -0.47018623 17 12 6615 8.98400000 2334019656 2334019656 -3.00000000
8.24926758 3.64524198 2.08214688 68 13 6616 9.25600000 2334019659 2334019659 13.00000000
8.19489574 3.61950660 -0.15637356 18 14 6617 8.96000000 2334019661 2334019661 -1.00000000
7.12871504 3.14859772 2.08815217 45 15 6617 8.06800000 2334019663 2334019663 15.00000000
2.07222509 0.91223258 -0.60667187 4 0 6624 2.34400000 2334019685 2334019685 -15.00000000
8.20177174 3.60886621 0.15640847 12 1 6625 8.96200000 2334019687 2334019687 1.00000000
8.17534447 3.59553456 -2.06190133 8 2 6626 9.16600000 2334019690 2334019690 -13.00000000
8.20886326 3.61027598 0.46997687 13 3 6626 8.98000000 2334019692 2334019692 3.00000000
2.93313670 1.28938913 -0.62280059 5 4 6627 3.26400000 2334019694 2334019694 -11.00000000
8.19557667 3.60101938 0.78318149 75 5 6628 8.98600000 2334019697 2334019697 5.00000000
3.71856380 1.63310945 -0.64325851 6 6 6629 4.11200000 2334019699 2334019699 -9.00000000
8.21952534 3.60811925 1.10218632 99 7 6630 9.04400000 2334019701 2334019701 7.00000000
5.02080250 2.20293307 -0.67320627 9 8 6631 5.52400000 2334019703 2334019703 -7.00000000
7.67441845 3.36563969 -0.73315412 13 10 6632 8.41200000 2334019708 2334019708 -5.00000000
8.19926071 3.59239864 -0.46913952 17 12 6634 8.96400000 2334019713 2334019713 -3.00000000
8.25416946 3.61473942 2.08034730 62 13 6635 9.24800000 2334019715 2334019715 13.00000000
8.18303871 3.58188725 -0.15591981 20 14 6636 8.93400000 2334019717 2334019717 -1.00000000
7.13734722 3.12416601 2.08763433 45 15 6636 8.06600000 2334019720 2334019720 15.00000000
2.08070922 0.90731019 -0.60822475 4 0 6644 2.35000000 2334019740 2334019740 -15.00000000
8.18315601 3.56663203 0.15581508 18 1 6645 8.92800000 2334019743 2334019743 1.00000000
8.18069839 3.56386209 -2.06010175 8 2 6646 9.15800000 2334019745 2334019745 -13.00000000
8.20739079 3.57378602 0.46913952 13 3 6647 8.96400000 2334019747 2334019747 3.00000000
2.96101975 1.28933203 -0.62776160 6 4 6647 3.29000000 2334019750 2334019750 -11.00000000
8.18434811 3.56205320 0.78091544 75 5 6648 8.96000000 2334019752 2334019752 5.00000000
3.70793915 1.61302733 -0.64044273 6 6 6649 4.09400000 2334019754 2334019754 -9.00000000
8.21568584 3.57228184 1.09999275 92 7 6650 9.02600000 2334019756 2334019756 7.00000000
5.01389647 2.17906380 -0.67125636 9 8 6651 5.50800000 2334019759 2334019759 -7.00000000
7.68246508 3.33724260 -0.73280549 13 10 6652 8.40800000 2334019763 2334019763 -5.00000000
8.20258999 3.55978036 -0.46861616 17 12 6654 8.95400000 2334019768 2334019768 -3.00000000
8.25958633 3.58280301 2.07854772 60 13 6655 9.24000000 2334019770 2334019770 13.00000000
8.18081474 3.54693770 -0.15564056 16 14 6656 8.91800000 2334019773 2334019773 -1.00000000
7.13811445 3.09337640 2.08452868 42 15 6657 8.05400000 2334019775 2334019775 15.00000000
2.08386374 0.90004158 -0.60822475 4 0 6664 2.35000000 2334019796 2334019796 -15.00000000
8.18454075 3.53329039 0.15560566 18 1 6665 8.91600000 2334019798 2334019798 1.00000000
8.18235302 3.53065205 -2.05740237 8 2 6666 9.14600000 2334019800 2334019800 -13.00000000
8.21002769 3.54259324 0.46861616 13 3 6666 8.95400000 2334019803 2334019803 3.00000000
2.95288324 1.27354574 -0.62509024 6 4 6667 3.27600000 2334019805 2334019805 -11.00000000
8.19307232 3.53188539 0.78056681 78 5 6668 8.95600000 2334019807 2334019807 5.00000000
3.72443175 1.60476446 -0.64231992 6 6 6669 4.10600000 2334019809 2334019809 -9.00000000
8.20987320 3.53573012 1.09755528 97 7 6670 9.00600000 2334019812 2334019812 7.00000000
5.03788233 2.16861272 -0.67344999 9 8 6671 5.52600000 2334019814 2334019814 -7.00000000
7.70138836 3.31355524 -0.73350275 13 10 6672 8.41600000 2334019819 2334019819 -5.00000000
8.18744183 3.51929545 -0.46704608 17 12 6674 8.92400000 2334019823 2334019823 -3.00000000
8.26129913 3.54933429 2.07584834 64 13 6675 9.22800000 2334019826 2334019826 13.00000000
8.19130898 3.51757050 -0.15560566 18 14 6676 8.91600000 2334019828 2334019828 -1.00000000
7.15720892 3.07349992 2.08711672 45 15 6676 8.06400000 2334019830 2334019830 15.00000000
2.08699274 0.89276206 -0.60822475 4 0 6684 2.35000000 2334019851 2334019851 -15.00000000
8.19130802 3.50234079 0.15550095 21 1 6685 8.91000000 2334019853 2334019853 1.00000000
8.17133236 3.49211311 -2.05155373 8 2 6686 9.12000000 2334019855 2334019855 -13.00000000
8.21132374 3.50920391 0.46798813 13 3 6686 8.94200000 2334019858 2334019858 3.00000000
2.96814346 1.26785767 -0.62737995 5 4 6687 3.28800000 2334019860 2334019860 -11.00000000
8.19252491 3.49778843 0.77934664 75 5 6688 8.94200000 2334019862 2334019862 5.00000000
3.73001075 1.59175396 -0.64231992 6 6 6689 4.10600000 2334019865 2334019865 -9.00000000
8.20755768 3.50082016 1.09560537 95 7 6690 8.99000000 2334019867 2334019867 7.00000000
5.04176950 2.14945698 -0.67296249 6 8 6691 5.52200000 2334019869 2334019869 -7.00000000
7.71474075 3.28743339 -0.73367703 13 10 6692 8.41800000 2334019874 2334019874 -5.00000000
8.18497562 3.48443604 -0.46620870 17 12 6694 8.90800000 2334019879 2334019879 -3.00000000
8.26287937 3.51589727 2.07314897 66 13 6695 9.21600000 2334019881 2334019881 13.00000000
8.19249630 3.48426032 -0.15539622 18 14 6696 8.90400000 2334019883 2334019883 -1.00000000
7.16256046 3.04622960 2.08556390 42 15 6696 8.05800000 2334019885 2334019885 15.00000000
2.09365392 0.88697886 -0.60926002 4 0 6704 2.35400000 2334019906 2334019906 -15.00000000
8.19243526 3.46904802 0.15529151 15 1 6705 8.89800000 2334019908 2334019908 1.00000000
2.46939874 1.04514706 -0.61906528 4 2 6706 2.75200000 2334019911 2334019911 -13.00000000
8.19102097 3.46507788 0.46610403 10 3 6707 8.90600000 2334019913 2334019913 3.00000000
2.96351027 1.25366473 -0.62547189 6 4 6707 3.27800000 2334019915 2334019915 -11.00000000
8.19000340 3.46296239 0.77795213 75 5 6708 8.92600000 2334019918 2334019918 5.00000000
3.73554444 1.57872403 -0.64231992 6 6 6709 4.10600000 2334019920 2334019920 -9.00000000
8.20875645 3.46751451 1.09414291 90 7 6710 8.97800000 2334019922 2334019922 7.00000000
5.04558420 2.13030052 -0.67247504 6 8 6711 5.51800000 2334019925 2334019925 -7.00000000
7.72616911 3.26048374 -0.73367703 13 10 6712 8.41800000 2334019929 2334019929 -5.00000000
8.18604565 3.45118856 -0.46558067 17 12 6714 8.89600000 2334019934 2334019934 -3.00000000
8.25714397 3.47946572 2.06865001 68 13 6715 9.19600000 2334019936 2334019936 13.00000000
8.18433666 3.44710374 -0.15501228 18 14 6716 8.88200000 2334019938 2334019938 -1.00000000
7.17723846 3.02145624 2.08659911 42 15 6717 8.06200000 2334019941 2334019941 15.00000000
2.09317446 0.87817049 -0.60822475 4 0 6724 2.35000000 2334019961 2334019961 -15.00000000
8.19711781 3.43733692 0.15515189 15 1 6725 8.89000000 2334019964 2334019964 1.00000000
2.47662640 1.03802741 -0.61996508 4 2 6726 2.75600000 2334019966 2334019966 -13.00000000
8.19878197 3.43635225 0.46589467 10 3 6726 8.90200000 2334019968 2334019968 3.00000000
2.95700383 1.23876107 -0.62318218 6 4 6727 3.26600000 2334019971 2334019971 -11.00000000
8.20020390 3.43358326 0.77777785 82 5 6728 8.92400000 2334019973 2334019973 5.00000000
3.74103236 1.56567502 -0.64231992 6 6 6729 4.10600000 2334019975 2334019975 -9.00000000
8.21531582 3.43654108 1.09341180 90 7 6730 8.97200000 2334019978 2334019978 7.00000000
5.04932690 2.11114383 -0.67198753 6 8 6731 5.51400000 2334019980 2334019980 -7.00000000
7.73198795 3.23118997 -0.73315412 13 10 6732 8.41200000 2334019985 2334019985 -5.00000000
8.18698406 3.41797614 -0.46495265 17 12 6734 8.88400000 2334019989 2334019989 -3.00000000
8.25844860 3.44611883 2.06595039 70 13 6735 9.18400000 2334019991 2334019991 13.00000000
8.18340015 3.41312575 -0.15476795 18 14 6736 8.86800000 2334019994 2334019994 -1.00000000
7.18417501 2.99489784 2.08556390 42 15 6737 8.05800000 2334019996 2334019996 15.00000000
2.08730698 0.86715281 -0.60563654 4 0 6744 2.34000000 2334020017 2334020017 -15.00000000
8.19429207 3.40256763 0.15487266 12 1 6745 8.87400000 2334020019 2334020019 1.00000000
2.48383451 1.03087008 -0.62086493 4 2 6746 2.76000000 2334020021 2334020021 -13.00000000
8.19412518 3.40082169 0.46495265 13 3 6746 8.88400000 2334020024 2334020024 3.00000000
2.97037697 1.23219287 -0.62509024 6 4 6747 3.27600000 2334020026 2334020026 -11.00000000
8.18637276 3.39425492 0.77533752 75 5 6748 8.89600000 2334020028 2334020028 5.00000000
3.75742412 1.55714440 -0.64419711 6 6 6749 4.11800000 2334020031 2334020031 -9.00000000
8.21809196 3.40404510 1.09219301 90 7 6750 8.96200000 2334020033 2334020033 7.00000000
5.06583595 2.09730220 -0.67320627 6 8 6751 5.52400000 2334020035 2334020035 -7.00000000
7.73953819 3.20265698 -0.73280549 13 10 6752 8.40800000 2334020040 2334020040 -5.00000000
8.19148254 3.38632512 -0.46453395 17 12 6754 8.87600000 2334020044 2334020044 -3.00000000
8.27042675 3.41727066 2.06595039 68 13 6755 9.18400000 2334020047 2334020047 13.00000000
8.18232632 3.37919641 -0.15452361 16 14 6756 8.85400000 2334020049 2334020049 -1.00000000
7.19101429 2.96832800 2.08452868 42 15 6757 8.05400000 2334020051 2334020051 15.00000000
2.10104084 0.86427104 -0.60874242 4 0 6764 2.35200000 2334020072 2334020072 -15.00000000
8.18207645 3.36405826 0.15441889 12 1 6765 8.84800000 2334020074 2334020074 1.00000000
2.48381281 1.02071214 -0.61996508 4 2 6766 2.75600000 2334020077 2334020077 -13.00000000
8.20040417 3.36992073 0.46463862 13 3 6766 8.87800000 2334020079 2334020079 3.00000000
2.97829199 1.22330868 -0.62585348 5 4 6767 3.28000000 2334020081 2334020081 -11.00000000
8.19632816 3.36490178 0.77516317 78 5 6768 8.89400000 2334020084 2334020084 5.00000000
3.74090648 1.53502035 -0.64044273 6 6 6769 4.09400000 2334020086 2334020086 -9.00000000
8.21155834 3.36780524 1.08975565 92 7 6770 8.94200000 2334020088 2334020088 7.00000000
5.08230972 2.08337092 -0.67442495 6 8 6771 5.53400000 2334020091 2334020091 -7.00000000
7.76357555 3.18090916 -0.73402566 13 10 6772 8.42200000 2334020095 2334020095 -5.00000000
8.18846607 3.35165834 -0.46369657 17 12 6774 8.86000000 2334020100 2334020100 -3.00000000
8.27509117 3.38542891 2.06415081 66 13 6775 9.17600000 2334020102 2334020102 13.00000000
8.18296719 3.34607291 -0.15431418 16 14 6776 8.84200000 2334020104 2334020104 -1.00000000
7.19775534 2.94174695 2.08349323 42 15 6777 8.05000000 2334020107 2334020107 15.00000000
2.10747337 0.85875696 -0.60977769 4 0 6783 2.35600000 2334020127 2334020127 -15.00000000
8.17837048 3.33087277 0.15413965 12 1 6784 8.83200000 2334020130 2334020130 1.00000000
2.47635436 1.00806153 -0.61726570 4 2 6785 2.74400000 2334020132 2334020132 -13.00000000
8.19673538 3.33668447 0.46380123 13 3 6785 8.86200000 2334020134 2334020134 3.00000000
2.98051381 1.21268570 -0.62547189 6 4 6786 3.27800000 2334020137 2334020137 -11.00000000
8.19267654 3.33169889 0.77376866 75 5 6787 8.87800000 2334020139 2334020139 5.00000000
3.74963617 1.52409422 -0.64106846 6 6 6788 4.09800000 2334020141 2334020141 -9.00000000
8.20428944 3.33308482 1.08731830 95 7 6789 8.92200000 2334020143 2334020143 7.00000000
5.08183336 2.06351852 -0.67344999 6 8 6790 5.52600000 2334020146 2334020146 -7.00000000
7.77223539 3.15439725 -0.73385137 13 10 6791 8.42000000 2334020150 2334020150 -5.00000000
8.17917538 3.31623101 -0.46254519 17 12 6793 8.83800000 2334020155 2334020155 -3.00000000
8.27543545 3.35357785 2.06145144 68 13 6794 9.16400000 2334020157 2334020157 13.00000000
8.19401741 3.31891894 -0.15431418 16 14 6795 8.84200000 2334020160 2334020160 -1.00000000
7.21770477 2.92347145 2.08659911 42 15 6795 8.06200000 2334020162 2334020162 15.00000000
2.11045814 0.85139525 -0.60977769 4 0 6803 2.35600000 2334020183 2334020183 -15.00000000
8.18809319 3.30155683 0.15410475 12 1 6804 8.83000000 2334020185 2334020185 1.00000000
2.49431801 1.00523877 -0.62086493 4 2 6805 2.76000000 2334020187 2334020187 -13.00000000
8.19536495 3.30282617 0.46306854 13 3 6805 8.84800000 2334020190 2334020190 3.00000000
2.97926545 1.20007372 -0.62432700 6 4 6806 3.27200000 2334020192 2334020192 -11.00000000
8.20055962 3.30159259 0.77342004 78 5 6807 8.87400000 2334020194 2334020194 5.00000000
3.76592898 1.51542091 -0.64294565 6 6 6808 4.11000000 2334020196 2334020196 -9.00000000
8.20114040 3.29850030 1.08536839 95 7 6809 8.90600000 2334020199 2334020199 7.00000000
5.06322002 2.03540134 -0.67003763 6 8 6810 5.49800000 2334020201 2334020201 -7.00000000
7.79798841 3.13319039 -0.73524582 13 10 6811 8.43600000 2334020206 2334020206 -5.00000000
8.18884754 3.28691626 -0.46244052 17 12 6813 8.83600000 2334020210 2334020210 -3.00000000
8.25815296 3.31306124 2.05425310 66 13 6814 9.13200000 2334020213 2334020213 13.00000000
8.18513680 3.28210950 -0.15393023 18 14 6815 8.82000000 2334020215 2334020215 -1.00000000
7.22837162 2.89699769 2.08659911 42 15 6816 8.06200000 2334020217 2334020217 15.00000000
2.11162305 0.84330672 -0.60926002 4 0 6823 2.35400000 2334020238 2334020238 -15.00000000
8.19771099 3.27221370 0.15406984 12 1 6824 8.82800000 2334020240 2334020240 1.00000000
2.49057174 0.99363732 -0.61906528 4 2 6825 2.75200000 2334020243 2334020243 -13.00000000
8.20184994 3.27054715 0.46275452 13 3 6826 8.84200000 2334020245 2334020245 3.00000000
2.98343635 1.18966687 -0.62432700 6 4 6826 3.27200000 2334020247 2334020247 -11.00000000
8.19537735 3.26630855 0.77185124 82 5 6827 8.85600000 2334020249 2334020249 5.00000000
3.77486610 1.50372815 -0.64357138 6 6 6828 4.11400000 2334020252 2334020252 -9.00000000
8.20891571 3.26838422 1.08488095 92 7 6829 8.90200000 2334020254 2334020254 7.00000000
5.06660509 2.01624703 -0.66955018 6 8 6830 5.49400000 2334020256 2334020256 -7.00000000
7.80332422 3.10374236 -0.73472291 13 10 6831 8.43000000 2334020261 2334020261 -5.00000000
8.18356609 3.25167418 -0.46149847 17 12 6833 8.81800000 2334020266 2334020266 -3.00000000
8.26604557 3.28277612 2.05335331 64 13 6834 9.12800000 2334020268 2334020268 13.00000000
8.17795753 3.24614048 -0.15358117 18 14 6835 8.80000000 2334020270 2334020270 -1.00000000
7.23434734 2.87158608 2.08556390 42 15 6835 8.05800000 2334020273 2334020273 15.00000000
2.10557103 0.83237952 -0.60667187 4 0 6843 2.34400000 2334020293 2334020293 -15.00000000
8.17746639 3.23108602 0.15347646 15 1 6844 8.79400000 2334020296 2334020296 1.00000000
2.49402499 0.98493755 -0.61906528 4 2 6845 2.75200000 2334020298 2334020298 -13.00000000
8.19835377 3.23603106 0.46191716 10 3 6846 8.82600000 2334020300 2334020300 3.00000000
2.99122310 1.18068707 -0.62509024 6 4 6846 3.27600000 2334020302 2334020302 -11.00000000
8.19375515 3.23256302 0.77063107 86 5 6847 8.84200000 2334020305 2334020305 5.00000000
3.76722836 1.48546994 -0.64138132 6 6 6848 4.10000000 2334020307 2334020307 -9.00000000
8.21104050 3.23607039 1.08366215 99 7 6849 8.89200000 2334020309 2334020309 7.00000000
5.09577560 2.00727940 -0.67247504 6 8 6850 5.51800000 2334020312 2334020312 -7.00000000
7.79557180 3.06918573 -0.73297977 13 10 6851 8.41000000 2334020316 2334020316 -5.00000000
8.18929100 3.22089529 -0.46118444 17 12 6853 8.81200000 2334020321 2334020321 -3.00000000
8.28108120 3.25532818 2.05425310 62 13 6854 9.13200000 2334020323 2334020323 13.00000000
8.17993259 3.21391797 -0.15340665 16 14 6855 8.79000000 2334020326 2334020326 -1.00000000
7.23763084 2.84222698 2.08349323 42 15 6856 8.05000000 2334020328 2334020328 15.00000000
2.11206198 0.82643253 -0.60770714 4 0 6863 2.34800000 2334020349 2334020349 -15.00000000
8.17379665 3.19669509 0.15319723 15 1 6864 8.77800000 2334020351 2334020351 1.00000000
2.49744773 0.97622579 -0.61906528 4 2 6865 2.75200000 2334020353 2334020353 -13.00000000
8.20587921 3.20594001 0.46170780 13 3 6866 8.82200000 2334020355 2334020355 3.00000000
2.99349761 1.16952419 -0.62470865 5 4 6866 3.27400000 2334020358 2334020358 -11.00000000
8.18457413 3.19597006 0.76871365 78 5 6867 8.82000000 2334020360 2334020360 5.00000000
3.77239060 1.47231078 -0.64138132 6 6 6868 4.10000000 2334020362 2334020362 -9.00000000
8.20379257 3.20017481 1.08122480 99 7 6869 8.87200000 2334020365 2334020365 7.00000000
5.10645056 1.99092185 -0.67296249 6 8 6870 5.52200000 2334020367 2334020367 -7.00000000
7.80623770 3.04195547 -0.73297977 13 10 6871 8.41000000 2334020372 2334020372 -5.00000000
8.18559456 3.18649340 -0.46034706 17 12 6873 8.79600000 2334020376 2334020376 -3.00000000
8.29602623 3.22781515 2.05515289 62 13 6874 9.13600000 2334020379 2334020379 13.00000000
8.19296551 3.18606997 -0.15344156 14 14 6875 8.79200000 2334020381 2334020381 -1.00000000
7.24341536 2.81681013 2.08245802 42 15 6875 8.04600000 2334020383 2334020383 15.00000000
2.11673522 0.81975269 -0.60822475 4 0 6883 2.35000000 2334020404 2334020404 -15.00000000
8.17931080 3.16597819 0.15309250 15 1 6884 8.77200000 2334020406 2334020406 1.00000000
2.49720526 0.96609586 -0.61816549 4 2 6885 2.74800000 2334020408 2334020408 -13.00000000
8.20211792 3.17151427 0.46087044 13 3 6886 8.80600000 2334020411 2334020411 3.00000000
3.00671744 1.16260803 -0.62661672 5 4 6886 3.28400000 2334020413 2334020413 -11.00000000
8.18452930 3.16307163 0.76766777 78 5 6887 8.80800000 2334020415 2334020415 5.00000000
3.77934957 1.45984554 -0.64169419 6 6 6888 4.10200000 2334020418 2334020418 -9.00000000
8.19454288 3.16365433 1.07854366 97 7 6889 8.85000000 2334020420 2334020420 7.00000000
5.10596085 1.97022629 -0.67198753 6 8 6890 5.51400000 2334020422 2334020422 -7.00000000
7.82424450 3.01755571 -0.73367703 13 10 6891 8.41800000 2334020427 2334020427 -5.00000000
8.17989349 3.15143871 -0.45940503 17 12 6893 8.77800000 2334020431 2334020431 -3.00000000
8.29996872 3.19603586 2.05335331 57 13 6894 9.12800000 2334020434 2334020434 13.00000000
8.18724060 3.15098739 -0.15312742 16 14 6895 8.77400000 2334020436 2334020436 -1.00000000
7.25369072 2.79024267 2.08245802 45 15 6896 8.04600000 2334020438 2334020438 15.00000000
2.11749649 0.81240672 -0.60770714 4 0 6901 2.34800000 2334020459 2334020459 -15.00000000
8.18174839 3.13740253 0.15295289 18 1 6902 8.76400000 2334020461 2334020461 1.00000000
2.50022793 0.95824593 -0.61816549 4 2 6903 2.74800000 2334020464 2334020464 -13.00000000
8.19338989 3.13858652 0.45982370 13 3 6904 8.78600000 2334020466 2334020466 3.00000000
3.00118828 1.14964497 -0.62470865 5 4 6904 3.27400000 2334020468 2334020468 -11.00000000
8.18884468 3.13520646 0.76714486 78 5 6905 8.80200000 2334020471 2334020471 5.00000000
3.78022742 1.44655323 -0.64106846 4 6 6906 4.09800000 2334020473 2334020473 -9.00000000
8.19702530 3.13505816 1.07756877 97 7 6907 8.84200000 2334020475 2334020475 7.00000000
5.11583376 1.95559347 -0.67247504 6 8 6908 5.51800000 2334020478 2334020478 -7.00000000
7.84857512 2.99864912 -0.73507154 13 10 6909 8.43400000 2334020482 2334020482 -5.00000000
8.18415642 3.12358880 -0.45909101 17 12 6911 8.77200000 2334020487 2334020487 -3.00000000
8.31178951 3.17063951 2.05380321 54 13 6912 9.13000000 2334020489 2334020489 13.00000000
8.17841434 3.11812711 -0.15277837 18 14 6913 8.75400000 2334020491 2334020491 -1.00000000
7.26915789 2.77146125 2.08452868 40 15 6913 8.05400000 2334020494 2334020494 15.00000000
2.10948300 0.80089617 -0.60460126 4 0 6921 2.33600000 2334020514 2334020514 -15.00000000
8.18330193 3.10527658 0.15277837 21 1 6922 8.75400000 2334020517 2334020517 1.00000000
2.50720191 0.95089477 -0.61906528 4 2 6923 2.75200000 2334020519 2334020519 -13.00000000
8.19122219 3.10501146 0.45909101 10 3 6924 8.77200000 2334020521 2334020521 3.00000000
2.99967575 1.13707423 -0.62356383 5 4 6924 3.26800000 2334020524 2334020524 -11.00000000
8.18110657 3.09954405 0.76540172 78 5 6925 8.78200000 2334020526 2334020526 5.00000000
3.79264331 1.43614709 -0.64231992 4 6 6926 4.10600000 2334020528 2334020528 -9.00000000
8.19306564 3.10080504 1.07561886 97 7 6927 8.82600000 2334020531 2334020531 7.00000000
5.11520195 1.93491459 -0.67150009 9 8 6928 5.51000000 2334020533 2334020533 -7.00000000
7.85526705 2.96982503 -0.73472291 13 10 6929 8.43000000 2334020537 2334020537 -5.00000000
8.19127274 3.09359050 -0.45888168 17 12 6931 8.76800000 2334020542 2334020542 -3.00000000
8.33374500 3.14573598 2.05650258 54 13 6932 9.14200000 2334020544 2334020544 13.00000000
8.16118431 3.07897210 -0.15225479 14 14 6933 8.72400000 2334020547 2334020547 -1.00000000
7.27203655 2.74207354 2.08245802 45 15 6934 8.04600000 2334020549 2334020549 15.00000000
2.10169053 0.78871787 -0.60149544 4 0 6943 2.32400000 2334020570 2334020570 -15.00000000
8.17644215 3.06680942 0.15242931 18 1 6944 8.73400000 2334020572 2334020572 1.00000000
2.52360773 0.94604921 -0.62221462 4 2 6945 2.76600000 2334020574 2334020574 -13.00000000
8.19747353 3.07143426 0.45877698 13 3 6946 8.76600000 2334020577 2334020577 3.00000000
3.01505041 1.12968087 -0.62585348 5 4 6946 3.28000000 2334020579 2334020579 -11.00000000
8.17988682 3.06321716 0.76418155 78 5 6947 8.76800000 2334020581 2334020581 5.00000000
3.78702950 1.41741920 -0.64044273 4 6 6948 4.09400000 2334020584 2334020584 -9.00000000
8.20677090 3.07001853 1.07586253 99 7 6949 8.82800000 2334020586 2334020586 7.00000000
5.11887503 1.91386902 -0.67101258 9 8 6950 5.50600000 2334020588 2334020588 -7.00000000
7.85541439 2.93545651 -0.73367703 13 10 6951 8.41800000 2334020593 2334020593 -5.00000000
8.19747734 3.06001997 -0.45856765 17 12 6953 8.76200000 2334020597 2334020597 -3.00000000
8.35671711 3.11780071 2.05920196 54 13 6954 9.15400000 2334020600 2334020600 13.00000000
8.17294598 3.04761291 -0.15225479 14 14 6955 8.72400000 2334020602 2334020602 -1.00000000
7.26936722 2.71067691 2.07883453 45 15 6955 8.03200000 2334020604 2334020604 15.00000000
2.11529708 0.78541148 -0.60460126 4 0 6963 2.33600000 2334020625 2334020625 -15.00000000
8.17584896 3.03407526 0.15221989 12 1 6964 8.72200000 2334020627 2334020627 1.00000000
2.51410484 0.93249065 -0.61906528 6 2 6965 2.75200000 2334020630 2334020630 -13.00000000
8.20065403 3.04002428 0.45835832 10 3 6966 8.75800000 2334020632 2334020632 3.00000000
3.01529360 1.11778474 -0.62509024 5 4 6966 3.27600000 2334020634 2334020634 -11.00000000
8.17558384 3.02910757 0.76278704 78 5 6967 8.75200000 2334020637 2334020637 5.00000000
3.78824925 1.40281940 -0.63981694 4 6 6968 4.09000000 2334020639 2334020639 -9.00000000
8.19695854 3.03377366 1.07318139 95 7 6969 8.80600000 2334020641 2334020641 7.00000000
5.12924814 1.89736652 -0.67150009 6 8 6970 5.51000000 2334020643 2334020643 -7.00000000
8.23015308 3.04279327 1.38976383 15 9 6971 8.88400000 2334020646 2334020646 9.00000000
7.86935091 2.90939999 -0.73402566 13 10 6971 8.42200000 2334020648 2334020648 -5.00000000
8.21148109 3.03426099 1.70163465 21 11 6972 8.91800000 2334020650 2334020650 11.00000000
8.17625809 3.01962376 -0.45678821 17 12 6973 8.72800000 2334020653 2334020653 -3.00000000
8.22129536 3.03462625 2.02320981 74 13 6974 8.99400000 2334020655 2334020655 13.00000000
8.18165874 3.01837325 -0.15221989 12 14 6975 8.72200000 2334020657 2334020657 -1.00000000
7.28469133 2.68602014 2.08038759 45 15 6976 8.03800000 2334020660 2334020660 15.00000000
2.12876964 0.78239113 -0.60770714 4 0 6982 2.34800000 2334020680 2334020680 -15.00000000
8.17084885 3.00143051 0.15194064 12 1 6983 8.70600000 2334020683 2334020683 1.00000000
2.51535392 0.92347682 -0.61861539 10 2 6984 2.75000000 2334020685 2334020685 -13.00000000
8.19193935 3.00593305 0.45731160 13 3 6985 8.73800000 2334020687 2334020687 3.00000000
3.02082682 1.10845578 -0.62547189 5 4 6985 3.27800000 2334020690 2334020690 -11.00000000
8.17997169 2.99992180 0.76226413 75 5 6986 8.74600000 2334020692 2334020692 5.00000000
3.79658961 1.39160907 -0.64044273 4 6 6987 4.09400000 2334020694 2334020694 -9.00000000
8.19579029 3.00247788 1.07171905 95 7 6988 8.79400000 2334020696 2334020696 7.00000000
5.12432766 1.87625182 -0.67003763 6 8 6989 5.49800000 2334020699 2334020699 -7.00000000
7.88643980 2.88602710 -0.73472291 13 10 6990 8.43000000 2334020703 2334020703 -5.00000000
8.21227932 3.00364232 1.69972658 81 11 6991 8.90800000 2334020706 2334020706 11.00000000
8.16371632 2.98426509 -0.45553216 12 12 6992 8.70400000 2334020708 2334020708 -3.00000000
8.20202732 2.99664688 2.01601124 87 13 6993 8.96200000 2334020710 2334020710 13.00000000
8.18035221 2.98710990 -0.15201046 12 14 6994 8.71000000 2334020713 2334020713 -1.00000000
7.30035257 2.66577196 2.08245802 42 15 6994 8.04600000 2334020715 2334020715 15.00000000
2.13511896 0.77627581 -0.60874242 4 0 7002 2.35200000 2334020736 2334020736 -15.00000000
8.17563725 2.97084165 0.15183593 12 1 7003 8.70000000 2334020738 2334020738 1.00000000
2.50390863 0.90936911 -0.61501616 11 2 7004 2.73400000 2334020740 2334020740 -13.00000000
8.17797661 2.96846056 0.45595086 10 3 7005 8.71200000 2334020743 2334020743 3.00000000
3.01360512 1.09388518 -0.62318218 5 4 7005 3.26600000 2334020745 2334020745 -11.00000000
8.18290234 2.96863222 0.76156688 75 5 7006 8.73800000 2334020747 2334020747 5.00000000
3.79399586 1.37565458 -0.63919121 4 6 7007 4.08600000 2334020749 2334020749 -9.00000000
8.19502354 2.96979284 1.07025659 90 7 7008 8.78200000 2334020752 2334020752 7.00000000
5.11964703 1.85429704 -0.66857523 6 8 7009 5.48600000 2334020754 2334020754 -7.00000000
8.20929146 2.97334290 1.38288069 89 9 7009 8.84000000 2334020756 2334020756 9.00000000
7.90770626 2.86254978 -0.73576880 13 10 7010 8.44200000 2334020759 2334020759 -5.00000000
8.21348286 2.97161818 1.69781840 90 11 7011 8.89800000 2334020761 2334020761 11.00000000
8.15342331 2.94827938 -0.45438078 12 12 7012 8.68200000 2334020763 2334020763 -3.00000000
8.19960880 2.96336174 2.01286197 106 13 7013 8.94800000 2334020766 2334020766 13.00000000
8.17004108 2.95106411 -0.15162651 16 14 7014 8.68800000 2334020768 2334020768 -1.00000000
7.30779600 2.63961649 2.08194041 45 15 7014 8.04400000 2334020770 2334020770 15.00000000
2.13054419 0.76620311 -0.60667187 4 0 7022 2.34400000 2334020791 2334020791 -15.00000000
8.18031216 2.94025612 0.15173122 15 1 7023 8.69400000 2334020793 2334020793 1.00000000
2.51440382 0.90325862 -0.61681581 6 2 7024 2.74200000 2334020796 2334020796 -13.00000000
8.18076897 2.93719625 0.45553216 10 3 7025 8.70400000 2334020798 2334020798 3.00000000
3.01001406 1.08070540 -0.62165570 5 4 7025 3.25800000 2334020800 2334020800 -11.00000000
8.17821217 2.93466687 0.76017237 78 5 7026 8.72200000 2334020802 2334020802 5.00000000
3.80993128 1.36640394 -0.64106846 4 6 7027 4.09800000 2334020805 2334020805 -9.00000000
8.19599628 2.93781972 1.06903791 90 7 7028 8.77200000 2334020807 2334020807 7.00000000
5.14851379 1.84444880 -0.67150009 6 8 7029 5.51000000 2334020809 2334020809 -7.00000000
8.19037819 2.93257999 1.37787473 84 9 7030 8.80800000 2334020812 2334020812 9.00000000
7.93640804 2.84164548 -0.73751187 13 10 7030 8.46200000 2334020814 2334020814 -5.00000000
8.22195721 2.94226813 1.69743681 90 11 7031 8.89600000 2334020816 2334020816 11.00000000
8.16178417 2.91912794 -0.45427611 12 12 7032 8.68000000 2334020819 2334020819 -3.00000000
8.20623207 2.93340993 2.01196218 106 13 7033 8.94400000 2334020821 2334020821 13.00000000
8.16522789 2.91714525 -0.15134726 14 14 7034 8.67200000 2334020823 2334020823 -1.00000000
7.30968857 2.61149168 2.07986975 45 15 7034 8.03600000 2334020825 2334020825 15.00000000
2.12774515 0.75681919 -0.60511893 4 0 7042 2.33800000 2334020846 2334020846 -15.00000000
8.17733669 2.90699482 0.15148689 12 1 7043 8.68000000 2334020849 2334020849 1.00000000
2.52305031 0.89643347 -0.61816549 4 2 7044 2.74800000 2334020851 2334020851 -13.00000000
8.18532562 2.90661716 0.45521814 13 3 7045 8.69800000 2334020853 2334020853 3.00000000
3.02116823 1.07281983 -0.62318218 5 4 7045 3.26600000 2334020855 2334020855 -11.00000000
8.16587448 2.89810514 0.75808066 78 5 7046 8.69800000 2334020858 2334020858 5.00000000
3.81467772 1.35309649 -0.64106846 4 6 7047 4.09800000 2334020860 2334020860 -9.00000000
8.20433044 2.90852904 1.06879413 90 7 7048 8.77000000 2334020862 2334020862 7.00000000
5.14369440 1.82248807 -0.67003763 6 8 7049 5.49800000 2334020865 2334020865 -7.00000000
8.20056534 2.90397239 1.37787473 84 9 7050 8.80800000 2334020867 2334020867 9.00000000
7.94627857 2.81392479 -0.73751187 13 10 7050 8.46200000 2334020869 2334020869 -5.00000000
8.20626736 2.90437984 1.69209421 87 11 7051 8.86800000 2334020872 2334020872 11.00000000
8.17004108 2.88995433 -0.45417142 12 12 7052 8.67800000 2334020874 2334020874 -3.00000000
8.20907307 2.90214872 2.01016259 106 13 7053 8.93600000 2334020876 2334020876 13.00000000
8.16404819 2.88462830 -0.15113784 14 14 7054 8.66000000 2334020878 2334020878 -1.00000000
7.31192493 2.58210969 2.07779932 45 15 7055 8.02800000 2334020881 2334020881 15.00000000
2.13401890 0.75066948 -0.60615420 4 0 7062 2.34200000 2334020902 2334020902 -15.00000000
8.15724945 2.86782122 0.15092841 12 1 7063 8.64800000 2334020904 2334020904 1.00000000
2.51513267 0.88374490 -0.61546606 4 2 7064 2.73600000 2334020906 2334020906 -13.00000000
8.18411541 2.87405682 0.45459011 13 3 7065 8.68600000 2334020908 2334020908 3.00000000
3.03045177 1.06421888 -0.62432700 5 4 7065 3.27200000 2334020911 2334020911 -11.00000000
8.17406082 2.86892343 0.75790632 75 5 7066 8.69600000 2334020913 2334020913 5.00000000
3.81192160 1.33715701 -0.63981694 4 6 7067 4.09000000 2334020915 2334020915 -9.00000000
8.19569969 2.87330532 1.06635678 90 7 7068 8.75000000 2334020918 2334020918 7.00000000
5.15377140 1.80583501 -0.67052513 6 8 7069 5.50200000 2334020920 2334020920 -7.00000000
8.20319462 2.87271786 1.37662327 86 9 7070 8.80000000 2334020922 2334020922 9.00000000
7.98425913 2.79604769 -0.74012655 13 10 7070 8.49200000 2334020925 2334020925 -5.00000000
8.19411850 2.86793423 1.68751478 84 11 7071 8.84400000 2334020927 2334020927 11.00000000
8.16122723 2.85482335 -0.45312470 12 12 7072 8.65800000 2334020929 2334020929 -3.00000000
8.20811558 2.86961722 2.00746322 108 13 7073 8.92400000 2334020931 2334020931 13.00000000
8.17406750 2.85611272 -0.15113784 14 14 7074 8.66000000 2334020934 2334020934 -1.00000000
7.31315231 2.55529928 2.07572865 45 15 7074 8.02000000 2334020936 2334020936 15.00000000
2.14027548 0.74448514 -0.60718948 4 0 7082 2.34600000 2334020957 2334020957 -15.00000000
8.15965557 2.83670306 0.15078880 12 1 7083 8.64000000 2334020959 2334020959 1.00000000
2.50531673 0.87048292 -0.61231679 3 2 7084 2.72200000 2334020961 2334020961 -13.00000000
8.18843746 2.84350562 0.45427611 13 3 7085 8.68000000 2334020964 2334020964 3.00000000
3.03600264 1.05427825 -0.62470865 5 4 7085 3.27400000 2334020966 2334020966 -11.00000000
8.18214321 2.83971977 0.75773203 78 5 7086 8.69400000 2334020968 2334020968 5.00000000
3.81656575 1.32384276 -0.63981694 4 6 7087 4.09000000 2334020971 2334020971 -9.00000000
8.18317318 2.83687711 1.06343186 92 7 7088 8.72600000 2334020973 2334020973 7.00000000
5.15629196 1.78653419 -0.67003763 6 8 7089 5.49800000 2334020975 2334020975 -7.00000000
8.20943928 2.84277320 1.37599754 86 9 7090 8.79600000 2334020978 2334020978 9.00000000
8.02032852 2.77728772 -0.74256694 13 10 7090 8.52000000 2334020980 2334020980 -5.00000000
8.20036888 2.83802962 1.68675148 81 11 7091 8.84000000 2334020982 2334020982 11.00000000
8.16170502 2.82305336 -0.45260134 12 12 7092 8.64800000 2334020984 2334020984 -3.00000000
8.19598103 2.83330774 2.00206447 108 13 7093 8.90000000 2334020987 2334020987 13.00000000
8.17453671 2.82429743 -0.15096332 12 14 7094 8.65000000 2334020989 2334020989 -1.00000000
7.32567930 2.53101778 2.07676411 45 15 7094 8.02400000 2334020991 2334020991 15.00000000
2.14443040 0.73838657 -0.60770714 4 0 7100 2.34800000 2334021012 2334021012 -15.00000000
8.17041779 2.81170559 0.15082370 12 1 7101 8.64200000 2334021014 2334021014 1.00000000
2.52646685 0.86894596 -0.61681581 3 2 7102 2.74200000 2334021017 2334021017 -13.00000000
8.17795181 2.81270194 0.45322937 15 3 7102 8.66000000 2334021019 2334021019 3.00000000
3.03373003 1.04282057 -0.62356383 5 4 7103 3.26800000 2334021021 2334021021 -11.00000000
8.18914032 2.81335354 0.75755769 82 5 7104 8.69200000 2334021024 2334021024 5.00000000
3.83565235 1.31697810 -0.64231992 4 6 7105 4.10600000 2334021026 2334021026 -9.00000000
8.19579983 2.81244349 1.06391943 95 7 7106 8.73000000 2334021028 2334021028 7.00000000
5.16187954 1.77032638 -0.67003763 6 8 7107 5.49800000 2334021030 2334021030 -7.00000000
8.20288944 2.81327605 1.37349463 86 9 7107 8.78000000 2334021033 2334021033 9.00000000
8.04409218 2.75724578 -0.74396139 13 10 7108 8.53600000 2334021035 2334021035 -5.00000000
8.20553017 2.81098104 1.68598831 78 11 7109 8.83600000 2334021037 2334021037 11.00000000
