# .PCD v0.7 - Point Cloud Data file format
VERSION 0.7
FIELDS x y z intensity laser_id azimuth distance_m adjustedtime timestamp vertical_angle
SIZE 4 4 4 1 1 2 8 8 4 8
TYPE F F F U U U F U U F
COUNT 1 1 1 1 1 1 1 1 1 1
WIDTH 522
HEIGHT 1
VIEWPOINT 0 0 0 1 0 0 0
POINTS 522
DATA ascii
-0.96639043 2.90000629 -0.59417921 2 4 34157 3.11400000 2334395984 2334395984 -11.00000000
-3.67975283 11.04886723 1.01885068 12 5 34158 11.69000000 2334395986 2334395986 5.00000000
-1.20154059 3.60986066 -0.60258555 2 6 34159 3.85200000 2334395989 2334395989 -9.00000000
-1.59258866 4.79028940 -0.61982751 2 8 34161 5.08600000 2334395993 2334395993 -7.00000000
-3.54900002 10.68736839 2.18896079 59 11 34163 11.47200000 2334396000 2334396000 11.00000000
-3.38224792 10.19711399 2.48031044 48 13 34165 11.02600000 2334396005 2334396005 13.00000000
-2.92230153 8.82072830 2.48983932 36 15 34167 9.62000000 2334396009 2334396009 15.00000000
-0.68278539 2.06939745 -0.58389574 4 0 34174 2.25600000 2334396030 2334396030 -15.00000000
-0.80696630 2.44863915 -0.59522051 3 2 34176 2.64600000 2334396035 2334396035 -13.00000000
-3.67886424 11.16961479 0.61630821 2 3 34177 11.77600000 2334396037 2334396037 3.00000000
-0.95626163 2.90336204 -0.59417921 2 4 34177 3.11400000 2334396039 2334396039 -11.00000000
-3.67667103 11.16951656 1.02878642 8 5 34178 11.80400000 2334396042 2334396042 5.00000000
-1.19325376 3.62716794 -0.60477567 2 6 34179 3.86600000 2334396044 2334396044 -9.00000000
-1.57585764 4.79581928 -0.61982751 2 8 34181 5.08600000 2334396049 2334396049 -7.00000000
-3.50493813 10.67917252 2.18476295 56 11 34183 11.45000000 2334396055 2334396055 11.00000000
-3.35088205 10.22182083 2.48345971 53 13 34185 11.04000000 2334396060 2334396060 13.00000000
-2.88762188 8.81384850 2.48518038 38 15 34186 9.60200000 2334396065 2334396065 15.00000000
-0.67795330 2.07911491 -0.58596629 4 0 34194 2.26400000 2334396085 2334396085 -15.00000000
-0.79358613 2.43661761 -0.59162128 3 2 34196 2.63000000 2334396090 2334396090 -13.00000000
-3.68250704 11.31343174 0.62353057 2 3 34197 11.91400000 2334396092 2334396092 3.00000000
-0.94976717 2.91788340 -0.59646893 2 4 34197 3.12600000 2334396095 2334396095 -11.00000000
-1.17936373 3.62755394 -0.60414988 2 6 34199 3.86200000 2334396099 2334396099 -9.00000000
-1.55910754 4.80129099 -0.61982751 2 8 34201 5.08600000 2334396104 2334396104 -7.00000000
-3.46037126 10.66893196 2.18018365 56 11 34203 11.42600000 2334396111 2334396111 11.00000000
-3.31578135 10.23530865 2.48390961 51 13 34205 11.04200000 2334396115 2334396115 13.00000000
-2.86065054 8.84091473 2.48983932 38 15 34207 9.62000000 2334396120 2334396120 15.00000000
-0.67461181 2.09238362 -0.58907217 4 0 34213 2.27600000 2334396141 2334396141 -15.00000000
-0.78191763 2.42810631 -0.58892184 3 2 34215 2.61800000 2334396145 2334396145 -13.00000000
-0.93888295 2.91727924 -0.59570569 2 4 34216 3.12200000 2334396150 2334396150 -11.00000000
-1.16732788 3.63144493 -0.60414988 2 6 34218 3.86200000 2334396155 2334396155 -9.00000000
-1.53589535 4.78375387 -0.61690259 2 8 34220 5.06200000 2334396159 2334396159 -7.00000000
-3.42137575 10.66913128 2.17789388 53 11 34222 11.41400000 2334396166 2334396166 11.00000000
-3.27944398 10.23882484 2.48211002 46 13 34224 11.03400000 2334396171 2334396171 13.00000000
-2.83109522 8.84433842 2.48828626 36 15 34225 9.61400000 2334396175 2334396175 15.00000000
-0.66847670 2.09840703 -0.59010744 4 0 34233 2.28000000 2334396196 2334396196 -15.00000000
-0.77698237 2.44196296 -0.59162128 3 2 34235 2.63000000 2334396201 2334396201 -13.00000000
-0.92869401 2.92053866 -0.59570569 2 4 34236 3.12200000 2334396205 2334396205 -11.00000000
-1.15584052 3.63926291 -0.60477567 2 6 34238 3.86600000 2334396210 2334396210 -9.00000000
-1.52038801 4.79287052 -0.61739010 2 8 34240 5.06600000 2334396214 2334396214 -7.00000000
-3.38411260 10.68100929 2.17789388 53 11 34242 11.41400000 2334396221 2334396221 11.00000000
-3.23898029 10.23534679 2.47851062 47 13 34244 11.01800000 2334396226 2334396226 13.00000000
-2.79691339 8.84912968 2.48673344 38 15 34246 9.60800000 2334396231 2334396231 15.00000000
-0.65846264 2.09347177 -0.58803689 4 0 34254 2.27200000 2334396251 2334396251 -15.00000000
-0.76919502 2.44851255 -0.59252107 3 2 34256 2.63400000 2334396256 2334396256 -13.00000000
-0.91680735 2.92017674 -0.59494245 2 4 34257 3.11800000 2334396261 2334396261 -11.00000000
-1.14958680 3.66609359 -0.60853004 2 6 34259 3.89000000 2334396265 2334396265 -9.00000000
-1.50281107 4.79841042 -0.61739010 2 8 34261 5.06600000 2334396270 2334396270 -7.00000000
-3.34376979 10.68959332 2.17713070 53 11 34263 11.41000000 2334396277 2334396277 11.00000000
-3.20376849 10.25458908 2.48031044 50 13 34265 11.02600000 2334396281 2334396281 13.00000000
-2.76543140 8.85699463 2.48621583 38 15 34266 9.60600000 2334396286 2334396286 15.00000000
-0.64771187 2.08468819 -0.58493102 4 0 34274 2.26000000 2334396307 2334396307 -15.00000000
-0.76410878 2.46234965 -0.59522051 3 2 34276 2.64600000 2334396311 2334396311 -13.00000000
-0.90893453 2.93085980 -0.59646893 4 4 34277 3.12600000 2334396316 2334396316 -11.00000000
-1.13093805 3.65121460 -0.60540140 2 6 34279 3.87000000 2334396320 2334396320 -9.00000000
-1.49543917 4.83397007 -0.62128991 2 8 34281 5.09800000 2334396325 2334396325 -7.00000000
-3.29948092 10.67869091 2.17255116 56 11 34283 11.38600000 2334396332 2334396332 11.00000000
-3.16565537 10.25826168 2.47851062 50 13 34285 11.01800000 2334396337 2334396337 13.00000000
-2.73108172 8.85551739 2.48310995 38 15 34286 9.59400000 2334396341 2334396341 15.00000000
-0.64419764 2.09790516 -0.58803689 4 0 34293 2.27200000 2334396362 2334396362 -15.00000000
-0.75365359 2.45741773 -0.59342086 3 2 34295 2.63800000 2334396367 2334396367 -13.00000000
-0.90151173 2.94136596 -0.59799540 4 4 34296 3.13400000 2334396371 2334396371 -11.00000000
-1.11188555 3.63227844 -0.60164696 2 6 34298 3.84600000 2334396376 2334396376 -9.00000000
-1.47591865 4.82751226 -0.61982751 2 8 34300 5.08600000 2334396380 2334396380 -7.00000000
-3.25946426 10.67455292 2.16949821 53 11 34302 11.37000000 2334396387 2334396387 11.00000000
-3.13389421 10.27615929 2.48031044 48 13 34304 11.02600000 2334396392 2334396392 13.00000000
-2.69944811 8.85713387 2.48103929 40 15 34305 9.58600000 2334396396 2334396396 15.00000000
-0.63911319 2.10753584 -0.59010744 4 0 34313 2.28000000 2334396417 2334396417 -15.00000000
-0.74394125 2.45630336 -0.59252107 3 2 34315 2.63400000 2334396422 2334396422 -13.00000000
-0.89123893 2.94449496 -0.59799540 4 4 34316 3.13400000 2334396426 2334396426 -11.00000000
-1.10720229 3.66260982 -0.60602713 2 6 34318 3.87400000 2334396431 2334396431 -9.00000000
-1.45102584 4.80602980 -0.61641514 2 8 34320 5.05800000 2334396436 2334396436 -7.00000000
-3.21878242 10.67458725 2.16720867 56 11 34322 11.35800000 2334396443 2334396443 11.00000000
-3.09575677 10.27957153 2.47851062 48 13 34324 11.01800000 2334396447 2334396447 13.00000000
-2.67030549 8.87806797 2.48414516 38 15 34326 9.59800000 2334396452 2334396452 15.00000000
-0.62953597 2.10235143 -0.58803689 4 0 34333 2.27200000 2334396473 2334396473 -15.00000000
-0.73536259 2.45888519 -0.59252107 3 2 34335 2.63400000 2334396477 2334396477 -13.00000000
-0.88207972 2.95135021 -0.59875864 2 4 34336 3.13800000 2334396482 2334396482 -11.00000000
-1.09158564 3.65698814 -0.60446280 2 6 34338 3.86400000 2334396486 2334396486 -9.00000000
-1.45579135 4.88335514 -0.62567723 2 8 34340 5.13400000 2334396491 2334396491 -7.00000000
-3.18038130 10.68199444 2.16644526 56 11 34342 11.35400000 2334396498 2334396498 11.00000000
-3.05652285 10.27910805 2.47581124 50 13 34344 11.00600000 2334396502 2334396502 13.00000000
-2.64085007 8.88687420 2.48414516 38 15 34345 9.59800000 2334396507 2334396507 15.00000000
-0.62219352 2.10453606 -0.58803689 4 0 34353 2.27200000 2334396528 2334396528 -15.00000000
-0.73229343 2.48012686 -0.59702009 3 2 34355 2.65400000 2334396532 2334396532 -13.00000000
-0.87177217 2.95441127 -0.59875864 2 4 34356 3.13800000 2334396537 2334396537 -11.00000000
-1.08718956 3.68919826 -0.60915583 2 6 34358 3.89400000 2334396542 2334396542 -9.00000000
-1.42976880 4.85793781 -0.62177742 2 8 34360 5.10200000 2334396546 2334396546 -7.00000000
-3.14196730 10.68926430 2.16568208 56 11 34362 11.35000000 2334396553 2334396553 11.00000000
-3.01952577 10.28597546 2.47491145 50 13 34364 11.00200000 2334396558 2334396558 13.00000000
-2.60654998 8.88491631 2.48103929 38 15 34365 9.58600000 2334396562 2334396562 15.00000000
-0.61592603 2.11040401 -0.58907217 4 0 34373 2.27600000 2334396583 2334396583 -15.00000000
-0.72145045 2.47518444 -0.59522051 3 2 34375 2.64600000 2334396588 2334396588 -13.00000000
-0.86035597 2.95366645 -0.59799540 2 4 34376 3.13400000 2334396592 2334396592 -11.00000000
-1.06658041 3.66641641 -0.60477567 2 6 34378 3.86600000 2334396597 2334396597 -9.00000000
-1.41944861 4.88577414 -0.62470227 2 8 34380 5.12600000 2334396601 2334396601 -7.00000000
-3.09807086 10.67754078 2.16110277 56 11 34382 11.32600000 2334396608 2334396608 11.00000000
-2.98468733 10.30019569 2.47581124 50 13 34384 11.00600000 2334396613 2334396613 13.00000000
-2.57552004 8.89396095 2.48103929 42 15 34385 9.58600000 2334396618 2334396618 15.00000000
-0.60962510 2.11625385 -0.59010744 4 0 34393 2.28000000 2334396638 2334396638 -15.00000000
-0.71172851 2.47394204 -0.59432071 3 2 34395 2.64200000 2334396643 2334396643 -13.00000000
-0.85438019 2.97174621 -0.60104835 2 4 34396 3.15000000 2334396648 2334396648 -11.00000000
-1.05595636 3.67771173 -0.60602713 2 6 34398 3.87400000 2334396652 2334396652 -9.00000000
-1.39800811 4.87543344 -0.62275237 2 8 34400 5.11000000 2334396657 2334396657 -7.00000000
-3.05645657 10.67319012 2.15804982 53 11 34402 11.31000000 2334396664 2334396664 11.00000000
-2.94978642 10.31429863 2.47671103 48 13 34404 11.01000000 2334396668 2334396668 13.00000000
-2.53972149 8.89219570 2.47793365 40 15 34406 9.57400000 2334396673 2334396673 15.00000000
-0.60085797 2.11072659 -0.58803689 4 0 34411 2.27200000 2334396694 2334396694 -15.00000000
-0.70395291 2.47616577 -0.59432071 3 2 34413 2.64200000 2334396698 2334396698 -13.00000000
-0.84182078 2.96308446 -0.59875864 2 4 34414 3.13800000 2334396703 2334396703 -11.00000000
-1.04978907 3.70001459 -0.60915583 2 6 34416 3.89400000 2334396707 2334396707 -9.00000000
-1.38701391 4.89508057 -0.62470227 2 8 34418 5.12600000 2334396712 2334396712 -7.00000000
-3.02077246 10.67518330 2.15652323 53 11 34420 11.30200000 2334396719 2334396719 11.00000000
-2.91418886 10.31226349 2.47401166 50 13 34422 10.99800000 2334396724 2334396724 13.00000000
-2.51647687 8.91084671 2.48103929 40 15 34423 9.58600000 2334396728 2334396728 15.00000000
-0.59766603 2.12769008 -0.59217799 4 0 34431 2.28800000 2334396749 2334396749 -15.00000000
-0.69635785 2.48236060 -0.59522051 3 2 34433 2.64600000 2334396753 2334396753 -13.00000000
-0.83359230 2.97356653 -0.60028511 2 4 34434 3.14600000 2334396758 2334396758 -11.00000000
-1.03793228 3.70746088 -0.60978156 2 6 34436 3.89800000 2334396763 2334396763 -9.00000000
-1.36671150 4.88842201 -0.62323982 2 8 34438 5.11400000 2334396767 2334396767 -7.00000000
-2.98401880 10.68755436 2.15690494 50 11 34440 11.30400000 2334396774 2334396774 11.00000000
-2.87555766 10.31298733 2.47176218 53 13 34442 10.98800000 2334396779 2334396779 13.00000000
-2.48535681 8.91957664 2.48103929 40 15 34443 9.58600000 2334396783 2334396783 15.00000000
-0.58610779 2.11486983 -0.58803689 4 0 34451 2.27200000 2334396804 2334396804 -15.00000000
-0.68768853 2.48477626 -0.59522051 3 2 34453 2.64600000 2334396809 2334396809 -13.00000000
-0.81902087 2.96132040 -0.59723216 2 4 34454 3.13000000 2334396813 2334396813 -11.00000000
-1.02708817 3.71867776 -0.61103302 2 6 34456 3.90600000 2334396818 2334396818 -9.00000000
-1.35702884 4.91995382 -0.62665218 2 8 34458 5.14200000 2334396823 2334396823 -7.00000000
-2.94460845 10.69033432 2.15537834 46 11 34460 11.29600000 2334396830 2334396830 11.00000000
-2.84057474 10.32672024 2.47266197 56 13 34462 10.99200000 2334396834 2334396834 13.00000000
-2.44753122 8.90999699 2.47586298 42 15 34464 9.56600000 2334396839 2334396839 15.00000000
-0.57872200 2.11690283 -0.58803689 4 0 34471 2.27200000 2334396859 2334396859 -15.00000000
-0.68003738 2.49092150 -0.59612030 3 2 34473 2.65000000 2334396864 2334396864 -13.00000000
-0.81281275 2.97931361 -0.60028511 2 4 34474 3.14600000 2334396869 2334396869 -11.00000000
-1.01098573 3.71080494 -0.60915583 2 6 34476 3.89400000 2334396873 2334396873 -9.00000000
-1.33150852 4.89401293 -0.62275237 2 8 34478 5.11000000 2334396878 2334396878 -7.00000000
-2.90521550 10.69296932 2.15385199 43 11 34480 11.28800000 2334396885 2334396885 11.00000000
-2.80553102 10.34033394 2.47356176 57 13 34482 10.99600000 2334396889 2334396889 13.00000000
-2.41338325 8.90729904 2.47275710 40 15 34484 9.55400000 2334396894 2334396894 15.00000000
-0.57233495 2.12264061 -0.58907217 4 0 34491 2.27600000 2334396915 2334396915 -15.00000000
-0.67336494 2.50080705 -0.59791988 3 2 34493 2.65800000 2334396919 2334396919 -13.00000000
-0.80342829 2.98592424 -0.60104835 4 4 34494 3.15000000 2334396924 2334396924 -11.00000000
-1.00212729 3.72957301 -0.61165875 2 6 34496 3.91000000 2334396929 2334396929 -9.00000000
-1.31647491 4.90630007 -0.62372732 2 8 34498 5.11800000 2334396933 2334396933 -7.00000000
-2.86431551 10.68977070 2.15118051 40 11 34500 11.27400000 2334396940 2334396940 11.00000000
-2.77042675 10.35382938 2.47446156 59 13 34502 11.00000000 2334396945 2334396945 13.00000000
-2.37878537 8.90260410 2.46913362 40 15 34504 9.54000000 2334396949 2334396949 15.00000000
-0.56591487 2.12835932 -0.59010744 4 0 34511 2.28000000 2334396970 2334396970 -15.00000000
-0.66263103 2.49560833 -0.59612030 3 2 34513 2.65000000 2334396975 2334396975 -13.00000000
-0.79702854 3.00389123 -0.60410130 2 4 34514 3.16600000 2334396979 2334396979 -11.00000000
-0.98910254 3.73304844 -0.61165875 2 6 34516 3.91000000 2334396984 2334396984 -9.00000000
-1.29934072 4.91086578 -0.62372732 2 8 34518 5.11800000 2334396989 2334396989 -7.00000000
-2.83049417 10.71299076 2.15385199 46 11 34520 11.28800000 2334396995 2334396995 11.00000000
-2.73029113 10.34836197 2.47086239 60 13 34522 10.98400000 2334397000 2334397000 13.00000000
-2.34818721 8.91272163 2.46965122 40 15 34524 9.54200000 2334397005 2334397005 15.00000000
-0.56179523 2.14143610 -0.59321326 4 0 34530 2.29200000 2334397025 2334397025 -15.00000000
-0.65435165 2.49779201 -0.59612030 3 2 34532 2.65000000 2334397030 2334397030 -13.00000000
-0.78209090 2.98752522 -0.60028511 2 4 34533 3.14600000 2334397035 2334397035 -11.00000000
-0.97671783 3.73630786 -0.61165875 2 6 34535 3.91000000 2334397039 2334397039 -9.00000000
-1.28104305 4.90746450 -0.62275237 2 8 34537 5.11000000 2334397044 2334397044 -7.00000000
-2.79495311 10.72231770 2.15385199 43 11 34539 11.28800000 2334397051 2334397051 11.00000000
-2.69006920 10.33472824 2.46546364 59 13 34541 10.96000000 2334397055 2334397055 13.00000000
-2.31968927 8.91818523 2.46913362 38 15 34542 9.54000000 2334397060 2334397060 15.00000000
-0.55141461 2.13216209 -0.59010744 4 0 34550 2.28000000 2334397081 2334397081 -15.00000000
-0.64660323 2.50383449 -0.59702009 3 2 34552 2.65400000 2334397085 2334397085 -13.00000000
-0.77263886 2.99403906 -0.60104835 2 4 34553 3.15000000 2334397090 2334397090 -11.00000000
-0.96761316 3.75499749 -0.61416173 2 6 34555 3.92600000 2334397094 2334397094 -9.00000000
-1.26291561 4.90806150 -0.62226486 2 8 34557 5.10600000 2334397099 2334397099 -7.00000000
-2.75653100 10.72820568 2.15308881 40 11 34559 11.28400000 2334397106 2334397106 11.00000000
-2.65494633 10.34783077 2.46636343 60 13 34561 10.96400000 2334397111 2334397111 13.00000000
-2.28363061 8.91352749 2.46551013 42 15 34563 9.52600000 2334397115 2334397115 15.00000000
-0.54110563 2.12284184 -0.58700162 4 0 34570 2.26800000 2334397136 2334397136 -15.00000000
-0.63978201 2.51363039 -0.59881973 3 2 34572 2.66200000 2334397141 2334397141 -13.00000000
-0.76121515 2.99291253 -0.60028511 2 4 34573 3.14600000 2334397145 2334397145 -11.00000000
-0.95352739 3.75452304 -0.61353600 2 6 34575 3.92200000 2334397150 2334397150 -9.00000000
-1.25065529 4.93168163 -0.62470227 2 8 34577 5.12600000 2334397154 2334397154 -7.00000000
-2.71762013 10.73205280 2.15194392 43 11 34579 11.27800000 2334397161 2334397161 11.00000000
-2.61689878 10.34947872 2.46456385 56 13 34581 10.95600000 2334397166 2334397166 13.00000000
-2.25122023 8.90981293 2.46240449 40 15 34582 9.51400000 2334397171 2334397171 15.00000000
-0.53651601 2.13595963 -0.59010744 4 0 34590 2.28000000 2334397191 2334397191 -15.00000000
-0.63005573 2.51206803 -0.59791988 3 2 34592 2.65800000 2334397196 2334397196 -13.00000000
-0.75458157 3.01078629 -0.60333806 4 4 34593 3.16200000 2334397200 2334397200 -11.00000000
-0.93178380 3.72333550 -0.60790431 2 6 34595 3.88600000 2334397205 2334397205 -9.00000000
-1.23343289 4.93601704 -0.62470227 2 8 34597 5.12600000 2334397210 2334397210 -7.00000000
-2.67871571 10.73575974 2.15079904 43 11 34599 11.27200000 2334397217 2334397217 11.00000000
-2.58075643 10.35855007 2.46456385 56 13 34601 10.95600000 2334397221 2334397221 13.00000000
-2.21714997 8.91238022 2.46085143 40 15 34603 9.50800000 2334397226 2334397226 15.00000000
-0.52812868 2.13406897 -0.58907217 4 0 34610 2.27600000 2334397247 2334397247 -15.00000000
-0.61941320 2.50668454 -0.59612030 3 2 34612 2.65000000 2334397251 2334397251 -13.00000000
-0.74406737 3.01340199 -0.60333806 4 4 34613 3.16200000 2334397256 2334397256 -11.00000000
-0.92445564 3.74958062 -0.61165875 2 6 34615 3.91000000 2334397260 2334397260 -9.00000000
-1.21809351 4.94800282 -0.62567723 2 8 34617 5.13400000 2334397265 2334397265 -7.00000000
-2.64075589 10.74313831 2.15041733 40 11 34619 11.27000000 2334397272 2334397272 11.00000000
-2.54551148 10.37128067 2.46546364 60 13 34621 10.96000000 2334397277 2334397277 13.00000000
-2.18758321 8.91968346 2.46085143 40 15 34622 9.50800000 2334397281 2334397281 15.00000000
-0.52342135 2.14716077 -0.59217799 4 0 34630 2.28800000 2334397302 2334397302 -15.00000000
-0.60973775 2.50504470 -0.59522051 3 2 34632 2.64600000 2334397306 2334397306 -13.00000000
-0.73076022 3.00453496 -0.60104835 2 4 34633 3.15000000 2334397311 2334397311 -11.00000000
-0.91555703 3.77006102 -0.61447459 2 6 34635 3.92800000 2334397316 2334397316 -9.00000000
-1.20642781 4.97537470 -0.62860209 2 8 34637 5.15800000 2334397320 2334397320 -7.00000000
-2.60139155 10.74465752 2.14889097 40 11 34639 11.26200000 2334397327 2334397327 11.00000000
-2.50196719 10.34979630 2.45826507 59 13 34641 10.92800000 2334397332 2334397332 13.00000000
-2.15442300 8.92576313 2.46033382 40 15 34643 9.50600000 2334397336 2334397336 15.00000000
-0.51539564 2.14512777 -0.59114271 4 0 34649 2.28400000 2334397357 2334397357 -15.00000000
-0.60324574 2.51463270 -0.59702009 3 2 34651 2.65400000 2334397362 2334397362 -13.00000000
-0.72353870 3.01839685 -0.60333806 2 4 34652 3.16200000 2334397366 2334397366 -11.00000000
-0.90396965 3.77691865 -0.61510032 2 6 34654 3.93200000 2334397371 2334397371 -9.00000000
-1.18161726 4.94459486 -0.62421477 2 8 34656 5.12200000 2334397376 2334397376 -7.00000000
-2.56620216 10.75513458 2.14927244 43 11 34658 11.26400000 2334397382 2334397382 11.00000000
-2.46943879 10.36561871 2.46006465 57 13 34660 10.93600000 2334397387 2334397387 13.00000000
-2.12234497 8.91557407 2.45567513 38 15 34661 9.48800000 2334397392 2334397392 15.00000000
-0.50790459 2.14691377 -0.59114271 4 0 34669 2.28400000 2334397412 2334397412 -15.00000000
-0.59625626 2.52430940 -0.59881973 3 2 34671 2.66200000 2334397417 2334397417 -13.00000000
-0.71119422 3.01326108 -0.60181159 2 4 34672 3.15400000 2334397422 2334397422 -11.00000000
-0.88307768 3.74736500 -0.60978156 2 6 34674 3.89800000 2334397426 2334397426 -9.00000000
-1.17435241 4.99120092 -0.62957704 2 8 34676 5.16600000 2334397431 2334397431 -7.00000000
-2.52684832 10.75638199 2.14774609 40 11 34678 11.25600000 2334397438 2334397438 11.00000000
-2.43146086 10.36658669 2.45826507 59 13 34680 10.92800000 2334397442 2334397442 13.00000000
-2.08877254 8.91953087 2.45463991 38 15 34682 9.48400000 2334397447 2334397447 15.00000000
-0.49871880 2.14311624 -0.58958977 4 0 34690 2.27800000 2334397468 2334397468 -15.00000000
-0.58435404 2.51508856 -0.59612030 3 2 34692 2.65000000 2334397472 2334397472 -13.00000000
-0.70192116 3.02349687 -0.60333806 2 4 34693 3.16200000 2334397477 2334397477 -11.00000000
-0.87112111 3.75827384 -0.61103302 2 6 34695 3.90600000 2334397482 2334397482 -9.00000000
-1.15336549 4.98386765 -0.62811458 2 8 34697 5.15400000 2334397486 2334397486 -7.00000000
-2.48254561 10.74452972 2.14354825 37 11 34699 11.23400000 2334397493 2334397493 11.00000000
-2.39432526 10.37922668 2.45916486 56 13 34701 10.93200000 2334397498 2334397498 13.00000000
-2.05675697 8.92300224 2.45360446 42 15 34702 9.48000000 2334397502 2334397502 15.00000000
-0.49252874 2.15049338 -0.59114271 4 0 34710 2.28400000 2334397523 2334397523 -15.00000000
-0.57643998 2.52091241 -0.59702009 3 2 34712 2.65400000 2334397528 2334397528 -13.00000000
-0.69223750 3.02975655 -0.60410130 2 4 34713 3.16600000 2334397532 2334397532 -11.00000000
-0.85799700 3.76129174 -0.61103302 2 6 34715 3.90600000 2334397537 2334397537 -9.00000000
-1.12361884 4.93366814 -0.62128991 6 8 34717 5.09800000 2334397541 2334397541 -7.00000000
-2.44415450 10.74930191 2.14278507 37 11 34719 11.23000000 2334397548 2334397548 11.00000000
-2.35333490 10.36661625 2.45421600 54 13 34721 10.91000000 2334397553 2334397553 13.00000000
-2.02403879 8.93048096 2.45360446 38 15 34723 9.48000000 2334397558 2334397558 15.00000000
-0.48539475 2.15211487 -0.59114271 4 0 34729 2.28400000 2334397578 2334397578 -15.00000000
-0.56807715 2.52281022 -0.59702009 3 2 34731 2.65400000 2334397583 2334397583 -13.00000000
-0.67960095 3.02054334 -0.60181159 2 4 34732 3.15400000 2334397588 2334397588 -11.00000000
-0.84984869 3.78338981 -0.61416173 2 6 34734 3.92600000 2334397592 2334397592 -9.00000000
-1.11941493 4.99160290 -0.62811458 2 8 34736 5.15400000 2334397597 2334397597 -7.00000000
-2.40935278 10.76117897 2.14354825 40 11 34738 11.23400000 2334397604 2334397604 11.00000000
-2.31639433 10.36295223 2.45151663 54 13 34740 10.89800000 2334397608 2334397608 13.00000000
-1.99597287 8.93679523 2.45360446 42 15 34741 9.48000000 2334397613 2334397613 15.00000000
-0.47955331 2.16134000 -0.59321326 4 0 34749 2.29200000 2334397634 2334397634 -15.00000000
-0.55758166 2.51716733 -0.59522051 3 2 34751 2.64600000 2334397638 2334397638 -13.00000000
-0.66990167 3.02673078 -0.60257483 2 4 34752 3.15800000 2334397643 2334397643 -11.00000000
-0.84430867 3.82105255 -0.61979336 2 6 34754 3.96200000 2334397647 2334397647 -9.00000000
-1.10369468 5.00323391 -0.62908953 2 8 34756 5.16200000 2334397652 2334397652 -7.00000000
-2.37304139 10.77527523 2.14469314 40 11 34758 11.24000000 2334397659 2334397659 11.00000000
-2.28146219 10.37668514 2.45286632 55 13 34760 10.90400000 2334397664 2334397664 13.00000000
-1.96186388 8.93050003 2.44998097 36 15 34761 9.46600000 2334397668 2334397668 15.00000000
-0.46953470 2.15167618 -0.59010744 4 0 34769 2.28000000 2334397689 2334397689 -15.00000000
-0.55211020 2.53433084 -0.59881973 3 2 34771 2.66200000 2334397694 2334397694 -13.00000000
-0.66267288 3.04439735 -0.60562778 2 4 34772 3.17400000 2334397698 2334397698 -11.00000000
-0.82257622 3.78536987 -0.61353600 2 6 34774 3.92200000 2334397703 2334397703 -9.00000000
-2.33292079 10.77198124 2.14240336 37 11 34778 11.22800000 2334397714 2334397714 11.00000000
-2.24399137 10.37887192 2.45151663 52 13 34780 10.89800000 2334397719 2334397719 13.00000000
-1.92904699 8.92974091 2.44791055 40 15 34781 9.45800000 2334397723 2334397723 15.00000000
-0.46202108 2.15330195 -0.59010744 4 0 34789 2.28000000 2334397744 2334397744 -15.00000000
-0.54244405 2.53243160 -0.59791988 3 2 34791 2.65800000 2334397749 2334397749 -13.00000000
-0.65039843 3.03901291 -0.60410130 2 4 34792 3.16600000 2334397753 2334397753 -11.00000000
-0.81183416 3.79980898 -0.61541319 2 6 34794 3.93400000 2334397758 2334397758 -9.00000000
-2.29366994 10.77237797 2.14087701 43 11 34798 11.22000000 2334397770 2334397770 11.00000000
-2.20936942 10.39426613 2.45331621 57 13 34800 10.90600000 2334397774 2334397774 13.00000000
-1.89710689 8.94053078 2.44894576 36 15 34802 9.46200000 2334397779 2334397779 15.00000000
-0.45609656 2.16246271 -0.59217799 4 0 34809 2.28800000 2334397800 2334397800 -15.00000000
-0.53119183 2.52286816 -0.59522051 3 2 34811 2.64600000 2334397804 2334397804 -13.00000000
-0.64140296 3.04894948 -0.60562778 2 4 34812 3.17400000 2334397809 2334397809 -11.00000000
-0.79856545 3.80261970 -0.61541319 2 6 34814 3.93400000 2334397813 2334397813 -9.00000000
-1.04961216 5.00674582 -0.62811458 2 8 34816 5.15400000 2334397818 2334397818 -7.00000000
-2.25524926 10.77647495 2.14011359 46 11 34818 11.21600000 2334397825 2334397825 11.00000000
-2.17068219 10.39046955 2.45061684 53 13 34820 10.89400000 2334397829 2334397829 13.00000000
-1.86626446 8.94109917 2.44739294 40 15 34821 9.45600000 2334397834 2334397834 15.00000000
-0.45011374 2.17160821 -0.59424853 4 0 34829 2.29600000 2334397855 2334397855 -15.00000000
-0.52712029 2.54760695 -0.60061932 3 2 34831 2.67000000 2334397859 2334397859 -13.00000000
-0.63234603 3.05886030 -0.60715425 2 4 34832 3.18200000 2334397864 2334397864 -11.00000000
-0.79007769 3.82859921 -0.61916763 2 6 34834 3.95800000 2334397869 2334397869 -9.00000000
-1.03853714 5.04148722 -0.63201439 2 8 34836 5.18600000 2334397873 2334397873 -7.00000000
-2.21682763 10.78043556 2.13935041 40 11 34838 11.21200000 2334397880 2334397880 11.00000000
-2.13204837 10.38652992 2.44791746 52 13 34840 10.88200000 2334397885 2334397885 13.00000000
-1.83620715 8.95323658 2.44894576 38 15 34841 9.46200000 2334397889 2334397889 15.00000000
-0.44136670 2.16551709 -0.59217799 4 0 34848 2.28800000 2334397910 2334397910 -15.00000000
-0.51789224 2.54552150 -0.59971952 3 2 34850 2.66600000 2334397915 2334397915 -13.00000000
-0.61907041 3.04554915 -0.60410130 2 4 34851 3.16600000 2334397919 2334397919 -11.00000000
-0.77541322 3.82151866 -0.61760324 2 6 34853 3.94800000 2334397924 2334397924 -9.00000000
-1.02181327 5.04490328 -0.63201439 2 8 34855 5.18600000 2334397928 2334397928 -7.00000000
-2.18028808 10.78387928 2.13858724 37 11 34857 11.20800000 2334397935 2334397935 11.00000000
-2.09797907 10.39545250 2.44836736 51 13 34859 10.88400000 2334397940 2334397940 13.00000000
-1.80421603 8.94791412 2.44583988 40 15 34860 9.45000000 2334397945 2334397945 15.00000000
-0.43380496 2.16704464 -0.59217799 4 0 34868 2.28800000 2334397965 2334397965 -15.00000000
-0.51053095 2.55495763 -0.60151911 3 2 34870 2.67400000 2334397970 2334397970 -13.00000000
-0.60997313 3.05539250 -0.60562778 2 4 34871 3.17400000 2334397975 2334397975 -11.00000000
-0.76322705 3.83001399 -0.61854190 2 6 34873 3.95400000 2334397979 2334397979 -9.00000000
-2.14263201 10.79142380 2.13858724 43 11 34877 11.20800000 2334397991 2334397991 11.00000000
-2.06205821 10.40462399 2.44881725 53 13 34879 10.88600000 2334397995 2334397995 13.00000000
-1.77178311 8.95636177 2.44635773 40 15 34881 9.45200000 2334398000 2334398000 15.00000000
-0.42474756 2.16096330 -0.59010744 4 0 34888 2.28000000 2334398021 2334398021 -15.00000000
-0.50010866 2.54907513 -0.59971952 3 2 34890 2.66600000 2334398025 2334398025 -13.00000000
-0.60005939 3.06135631 -0.60639101 2 4 34891 3.17800000 2334398030 2334398030 -11.00000000
-0.74833602 3.82490015 -0.61729038 2 6 34893 3.94600000 2334398034 2334398034 -9.00000000
-0.98504668 5.04412079 -0.63103944 2 8 34895 5.17800000 2334398039 2334398039 -7.00000000
-2.10194492 10.78342152 2.13553429 43 11 34897 11.19200000 2334398046 2334398046 11.00000000
-2.02498245 10.40793324 2.44791746 54 13 34899 10.88200000 2334398051 2334398051 13.00000000
-1.74133575 8.95839596 2.44532228 38 15 34900 9.44800000 2334398055 2334398055 15.00000000
-0.42012954 2.17760777 -0.59424853 4 0 34908 2.29600000 2334398076 2334398076 -15.00000000
-0.48825970 2.53549671 -0.59612030 3 2 34910 2.65000000 2334398080 2334398080 -13.00000000
-0.59159505 3.07499981 -0.60868067 2 4 34911 3.19000000 2334398085 2334398085 -11.00000000
-0.73758769 3.84106874 -0.61948049 2 6 34913 3.96000000 2334398090 2334398090 -9.00000000
-2.06355333 10.78683662 2.13477111 43 11 34917 11.18800000 2334398101 2334398101 11.00000000
-1.98863971 10.41493797 2.44791746 53 13 34919 10.88200000 2334398106 2334398106 13.00000000
-1.71077847 8.96821499 2.44635773 40 15 34920 9.45200000 2334398110 2334398110 15.00000000
-0.41326571 2.18088722 -0.59476614 4 0 34927 2.29800000 2334398131 2334398131 -15.00000000
-0.48274618 2.55242014 -0.59971952 3 2 34929 2.66600000 2334398136 2334398136 -13.00000000
-0.57920766 3.06536984 -0.60639101 2 4 34930 3.17800000 2334398140 2334398140 -11.00000000
-0.72008711 3.81825829 -0.61541319 2 6 34932 3.93400000 2334398145 2334398145 -9.00000000
-0.94922107 5.04290581 -0.63006449 2 8 34934 5.17000000 2334398150 2334398150 -7.00000000
-2.03067136 10.80905628 2.13782406 43 11 34936 11.20400000 2334398157 2334398157 11.00000000
-1.95337331 10.41764450 2.44701767 53 13 34938 10.87800000 2334398161 2334398161 13.00000000
-1.68017387 8.97793007 2.44739294 38 15 34940 9.45600000 2334398166 2334398166 15.00000000
-0.40317914 2.16902113 -0.59114271 4 0 34947 2.28400000 2334398186 2334398186 -15.00000000
-0.47312272 2.55025768 -0.59881973 3 2 34949 2.66200000 2334398191 2334398191 -13.00000000
-0.56707287 3.05965137 -0.60486454 2 4 34950 3.17000000 2334398196 2334398196 -11.00000000
-0.70891035 3.83240318 -0.61729038 2 6 34952 3.94600000 2334398200 2334398200 -9.00000000
-0.93449545 5.06180525 -0.63201439 2 8 34954 5.18600000 2334398205 2334398205 -7.00000000
-1.99506283 10.82766342 2.14011359 46 11 34956 11.21600000 2334398212 2334398212 11.00000000
-1.91558719 10.41673374 2.44521785 53 13 34958 10.87000000 2334398216 2334398216 13.00000000
-1.64429128 8.95903873 2.44066358 38 15 34960 9.43000000 2334398221 2334398221 15.00000000
-0.39529070 2.16654539 -0.59010744 4 0 34966 2.28000000 2334398242 2334398242 -15.00000000
-0.46605960 2.55948138 -0.60061932 3 2 34968 2.67000000 2334398246 2334398246 -13.00000000
-0.55903184 3.07310438 -0.60715425 2 4 34969 3.18200000 2334398251 2334398251 -11.00000000
-0.69972634 3.85416913 -0.62041909 2 6 34971 3.96600000 2334398256 2334398256 -9.00000000
-0.91558123 5.05315638 -0.63055199 2 8 34973 5.17400000 2334398260 2334398260 -7.00000000
-1.34213734 7.41472578 -0.65924603 4 10 34974 7.56400000 2334398265 2334398265 -5.00000000
-1.95495391 10.81103706 2.13553429 46 11 34975 11.19200000 2334398267 2334398267 11.00000000
-1.88103354 10.42302799 2.44521785 53 13 34977 10.87000000 2334398272 2334398272 13.00000000
-1.61423051 8.96254063 2.44014597 38 15 34979 9.42800000 2334398276 2334398276 15.00000000
-0.38976631 2.17932200 -0.59321326 4 0 34986 2.29200000 2334398297 2334398297 -15.00000000
-0.45712250 2.56109262 -0.60061932 3 2 34988 2.67000000 2334398302 2334398302 -13.00000000
-0.54899055 3.07890272 -0.60791749 2 4 34989 3.18600000 2334398306 2334398306 -11.00000000
-0.68211561 3.83325028 -0.61666465 2 6 34991 3.94200000 2334398311 2334398311 -9.00000000
-0.90001941 5.06804895 -0.63201439 2 8 34993 5.18600000 2334398316 2334398316 -7.00000000
-1.32042325 7.44290638 -0.66133779 4 10 34994 7.58800000 2334398320 2334398320 -5.00000000
-1.91583395 10.81006241 2.13400769 43 11 34995 11.18400000 2334398322 2334398322 11.00000000
-1.84429955 10.42761230 2.44476795 56 13 34997 10.86800000 2334398327 2334398327 13.00000000
-1.58192813 8.96241283 2.43859315 38 15 34999 9.42200000 2334398332 2334398332 15.00000000
-0.38282362 2.18447495 -0.59424853 4 0 35006 2.29600000 2334398352 2334398352 -15.00000000
-0.44784412 2.56075311 -0.60016942 3 2 35008 2.66800000 2334398357 2334398357 -13.00000000
-0.53688830 3.07306433 -0.60639101 2 4 35009 3.17800000 2334398362 2334398362 -11.00000000
-0.67551661 3.87452817 -0.62292206 2 6 35011 3.98200000 2334398366 2334398366 -9.00000000
-0.88232315 5.07115936 -0.63201439 2 8 35013 5.18600000 2334398371 2334398371 -7.00000000
-1.31558776 7.56917381 -0.67214507 4 10 35014 7.71200000 2334398375 2334398375 -5.00000000
-1.87741649 10.81281567 2.13324451 43 11 35015 11.18000000 2334398378 2334398378 11.00000000
-1.80755639 10.43206596 2.44431806 53 13 35017 10.86600000 2334398382 2334398382 13.00000000
-1.55417597 8.97903156 2.44169879 42 15 35018 9.43400000 2334398387 2334398387 15.00000000
-0.37584969 2.18960595 -0.59528381 4 0 35026 2.30000000 2334398408 2334398408 -15.00000000
-0.44021875 2.56998372 -0.60196900 3 2 35028 2.67600000 2334398412 2334398412 -13.00000000
-0.52615803 3.07491970 -0.60639101 2 4 35029 3.17800000 2334398417 2334398417 -11.00000000
-0.65833050 3.85544348 -0.61948049 2 6 35031 3.96000000 2334398421 2334398421 -9.00000000
-0.86661679 5.08594990 -0.63347685 2 8 35033 5.19800000 2334398426 2334398426 -7.00000000
-1.28915834 7.57371998 -0.67214507 4 10 35034 7.71200000 2334398431 2334398431 -5.00000000
-1.83801579 10.80962563 2.13133645 50 11 35035 11.17000000 2334398433 2334398433 11.00000000
-1.76982677 10.43062687 2.44251847 53 13 35037 10.85800000 2334398438 2334398438 13.00000000
-1.52125573 8.98466682 2.44169879 40 15 35039 9.43400000 2334398442 2334398442 15.00000000
-0.36692354 2.18328404 -0.59321326 4 0 35046 2.29200000 2334398463 2334398463 -15.00000000
-0.43027821 2.56573915 -0.60061932 3 2 35048 2.67000000 2334398468 2334398468 -13.00000000
-0.51736754 3.08835530 -0.60868067 2 4 35049 3.19000000 2334398472 2334398472 -11.00000000
-0.64584553 3.86356306 -0.62041909 2 6 35051 3.96600000 2334398477 2334398477 -9.00000000
-0.85343075 5.11635637 -0.63688916 2 8 35053 5.22600000 2334398481 2334398481 -7.00000000
-1.80188370 10.82565880 2.13324451 46 11 35055 11.18000000 2334398488 2334398488 11.00000000
-1.73340619 10.43674088 2.44251847 54 13 35057 10.85800000 2334398493 2334398493 13.00000000
-1.48765886 8.96679306 2.43548727 42 15 35058 9.41000000 2334398498 2334398498 15.00000000
-0.35804611 2.17692661 -0.59114271 4 0 35066 2.28400000 2334398518 2334398518 -15.00000000
-0.42415985 2.58453250 -0.60466844 3 2 35068 2.68800000 2334398523 2334398523 -13.00000000
-0.50404316 3.07464337 -0.60562778 4 4 35069 3.17400000 2334398527 2334398527 -11.00000000
-0.63235527 3.86579394 -0.62041909 2 6 35071 3.96600000 2334398532 2334398532 -9.00000000
-0.84515929 5.17807961 -0.64420134 2 8 35073 5.28600000 2334398537 2334398537 -7.00000000
-1.76345289 10.82800674 2.13248134 46 11 35075 11.17600000 2334398544 2334398544 11.00000000
-1.69790232 10.44849873 2.44386816 55 13 35077 10.86400000 2334398548 2334398548 13.00000000
-1.45478392 8.97218513 2.43548727 42 15 35079 9.41000000 2334398553 2334398553 15.00000000
-0.35021079 2.17428732 -0.59010744 4 0 35085 2.28000000 2334398574 2334398574 -15.00000000
-0.41311318 2.57053256 -0.60106921 3 2 35087 2.67200000 2334398578 2334398578 -13.00000000
-0.49571162 3.08792853 -0.60791749 2 4 35088 3.18600000 2334398583 2334398583 -11.00000000
-0.62078202 3.87567163 -0.62167054 2 6 35090 3.97400000 2334398587 2334398587 -9.00000000
-0.82359773 5.15341043 -0.64078903 2 8 35092 5.25800000 2334398592 2334398592 -7.00000000
-1.21110141 7.58659315 -0.67214507 4 10 35093 7.71200000 2334398597 2334398597 -5.00000000
-1.72629964 10.82604027 2.13095474 46 11 35094 11.16800000 2334398599 2334398599 11.00000000
-1.66293836 10.45214748 2.44341826 52 13 35096 10.86200000 2334398604 2334398604 13.00000000
-1.42598343 8.97289562 2.43445206 42 15 35097 9.40600000 2334398608 2334398608 15.00000000
-0.34502333 2.19076324 -0.59424853 4 0 35105 2.29600000 2334398629 2334398629 -15.00000000
-0.40413782 2.57195878 -0.60106921 3 2 35107 2.67200000 2334398633 2334398633 -13.00000000
-0.48736501 3.10515618 -0.61097038 2 4 35108 3.20200000 2334398638 2334398638 -11.00000000
-0.60419351 3.85829902 -0.61854190 2 6 35110 3.95400000 2334398643 2334398643 -9.00000000
-0.80499107 5.15233135 -0.64030153 2 8 35112 5.25400000 2334398647 2334398647 -7.00000000
-1.68789446 10.82812023 2.13019156 43 11 35114 11.16400000 2334398654 2334398654 11.00000000
-1.62464654 10.44633484 2.44071889 54 13 35116 10.85000000 2334398659 2334398659 13.00000000
-1.39249420 8.97424316 2.43341660 42 15 35118 9.40200000 2334398663 2334398663 15.00000000
-0.33737403 2.19195414 -0.59424853 4 0 35125 2.29600000 2334398684 2334398684 -15.00000000
-0.39456600 2.56950164 -0.60016942 3 2 35127 2.66800000 2334398689 2334398689 -13.00000000
-0.47533247 3.09907627 -0.60944390 2 4 35128 3.19400000 2334398693 2334398693 -11.00000000
-0.59311223 3.87600589 -0.62104481 2 6 35130 3.97000000 2334398698 2334398698 -9.00000000
-0.78160870 5.11978769 -0.63591421 2 8 35132 5.21800000 2334398703 2334398703 -7.00000000
-1.15810800 7.59486341 -0.67214507 4 10 35133 7.71200000 2334398707 2334398707 -5.00000000
-1.64949572 10.83006477 2.12942839 43 11 35134 11.16000000 2334398709 2334398709 11.00000000
-1.58758664 10.44808960 2.43981910 54 13 35136 10.84600000 2334398714 2334398714 13.00000000
-1.36330664 8.98263168 2.43445206 40 15 35137 9.40600000 2334398719 2334398719 15.00000000
-0.32914621 2.18929768 -0.59321326 4 0 35145 2.29200000 2334398739 2334398739 -15.00000000
-0.38530532 2.56893611 -0.59971952 3 2 35147 2.66600000 2334398744 2334398744 -13.00000000
-0.46102139 3.07741737 -0.60486454 2 4 35148 3.17000000 2334398749 2334398749 -11.00000000
-0.58133072 3.88977456 -0.62292206 2 6 35150 3.98200000 2334398753 2334398753 -9.00000000
-0.76900166 5.15782595 -0.64030153 2 8 35152 5.25400000 2334398758 2334398758 -7.00000000
-1.13158989 7.59885979 -0.67214507 4 10 35153 7.71200000 2334398762 2334398762 -5.00000000
-1.61110401 10.83187294 2.12866521 43 11 35154 11.15600000 2334398765 2334398765 11.00000000
-1.55082035 10.45163918 2.43936920 55 13 35156 10.84400000 2334398769 2334398769 13.00000000
-1.32811141 8.97228050 2.43031073 45 15 35158 9.39000000 2334398774 2334398774 15.00000000
-0.32037994 2.18278790 -0.59114271 4 0 35165 2.28400000 2334398795 2334398795 -15.00000000
-0.38057053 2.59918809 -0.60646802 3 2 35167 2.69600000 2334398799 2334398799 -13.00000000
-0.45482177 3.11008954 -0.61097038 2 4 35168 3.20200000 2334398804 2334398804 -11.00000000
-0.56632352 3.88200665 -0.62135768 2 6 35170 3.97200000 2334398809 2334398809 -9.00000000
-0.75213635 5.16833639 -0.64127648 2 8 35172 5.26200000 2334398813 2334398813 -7.00000000
-1.10505807 7.60276365 -0.67214507 4 10 35173 7.71200000 2334398818 2334398818 -5.00000000
-1.57271981 10.83354473 2.12790203 43 11 35174 11.15200000 2334398820 2334398820 11.00000000
-1.51432788 10.45698929 2.43936920 55 13 35176 10.84400000 2334398825 2334398825 13.00000000
-1.29724479 8.96898746 2.42824030 42 15 35177 9.38200000 2334398829 2334398829 15.00000000
-0.31330639 2.18771768 -0.59217799 4 0 35185 2.28800000 2334398850 2334398850 -15.00000000
-0.36901504 2.58313823 -0.60241890 3 2 35187 2.67800000 2334398855 2334398855 -13.00000000
-0.44174433 3.09610963 -0.60791749 2 4 35188 3.18600000 2334398859 2334398859 -11.00000000
-0.55276936 3.88396001 -0.62135768 2 6 35190 3.97200000 2334398864 2334398864 -9.00000000
-0.73743910 5.19451475 -0.64420134 2 8 35192 5.28600000 2334398868 2334398868 -7.00000000
-1.07851267 7.60657454 -0.67214507 4 10 35193 7.71200000 2334398873 2334398873 -5.00000000
-1.53159094 10.81564236 2.12332249 43 11 35194 11.12800000 2334398875 2334398875 11.00000000
-1.47754443 10.46028233 2.43891931 54 13 35196 10.84200000 2334398880 2334398880 13.00000000
-1.26490223 8.97750759 2.42927551 42 15 35198 9.38600000 2334398885 2334398885 15.00000000
-0.30658498 2.19257092 -0.59321326 4 0 35204 2.29200000 2334398905 2334398905 -15.00000000
-0.35937026 2.57662749 -0.60061932 3 2 35206 2.67000000 2334398910 2334398910 -13.00000000
-0.43364170 3.11311316 -0.61097038 2 4 35207 3.20200000 2334398915 2334398915 -11.00000000
-0.53961480 3.88381505 -0.62104481 2 6 35209 3.97000000 2334398919 2334398919 -9.00000000
-0.71693945 5.17333603 -0.64127648 2 8 35211 5.26200000 2334398924 2334398924 -7.00000000
-1.05328250 7.61010933 -0.67214507 4 10 35212 7.71200000 2334398928 2334398928 -5.00000000
-1.49571657 10.82066154 2.12332249 43 11 35213 11.12800000 2334398931 2334398931 11.00000000
-1.44151795 10.45547199 2.43666983 55 13 35215 10.83200000 2334398935 2334398935 13.00000000
-1.23616529 8.97760963 2.42824030 42 15 35216 9.38200000 2334398940 2334398940 15.00000000
-0.30023384 2.20319867 -0.59580141 4 0 35224 2.30200000 2334398961 2334398961 -15.00000000
-0.35089886 2.58172822 -0.60151911 3 2 35226 2.67400000 2334398965 2334398965 -13.00000000
-0.42118785 3.10293555 -0.60868067 2 4 35227 3.19000000 2334398970 2334398970 -11.00000000
-0.52658451 3.88959002 -0.62167054 2 6 35229 3.97400000 2334398974 2334398974 -9.00000000
-0.69887674 5.17580700 -0.64127648 2 8 35231 5.26200000 2334398979 2334398979 -7.00000000
-1.02671182 7.61373949 -0.67214507 4 10 35232 7.71200000 2334398984 2334398984 -5.00000000
-1.45846033 10.82970810 2.12408566 43 11 35233 11.13200000 2334398986 2334398986 11.00000000
-1.40319681 10.44692039 2.43352056 54 13 35235 10.81800000 2334398991 2334398991 13.00000000
-1.20584738 8.98952866 2.43031073 40 15 35236 9.39000000 2334398995 2334398995 15.00000000
-0.29088756 2.19470882 -0.59321326 4 0 35245 2.29200000 2334399016 2334399016 -15.00000000
-0.34143400 2.58299708 -0.60151911 3 2 35247 2.67400000 2334399021 2334399021 -13.00000000
-0.40929833 3.10056567 -0.60791749 2 4 35248 3.18600000 2334399025 2334399025 -11.00000000
-0.51490331 3.91107869 -0.62479925 2 6 35250 3.99400000 2334399030 2334399030 -9.00000000
-0.67938495 5.17439747 -0.64078903 2 8 35252 5.25800000 2334399034 2334399034 -7.00000000
-0.99879915 7.61745119 -0.67214507 4 10 35253 7.71200000 2334399039 2334399039 -5.00000000
-1.41926742 10.83887386 2.12484908 43 11 35254 11.13600000 2334399041 2334399041 11.00000000
-1.36615920 10.46165466 2.43577003 55 13 35256 10.82800000 2334399046 2334399046 13.00000000
-1.16939354 8.96706867 2.42306399 45 15 35257 9.36200000 2334399050 2334399050 15.00000000
-0.28371909 2.19954276 -0.59424853 4 0 35265 2.29600000 2334399071 2334399071 -15.00000000
-0.33390734 2.59576988 -0.60421854 3 2 35267 2.68600000 2334399076 2334399076 -13.00000000
-0.39947340 3.10976458 -0.60944390 2 4 35268 3.19400000 2334399080 2334399080 -11.00000000
-0.49823591 3.88933992 -0.62104481 2 6 35270 3.97000000 2334399085 2334399085 -9.00000000
-0.66232497 5.18461370 -0.64176399 2 8 35272 5.26600000 2334399090 2334399090 -7.00000000
-0.97220320 7.62089157 -0.67214507 4 10 35273 7.71200000 2334399094 2334399094 -5.00000000
-1.37894309 10.82428741 2.12103271 40 11 35274 11.11600000 2334399097 2334399097 11.00000000
-1.33012402 10.47022629 2.43666983 55 13 35276 10.83200000 2334399101 2334399101 13.00000000
-1.13530576 8.96171188 2.42047572 45 15 35278 9.35200000 2334399106 2334399106 15.00000000
-0.27546045 2.19280434 -0.59217799 4 0 35284 2.28800000 2334399127 2334399127 -15.00000000
-0.32481319 2.59299564 -0.60331875 3 2 35286 2.68200000 2334399131 2334399131 -13.00000000
-0.38867149 3.10717583 -0.60868067 2 4 35287 3.19000000 2334399136 2334399136 -11.00000000
-0.48631367 3.89881134 -0.62229627 2 6 35289 3.97800000 2334399140 2334399140 -9.00000000
-0.64610857 5.19466114 -0.64273894 2 8 35291 5.27400000 2334399145 2334399145 -7.00000000
-1.34086609 10.81126499 2.11759830 40 11 35293 11.09800000 2334399152 2334399152 11.00000000
-1.29539621 10.47457981 2.43666983 56 13 35295 10.83200000 2334399156 2334399156 13.00000000
-1.10738301 8.96715164 2.42099333 42 15 35296 9.35400000 2334399161 2334399161 15.00000000
-0.27014539 2.21292877 -0.59735435 4 0 35304 2.30800000 2334399182 2334399182 -15.00000000
-0.31528902 2.59024477 -0.60241890 3 2 35306 2.67800000 2334399186 2334399186 -13.00000000
-0.38256064 3.14749193 -0.61631304 2 4 35307 3.23000000 2334399191 2334399191 -11.00000000
-0.47175068 3.89264107 -0.62104481 2 6 35309 3.97000000 2334399196 2334399196 -9.00000000
-0.62701935 5.18900204 -0.64176399 2 8 35311 5.26600000 2334399200 2334399200 -7.00000000
-1.30311954 10.81587982 2.11759830 43 11 35313 11.09800000 2334399207 2334399207 11.00000000
-1.25766313 10.46936321 2.43442035 54 13 35315 10.82200000 2334399212 2334399212 13.00000000
-1.07561481 8.96712685 2.41995811 45 15 35316 9.35000000 2334399216 2334399216 15.00000000
-0.26241919 2.21385813 -0.59735435 4 0 35324 2.30800000 2334399237 2334399237 -15.00000000
-0.30395836 2.57197690 -0.59791988 3 2 35326 2.65800000 2334399242 2334399242 -13.00000000
-0.36927077 3.12931085 -0.61249685 2 4 35327 3.21000000 2334399246 2334399246 -11.00000000
-0.46185294 3.92565370 -0.62605071 2 6 35329 4.00200000 2334399251 2334399251 -9.00000000
-0.60473990 5.15567064 -0.63737667 2 8 35331 5.23000000 2334399255 2334399255 -7.00000000
-0.89367735 7.63049841 -0.67214507 4 10 35332 7.71200000 2334399260 2334399260 -5.00000000
-1.26604128 10.82621288 2.11874318 43 11 35333 11.10400000 2334399262 2334399262 11.00000000
-1.22088492 10.47175407 2.43397045 57 13 35335 10.82000000 2334399267 2334399267 13.00000000
-1.04475391 8.97466373 2.42099333 45 15 35336 9.35400000 2334399272 2334399272 15.00000000
-0.25226206 2.19364953 -0.59166032 3 0 35344 2.28600000 2334399292 2334399292 -15.00000000
-0.29764208 2.59625483 -0.60331875 3 2 35346 2.68200000 2334399297 2334399297 -13.00000000
-0.35611251 3.11107564 -0.60868067 2 4 35347 3.19000000 2334399302 2334399302 -11.00000000
-0.44904289 3.93509245 -0.62730223 2 6 35349 4.01000000 2334399306 2334399306 -9.00000000
-0.59167582 5.20114231 -0.64273894 2 8 35351 5.27400000 2334399311 2334399311 -7.00000000
-0.86703652 7.63357162 -0.67214507 4 10 35352 7.71200000 2334399315 2334399315 -5.00000000
-1.22780049 10.82666492 2.11797976 43 11 35353 11.10000000 2334399318 2334399318 11.00000000
-1.18344855 10.46820641 2.43217087 57 13 35355 10.81200000 2334399322 2334399322 13.00000000
-1.01120412 8.97267437 2.41944051 45 15 35357 9.34800000 2334399327 2334399327 15.00000000
-0.24481727 2.19643664 -0.59217799 4 0 35364 2.28800000 2334399348 2334399348 -15.00000000
-0.28857765 2.59727812 -0.60331875 3 2 35366 2.68200000 2334399352 2334399352 -13.00000000
-0.34698230 3.12791014 -0.61173362 2 4 35367 3.20600000 2334399357 2334399357 -11.00000000
-0.43443567 3.92878222 -0.62605071 2 6 35369 4.00200000 2334399361 2334399361 -9.00000000
-0.57264686 5.19528341 -0.64176399 2 8 35371 5.26600000 2334399366 2334399366 -7.00000000
-0.84343630 7.66427755 -0.67458546 4 10 35372 7.74000000 2334399371 2334399371 -5.00000000
-1.18850005 10.81722355 2.11530852 40 11 35373 11.08600000 2334399373 2334399373 11.00000000
-1.14690042 10.47227287 2.43217087 57 13 35375 10.81200000 2334399378 2334399378 13.00000000
-0.97955430 8.95869446 2.41478181 42 15 35376 9.33000000 2334399382 2334399382 15.00000000
-0.23756337 2.20111918 -0.59321326 4 0 35384 2.29200000 2334399403 2334399403 -15.00000000
-0.27950969 2.59826970 -0.60331875 3 2 35386 2.68200000 2334399407 2334399407 -13.00000000
-0.33564246 3.12519813 -0.61097038 2 4 35387 3.20200000 2334399412 2334399412 -11.00000000
-0.41777545 3.90277672 -0.62167054 2 6 35389 3.97400000 2334399417 2334399417 -9.00000000
-0.55450845 5.19725084 -0.64176399 2 8 35391 5.26600000 2334399421 2334399421 -7.00000000
-0.82385278 7.73453522 -0.68051201 4 10 35392 7.80800000 2334399426 2334399426 -5.00000000
-1.14948809 10.80959320 2.11301875 40 11 35393 11.07400000 2334399428 2334399428 11.00000000
-1.10992765 10.47233677 2.43127108 57 13 35395 10.80800000 2334399433 2334399433 13.00000000
-0.94868320 8.96590137 2.41581702 42 15 35396 9.33400000 2334399437 2334399437 15.00000000
-0.22949427 2.20197511 -0.59321326 4 0 35405 2.29200000 2334399458 2334399458 -15.00000000
-0.27038735 2.60315323 -0.60421854 3 2 35407 2.68600000 2334399463 2334399463 -13.00000000
-0.32621068 3.14593506 -0.61478657 2 4 35408 3.22200000 2334399467 2334399467 -11.00000000
