# .PCD v0.7 - Point Cloud Data file format
VERSION 0.7
FIELDS x y z intensity laser_id azimuth distance_m adjustedtime timestamp vertical_angle
SIZE 4 4 4 1 1 2 8 8 4 8
TYPE F F F U U U F U U F
COUNT 1 1 1 1 1 1 1 1 1 1
WIDTH 523
HEIGHT 1
VIEWPOINT 0 0 0 1 0 0 0
POINTS 523
DATA ascii
-1.91628492 3.14184427 -0.58287483 2 6 32862 3.72600000 2332692593 2332692593 -9.00000000
-2.48039889 4.06993198 -0.58521658 2 8 32864 4.80200000 2332692597 2332692597 -7.00000000
-3.52433658 5.78513670 -0.59265906 4 10 32865 6.80000000 2332692602 2332692602 -5.00000000
-5.92572498 9.73461914 -0.59725791 4 12 32867 11.41200000 2332692607 2332692607 -3.00000000
-5.73149109 9.41923904 2.54554605 59 13 32868 11.31600000 2332692609 2332692609 13.00000000
-4.33292723 7.12361193 2.23412609 45 15 32869 8.63200000 2332692614 2332692614 15.00000000
-1.11279583 1.83527493 -0.57509589 4 0 32877 2.22200000 2332692634 2332692634 -15.00000000
-1.30162048 2.14838457 -0.57992381 3 2 32879 2.57800000 2332692639 2332692639 -13.00000000
-1.54485154 2.55085301 -0.57967770 4 4 32880 3.03800000 2332692644 2332692644 -11.00000000
-1.89712441 3.13499403 -0.58037186 1 6 32882 3.71000000 2332692648 2332692648 -9.00000000
-2.46823120 4.08196306 -0.58570409 2 8 32884 4.80600000 2332692653 2332692653 -7.00000000
-3.51030517 5.80763435 -0.59370494 4 10 32885 6.81200000 2332692657 2332692657 -5.00000000
-5.90926170 9.78430843 -0.59903735 4 12 32887 11.44600000 2332692662 2332692662 -3.00000000
-5.70059156 9.44252491 2.54644585 60 13 32888 11.32000000 2332692664 2332692664 13.00000000
-4.30080128 7.12951994 2.23102021 45 15 32890 8.62000000 2332692669 2332692669 15.00000000
-1.10072696 1.82902372 -0.57199007 4 0 32896 2.21000000 2332692690 2332692690 -15.00000000
-1.29649758 2.15602922 -0.58082360 3 2 32898 2.58200000 2332692694 2332692694 -13.00000000
-1.53638411 2.55596209 -0.57967770 2 4 32899 3.03800000 2332692699 2332692699 -11.00000000
-1.89994025 3.16328216 -0.58443916 2 6 32901 3.73600000 2332692703 2332692703 -9.00000000
-2.47306848 4.12076283 -0.59009135 2 8 32903 4.84200000 2332692708 2332692708 -7.00000000
-3.48077726 5.80215788 -0.59196180 4 10 32904 6.79200000 2332692713 2332692713 -5.00000000
-5.89013290 9.82612038 -0.60039806 8 12 32906 11.47200000 2332692717 2332692717 -3.00000000
-5.67525721 9.47140598 2.54914546 62 13 32907 11.33200000 2332692720 2332692720 13.00000000
-4.27838230 7.14299631 2.23102021 45 15 32908 8.62000000 2332692724 2332692724 15.00000000
-1.10225856 1.84612429 -0.57613117 4 0 32916 2.22600000 2332692745 2332692745 -15.00000000
-1.28097630 2.14715338 -0.57722443 4 2 32918 2.56600000 2332692749 2332692749 -13.00000000
-1.52745283 2.56130934 -0.57967770 4 4 32919 3.03800000 2332692754 2332692754 -11.00000000
-1.88585329 3.16480398 -0.58350056 2 6 32921 3.73000000 2332692759 2332692759 -9.00000000
-2.44851375 4.11231422 -0.58765399 2 8 32923 4.82200000 2332692763 2332692763 -7.00000000
-3.46457887 5.82112074 -0.59265906 4 10 32924 6.80000000 2332692768 2332692768 -5.00000000
-5.86906862 9.86893749 -0.60175884 8 12 32926 11.49800000 2332692773 2332692773 -3.00000000
-5.62822008 9.46770763 2.54284668 59 13 32927 11.30400000 2332692775 2332692775 13.00000000
-4.25737000 7.16453028 2.23309064 45 15 32928 8.62800000 2332692779 2332692779 15.00000000
-1.10039389 1.85622525 -0.57820177 4 0 32934 2.23400000 2332692800 2332692800 -15.00000000
-1.27422452 2.15116715 -0.57722443 3 2 32936 2.56600000 2332692805 2332692805 -13.00000000
-1.51539767 2.55933809 -0.57815129 2 4 32937 3.03000000 2332692809 2332692809 -11.00000000
-1.87087226 3.16221237 -0.58193618 2 6 32939 3.72000000 2332692814 2332692814 -9.00000000
-2.43558240 4.11998606 -0.58765399 2 8 32941 4.82200000 2332692819 2332692819 -7.00000000
-3.46249199 5.85942125 -0.59544802 4 10 32942 6.83200000 2332692823 2332692823 -5.00000000
-5.84920597 9.90624523 -0.60291022 8 12 32944 11.52000000 2332692828 2332692828 -3.00000000
-5.59646797 9.48198605 2.54194689 57 13 32945 11.30000000 2332692830 2332692830 13.00000000
-4.23162556 7.17528057 2.23205543 47 15 32947 8.62400000 2332692835 2332692835 15.00000000
-1.08999038 1.85339415 -0.57613117 4 0 32954 2.22600000 2332692855 2332692855 -15.00000000
-1.27460623 2.16904283 -0.58082360 3 2 32956 2.58200000 2332692860 2332692860 -13.00000000
-1.51242077 2.57476902 -0.58044094 2 4 32957 3.04200000 2332692865 2332692865 -11.00000000
-1.86982167 3.18575978 -0.58506489 2 6 32959 3.74000000 2332692869 2332692869 -9.00000000
-2.41917777 4.12503815 -0.58716649 2 8 32961 4.81800000 2332692874 2332692874 -7.00000000
-3.46418524 5.90928555 -0.59928286 4 10 32962 6.87600000 2332692879 2332692879 -5.00000000
-5.83276176 9.95762253 -0.60479432 4 12 32964 11.55600000 2332692883 2332692883 -3.00000000
-5.56530476 9.50482655 2.54284668 59 13 32965 11.30400000 2332692885 2332692885 13.00000000
-4.20655298 7.19000816 2.23205543 45 15 32967 8.62400000 2332692890 2332692890 15.00000000
-1.07637751 1.84569502 -0.57250774 4 0 32975 2.21200000 2332692911 2332692911 -15.00000000
-1.27057230 2.18043494 -0.58262324 3 2 32977 2.59000000 2332692915 2332692915 -13.00000000
-1.49902105 2.57350922 -0.57891446 2 4 32978 3.03400000 2332692920 2332692920 -11.00000000
-1.86508834 3.20454264 -0.58725500 2 6 32980 3.75400000 2332692925 2332692925 -9.00000000
-2.41003013 4.14417315 -0.58862895 2 8 32982 4.83000000 2332692929 2332692929 -7.00000000
-3.43249011 5.90471792 -0.59753978 4 10 32983 6.85600000 2332692934 2332692934 -5.00000000
-5.81127357 10.00483990 -0.60636437 4 12 32985 11.58600000 2332692938 2332692938 -3.00000000
-5.53043032 9.52516079 2.54284668 59 13 32986 11.30400000 2332692941 2332692941 13.00000000
-4.16853905 7.18532562 2.22584391 45 15 32988 8.60000000 2332692945 2332692945 15.00000000
-1.07089567 1.85111332 -0.57302535 4 0 32995 2.21400000 2332692966 2332692966 -15.00000000
-1.25905240 2.17810822 -0.58082360 3 2 32997 2.58200000 2332692971 2332692971 -13.00000000
-1.49592197 2.58892536 -0.58120418 2 4 32998 3.04600000 2332692975 2332692975 -11.00000000
-1.84697723 3.19905829 -0.58506489 2 6 33000 3.74000000 2332692980 2332692980 -9.00000000
-2.41142082 4.18007231 -0.59252876 2 8 33002 4.86200000 2332692985 2332692985 -7.00000000
-3.41982031 5.93047142 -0.59893429 4 10 33003 6.87200000 2332692989 2332692989 -5.00000000
-5.78130007 10.03371716 -0.60688776 4 12 33005 11.59600000 2332692994 2332692994 -3.00000000
-4.80854559 8.34882355 2.22431612 44 13 33006 9.88800000 2332692996 2332692996 13.00000000
-4.14343214 7.19983244 2.22584391 45 15 33008 8.60000000 2332693001 2332693001 15.00000000
-1.06859863 1.86135590 -0.57509589 4 0 33014 2.22200000 2332693021 2332693021 -15.00000000
-1.24794400 2.17550993 -0.57902402 3 2 33016 2.57400000 2332693026 2332693026 -13.00000000
-1.48928177 2.59727812 -0.58196741 4 4 33017 3.05000000 2332693031 2332693031 -11.00000000
-1.84126866 3.21373558 -0.58662927 2 6 33019 3.75000000 2332693035 2332693035 -9.00000000
-2.39360094 4.18115473 -0.59155381 2 8 33021 4.85400000 2332693040 2332693040 -7.00000000
-3.39617705 5.93486214 -0.59823704 4 10 33022 6.86400000 2332693044 2332693044 -5.00000000
-5.75096941 10.05803490 -0.60720176 4 12 33024 11.60200000 2332693049 2332693049 -3.00000000
-4.77793217 8.35964775 2.22296643 59 13 33025 9.88200000 2332693051 2332693051 13.00000000
-4.11887646 7.20945930 2.22480845 45 15 33026 8.59600000 2332693056 2332693056 15.00000000
-1.06974268 1.87850451 -0.57923704 4 0 33034 2.23800000 2332693077 2332693077 -15.00000000
-1.24226987 2.18324018 -0.57992381 3 2 33036 2.57800000 2332693081 2332693081 -13.00000000
-1.47826517 2.59904790 -0.58120418 4 4 33037 3.04600000 2332693086 2332693086 -11.00000000
-1.82223117 3.20640397 -0.58412629 2 6 33039 3.73400000 2332693090 2332693090 -9.00000000
-2.37899137 4.18948460 -0.59155381 2 8 33041 4.85400000 2332693095 2332693095 -7.00000000
-3.39117622 5.97440434 -0.60102600 4 10 33042 6.89600000 2332693100 2332693100 -5.00000000
-5.71582556 10.07804775 -0.60720176 4 12 33044 11.60200000 2332693104 2332693104 -3.00000000
-4.74583912 8.37118912 2.22161651 60 13 33045 9.87600000 2332693107 2332693107 13.00000000
-4.09623337 7.23123074 2.22687912 45 15 33047 8.60400000 2332693111 2332693111 15.00000000
-1.05937850 1.87549889 -0.57716650 4 0 33054 2.23000000 2332693132 2332693132 -15.00000000
-1.23847270 2.19435167 -0.58172345 4 2 33056 2.58600000 2332693137 2332693137 -13.00000000
-1.46339583 2.59393263 -0.57891446 2 4 33057 3.03400000 2332693141 2332693141 -11.00000000
-1.81878781 3.22651148 -0.58662927 2 6 33059 3.75000000 2332693146 2332693146 -9.00000000
-2.36045599 4.19084454 -0.59057885 2 8 33061 4.84600000 2332693150 2332693150 -7.00000000
-3.37812066 6.00009441 -0.60242051 4 10 33062 6.91200000 2332693155 2332693155 -5.00000000
-5.70607185 10.14319706 -0.60992324 4 12 33064 11.65400000 2332693160 2332693160 -3.00000000
-4.71467924 8.38430691 2.22071671 56 13 33065 9.87200000 2332693162 2332693162 13.00000000
-4.05708551 7.21782970 2.21859694 40 15 33066 8.57200000 2332693167 2332693167 15.00000000
-1.04621565 1.86738777 -0.57354301 4 0 33074 2.21600000 2332693187 2332693187 -15.00000000
-1.23270929 2.20206213 -0.58262324 3 2 33076 2.59000000 2332693192 2332693192 -13.00000000
-1.45816720 2.60587811 -0.58044094 2 4 33077 3.04200000 2332693196 2332693196 -11.00000000
-1.80558610 3.22939229 -0.58600348 2 6 33079 3.74600000 2332693201 2332693201 -9.00000000
-2.35355806 4.21292257 -0.59252876 2 8 33081 4.86200000 2332693206 2332693206 -7.00000000
-3.35715580 6.01184988 -0.60242051 4 10 33082 6.91200000 2332693210 2332693210 -5.00000000
-5.68620157 10.19095993 -0.61159796 4 12 33084 11.68600000 2332693215 2332693215 -3.00000000
-4.68728209 8.40411663 2.22161651 59 13 33085 9.87600000 2332693217 2332693217 13.00000000
-3.99674892 7.17190123 2.19996190 20 15 33087 8.50000000 2332693222 2332693222 15.00000000
-1.04405451 1.87965393 -0.57613117 4 0 33095 2.22600000 2332693243 2332693243 -15.00000000
-1.22084737 2.19974995 -0.58082360 3 2 33097 2.58200000 2332693247 2332693247 -13.00000000
-1.45241594 2.61807203 -0.58196741 2 4 33098 3.05000000 2332693252 2332693252 -11.00000000
-1.78990698 3.22907758 -0.58475202 2 6 33100 3.73800000 2332693256 2332693256 -9.00000000
-2.35733676 4.25625134 -0.59740353 2 8 33102 4.90200000 2332693261 2332693261 -7.00000000
-3.32737851 6.01016951 -0.60102600 4 10 33103 6.89600000 2332693266 2332693266 -5.00000000
-5.64687824 10.20823669 -0.61138862 4 12 33105 11.68200000 2332693270 2332693270 -3.00000000
-4.65833378 8.42465115 2.22251630 56 13 33106 9.88000000 2332693273 2332693273 13.00000000
-3.92029166 7.09281588 2.17149186 15 15 33107 8.39000000 2332693277 2332693277 15.00000000
-1.04121554 1.89005530 -0.57820177 4 0 33115 2.23400000 2332693298 2332693298 -15.00000000
-1.20940256 2.19716930 -0.57902402 3 2 33117 2.57400000 2332693302 2332693302 -13.00000000
-1.44705403 2.63000631 -0.58349389 2 4 33118 3.05800000 2332693307 2332693307 -11.00000000
-1.79194748 3.25954032 -0.58913219 2 6 33120 3.76600000 2332693312 2332693312 -9.00000000
-2.33864260 4.25749445 -0.59642857 2 8 33122 4.89400000 2332693316 2332693316 -7.00000000
-3.32555747 6.05667639 -0.60451221 4 10 33123 6.93600000 2332693321 2332693321 -5.00000000
-5.62465954 10.25240040 -0.61285406 4 12 33125 11.71000000 2332693325 2332693325 -3.00000000
-4.62515020 8.43402576 2.22071671 55 13 33126 9.87200000 2332693328 2332693328 13.00000000
-3.87755919 7.07664156 2.16217422 15 15 33128 8.35400000 2332693332 2332693332 15.00000000
-1.04050148 1.90366864 -0.58130759 4 0 33134 2.24600000 2332693353 2332693353 -15.00000000
-1.20584595 2.20800900 -0.58082360 4 2 33136 2.58200000 2332693358 2332693358 -13.00000000
-1.43832457 2.63479042 -0.58349389 2 4 33137 3.05800000 2332693362 2332693362 -11.00000000
-1.77356136 3.25159121 -0.58662927 2 6 33139 3.75000000 2332693367 2332693367 -9.00000000
-2.30551243 4.23036575 -0.59155381 2 8 33141 4.85400000 2332693372 2332693372 -7.00000000
-3.30354834 6.06417179 -0.60416359 4 10 33142 6.93200000 2332693376 2332693376 -5.00000000
-5.59063053 10.27099609 -0.61285406 4 12 33144 11.71000000 2332693381 2332693381 -3.00000000
-4.59529352 8.44589329 2.21981692 59 13 33145 9.86800000 2332693383 2332693383 13.00000000
-3.84977031 7.07860565 2.15906858 18 15 33146 8.34200000 2332693388 2332693388 15.00000000
-1.03016758 1.90049553 -0.57923704 4 0 33154 2.23800000 2332693408 2332693408 -15.00000000
-1.19998741 2.21563172 -0.58172345 3 2 33156 2.58600000 2332693413 2332693413 -13.00000000
-1.42537999 2.63288927 -0.58196741 2 4 33157 3.05000000 2332693418 2332693418 -11.00000000
-1.75844109 3.25081253 -0.58537775 2 6 33159 3.74200000 2332693422 2332693422 -9.00000000
-2.30583334 4.26632929 -0.59545362 2 8 33161 4.88600000 2332693427 2332693427 -7.00000000
-3.27857208 6.06865454 -0.60346639 4 10 33162 6.92400000 2332693431 2332693431 -5.00000000
-5.57371807 10.32559967 -0.61494750 4 12 33164 11.75000000 2332693436 2332693436 -3.00000000
-4.56763458 8.46531200 2.22071671 56 13 33165 9.87200000 2332693438 2332693438 13.00000000
-3.81463242 7.07566357 2.15389204 18 15 33167 8.32200000 2332693443 2332693443 15.00000000
-1.01653981 1.89028978 -0.57509589 4 0 33173 2.22200000 2332693464 2332693464 -15.00000000
-1.19540060 2.22474885 -0.58307314 4 2 33175 2.59200000 2332693468 2332693468 -13.00000000
-1.41664124 2.63760138 -0.58196741 2 4 33176 3.05000000 2332693473 2332693473 -11.00000000
-1.74951947 3.26010704 -0.58600348 2 6 33178 3.74600000 2332693478 2332693478 -9.00000000
-2.29730129 4.28444862 -0.59691602 2 8 33180 4.89800000 2332693482 2332693482 -7.00000000
-3.28101850 6.12163877 -0.60764986 4 10 33181 6.97200000 2332693487 2332693487 -5.00000000
-5.54887533 10.36163235 -0.61599422 4 12 33183 11.77000000 2332693491 2332693491 -3.00000000
-4.53953743 8.48041248 2.22071671 62 13 33184 9.87200000 2332693494 2332693494 13.00000000
-3.77962494 7.06376553 2.14664507 22 15 33185 8.29400000 2332693498 2332693498 15.00000000
-1.01357138 1.90064514 -0.57716650 4 0 33193 2.23000000 2332693519 2332693519 -15.00000000
-1.18212926 2.21858883 -0.58037370 4 2 33195 2.58000000 2332693524 2332693524 -13.00000000
-1.41111720 2.64946175 -0.58349389 2 4 33196 3.05800000 2332693528 2332693528 -11.00000000
-1.73720098 3.26445031 -0.58569062 2 6 33198 3.74400000 2332693533 2332693533 -9.00000000
-2.29351521 4.31347466 -0.59984088 2 8 33200 4.92200000 2332693537 2332693537 -7.00000000
-3.26337028 6.14009190 -0.60834706 4 10 33201 6.98000000 2332693542 2332693542 -5.00000000
-5.52578688 10.40563393 -0.61745960 4 12 33203 11.79800000 2332693547 2332693547 -3.00000000
-4.50990772 8.49620724 2.22071671 59 13 33204 9.87200000 2332693549 2332693549 13.00000000
-3.74737358 7.06562471 2.14302158 18 15 33206 8.28000000 2332693554 2332693554 15.00000000
-1.01020956 1.91117895 -0.57923704 4 0 33214 2.23800000 2332693574 2332693574 -15.00000000
-1.17125952 2.21773720 -0.57902402 3 2 33216 2.57400000 2332693579 2332693579 -13.00000000
-1.40323007 2.65808821 -0.58425713 2 4 33217 3.06200000 2332693584 2332693584 -11.00000000
-1.73167562 3.28302598 -0.58788073 2 6 33219 3.75800000 2332693588 2332693588 -9.00000000
-2.26473284 4.29726601 -0.59642857 2 8 33221 4.89400000 2332693593 2332693593 -7.00000000
-3.22784328 6.12733316 -0.60590672 4 10 33222 6.95200000 2332693597 2332693597 -5.00000000
-5.48389053 10.41874790 -0.61704093 4 12 33224 11.79000000 2332693602 2332693602 -3.00000000
-4.47692251 8.50923061 2.21981692 59 13 33225 9.86800000 2332693604 2332693604 13.00000000
-3.71549344 7.06498384 2.13888049 20 15 33226 8.26400000 2332693609 2332693609 15.00000000
-1.00532568 1.91811585 -0.58027232 4 0 33234 2.24200000 2332693630 2332693630 -15.00000000
-1.16712725 2.22871757 -0.58082360 3 2 33236 2.58200000 2332693634 2332693634 -13.00000000
-1.39212215 2.65949154 -0.58349389 2 4 33237 3.05800000 2332693639 2332693639 -11.00000000
-1.71471226 3.27854824 -0.58600348 2 6 33239 3.74600000 2332693643 2332693643 -9.00000000
-2.24236369 4.29107046 -0.59447867 2 8 33241 4.87800000 2332693648 2332693648 -7.00000000
-3.23410869 6.19154263 -0.61113608 4 10 33242 7.01200000 2332693653 2332693653 -5.00000000
-5.46966696 10.48032188 -0.61955303 4 12 33244 11.83800000 2332693657 2332693657 -3.00000000
-4.44178438 8.51443958 2.21711755 56 13 33245 9.85600000 2332693660 2332693660 13.00000000
-3.68991613 7.07619715 2.13836288 20 15 33246 8.26200000 2332693664 2332693664 15.00000000
-0.99238831 1.90961397 -0.57664883 4 0 33254 2.22800000 2332693685 2332693685 -15.00000000
-1.15934050 2.23277807 -0.58082360 3 2 33256 2.58200000 2332693690 2332693690 -13.00000000
-1.38283026 2.66433477 -0.58349389 2 4 33257 3.05800000 2332693694 2332693694 -11.00000000
-1.71416998 3.30555701 -0.58975792 2 6 33259 3.77000000 2332693699 2332693699 -9.00000000
-2.24015665 4.32354736 -0.59789097 2 8 33261 4.90600000 2332693703 2332693703 -7.00000000
-3.17949033 6.13910294 -0.60486084 4 10 33262 6.94000000 2332693708 2332693708 -5.00000000
-5.43121433 10.49580288 -0.61934370 4 12 33264 11.83400000 2332693713 2332693713 -3.00000000
-4.41561794 8.53681564 2.21891713 57 13 33265 9.86400000 2332693715 2332693715 13.00000000
-3.65720797 7.07358980 2.13370419 20 15 33266 8.24400000 2332693719 2332693719 15.00000000
-0.98129225 1.90447998 -0.57406062 4 0 33274 2.21800000 2332693740 2332693740 -15.00000000
-1.15867543 2.25067210 -0.58442283 3 2 33276 2.59800000 2332693745 2332693745 -13.00000000
-1.36813176 2.65867138 -0.58120418 2 4 33277 3.04600000 2332693749 2332693749 -11.00000000
-1.70623398 3.31854749 -0.59100944 2 6 33279 3.77800000 2332693754 2332693754 -9.00000000
-2.21598029 4.31368303 -0.59545362 2 8 33281 4.88600000 2332693759 2332693759 -7.00000000
-3.17806387 6.18915653 -0.60869569 4 10 33282 6.98400000 2332693763 2332693763 -5.00000000
-5.41004324 10.54490662 -0.62112314 4 12 33284 11.86800000 2332693768 2332693768 -3.00000000
-4.38401318 8.54870892 2.21801734 59 13 33285 9.86000000 2332693770 2332693770 13.00000000
-3.62332892 7.07147312 2.12904549 20 15 33287 8.22600000 2332693775 2332693775 15.00000000
-0.97760880 1.91288424 -0.57561356 4 0 33293 2.22400000 2332693796 2332693796 -15.00000000
-1.14943302 2.25103092 -0.58352304 3 2 33295 2.59400000 2332693800 2332693800 -13.00000000
-1.36287785 2.67018819 -0.58273065 2 4 33296 3.05400000 2332693805 2332693805 -11.00000000
-1.69701469 3.32770681 -0.59163517 2 6 33298 3.78200000 2332693809 2332693809 -9.00000000
-2.22329259 4.36345720 -0.60130334 2 8 33300 4.93400000 2332693814 2332693814 -7.00000000
-3.15752220 6.19966125 -0.60869569 4 10 33301 6.98400000 2332693819 2332693819 -5.00000000
-4.99230719 9.80641556 2.13896894 12 11 33302 11.21000000 2332693821 2332693821 11.00000000
-5.37685680 10.56634903 -0.62133247 4 12 33303 11.87200000 2332693823 2332693823 -3.00000000
-4.35740757 8.56667423 2.21891713 56 13 33304 9.86400000 2332693825 2332693825 13.00000000
-3.59233999 7.06560040 2.12386918 15 15 33305 8.20600000 2332693830 2332693830 15.00000000
-0.97441816 1.92317820 -0.57768410 4 0 33313 2.23200000 2332693851 2332693851 -15.00000000
-1.13628757 2.24459767 -0.58082360 3 2 33315 2.58200000 2332693855 2332693855 -13.00000000
-1.35886729 2.68543983 -0.58502036 2 4 33316 3.06600000 2332693860 2332693860 -11.00000000
-1.67825842 3.31950712 -0.58913219 2 6 33318 3.76600000 2332693865 2332693865 -9.00000000
-2.19551730 4.34638548 -0.59789097 2 8 33320 4.90600000 2332693869 2332693869 -7.00000000
-3.14843440 6.23554468 -0.61113608 4 10 33321 7.01200000 2332693874 2332693874 -5.00000000
-4.94566202 9.79924488 2.13362622 12 11 33322 11.18200000 2332693876 2332693876 11.00000000
-5.35073566 10.60645199 -0.62258852 4 12 33323 11.89600000 2332693878 2332693878 -3.00000000
-4.32045841 8.56791115 2.21531796 59 13 33324 9.84800000 2332693881 2332693881 13.00000000
-3.57026315 7.08327246 2.12542200 9 15 33325 8.21200000 2332693885 2332693885 15.00000000
-0.96909642 1.93018961 -0.57871938 4 0 33334 2.23600000 2332693906 2332693906 -15.00000000
-1.12980056 2.25223088 -0.58172345 3 2 33336 2.58600000 2332693911 2332693911 -13.00000000
-1.34725559 2.68689227 -0.58425713 2 4 33337 3.06200000 2332693915 2332693915 -11.00000000
-1.66785014 3.32916832 -0.58975792 2 6 33339 3.77000000 2332693920 2332693920 -9.00000000
-2.20089698 4.39700651 -0.60374075 2 8 33341 4.95400000 2332693924 2332693924 -7.00000000
-3.13269067 6.26129675 -0.61253059 4 10 33342 7.02800000 2332693929 2332693929 -5.00000000
-4.90268755 9.80325794 2.13057327 15 11 33343 11.16600000 2332693931 2332693931 11.00000000
-5.30736017 10.61705971 -0.62206519 4 12 33344 11.88600000 2332693934 2332693934 -3.00000000
-4.28554249 8.57671642 2.21351838 59 13 33345 9.84000000 2332693936 2332693936 13.00000000
-3.54082489 7.08939743 2.12335134 9 15 33346 8.20400000 2332693941 2332693941 15.00000000
-0.95804900 1.92491317 -0.57613117 4 0 33354 2.22600000 2332693961 2332693961 -15.00000000
-1.13060892 2.27361012 -0.58622247 3 2 33356 2.60600000 2332693966 2332693966 -13.00000000
-1.33786833 2.69157863 -0.58425713 2 4 33357 3.06200000 2332693971 2332693971 -11.00000000
-1.65973353 3.34204674 -0.59100944 2 6 33359 3.77800000 2332693975 2332693975 -9.00000000
-2.16435933 4.36198473 -0.59789097 2 8 33361 4.90600000 2332693980 2332693980 -7.00000000
-3.11966825 6.29004288 -0.61427367 4 10 33362 7.04800000 2332693984 2332693984 -5.00000000
-4.86494970 9.81327629 2.12904668 21 11 33363 11.15800000 2332693987 2332693987 11.00000000
-5.29066372 10.67668152 -0.62447262 4 12 33364 11.93200000 2332693989 2332693989 -3.00000000
-4.25557804 8.59162331 2.21351838 57 13 33365 9.84000000 2332693991 2332693991 13.00000000
-3.49939370 7.07116175 2.11403394 4 15 33367 8.16800000 2332693996 2332693996 15.00000000
-0.94790500 1.92131579 -0.57406062 4 0 33374 2.21800000 2332694017 2332694017 -15.00000000
-1.12266564 2.27754283 -0.58622247 3 2 33376 2.60600000 2332694021 2332694021 -13.00000000
-1.32846475 2.69623232 -0.58425713 2 4 33377 3.06200000 2332694026 2332694026 -11.00000000
-1.63409829 3.31946373 -0.58600348 2 6 33379 3.74600000 2332694030 2332694030 -9.00000000
-2.16489005 4.40157652 -0.60227829 2 8 33381 4.94200000 2332694035 2332694035 -7.00000000
-3.08890271 6.28301430 -0.61253059 4 10 33382 7.02800000 2332694040 2332694040 -5.00000000
-4.81334829 9.79495811 2.12141442 21 11 33383 11.11800000 2332694042 2332694042 11.00000000
-5.26921272 10.72735310 -0.62635672 4 12 33384 11.96800000 2332694044 2332694044 -3.00000000
-4.22556162 8.60642624 2.21351838 57 13 33385 9.84000000 2332694047 2332694047 13.00000000
-3.52784324 7.18851709 2.14560986 2 15 33386 8.29000000 2332694051 2332694051 15.00000000
-0.94628471 1.93502557 -0.57716650 4 0 33394 2.23000000 2332694072 2332694072 -15.00000000
-1.11128676 2.27444410 -0.58442283 3 2 33396 2.59800000 2332694076 2332694076 -13.00000000
-1.32421446 2.71143770 -0.58654684 2 4 33397 3.07400000 2332694081 2332694081 -11.00000000
-1.63116384 3.34290051 -0.58913219 2 6 33399 3.76600000 2332694086 2332694086 -9.00000000
-2.15299201 4.41624403 -0.60325325 2 8 33401 4.95000000 2332694090 2332694090 -7.00000000
-3.04251409 6.24360895 -0.60764986 4 10 33402 6.97200000 2332694095 2332694095 -5.00000000
-4.76795197 9.78875542 2.11645341 21 11 33403 11.09200000 2332694097 2332694097 11.00000000
-5.22823811 10.73849773 -0.62593806 4 12 33404 11.96000000 2332694100 2332694100 -3.00000000
-4.19890451 8.62813282 2.21531796 57 13 33405 9.84800000 2332694102 2332694102 13.00000000
-3.92018366 8.05897617 2.40132308 45 15 33406 9.27800000 2332694106 2332694106 15.00000000
-0.94660616 1.95205903 -0.58130759 4 0 33413 2.24600000 2332694127 2332694127 -15.00000000
-1.10033953 2.27110171 -0.58262324 3 2 33415 2.59000000 2332694132 2332694132 -13.00000000
-1.31350434 2.71228027 -0.58578360 4 4 33416 3.07000000 2332694136 2332694136 -11.00000000
-1.61834872 3.34473491 -0.58850646 2 6 33418 3.76200000 2332694141 2332694141 -9.00000000
-2.14006329 4.42693377 -0.60374075 2 8 33420 4.95400000 2332694146 2332694146 -7.00000000
-3.05299902 6.31824589 -0.61392504 4 10 33421 7.04400000 2332694150 2332694150 -5.00000000
-4.72778034 9.78860188 2.11301875 21 11 33422 11.07400000 2332694153 2332694153 11.00000000
-5.20475578 10.78095627 -0.62740344 4 12 33423 11.98800000 2332694155 2332694155 -3.00000000
-4.16518831 8.63147831 2.21261859 57 13 33424 9.83600000 2332694157 2332694157 13.00000000
-3.92139292 8.13351631 2.41944051 42 15 33426 9.34800000 2332694162 2332694162 15.00000000
-0.93811274 1.95186901 -0.58027232 4 0 33433 2.24200000 2332694182 2332694182 -15.00000000
-1.09409237 2.27844214 -0.58352304 3 2 33435 2.59400000 2332694187 2332694187 -13.00000000
-1.29893148 2.70622897 -0.58349389 2 4 33436 3.05800000 2332694192 2332694192 -11.00000000
-1.61008012 3.35748839 -0.58975792 2 6 33438 3.77000000 2332694196 2332694196 -9.00000000
-2.09543467 4.37350941 -0.59545362 2 8 33440 4.88600000 2332694201 2332694201 -7.00000000
-3.02404094 6.31448841 -0.61253059 4 10 33441 7.02800000 2332694206 2332694206 -5.00000000
-4.69188738 9.80150318 2.11225557 21 11 33442 11.07000000 2332694208 2332694208 11.00000000
-5.17053986 10.80626583 -0.62782216 4 12 33443 11.99600000 2332694210 2332694210 -3.00000000
-4.13167000 8.63893318 2.21081901 59 13 33444 9.82800000 2332694212 2332694212 13.00000000
-3.91963053 8.20293331 2.43600488 45 15 33446 9.41200000 2332694217 2332694217 15.00000000
-0.92713988 1.94641125 -0.57768410 4 0 33453 2.23200000 2332694238 2332694238 -15.00000000
-1.08780730 2.28576660 -0.58442283 3 2 33455 2.59800000 2332694242 2332694242 -13.00000000
-1.29116380 2.71429253 -0.58425713 2 4 33456 3.06200000 2332694247 2332694247 -11.00000000
-1.60174227 3.37022448 -0.59100944 2 6 33458 3.77800000 2332694252 2332694252 -9.00000000
-2.10740280 4.43817997 -0.60325325 2 8 33460 4.95000000 2332694256 2332694256 -7.00000000
-3.03786111 6.40060377 -0.61985165 4 10 33461 7.11200000 2332694261 2332694261 -5.00000000
-4.65259647 9.80717850 2.10996580 21 11 33462 11.05800000 2332694263 2332694263 11.00000000
-5.12936449 10.81702995 -0.62740344 4 12 33463 11.98800000 2332694265 2332694265 -3.00000000
-4.09982014 8.64978123 2.20991921 59 13 33464 9.82400000 2332694268 2332694268 13.00000000
-3.91329694 8.26370716 2.44998097 42 15 33466 9.46600000 2332694272 2332694272 15.00000000
-0.91869062 1.94614172 -0.57664883 4 0 33473 2.22800000 2332694293 2332694293 -15.00000000
-1.08148444 2.29307508 -0.58532262 3 2 33475 2.60200000 2332694298 2332694298 -13.00000000
-1.27833271 2.71167970 -0.58273065 2 4 33476 3.05400000 2332694302 2332694302 -11.00000000
-1.59586000 3.38830471 -0.59319949 2 6 33478 3.79200000 2332694307 2332694307 -9.00000000
-2.09527850 4.45269346 -0.60422820 2 8 33480 4.95800000 2332694312 2332694312 -7.00000000
-2.99854040 6.37511063 -0.61636543 4 10 33481 7.07200000 2332694316 2332694316 -5.00000000
-4.60998154 9.80559254 2.10614967 21 11 33482 11.03800000 2332694318 2332694318 11.00000000
-4.07125902 8.66756725 2.21081901 56 13 33484 9.82800000 2332694323 2332694323 13.00000000
-3.90166235 8.31404305 2.46085143 45 15 33486 9.50800000 2332694328 2332694328 15.00000000
-0.91925889 1.96508539 -0.58130759 4 0 33493 2.24600000 2332694348 2332694348 -15.00000000
-1.07512367 2.30036688 -0.58622247 3 2 33495 2.60600000 2332694353 2332694353 -13.00000000
-1.28215456 2.74458504 -0.58883655 2 4 33496 3.08600000 2332694358 2332694358 -11.00000000
-1.57901025 3.38311458 -0.59132230 2 6 33498 3.78000000 2332694362 2332694362 -9.00000000
-3.58393574 7.68577480 -1.04125166 9 8 33500 8.54400000 2332694367 2332694367 -7.00000000
-3.56882906 7.65686750 -0.73908073 8 10 33501 8.48000000 2332694371 2332694371 -5.00000000
-4.56246042 9.79315090 2.10004377 21 11 33502 11.00600000 2332694374 2332694374 11.00000000
-3.57740164 7.68226194 -0.44412291 17 12 33503 8.48600000 2332694376 2332694376 -3.00000000
-4.04097843 8.68172550 2.21081901 57 13 33504 9.82800000 2332694378 2332694378 13.00000000
-3.90585208 8.39524651 2.48103929 47 15 33505 9.58600000 2332694383 2332694383 15.00000000
-0.90995646 1.96302414 -0.57975465 4 0 33513 2.24000000 2332694404 2332694404 -15.00000000
-1.06217372 2.29349589 -0.58352304 3 2 33515 2.59400000 2332694408 2332694408 -13.00000000
-1.27091682 2.74548078 -0.58807331 2 4 33516 3.08200000 2332694413 2332694413 -11.00000000
-1.56719136 3.38860583 -0.59132230 2 6 33518 3.78000000 2332694417 2332694417 -9.00000000
-2.97902274 6.45015240 -0.62159479 4 10 33521 7.13200000 2332694427 2332694427 -5.00000000
-4.52166510 9.79475784 2.09699082 25 11 33522 10.99000000 2332694429 2332694429 11.00000000
-3.56060553 7.71646452 -0.44537899 17 12 33523 8.51000000 2332694431 2332694431 -3.00000000
-4.00575209 8.68516064 2.20811963 60 13 33524 9.81600000 2332694434 2332694434 13.00000000
-3.55471706 7.71077728 -0.14820583 8 14 33525 8.49200000 2332694436 2332694436 -1.00000000
-3.90254402 8.46916008 2.49863911 47 15 33526 9.65400000 2332694438 2332694438 15.00000000
-0.90713036 1.97496617 -0.58234286 4 0 33533 2.25000000 2332694459 2332694459 -15.00000000
-1.05578697 2.30073214 -0.58442283 3 2 33535 2.59800000 2332694464 2332694464 -13.00000000
-1.25805151 2.74276233 -0.58654684 2 4 33536 3.07400000 2332694468 2332694468 -11.00000000
-1.56769741 3.42099261 -0.59601533 2 6 33538 3.81000000 2332694473 2332694473 -9.00000000
-3.53435636 7.72326469 -0.74308985 8 10 33541 8.52600000 2332694482 2332694482 -5.00000000
-4.48009777 9.79441357 2.09355640 25 11 33542 10.97200000 2332694484 2332694484 11.00000000
-3.52534366 7.71068239 -0.44433227 25 12 33543 8.49000000 2332694487 2332694487 -3.00000000
-3.97379088 8.69554520 2.20721984 60 13 33544 9.81200000 2332694489 2332694489 13.00000000
-3.53027225 7.72859526 -0.14831056 22 14 33545 8.49800000 2332694491 2332694491 -1.00000000
-3.88326716 8.50138378 2.50433302 40 15 33545 9.67600000 2332694494 2332694494 15.00000000
-0.89462948 1.96581233 -0.57871938 4 0 33553 2.23600000 2332694514 2332694514 -15.00000000
-1.04936266 2.30795145 -0.58532262 3 2 33555 2.60200000 2332694519 2332694519 -13.00000000
-1.24522078 2.73998761 -0.58502036 2 4 33556 3.06600000 2332694523 2332694523 -11.00000000
-1.55411303 3.42284679 -0.59538954 2 6 33558 3.80600000 2332694528 2332694528 -9.00000000
-3.48111415 7.67407322 -1.03467071 135 8 33560 8.49000000 2332694533 2332694533 -7.00000000
-2.92569256 6.45264673 -0.61985165 4 10 33561 7.11200000 2332694537 2332694537 -5.00000000
-4.43939829 9.79568672 2.09050345 18 11 33562 10.95600000 2332694540 2332694540 11.00000000
-3.49263787 7.71020603 -0.44359955 38 12 33563 8.47600000 2332694542 2332694542 -3.00000000
-3.94502115 8.71291447 2.20811963 59 13 33564 9.81600000 2332694544 2332694544 13.00000000
-3.49420357 7.72083139 -0.14792660 34 14 33565 8.47600000 2332694547 2332694547 -1.00000000
-3.85208178 8.51556015 2.50433302 40 15 33566 9.67600000 2332694549 2332694549 15.00000000
-0.88855612 1.97068429 -0.57923704 4 0 33573 2.23800000 2332694570 2332694570 -15.00000000
-1.04290080 2.31515384 -0.58622247 3 2 33575 2.60600000 2332694574 2332694574 -13.00000000
-1.23564887 2.74431753 -0.58502036 2 4 33576 3.06600000 2332694579 2332694579 -11.00000000
-1.53729331 3.41744184 -0.59351236 2 6 33578 3.79400000 2332694583 2332694583 -9.00000000
-3.45349169 7.68436718 -1.03442693 100 8 33580 8.48800000 2332694588 2332694588 -7.00000000
-2.91294765 6.48462915 -0.62194335 4 10 33581 7.13600000 2332694593 2332694593 -5.00000000
-4.40437365 9.80933189 2.09012175 18 11 33582 10.95400000 2332694595 2332694595 11.00000000
-3.47306299 7.73874998 -0.44454160 21 12 33583 8.49400000 2332694597 2332694597 -3.00000000
-3.92415428 8.74796867 2.21351838 60 13 33584 9.84000000 2332694600 2332694600 13.00000000
-3.46150446 7.72020864 -0.14768226 18 14 33585 8.46200000 2332694602 2332694602 -1.00000000
-3.82224131 8.52476120 2.50329781 38 15 33585 9.67200000 2332694604 2332694604 15.00000000
-0.88245970 1.97553778 -0.57975465 4 0 33593 2.24000000 2332694625 2332694625 -15.00000000
-4.79537106 10.74029636 0.20531011 6 1 33594 11.76400000 2332694627 2332694627 1.00000000
-1.03481305 2.31878018 -0.58622247 3 2 33595 2.60600000 2332694629 2332694629 -13.00000000
-4.79717445 10.75441837 0.61714560 7 3 33596 11.79200000 2332694632 2332694632 3.00000000
-1.23086047 2.75937200 -0.58731008 2 4 33596 3.07800000 2332694634 2332694634 -11.00000000
-4.79658699 10.75814724 1.03052950 4 5 33597 11.82400000 2332694636 2332694636 5.00000000
-1.52374673 3.41917849 -0.59288663 2 6 33598 3.79000000 2332694639 2332694639 -9.00000000
-2.89677477 6.50932026 -0.62333786 4 10 33601 7.15200000 2332694648 2332694648 -5.00000000
-4.40680933 9.90716171 2.10767627 21 11 33602 11.04600000 2332694650 2332694650 11.00000000
-3.44440579 7.74717617 -0.44433227 17 12 33603 8.49000000 2332694652 2332694652 -3.00000000
-3.90942192 8.79722881 2.22251630 68 13 33604 9.88000000 2332694655 2332694655 13.00000000
-3.43291140 7.72858953 -0.14761245 6 14 33605 8.45800000 2332694657 2332694657 -1.00000000
-3.79332256 8.54401016 2.50485063 40 15 33606 9.67800000 2332694659 2332694659 15.00000000
-0.88250792 1.99243104 -0.58389574 4 0 33611 2.25600000 2332694680 2332694680 -15.00000000
-4.75270081 10.73519421 0.20492616 13 1 33612 11.74200000 2332694682 2332694682 1.00000000
-1.02752328 2.32201958 -0.58622247 3 2 33613 2.60600000 2332694685 2332694685 -13.00000000
-4.75690174 10.75482368 0.61630821 15 3 33614 11.77600000 2332694687 2332694687 3.00000000
-1.21900904 2.75604320 -0.58578360 2 4 33614 3.07000000 2332694689 2332694689 -11.00000000
-4.74584770 10.73489571 1.02686894 12 5 33615 11.78200000 2332694692 2332694692 5.00000000
-1.50661016 3.40949392 -0.59038365 2 6 33616 3.77400000 2332694694 2332694694 -9.00000000
-4.75520945 10.76623249 1.44512665 21 7 33617 11.85800000 2332694696 2332694696 7.00000000
-4.75001097 10.75954247 1.86282158 12 9 33618 11.90800000 2332694701 2332694701 9.00000000
-3.40878248 7.72509241 -0.73873210 4 10 33619 8.47600000 2332694703 2332694703 -5.00000000
-4.52540112 10.26045704 2.17980194 31 11 33620 11.42400000 2332694705 2332694705 11.00000000
-3.40474272 7.72323513 -0.44234350 12 12 33621 8.45200000 2332694708 2332694708 -3.00000000
-3.90848207 8.87009907 2.23781300 66 13 33622 9.94800000 2332694710 2332694710 13.00000000
-4.72966433 10.73880959 -0.20482144 8 14 33623 11.73600000 2332694712 2332694712 -1.00000000
-3.77107000 8.56229973 2.50692129 40 15 33623 9.68600000 2332694715 2332694715 15.00000000
-0.86933810 1.98134696 -0.57975465 4 0 33631 2.24000000 2332694735 2332694735 -15.00000000
-4.70716763 10.73340607 0.20457710 16 1 33632 11.72200000 2332694738 2332694738 1.00000000
-1.02254105 2.33273149 -0.58802205 3 2 33633 2.61400000 2332694740 2332694740 -13.00000000
-4.70650721 10.74209213 0.61463344 21 3 33634 11.74400000 2332694742 2332694742 3.00000000
-1.21410847 2.77107096 -0.58807331 2 4 33634 3.08200000 2332694745 2332694745 -11.00000000
-4.70195341 10.73679638 1.02547443 17 5 33635 11.76600000 2332694747 2332694747 5.00000000
-1.50262070 3.43282819 -0.59351236 2 6 33636 3.79400000 2332694749 2332694749 -9.00000000
-4.70486832 10.75366688 1.44122684 21 7 33637 11.82600000 2332694752 2332694752 7.00000000
-4.69662857 10.73993778 -1.43927693 2 8 33638 11.81000000 2332694754 2332694754 -7.00000000
-4.70104933 10.75515938 1.85906720 15 9 33639 11.88400000 2332694756 2332694756 9.00000000
-2.83758068 6.49187660 -0.61985165 4 10 33639 7.11200000 2332694758 2332694758 -5.00000000
-4.51235151 10.32836437 2.19086885 43 11 33640 11.48200000 2332694761 2332694761 11.00000000
-4.68698549 10.73319149 -0.61379611 8 12 33641 11.72800000 2332694763 2332694763 -3.00000000
-3.90400052 8.94441319 2.25310969 62 13 33642 10.01600000 2332694765 2332694765 13.00000000
-4.68095541 10.72959328 -0.20433277 8 14 33643 11.70800000 2332694768 2332694768 -1.00000000
-3.73889017 8.57429314 2.50640368 40 15 33644 9.68400000 2332694770 2332694770 15.00000000
-0.86053085 1.98097610 -0.57871938 4 0 33652 2.23600000 2332694791 2332694791 -15.00000000
-4.66142511 10.73591232 0.20429787 20 1 33653 11.70600000 2332694793 2332694793 1.00000000
-1.01243269 2.33288813 -0.58712226 3 2 33654 2.61000000 2332694795 2332694795 -13.00000000
-4.66074562 10.74461174 0.61379611 21 3 33655 11.72800000 2332694798 2332694798 3.00000000
-1.19925618 2.76469564 -0.58578360 2 4 33655 3.07000000 2332694800 2332694800 -11.00000000
-4.65702152 10.74116230 1.02425432 17 5 33656 11.75200000 2332694802 2332694802 5.00000000
-1.49709785 3.45462513 -0.59632820 2 6 33657 3.81200000 2332694805 2332694805 -9.00000000
-4.65989971 10.75808811 1.43952072 19 7 33658 11.81200000 2332694807 2332694807 7.00000000
-4.66038799 10.76436615 -1.44025195 2 8 33659 11.81800000 2332694809 2332694809 -7.00000000
-4.65170574 10.74431229 1.85437417 12 9 33659 11.85400000 2332694811 2332694811 9.00000000
-4.63686132 10.71515369 -1.02146530 4 10 33660 11.72000000 2332694814 2332694814 -5.00000000
-4.48303890 10.36465454 2.19506669 43 11 33661 11.50400000 2332694816 2332694816 11.00000000
-4.64048195 10.73379898 -0.61285406 12 12 33662 11.71000000 2332694818 2332694818 -3.00000000
-3.89747357 9.01948357 2.26840639 60 13 33663 10.08400000 2332694821 2332694821 13.00000000
-4.63049746 10.72097683 -0.20384410 8 14 33664 11.68000000 2332694823 2332694823 -1.00000000
-3.70740533 8.58374500 2.50536847 40 15 33664 9.68000000 2332694825 2332694825 15.00000000
-0.85513777 1.98751700 -0.57975465 4 0 33672 2.24000000 2332694846 2332694846 -15.00000000
-4.61523104 10.73191071 0.20391391 20 1 33673 11.68400000 2332694848 2332694848 1.00000000
-1.00736153 2.34356952 -0.58892184 3 2 33674 2.61800000 2332694851 2332694851 -13.00000000
-4.61453867 10.74063015 0.61264473 21 3 33675 11.70600000 2332694853 2332694853 3.00000000
-1.19114828 2.77247262 -0.58654684 2 4 33675 3.07400000 2332694855 2332694855 -11.00000000
-4.60692072 10.72806072 1.02146530 17 5 33676 11.72000000 2332694858 2332694858 5.00000000
-1.47801757 3.44349289 -0.59351236 2 6 33677 3.79400000 2332694860 2332694860 -9.00000000
-4.61605740 10.75969410 1.43757081 19 7 33678 11.79600000 2332694862 2332694862 7.00000000
-1.94252408 4.53006458 -0.60520315 2 8 33679 4.96600000 2332694864 2332694864 -7.00000000
-4.60996008 10.75584221 1.85343552 15 9 33680 11.84800000 2332694867 2332694867 9.00000000
-4.60256958 10.73859978 -1.02216256 4 10 33680 11.72800000 2332694869 2332694869 -5.00000000
-4.43832827 10.36038876 2.19086885 50 11 33681 11.48200000 2332694871 2332694871 11.00000000
-4.59355164 10.72789955 -0.61159796 8 12 33682 11.68600000 2332694874 2332694874 -3.00000000
-3.90123653 9.11544514 2.28910184 64 13 33683 10.17600000 2332694876 2332694876 13.00000000
-4.58911371 10.72788239 -0.20366958 17 14 33684 11.67000000 2332694878 2332694878 -1.00000000
-3.67288160 8.59016991 2.50329781 40 15 33685 9.67200000 2332694881 2332694881 15.00000000
-0.85157269 1.99745023 -0.58182520 4 0 33691 2.24800000 2332694901 2332694901 -15.00000000
-4.56864262 10.72140217 0.20342524 16 1 33692 11.65600000 2332694904 2332694904 1.00000000
-0.99958438 2.34689713 -0.58892184 3 2 33693 2.61800000 2332694906 2332694906 -13.00000000
-4.57498455 10.74668503 0.61212134 18 3 33694 11.69600000 2332694908 2332694908 3.00000000
-1.18194783 2.77640748 -0.58654684 2 4 33694 3.07400000 2332694911 2332694911 -11.00000000
-4.56663942 10.73227882 1.02041948 17 5 33695 11.70800000 2332694913 2332694913 5.00000000
-1.46195185 3.43746829 -0.59163517 2 6 33696 3.78200000 2332694915 2332694915 -9.00000000
-4.56947899 10.74936581 1.43415844 19 7 33697 11.76800000 2332694917 2332694917 7.00000000
-1.93525398 4.55475140 -0.60764056 2 8 33698 4.98600000 2332694920 2332694920 -7.00000000
-4.56919479 10.75390911 1.85061967 12 9 33698 11.83000000 2332694922 2332694922 9.00000000
-4.56381845 10.74646759 -1.02146530 4 10 33699 11.72000000 2332694924 2332694924 -5.00000000
-4.40011215 10.36601448 2.18896079 43 11 33700 11.47200000 2332694927 2332694927 11.00000000
-4.55171061 10.72836399 -0.61076063 8 12 33701 11.67000000 2332694929 2332694929 -3.00000000
-3.89913702 9.19471359 2.30574822 53 13 33702 10.25000000 2332694931 2332694931 13.00000000
-4.54883099 10.73199463 -0.20346016 19 14 33703 11.65800000 2332694934 2332694934 -1.00000000
-3.64889240 8.60878086 2.50536847 38 15 33703 9.68000000 2332694936 2332694936 15.00000000
-0.84459513 2.00041056 -0.58182520 4 0 33711 2.24800000 2332694957 2332694957 -15.00000000
-4.52419281 10.72070312 0.20311111 10 1 33712 11.63800000 2332694959 2332694959 1.00000000
-0.98532718 2.33600760 -0.58532262 3 2 33713 2.60200000 2332694961 2332694961 -13.00000000
-4.53046083 10.74602604 0.61117929 18 3 33714 11.67800000 2332694964 2332694964 3.00000000
-1.17453730 2.78594351 -0.58769172 4 4 33714 3.08000000 2332694966 2332694966 -11.00000000
-4.52760172 10.74448204 1.02007079 17 5 33715 11.70400000 2332694968 2332694968 5.00000000
-1.45301092 3.44983268 -0.59288663 2 6 33716 3.79000000 2332694970 2332694970 -9.00000000
-4.52422714 10.74695492 1.43172109 19 7 33717 11.74800000 2332694973 2332694973 7.00000000
-1.91934311 4.56147909 -0.60764056 2 8 33718 4.98600000 2332694975 2332694975 -7.00000000
-4.52856398 10.76251030 1.84936821 12 9 33718 11.82200000 2332694977 2332694977 9.00000000
-4.52627850 10.76233292 -1.02146530 4 10 33719 11.72000000 2332694980 2332694980 -5.00000000
-4.36390114 10.38131046 2.18896079 46 11 33720 11.47200000 2332694982 2332694982 11.00000000
-4.50495052 10.72209167 -0.60950452 8 12 33721 11.64600000 2332694984 2332694984 -3.00000000
-3.89342666 9.27115345 2.32149482 62 13 33722 10.32000000 2332694987 2332694987 13.00000000
-4.50360203 10.72936916 -0.20311111 17 14 33723 11.63800000 2332694989 2332694989 -1.00000000
-3.61732435 8.61790276 2.50433302 38 15 33723 9.67600000 2332694991 2332694991 15.00000000
-0.84282362 2.01582289 -0.58544868 4 0 33731 2.26200000 2332695012 2332695012 -15.00000000
-4.48211670 10.72535992 0.20290168 13 1 33732 11.62600000 2332695014 2332695014 1.00000000
-0.98167354 2.35022187 -0.58802205 3 2 33733 2.61400000 2332695017 2332695017 -13.00000000
-4.48138046 10.73412800 0.60960925 23 3 33734 11.64800000 2332695019 2332695019 3.00000000
-1.16177988 2.78277946 -0.58616525 4 4 33734 3.07200000 2332695021 2332695021 -11.00000000
-4.49160337 10.76389790 1.02041948 80 5 33735 11.70800000 2332695023 2332695023 5.00000000
-1.44552231 3.46582246 -0.59476382 2 6 33736 3.80200000 2332695026 2332695026 -9.00000000
-4.48133898 10.74985695 1.43001485 19 7 33737 11.73400000 2332695028 2332695028 7.00000000
-4.46113825 10.70666122 -1.42416513 2 8 33738 11.68600000 2332695030 2332695030 -7.00000000
-4.48149252 10.76080036 1.84623957 12 9 33739 11.80200000 2332695033 2332695033 9.00000000
-4.48408747 10.76703167 -1.02041948 4 10 33739 11.70800000 2332695035 2332695035 -5.00000000
-4.33216381 10.40735531 2.19125056 46 11 33740 11.48400000 2332695037 2332695037 11.00000000
-4.46289253 10.72668743 -0.60887653 8 12 33741 11.63400000 2332695040 2332695040 -3.00000000
-3.89097118 9.35666180 2.33949089 64 13 33742 10.40000000 2332695042 2332695042 13.00000000
-4.45921469 10.72840500 -0.20279697 14 14 33743 11.62000000 2332695044 2332695044 -1.00000000
-3.59092760 8.63939667 2.50692129 38 15 33743 9.68600000 2332695046 2332695046 15.00000000
-0.83356506 2.01339793 -0.58389574 4 0 33751 2.25600000 2332695067 2332695067 -15.00000000
-4.44312191 10.73724461 0.20283186 13 1 33752 11.62200000 2332695070 2332695070 1.00000000
-0.97048455 2.34643102 -0.58622247 3 2 33753 2.60600000 2332695072 2332695072 -13.00000000
-4.44083214 10.74232292 0.60919052 23 3 33754 11.64000000 2332695074 2332695074 3.00000000
-1.15580928 2.79588962 -0.58807331 4 4 33754 3.08200000 2332695076 2332695076 -11.00000000
-4.44106865 10.74820805 1.01745617 80 5 33755 11.67400000 2332695079 2332695079 5.00000000
-1.44548011 3.50005984 -0.59976971 2 6 33756 3.83400000 2332695081 2332695081 -9.00000000
-4.43924284 10.75442410 1.42855239 21 7 33757 11.72200000 2332695083 2332695083 7.00000000
-4.43130922 10.74051857 -1.42660248 2 8 33758 11.70600000 2332695086 2332695086 -7.00000000
-4.43260717 10.74898529 1.84154654 15 9 33759 11.77200000 2332695088 2332695088 9.00000000
-2.72682786 6.61250401 -0.62577826 4 10 33759 7.18000000 2332695090 2332695090 -5.00000000
-4.29431248 10.41878319 2.19048738 46 11 33760 11.48000000 2332695093 2332695093 11.00000000
-4.42542219 10.74219990 -0.60887653 8 12 33761 11.63400000 2332695095 2332695095 -3.00000000
-3.88499784 9.43505764 2.35568738 64 13 33762 10.47200000 2332695097 2332695097 13.00000000
-4.41260576 10.72171497 -0.20237811 10 14 33763 11.59600000 2332695099 2332695099 -1.00000000
-3.55556393 8.64356709 2.50433302 38 15 33764 9.67600000 2332695102 2332695102 15.00000000
-0.82251781 2.00750136 -0.58130759 4 0 33772 2.24600000 2332695123 2332695123 -15.00000000
-4.39464378 10.73125076 0.20241301 10 1 33773 11.59800000 2332695125 2332695125 1.00000000
-0.96778351 2.36440039 -0.58982164 3 2 33774 2.62200000 2332695127 2332695127 -13.00000000
-4.39613581 10.74558735 0.60845780 23 3 33775 11.62600000 2332695129 2332695129 3.00000000
-1.14704084 2.80374122 -0.58883655 2 4 33775 3.08600000 2332695132 2332695132 -11.00000000
-4.39108706 10.73859406 1.01501572 80 5 33776 11.64600000 2332695134 2332695134 5.00000000
-1.42666328 3.49070597 -0.59726679 2 6 33777 3.81800000 2332695136 2332695136 -9.00000000
-4.39529181 10.75959682 1.42709005 19 7 33778 11.71000000 2332695139 2332695139 7.00000000
-4.38290882 10.73463440 -1.42367768 2 8 33779 11.68200000 2332695141 2332695141 -7.00000000
-4.39019489 10.75784397 1.84029508 15 9 33780 11.76400000 2332695143 2332695143 9.00000000
-2.71461844 6.65196943 -0.62856722 4 10 33780 7.21200000 2332695146 2332695146 -5.00000000
-4.25238943 10.42536354 2.18857908 50 11 33781 11.47000000 2332695148 2332695148 11.00000000
-4.37546444 10.73245525 -0.60741109 8 12 33782 11.60600000 2332695150 2332695150 -3.00000000
-3.88421750 9.53224850 2.37638283 68 13 33783 10.56400000 2332695152 2332695152 13.00000000
-4.37026215 10.73040771 -0.20223849 8 14 33784 11.58800000 2332695155 2332695155 -1.00000000
-3.52609921 8.65771484 2.50485063 38 15 33784 9.67800000 2332695157 2332695157 15.00000000
-0.81477916 2.00857019 -0.58078992 4 0 33792 2.24400000 2332695178 2332695178 -15.00000000
-4.34288216 10.71131516 0.20174982 13 1 33793 11.56000000 2332695180 2332695180 1.00000000
-0.95952433 2.36776423 -0.58982164 3 2 33794 2.62200000 2332695182 2332695182 -13.00000000
-4.35410118 10.74975967 0.60782981 18 3 33795 11.61400000 2332695185 2332695185 3.00000000
-1.13872099 2.81136727 -0.58959979 2 4 33795 3.09000000 2332695187 2332695187 -11.00000000
-4.34759474 10.73908234 1.01362133 25 5 33796 11.63000000 2332695189 2332695189 5.00000000
-1.41521072 3.49749589 -0.59757966 2 6 33797 3.82000000 2332695192 2332695192 -9.00000000
-4.34803152 10.75094986 1.42392147 21 7 33798 11.68400000 2332695194 2332695194 7.00000000
-4.35136271 10.76459122 -1.42562759 2 8 33799 11.69800000 2332695196 2332695196 -7.00000000
-4.34373617 10.75112438 1.83654058 18 9 33800 11.74000000 2332695199 2332695199 9.00000000
-2.67794752 6.62815285 -0.62542963 4 10 33800 7.17600000 2332695201 2332695201 -5.00000000
-4.21523714 10.43832302 2.18819761 46 11 33801 11.46800000 2332695203 2332695203 11.00000000
-4.33049917 10.72914219 -0.60636437 8 12 33802 11.58600000 2332695205 2332695205 -3.00000000
-3.88154078 9.62165165 2.39527893 62 13 33803 10.64800000 2332695208 2332695208 13.00000000
-4.32455349 10.72519684 -0.20185453 8 14 33804 11.56600000 2332695210 2332695210 -1.00000000
-3.49513435 8.66817951 2.50433302 38 15 33804 9.67600000 2332695212 2332695212 15.00000000
-0.81208253 2.02215815 -0.58389574 4 0 33812 2.25600000 2332695233 2332695233 -15.00000000
-4.30323172 10.72084236 0.20164511 16 1 33813 11.55400000 2332695235 2332695235 1.00000000
-0.94544870 2.35663033 -0.58622247 3 2 33814 2.60600000 2332695238 2332695238 -13.00000000
-4.31024933 10.74374962 0.60667843 23 3 33814 11.59200000 2332695240 2332695240 3.00000000
-1.13182330 2.82261395 -0.59112626 2 4 33815 3.09800000 2332695242 2332695242 -11.00000000
