# .PCD v0.7 - Point Cloud Data file format
VERSION 0.7
FIELDS x y z intensity laser_id azimuth distance_m adjustedtime timestamp vertical_angle
SIZE 4 4 4 1 1 2 8 8 4 8
TYPE F F F U U U F U U F
COUNT 1 1 1 1 1 1 1 1 1 1
WIDTH 534
HEIGHT 1
VIEWPOINT 0 0 0 1 0 0 0
POINTS 534
DATA ascii
2.46448922 9.61945915 1.93022382 15 11 1437 10.11600000 2333605376 2333605376 11.00000000
2.54258823 9.90990734 2.36198616 59 13 1439 10.50000000 2333605381 2333605381 13.00000000
2.19509363 8.54932499 2.36508846 45 15 1440 9.13800000 2333605385 2333605385 15.00000000
0.56805992 2.19969201 -0.60874242 4 0 1448 2.35200000 2333605406 2333605406 -15.00000000
0.67089766 2.59416866 -0.61861539 3 2 1450 2.75000000 2333605411 2333605411 -13.00000000
0.80522615 3.11133838 -0.62470865 2 4 1451 3.27400000 2333605415 2333605415 -11.00000000
1.02439713 3.95251131 -0.64670008 2 6 1453 4.13400000 2333605420 2333605420 -9.00000000
1.37792015 5.30890560 -0.67344999 2 8 1455 5.52600000 2333605424 2333605424 -7.00000000
2.05959463 7.92959595 -0.71676880 4 10 1456 8.22400000 2333605429 2333605429 -5.00000000
2.49706459 9.60699749 1.92946053 21 11 1457 10.11200000 2333605431 2333605431 11.00000000
2.57421947 9.88965607 2.35928655 59 13 1459 10.48800000 2333605436 2333605436 13.00000000
2.22687078 8.54908848 2.36715889 45 15 1460 9.14600000 2333605440 2333605440 15.00000000
0.57671392 2.20143318 -0.60977769 4 0 1468 2.35600000 2333605461 2333605461 -15.00000000
0.67994893 2.59181094 -0.61861539 3 2 1470 2.75000000 2333605466 2333605466 -13.00000000
0.81707889 3.11230636 -0.62547189 2 4 1471 3.27800000 2333605470 2333605470 -11.00000000
1.03919232 3.95273232 -0.64732581 2 6 1473 4.13800000 2333605475 2333605475 -9.00000000
1.38886225 5.27526808 -0.66979390 2 8 1475 5.49600000 2333605480 2333605480 -7.00000000
2.09538317 7.95318460 -0.71955782 4 10 1476 8.25600000 2333605484 2333605484 -5.00000000
2.53508854 9.61530781 1.93289506 15 11 1477 10.13000000 2333605487 2333605487 11.00000000
2.60723281 9.87495804 2.35793686 54 13 1479 10.48200000 2333605491 2333605491 13.00000000
2.26016521 8.54833984 2.36922956 42 15 1481 9.15400000 2333605496 2333605496 15.00000000
0.58241051 2.19193840 -0.60770714 4 0 1488 2.34800000 2333605517 2333605517 -15.00000000
0.69099623 2.59695458 -0.62041503 3 2 1490 2.75800000 2333605521 2333605521 -13.00000000
0.82793790 3.10943532 -0.62547189 2 4 1491 3.27800000 2333605526 2333605526 -11.00000000
1.04891217 3.93381119 -0.64482284 2 6 1493 4.12200000 2333605530 2333605530 -9.00000000
1.40777993 5.27230597 -0.67003763 2 8 1495 5.49800000 2333605535 2333605535 -7.00000000
2.11901760 7.93042278 -0.71816331 4 10 1496 8.24000000 2333605540 2333605540 -5.00000000
2.57218671 9.61967659 1.93556643 18 11 1497 10.14400000 2333605542 2333605542 11.00000000
2.64118290 9.86391449 2.35748696 60 13 1499 10.48000000 2333605546 2333605546 13.00000000
2.28449988 8.52587032 2.36508846 42 15 1500 9.13800000 2333605551 2333605551 15.00000000
0.58804780 2.18243074 -0.60563654 4 0 1508 2.34000000 2333605572 2333605572 -15.00000000
0.70208770 2.60205269 -0.62221462 3 2 1510 2.76600000 2333605576 2333605576 -13.00000000
0.83366913 3.08757257 -0.62165570 2 4 1511 3.25800000 2333605581 2333605581 -11.00000000
1.06573081 3.94156718 -0.64670008 2 6 1513 4.13400000 2333605586 2333605586 -9.00000000
1.42825031 5.27502394 -0.67101258 2 8 1515 5.50600000 2333605590 2333605590 -7.00000000
2.14564490 7.91913176 -0.71781468 4 10 1516 8.23600000 2333605595 2333605595 -5.00000000
2.60729122 9.61632347 1.93671131 21 11 1517 10.15000000 2333605597 2333605597 11.00000000
2.67866182 9.86591911 2.36018658 59 13 1519 10.49200000 2333605602 2333605602 13.00000000
2.31323385 8.51411533 2.36405325 42 15 1520 9.13400000 2333605606 2333605606 15.00000000
0.59591812 2.18430018 -0.60667187 4 0 1526 2.34400000 2333605628 2333605628 -15.00000000
0.71128595 2.60359383 -0.62311441 3 2 1528 2.77000000 2333605633 2333605633 -13.00000000
0.84957755 3.10766339 -0.62623513 2 4 1529 3.28200000 2333605637 2333605637 -11.00000000
1.07497883 3.92676806 -0.64482284 2 6 1531 4.12200000 2333605642 2333605642 -9.00000000
1.44848895 5.28391218 -0.67271876 2 8 1533 5.52000000 2333605646 2333605646 -7.00000000
2.16313386 7.88545227 -0.71537435 4 10 1534 8.20800000 2333605651 2333605651 -5.00000000
2.63696933 9.60619164 1.93632972 21 11 1535 10.14800000 2333605653 2333605653 11.00000000
2.70964336 9.85745525 2.36018658 56 13 1537 10.49200000 2333605658 2333605658 13.00000000
2.34099507 8.51053143 2.36508846 45 15 1538 9.13800000 2333605663 2333605663 15.00000000
0.60662895 2.19337845 -0.60977769 4 0 1546 2.35600000 2333605683 2333605683 -15.00000000
0.71464849 2.58043647 -0.61816549 3 2 1548 2.74800000 2333605688 2333605688 -13.00000000
0.86251742 3.11224651 -0.62776160 2 4 1549 3.29000000 2333605693 2333605693 -11.00000000
1.09079218 3.93060565 -0.64607435 2 6 1551 4.13000000 2333605697 2333605697 -9.00000000
1.46745598 5.28073645 -0.67296249 2 8 1553 5.52200000 2333605702 2333605702 -7.00000000
2.19918656 7.90856647 -0.71816331 4 10 1554 8.24000000 2333605706 2333605706 -5.00000000
2.67311668 9.60638523 1.93823779 25 11 1555 10.15800000 2333605709 2333605709 11.00000000
2.74089742 9.83667278 2.35748696 56 13 1557 10.48000000 2333605713 2333605713 13.00000000
2.37165284 8.50003338 2.36457086 40 15 1559 9.13600000 2333605718 2333605718 15.00000000
0.61323863 2.18752718 -0.60874242 4 0 1566 2.35200000 2333605739 2333605739 -15.00000000
0.72733825 2.59105992 -0.62131482 3 2 1568 2.76200000 2333605743 2333605743 -13.00000000
0.87125224 3.10165644 -0.62623513 2 4 1569 3.28200000 2333605748 2333605748 -11.00000000
1.10985470 3.94578981 -0.64920300 2 6 1571 4.15000000 2333605752 2333605752 -9.00000000
1.48211300 5.26220655 -0.67125636 2 8 1573 5.50800000 2333605757 2333605757 -7.00000000
2.22894120 7.90851212 -0.71886057 4 10 1574 8.24800000 2333605762 2333605762 -5.00000000
2.70983028 9.60833359 1.94052744 25 11 1575 10.17000000 2333605764 2333605764 11.00000000
2.77415776 9.82329464 2.35658717 56 13 1577 10.47600000 2333605769 2333605769 13.00000000
2.40245366 8.50141716 2.36715889 45 15 1578 9.14600000 2333605773 2333605773 15.00000000
0.62087077 2.18537331 -0.60874242 4 0 1586 2.35200000 2333605794 2333605794 -15.00000000
0.73584509 2.58663082 -0.62086493 3 2 1588 2.76000000 2333605798 2333605798 -13.00000000
0.88314879 3.10237288 -0.62699836 2 4 1589 3.28600000 2333605803 2333605803 -11.00000000
1.12253821 3.93809247 -0.64857727 2 6 1591 4.14600000 2333605808 2333605808 -9.00000000
1.49938285 5.25318336 -0.67076886 2 8 1593 5.50400000 2333605812 2333605812 -7.00000000
2.25325036 7.88918877 -0.71781468 4 10 1594 8.23600000 2333605817 2333605817 -5.00000000
2.74820852 9.61580467 1.94396210 25 11 1595 10.18800000 2333605819 2333605819 11.00000000
3.20500708 11.20671082 -0.61086529 4 12 1596 11.67200000 2333605822 2333605822 -3.00000000
2.80735826 9.80980396 2.35568738 60 13 1597 10.47200000 2333605824 2333605824 13.00000000
3.19851971 11.16927719 -0.20279697 2 14 1598 11.62000000 2333605826 2333605826 -1.00000000
2.43105078 8.48926449 2.36612368 45 15 1598 9.14200000 2333605828 2333605828 15.00000000
0.62673736 2.17565751 -0.60667187 4 0 1607 2.34400000 2333605849 2333605849 -15.00000000
3.21745491 11.16175556 0.20276205 3 1 1608 11.61800000 2333605851 2333605851 1.00000000
0.74586070 2.58578873 -0.62131482 3 2 1609 2.76200000 2333605854 2333605854 -13.00000000
0.89669138 3.10666013 -0.62852484 2 4 1610 3.29400000 2333605858 2333605858 -11.00000000
1.13038301 3.91117907 -0.64482284 2 6 1612 4.12200000 2333605863 2333605863 -9.00000000
1.51807487 5.24574566 -0.67052513 2 8 1614 5.50200000 2333605868 2333605868 -7.00000000
2.28658414 7.89618731 -0.71920919 4 10 1615 8.25200000 2333605872 2333605872 -5.00000000
2.78398037 9.60755348 1.94434369 21 11 1616 10.19000000 2333605875 2333605875 11.00000000
3.21268749 11.07979298 -0.60458499 4 12 1617 11.55200000 2333605877 2333605877 -3.00000000
2.84329414 9.79944897 2.35568738 59 13 1618 10.47200000 2333605879 2333605879 13.00000000
3.22103596 11.09410572 -0.20164511 6 14 1619 11.55400000 2333605881 2333605881 -1.00000000
2.46039534 8.46873665 2.36301780 42 15 1620 9.13000000 2333605884 2333605884 15.00000000
0.63541049 2.17716551 -0.60770714 4 0 1627 2.34800000 2333605904 2333605904 -15.00000000
3.22780776 11.05256176 0.20098191 6 1 1628 11.51600000 2333605907 2333605907 1.00000000
0.75488228 2.58316946 -0.62131482 3 2 1629 2.76200000 2333605909 2333605909 -13.00000000
3.24540973 11.10563087 0.60636437 31 3 1629 11.58600000 2333605911 2333605911 3.00000000
0.90753019 3.10351110 -0.62852484 2 4 1630 3.29400000 2333605914 2333605914 -11.00000000
3.25367355 11.11949062 1.01362133 25 5 1631 11.63000000 2333605916 2333605916 5.00000000
1.14624894 3.91479254 -0.64607435 2 6 1632 4.13000000 2333605918 2333605918 -9.00000000
3.25734520 11.11763859 1.42245901 27 7 1633 11.67200000 2333605921 2333605921 7.00000000
1.54531229 5.27089357 -0.67442495 2 8 1634 5.53400000 2333605923 2333605923 -7.00000000
3.27918506 11.17771912 1.84498811 18 9 1635 11.79400000 2333605925 2333605925 9.00000000
2.31301117 7.88433409 -0.71886057 4 10 1635 8.24800000 2333605928 2333605928 -5.00000000
2.81528807 9.59024143 1.94281721 21 11 1636 10.18200000 2333605930 2333605930 11.00000000
3.20631123 10.91520786 -0.59621119 4 12 1637 11.39200000 2333605932 2333605932 -3.00000000
2.87968135 9.79694271 2.35748696 60 13 1638 10.48000000 2333605934 2333605934 13.00000000
3.22024369 10.94850445 -0.19920176 6 14 1639 11.41400000 2333605937 2333605937 -1.00000000
2.49103284 8.46380329 2.36405325 42 15 1640 9.13400000 2333605939 2333605939 15.00000000
0.64224714 2.17515850 -0.60770714 4 0 1645 2.34800000 2333605960 2333605960 -15.00000000
3.22908449 10.92922020 0.19892253 6 1 1646 11.39800000 2333605962 2333605962 1.00000000
0.76188880 2.57704759 -0.62041503 3 2 1647 2.75800000 2333605964 2333605964 -13.00000000
3.23951316 10.95747757 0.59882802 31 3 1647 11.44200000 2333605967 2333605967 3.00000000
0.91950339 3.10817528 -0.63005131 2 4 1648 3.30200000 2333605969 2333605969 -11.00000000
3.24278188 10.95446873 0.99950206 8 5 1649 11.46800000 2333605971 2333605971 5.00000000
1.15854204 3.91117215 -0.64607435 2 6 1650 4.13000000 2333605974 2333605974 -9.00000000
3.25163865 10.97031689 1.40490985 29 7 1651 11.52800000 2333605976 2333605976 7.00000000
1.55396128 5.23936844 -0.67101258 2 8 1652 5.50600000 2333605978 2333605978 -7.00000000
3.26234436 10.99938869 1.81714272 28 9 1652 11.61600000 2333605981 2333605981 9.00000000
2.33776903 7.87702847 -0.71886057 4 10 1653 8.24800000 2333605983 2333605983 -5.00000000
2.85266852 9.60581589 1.94777822 18 11 1654 10.20800000 2333605985 2333605985 11.00000000
3.18995214 10.73468971 -0.58689541 4 12 1655 11.21400000 2333605987 2333605987 -3.00000000
2.90933442 9.78411198 2.35658717 56 13 1656 10.47600000 2333605990 2333605990 13.00000000
3.21071148 10.79075146 -0.19651410 6 14 1657 11.26000000 2333605992 2333605992 -1.00000000
2.51761031 8.45593548 2.36405325 40 15 1658 9.13400000 2333605994 2333605994 15.00000000
0.65205002 2.18030691 -0.60977769 4 0 1665 2.35600000 2333606015 2333606015 -15.00000000
3.22307134 10.77036858 0.19623485 10 1 1666 11.24400000 2333606017 2333606017 1.00000000
0.76864368 2.56690502 -0.61861539 3 2 1667 2.75000000 2333606020 2333606020 -13.00000000
3.23190761 10.79303741 0.59045428 28 3 1667 11.28200000 2333606022 2333606022 3.00000000
0.93034732 3.10494661 -0.63005131 2 4 1668 3.30200000 2333606024 2333606024 -11.00000000
3.23922968 10.80376530 0.98677731 17 5 1669 11.32200000 2333606027 2333606027 5.00000000
1.17956686 3.93170118 -0.65014166 2 6 1670 4.15600000 2333606029 2333606029 -9.00000000
3.25052953 10.82771301 1.38809180 29 7 1671 11.39000000 2333606031 2333606031 7.00000000
1.56881392 5.22250509 -0.66955018 2 8 1672 5.49400000 2333606034 2333606034 -7.00000000
3.25980139 10.85171986 1.79461622 31 9 1672 11.47200000 2333606036 2333606036 9.00000000
2.36525083 7.86882019 -0.71886057 4 10 1673 8.24800000 2333606038 2333606038 -5.00000000
2.88957453 9.60708046 1.95006788 15 11 1674 10.22000000 2333606040 2333606040 11.00000000
3.18883848 10.59535027 -0.57988238 8 12 1675 11.08000000 2333606043 2333606043 -3.00000000
2.94009781 9.76270103 2.35388780 57 13 1676 10.46400000 2333606045 2333606045 13.00000000
3.19527721 10.60333061 -0.19330285 4 14 1677 11.07600000 2333606047 2333606047 -1.00000000
2.54711151 8.44709587 2.36405325 42 15 1678 9.13400000 2333606050 2333606050 15.00000000
0.65741682 2.17062187 -0.60770714 4 0 1685 2.34800000 2333606070 2333606070 -15.00000000
3.22004867 10.62509060 0.19379152 6 1 1686 11.10400000 2333606073 2333606073 1.00000000
0.77986127 2.57166600 -0.62041503 3 2 1687 2.75800000 2333606075 2333606075 -13.00000000
3.23362708 10.66318893 0.58396459 23 3 1687 11.15800000 2333606077 2333606077 3.00000000
0.93319905 3.07537889 -0.62470865 2 4 1688 3.27400000 2333606080 2333606080 -11.00000000
3.24740028 10.69516373 0.97788745 28 5 1689 11.22000000 2333606082 2333606082 5.00000000
1.19960058 3.94835043 -0.65358317 2 6 1690 4.17800000 2333606084 2333606084 -9.00000000
3.25077438 10.69284821 1.37224877 27 7 1691 11.26000000 2333606086 2333606086 7.00000000
3.22144294 10.58972549 -1.35908687 2 8 1692 11.15200000 2333606089 2333606089 -7.00000000
3.25799274 10.70987415 1.77302825 28 9 1692 11.33400000 2333606091 2333606091 9.00000000
3.23107839 10.61474609 -0.97074068 4 10 1693 11.13800000 2333606093 2333606093 -5.00000000
2.92709613 9.61008167 1.95273924 12 11 1694 10.23400000 2333606096 2333606096 11.00000000
3.22755051 10.58988571 -0.58019644 25 12 1695 11.08600000 2333606098 2333606098 -3.00000000
2.97415805 9.75237846 2.35388780 59 13 1696 10.46400000 2333606100 2333606100 13.00000000
3.23285389 10.59402466 -0.19333775 19 14 1697 11.07800000 2333606103 2333606103 -1.00000000
2.57567310 8.44045067 2.36457086 45 15 1697 9.13600000 2333606105 2333606105 15.00000000
0.66555613 2.17016077 -0.60822475 4 0 1705 2.35000000 2333606126 2333606126 -15.00000000
3.25535750 10.60805035 0.19368681 27 1 1706 11.09800000 2333606128 2333606128 1.00000000
0.78997737 2.57265377 -0.62131482 3 2 1707 2.76200000 2333606130 2333606130 -13.00000000
3.26496601 10.63274384 0.58291787 10 3 1707 11.13800000 2333606133 2333606133 3.00000000
0.94738817 3.08336258 -0.62699836 2 4 1708 3.28600000 2333606135 2333606135 -11.00000000
3.26656270 10.62472630 0.97248375 12 5 1709 11.15800000 2333606137 2333606137 5.00000000
1.20640552 3.92148232 -0.64982879 2 6 1710 4.15400000 2333606139 2333606139 -9.00000000
3.27698302 10.64538860 1.36761773 10 7 1711 11.22200000 2333606142 2333606142 7.00000000
1.61458516 5.24177980 -0.67344999 2 8 1712 5.52600000 2333606144 2333606144 -7.00000000
3.27791214 10.64180088 1.76364219 9 9 1712 11.27400000 2333606146 2333606146 9.00000000
2.42012739 7.85211611 -0.71886057 4 10 1713 8.24800000 2333606149 2333606149 -5.00000000
2.96988106 9.62982273 1.95884514 12 11 1714 10.26600000 2333606151 2333606151 11.00000000
3.27627540 10.61672401 -0.58228987 8 12 1715 11.12600000 2333606153 2333606153 -3.00000000
3.01048207 9.74938583 2.35568738 56 13 1716 10.47200000 2333606156 2333606156 13.00000000
3.27394652 10.59604931 -0.19358209 8 14 1717 11.09200000 2333606158 2333606158 -1.00000000
2.60202670 8.41618824 2.36042976 40 15 1718 9.12000000 2333606160 2333606160 15.00000000
0.67255449 2.16597939 -0.60770714 4 0 1725 2.34800000 2333606181 2333606181 -15.00000000
3.29830003 10.61571884 0.19403586 13 1 1726 11.11800000 2333606183 2333606183 1.00000000
0.79895282 2.56988072 -0.62131482 3 2 1727 2.76200000 2333606186 2333606186 -13.00000000
3.30747461 10.63214874 0.58354592 10 3 1728 11.15000000 2333606188 2333606188 3.00000000
0.95581263 3.07253814 -0.62547189 2 4 1728 3.27800000 2333606190 2333606190 -11.00000000
3.30422235 10.61516094 0.97265810 12 5 1729 11.16000000 2333606192 2333606192 5.00000000
1.21186268 3.89084315 -0.64544863 2 6 1730 4.12600000 2333606195 2333606195 -9.00000000
3.31412220 10.63388443 1.36761773 8 7 1731 11.22200000 2333606197 2333606197 7.00000000
1.63109958 5.23042679 -0.67271876 2 8 1732 5.52000000 2333606199 2333606199 -7.00000000
3.31974387 10.64538097 1.76614511 12 9 1732 11.29000000 2333606202 2333606202 9.00000000
2.44514775 7.83601284 -0.71816331 4 10 1733 8.24000000 2333606204 2333606204 -5.00000000
3.02044606 9.67374420 1.96991205 12 11 1734 10.32400000 2333606206 2333606206 11.00000000
3.31450582 10.60903645 -0.58249921 12 12 1735 11.13000000 2333606209 2333606209 -3.00000000
3.04333258 9.73509789 2.35478759 57 13 1736 10.46800000 2333606211 2333606211 13.00000000
3.31867456 10.60936737 -0.19403586 12 14 1737 11.11800000 2333606213 2333606213 -1.00000000
2.63165164 8.41304493 2.36198258 42 15 1737 9.12600000 2333606216 2333606216 15.00000000
0.68242830 2.17099023 -0.60977769 4 0 1745 2.35600000 2333606236 2333606236 -15.00000000
3.33713555 10.60986423 0.19414057 13 1 1746 11.12400000 2333606239 2333606239 1.00000000
0.80440831 2.55592299 -0.61861539 3 2 1747 2.75000000 2333606241 2333606241 -13.00000000
3.34756732 10.63006401 0.58406925 13 3 1748 11.16000000 2333606243 2333606243 3.00000000
0.97242910 3.08790898 -0.62928808 2 4 1748 3.29800000 2333606245 2333606245 -11.00000000
3.34904027 10.62826633 0.97492415 12 5 1749 11.18600000 2333606248 2333606248 5.00000000
1.22603095 3.88847327 -0.64576149 2 6 1750 4.12800000 2333606250 2333606250 -9.00000000
3.35420752 10.63171673 1.36883652 12 7 1751 11.23200000 2333606252 2333606252 7.00000000
1.64456654 5.20955706 -0.67076886 2 8 1752 5.50400000 2333606255 2333606255 -7.00000000
3.36230874 10.64444351 1.76802230 12 9 1753 11.30200000 2333606257 2333606257 9.00000000
2.47368598 7.83122921 -0.71851194 4 10 1753 8.24400000 2333606259 2333606259 -5.00000000
3.12223744 9.87841892 2.01379824 18 11 1754 10.55400000 2333606262 2333606262 11.00000000
3.35031366 10.59359264 -0.58228987 12 12 1755 11.12600000 2333606264 2333606264 -3.00000000
3.07611990 9.72069931 2.35388780 59 13 1756 10.46400000 2333606266 2333606266 13.00000000
3.36112070 10.61487579 -0.19435000 12 14 1757 11.13600000 2333606269 2333606269 -1.00000000
2.66246915 8.40334320 2.36198258 40 15 1758 9.12600000 2333606271 2333606271 15.00000000
0.69058806 2.17043591 -0.61029530 4 0 1765 2.35800000 2333606292 2333606292 -15.00000000
3.37961030 10.61529922 0.19445471 13 1 1766 11.14200000 2333606294 2333606294 1.00000000
0.81687433 2.56424022 -0.62131482 3 2 1767 2.76200000 2333606296 2333606296 -13.00000000
3.38586593 10.62211990 0.58427864 10 3 1768 11.16400000 2333606298 2333606298 3.00000000
0.98439443 3.08823681 -0.63005131 2 4 1768 3.30200000 2333606301 2333606301 -11.00000000
3.38854122 10.62410450 0.97562140 12 5 1769 11.19400000 2333606303 2333606303 5.00000000
1.24740434 3.90863419 -0.64982879 2 6 1770 4.15400000 2333606305 2333606305 -9.00000000
3.39492202 10.63128948 1.37029886 12 7 1771 11.24400000 2333606308 2333606308 7.00000000
1.66153288 5.20000315 -0.67028141 2 8 1772 5.50000000 2333606310 2333606310 -7.00000000
3.39818978 10.63511658 1.76833522 12 9 1772 11.30400000 2333606312 2333606312 9.00000000
2.50707436 7.84152460 -0.72025508 4 10 1773 8.26400000 2333606315 2333606315 -5.00000000
3.18661046 9.96095562 2.03287911 37 11 1774 10.65400000 2333606317 2333606317 11.00000000
3.39214277 10.59705162 -0.58312720 12 12 1775 11.14200000 2333606319 2333606319 -3.00000000
3.10646605 9.69876766 2.35118842 56 13 1776 10.45200000 2333606322 2333606322 13.00000000
3.39937377 10.60688782 -0.19441980 10 14 1777 11.14000000 2333606324 2333606324 -1.00000000
2.68855238 8.38894844 2.36042976 40 15 1777 9.12000000 2333606326 2333606326 15.00000000
0.69519925 2.15881777 -0.60770714 4 0 1785 2.34800000 2333606347 2333606347 -15.00000000
3.41787076 10.60724449 0.19452453 13 1 1786 11.14600000 2333606349 2333606349 1.00000000
0.82582021 2.56137323 -0.62131482 3 2 1787 2.76200000 2333606351 2333606351 -13.00000000
3.42660260 10.62164116 0.58490664 13 3 1788 11.17600000 2333606354 2333606354 3.00000000
0.98672968 3.05862379 -0.62470865 2 4 1788 3.27400000 2333606356 2333606356 -11.00000000
3.42927790 10.62358761 0.97666723 12 5 1789 11.20600000 2333606358 2333606358 5.00000000
1.25921893 3.89861679 -0.64889014 2 6 1790 4.14800000 2333606361 2333606361 -9.00000000
3.43811607 10.63826370 1.37273633 14 7 1791 11.26400000 2333606363 2333606363 7.00000000
1.68517125 5.21117067 -0.67247504 2 8 1792 5.51800000 2333606365 2333606365 -7.00000000
3.44140339 10.63574696 1.77052522 12 9 1793 11.31800000 2333606368 2333606368 9.00000000
2.53443122 7.83272552 -0.72025508 4 10 1793 8.26400000 2333606370 2333606370 -5.00000000
3.22982740 9.97592068 2.03822160 46 11 1794 10.68200000 2333606372 2333606372 11.00000000
3.43280602 10.59654617 -0.58375525 12 12 1795 11.15400000 2333606374 2333606374 -3.00000000
3.12708235 9.64708138 2.34129047 64 13 1796 10.40800000 2333606377 2333606377 13.00000000
3.43884587 10.60256481 -0.19455943 10 14 1797 11.14800000 2333606379 2333606379 -1.00000000
2.71868491 8.37720108 2.35991216 45 15 1798 9.11800000 2333606381 2333606381 15.00000000
0.70115781 2.15282679 -0.60667187 4 0 1804 2.34400000 2333606402 2333606402 -15.00000000
3.45798349 10.61106205 0.19480376 13 1 1805 11.16200000 2333606404 2333606404 1.00000000
0.83430952 2.55862069 -0.62131482 3 2 1806 2.76200000 2333606407 2333606407 -13.00000000
3.46800137 10.62920666 0.58595335 15 3 1807 11.19600000 2333606409 2333606409 3.00000000
0.99564910 3.05160213 -0.62394542 2 4 1807 3.27000000 2333606411 2333606411 -11.00000000
3.46077800 10.60079288 0.97562140 12 5 1808 11.19400000 2333606414 2333606414 5.00000000
1.26600659 3.87564230 -0.64576149 2 6 1809 4.12800000 2333606416 2333606416 -9.00000000
3.47707510 10.63812447 1.37419868 17 7 1810 11.27600000 2333606418 2333606418 7.00000000
3.47708058 10.63185787 -1.37346745 2 8 1811 11.27000000 2333606421 2333606421 -7.00000000
3.47909784 10.63802528 1.77271533 12 9 1811 11.33200000 2333606423 2333606423 9.00000000
2.55419493 7.80534220 -0.71851194 4 10 1812 8.24400000 2333606425 2333606425 -5.00000000
3.25983644 9.95582676 2.03631353 43 11 1813 10.67200000 2333606427 2333606427 11.00000000
3.47911930 10.61926842 -0.58563936 12 12 1814 11.19000000 2333606430 2333606430 -3.00000000
3.12141943 9.52184772 2.31339669 66 13 1815 10.28400000 2333606432 2333606432 13.00000000
3.48021865 10.61010456 -0.19490847 10 14 1816 11.16800000 2333606434 2333606434 -1.00000000
2.74197865 8.35943985 2.35732388 40 15 1816 9.10800000 2333606437 2333606437 15.00000000
0.71108699 2.15770531 -0.60874242 4 0 1824 2.35200000 2333606457 2333606457 -15.00000000
3.49625444 10.60272503 0.19487357 13 1 1825 11.16600000 2333606460 2333606460 1.00000000
0.84445685 2.55939388 -0.62221462 3 2 1826 2.76600000 2333606462 2333606462 -13.00000000
3.50883985 10.62841606 0.58658141 13 3 1827 11.20800000 2333606464 2333606464 3.00000000
1.01244986 3.06675076 -0.62776160 2 4 1827 3.29000000 2333606467 2333606467 -11.00000000
3.50775957 10.61891747 0.97841036 12 5 1828 11.22600000 2333606469 2333606469 5.00000000
1.27890742 3.86932397 -0.64544863 2 6 1829 4.12600000 2333606471 2333606471 -9.00000000
3.51668119 10.63346195 1.37517369 12 7 1830 11.28400000 2333606474 2333606474 7.00000000
3.51541877 10.62342453 -1.37395501 2 8 1831 11.27400000 2333606476 2333606476 -7.00000000
3.52303195 10.64020443 1.77521837 12 9 1832 11.34800000 2333606478 2333606478 9.00000000
2.57954645 7.79070425 -0.71798903 4 10 1832 8.23800000 2333606480 2333606480 -5.00000000
3.29209924 9.93693256 2.03478718 43 11 1833 10.66400000 2333606483 2333606483 11.00000000
3.51553798 10.60516357 -0.58553469 12 12 1834 11.18800000 2333606485 2333606485 -3.00000000
3.12273574 9.41471291 2.29000163 64 13 1835 10.18000000 2333606487 2333606487 13.00000000
3.52290249 10.61497211 -0.19522262 8 14 1836 11.18600000 2333606490 2333606490 -1.00000000
2.77442575 8.35483456 2.35887671 45 15 1837 9.11400000 2333606492 2333606492 15.00000000
0.72105873 2.16254067 -0.61081296 4 0 1844 2.36000000 2333606513 2333606513 -15.00000000
3.54020500 10.61132240 0.19525753 13 1 1845 11.18800000 2333606515 2333606515 1.00000000
0.85091746 2.54903674 -0.62041503 3 2 1846 2.75800000 2333606517 2333606517 -13.00000000
3.54971504 10.62746906 0.58720940 13 3 1847 11.22000000 2333606520 2333606520 3.00000000
1.02936840 3.08181930 -0.63157779 2 4 1847 3.31000000 2333606522 2333606522 -11.00000000
3.54859447 10.61794662 0.97945625 12 5 1848 11.23800000 2333606524 2333606524 5.00000000
1.29303253 3.86670947 -0.64576149 2 6 1849 4.12800000 2333606527 2333606527 -9.00000000
3.55503726 10.62488651 1.37566113 12 7 1850 11.28800000 2333606529 2333606529 7.00000000
3.55248022 10.61108875 -1.37395501 2 8 1851 11.27400000 2333606531 2333606531 -7.00000000
3.56268668 10.64157581 1.77740836 12 9 1851 11.36200000 2333606533 2333606533 9.00000000
2.60799098 7.78543091 -0.71833766 4 10 1852 8.24200000 2333606536 2333606536 -5.00000000
3.32801342 9.92910290 2.03555036 43 11 1853 10.66800000 2333606538 2333606538 11.00000000
3.55380559 10.59661388 -0.58574402 12 12 1854 11.19200000 2333606540 2333606540 -3.00000000
3.11590290 9.28551483 2.26120806 57 13 1855 10.05200000 2333606543 2333606543 13.00000000
3.56438971 10.61588001 -0.19546695 10 14 1856 11.20000000 2333606545 2333606545 -1.00000000
2.80580544 8.35657597 2.36198258 45 15 1856 9.12600000 2333606547 2333606547 15.00000000
0.72983789 2.16367149 -0.61184824 4 0 1864 2.36400000 2333606568 2333606568 -15.00000000
3.57786345 10.60079479 0.19529243 13 1 1865 11.19000000 2333606570 2333606570 1.00000000
0.85981005 2.54605103 -0.62041503 3 2 1866 2.75800000 2333606573 2333606573 -13.00000000
3.58870840 10.62069035 0.58752346 10 3 1867 11.22600000 2333606575 2333606575 3.00000000
1.03383493 3.05960798 -0.62776160 2 4 1867 3.29000000 2333606577 2333606577 -11.00000000
3.59329391 10.62814426 0.98154795 12 5 1868 11.26200000 2333606580 2333606580 5.00000000
1.31221902 3.87901330 -0.64857727 2 6 1869 4.14600000 2333606582 2333606582 -9.00000000
3.59846783 10.63121510 1.37809849 14 7 1870 11.30800000 2333606584 2333606584 7.00000000
3.58949804 10.59862423 -1.37395501 2 8 1871 11.27400000 2333606586 2333606586 -7.00000000
3.60483599 10.63780022 1.77897274 12 9 1872 11.37200000 2333606589 2333606589 9.00000000
2.63387251 7.77250624 -0.71798903 4 10 1872 8.23800000 2333606591 2333606591 -5.00000000
3.36265206 9.91742516 2.03555036 43 11 1873 10.66800000 2333606593 2333606593 11.00000000
3.59462285 10.59549332 -0.58637208 12 12 1874 11.20400000 2333606596 2333606596 -3.00000000
3.10945940 9.16017246 2.23331404 60 13 1875 9.92800000 2333606598 2333606598 13.00000000
3.60271072 10.60716057 -0.19553676 10 14 1876 11.20400000 2333606600 2333606600 -1.00000000
2.83641505 8.34623623 2.36198258 42 15 1877 9.12600000 2333606603 2333606603 15.00000000
0.73114765 2.14282727 -0.60667187 4 0 1884 2.34400000 2333606623 2333606623 -15.00000000
3.62259817 10.61095047 0.19571128 13 1 1885 11.21400000 2333606626 2333606626 1.00000000
0.87247187 2.55409884 -0.62311441 3 2 1886 2.77000000 2333606628 2333606628 -13.00000000
3.63028145 10.62132835 0.58825612 13 3 1887 11.24000000 2333606630 2333606630 3.00000000
1.04577851 3.05969596 -0.62852484 2 4 1887 3.29400000 2333606633 2333606633 -11.00000000
3.62779212 10.60799599 0.98085076 12 5 1888 11.25400000 2333606635 2333606635 5.00000000
1.32511175 3.87254024 -0.64826441 2 6 1889 4.14400000 2333606637 2333606637 -9.00000000
3.63812780 10.62610149 1.37907350 12 7 1890 11.31600000 2333606639 2333606639 7.00000000
3.63805246 10.61983299 -1.37834227 2 8 1891 11.31000000 2333606642 2333606642 -7.00000000
3.64073253 10.62765694 1.77928555 12 9 1891 11.37400000 2333606644 2333606644 9.00000000
2.66292572 7.76891899 -0.71851194 4 10 1892 8.24400000 2333606646 2333606646 -5.00000000
3.39852357 9.90934181 2.03631353 43 11 1893 10.67200000 2333606649 2333606649 11.00000000
3.63677239 10.59799385 -0.58720940 12 12 1894 11.22000000 2333606651 2333606651 -3.00000000
3.10914063 9.05526352 2.21036911 54 13 1895 9.82600000 2333606653 2333606653 13.00000000
3.64101410 10.59830284 -0.19560657 10 14 1896 11.20800000 2333606656 2333606656 -1.00000000
2.86658716 8.34409332 2.36405325 38 15 1896 9.13400000 2333606658 2333606658 15.00000000
0.73988348 2.14391422 -0.60770714 4 0 1904 2.34800000 2333606679 2333606679 -15.00000000
3.66026807 10.60013103 0.19574618 13 1 1905 11.21600000 2333606681 2333606681 1.00000000
0.88201839 2.55287981 -0.62356430 3 2 1906 2.77200000 2333606683 2333606683 -13.00000000
3.67255497 10.62369251 0.58909351 13 3 1907 11.25600000 2333606686 2333606686 3.00000000
1.05645251 3.05602694 -0.62852484 2 4 1907 3.29400000 2333606688 2333606688 -11.00000000
3.66740417 10.60279942 0.98154795 12 5 1908 11.26200000 2333606690 2333606690 5.00000000
1.33474505 3.85669065 -0.64638722 4 6 1909 4.13200000 2333606692 2333606692 -9.00000000
3.68299246 10.63584709 1.38199830 12 7 1910 11.34000000 2333606695 2333606695 7.00000000
3.67510033 10.60706902 -1.37834227 2 8 1911 11.31000000 2333606697 2333606697 -7.00000000
3.68298149 10.62981510 1.78178859 12 9 1911 11.39000000 2333606699 2333606699 9.00000000
2.67893386 7.72757435 -0.71554863 4 10 1912 8.21000000 2333606702 2333606702 -5.00000000
3.43180633 9.89370823 2.03555036 46 11 1913 10.66800000 2333606704 2333606704 11.00000000
3.67767334 10.59655571 -0.58783746 12 12 1914 11.23200000 2333606706 2333606706 -3.00000000
3.10684919 8.94678688 2.18652415 64 13 1915 9.72000000 2333606709 2333606709 13.00000000
3.68323731 10.60064030 -0.19588581 10 14 1916 11.22400000 2333606711 2333606711 -1.00000000
2.39353037 6.88876390 1.95408380 9 15 1916 7.55000000 2333606713 2333606713 15.00000000
0.74953401 2.14874530 -0.60977769 4 0 1923 2.35600000 2333606734 2333606734 -15.00000000
3.69869399 10.59737492 0.19592072 13 1 1924 11.22600000 2333606736 2333606736 1.00000000
0.88855177 2.54442143 -0.62221462 3 2 1925 2.76600000 2333606739 2333606739 -13.00000000
3.71171713 10.62276840 0.58972156 13 3 1926 11.26800000 2333606741 2333606741 3.00000000
1.06917119 3.05992031 -0.63005131 2 4 1926 3.30200000 2333606743 2333606743 -11.00000000
3.71043444 10.61314869 0.98363972 12 5 1927 11.28600000 2333606745 2333606745 5.00000000
1.34687471 3.85037875 -0.64607435 2 6 1928 4.13000000 2333606748 2333606748 -9.00000000
3.71955347 10.62732315 1.38248587 12 7 1929 11.34400000 2333606750 2333606750 7.00000000
3.71681547 10.61355877 -1.38077962 2 8 1930 11.33000000 2333606752 2333606752 -7.00000000
3.72659612 10.63553715 1.78491724 12 9 1931 11.41000000 2333606755 2333606755 9.00000000
2.71310949 7.74309206 -0.71781468 4 10 1931 8.23600000 2333606757 2333606757 -5.00000000
3.46459603 9.88227367 2.03555036 46 11 1932 10.66800000 2333606759 2333606759 11.00000000
3.71147013 10.58053207 -0.58762813 12 12 1933 11.22800000 2333606762 2333606762 -3.00000000
3.10939527 8.85920715 2.16762829 57 13 1934 9.63600000 2333606764 2333606764 13.00000000
3.72367072 10.60346127 -0.19616506 10 14 1935 11.24000000 2333606766 2333606766 -1.00000000
2.42084169 6.89354801 1.95770729 9 15 1935 7.56400000 2333606768 2333606768 15.00000000
0.75702995 2.14611578 -0.60977769 4 0 1943 2.35600000 2333606789 2333606789 -15.00000000
3.74098754 10.59948540 0.19619995 13 1 1944 11.24200000 2333606792 2333606792 1.00000000
0.89353466 2.53027916 -0.61951518 3 2 1945 2.75400000 2333606794 2333606794 -13.00000000
3.75276709 10.62104607 0.59034961 13 3 1946 11.28000000 2333606796 2333606796 3.00000000
1.08246207 3.06357408 -0.63157779 2 4 1946 3.31000000 2333606798 2333606798 -11.00000000
3.75609183 10.62455177 0.98590577 12 5 1947 11.31200000 2333606801 2333606801 5.00000000
1.36228311 3.85124063 -0.64701295 4 6 1948 4.13600000 2333606803 2333606803 -9.00000000
3.75927615 10.62175941 1.38346076 12 7 1949 11.35200000 2333606805 2333606805 7.00000000
3.75384092 10.60052013 -1.38077962 2 8 1950 11.33000000 2333606808 2333606808 -7.00000000
3.76765680 10.63363552 1.78679442 12 9 1951 11.42200000 2333606810 2333606810 9.00000000
2.74344850 7.74296427 -0.71868628 4 10 1951 8.24600000 2333606812 2333606812 -5.00000000
3.49907064 9.87012005 2.03555036 40 11 1952 10.66800000 2333606815 2333606815 11.00000000
3.75171900 10.57692432 -0.58815145 12 12 1953 11.23800000 2333606817 2333606817 -3.00000000
3.08880973 8.70321465 2.13208604 14 13 1954 9.47800000 2333606819 2333606819 13.00000000
3.76601410 10.60547447 -0.19644429 10 14 1955 11.25600000 2333606821 2333606821 -1.00000000
2.45514631 6.91011381 1.96495414 6 15 1956 7.59200000 2333606824 2333606824 15.00000000
0.76841068 2.15437770 -0.61288351 4 0 1963 2.36800000 2333606845 2333606845 -15.00000000
3.78065228 10.59389496 0.19633958 13 1 1964 11.25000000 2333606847 2333606847 1.00000000
0.90498275 2.53448582 -0.62131482 3 2 1965 2.76200000 2333606849 2333606849 -13.00000000
3.78914666 10.60600090 0.59024489 10 3 1966 11.27800000 2333606851 2333606851 3.00000000
1.09182835 3.05607915 -0.63081455 2 4 1966 3.30600000 2333606854 2333606854 -11.00000000
3.79852057 10.62638569 0.98730028 12 5 1967 11.32800000 2333606856 2333606856 5.00000000
1.38037491 3.85948181 -0.64920300 4 6 1968 4.15000000 2333606858 2333606858 -9.00000000
3.80168080 10.62352467 1.38541067 12 7 1969 11.36800000 2333606861 2333606861 7.00000000
3.79483581 10.59856510 -1.38224208 2 8 1970 11.34200000 2333606863 2333606863 -7.00000000
3.80808330 10.62971783 1.78835881 12 9 1971 11.43200000 2333606865 2333606865 9.00000000
2.77314758 7.74084330 -0.71938348 4 10 1971 8.25400000 2333606868 2333606868 -5.00000000
3.53350234 9.85784531 2.03555036 43 11 1972 10.66800000 2333606870 2333606870 11.00000000
3.79063916 10.56940365 -0.58846551 12 12 1973 11.24400000 2333606872 2333606872 -3.00000000
2.99937987 8.35855103 2.05020380 7 13 1974 9.11400000 2333606874 2333606874 13.00000000
3.80503845 10.59790993 -0.19654900 10 14 1975 11.26200000 2333606877 2333606877 -1.00000000
2.48392296 6.91829824 1.96961296 9 15 1975 7.61000000 2333606879 2333606879 15.00000000
0.77199411 2.14077854 -0.60977769 4 0 1983 2.35600000 2333606900 2333606900 -15.00000000
3.82575297 10.60320568 0.19675843 13 1 1984 11.27400000 2333606902 2333606902 1.00000000
0.91647112 2.53864312 -0.62311441 3 2 1985 2.77000000 2333606904 2333606904 -13.00000000
3.83360910 10.61337280 0.59139633 10 3 1986 11.30000000 2333606907 2333606907 3.00000000
1.09315193 3.02639842 -0.62547189 2 4 1986 3.27800000 2333606909 2333606909 -11.00000000
3.83829927 10.62055588 0.98799747 12 5 1987 11.33600000 2333606911 2333606911 5.00000000
1.38980818 3.84349394 -0.64732581 4 6 1988 4.13800000 2333606914 2333606914 -9.00000000
3.84684515 10.63259029 1.38833559 10 7 1989 11.39200000 2333606916 2333606916 7.00000000
3.83045721 10.58152103 -1.38175464 2 8 1990 11.33800000 2333606918 2333606918 -7.00000000
3.84583735 10.61821747 1.78867173 12 9 1991 11.43400000 2333606921 2333606921 9.00000000
2.79879427 7.72736931 -0.71903485 4 10 1991 8.25000000 2333606923 2333606923 -5.00000000
3.56922889 9.84914303 2.03631353 43 11 1992 10.67200000 2333606925 2333606925 11.00000000
3.83431840 10.57488441 -0.58951223 12 12 1993 11.26400000 2333606927 2333606927 -3.00000000
3.05113435 8.41031551 2.06550050 12 13 1994 9.18200000 2333606930 2333606930 13.00000000
3.84405589 10.59020233 -0.19665371 10 14 1995 11.26800000 2333606932 2333606932 -1.00000000
2.50805712 6.90958548 1.96961296 13 15 1995 7.61000000 2333606934 2333606934 15.00000000
0.77681535 2.13081074 -0.60770714 4 0 2003 2.34800000 2333606955 2333606955 -15.00000000
3.86479759 10.59542274 0.19686314 13 1 2004 11.28000000 2333606957 2333606957 1.00000000
0.92532706 2.53542852 -0.62311441 3 2 2005 2.77000000 2333606960 2333606960 -13.00000000
3.87357640 10.61373520 0.59212899 10 3 2005 11.31400000 2333606962 2333606962 3.00000000
1.11044335 3.04100585 -0.62928808 2 4 2006 3.29800000 2333606964 2333606964 -11.00000000
3.87398100 10.60335064 0.98764890 12 5 2007 11.33200000 2333606967 2333606967 5.00000000
1.40864170 3.85346174 -0.64982879 4 6 2008 4.15400000 2333606969 2333606969 -9.00000000
3.88802743 10.63028336 1.38979805 12 7 2009 11.40400000 2333606971 2333606971 7.00000000
1.89309454 5.17312384 -0.67637485 2 8 2010 5.55000000 2333606973 2333606973 -7.00000000
3.88849497 10.62581158 1.79211318 12 9 2010 11.45600000 2333606976 2333606976 9.00000000
2.82164049 7.70632744 -0.71798903 4 10 2011 8.23800000 2333606978 2333606978 -5.00000000
3.60088587 9.82925034 2.03478718 46 11 2012 10.66400000 2333606980 2333606980 11.00000000
3.87945652 10.58393860 -0.59076828 12 12 2013 11.28800000 2333606983 2333606983 -3.00000000
3.08919597 8.42339897 2.07134938 17 13 2014 9.20800000 2333606985 2333606985 13.00000000
3.88719869 10.59361553 -0.19696786 10 14 2015 11.28600000 2333606987 2333606987 -1.00000000
2.52949882 6.89353418 1.96754241 15 15 2015 7.60200000 2333606990 2333606990 15.00000000
0.78424853 2.12808609 -0.60770714 4 0 2023 2.34800000 2333607010 2333607010 -15.00000000
3.90452623 10.58937263 0.19700277 13 1 2024 11.28800000 2333607013 2333607013 1.00000000
0.93214822 2.52669835 -0.62176472 3 2 2025 2.76400000 2333607015 2333607015 -13.00000000
3.91660142 10.61070919 0.59275705 13 3 2026 11.32600000 2333607017 2333607017 3.00000000
1.11969197 3.03342748 -0.62852484 2 4 2026 3.29400000 2333607020 2333607020 -11.00000000
3.91718245 10.60658455 0.98921770 12 5 2027 11.35000000 2333607022 2333607022 5.00000000
1.41660678 3.83369780 -0.64732581 4 6 2028 4.13800000 2333607024 2333607024 -9.00000000
3.93061757 10.63154221 1.39174795 10 7 2029 11.42000000 2333607026 2333607026 7.00000000
1.90838575 5.15903711 -0.67539990 2 8 2030 5.54200000 2333607029 2333607029 -7.00000000
3.93289948 10.62630844 1.79461622 12 9 2031 11.47200000 2333607031 2333607031 9.00000000
2.85613060 7.71698475 -0.71990645 8 10 2031 8.26000000 2333607033 2333607033 -5.00000000
3.63381076 9.81293869 2.03402400 43 11 2032 10.66000000 2333607036 2333607036 11.00000000
3.92054105 10.58156967 -0.59139633 12 12 2033 11.30000000 2333607038 2333607038 -3.00000000
3.11587095 8.40525532 2.06954980 51 13 2034 9.20000000 2333607040 2333607040 13.00000000
3.92902160 10.59310627 -0.19721219 10 14 2035 11.30000000 2333607043 2333607043 -1.00000000
2.55810857 6.89327288 1.97013056 18 15 2036 7.61200000 2333607045 2333607045 15.00000000
0.79564619 2.13828588 -0.61133057 4 0 2041 2.36200000 2333607066 2333607066 -15.00000000
3.94475126 10.59579372 0.19735181 13 1 2042 11.30800000 2333607068 2333607068 1.00000000
0.93940121 2.52193117 -0.62131482 3 2 2043 2.76200000 2333607070 2333607070 -13.00000000
3.95503831 10.61775780 0.59380376 13 3 2043 11.34600000 2333607073 2333607073 3.00000000
1.13744366 3.05197072 -0.63310426 2 4 2044 3.31800000 2333607075 2333607075 -11.00000000
3.95605350 10.60916042 0.99061215 12 5 2045 11.36600000 2333607077 2333607077 5.00000000
1.42588162 3.82182550 -0.64607435 4 6 2046 4.13000000 2333607079 2333607079 -9.00000000
3.96399808 10.61914158 1.39174795 14 7 2047 11.42000000 2333607082 2333607082 7.00000000
1.91624939 5.13070059 -0.67247504 2 8 2048 5.51800000 2333607084 2333607084 -7.00000000
3.97525263 10.63795567 1.79868352 12 9 2049 11.49800000 2333607086 2333607086 9.00000000
2.86780643 7.67437983 -0.71676880 4 10 2049 8.22400000 2333607089 2333607089 -5.00000000
3.66599607 9.80515194 2.03478718 43 11 2050 10.66400000 2333607091 2333607091 11.00000000
3.95516419 10.57294178 -0.59160566 12 12 2051 11.30400000 2333607093 2333607093 -3.00000000
3.14021206 8.38994980 2.06820011 55 13 2052 9.19400000 2333607096 2333607096 13.00000000
3.97139812 10.60505581 -0.19766596 12 14 2053 11.32600000 2333607098 2333607098 -1.00000000
2.58397007 6.90012550 1.97427166 18 15 2053 7.62800000 2333607100 2333607100 15.00000000
0.80514544 2.14092016 -0.61288351 4 0 2061 2.36800000 2333607121 2333607121 -15.00000000
3.98875570 10.60067558 0.19770086 13 1 2062 11.32800000 2333607123 2333607123 1.00000000
0.95094508 2.52593184 -0.62311441 3 2 2063 2.77000000 2333607125 2333607125 -13.00000000
3.99207711 10.60388756 0.59380376 10 3 2063 11.34600000 2333607128 2333607128 3.00000000
1.13563347 3.01491141 -0.62623513 4 4 2064 3.28200000 2333607130 2333607130 -11.00000000
3.99868345 10.61020184 0.99200666 12 5 2065 11.38200000 2333607132 2333607132 5.00000000
1.43781972 3.81312823 -0.64544863 4 6 2066 4.12600000 2333607135 2333607135 -9.00000000
4.00804853 10.62381268 1.39418530 12 7 2067 11.44000000 2333607137 2333607137 7.00000000
1.93344617 5.12212324 -0.67223132 4 8 2068 5.51600000 2333607139 2333607139 -7.00000000
4.01445580 10.62955856 1.79962206 12 9 2069 11.50400000 2333607142 2333607142 9.00000000
2.90372872 7.68855286 -0.71903485 4 10 2069 8.25000000 2333607144 2333607144 -5.00000000
3.70158815 9.79596901 2.03555036 43 11 2070 10.66800000 2333607146 2333607146 11.00000000
4.00476027 10.59269905 -0.59348977 4 12 2071 11.34000000 2333607149 2333607149 -3.00000000
3.16878986 8.37711430 2.06774998 62 13 2072 9.19200000 2333607151 2333607151 13.00000000
4.00626898 10.58551788 -0.19756123 6 14 2073 11.32000000 2333607153 2333607153 -1.00000000
2.61009169 6.89648438 1.97582459 18 15 2073 7.63400000 2333607155 2333607155 15.00000000
0.80712306 2.12364984 -0.60874242 4 0 2081 2.35200000 2333607176 2333607176 -15.00000000
0.95975643 2.52259707 -0.62311441 3 2 2083 2.77000000 2333607181 2333607181 -13.00000000
4.05436373 10.65078259 0.59725791 2 3 2084 11.41200000 2333607183 2333607183 3.00000000
1.14754748 3.01459837 -0.62699836 2 4 2084 3.28600000 2333607185 2333607185 -11.00000000
1.45815527 3.82654500 -0.64857727 4 6 2086 4.14600000 2333607190 2333607190 -9.00000000
1.95768154 5.13203573 -0.67442495 2 8 2088 5.53400000 2333607195 2333607195 -7.00000000
2.93694305 7.69512320 -0.72060370 4 10 2089 8.26800000 2333607199 2333607199 -5.00000000
3.73716068 9.78665638 2.03631353 50 11 2090 10.67200000 2333607202 2333607202 11.00000000
3.19662046 8.36236191 2.06685019 60 13 2092 9.18800000 2333607206 2333607206 13.00000000
2.63673186 6.89048004 1.97685981 20 15 2094 7.63800000 2333607211 2333607211 15.00000000
0.81453109 2.12081957 -0.60874242 4 0 2101 2.35200000 2333607231 2333607231 -15.00000000
0.96995473 2.52286935 -0.62401420 3 2 2103 2.77400000 2333607236 2333607236 -13.00000000
1.16229248 3.02156854 -0.62928808 4 4 2104 3.29800000 2333607241 2333607241 -11.00000000
1.47718227 3.83617926 -0.65108025 2 6 2106 4.16200000 2333607245 2333607245 -9.00000000
1.97915363 5.13443184 -0.67564362 2 8 2108 5.54400000 2333607250 2333607250 -7.00000000
2.95661688 7.66623497 -0.71886057 4 10 2109 8.24800000 2333607255 2333607255 -5.00000000
3.76705909 9.76256180 2.03402400 46 11 2110 10.66000000 2333607257 2333607257 11.00000000
3.22438669 8.34751701 2.06595039 60 13 2112 9.18400000 2333607261 2333607261 13.00000000
2.66146469 6.88303614 1.97737753 18 15 2114 7.64000000 2333607266 2333607266 15.00000000
0.82369727 2.12142158 -0.60977769 4 0 2122 2.35600000 2333607287 2333607287 -15.00000000
0.97495914 2.50839925 -0.62131482 3 2 2124 2.76200000 2333607291 2333607291 -13.00000000
1.17335927 3.01728821 -0.62928808 4 4 2125 3.29800000 2333607296 2333607296 -11.00000000
1.48406672 3.81233120 -0.64795154 2 6 2127 4.14200000 2333607301 2333607301 -9.00000000
1.99363434 5.11604595 -0.67418122 2 8 2129 5.53200000 2333607305 2333607305 -7.00000000
2.98107648 7.64606571 -0.71798903 4 10 2130 8.23800000 2333607310 2333607310 -5.00000000
3.79996157 9.74137306 2.03249741 43 11 2131 10.65200000 2333607312 2333607312 11.00000000
3.26204848 8.35379505 2.07044959 60 13 2133 9.20400000 2333607317 2333607317 13.00000000
2.69370770 6.89122772 1.98255384 15 15 2135 7.66000000 2333607321 2333607321 15.00000000
0.83250844 2.12213039 -0.61081296 4 0 2142 2.36000000 2333607342 2333607342 -15.00000000
0.98513377 2.50860858 -0.62221462 3 2 2144 2.76600000 2333607347 2333607347 -13.00000000
1.18244851 3.00951958 -0.62852484 2 4 2145 3.29400000 2333607351 2333607351 -11.00000000
1.49664223 3.80528927 -0.64763868 2 6 2147 4.14000000 2333607356 2333607356 -9.00000000
2.02384329 5.14045620 -0.67832476 2 8 2149 5.56600000 2333607361 2333607361 -7.00000000
3.02235222 7.67268801 -0.72147524 4 10 2150 8.27800000 2333607365 2333607365 -5.00000000
3.83394194 9.72804928 2.03249741 43 11 2151 10.65200000 2333607367 2333607367 11.00000000
3.28832817 8.33510685 2.06865001 59 13 2153 9.19600000 2333607372 2333607372 13.00000000
2.72271323 6.89436054 1.98617733 13 15 2155 7.67400000 2333607377 2333607377 15.00000000
0.83848739 2.11561966 -0.60977769 4 0 2162 2.35600000 2333607397 2333607397 -15.00000000
0.99675900 2.51239991 -0.62401420 3 2 2164 2.77400000 2333607402 2333607402 -13.00000000
1.19729233 3.01632237 -0.63081455 4 4 2165 3.30600000 2333607407 2333607407 -11.00000000
1.51575136 3.81472802 -0.65014166 2 6 2167 4.15600000 2333607411 2333607411 -9.00000000
2.03590512 5.11860418 -0.67637485 2 8 2169 5.55000000 2333607416 2333607416 -7.00000000
3.04616976 7.65468693 -0.72077799 4 10 2170 8.27000000 2333607420 2333607420 -5.00000000
3.86787581 9.71460724 2.03249741 46 11 2171 10.65200000 2333607423 2333607423 11.00000000
3.31307435 8.31271553 2.06595039 60 13 2173 9.18400000 2333607427 2333607427 13.00000000
2.74913859 6.89426613 1.98876560 9 15 2174 7.68400000 2333607432 2333607432 15.00000000
0.85017550 2.12344050 -0.61288351 4 0 2182 2.36800000 2333607453 2333607453 -15.00000000
1.00407290 2.50528765 -0.62311441 3 2 2184 2.77000000 2333607457 2333607457 -13.00000000
1.20489132 3.00483561 -0.62928808 2 4 2185 3.29800000 2333607462 2333607462 -11.00000000
1.53126562 3.81491351 -0.65108025 2 6 2187 4.16200000 2333607466 2333607466 -9.00000000
2.05079961 5.10409832 -0.67539990 2 8 2189 5.54200000 2333607471 2333607471 -7.00000000
3.06469655 7.62367201 -0.71886057 4 10 2190 8.24800000 2333607476 2333607476 -5.00000000
3.90322781 9.70468998 2.03326058 43 11 2191 10.65600000 2333607478 2333607478 11.00000000
3.34352636 8.30471611 2.06685019 59 13 2193 9.18800000 2333607483 2333607483 13.00000000
2.77583313 6.88772726 1.98980081 9 15 2195 7.68800000 2333607487 2333607487 15.00000000
0.84816653 2.09717774 -0.60615420 4 0 2202 2.34200000 2333607508 2333607508 -15.00000000
1.01427448 2.50538015 -0.62401420 3 2 2204 2.77400000 2333607513 2333607513 -13.00000000
1.21684682 3.00425076 -0.63005131 4 4 2205 3.30200000 2333607517 2333607517 -11.00000000
1.53789270 3.79306936 -0.64826441 2 6 2207 4.14400000 2333607522 2333607522 -9.00000000
2.06561780 5.08955097 -0.67442495 2 8 2209 5.53400000 2333607526 2333607526 -7.00000000
3.09128952 7.61292791 -0.71886057 4 10 2210 8.24800000 2333607531 2333607531 -5.00000000
3.93560195 9.68736744 2.03249741 43 11 2211 10.65200000 2333607533 2333607533 11.00000000
3.37543130 8.30021477 2.06865001 60 13 2213 9.19600000 2333607538 2333607538 13.00000000
3.00105882 7.37593985 2.13370419 27 15 2214 8.24400000 2333607543 2333607543 15.00000000
0.86059576 2.10672307 -0.60977769 4 0 2222 2.35600000 2333607563 2333607563 -15.00000000
1.01711309 2.48739433 -0.62041503 3 2 2224 2.75800000 2333607568 2333607568 -13.00000000
1.22732627 2.99998498 -0.63005131 4 4 2225 3.30200000 2333607572 2333607572 -11.00000000
1.55486667 3.79681826 -0.64982879 2 6 2227 4.15400000 2333607577 2333607577 -9.00000000
2.09391212 5.10802460 -0.67783731 2 8 2229 5.56200000 2333607582 2333607582 -7.00000000
3.13296533 7.63895845 -0.72234678 4 10 2230 8.28800000 2333607586 2333607586 -5.00000000
3.96641207 9.66630554 2.03097105 46 11 2231 10.64400000 2333607589 2333607589 11.00000000
3.40586472 8.29198742 2.06954980 59 13 2233 9.20000000 2333607593 2333607593 13.00000000
3.06847644 7.46316099 2.16217422 36 15 2235 8.35400000 2333607598 2333607598 15.00000000
0.87089151 2.11084962 -0.61184824 4 0 2242 2.36400000 2333607619 2333607619 -15.00000000
1.02876496 2.49103332 -0.62221462 3 2 2244 2.76600000 2333607623 2333607623 -13.00000000
1.23929012 2.99931145 -0.63081455 2 4 2245 3.30600000 2333607628 2333607628 -11.00000000
1.56660068 3.78771663 -0.64920300 2 6 2247 4.15000000 2333607632 2333607632 -9.00000000
