# .PCD v0.7 - Point Cloud Data file format
VERSION 0.7
FIELDS x y z intensity laser_id azimuth distance_m adjustedtime timestamp vertical_angle
SIZE 4 4 4 1 1 2 8 8 4 8
TYPE F F F U U U F U U F
COUNT 1 1 1 1 1 1 1 1 1 1
WIDTH 517
HEIGHT 1
VIEWPOINT 0 0 0 1 0 0 0
POINTS 517
DATA ascii
-0.01599996 -1.83341396 -0.09608882 100 12 18050 1.83600000 2429251173 2429251173 -3.00000000
-0.10483836 -11.77771854 2.71920824 48 13 18051 12.08800000 2429251175 2429251175 13.00000000
-0.01658765 -1.82764626 -0.03190300 48 14 18052 1.82800000 2429251178 2429251178 -1.00000000
-0.09138037 -10.06839657 2.69792962 47 15 18052 10.42400000 2429251180 2429251180 15.00000000
-0.01590073 -1.51835215 -0.40686354 42 0 18060 1.57200000 2429251201 2429251201 -15.00000000
-0.01945849 -1.82761800 0.03190300 3 1 18061 1.82800000 2429251203 2429251203 1.00000000
-0.01773416 -1.63879454 -0.37836766 28 2 18062 1.68200000 2429251205 2429251205 -13.00000000
-0.01808963 -1.64510775 -0.31979588 66 4 18063 1.67600000 2429251210 2429251210 -11.00000000
-0.01965309 -1.73229384 -0.27438605 23 6 18065 1.75400000 2429251214 2429251214 -9.00000000
-0.20782124 -17.77124977 2.81488180 41 9 18067 17.99400000 2429251221 2429251221 9.00000000
-0.02165937 -1.82490015 -0.15966932 100 10 18068 1.83200000 2429251224 2429251224 -5.00000000
-0.14294226 -11.86897564 2.30726242 31 11 18069 12.09200000 2429251226 2429251226 11.00000000
-0.02254608 -1.84532964 -0.09671684 100 12 18070 1.84800000 2429251228 2429251228 -3.00000000
-0.14599793 -11.78117847 2.72010803 48 13 18071 12.09200000 2429251231 2429251231 13.00000000
-0.02231389 -1.77558935 -0.03099547 61 14 18072 1.77600000 2429251233 2429251233 -1.00000000
-0.12654935 -10.06994724 2.69844747 47 15 18072 10.42600000 2429251235 2429251235 15.00000000
-0.02088241 -1.51442778 -0.40582827 40 0 18079 1.56800000 2429251256 2429251256 -15.00000000
-0.02305830 -1.63093245 -0.37656808 30 2 18081 1.67400000 2429251261 2429251261 -13.00000000
-0.02351681 -1.64307559 -0.31941426 66 4 18082 1.67400000 2429251265 2429251265 -11.00000000
-0.02720264 -1.81218517 -0.22253342 87 8 18086 1.82600000 2429251274 2429251274 -7.00000000
-0.27024311 -17.79609299 2.81894898 33 9 18087 18.02000000 2429251277 2429251277 9.00000000
-0.02755958 -1.81485748 -0.15879776 100 10 18087 1.82200000 2429251279 2429251279 -5.00000000
-0.18211950 -11.85665798 2.30497265 31 11 18088 12.08000000 2429251281 2429251281 11.00000000
-0.02835506 -1.82527459 -0.09567013 94 12 18089 1.82800000 2429251284 2429251284 -3.00000000
-0.18524857 -11.79232025 2.72280765 48 13 18090 12.10400000 2429251286 2429251286 13.00000000
-0.02823359 -1.77750504 -0.03103038 86 14 18091 1.77800000 2429251288 2429251288 -1.00000000
-0.16009521 -10.07913017 2.70103550 45 15 18091 10.43600000 2429251290 2429251290 15.00000000
-0.02643565 -1.52979815 -0.40996936 40 0 18099 1.58400000 2429251311 2429251311 -15.00000000
-0.02881988 -1.63473892 -0.37746787 28 2 18101 1.67800000 2429251316 2429251316 -13.00000000
-0.02939187 -1.65083528 -0.32094073 61 4 18102 1.68200000 2429251320 2429251320 -11.00000000
-0.02975613 -1.62353289 0.19937825 1 7 18105 1.63600000 2429251327 2429251327 7.00000000
-0.03367507 -1.82001817 -0.22350837 90 8 18106 1.83400000 2429251330 2429251330 -7.00000000
-0.33247209 -17.80096626 2.81988764 16 9 18107 18.02600000 2429251332 2429251332 9.00000000
-0.03396885 -1.81873429 -0.15914638 100 10 18107 1.82600000 2429251334 2429251334 -5.00000000
-0.22350585 -11.85594940 2.30497265 25 11 18108 12.08000000 2429251337 2429251337 11.00000000
-0.03377644 -1.77524197 -0.09305333 81 12 18109 1.77800000 2429251339 2429251339 -3.00000000
-0.22637291 -11.78965378 2.72235775 53 13 18110 12.10200000 2429251341 2429251341 13.00000000
-0.03455428 -1.78339362 -0.03113509 79 14 18111 1.78400000 2429251343 2429251343 -1.00000000
-0.19703600 -10.07847595 2.70103550 42 15 18112 10.43600000 2429251346 2429251346 15.00000000
-0.03196154 -1.52582812 -0.40893409 42 0 18120 1.58000000 2429251367 2429251367 -15.00000000
-0.03830025 -1.81331933 0.03165866 88 1 18121 1.81400000 2429251369 2429251369 1.00000000
-0.03485280 -1.63657069 -0.37791777 25 2 18122 1.68000000 2429251371 2429251371 -13.00000000
-0.03531585 -1.64482808 -0.31979588 54 4 18123 1.67600000 2429251376 2429251376 -11.00000000
-0.03410483 -1.57561100 0.13788038 2 5 18124 1.58200000 2429251378 2429251378 5.00000000
-0.03899882 -1.78729045 -0.28314638 86 6 18125 1.81000000 2429251380 2429251380 -9.00000000
-0.03413504 -1.55196679 0.19060366 1 7 18126 1.56400000 2429251383 2429251383 7.00000000
-0.03968558 -1.79011345 -0.21985230 86 8 18127 1.80400000 2429251385 2429251385 -7.00000000
-0.39793429 -17.80950165 2.82145190 12 9 18128 18.03600000 2429251387 2429251387 9.00000000
-0.04085715 -1.82855701 -0.16001794 85 10 18128 1.83600000 2429251390 2429251390 -5.00000000
-0.26731217 -11.87075329 2.30802560 28 11 18129 12.09600000 2429251392 2429251392 11.00000000
-0.03996561 -1.76112914 -0.09232063 100 12 18130 1.76400000 2429251394 2429251394 -3.00000000
-0.26949352 -11.78484821 2.72145796 50 13 18131 12.09800000 2429251396 2429251396 13.00000000
-0.04109051 -1.78325498 -0.03113509 69 14 18132 1.78400000 2429251399 2429251399 -1.00000000
-0.23248225 -10.08931446 2.70414138 42 15 18132 10.44800000 2429251401 2429251401 15.00000000
-0.03724028 -1.52377594 -0.40841645 43 0 18140 1.57800000 2429251422 2429251422 -15.00000000
-0.04448206 -1.80717731 0.03155395 72 1 18141 1.80800000 2429251424 2429251424 1.00000000
-0.04104820 -1.65592039 -0.38241678 27 2 18142 1.70000000 2429251426 2429251426 -13.00000000
-0.04140012 -1.65843332 -0.32246721 52 4 18143 1.69000000 2429251431 2429251431 -11.00000000
-0.03935418 -1.56552351 0.13700883 6 5 18144 1.57200000 2429251433 2429251433 5.00000000
-0.04573725 -1.80689085 -0.28627506 77 6 18145 1.83000000 2429251436 2429251436 -9.00000000
-0.03975452 -1.55977607 0.19157861 1 7 18146 1.57200000 2429251438 2429251438 7.00000000
-0.04613770 -1.79790175 -0.22082725 77 8 18147 1.81200000 2429251440 2429251440 -7.00000000
-0.46096596 -17.84157372 2.82677078 4 9 18148 18.07000000 2429251443 2429251443 9.00000000
-0.04698246 -1.81844473 -0.15914638 64 10 18148 1.82600000 2429251445 2429251445 -5.00000000
-0.30884930 -11.87367249 2.30878878 25 11 18149 12.10000000 2429251447 2429251447 11.00000000
-0.04632198 -1.76896513 -0.09273931 100 12 18150 1.77200000 2429251449 2429251449 -3.00000000
-0.31078273 -11.78967953 2.72280765 50 13 18151 12.10400000 2429251452 2429251452 13.00000000
-0.04699672 -1.77110672 -0.03092567 67 14 18152 1.77200000 2429251454 2429251454 -1.00000000
-0.26759663 -10.08457947 2.70310616 45 15 18152 10.44400000 2429251456 2429251456 15.00000000
-0.04213229 -1.51785076 -0.40686354 39 0 18159 1.57200000 2429251477 2429251477 -15.00000000
-0.05002796 -1.79102850 0.03127471 53 1 18160 1.79200000 2429251479 2429251479 1.00000000
-0.04703197 -1.67330694 -0.38646591 28 2 18161 1.71800000 2429251482 2429251482 -13.00000000
-0.04489216 -1.59717643 0.08373753 1 3 18161 1.60000000 2429251484 2429251484 3.00000000
-0.04767649 -1.68576145 -0.32780984 49 4 18162 1.71800000 2429251486 2429251486 -11.00000000
-0.04477213 -1.57335067 0.13770607 22 5 18163 1.58000000 2429251489 2429251489 5.00000000
-0.05144619 -1.79685640 -0.28471074 82 6 18164 1.82000000 2429251491 2429251491 -9.00000000
-0.04452659 -1.54574573 0.18987244 3 7 18165 1.55800000 2429251493 2429251493 7.00000000
-0.05307709 -1.83147120 -0.22497080 62 8 18166 1.84600000 2429251495 2429251495 -7.00000000
-0.05127047 -1.75853264 -0.15391704 94 10 18167 1.76600000 2429251500 2429251500 -5.00000000
-0.34822214 -11.87258339 2.30878878 21 11 18168 12.10000000 2429251502 2429251502 11.00000000
-0.05218783 -1.76880181 -0.09273931 100 12 18169 1.77200000 2429251505 2429251505 -3.00000000
-0.35028169 -11.80221939 2.72595692 51 13 18170 12.11800000 2429251507 2429251507 13.00000000
-0.05275032 -1.76694345 -0.03085585 64 14 18171 1.76800000 2429251509 2429251509 -1.00000000
-0.30086389 -10.07784367 2.70155311 47 15 18171 10.43800000 2429251512 2429251512 15.00000000
-0.04755101 -1.52155626 -0.40789881 40 0 18179 1.57600000 2429251532 2429251532 -15.00000000
-0.05609107 -1.78484678 0.03117000 86 1 18180 1.78600000 2429251535 2429251535 1.00000000
-0.05268796 -1.66728926 -0.38511622 31 2 18181 1.71200000 2429251537 2429251537 -13.00000000
-0.05157042 -1.62295246 0.08509827 14 3 18182 1.62600000 2429251539 2429251539 3.00000000
-0.05798762 -1.82490551 -0.35490474 54 4 18182 1.86000000 2429251542 2429251542 -11.00000000
-0.05007299 -1.56721067 0.13718314 40 5 18183 1.57400000 2429251544 2429251544 5.00000000
-0.05797178 -1.80456340 -0.28596219 77 6 18184 1.82800000 2429251546 2429251546 -9.00000000
-0.04940930 -1.52970839 0.18792252 5 7 18185 1.54200000 2429251548 2429251548 7.00000000
-0.06017853 -1.85309935 -0.22765194 70 8 18186 1.86800000 2429251551 2429251551 -7.00000000
-0.05773365 -1.76829958 -0.15478860 100 10 18187 1.77600000 2429251555 2429251555 -5.00000000
-0.38940543 -11.86344624 2.30726242 21 11 18188 12.09200000 2429251558 2429251558 11.00000000
-0.05809830 -1.76062417 -0.09232063 91 12 18189 1.76400000 2429251560 2429251560 -3.00000000
-0.39186466 -11.81261063 2.72865629 51 13 18190 12.13000000 2429251562 2429251562 13.00000000
-0.05865119 -1.75875425 -0.03071623 60 14 18191 1.76000000 2429251565 2429251565 -1.00000000
-0.33812264 -10.08632755 2.70414138 45 15 18192 10.44800000 2429251567 2429251567 15.00000000
-0.05339861 -1.53682649 -0.41203991 42 0 18199 1.59200000 2429251588 2429251588 -15.00000000
-0.06218143 -1.78064322 0.03110019 85 1 18200 1.78200000 2429251590 2429251590 1.00000000
-0.05837087 -1.66320014 -0.38421640 31 2 18201 1.70800000 2429251592 2429251592 -13.00000000
-0.05562106 -1.58484793 0.08310950 33 3 18201 1.58800000 2429251595 2429251595 3.00000000
-0.06511859 -1.84627438 -0.35910252 50 4 18202 1.88200000 2429251597 2429251597 -11.00000000
-0.05519040 -1.55707073 0.13631158 52 5 18203 1.56400000 2429251599 2429251599 5.00000000
-0.06518466 -1.83001363 -0.29002950 100 6 18204 1.85400000 2429251601 2429251601 -9.00000000
-0.05418060 -1.51365602 0.18597262 5 7 18205 1.52600000 2429251604 2429251604 7.00000000
-0.06621855 -1.84097517 -0.22618949 78 8 18206 1.85600000 2429251606 2429251606 -7.00000000
-0.06412172 -1.77406049 -0.15531154 100 10 18207 1.78200000 2429251611 2429251611 -5.00000000
-0.43060043 -11.85612965 2.30611753 18 11 18208 12.08600000 2429251613 2429251613 11.00000000
-0.06395231 -1.75242698 -0.09190194 100 12 18209 1.75600000 2429251615 2429251615 -3.00000000
-0.43288174 -11.80532837 2.72730660 52 13 18210 12.12400000 2429251618 2429251618 13.00000000
-0.06464278 -1.75454211 -0.03064643 79 14 18211 1.75600000 2429251620 2429251620 -1.00000000
-0.37171051 -10.08901119 2.70517659 42 15 18211 10.45200000 2429251622 2429251622 15.00000000
-0.05905810 -1.54435253 -0.41411048 48 0 18219 1.60000000 2429251643 2429251643 -15.00000000
-0.06847342 -1.78241348 0.03113509 72 1 18220 1.78400000 2429251645 2429251645 1.00000000
-0.06447675 -1.67077541 -0.38601601 26 2 18221 1.71600000 2429251647 2429251647 -13.00000000
-0.06107585 -1.58264840 0.08300482 64 3 18221 1.58600000 2429251650 2429251650 3.00000000
-0.07179104 -1.85192108 -0.36024737 30 4 18222 1.88800000 2429251652 2429251652 -11.00000000
-0.06023762 -1.54691422 0.13544002 56 5 18223 1.55400000 2429251654 2429251654 5.00000000
-0.07134058 -1.82385337 -0.28909090 100 6 18224 1.84800000 2429251657 2429251657 -9.00000000
-0.05961978 -1.51742482 0.18646009 7 7 18225 1.53000000 2429251659 2429251659 7.00000000
-0.07021765 -1.77924275 -0.21863361 46 8 18226 1.79400000 2429251661 2429251661 -7.00000000
-0.06376717 -1.60866868 0.25498816 2 9 18227 1.63000000 2429251664 2429251664 9.00000000
-0.06960371 -1.75590849 -0.15374273 100 10 18227 1.76400000 2429251666 2429251666 -5.00000000
-0.47221774 -11.86043930 2.30726242 18 11 18228 12.09200000 2429251668 2429251668 11.00000000
-0.06974982 -1.74421036 -0.09148325 100 12 18229 1.74800000 2429251671 2429251671 -3.00000000
-0.47424382 -11.80764008 2.72820640 53 13 18230 12.12800000 2429251673 2429251673 13.00000000
-0.07092808 -1.75830197 -0.03071623 79 14 18231 1.76000000 2429251675 2429251675 -1.00000000
-0.40723693 -10.09537411 2.70724726 47 15 18231 10.46000000 2429251677 2429251677 15.00000000
-0.06412630 -1.53641629 -0.41203991 42 0 18239 1.59200000 2429251698 2429251698 -15.00000000
-0.07452731 -1.77816772 0.03106528 67 1 18240 1.78000000 2429251700 2429251700 1.00000000
-0.07071818 -1.68027520 -0.38826552 26 2 18241 1.72600000 2429251703 2429251703 -13.00000000
-0.06704480 -1.58640492 0.08321417 100 3 18242 1.59000000 2429251705 2429251705 3.00000000
-0.07767473 -1.83792877 -0.35757607 22 4 18242 1.87400000 2429251707 2429251707 -11.00000000
-0.06513014 -1.53475094 0.13439415 74 5 18243 1.54200000 2429251710 2429251710 5.00000000
-0.07879986 -1.84924984 -0.29315817 91 6 18244 1.87400000 2429251712 2429251712 -9.00000000
-0.06534051 -1.52712381 0.18767878 10 7 18245 1.54000000 2429251714 2429251714 7.00000000
-0.07591672 -1.76708722 -0.21717118 76 8 18246 1.78200000 2429251717 2429251717 -7.00000000
-0.06791434 -1.58081853 0.25060803 2 9 18246 1.60200000 2429251719 2429251719 9.00000000
-0.07538909 -1.74769258 -0.15304549 100 10 18247 1.75600000 2429251721 2429251721 -5.00000000
-0.51421016 -11.87244797 2.30993366 18 11 18248 12.10600000 2429251724 2429251724 11.00000000
-0.07661876 -1.76191461 -0.09242530 85 12 18249 1.76600000 2429251726 2429251726 -3.00000000
-0.51579732 -11.81370068 2.73000598 52 13 18250 12.13600000 2429251728 2429251728 13.00000000
-0.07636467 -1.74206138 -0.03043700 95 14 18251 1.74400000 2429251730 2429251730 -1.00000000
-0.44355607 -10.07837391 2.70310616 47 15 18252 10.44400000 2429251733 2429251733 15.00000000
-0.06948900 -1.53618300 -0.41203991 34 0 18259 1.59200000 2429251753 2429251753 -15.00000000
-0.08037097 -1.76990628 0.03092567 60 1 18260 1.77200000 2429251756 2429251756 1.00000000
-0.07658301 -1.68001819 -0.38826552 27 2 18261 1.72600000 2429251758 2429251758 -13.00000000
-0.07212324 -1.58218348 0.08300482 100 3 18261 1.58600000 2429251760 2429251760 3.00000000
-0.08382060 -1.83176279 -0.35643122 15 4 18262 1.86800000 2429251763 2429251763 -11.00000000
-0.07021276 -1.52854335 0.13387123 89 5 18263 1.53600000 2429251765 2429251765 5.00000000
-0.08543643 -1.85291004 -0.29378393 76 6 18264 1.87800000 2429251767 2429251767 -9.00000000
-0.07039543 -1.52093756 0.18694757 15 7 18265 1.53400000 2429251770 2429251770 7.00000000
-0.08143966 -1.75293076 -0.21546499 81 8 18266 1.76800000 2429251772 2429251772 -7.00000000
-0.07241959 -1.55293381 0.24622785 2 9 18267 1.57400000 2429251774 2429251774 9.00000000
-0.08148922 -1.74741888 -0.15304549 100 10 18267 1.75600000 2429251777 2429251777 -5.00000000
-0.55564964 -11.87058067 2.30993366 15 11 18268 12.10600000 2429251779 2429251779 11.00000000
-0.08220611 -1.74966609 -0.09179727 100 12 18269 1.75400000 2429251781 2429251781 -3.00000000
-0.55730706 -11.81766796 2.73135567 51 13 18270 12.14200000 2429251783 2429251783 13.00000000
-0.08263423 -1.74577916 -0.03050681 95 14 18271 1.74800000 2429251786 2429251786 -1.00000000
-0.47855011 -10.07290459 2.70207071 47 15 18272 10.44000000 2429251788 2429251788 15.00000000
-0.07596826 -1.55328393 -0.41669866 30 0 18280 1.61000000 2429251809 2429251809 -15.00000000
-0.08568107 -1.74563229 0.03050681 60 1 18281 1.74800000 2429251811 2429251811 1.00000000
-0.08293181 -1.68361890 -0.38916531 27 2 18282 1.73000000 2429251813 2429251813 -13.00000000
-0.07752871 -1.57392907 0.08258614 89 3 18282 1.57800000 2429251816 2429251816 3.00000000
-0.09033991 -1.82752156 -0.35566798 15 4 18283 1.86400000 2429251818 2429251818 -11.00000000
-0.07551853 -1.52230585 0.13334829 87 5 18284 1.53000000 2429251820 2429251820 5.00000000
-0.09193246 -1.84666562 -0.29284531 99 6 18285 1.87200000 2429251823 2429251823 -9.00000000
-0.07587042 -1.51868677 0.18670383 10 7 18286 1.53200000 2429251825 2429251825 7.00000000
-0.08806271 -1.75658572 -0.21595247 81 8 18287 1.77200000 2429251827 2429251827 -7.00000000
-0.07783990 -1.55267155 0.24622785 2 9 18287 1.57400000 2429251830 2429251830 9.00000000
-0.08789328 -1.74710846 -0.15304549 100 10 18288 1.75600000 2429251832 2429251832 -5.00000000
-0.59816390 -11.84885693 2.30611753 15 11 18289 12.08600000 2429251834 2429251834 11.00000000
-0.08851735 -1.74735832 -0.09169260 100 12 18290 1.75200000 2429251836 2429251836 -3.00000000
-0.60180444 -11.83890057 2.73675442 56 13 18291 12.16600000 2429251839 2429251839 13.00000000
-0.08903228 -1.74546456 -0.03050681 95 14 18292 1.74800000 2429251841 2429251841 -1.00000000
-0.51586092 -10.07880020 2.70414138 45 15 18293 10.44800000 2429251843 2429251843 15.00000000
-0.08108646 -1.54722166 -0.41514575 27 0 18300 1.60400000 2429251864 2429251864 -15.00000000
-0.09135392 -1.73733485 0.03036719 70 1 18301 1.74000000 2429251866 2429251866 1.00000000
-0.08808956 -1.66969693 -0.38601601 31 2 18302 1.71600000 2429251869 2429251869 -13.00000000
-0.08239092 -1.56168199 0.08195811 80 3 18302 1.56600000 2429251871 2429251871 3.00000000
-0.09640728 -1.82131350 -0.35452312 18 4 18303 1.85800000 2429251873 2429251873 -11.00000000
-0.08104323 -1.52601218 0.13369691 89 5 18304 1.53400000 2429251876 2429251876 5.00000000
-0.09848307 -1.84830606 -0.29315817 51 6 18305 1.87400000 2429251878 2429251878 -9.00000000
-0.08085326 -1.51246583 0.18597262 10 7 18306 1.52600000 2429251880 2429251880 7.00000000
-0.09398118 -1.75230312 -0.21546499 87 8 18307 1.76800000 2429251883 2429251883 -7.00000000
-0.08304768 -1.54844522 0.24560212 2 9 18307 1.57000000 2429251885 2429251885 9.00000000
-0.09377719 -1.74281192 -0.15269686 100 10 18308 1.75200000 2429251887 2429251887 -5.00000000
-0.63962632 -11.84865761 2.30649924 21 11 18309 12.08800000 2429251889 2429251889 11.00000000
-0.09386017 -1.73307836 -0.09095989 100 12 18310 1.73800000 2429251892 2429251892 -3.00000000
-0.64259762 -11.82699776 2.73450494 52 13 18311 12.15600000 2429251894 2429251894 13.00000000
-0.09534222 -1.74913657 -0.03057662 83 14 18312 1.75200000 2429251896 2429251896 -1.00000000
-0.55167222 -10.08851147 2.70724726 47 15 18313 10.46000000 2429251899 2429251899 15.00000000
-0.08648677 -1.54692924 -0.41514575 27 0 18320 1.60400000 2429251919 2429251919 -15.00000000
-0.09786569 -1.74499154 0.03050681 89 1 18321 1.74800000 2429251922 2429251922 1.00000000
-0.09479304 -1.68494463 -0.38961524 27 2 18322 1.73200000 2429251924 2429251924 -13.00000000
-0.08728078 -1.55141437 0.08143475 45 3 18322 1.55600000 2429251926 2429251926 3.00000000
-0.10210056 -1.80920506 -0.35223341 23 4 18323 1.84600000 2429251929 2429251929 -11.00000000
-0.08636951 -1.52572000 0.13369691 95 5 18324 1.53400000 2429251931 2429251931 5.00000000
-0.10403835 -1.83217347 -0.29065523 40 6 18325 1.85800000 2429251933 2429251933 -9.00000000
-0.08613227 -1.51217437 0.18597262 10 7 18326 1.52600000 2429251935 2429251935 7.00000000
-0.09919143 -1.73610950 -0.21351509 81 8 18327 1.75200000 2429251938 2429251938 -7.00000000
-0.08912832 -1.55997884 0.24747932 2 9 18327 1.58200000 2429251940 2429251940 9.00000000
-0.10043015 -1.75241959 -0.15356842 100 10 18328 1.76200000 2429251942 2429251942 -5.00000000
-0.68177068 -11.86007309 2.30917048 15 11 18329 12.10200000 2429251945 2429251945 11.00000000
-0.10025408 -1.73872197 -0.09127391 100 12 18330 1.74400000 2429251947 2429251947 -3.00000000
-0.68308997 -11.81106472 2.73135567 53 13 18331 12.14200000 2429251949 2429251949 13.00000000
-0.10121565 -1.74480045 -0.03050681 92 14 18332 1.74800000 2429251952 2429251952 -1.00000000
-0.58557141 -10.09434128 2.70931768 49 15 18332 10.46800000 2429251954 2429251954 15.00000000
-0.09108404 -1.53311872 -0.41152227 29 0 18340 1.59000000 2429251975 2429251975 -15.00000000
-0.10252894 -1.72068548 0.03008795 39 1 18341 1.72400000 2429251977 2429251977 1.00000000
-0.10067401 -1.68460345 -0.38961524 27 2 18342 1.73200000 2429251979 2429251979 -13.00000000
-0.09257655 -1.54910648 0.08133008 59 3 18342 1.55400000 2429251982 2429251982 3.00000000
-0.10735810 -1.79120004 -0.34879884 27 4 18343 1.82800000 2429251984 2429251984 -11.00000000
-0.09109700 -1.51546514 0.13282534 97 5 18344 1.52400000 2429251986 2429251986 5.00000000
-0.10853122 -1.80025041 -0.28564933 50 6 18345 1.82600000 2429251988 2429251988 -9.00000000
-0.09129041 -1.50988305 0.18572888 5 7 18346 1.52400000 2429251991 2429251991 7.00000000
-0.10537113 -1.73773420 -0.21375883 76 8 18347 1.75400000 2429251993 2429251993 -7.00000000
-0.09289926 -1.53205371 0.24309915 4 9 18347 1.55400000 2429251995 2429251995 9.00000000
-0.10582099 -1.74012613 -0.15252255 100 10 18348 1.75000000 2429251998 2429251998 -5.00000000
-0.72340488 -11.86153984 2.30993366 18 11 18349 12.10600000 2429252000 2429252000 11.00000000
-0.10656660 -1.74234855 -0.09148325 100 12 18350 1.74800000 2429252002 2429252002 -3.00000000
-0.72491068 -11.81833363 2.73360515 52 13 18351 12.15200000 2429252005 2429252005 13.00000000
-0.10681442 -1.73645282 -0.03036719 75 14 18352 1.74000000 2429252007 2429252007 -1.00000000
-0.62244618 -10.09019947 2.70880008 47 15 18353 10.46600000 2429252009 2429252009 15.00000000
-0.09507886 -1.51545572 -0.40686354 27 0 18359 1.57200000 2429252030 2429252030 -15.00000000
-0.10082622 -1.60258687 0.02802856 40 1 18360 1.60600000 2429252032 2429252032 1.00000000
-0.10650521 -1.68815005 -0.39051503 27 2 18361 1.73600000 2429252035 2429252035 -13.00000000
-0.09836169 -1.55475378 0.08164409 100 3 18362 1.56000000 2429252037 2429252037 3.00000000
-0.11354526 -1.79475284 -0.34956208 28 4 18362 1.83200000 2429252039 2429252039 -11.00000000
-0.09549124 -1.50521278 0.13195379 93 5 18363 1.51400000 2429252041 2429252041 5.00000000
-0.11098895 -1.74468160 -0.27688900 53 6 18364 1.77000000 2429252044 2429252044 -9.00000000
-0.09541224 -1.49570453 0.18402271 5 7 18365 1.51000000 2429252046 2429252046 7.00000000
-0.11062621 -1.72945106 -0.21278387 64 8 18366 1.74600000 2429252048 2429252048 -7.00000000
-0.09734873 -1.52188051 0.24153481 9 9 18366 1.54400000 2429252051 2429252051 9.00000000
-0.11057062 -1.72385919 -0.15112805 100 10 18367 1.73400000 2429252053 2429252053 -5.00000000
-0.76273519 -11.85907555 2.30993366 15 11 18368 12.10600000 2429252055 2429252055 11.00000000
-0.11260093 -1.74597180 -0.09169260 100 12 18369 1.75200000 2429252058 2429252058 -3.00000000
-0.76447499 -11.82169914 2.73495483 53 13 18370 12.15800000 2429252060 2429252060 13.00000000
-0.11205455 -1.72810709 -0.03022757 57 14 18371 1.73200000 2429252062 2429252062 -1.00000000
-0.65364230 -10.08048248 2.70672965 47 15 18371 10.45800000 2429252065 2429252065 15.00000000
-0.09972972 -1.50547647 -0.40427536 27 0 18379 1.56200000 2429252085 2429252085 -15.00000000
-0.10522693 -1.58426738 0.02771442 58 1 18380 1.58800000 2429252088 2429252088 1.00000000
-0.11187934 -1.67999029 -0.38871542 27 2 18381 1.72800000 2429252090 2429252090 -13.00000000
-0.10325594 -1.54642963 0.08122540 100 3 18382 1.55200000 2429252092 2429252092 3.00000000
-0.11954783 -1.79042780 -0.34879884 26 4 18382 1.82800000 2429252094 2429252094 -11.00000000
-0.10141025 -1.51480997 0.13282534 100 5 18383 1.52400000 2429252097 2429252097 5.00000000
-0.11469710 -1.70880663 -0.27125737 70 6 18384 1.73400000 2429252099 2429252099 -9.00000000
-0.09943305 -1.47753692 0.18182907 5 7 18385 1.49200000 2429252101 2429252101 7.00000000
-0.11666244 -1.72905433 -0.21278387 48 8 18386 1.74600000 2429252104 2429252104 -7.00000000
-0.10332602 -1.52742600 0.24247342 9 9 18387 1.55000000 2429252106 2429252106 9.00000000
-0.11672181 -1.72545052 -0.15130237 100 10 18387 1.73600000 2429252108 2429252108 -5.00000000
-0.80332935 -11.84458828 2.30764389 15 11 18388 12.09400000 2429252111 2429252111 11.00000000
-0.11761085 -1.72962689 -0.09085522 88 12 18389 1.73600000 2429252113 2429252113 -3.00000000
-0.80706120 -11.83840084 2.73945403 56 13 18390 12.17800000 2429252115 2429252115 13.00000000
-0.11754065 -1.71972525 -0.03008795 70 14 18391 1.72400000 2429252118 2429252118 -1.00000000
-0.69124508 -10.08765602 2.70931768 47 15 18392 10.46800000 2429252120 2429252120 15.00000000
-0.10485560 -1.50706470 -0.40479299 29 0 18398 1.56400000 2429252141 2429252141 -15.00000000
-0.11089740 -1.58989429 0.02781914 74 1 18399 1.59400000 2429252143 2429252143 1.00000000
-0.11744978 -1.67961001 -0.38871542 26 2 18400 1.72800000 2429252145 2429252145 -13.00000000
-0.10810418 -1.54209399 0.08101606 100 3 18401 1.54800000 2429252147 2429252147 3.00000000
-0.12493528 -1.78218770 -0.34727237 25 4 18401 1.82000000 2429252150 2429252150 -11.00000000
-0.10671233 -1.51844037 0.13317397 100 5 18402 1.52800000 2429252152 2429252152 5.00000000
-0.12036308 -1.70841682 -0.27125737 63 6 18403 1.73400000 2429252154 2429252154 -9.00000000
-0.10461190 -1.48115933 0.18231654 7 7 18404 1.49600000 2429252157 2429252157 7.00000000
-0.12127394 -1.71281683 -0.21083397 67 8 18405 1.73000000 2429252159 2429252159 -7.00000000
-0.10784502 -1.52315307 0.24184768 9 9 18405 1.54600000 2429252161 2429252161 9.00000000
-0.12272509 -1.72902882 -0.15165100 93 10 18406 1.74000000 2429252164 2429252164 -5.00000000
-0.82839012 -11.64211273 2.26871896 9 11 18407 11.89000000 2429252166 2429252166 11.00000000
-0.12206692 -1.71129751 -0.08991317 92 12 18408 1.71800000 2429252168 2429252168 -3.00000000
-0.83019137 -11.61018085 2.68726540 46 13 18409 11.94600000 2429252171 2429252171 13.00000000
-0.12295687 -1.71533680 -0.03001814 70 14 18410 1.72000000 2429252173 2429252173 -1.00000000
-0.72334731 -10.09121513 2.71087074 47 15 18410 10.47400000 2429252175 2429252175 15.00000000
-0.10955235 -1.49898267 -0.40272245 29 0 18418 1.55600000 2429252196 2429252196 -15.00000000
-0.11659259 -1.59149182 0.02785404 74 1 18419 1.59600000 2429252198 2429252198 1.00000000
-0.12302655 -1.67530286 -0.38781562 24 2 18420 1.72400000 2429252200 2429252200 -13.00000000
-0.11333981 -1.53971541 0.08091139 94 3 18421 1.54600000 2429252203 2429252203 3.00000000
-0.12827298 -1.74258161 -0.33964002 35 4 18421 1.78000000 2429252205 2429252205 -11.00000000
-0.11230525 -1.52203262 0.13352260 100 5 18422 1.53200000 2429252207 2429252207 5.00000000
-0.12603442 -1.70404637 -0.27063161 64 6 18423 1.73000000 2429252210 2429252210 -9.00000000
-0.11007501 -1.48474443 0.18280402 7 7 18424 1.50000000 2429252212 2429252212 7.00000000
-0.12695782 -1.70842385 -0.21034649 76 8 18425 1.72600000 2429252214 2429252214 -7.00000000
-0.11283998 -1.51486790 0.24059620 13 9 18426 1.53800000 2429252217 2429252217 9.00000000
-0.12801978 -1.71865547 -0.15077944 91 10 18426 1.73000000 2429252219 2429252219 -5.00000000
-0.79564267 -10.65633202 2.07714677 6 11 18427 10.88600000 2429252221 2429252221 11.00000000
-0.12729444 -1.70090258 -0.08938982 100 12 18428 1.70800000 2429252223 2429252223 -3.00000000
-0.88645709 -11.81708622 2.73585463 53 13 18429 12.16200000 2429252226 2429252226 13.00000000
-0.12714456 -1.69096839 -0.02959928 88 14 18430 1.69600000 2429252228 2429252228 -1.00000000
-0.76032859 -10.08849621 2.71087074 47 15 18431 10.47400000 2429252230 2429252230 15.00000000
-0.11371480 -1.48123538 -0.39806369 29 0 18439 1.53800000 2429252251 2429252251 -15.00000000
-0.12242492 -1.59105384 0.02785404 82 1 18440 1.59600000 2429252253 2429252253 1.00000000
-0.12976539 -1.68261254 -0.38961524 23 2 18441 1.73200000 2429252256 2429252256 -13.00000000
-0.11944416 -1.54526353 0.08122540 100 3 18442 1.55200000 2429252258 2429252258 3.00000000
-0.13344857 -1.72644043 -0.33658707 60 4 18442 1.76400000 2429252260 2429252260 -11.00000000
-0.11680577 -1.50770569 0.13230242 100 5 18443 1.51800000 2429252263 2429252263 5.00000000
-0.13166752 -1.69569516 -0.26938015 67 6 18444 1.72200000 2429252265 2429252265 -9.00000000
-0.11659428 -1.49818480 0.18451019 8 7 18445 1.51400000 2429252267 2429252267 7.00000000
-0.13290992 -1.70398891 -0.20985901 74 8 18446 1.72200000 2429252270 2429252270 -7.00000000
-0.11751273 -1.50658715 0.23934473 15 9 18446 1.53000000 2429252272 2429252272 9.00000000
-0.13245474 -1.69433868 -0.14868769 100 10 18447 1.70600000 2429252274 2429252274 -5.00000000
-0.83162767 -10.61419868 2.06951427 12 11 18448 10.84600000 2429252276 2429252276 11.00000000
-0.13290228 -1.69246006 -0.08897112 100 12 18449 1.70000000 2429252279 2429252279 -3.00000000
-0.92945713 -11.80987263 2.73495483 49 13 18450 12.15800000 2429252281 2429252281 13.00000000
-0.13334140 -1.69049108 -0.02959928 98 14 18451 1.69600000 2429252283 2429252283 -1.00000000
-0.79538751 -10.08385468 2.71035314 47 15 18451 10.47200000 2429252286 2429252286 15.00000000
-0.11749321 -1.46349847 -0.39340496 31 0 18459 1.52000000 2429252306 2429252306 -15.00000000
-0.12733650 -1.58264375 0.02771442 78 1 18460 1.58800000 2429252309 2429252309 1.00000000
-0.13704765 -1.69963121 -0.39366433 13 2 18461 1.75000000 2429252311 2429252311 -13.00000000
-0.12515916 -1.54881871 0.08143475 100 3 18462 1.55600000 2429252313 2429252313 3.00000000
-0.14168805 -1.75336039 -0.34192973 28 4 18462 1.79200000 2429252316 2429252316 -11.00000000
-0.12158545 -1.50133109 0.13177948 93 5 18463 1.51200000 2429252318 2429252318 5.00000000
-0.13710640 -1.68931854 -0.26844153 96 6 18464 1.71600000 2429252320 2429252320 -9.00000000
-0.12278879 -1.50964010 0.18597262 14 7 18465 1.52600000 2429252323 2429252323 7.00000000
-0.13901842 -1.70549309 -0.21010275 81 8 18466 1.72400000 2429252325 2429252325 -7.00000000
-0.12351634 -1.51205277 0.24028334 9 9 18467 1.53600000 2429252327 2429252327 9.00000000
-0.13804385 -1.68989456 -0.14833908 100 10 18467 1.70200000 2429252329 2429252329 -5.00000000
-0.86899346 -10.61514473 2.07027769 12 11 18468 10.85000000 2429252332 2429252332 11.00000000
-0.13978909 -1.70392931 -0.08959915 100 12 18469 1.71200000 2429252334 2429252334 -3.00000000
-0.13956991 -1.69400120 -0.02966909 98 14 18471 1.70000000 2429252339 2429252339 -1.00000000
-0.82773131 -10.02503777 2.69534159 47 15 18472 10.41400000 2429252341 2429252341 15.00000000
-0.12227843 -1.45922923 -0.39236966 29 0 18479 1.51600000 2429252362 2429252362 -15.00000000
-0.13219085 -1.57421887 0.02757480 76 1 18480 1.58000000 2429252364 2429252364 1.00000000
-0.14248942 -1.69331682 -0.39231464 39 2 18481 1.74400000 2429252366 2429252366 -13.00000000
-0.13073260 -1.55036259 0.08153942 100 3 18482 1.55800000 2429252369 2429252369 3.00000000
-0.14681777 -1.74111724 -0.33964002 26 4 18482 1.78000000 2429252371 2429252371 -11.00000000
-0.12766412 -1.51082408 0.13265105 100 5 18483 1.52200000 2429252373 2429252373 5.00000000
-0.14283572 -1.68686128 -0.26812866 87 6 18484 1.71400000 2429252376 2429252376 -9.00000000
-0.12688282 -1.49535632 0.18426645 17 7 18485 1.51200000 2429252378 2429252378 7.00000000
-0.14513904 -1.70697534 -0.21034649 92 8 18486 1.72600000 2429252380 2429252380 -7.00000000
-0.12886453 -1.51557148 0.24090907 9 9 18486 1.54000000 2429252382 2429252382 9.00000000
-0.14394183 -1.68940234 -0.14833908 100 10 18487 1.70200000 2429252385 2429252385 -5.00000000
-1.01159370 -11.84832573 2.31146026 12 11 18488 12.11400000 2429252387 2429252387 11.00000000
-0.14471455 -1.69149101 -0.08897112 100 12 18489 1.70000000 2429252389 2429252389 -3.00000000
-0.76303148 -8.90037727 2.06235123 3 13 18490 9.16800000 2429252392 2429252392 13.00000000
-0.14582454 -1.69748843 -0.02973890 88 14 18491 1.70400000 2429252394 2429252394 -1.00000000
-0.86659288 -10.08767986 2.71294117 47 15 18491 10.48200000 2429252396 2429252396 15.00000000
-0.12821153 -1.46841621 -0.39495787 33 0 18499 1.52600000 2429252417 2429252417 -15.00000000
-0.13803367 -1.57773209 0.02764461 71 1 18500 1.58400000 2429252419 2429252419 1.00000000
-0.14669751 -1.67339623 -0.38781562 31 2 18501 1.72400000 2429252422 2429252422 -13.00000000
-0.13579404 -1.54591763 0.08133008 100 3 18502 1.55400000 2429252424 2429252424 3.00000000
-0.15186375 -1.72885978 -0.33735031 30 4 18502 1.76800000 2429252426 2429252426 -11.00000000
-0.13293710 -1.51036930 0.13265105 89 5 18503 1.52200000 2429252429 2429252429 5.00000000
-0.14820248 -1.68044925 -0.26719007 99 6 18504 1.70800000 2429252431 2429252431 -9.00000000
-0.13087866 -1.48106265 0.18256028 16 7 18505 1.49800000 2429252433 2429252433 7.00000000
-0.14952086 -1.68866217 -0.20815285 94 8 18506 1.70800000 2429252435 2429252435 -7.00000000
-0.13494222 -1.52099192 0.24184768 11 9 18507 1.54600000 2429252438 2429252438 9.00000000
-0.15001415 -1.69087422 -0.14851339 100 10 18507 1.70400000 2429252440 2429252440 -5.00000000
-1.05364132 -11.85254478 2.31298661 12 11 18508 12.12200000 2429252442 2429252442 11.00000000
-0.14937769 -1.67704988 -0.08823843 100 12 18509 1.68600000 2429252445 2429252445 -3.00000000
-0.78474045 -8.79284382 2.03805661 3 13 18510 9.06000000 2429252447 2429252447 13.00000000
-0.15210521 -1.70095253 -0.02980871 92 14 18511 1.70800000 2429252449 2429252449 -1.00000000
-0.90356022 -10.08443642 2.71294117 40 15 18512 10.48200000 2429252452 2429252452 15.00000000
-0.13281222 -1.46218789 -0.39340496 31 0 18519 1.52000000 2429252472 2429252472 -15.00000000
-0.14517128 -1.59516382 0.02795875 63 1 18520 1.60200000 2429252475 2429252475 1.00000000
-0.15324569 -1.68063676 -0.38961524 26 2 18521 1.73200000 2429252477 2429252477 -13.00000000
-0.14009921 -1.53350031 0.08070204 100 3 18522 1.54200000 2429252479 2429252479 3.00000000
-0.15521842 -1.69899249 -0.33162603 44 4 18522 1.73800000 2429252482 2429252482 -11.00000000
-0.13875331 -1.51584840 0.13317397 85 5 18523 1.52800000 2429252484 2429252484 5.00000000
-0.15352622 -1.67402029 -0.26625144 100 6 18524 1.70200000 2429252486 2429252486 -9.00000000
-0.13622937 -1.48257351 0.18280402 11 7 18525 1.50000000 2429252488 2429252488 7.00000000
-0.15468654 -1.68022299 -0.20717788 91 8 18526 1.70000000 2429252491 2429252491 -7.00000000
-0.13962308 -1.51660192 0.24122195 9 9 18526 1.54200000 2429252493 2429252493 9.00000000
-0.15683049 -1.70026004 -0.14938495 100 10 18527 1.71400000 2429252495 2429252495 -5.00000000
-1.09500802 -11.84879494 2.31298661 15 11 18528 12.12200000 2429252498 2429252498 11.00000000
-0.15633562 -1.68845069 -0.08886646 100 12 18529 1.69800000 2429252500 2429252500 -3.00000000
-0.81470835 -8.78228951 2.03625703 2 13 18530 9.05200000 2429252502 2429252502 13.00000000
-0.15693136 -1.68846452 -0.02959928 88 14 18531 1.69600000 2429252505 2429252505 -1.00000000
-0.74373311 -8.00201511 2.15337443 13 15 18531 8.32000000 2429252507 2429252507 15.00000000
-0.13700806 -1.45209885 -0.39081675 31 0 18539 1.51000000 2429252528 2429252528 -15.00000000
-0.15262043 -1.61455560 0.02830780 42 1 18540 1.62200000 2429252530 2429252530 1.00000000
-0.15874380 -1.67621148 -0.38871542 26 2 18541 1.72800000 2429252532 2429252532 -13.00000000
-0.14582857 -1.53697860 0.08091139 100 3 18542 1.54600000 2429252535 2429252535 3.00000000
-0.15929365 -1.67889559 -0.32780984 55 4 18542 1.71800000 2429252537 2429252537 -11.00000000
-0.14347816 -1.50940442 0.13265105 57 5 18543 1.52200000 2429252539 2429252539 5.00000000
-0.15955597 -1.67544067 -0.26656434 100 6 18544 1.70400000 2429252541 2429252541 -9.00000000
-0.14310053 -1.49987400 0.18499766 8 7 18545 1.51800000 2429252544 2429252544 7.00000000
-0.16017291 -1.67572069 -0.20669040 94 8 18546 1.69600000 2429252546 2429252546 -7.00000000
-0.14416432 -1.50823963 0.23997048 9 9 18546 1.53400000 2429252548 2429252548 9.00000000
-0.16105524 -1.68185246 -0.14781614 92 10 18547 1.69600000 2429252551 2429252551 -5.00000000
-1.13767374 -11.85858059 2.31565785 12 11 18548 12.13600000 2429252553 2429252553 11.00000000
-0.16280170 -1.69385898 -0.08918047 100 12 18549 1.70400000 2429252555 2429252555 -3.00000000
-0.16167217 -1.67596376 -0.02938985 98 14 18551 1.68400000 2429252560 2429252560 -1.00000000
-0.73994112 -7.67054939 2.06485844 6 15 18551 7.97800000 2429252562 2429252562 15.00000000
-0.14057055 -1.43623042 -0.38667566 31 0 18559 1.49400000 2429252583 2429252583 -15.00000000
-0.16215807 -1.65381598 0.02900590 42 1 18560 1.66200000 2429252585 2429252585 1.00000000
-0.16421290 -1.67176831 -0.38781562 26 2 18561 1.72400000 2429252588 2429252588 -13.00000000
-0.15177952 -1.54242325 0.08122540 100 3 18562 1.55200000 2429252590 2429252590 3.00000000
-0.16688348 -1.69591367 -0.33124441 22 4 18562 1.73600000 2429252592 2429252592 -11.00000000
-0.14835516 -1.50492883 0.13230242 44 5 18563 1.51800000 2429252594 2429252594 5.00000000
-0.16462684 -1.66701019 -0.26531285 96 6 18564 1.69600000 2429252597 2429252597 -9.00000000
-0.14989868 -1.51516891 0.18694757 7 7 18565 1.53400000 2429252599 2429252599 7.00000000
-0.16621707 -1.67712677 -0.20693414 82 8 18566 1.69800000 2429252601 2429252601 -7.00000000
-0.15047199 -1.51556396 0.24122195 9 9 18567 1.54200000 2429252604 2429252604 9.00000000
-0.16692501 -1.68128002 -0.14781614 96 10 18567 1.69600000 2429252606 2429252606 -5.00000000
-1.17886662 -11.85258293 2.31527638 12 11 18568 12.13400000 2429252608 2429252608 11.00000000
-0.16871339 -1.69328046 -0.08918047 100 12 18569 1.70400000 2429252611 2429252611 -3.00000000
-1.17929029 -11.81496525 2.74125361 54 13 18570 12.18600000 2429252613 2429252613 13.00000000
-0.16791931 -1.67936873 -0.02945966 100 14 18571 1.68800000 2429252615 2429252615 -1.00000000
-0.74326265 -7.43340349 2.00170660 6 15 18571 7.73400000 2429252617 2429252617 15.00000000
-0.14558308 -1.43573105 -0.38667566 31 0 18579 1.49400000 2429252638 2429252638 -15.00000000
-0.16813207 -1.65522933 0.02904080 57 1 18580 1.66400000 2429252641 2429252641 1.00000000
-0.16708840 -1.64210391 -0.38106710 31 2 18581 1.69400000 2429252643 2429252643 -13.00000000
-0.15736519 -1.54387093 0.08133008 94 3 18582 1.55400000 2429252645 2429252645 3.00000000
-0.15548226 -1.52539802 -0.29804364 11 4 18582 1.56200000 2429252647 2429252647 -11.00000000
-0.15421458 -1.51034808 0.13282534 36 5 18583 1.52400000 2429252650 2429252650 5.00000000
-0.16964081 -1.65856493 -0.26406139 99 6 18584 1.68800000 2429252652 2429252652 -9.00000000
-0.15498435 -1.51266170 0.18670383 7 7 18585 1.53200000 2429252654 2429252654 7.00000000
-0.17328636 -1.68838465 -0.20839658 82 8 18586 1.71000000 2429252657 2429252657 -7.00000000
-0.15757960 -1.53271461 0.24403776 6 9 18587 1.56000000 2429252659 2429252659 9.00000000
-0.17320029 -1.68465102 -0.14816476 96 10 18587 1.70000000 2429252661 2429252661 -5.00000000
-1.22023273 -11.84839535 2.31527638 12 11 18588 12.13400000 2429252664 2429252664 11.00000000
-0.17380318 -1.68473434 -0.08876178 100 12 18589 1.69600000 2429252666 2429252666 -3.00000000
-1.22112596 -11.81659222 2.74260330 45 13 18590 12.19200000 2429252668 2429252668 13.00000000
-0.17419218 -1.68275046 -0.02952947 98 14 18591 1.69200000 2429252670 2429252670 -1.00000000
-0.76711518 -7.39796305 1.99290669 9 15 18592 7.70000000 2429252673 2429252673 15.00000000
-0.15059382 -1.43521404 -0.38667566 33 0 18599 1.49400000 2429252694 2429252694 -15.00000000
-0.17495400 -1.66457605 0.02921533 58 1 18600 1.67400000 2429252696 2429252696 1.00000000
-0.17098306 -1.62406838 -0.37701797 30 2 18601 1.67600000 2429252698 2429252698 -13.00000000
-0.16233441 -1.53933978 0.08112073 71 3 18602 1.55000000 2429252700 2429252700 3.00000000
-0.16142364 -1.53070331 -0.29918849 29 4 18602 1.56800000 2429252703 2429252703 -11.00000000
-0.16053224 -1.51970744 0.13369691 19 5 18603 1.53400000 2429252705 2429252705 5.00000000
-0.17563710 -1.65992701 -0.26437426 100 6 18604 1.69000000 2429252707 2429252707 -9.00000000
-0.15921749 -1.50224137 0.18548514 7 7 18605 1.52200000 2429252710 2429252710 7.00000000
-0.17750235 -1.67197752 -0.20644666 73 8 18606 1.69400000 2429252712 2429252712 -7.00000000
-0.16230217 -1.52626240 0.24309915 4 9 18607 1.55400000 2429252714 2429252714 9.00000000
-0.17886908 -1.68205488 -0.14799045 92 10 18607 1.69800000 2429252717 2429252717 -5.00000000
-1.26116800 -11.84015942 2.31451321 12 11 18608 12.13000000 2429252719 2429252719 11.00000000
-0.17819971 -1.67021549 -0.08802908 100 12 18609 1.68200000 2429252721 2429252721 -3.00000000
-1.26319444 -11.82000828 2.74440289 50 13 18610 12.20000000 2429252723 2429252723 13.00000000
-0.18049070 -1.68610883 -0.02959928 95 14 18611 1.69600000 2429252726 2429252726 -1.00000000
-1.08095312 -10.09805298 2.72122335 9 15 18611 10.51400000 2429252728 2429252728 15.00000000
-0.15560274 -1.43467963 -0.38667566 33 0 18619 1.49400000 2429252749 2429252749 -15.00000000
-0.18184322 -1.67389524 0.02938985 63 1 18620 1.68400000 2429252751 2429252751 1.00000000
-0.16442463 -1.51109803 -0.35092366 33 2 18621 1.56000000 2429252753 2429252753 -13.00000000
-0.16749033 -1.53677821 0.08101606 63 3 18622 1.54800000 2429252756 2429252756 3.00000000
-0.16485141 -1.51256526 -0.29575396 39 4 18622 1.55000000 2429252758 2429252758 -11.00000000
-0.16691710 -1.52904093 0.13456847 10 5 18623 1.54400000 2429252760 2429252760 5.00000000
-0.18185967 -1.66323125 -0.26499999 100 6 18624 1.69400000 2429252763 2429252763 -9.00000000
-0.16683753 -1.52338266 0.18816626 7 7 18625 1.54400000 2429252765 2429252765 7.00000000
-0.18225528 -1.66148138 -0.20522797 81 8 18626 1.68400000 2429252767 2429252767 -7.00000000
-0.17021768 -1.54924929 0.24685359 4 9 18627 1.57800000 2429252770 2429252770 9.00000000
-0.18539225 -1.68736172 -0.14851339 91 10 18627 1.70400000 2429252772 2429252772 -5.00000000
-1.30506730 -11.85910320 2.31909251 12 11 18628 12.15400000 2429252774 2429252774 11.00000000
-0.18424758 -1.67156851 -0.08813375 100 12 18629 1.68400000 2429252776 2429252776 -3.00000000
-1.30337703 -11.80584145 2.74215341 51 13 18630 12.19000000 2429252779 2429252779 13.00000000
-0.18505652 -1.67354310 -0.02938985 92 14 18631 1.68400000 2429252781 2429252781 -1.00000000
-1.01130652 -9.14566517 2.46551013 4 15 18631 9.52600000 2429252783 2429252783 15.00000000
-0.15885675 -1.42071652 -0.38305220 31 0 18638 1.48000000 2429252804 2429252804 -15.00000000
-0.18806072 -1.67924488 0.02949457 61 1 18639 1.69000000 2429252806 2429252806 1.00000000
-0.16595912 -1.47955894 -0.34372520 52 2 18640 1.52800000 2429252809 2429252809 -13.00000000
-0.17343059 -1.54616857 0.08153942 40 3 18640 1.55800000 2429252811 2429252811 3.00000000
-0.16920879 -1.50615728 -0.29460910 35 4 18641 1.54400000 2429252813 2429252813 -11.00000000
-0.17109554 -1.52055943 0.13387123 8 5 18642 1.53600000 2429252816 2429252816 5.00000000
-0.18892270 -1.67635965 -0.26719007 96 6 18643 1.70800000 2429252818 2429252818 -9.00000000
-0.17077507 -1.51295817 0.18694757 5 7 18644 1.53400000 2429252820 2429252820 7.00000000
-0.18776394 -1.66086793 -0.20522797 81 8 18645 1.68400000 2429252822 2429252822 -7.00000000
-0.17508395 -1.54870689 0.24685359 4 9 18645 1.57800000 2429252825 2429252825 9.00000000
-0.18919341 -1.67089975 -0.14711890 100 10 18646 1.68800000 2429252827 2429252827 -5.00000000
-1.34460747 -11.85666084 2.31947422 12 11 18647 12.15600000 2429252829 2429252829 11.00000000
-0.19114211 -1.68285537 -0.08876178 100 12 18648 1.69600000 2429252832 2429252832 -3.00000000
-1.34472215 -11.82081699 2.74665236 55 13 18649 12.21000000 2429252834 2429252834 13.00000000
-0.18969969 -1.66497278 -0.02925023 95 14 18650 1.67600000 2429252836 2429252836 -1.00000000
-1.04250383 -9.14993954 2.46758080 6 15 18650 9.53400000 2429252839 2429252839 15.00000000
-0.16182266 -1.40288126 -0.37839344 28 0 18658 1.46200000 2429252859 2429252859 -15.00000000
-0.19231479 -1.66467273 0.02925023 63 1 18659 1.67600000 2429252862 2429252862 1.00000000
-0.16888291 -1.45961237 -0.33922619 36 2 18660 1.50800000 2429252864 2429252864 -13.00000000
-0.18139547 -1.56536233 0.08258614 33 3 18661 1.57800000 2429252866 2429252866 3.00000000
-0.17604718 -1.51920891 -0.29728040 21 4 18661 1.55800000 2429252869 2429252869 -11.00000000
-0.17640224 -1.51995289 0.13387123 6 5 18662 1.53600000 2429252871 2429252871 5.00000000
-0.19431700 -1.67176569 -0.26656434 79 6 18663 1.70400000 2429252873 2429252873 -9.00000000
-0.17880969 -1.53601420 0.18987244 5 7 18664 1.55800000 2429252875 2429252875 7.00000000
-0.19356032 -1.66020238 -0.20522797 78 8 18665 1.68400000 2429252878 2429252878 -7.00000000
-0.18213366 -1.55982697 0.24873079 4 9 18666 1.59000000 2429252880 2429252880 9.00000000
-0.19502479 -1.67022908 -0.14711890 100 10 18666 1.68800000 2429252882 2429252882 -5.00000000
-1.38598680 -11.85189533 2.31947422 12 11 18667 12.15600000 2429252885 2429252885 11.00000000
-0.19655055 -1.67821050 -0.08855244 100 12 18668 1.69200000 2429252887 2429252887 -3.00000000
-1.38733840 -11.82766438 2.74935174 55 13 18669 12.22200000 2429252889 2429252889 13.00000000
-0.19551037 -1.66430044 -0.02925023 92 14 18670 1.67600000 2429252892 2429252892 -1.00000000
-1.18596137 -10.08042431 2.71967053 40 15 18671 10.50800000 2429252894 2429252894 15.00000000
-0.16649058 -1.40038955 -0.37787580 30 0 18678 1.46000000 2429252915 2429252915 -15.00000000
-0.19765157 -1.66001999 0.02918042 72 1 18679 1.67200000 2429252917 2429252917 1.00000000
-0.17213097 -1.44353366 -0.33562696 37 2 18680 1.49200000 2429252919 2429252919 -13.00000000
-0.19297045 -1.61829889 0.08541228 27 3 18680 1.63200000 2429252922 2429252922 3.00000000
-0.18312638 -1.53119755 0.13491710 6 5 18682 1.54800000 2429252926 2429252926 5.00000000
-0.19921169 -1.66323173 -0.26531285 84 6 18683 1.69600000 2429252928 2429252928 -9.00000000
-0.18180610 -1.51567101 0.18743505 5 7 18684 1.53800000 2429252931 2429252931 7.00000000
-0.19935432 -1.65951657 -0.20522797 81 8 18685 1.68400000 2429252933 2429252933 -7.00000000
-2.15560603 -17.91784286 2.85837054 16 9 18686 18.27200000 2429252935 2429252935 9.00000000
-0.19966391 -1.65964758 -0.14624734 100 10 18686 1.67800000 2429252938 2429252938 -5.00000000
-1.42687953 -11.84308624 2.31871080 12 11 18687 12.15200000 2429252940 2429252940 11.00000000
-0.20145039 -1.66958261 -0.08813375 100 12 18688 1.68400000 2429252942 2429252942 -3.00000000
-1.42908382 -11.82661915 2.75025153 55 13 18689 12.22600000 2429252945 2429252945 13.00000000
-0.20131868 -1.66360784 -0.02925023 92 14 18690 1.67600000 2429252947 2429252947 -1.00000000
-1.22123945 -10.09177876 2.72381163 47 15 18690 10.52400000 2429252949 2429252949 15.00000000
-0.17090830 -1.39596474 -0.37684053 30 0 18698 1.45600000 2429252970 2429252970 -15.00000000
-0.20393161 -1.66328967 0.02925023 87 1 18699 1.67600000 2429252972 2429252972 1.00000000
-0.17621882 -1.43518722 -0.33382738 35 2 18700 1.48400000 2429252974 2429252974 -13.00000000
-0.20251267 -1.64933336 0.08708703 26 3 18700 1.66400000 2429252977 2429252977 3.00000000
-0.18895714 -1.53450394 0.13526571 6 5 18702 1.55200000 2429252981 2429252981 5.00000000
-0.20453270 -1.65860522 -0.26468712 73 6 18703 1.69200000 2429252984 2429252984 -9.00000000
-0.18758227 -1.51896739 0.18792252 5 7 18704 1.54200000 2429252986 2429252986 7.00000000
-0.20319676 -1.64304996 -0.20327806 84 8 18705 1.66800000 2429252988 2429252988 -7.00000000
-2.22032285 -17.92785263 2.86118627 37 9 18706 18.29000000 2429252991 2429252991 9.00000000
-0.20594570 -1.66289508 -0.14659595 100 10 18706 1.68200000 2429252993 2429252993 -5.00000000
-1.46845257 -11.83998203 2.31909251 12 11 18707 12.15400000 2429252995 2429252995 11.00000000
-0.20580007 -1.65697706 -0.08750572 100 12 18708 1.67200000 2429252998 2429252998 -3.00000000
-1.47059822 -11.82349205 2.75070143 54 13 18709 12.22800000 2429253000 2429253000 13.00000000
-0.20811318 -1.67083251 -0.02938985 98 14 18710 1.68400000 2429253002 2429253002 -1.00000000
-1.25645888 -10.08745480 2.72381163 49 15 18710 10.52400000 2429253004 2429253004 15.00000000
-0.17529719 -1.39152622 -0.37580526 30 0 18718 1.45200000 2429253025 2429253025 -15.00000000
-0.20973633 -1.66256762 0.02925023 100 1 18719 1.67600000 2429253027 2429253027 1.00000000
-0.18098325 -1.43262994 -0.33337745 37 2 18720 1.48200000 2429253030 2429253030 -13.00000000
-0.21081243 -1.66641319 0.08802908 22 3 18721 1.68200000 2429253032 2429253032 3.00000000
-0.19907005 -1.57139027 0.13857763 6 5 18722 1.59000000 2429253037 2429253037 5.00000000
-0.20982385 -1.65396178 -0.26406139 90 6 18723 1.68800000 2429253039 2429253039 -9.00000000
-0.19638573 -1.54587305 0.19133487 5 7 18724 1.57000000 2429253041 2429253041 7.00000000
