# .PCD v0.7 - Point Cloud Data file format
VERSION 0.7
FIELDS x y z intensity laser_id azimuth distance_m adjustedtime timestamp vertical_angle
SIZE 4 4 4 1 1 2 8 8 4 8
TYPE F F F U U U F U U F
COUNT 1 1 1 1 1 1 1 1 1 1
WIDTH 541
HEIGHT 1
VIEWPOINT 0 0 0 1 0 0 0
POINTS 541
DATA ascii
0.32567924 7.37071848 -1.43412042 4 4 253 7.51600000 2429701762 2429701762 -11.00000000
1.08445656 24.44648552 2.14089370 37 5 254 24.56400000 2429701765 2429701765 5.00000000
0.32799387 7.36480570 -1.16762686 20 6 255 7.46400000 2429701767 2429701767 -9.00000000
0.82387769 18.42706871 2.26481986 42 7 256 18.58400000 2429701769 2429701769 7.00000000
0.34936967 7.78365040 -0.95667434 2 8 257 7.85000000 2429701772 2429701772 -7.00000000
0.55466127 12.35736656 1.95918524 13 9 257 12.52400000 2429701774 2429701774 9.00000000
0.48161367 10.68828583 -0.93605268 4 10 258 10.74000000 2429701776 2429701776 -5.00000000
0.48235315 10.66331005 2.07485700 43 11 259 10.87400000 2429701778 2429701778 11.00000000
0.34618887 7.62367058 -0.39995137 12 12 260 7.64200000 2429701781 2429701781 -3.00000000
0.47103426 10.33318233 2.38808036 47 13 261 10.61600000 2429701783 2429701783 13.00000000
0.33803219 7.38714361 -0.12907800 109 14 262 7.39600000 2429701785 2429701785 -1.00000000
0.40874222 8.89838505 2.38682914 36 15 263 9.22200000 2429701788 2429701788 15.00000000
0.10565411 2.24038982 -0.60097784 4 0 270 2.32200000 2429701808 2429701808 -15.00000000
0.34991911 7.39259577 0.12918271 84 1 271 7.40200000 2429701811 2429701811 1.00000000
0.12623207 2.65703344 -0.61411637 3 2 272 2.73000000 2429701813 2429701813 -13.00000000
0.35182405 7.40547323 0.38854215 90 3 272 7.42400000 2429701815 2429701815 3.00000000
0.35047078 7.34992647 -1.43030429 4 4 273 7.49600000 2429701818 2429701818 -11.00000000
1.16826010 24.41070938 2.13810468 30 5 274 24.53200000 2429701820 2429701820 5.00000000
0.35379460 7.36558914 -1.16793966 11 6 275 7.46600000 2429701822 2429701822 -9.00000000
0.88857746 18.43201256 2.26579475 40 7 276 18.59200000 2429701824 2429701824 7.00000000
0.37538636 7.75859022 -0.95374948 4 8 277 7.82600000 2429701827 2429701827 -7.00000000
0.59741127 12.34746361 1.95793378 13 9 277 12.51600000 2429701829 2429701829 9.00000000
0.52249527 10.76017094 -0.94250220 9 10 278 10.81400000 2429701831 2429701831 -5.00000000
0.51938099 10.65763950 2.07409382 43 11 279 10.87000000 2429701834 2429701834 11.00000000
0.37289590 7.62441063 -0.40005606 12 12 280 7.64400000 2429701836 2429701836 -3.00000000
0.50729203 10.33536816 2.38898015 50 13 281 10.62000000 2429701838 2429701838 13.00000000
0.36342254 7.37792921 -0.12893838 105 14 282 7.38800000 2429701841 2429701841 -1.00000000
0.43815303 8.89505100 2.38631153 38 15 282 9.22000000 2429701843 2429701843 15.00000000
0.11318067 2.23421931 -0.59942490 4 0 290 2.31600000 2429701864 2429701864 -15.00000000
0.37551892 7.38733530 0.12911290 81 1 291 7.39800000 2429701866 2429701866 1.00000000
0.13590316 2.66436148 -0.61591601 3 2 292 2.73800000 2429701868 2429701868 -13.00000000
0.37797704 7.41018391 0.38885614 85 3 292 7.43000000 2429701871 2429701871 3.00000000
0.37532187 7.33297253 -1.42725134 4 4 293 7.48000000 2429701873 2429701873 -11.00000000
1.25233817 24.38459396 2.13618731 37 5 294 24.51000000 2429701875 2429701875 5.00000000
0.37929985 7.36036348 -1.16731393 11 6 295 7.46200000 2429701877 2429701877 -9.00000000
0.95270675 18.42483330 2.26530743 42 7 296 18.58800000 2429701880 2429701880 7.00000000
0.40524366 7.81075811 -0.96033043 2 8 297 7.88000000 2429701882 2429701882 -7.00000000
0.64061069 12.34727573 1.95824659 13 9 297 12.51800000 2429701884 2429701884 9.00000000
0.55860198 10.73042583 -0.94006187 9 10 298 10.78600000 2429701887 2429701887 -5.00000000
0.55596548 10.64399815 2.07180405 43 11 299 10.85800000 2429701889 2429701889 11.00000000
0.39908966 7.61508465 -0.39963737 12 12 300 7.63600000 2429701891 2429701891 -3.00000000
0.54316145 10.32964230 2.38808036 50 13 301 10.61600000 2429701894 2429701894 13.00000000
0.38959551 7.38460350 -0.12907800 100 14 302 7.39600000 2429701896 2429701896 -1.00000000
0.46973091 8.87409401 2.38113523 38 15 303 9.20000000 2429701898 2429701898 15.00000000
0.12058898 2.23383164 -0.59942490 4 0 309 2.31600000 2429701919 2429701919 -15.00000000
0.39936528 7.37406874 0.12890348 78 1 310 7.38600000 2429701921 2429701921 1.00000000
0.14389196 2.64832926 -0.61231679 3 2 311 2.72200000 2429701924 2429701924 -13.00000000
0.40394983 7.41081381 0.38896084 80 3 312 7.43200000 2429701926 2429701926 3.00000000
0.40102592 7.35717201 -1.43221235 4 4 312 7.50600000 2429701928 2429701928 -11.00000000
1.33254087 24.36837196 2.13514137 30 5 313 24.49800000 2429701930 2429701930 5.00000000
0.40327278 7.35117579 -1.16606247 11 6 314 7.45400000 2429701933 2429701933 -9.00000000
1.01314604 18.40967941 2.26384497 42 7 315 18.57600000 2429701935 2429701935 7.00000000
0.43661422 7.90847492 -0.97251737 2 8 316 7.98000000 2429701937 2429701937 -7.00000000
0.68242335 12.36086178 1.96074963 13 9 316 12.53400000 2429701940 2429701940 9.00000000
0.58911413 10.63700485 -0.93204349 4 10 317 10.69400000 2429701942 2429701942 -5.00000000
0.59082359 10.63425541 2.07027769 40 11 318 10.85000000 2429701944 2429701944 11.00000000
0.42389545 7.60574245 -0.39921868 12 12 319 7.62800000 2429701947 2429701947 -3.00000000
0.57741278 10.32778358 2.38808036 50 13 320 10.61600000 2429701949 2429701949 13.00000000
0.41363370 7.37528467 -0.12893838 100 14 321 7.38800000 2429701951 2429701951 -1.00000000
0.49814823 8.88221836 2.38372350 40 15 321 9.21000000 2429701954 2429701954 15.00000000
0.12838578 2.23339725 -0.59942490 4 0 329 2.31600000 2429701974 2429701974 -15.00000000
0.42533338 7.37662220 0.12897329 84 1 330 7.39000000 2429701977 2429701977 1.00000000
0.15313548 2.64781070 -0.61231679 3 2 331 2.72200000 2429701979 2429701979 -13.00000000
0.42935327 7.40138292 0.38854215 80 3 332 7.42400000 2429701981 2429701981 3.00000000
0.42750067 7.36944723 -1.43488359 4 4 332 7.52000000 2429701983 2429701983 -11.00000000
1.41713130 24.35561562 2.13444424 30 5 333 24.49000000 2429701986 2429701986 5.00000000
0.42916089 7.35366726 -1.16668820 18 6 334 7.45800000 2429701988 2429701988 -9.00000000
1.07670557 18.39414024 2.26238251 40 7 335 18.56400000 2429701990 2429701990 7.00000000
0.31436467 5.35449934 -0.65858191 2 8 336 5.40400000 2429701993 2429701993 -7.00000000
0.72737521 12.35236168 1.95981097 13 9 337 12.52800000 2429701995 2429701995 9.00000000
0.61523134 10.44792271 -0.91565824 4 10 337 10.50600000 2429701997 2429701997 -5.00000000
0.62782472 10.63016796 2.06989598 40 11 338 10.84800000 2429702000 2429702000 11.00000000
0.45185909 7.62814188 -0.40047473 12 12 339 7.65200000 2429702002 2429702002 -3.00000000
0.61322880 10.32181454 2.38718057 48 13 340 10.61200000 2429702004 2429702004 13.00000000
0.43973255 7.37978458 -0.12904309 106 14 341 7.39400000 2429702007 2429702007 -1.00000000
0.53046936 8.87647629 2.38268805 40 15 342 9.20600000 2429702009 2429702009 15.00000000
0.13700421 2.24643326 -0.60304838 4 0 349 2.33000000 2429702030 2429702030 -15.00000000
0.45083582 7.37110090 0.12890348 87 1 350 7.38600000 2429702032 2429702032 1.00000000
0.16309297 2.65893054 -0.61501616 3 2 351 2.73400000 2429702034 2429702034 -13.00000000
0.45469579 7.39186478 0.38812345 80 3 352 7.41600000 2429702036 2429702036 3.00000000
0.45225793 7.35223341 -1.43183064 4 4 352 7.50400000 2429702039 2429702039 -11.00000000
1.50201690 24.34853172 2.13426971 30 5 353 24.48800000 2429702041 2429702041 5.00000000
0.45519328 7.35803938 -1.16762686 9 6 354 7.46400000 2429702043 2429702043 -9.00000000
1.14139819 18.39819527 2.26335740 42 7 355 18.57200000 2429702046 2429702046 7.00000000
0.49526602 7.96070957 -0.97934204 2 8 356 8.03600000 2429702048 2429702048 -7.00000000
0.76808780 12.34593868 1.95918524 13 9 356 12.52400000 2429702050 2429702050 9.00000000
0.66633695 10.68035793 -0.93622696 4 10 357 10.74200000 2429702053 2429702053 -5.00000000
0.66517228 10.63183022 2.07065916 40 11 358 10.85200000 2429702055 2429702055 11.00000000
0.47773314 7.61455822 -0.39984670 12 12 359 7.64000000 2429702057 2429702057 -3.00000000
0.64827603 10.30405235 2.38358140 50 13 360 10.59600000 2429702060 2429702060 13.00000000
0.46523830 7.37421322 -0.12897329 127 14 361 7.39000000 2429702062 2429702062 -1.00000000
0.56026679 8.88045311 2.38424110 42 15 361 9.21200000 2429702064 2429702064 15.00000000
0.14434756 2.23822999 -0.60097784 4 0 369 2.32200000 2429702085 2429702085 -15.00000000
0.47682112 7.37347317 0.12897329 81 1 370 7.39000000 2429702087 2429702087 1.00000000
0.17237338 2.65834498 -0.61501616 3 2 371 2.73400000 2429702089 2429702089 -13.00000000
0.48049545 7.39023256 0.38812345 80 3 372 7.41600000 2429702092 2429702092 3.00000000
0.47715500 7.33885527 -1.42954099 4 4 372 7.49200000 2429702094 2429702094 -11.00000000
1.58661115 24.33717537 2.13374686 30 5 373 24.48200000 2429702096 2429702096 5.00000000
0.48126140 7.36231899 -1.16856551 11 6 374 7.47000000 2429702099 2429702099 -9.00000000
1.20535326 18.39013863 2.26287007 40 7 375 18.56800000 2429702101 2429702101 7.00000000
0.52409250 7.97477865 -0.98129195 2 8 376 8.05200000 2429702103 2429702103 -7.00000000
0.81281322 12.33515644 1.95793378 13 9 377 12.51600000 2429702106 2429702106 9.00000000
0.70387632 10.68194294 -0.93657559 13 10 377 10.74600000 2429702108 2429702108 -5.00000000
0.70202136 10.62552547 2.06989598 43 11 378 10.84800000 2429702110 2429702110 11.00000000
0.50523412 7.62679434 -0.40057942 12 12 379 7.65400000 2429702112 2429702112 -3.00000000
0.68475652 10.30950451 2.38538098 50 13 380 10.60400000 2429702115 2429702115 13.00000000
0.48991328 7.35658216 -0.12869404 100 14 381 7.37400000 2429702117 2429702117 -1.00000000
0.59216803 8.86870193 2.38165283 40 15 382 9.20200000 2429702119 2429702119 15.00000000
0.15215594 2.23190379 -0.59942490 3 0 390 2.31600000 2429702140 2429702140 -15.00000000
0.50357032 7.36768579 0.12890348 81 1 391 7.38600000 2429702142 2429702142 1.00000000
0.18211554 2.65769553 -0.61501616 3 2 392 2.73400000 2429702145 2429702145 -13.00000000
0.50812632 7.39639235 0.38854215 80 3 393 7.42400000 2429702147 2429702147 3.00000000
0.50512654 7.35272646 -1.43259394 4 4 393 7.50800000 2429702149 2429702149 -11.00000000
1.67456865 24.31330681 2.13217807 37 5 394 24.46400000 2429702152 2429702152 5.00000000
0.50769812 7.35262299 -1.16731393 11 6 395 7.46200000 2429702154 2429702154 -9.00000000
1.27192593 18.37371445 2.26140761 40 7 396 18.55600000 2429702156 2429702156 7.00000000
0.37217712 5.36273098 -0.66004437 2 8 397 5.41600000 2429702159 2429702159 -7.00000000
0.85641307 12.34012699 1.95918524 16 9 397 12.52400000 2429702161 2429702161 9.00000000
0.74385262 10.69121647 -0.93762147 9 10 398 10.75800000 2429702163 2429702163 -5.00000000
0.74096113 10.62288189 2.06989598 40 11 399 10.84800000 2429702165 2429702165 11.00000000
0.53332365 7.62688351 -0.40068409 12 12 400 7.65600000 2429702168 2429702168 -3.00000000
0.72253817 10.30692577 2.38538098 48 13 401 10.60400000 2429702170 2429702170 13.00000000
0.51785451 7.36870050 -0.12893838 100 14 402 7.38800000 2429702172 2429702172 -1.00000000
0.62217391 8.85309124 2.37802935 42 15 402 9.18800000 2429702175 2429702175 15.00000000
0.16022205 2.23521280 -0.60046017 4 0 410 2.32000000 2429702195 2429702195 -15.00000000
0.52899867 7.36189413 0.12883367 84 1 411 7.38200000 2429702198 2429702198 1.00000000
0.19195156 2.66481829 -0.61681581 3 2 412 2.74200000 2429702200 2429702200 -13.00000000
0.53379762 7.39258146 0.38843748 85 3 413 7.42200000 2429702202 2429702202 3.00000000
0.53163761 7.36266756 -1.43488359 4 4 413 7.52000000 2429702205 2429702205 -11.00000000
1.75741398 24.27949333 2.12973762 37 5 414 24.43600000 2429702207 2429702207 5.00000000
0.53264570 7.34095478 -1.16574967 9 6 415 7.45200000 2429702209 2429702209 -9.00000000
1.33605433 18.36916161 2.26140761 42 7 416 18.55600000 2429702212 2429702212 7.00000000
0.39291516 5.38911676 -0.66345668 2 8 417 5.44400000 2429702214 2429702214 -7.00000000
0.90221208 12.34478569 1.96043670 19 9 418 12.53200000 2429702216 2429702216 9.00000000
0.75705999 10.35869789 -0.90868580 4 10 418 10.42600000 2429702218 2429702218 -5.00000000
0.77660298 10.60064983 2.06607985 40 11 419 10.82800000 2429702221 2429702221 11.00000000
0.55877298 7.60904026 -0.39984670 12 12 420 7.64000000 2429702223 2429702223 -3.00000000
0.75908387 10.31211472 2.38718057 50 13 421 10.61200000 2429702225 2429702225 13.00000000
0.54416156 7.37482500 -0.12907800 86 14 422 7.39600000 2429702228 2429702228 -1.00000000
0.65490294 8.85460472 2.37906456 40 15 423 9.19200000 2429702230 2429702230 15.00000000
0.16850047 2.24622798 -0.60356599 3 0 429 2.33200000 2429702251 2429702251 -15.00000000
0.55340868 7.36009932 0.12883367 81 1 430 7.38200000 2429702253 2429702253 1.00000000
0.19902992 2.64084840 -0.61141694 3 2 431 2.71800000 2429702255 2429702255 -13.00000000
0.55800849 7.38678741 0.38822812 85 3 432 7.41800000 2429702258 2429702258 3.00000000
0.55516285 7.34911776 -1.43259394 4 4 432 7.50800000 2429702260 2429702260 -11.00000000
1.83897102 24.28743935 2.13095784 37 5 433 24.45000000 2429702262 2429702262 5.00000000
0.55653781 7.33323908 -1.16481102 9 6 434 7.44600000 2429702265 2429702265 -9.00000000
1.39575684 18.34879684 2.25945759 40 7 435 18.54000000 2429702267 2429702267 7.00000000
0.40746388 5.34423828 -0.65809447 2 8 436 5.40000000 2429702269 2429702269 -7.00000000
0.94174075 12.35173798 1.96200109 22 9 436 12.54200000 2429702271 2429702271 9.00000000
0.81220156 10.60388947 2.06722474 43 11 438 10.83400000 2429702276 2429702276 11.00000000
0.58277935 7.59121418 -0.39900932 12 12 439 7.62400000 2429702278 2429702278 -3.00000000
0.79237890 10.29788303 2.38448119 50 13 440 10.60000000 2429702281 2429702281 13.00000000
0.56815308 7.36699867 -0.12897329 100 14 441 7.39000000 2429702283 2429702283 -1.00000000
0.68212301 8.84479904 2.37699413 45 15 441 9.18400000 2429702285 2429702285 15.00000000
0.17603777 2.24177408 -0.60253072 4 0 449 2.32800000 2429702306 2429702306 -15.00000000
0.57909685 7.35812283 0.12883367 78 1 450 7.38200000 2429702308 2429702308 1.00000000
0.20977934 2.65956473 -0.61591601 3 2 451 2.73800000 2429702311 2429702311 -13.00000000
0.58316016 7.37683058 0.38780943 77 3 452 7.41000000 2429702313 2429702313 3.00000000
0.58096737 7.34909248 -1.43297553 4 4 452 7.51000000 2429702315 2429702315 -11.00000000
1.92358148 24.27888680 2.13078356 37 5 453 24.44800000 2429702318 2429702318 5.00000000
0.58322674 7.34503603 -1.16700113 6 6 454 7.46000000 2429702320 2429702320 -9.00000000
1.46042752 18.35172653 2.26043248 42 7 455 18.54800000 2429702322 2429702322 7.00000000
0.42485368 5.32695293 -0.65614456 2 8 456 5.38400000 2429702324 2429702324 -7.00000000
0.98669100 12.34426594 1.96137536 26 9 457 12.53800000 2429702327 2429702327 9.00000000
0.84889752 10.59707546 2.06646132 46 11 458 10.83000000 2429702331 2429702331 11.00000000
0.60911429 7.58714294 -0.39890465 12 12 459 7.62200000 2429702334 2429702334 -3.00000000
0.82753891 10.28534126 2.38223171 53 13 460 10.59000000 2429702336 2429702336 13.00000000
0.59402597 7.36696386 -0.12900819 100 14 461 7.39200000 2429702338 2429702338 -1.00000000
0.71484745 8.84609032 2.37802935 40 15 462 9.18800000 2429702341 2429702341 15.00000000
0.18259829 2.22574306 -0.59838963 4 0 469 2.31200000 2429702361 2429702361 -15.00000000
0.60576105 7.36801434 0.12904309 81 1 470 7.39400000 2429702364 2429702364 1.00000000
0.21906167 2.65881610 -0.61591601 3 2 471 2.73800000 2429702366 2429702366 -13.00000000
0.60923523 7.37873077 0.38801879 77 3 472 7.41400000 2429702368 2429702368 3.00000000
0.60483992 7.32549715 -1.42877781 4 4 472 7.48800000 2429702371 2429702371 -11.00000000
2.00716877 24.25812340 2.12956333 45 5 473 24.43400000 2429702373 2429702373 5.00000000
0.60951507 7.35083008 -1.16825259 6 6 474 7.46800000 2429702375 2429702375 -9.00000000
1.52447808 18.34651756 2.26043248 40 7 475 18.54800000 2429702377 2429702377 7.00000000
0.66714519 8.01189518 -0.98714167 2 8 476 8.10000000 2429702380 2429702380 -7.00000000
1.02729285 12.33698845 1.96074963 26 9 476 12.53400000 2429702382 2429702382 9.00000000
0.88686466 10.60578632 2.06875110 43 11 478 10.84200000 2429702387 2429702387 11.00000000
0.63909698 7.62676668 -0.40110278 12 12 479 7.66400000 2429702389 2429702389 -3.00000000
0.86441481 10.29404163 2.38493109 57 13 480 10.60200000 2429702391 2429702391 13.00000000
0.61940247 7.36085987 -0.12893838 100 14 481 7.38800000 2429702394 2429702394 -1.00000000
0.74417824 8.84367085 2.37802935 42 15 481 9.18800000 2429702396 2429702396 15.00000000
0.19086051 2.23086643 -0.59994256 4 0 489 2.31800000 2429702417 2429702417 -15.00000000
0.63045168 7.35390091 0.12883367 78 1 490 7.38200000 2429702419 2429702419 1.00000000
0.22900853 2.66580176 -0.61771560 3 2 491 2.74600000 2429702421 2429702421 -13.00000000
0.63618720 7.39048862 0.38875148 80 3 492 7.42800000 2429702424 2429702424 3.00000000
0.63209081 7.34290123 -1.43259394 4 4 492 7.50800000 2429702426 2429702426 -11.00000000
2.09234691 24.25692558 2.13008642 37 5 493 24.44000000 2429702428 2429702428 5.00000000
0.63534063 7.35062551 -1.16856551 6 6 494 7.47000000 2429702430 2429702430 -9.00000000
1.58851004 18.34108543 2.26043248 40 7 495 18.54800000 2429702433 2429702433 7.00000000
0.46546483 5.36341047 -0.66101933 2 8 496 5.42400000 2429702435 2429702435 -7.00000000
1.07000911 12.32939148 1.96012390 29 9 496 12.53000000 2429702437 2429702437 9.00000000
0.92353952 10.59871387 2.06798792 43 11 498 10.83800000 2429702442 2429702442 11.00000000
0.67196959 7.69611788 -0.40487096 12 12 499 7.73600000 2429702444 2429702444 -3.00000000
0.90102184 10.29872704 2.38673067 55 13 500 10.61000000 2429702447 2429702447 13.00000000
0.64474362 7.35466909 -0.12886856 100 14 501 7.38400000 2429702449 2429702449 -1.00000000
0.77369422 8.82562351 2.37388825 40 15 501 9.17200000 2429702451 2429702451 15.00000000
0.19859940 2.23406982 -0.60097784 4 0 508 2.32200000 2429702472 2429702472 -15.00000000
0.65518945 7.35575342 0.12890348 75 1 509 7.38600000 2429702474 2429702474 1.00000000
0.23680799 2.65338135 -0.61501616 3 2 510 2.73400000 2429702477 2429702477 -13.00000000
0.66086930 7.39032745 0.38885614 77 3 511 7.43000000 2429702479 2429702479 3.00000000
0.65888530 7.36814117 -1.43793654 4 4 511 7.53600000 2429702481 2429702481 -11.00000000
2.17330766 24.25580597 2.13060927 30 5 512 24.44600000 2429702483 2429702483 5.00000000
0.65882957 7.33864117 -1.16700113 4 6 513 7.46000000 2429702486 2429702486 -9.00000000
1.64932263 18.33571625 2.26043248 42 7 514 18.54800000 2429702488 2429702488 7.00000000
0.78224874 8.67937565 -1.07001281 2 8 515 8.78000000 2429702490 2429702490 -7.00000000
1.11375082 12.33345127 1.96137536 26 9 516 12.53800000 2429702493 2429702493 9.00000000
0.95761955 10.58386230 2.06569815 43 11 517 10.82600000 2429702497 2429702497 11.00000000
0.70181489 7.74158573 -0.40738308 16 12 518 7.78400000 2429702500 2429702500 -3.00000000
0.93552125 10.29956436 2.38763046 55 13 519 10.61400000 2429702502 2429702502 13.00000000
0.66985399 7.36045647 -0.12900819 97 14 520 7.39200000 2429702504 2429702504 -1.00000000
0.80383223 8.83262920 2.37647653 45 15 520 9.18200000 2429702506 2429702506 15.00000000
0.20692986 2.23913383 -0.60253072 4 0 528 2.32800000 2429702527 2429702527 -15.00000000
0.68159932 7.36138630 0.12904309 78 1 529 7.39400000 2429702530 2429702530 1.00000000
0.24606857 2.65253878 -0.61501616 3 2 530 2.73400000 2429702532 2429702532 -13.00000000
0.68666238 7.38797569 0.38885614 77 3 531 7.43000000 2429702534 2429702534 3.00000000
0.29615167 3.18637156 -0.62203735 4 4 531 3.26000000 2429702536 2429702536 -11.00000000
2.25666976 24.23418617 2.12938905 30 5 532 24.43200000 2429702539 2429702539 5.00000000
0.37580097 4.02807903 -0.64075559 2 6 533 4.09600000 2429702541 2429702541 -9.00000000
1.71257710 18.32194138 2.25945759 42 7 534 18.54000000 2429702543 2429702543 7.00000000
0.81217045 8.67263889 -1.06952536 2 8 535 8.77600000 2429702546 2429702546 -7.00000000
1.15753388 12.33735466 1.96262681 29 9 536 12.54600000 2429702548 2429702548 9.00000000
0.75432646 8.03984451 -0.70648444 4 10 536 8.10600000 2429702550 2429702550 -5.00000000
0.99419081 10.57654572 2.06493497 50 11 537 10.82200000 2429702553 2429702553 11.00000000
0.80299056 8.52651882 -0.44883317 17 12 538 8.57600000 2429702555 2429702555 -3.00000000
0.97073555 10.28847504 2.38583088 57 13 539 10.60600000 2429702557 2429702557 13.00000000
0.83638215 8.83154678 2.37699413 45 15 541 9.18400000 2429702562 2429702562 15.00000000
0.21568979 2.24412942 -0.60408366 4 0 549 2.33400000 2429702583 2429702583 -15.00000000
0.70895886 7.36281967 0.12911290 69 1 550 7.39800000 2429702585 2429702585 1.00000000
0.25616318 2.65549850 -0.61591601 3 2 551 2.73800000 2429702587 2429702587 -13.00000000
0.71258330 7.37348127 0.38822812 67 3 552 7.41800000 2429702589 2429702589 3.00000000
0.30669522 3.17353988 -0.61974764 2 4 552 3.24800000 2429702592 2429702592 -11.00000000
2.26848531 23.43052292 2.05949020 21 5 553 23.63000000 2429702594 2429702594 5.00000000
0.38865504 4.00701332 -0.63762689 2 6 554 4.07600000 2429702596 2429702596 -9.00000000
1.78010285 18.31949234 2.25994515 40 7 555 18.54400000 2429702599 2429702599 7.00000000
0.77240443 7.93462420 -0.97885454 2 8 556 8.03200000 2429702601 2429702601 -7.00000000
1.20236135 12.32909775 1.96200109 29 9 557 12.54200000 2429702603 2429702603 9.00000000
0.78378892 8.03702641 -0.70648444 4 10 557 8.10600000 2429702606 2429702606 -5.00000000
1.03371274 10.58064651 2.06646132 46 11 558 10.83000000 2429702608 2429702608 11.00000000
0.76536524 7.81985140 -0.41177931 8 12 559 7.86800000 2429702610 2429702610 -3.00000000
1.00767756 10.27709007 2.38403130 57 13 560 10.59800000 2429702612 2429702612 13.00000000
0.86720490 8.82857323 2.37699413 42 15 561 9.18400000 2429702617 2429702617 15.00000000
0.22256427 2.23375130 -0.60149544 4 0 569 2.32400000 2429702638 2429702638 -15.00000000
0.73624450 7.37621832 0.12939215 66 1 570 7.41400000 2429702640 2429702640 1.00000000
0.26581883 2.65846610 -0.61681581 3 2 571 2.74200000 2429702642 2429702642 -13.00000000
0.74010873 7.38883495 0.38917017 72 3 572 7.43600000 2429702645 2429702645 3.00000000
0.73709583 7.35875559 -1.43755496 4 4 572 7.53400000 2429702647 2429702647 -11.00000000
2.32260919 23.14690208 2.03526092 21 5 573 23.35200000 2429702649 2429702649 5.00000000
0.40422028 4.02135611 -0.64012980 2 6 574 4.09200000 2429702652 2429702652 -9.00000000
1.84483457 18.32106781 2.26092005 40 7 575 18.55200000 2429702654 2429702654 7.00000000
0.78455698 7.77782393 -0.95984292 4 8 576 7.87600000 2429702656 2429702656 -7.00000000
1.24558914 12.32679081 1.96231389 29 9 577 12.54400000 2429702659 2429702659 9.00000000
1.07182610 10.58869267 2.06875110 46 11 578 10.84200000 2429702663 2429702663 11.00000000
0.78479886 7.73963642 -0.40769711 24 12 579 7.79000000 2429702665 2429702665 -3.00000000
1.04354513 10.27350998 2.38403130 59 13 580 10.59800000 2429702668 2429702668 13.00000000
0.74918985 7.36285496 -0.12918271 8 14 581 7.40200000 2429702670 2429702670 -1.00000000
0.89762598 8.82164860 2.37595892 42 15 581 9.18000000 2429702672 2429702672 15.00000000
0.23016834 2.23492265 -0.60201311 4 0 588 2.32600000 2429702693 2429702693 -15.00000000
0.76070082 7.37373638 0.12939215 78 1 589 7.41400000 2429702695 2429702695 1.00000000
0.27503380 2.66144705 -0.61771560 3 2 590 2.74600000 2429702698 2429702698 -13.00000000
0.76352304 7.38846016 0.38927484 67 3 590 7.43800000 2429702700 2429702700 3.00000000
0.76250499 7.36603498 -1.43946302 4 4 591 7.54400000 2429702702 2429702702 -11.00000000
2.50477290 24.15571785 2.12468266 30 5 592 24.37800000 2429702705 2429702705 5.00000000
0.41714519 4.01606369 -0.63950408 2 6 593 4.08800000 2429702707 2429702707 -9.00000000
1.90475750 18.30695152 2.25994515 40 7 594 18.54400000 2429702709 2429702709 7.00000000
0.80952173 7.76728201 -0.95886797 6 8 595 7.86800000 2429702711 2429702711 -7.00000000
1.28410399 12.32085228 1.96200109 29 9 595 12.54200000 2429702714 2429702714 9.00000000
1.10550416 10.57141209 2.06607985 50 11 597 10.82800000 2429702718 2429702718 11.00000000
1.07801425 10.27386951 2.38493109 59 13 599 10.60200000 2429702723 2429702723 13.00000000
0.77527404 7.37623978 -0.12946194 6 14 600 7.41800000 2429702725 2429702725 -1.00000000
0.92586505 8.80901718 2.37337065 45 15 600 9.17000000 2429702728 2429702728 15.00000000
0.23796827 2.23410559 -0.60201311 4 0 608 2.32600000 2429702748 2429702748 -15.00000000
0.78516245 7.35910559 0.12918271 78 1 609 7.40200000 2429702751 2429702751 1.00000000
0.28432229 2.66047072 -0.61771560 3 2 610 2.74600000 2429702753 2429702753 -13.00000000
0.79187351 7.39752722 0.38990286 67 3 611 7.45000000 2429702755 2429702755 3.00000000
0.78946644 7.37504101 -1.44175279 4 4 611 7.55600000 2429702758 2429702758 -11.00000000
2.59120107 24.16663742 2.12642574 22 5 612 24.39800000 2429702760 2429702760 5.00000000
0.43031758 4.00672674 -0.63825262 2 6 613 4.08000000 2429702762 2429702762 -9.00000000
1.96886146 18.30216599 2.26018882 40 7 614 18.54600000 2429702764 2429702764 7.00000000
0.83662969 7.76440907 -0.95886797 6 8 615 7.86800000 2429702767 2429702767 -7.00000000
1.33137321 12.33570290 1.96512973 32 9 616 12.56200000 2429702769 2429702769 9.00000000
1.14197659 10.56358528 2.06531668 53 11 617 10.82400000 2429702774 2429702774 11.00000000
0.83810735 7.74007225 -0.40801111 49 12 618 7.79600000 2429702776 2429702776 -3.00000000
1.11429048 10.27391815 2.38583088 60 13 619 10.60600000 2429702778 2429702778 13.00000000
0.80231297 7.38541651 -0.12967138 6 14 620 7.43000000 2429702781 2429702781 -1.00000000
0.95793653 8.80364418 2.37285304 45 15 621 9.16800000 2429702783 2429702783 15.00000000
0.24661058 2.24094224 -0.60408366 4 0 628 2.33400000 2429702804 2429702804 -15.00000000
0.81216025 7.36824608 0.12939215 72 1 629 7.41400000 2429702806 2429702806 1.00000000
0.29189658 2.64396620 -0.61411637 3 2 630 2.73000000 2429702808 2429702808 -13.00000000
0.81640023 7.39486074 0.38990286 67 3 630 7.45000000 2429702811 2429702811 3.00000000
0.35257953 3.18852305 -0.62356383 2 4 631 3.26800000 2429702813 2429702813 -11.00000000
2.67356849 24.13962364 2.12485695 22 5 632 24.38000000 2429702815 2429702815 5.00000000
0.44299427 3.99342036 -0.63637543 2 6 633 4.06800000 2429702817 2429702817 -9.00000000
2.03163981 18.28531647 2.25897026 42 7 634 18.53600000 2429702820 2429702820 7.00000000
0.86658168 7.78708935 -0.96203661 4 8 635 7.89400000 2429702822 2429702822 -7.00000000
1.37551880 12.34079647 1.96669412 32 9 636 12.57200000 2429702824 2429702824 9.00000000
1.17884338 10.55953503 2.06531668 50 11 637 10.82400000 2429702829 2429702829 11.00000000
1.14884508 10.25834656 2.38313150 56 13 639 10.59400000 2429702834 2429702834 13.00000000
0.82808805 7.38257122 -0.12967138 6 14 640 7.43000000 2429702836 2429702836 -1.00000000
0.98798651 8.80809879 2.37492347 45 15 640 9.17600000 2429702838 2429702838 15.00000000
0.25399539 2.23622870 -0.60304838 4 0 648 2.33000000 2429702859 2429702859 -15.00000000
0.30156517 2.64680362 -0.61501616 3 2 650 2.73400000 2429702863 2429702863 -13.00000000
0.36326224 3.18337178 -0.62280059 2 4 651 3.26400000 2429702868 2429702868 -11.00000000
2.76098251 24.15785599 2.12729740 22 5 652 24.40800000 2429702870 2429702870 5.00000000
0.46277201 4.04287624 -0.64450997 2 6 653 4.12000000 2429702873 2429702873 -9.00000000
2.09681177 18.28994560 2.26043248 40 7 654 18.54800000 2429702875 2429702875 7.00000000
0.89353198 7.78204489 -0.96179289 4 8 655 7.89200000 2429702877 2429702877 -7.00000000
1.41768515 12.32806969 1.96544266 29 9 656 12.56400000 2429702880 2429702880 9.00000000
1.21681905 10.56510735 2.06722474 50 11 657 10.83400000 2429702884 2429702884 11.00000000
0.88182336 7.64474821 -0.40330088 16 12 658 7.70600000 2429702887 2429702887 -3.00000000
1.18419909 10.25040245 2.38223171 60 13 659 10.59000000 2429702889 2429702889 13.00000000
0.85339326 7.37566280 -0.12960157 6 14 660 7.42600000 2429702891 2429702891 -1.00000000
1.01961470 8.81227207 2.37699413 45 15 660 9.18400000 2429702893 2429702893 15.00000000
0.26191565 2.24309492 -0.60511893 4 0 666 2.33800000 2429702914 2429702914 -15.00000000
0.86844265 7.42625475 0.13050909 9 1 667 7.47800000 2429702916 2429702916 1.00000000
0.31078559 2.65358520 -0.61681581 3 2 668 2.74200000 2429702919 2429702919 -13.00000000
0.37234643 3.17441535 -0.62127411 2 4 669 3.25600000 2429702923 2429702923 -11.00000000
2.39310908 20.37156677 1.79453671 6 5 670 20.59000000 2429702926 2429702926 5.00000000
0.47316268 4.02178431 -0.64138132 2 6 671 4.10000000 2429702928 2429702928 -9.00000000
2.15472531 18.28721237 2.26092005 42 7 672 18.55200000 2429702930 2429702930 7.00000000
0.93798208 7.94874096 -0.98275441 2 8 673 8.06400000 2429702933 2429702933 -7.00000000
1.45402551 12.32184696 1.96512973 29 9 673 12.56200000 2429702935 2429702935 9.00000000
0.95240968 8.05891895 -0.70997065 4 10 674 8.14600000 2429702937 2429702937 -5.00000000
1.25069654 10.56708145 2.06836963 53 11 675 10.84000000 2429702940 2429702940 11.00000000
0.91876614 7.75102568 -0.40905783 82 12 676 7.81600000 2429702942 2429702942 -3.00000000
1.21639574 10.24663162 2.38223171 59 13 677 10.59000000 2429702944 2429702944 13.00000000
0.87561607 7.36500216 -0.12946194 6 14 678 7.41800000 2429702946 2429702946 -1.00000000
1.04883158 8.80884266 2.37699413 45 15 679 9.18400000 2429702949 2429702949 15.00000000
0.26789793 2.22682285 -0.60097784 4 0 686 2.32200000 2429702969 2429702969 -15.00000000
0.89627337 7.43906069 0.13078834 9 1 687 7.49400000 2429702972 2429702972 1.00000000
0.32051334 2.65635371 -0.61771560 3 2 688 2.74600000 2429702974 2429702974 -13.00000000
1.37115467 11.36386967 0.59987473 2 3 688 11.46200000 2429702976 2429702976 3.00000000
0.38295388 3.16919804 -0.62051088 2 4 689 3.25200000 2429702979 2429702979 -11.00000000
2.46468329 20.36704636 1.79488540 18 5 690 20.59400000 2429702981 2429702981 5.00000000
0.89288026 7.36758327 -1.17544854 11 6 691 7.51400000 2429702983 2429702983 -9.00000000
2.21830750 18.27760887 2.26067638 40 7 692 18.55000000 2429702986 2429702986 7.00000000
1.01362550 8.33953571 -1.03150213 9 8 693 8.46400000 2429702988 2429702988 -7.00000000
1.50037098 12.32623959 1.96669412 22 9 694 12.57200000 2429702990 2429702990 9.00000000
0.97909033 8.04367828 -0.70892483 4 10 694 8.13400000 2429702993 2429702993 -5.00000000
1.28709972 10.55875301 2.06760621 50 11 695 10.83600000 2429702995 2429702995 11.00000000
1.25168276 10.23845387 2.38133192 59 13 697 10.58600000 2429702999 2429702999 13.00000000
0.90229142 7.36984062 -0.12960157 6 14 698 7.42600000 2429703002 2429703002 -1.00000000
1.07698774 8.78403568 2.37129998 45 15 699 9.16200000 2429703004 2429703004 15.00000000
0.27661914 2.23354316 -0.60304838 4 0 706 2.33000000 2429703025 2429703025 -15.00000000
0.92469639 7.45573187 0.13113739 9 1 707 7.51400000 2429703027 2429703027 1.00000000
0.32930338 2.65135098 -0.61681581 3 2 708 2.74200000 2429703029 2429703029 -13.00000000
1.43149209 11.52550411 0.60866719 2 3 708 11.63000000 2429703032 2429703032 3.00000000
0.39449877 3.17173862 -0.62127411 2 4 709 3.25600000 2429703034 2429703034 -11.00000000
2.53674769 20.36622620 1.79558265 18 5 710 20.60200000 2429703036 2429703036 5.00000000
2.27889609 18.24414635 2.25750780 44 7 712 18.52400000 2429703041 2429703041 7.00000000
1.05110717 8.40291786 -1.03978920 2 8 713 8.53200000 2429703043 2429703043 -7.00000000
1.54270911 12.33295727 1.96857131 22 9 713 12.58400000 2429703046 2429703046 9.00000000
1.01013374 8.06393528 -0.71101654 4 10 714 8.15800000 2429703048 2429703048 -5.00000000
1.32346010 10.55030060 2.06684303 53 11 715 10.83200000 2429703050 2429703050 11.00000000
1.05600142 8.40630531 -0.44401824 4 12 716 8.48400000 2429703052 2429703052 -3.00000000
1.28741407 10.23402309 2.38133192 59 13 717 10.58600000 2429703055 2429703055 13.00000000
0.92751157 7.36267805 -0.12953176 6 14 718 7.42200000 2429703057 2429703057 -1.00000000
1.10861039 8.78788948 2.37337065 45 15 719 9.17000000 2429703059 2429703059 15.00000000
0.28441396 2.23256373 -0.60304838 4 0 726 2.33000000 2429703080 2429703080 -15.00000000
0.95248747 7.46634388 0.13138172 9 1 727 7.52800000 2429703082 2429703082 1.00000000
0.33855632 2.65018535 -0.61681581 3 2 728 2.74200000 2429703085 2429703085 -13.00000000
0.40656427 3.17813158 -0.62280059 2 4 729 3.26400000 2429703089 2429703089 -11.00000000
2.60858297 20.36317635 1.79610550 18 5 730 20.60800000 2429703092 2429703092 5.00000000
2.34357786 18.24395561 2.25848269 40 7 732 18.53200000 2429703096 2429703096 7.00000000
1.05991781 8.23971939 -1.02004635 2 8 733 8.37000000 2429703099 2429703099 -7.00000000
1.58726192 12.33925247 1.97044849 19 9 733 12.59600000 2429703101 2429703101 9.00000000
1.32692635 10.30121517 -0.90868580 4 10 734 10.42600000 2429703103 2429703103 -5.00000000
1.36078179 10.54951096 2.06760621 53 11 735 10.83600000 2429703105 2429703105 11.00000000
1.07101059 8.29164314 -0.43815663 4 12 736 8.37200000 2429703108 2429703108 -3.00000000
1.32262969 10.22560120 2.38043213 59 13 737 10.58200000 2429703110 2429703110 13.00000000
0.95474762 7.37129450 -0.12974119 8 14 738 7.43400000 2429703112 2429703112 -1.00000000
1.13952756 8.78588200 2.37388825 45 15 739 9.17200000 2429703115 2429703115 15.00000000
0.29345945 2.24113488 -0.60563654 3 0 746 2.34000000 2429703135 2429703135 -15.00000000
0.98166376 7.48676634 0.13180058 6 1 747 7.55200000 2429703138 2429703138 1.00000000
0.34729776 2.64512300 -0.61591601 3 2 748 2.73800000 2429703140 2429703140 -13.00000000
0.41919106 3.18837214 -0.62509024 2 4 749 3.27600000 2429703145 2429703145 -11.00000000
2.68328881 20.38160133 1.79854596 24 5 750 20.63600000 2429703147 2429703147 5.00000000
2.40776634 18.23959923 2.25897026 40 7 752 18.53600000 2429703151 2429703151 7.00000000
0.70809293 5.35682440 -0.66345668 2 8 753 5.44400000 2429703154 2429703154 -7.00000000
1.63006544 12.33167839 1.97013569 19 9 753 12.59400000 2429703156 2429703156 9.00000000
1.36026180 10.27676868 -0.90694267 4 10 754 10.40600000 2429703158 2429703158 -5.00000000
1.39811409 10.54858875 2.06836963 53 11 755 10.84000000 2429703161 2429703161 11.00000000
1.09994733 8.28785324 -0.43815663 4 12 756 8.37200000 2429703163 2429703163 -3.00000000
1.35728872 10.21319485 2.37863255 60 13 757 10.57400000 2429703165 2429703165 13.00000000
0.98126376 7.37386322 -0.12984590 8 14 758 7.44000000 2429703168 2429703168 -1.00000000
1.17018533 8.79354477 2.37699413 45 15 758 9.18400000 2429703170 2429703170 15.00000000
0.30050814 2.23435307 -0.60408366 4 0 766 2.33400000 2429703191 2429703191 -15.00000000
1.01366317 7.52689362 0.13256848 6 1 767 7.59600000 2429703193 2429703193 1.00000000
0.35965401 2.66706967 -0.62131482 3 2 768 2.76200000 2429703195 2429703195 -13.00000000
1.05404425 7.81642723 0.41334939 2 3 768 7.89800000 2429703198 2429703198 3.00000000
0.42769089 3.16743350 -0.62127411 2 4 769 3.25600000 2429703200 2429703200 -11.00000000
2.75415063 20.37013626 1.79837155 24 5 770 20.63400000 2429703202 2429703202 5.00000000
1.00016606 7.38767624 -1.18076730 190 6 771 7.54800000 2429703204 2429703204 -9.00000000
2.47248650 18.23895264 2.25994515 40 7 772 18.54400000 2429703207 2429703207 7.00000000
0.72037929 5.30711079 -0.65760696 2 8 773 5.39600000 2429703209 2429703209 -7.00000000
1.67336679 12.32787037 1.97044849 16 9 773 12.59600000 2429703211 2429703211 9.00000000
1.09613216 8.06476021 -0.71206242 4 10 774 8.17000000 2429703214 2429703214 -5.00000000
1.43545651 10.54753494 2.06913280 56 11 775 10.84400000 2429703216 2429703216 11.00000000
1.10621774 8.11773014 -0.42936417 4 12 776 8.20400000 2429703218 2429703218 -3.00000000
1.39398503 10.21611786 2.38043213 57 13 777 10.58200000 2429703221 2429703221 13.00000000
1.00699735 7.37039328 -0.12984590 8 14 778 7.44000000 2429703223 2429703223 -1.00000000
1.20109808 8.77962589 2.37440586 45 15 779 9.17400000 2429703225 2429703225 15.00000000
0.30724892 2.22563577 -0.60201311 4 0 786 2.32600000 2429703246 2429703246 -15.00000000
1.05772841 7.65206528 0.13483728 36 1 787 7.72600000 2429703248 2429703248 1.00000000
0.36789295 2.65807676 -0.61951518 3 2 788 2.75400000 2429703251 2429703251 -13.00000000
0.44143969 3.18536806 -0.62509024 4 4 789 3.27600000 2429703255 2429703255 -11.00000000
2.82523870 20.36039925 1.79837155 24 5 790 20.63400000 2429703257 2429703257 5.00000000
1.02676332 7.39000988 -1.18170595 192 6 791 7.55400000 2429703260 2429703260 -9.00000000
2.53449607 18.21841431 2.25848269 42 7 792 18.53200000 2429703262 2429703262 7.00000000
0.74437755 5.34388590 -0.66248173 2 8 793 5.43600000 2429703264 2429703264 -7.00000000
1.71584392 12.31804085 1.96982276 13 9 793 12.59200000 2429703267 2429703267 9.00000000
1.13308382 8.12403011 -0.71764040 4 10 794 8.23400000 2429703269 2429703269 -5.00000000
1.47280860 10.54634857 2.06989598 53 11 795 10.84800000 2429703271 2429703271 11.00000000
1.10965455 7.93579817 -0.41994372 4 12 796 8.02400000 2429703274 2429703274 -3.00000000
1.42963743 10.21119022 2.38043213 60 13 797 10.58200000 2429703276 2429703276 13.00000000
1.03438437 7.37871504 -0.13005534 8 14 798 7.45200000 2429703278 2429703278 -1.00000000
1.22886491 8.76602936 2.37181783 42 15 798 9.16400000 2429703281 2429703281 15.00000000
0.31555769 2.22837520 -0.60304838 4 0 806 2.33000000 2429703301 2429703301 -15.00000000
1.08274829 7.63644743 0.13462786 36 1 807 7.71400000 2429703304 2429703304 1.00000000
0.37552568 2.64520001 -0.61681581 3 2 808 2.74200000 2429703306 2429703306 -13.00000000
3.81301117 26.82517433 1.41997921 8 3 809 27.13200000 2429703308 2429703308 3.00000000
0.45089829 3.17214537 -0.62280059 4 4 809 3.26400000 2429703310 2429703310 -11.00000000
2.89966130 20.37408257 1.80046332 24 5 810 20.65800000 2429703313 2429703313 5.00000000
1.05338895 7.39224768 -1.18264461 211 6 811 7.56000000 2429703315 2429703315 -9.00000000
2.59667277 18.19963074 2.25726390 40 7 812 18.52200000 2429703317 2429703317 7.00000000
0.76358813 5.34518528 -0.66296923 2 8 813 5.44000000 2429703320 2429703320 -7.00000000
1.76237869 12.32144737 1.97138715 13 9 814 12.60200000 2429703322 2429703322 9.00000000
1.16482031 8.14369392 -0.71973211 4 10 814 8.25800000 2429703324 2429703324 -5.00000000
1.50905657 10.53725624 2.06913280 56 11 815 10.84400000 2429703327 2429703327 11.00000000
1.14358556 7.97537088 -0.42224649 4 12 816 8.06800000 2429703329 2429703329 -3.00000000
1.46416461 10.19842148 2.37863255 59 13 817 10.57400000 2429703331 2429703331 13.00000000
1.06184173 7.38693571 -0.13026476 10 14 818 7.46400000 2429703334 2429703334 -1.00000000
1.26126087 8.76337814 2.37233543 45 15 819 9.16600000 2429703336 2429703336 15.00000000
0.32433155 2.23687577 -0.60563654 3 0 825 2.34000000 2429703357 2429703357 -15.00000000
1.10806572 7.63281488 0.13462786 30 1 826 7.71400000 2429703359 2429703359 1.00000000
0.38485605 2.64779711 -0.61771560 3 2 827 2.74600000 2429703361 2429703361 -13.00000000
3.90137053 26.80842972 1.41976976 13 3 828 27.12800000 2429703363 2429703363 3.00000000
0.46254596 3.17840385 -0.62432700 4 4 828 3.27200000 2429703366 2429703366 -11.00000000
2.96864462 20.37421417 1.80133486 24 5 829 20.66800000 2429703368 2429703368 5.00000000
1.07932258 7.39848709 -1.18420887 208 6 830 7.57000000 2429703370 2429703370 -9.00000000
2.65500236 18.17716980 2.25555778 42 7 831 18.50800000 2429703373 2429703373 7.00000000
0.78303272 5.35440874 -0.66443163 2 8 832 5.45200000 2429703375 2429703375 -7.00000000
1.80250812 12.32562256 1.97295153 13 9 832 12.61200000 2429703377 2429703377 9.00000000
1.19441724 8.15752792 -0.72130090 4 10 833 8.27600000 2429703380 2429703380 -5.00000000
1.54456067 10.53607941 2.06989598 53 11 834 10.84800000 2429703382 2429703382 11.00000000
1.14914370 7.82925653 -0.41471010 4 12 835 7.92400000 2429703384 2429703384 -3.00000000
1.49740911 10.18965435 2.37773275 57 13 836 10.57000000 2429703387 2429703387 13.00000000
1.08982491 7.40711451 -0.13068362 12 14 837 7.48800000 2429703389 2429703389 -1.00000000
1.28906679 8.76128387 2.37285304 42 15 837 9.16800000 2429703391 2429703391 15.00000000
0.33242160 2.23764086 -0.60615420 4 0 845 2.34200000 2429703412 2429703412 -15.00000000
1.13676178 7.64274597 0.13487220 57 1 846 7.72800000 2429703414 2429703414 1.00000000
0.39467031 2.65029240 -0.61861539 3 2 847 2.75000000 2429703416 2429703416 -13.00000000
3.99639821 26.80452538 1.42029321 13 3 848 27.13800000 2429703419 2429703419 3.00000000
0.47421685 3.18065357 -0.62509024 4 4 848 3.27600000 2429703421 2429703421 -11.00000000
3.04268742 20.38343239 1.80307806 24 5 849 20.68800000 2429703423 2429703423 5.00000000
1.10718536 7.40835047 -1.18639898 203 6 850 7.58400000 2429703426 2429703426 -9.00000000
2.71961141 18.17564392 2.25653267 42 7 851 18.51600000 2429703428 2429703428 7.00000000
0.80642390 5.38305378 -0.66833150 2 8 852 5.48400000 2429703430 2429703430 -7.00000000
1.84884369 12.32674694 1.97420299 13 9 853 12.62000000 2429703433 2429703433 9.00000000
1.21697450 8.11390209 -0.71781468 8 10 853 8.23600000 2429703435 2429703435 -5.00000000
1.58191204 10.53450680 2.07065916 56 11 854 10.85200000 2429703437 2429703437 11.00000000
1.14736593 7.63164139 -0.40445226 4 12 855 7.72800000 2429703439 2429703439 -3.00000000
1.53006792 10.16509533 2.37323356 60 13 856 10.55000000 2429703442 2429703442 13.00000000
1.11626995 7.40721989 -0.13075343 14 14 857 7.49200000 2429703444 2429703444 -1.00000000
1.32116985 8.75650024 2.37285304 45 15 858 9.16800000 2429703446 2429703446 15.00000000
0.33819658 2.22309780 -0.60253072 4 0 865 2.32800000 2429703467 2429703467 -15.00000000
1.16523957 7.65059280 0.13508162 48 1 866 7.74000000 2429703469 2429703469 1.00000000
0.40450665 2.65275168 -0.61951518 3 2 867 2.75400000 2429703472 2429703472 -13.00000000
4.09265184 26.80818176 1.42123520 13 3 868 27.15600000 2429703474 2429703474 3.00000000
0.48294622 3.16345263 -0.62203735 2 4 868 3.26000000 2429703476 2429703476 -11.00000000
3.11291718 20.36677933 1.80255508 24 5 869 20.68200000 2429703479 2429703479 5.00000000
1.13513017 7.41810894 -1.18858910 177 6 870 7.59800000 2429703481 2429703481 -9.00000000
2.78664684 18.18958664 2.25945759 25 7 871 18.54000000 2429703483 2429703483 7.00000000
0.82219982 5.36058474 -0.66589409 2 8 872 5.46400000 2429703486 2429703486 -7.00000000
1.88911152 12.31664371 1.97357726 13 9 872 12.61600000 2429703488 2429703488 9.00000000
1.24528992 8.10960484 -0.71781468 8 10 873 8.23600000 2429703490 2429703490 -5.00000000
1.62046468 10.54056358 2.07294893 56 11 874 10.86400000 2429703492 2429703492 11.00000000
1.56732213 10.17124844 2.37593293 60 13 876 10.56200000 2429703497 2429703497 13.00000000
1.14150929 7.39932585 -0.13068362 12 14 877 7.48800000 2429703499 2429703499 -1.00000000
1.34961116 8.74825287 2.37181783 45 15 877 9.16400000 2429703502 2429703502 15.00000000
0.34446853 2.21235943 -0.59994256 3 0 885 2.31800000 2429703522 2429703522 -15.00000000
0.41136017 2.63592005 -0.61591601 3 2 887 2.73800000 2429703527 2429703527 -13.00000000
4.18712997 26.79965210 1.42154920 13 3 888 27.16200000 2429703529 2429703529 3.00000000
0.49398580 3.16174746 -0.62203735 2 4 888 3.26000000 2429703532 2429703532 -11.00000000
3.01433873 19.27116966 1.70650947 5 5 889 19.58000000 2429703534 2429703534 5.00000000
1.16101730 7.41410112 -1.18858910 143 6 890 7.59800000 2429703536 2429703536 -9.00000000
2.85073829 18.18367004 2.25994515 21 7 891 18.54400000 2429703539 2429703539 7.00000000
0.84398478 5.37729311 -0.66833150 2 8 892 5.48400000 2429703541 2429703541 -7.00000000
2.25191355 14.33132076 2.29770947 15 9 893 14.68800000 2429703543 2429703543 9.00000000
1.27699208 8.12685966 -0.71973211 8 10 893 8.25800000 2429703545 2429703545 -5.00000000
1.65724826 10.53484249 2.07294893 53 11 894 10.86400000 2429703548 2429703548 11.00000000
1.60281682 10.16571522 2.37593293 57 13 896 10.56200000 2429703552 2429703552 13.00000000
1.16826618 7.40122175 -0.13078834 8 14 897 7.49400000 2429703555 2429703555 -1.00000000
1.37985671 8.73179817 2.36871195 45 15 898 9.15200000 2429703557 2429703557 15.00000000
0.35431612 2.22449827 -0.60356599 3 0 905 2.33200000 2429703578 2429703578 -15.00000000
0.42301634 2.64986300 -0.61951518 3 2 907 2.75400000 2429703582 2429703582 -13.00000000
4.28380442 26.80459595 1.42259598 13 3 908 27.18200000 2429703585 2429703585 3.00000000
0.50625867 3.16775846 -0.62356383 2 4 908 3.26800000 2429703587 2429703587 -11.00000000
3.08631086 19.29004097 1.70912409 5 5 909 19.61000000 2429703589 2429703589 5.00000000
2.90885067 18.14028740 2.25580144 27 7 911 18.51000000 2429703594 2429703594 7.00000000
0.86904269 5.41351414 -0.67320627 2 8 912 5.52400000 2429703596 2429703596 -7.00000000
2.30005169 14.32767582 2.29833508 15 9 912 14.69200000 2429703598 2429703598 9.00000000
1.30472004 8.11841774 -0.71938348 8 10 913 8.25400000 2429703601 2429703601 -5.00000000
1.69276416 10.52124023 2.07142234 53 11 914 10.85600000 2429703603 2429703603 11.00000000
1.63829207 10.16005802 2.37593293 59 13 916 10.56200000 2429703608 2429703608 13.00000000
1.19951177 7.43065929 -0.13138172 6 14 917 7.52800000 2429703610 2429703610 -1.00000000
1.41157568 8.74433899 2.37337065 45 15 917 9.17000000 2429703612 2429703612 15.00000000
0.36176836 2.22134113 -0.60304838 4 0 925 2.33000000 2429703633 2429703633 -15.00000000
4.36720657 26.78618622 0.47372812 5 1 926 27.14400000 2429703635 2429703635 1.00000000
0.42975217 2.63298392 -0.61591601 3 2 927 2.73800000 2429703638 2429703638 -13.00000000
3.13831496 19.20658493 1.01992309 9 3 928 19.48800000 2429703640 2429703640 3.00000000
0.51984584 3.18147254 -0.62661672 2 4 928 3.28400000 2429703642 2429703642 -11.00000000
3.17035198 19.38139534 1.71818829 5 5 929 19.71400000 2429703645 2429703645 5.00000000
2.97311783 18.13590050 2.25653267 19 7 931 18.51600000 2429703649 2429703649 7.00000000
0.88150448 5.37126970 -0.66833150 2 8 932 5.48400000 2429703651 2429703651 -7.00000000
2.35351062 14.32499695 2.29927373 15 9 933 14.69800000 2429703654 2429703654 9.00000000
1.32400644 8.05876541 -0.71450275 4 10 933 8.19800000 2429703656 2429703656 -5.00000000
1.73139155 10.52689075 2.07371211 59 11 934 10.86800000 2429703658 2429703658 11.00000000
1.28950179 7.83165741 -0.41596618 4 12 935 7.94800000 2429703661 2429703661 -3.00000000
1.67184567 10.14274120 2.37323356 60 13 936 10.55000000 2429703663 2429703663 13.00000000
1.23781395 7.50140142 -0.13270810 2 14 937 7.60400000 2429703665 2429703665 -1.00000000
1.44361579 8.73910713 2.37337065 45 15 938 9.17000000 2429703668 2429703668 15.00000000
0.37040001 2.22775197 -0.60511893 4 0 944 2.33800000 2429703688 2429703688 -15.00000000
7.19291496 43.21480179 0.76469463 86 1 945 43.81600000 2429703691 2429703691 1.00000000
0.43912169 2.63538885 -0.61681581 3 2 946 2.74200000 2429703693 2429703693 -13.00000000
3.21086168 19.24926186 1.02274930 6 3 947 19.54200000 2429703695 2429703695 3.00000000
0.52716297 3.16036630 -0.62280059 2 4 947 3.26400000 2429703698 2429703698 -11.00000000
3.25166941 19.47296524 1.72725248 5 5 948 19.81800000 2429703700 2429703700 5.00000000
3.03684640 18.14747810 2.25921392 8 7 950 18.53800000 2429703704 2429703704 7.00000000
0.89537567 5.34482336 -0.66540664 2 8 951 5.46000000 2429703707 2429703707 -7.00000000
2.06331897 12.31670189 1.97795737 13 9 951 12.64400000 2429703709 2429703709 9.00000000
1.35204113 8.06219006 -0.71520001 4 10 952 8.20600000 2429703711 2429703711 -5.00000000
1.76759064 10.52883625 2.07523870 56 11 953 10.87600000 2429703714 2429703714 11.00000000
1.35783577 8.07945156 -0.42936417 4 12 954 8.20400000 2429703716 2429703716 -3.00000000
1.70223796 10.11792374 2.36873460 57 13 955 10.53000000 2429703718 2429703718 13.00000000
1.47138417 8.73643303 2.37388825 42 15 956 9.17200000 2429703723 2429703723 15.00000000
0.37882107 2.23025465 -0.60615420 4 0 964 2.34200000 2429703744 2429703744 -15.00000000
7.34807682 43.21505737 0.76514840 100 1 965 43.84200000 2429703746 2429703746 1.00000000
