# .PCD v0.7 - Point Cloud Data file format
VERSION 0.7
FIELDS x y z intensity laser_id azimuth distance_m adjustedtime timestamp vertical_angle
SIZE 4 4 4 1 1 2 8 8 4 8
TYPE F F F U U U F U U F
COUNT 1 1 1 1 1 1 1 1 1 1
WIDTH 520
HEIGHT 1
VIEWPOINT 0 0 0 1 0 0 0
POINTS 520
DATA ascii
-3.85515833 11.33093548 1.89567280 35 9 34121 12.11800000 2430095924 2430095924 9.00000000
-2.34439135 6.89449215 -0.63710850 4 10 34122 7.31000000 2430095926 2430095926 -5.00000000
-3.62605166 10.66976643 2.19048738 56 11 34123 11.48000000 2430095928 2430095928 11.00000000
-3.90535402 11.49820805 -0.63640523 4 12 34124 12.16000000 2430095931 2430095931 -3.00000000
-3.46275020 10.20093346 2.48705888 51 13 34125 11.05600000 2430095933 2430095933 13.00000000
-3.89003778 11.46625614 -0.21134864 6 14 34126 12.11000000 2430095935 2430095935 -1.00000000
-2.98318982 8.79828262 2.48932147 36 15 34127 9.61800000 2430095938 2430095938 15.00000000
-0.70128661 2.07543969 -0.58700162 4 0 34133 2.26800000 2430095958 2430095958 -15.00000000
-3.87466407 11.47357178 0.21138355 10 1 34134 12.11200000 2430095961 2430095961 1.00000000
-0.81823581 2.42433786 -0.59072149 3 2 34135 2.62600000 2430095963 2430095963 -13.00000000
-3.68399882 10.91526127 0.60374761 5 3 34135 11.53600000 2430095965 2430095965 3.00000000
-0.97889549 2.90202570 -0.59532404 2 4 34136 3.12000000 2430095968 2430095968 -11.00000000
-3.68076253 10.91825008 1.00804329 12 5 34137 11.56600000 2430095970 2430095970 5.00000000
-1.21350193 3.60168862 -0.60195982 2 6 34138 3.84800000 2430095972 2430095972 -9.00000000
-3.86430144 11.47591305 1.48680604 28 7 34139 12.20000000 2430095974 2430095974 7.00000000
-1.60950208 4.78253841 -0.61958373 2 8 34140 5.08400000 2430095977 2430095977 -7.00000000
-3.85284615 11.44850063 1.91319346 32 9 34140 12.23000000 2430095979 2430095979 9.00000000
-5.70248032 16.95436668 -1.56496847 5 10 34141 17.95600000 2430095981 2430095981 -5.00000000
-3.58564520 10.66684437 2.18743443 59 11 34142 11.46400000 2430095984 2430095984 11.00000000
-4.17568874 12.42933273 -0.68717110 4 12 34143 13.13000000 2430095986 2430095986 -3.00000000
-3.42270088 10.19388580 2.48255992 50 13 34144 11.03600000 2430095988 2430095988 13.00000000
-5.69115257 16.95986176 -0.31225845 30 14 34145 17.89200000 2430095991 2430095991 -1.00000000
-2.95553470 8.80761147 2.48932147 36 15 34145 9.61800000 2430095993 2430095993 15.00000000
-0.69587380 2.08337212 -0.58855450 4 0 34153 2.27400000 2430096014 2430096014 -15.00000000
-0.81223524 2.43457365 -0.59252107 3 2 34155 2.63400000 2430096018 2430096018 -13.00000000
-3.68759251 11.05309868 0.61065596 2 3 34155 11.66800000 2430096021 2430096021 3.00000000
-0.97000158 2.90914989 -0.59608728 2 4 34156 3.12400000 2430096023 2430096023 -11.00000000
-3.68042159 11.04444408 1.01850200 12 5 34157 11.68600000 2430096025 2430096025 5.00000000
-1.20966077 3.63214111 -0.60633999 2 6 34158 3.87600000 2430096027 2430096027 -9.00000000
-6.19084692 18.59953308 2.40691948 47 7 34159 19.75000000 2430096030 2430096030 7.00000000
-1.59279811 4.78812742 -0.61958373 2 8 34160 5.08400000 2430096032 2430096032 -7.00000000
-5.63886404 16.96093369 -1.56374836 5 10 34161 17.94200000 2430096037 2430096037 -5.00000000
-3.54838920 10.67929554 2.18743443 56 11 34162 11.46400000 2430096039 2430096039 11.00000000
-4.13794184 12.46089268 -0.68811315 4 12 34163 13.14800000 2430096041 2430096041 -3.00000000
-3.38464141 10.19837284 2.48076034 48 13 34164 11.02800000 2430096044 2430096044 13.00000000
-5.62625122 16.96254349 -0.31194431 52 14 34165 17.87400000 2430096046 2430096046 -1.00000000
-2.92201757 8.81471729 2.48828626 36 15 34166 9.61400000 2430096048 2430096048 15.00000000
-0.69101971 2.09312630 -0.59062505 4 0 34173 2.28200000 2430096069 2430096069 -15.00000000
-0.80251145 2.43369269 -0.59162128 3 2 34175 2.63000000 2430096074 2430096074 -13.00000000
-3.67768788 11.15948772 0.61578488 2 3 34176 11.76600000 2430096076 2430096076 3.00000000
-0.95246691 2.89014268 -0.59150791 2 4 34176 3.10000000 2430096078 2430096078 -11.00000000
-3.67550397 11.15941334 1.02791488 8 5 34177 11.79400000 2430096080 2430096080 5.00000000
-1.19203389 3.62133074 -0.60383701 2 6 34178 3.86000000 2430096083 2430096083 -9.00000000
-6.12960672 18.63234520 2.40838194 40 7 34179 19.76200000 2430096085 2430096085 7.00000000
-1.56615448 4.76348591 -0.61568391 2 8 34180 5.05200000 2430096087 2430096087 -7.00000000
-4.10229397 12.47719860 2.08026552 13 9 34180 13.29800000 2430096090 2430096090 9.00000000
-5.57153940 16.95590591 -1.56148231 10 10 34181 17.91600000 2430096092 2430096092 -5.00000000
-3.50802708 10.68229103 2.18552613 59 11 34182 11.45400000 2430096094 2430096094 11.00000000
-5.57486391 16.98601341 -0.93691832 5 12 34183 17.90200000 2430096097 2430096097 -3.00000000
-3.34841442 10.20827389 2.48031044 53 13 34184 11.02600000 2430096099 2430096099 13.00000000
-5.55517101 16.94597435 -0.31128111 60 14 34185 17.83600000 2430096101 2430096101 -1.00000000
-2.89036369 8.81701565 2.48621583 38 15 34185 9.60600000 2430096104 2430096104 15.00000000
-0.67891538 2.08083320 -0.58648396 4 0 34193 2.26600000 2430096124 2430096124 -15.00000000
-0.80125713 2.45871305 -0.59702009 3 2 34195 2.65400000 2430096129 2430096129 -13.00000000
-3.68571877 11.31658745 0.62373990 2 3 34196 11.91800000 2430096131 2430096131 3.00000000
-0.95088440 2.91958427 -0.59685051 4 4 34196 3.12800000 2430096133 2430096133 -11.00000000
-8.18820095 25.15586472 2.31450796 33 5 34197 26.55600000 2430096136 2430096136 5.00000000
-1.17816365 3.62171268 -0.60321128 2 6 34198 3.85600000 2430096138 2430096138 -9.00000000
-6.06453037 18.65362740 2.40838194 42 7 34199 19.76200000 2430096140 2430096140 7.00000000
-1.55933213 4.79913092 -0.61958373 2 8 34200 5.08400000 2430096143 2430096143 -7.00000000
-4.05165482 12.47712040 2.07776260 16 9 34201 13.28200000 2430096145 2430096145 9.00000000
-5.50616503 16.95630264 -1.55973911 5 10 34201 17.89600000 2430096147 2430096147 -5.00000000
-3.46647549 10.68139935 2.18285489 56 11 34202 11.44000000 2430096150 2430096150 11.00000000
-5.50752687 16.98067284 -0.93555754 10 12 34203 17.87600000 2430096152 2430096152 -3.00000000
-3.31756759 10.23472977 2.48390961 50 13 34204 11.04200000 2430096154 2430096154 13.00000000
-5.49228716 16.95384979 -0.31107169 52 14 34205 17.82400000 2430096157 2430096157 -1.00000000
-2.85564804 8.82019806 2.48414516 38 15 34206 9.59800000 2430096159 2430096159 15.00000000
-0.67046219 2.07951307 -0.58544868 4 0 34213 2.26200000 2430096180 2430096180 -15.00000000
-0.78789103 2.44665551 -0.59342086 3 2 34215 2.63800000 2430096184 2430096184 -13.00000000
-9.48964977 29.48605728 1.62335670 21 3 34216 31.01800000 2430096186 2430096186 3.00000000
-0.94189024 2.92662334 -0.59761375 2 4 34216 3.13200000 2430096189 2430096189 -11.00000000
-8.08935928 25.15015411 2.31137037 33 5 34217 26.52000000 2430096191 2430096191 5.00000000
-1.16672337 3.62956429 -0.60383701 2 6 34218 3.86000000 2430096193 2430096193 -9.00000000
-5.99573708 18.66334343 2.40691948 40 7 34219 19.75000000 2430096196 2430096196 7.00000000
-1.54257047 4.80454445 -0.61958373 2 8 34220 5.08400000 2430096198 2430096198 -7.00000000
-4.00301027 12.46791744 2.07400823 16 9 34220 13.25800000 2430096200 2430096200 9.00000000
-5.43963814 16.95265388 -1.55764747 10 10 34221 17.87200000 2430096203 2430096203 -5.00000000
-3.42197514 10.67100048 2.17827559 53 11 34222 11.41600000 2430096205 2430096205 11.00000000
-5.43420029 16.95604897 -0.93315011 10 12 34223 17.83000000 2430096207 2430096207 -3.00000000
-3.28003836 10.24068069 2.48255992 47 13 34224 11.03600000 2430096210 2430096210 13.00000000
-5.42880630 16.95958519 -0.31082734 50 14 34225 17.81000000 2430096212 2430096212 -1.00000000
-2.82873940 8.83697891 2.48621583 36 15 34225 9.60600000 2430096214 2430096214 15.00000000
-0.66671753 2.09288502 -0.58855450 4 0 34233 2.27400000 2430096235 2430096235 -15.00000000
-0.77698237 2.44196296 -0.59162128 3 2 34235 2.63000000 2430096239 2430096239 -13.00000000
-9.37456131 29.48093605 1.62126327 21 3 34236 30.97800000 2430096242 2430096242 3.00000000
-0.93285859 2.93363523 -0.59837699 4 4 34236 3.13600000 2430096244 2430096244 -11.00000000
-8.00393391 25.18583298 2.31206751 49 5 34237 26.52800000 2430096246 2430096246 5.00000000
-1.15045893 3.62231874 -0.60195982 2 6 34238 3.84800000 2430096249 2430096249 -9.00000000
-5.92274618 18.65956116 2.40375090 45 7 34239 19.72400000 2430096251 2430096251 7.00000000
-1.52579010 4.80989981 -0.61958373 2 8 34240 5.08400000 2430096253 2430096253 -7.00000000
-3.95370436 12.47120762 2.07213092 20 9 34241 13.24600000 2430096256 2430096256 9.00000000
-5.37139750 16.94305038 -1.55503273 10 10 34241 17.84200000 2430096258 2430096258 -5.00000000
-3.38351965 10.67913723 2.17751217 53 11 34242 11.41200000 2430096260 2430096260 11.00000000
-5.36774445 16.95206642 -0.93189406 10 12 34243 17.80600000 2430096262 2430096262 -3.00000000
-3.23956823 10.23720455 2.47896051 50 13 34244 11.02000000 2430096265 2430096265 13.00000000
-5.36354351 16.95936584 -0.31047830 52 14 34245 17.79000000 2430096267 2430096267 -1.00000000
-2.79633117 8.84728813 2.48621583 38 15 34246 9.60600000 2430096269 2430096269 15.00000000
-0.66246164 2.10233927 -0.59062505 4 0 34251 2.28200000 2430096290 2430096290 -15.00000000
-0.76813686 2.44067407 -0.59072149 3 2 34253 2.62600000 2430096295 2430096295 -13.00000000
-9.26751614 29.46451569 1.61875117 21 3 34254 30.93000000 2430096297 2430096297 3.00000000
-0.91656905 2.91407776 -0.59379756 4 4 34254 3.11200000 2430096299 2430096299 -11.00000000
-7.91521120 25.18044281 2.30927849 33 5 34255 26.49600000 2430096302 2430096302 5.00000000
-1.14380980 3.64099169 -0.60446280 2 6 34256 3.86400000 2430096304 2430096304 -9.00000000
-5.86171770 18.67049980 2.40277600 45 7 34257 19.71600000 2430096306 2430096306 7.00000000
-1.51067185 4.81466961 -0.61958373 2 8 34258 5.08400000 2430096309 2430096309 -7.00000000
-3.90958786 12.46026611 2.06837654 20 9 34258 13.22200000 2430096311 2430096311 9.00000000
-5.31158543 16.93892860 -1.55311537 10 10 34259 17.82000000 2430096313 2430096313 -5.00000000
-3.34760499 10.68222046 2.17598581 53 11 34260 11.40400000 2430096315 2430096315 11.00000000
-5.31267071 16.96312714 -0.93158001 10 12 34261 17.80000000 2430096318 2430096318 -3.00000000
-3.20622683 10.24361134 2.47806072 50 13 34262 11.01600000 2430096320 2430096320 13.00000000
-5.30307341 16.95322990 -0.31005946 50 14 34263 17.76600000 2430096322 2430096322 -1.00000000
-2.77122188 8.85923290 2.48725104 36 15 34263 9.61000000 2430096325 2430096325 15.00000000
-0.65167409 2.09357166 -0.58751923 4 0 34271 2.27000000 2430096345 2430096345 -15.00000000
-0.76192677 2.45078397 -0.59252107 3 2 34273 2.63400000 2430096350 2430096350 -13.00000000
-9.15453529 29.46426201 1.61697173 21 3 34274 30.89600000 2430096352 2430096352 3.00000000
-0.91105151 2.93225837 -0.59685051 4 4 34274 3.12800000 2430096355 2430096355 -11.00000000
-7.81958580 25.18318176 2.30701256 32 5 34275 26.47000000 2430096357 2430096357 5.00000000
-1.13460600 3.65628195 -0.60633999 2 6 34276 3.87600000 2430096359 2430096359 -9.00000000
-5.79650974 18.69084740 2.40277600 45 7 34277 19.71600000 2430096362 2430096362 7.00000000
-1.49385631 4.81991339 -0.61958373 2 8 34278 5.08400000 2430096364 2430096364 -7.00000000
-3.85629439 12.44998169 2.06430912 20 9 34279 13.19600000 2430096366 2430096366 9.00000000
-5.25183535 16.95546341 -1.55294096 10 10 34279 17.81800000 2430096368 2430096368 -5.00000000
-3.30681348 10.68258858 2.17369604 53 11 34280 11.39200000 2430096371 2430096371 11.00000000
-5.24988413 16.97011948 -0.93095201 5 12 34281 17.78800000 2430096373 2430096373 -3.00000000
-3.17045045 10.25474072 2.47806072 47 13 34282 11.01600000 2430096375 2430096375 13.00000000
-5.23618937 16.94680023 -0.30960569 55 14 34283 17.74000000 2430096378 2430096378 -1.00000000
-2.73474288 8.85641003 2.48362756 38 15 34284 9.59600000 2430096380 2430096380 15.00000000
-0.64095587 2.08475423 -0.58441341 4 0 34291 2.25800000 2430096401 2430096401 -15.00000000
-0.75794351 2.46833181 -0.59612030 3 2 34293 2.65000000 2430096405 2430096405 -13.00000000
-9.04166889 29.46357727 1.61519229 20 3 34294 30.86200000 2430096408 2430096408 3.00000000
-0.90196246 2.93917441 -0.59761375 4 4 34294 3.13200000 2430096410 2430096410 -11.00000000
-7.72520638 25.18937111 2.30509520 32 5 34295 26.44800000 2430096412 2430096412 5.00000000
-1.12299407 3.66399741 -0.60696572 2 6 34296 3.88000000 2430096415 2430096415 -9.00000000
-5.73355675 18.71855927 2.40375090 45 7 34297 19.72400000 2430096417 2430096417 7.00000000
-1.48167098 4.84028387 -0.62153363 2 8 34298 5.10000000 2430096419 2430096419 -7.00000000
-3.81383109 12.45892334 2.06368351 23 9 34298 13.19200000 2430096421 2430096421 9.00000000
-5.18329239 16.94320869 -1.55015206 10 10 34299 17.78600000 2430096424 2430096424 -5.00000000
-3.26606011 10.68280125 2.17140627 56 11 34300 11.38000000 2430096426 2430096426 11.00000000
-5.18828106 16.98070145 -0.93053329 5 12 34301 17.78000000 2430096428 2430096428 -3.00000000
-3.13463545 10.26574516 2.47806072 48 13 34302 11.01600000 2430096431 2430096431 13.00000000
-5.17350006 16.95350075 -0.30939627 52 14 34303 17.72800000 2430096433 2430096433 -1.00000000
-2.70423126 8.86173439 2.48259234 38 15 34303 9.59200000 2430096435 2430096435 15.00000000
-0.63704246 2.09807014 -0.58751923 4 0 34311 2.27000000 2430096456 2430096456 -15.00000000
-0.74366754 2.45231366 -0.59162128 3 2 34313 2.63000000 2430096461 2430096461 -13.00000000
-8.92486382 29.44908524 1.61268020 20 3 34314 30.81400000 2430096463 2430096463 3.00000000
-0.89055848 2.93854713 -0.59685051 2 4 34314 3.12800000 2430096465 2430096465 -11.00000000
-7.62452650 25.17423248 2.30126023 32 5 34315 26.40400000 2430096468 2430096468 5.00000000
-1.10218573 3.64142561 -0.60258555 2 6 34316 3.85200000 2430096470 2430096470 -9.00000000
-5.66588306 18.73085976 2.40277600 45 7 34317 19.71600000 2430096472 2430096472 7.00000000
-1.46936154 4.86062765 -0.62348354 2 8 34318 5.11600000 2430096474 2430096474 -7.00000000
-3.76414227 12.45958138 2.06149340 23 9 34319 13.17800000 2430096477 2430096477 9.00000000
-5.12066078 16.94975471 -1.54910612 10 10 34319 17.77400000 2430096479 2430096479 -5.00000000
-3.22250843 10.67346287 2.16720867 59 11 34320 11.35800000 2430096481 2430096481 11.00000000
-5.12032175 16.97002792 -0.92896324 5 12 34321 17.75000000 2430096484 2430096484 -3.00000000
-3.10215783 10.28781986 2.48076034 50 13 34322 11.02800000 2430096486 2430096486 13.00000000
-5.10852003 16.95230865 -0.30904722 52 14 34323 17.70800000 2430096488 2430096488 -1.00000000
-2.67284727 8.87528610 2.48362756 38 15 34324 9.59600000 2430096491 2430096491 15.00000000
-0.63193423 2.10768294 -0.58958977 4 0 34331 2.27800000 2430096511 2430096511 -15.00000000
-5.09049463 16.98904610 0.30957079 11 1 34332 17.73800000 2430096514 2430096514 1.00000000
-0.73510283 2.45489478 -0.59162128 3 2 34333 2.63000000 2430096516 2430096516 -13.00000000
-9.13121605 30.51330757 1.66920304 5 3 34334 31.89400000 2430096518 2430096518 3.00000000
-0.88704979 2.96420789 -0.60142994 2 4 34334 3.15200000 2430096521 2430096521 -11.00000000
-7.53146791 25.18351364 2.29969144 32 5 34335 26.38600000 2430096523 2430096523 5.00000000
-1.08720541 3.63768029 -0.60133410 2 6 34336 3.84400000 2430096525 2430096525 -9.00000000
-5.59592056 18.73530579 2.40082598 47 7 34337 19.70000000 2430096527 2430096527 7.00000000
-1.44897914 4.85431385 -0.62202114 2 8 34338 5.10400000 2430096530 2430096530 -7.00000000
-3.72054410 12.46442318 2.06024194 23 9 34338 13.17000000 2430096532 2430096532 9.00000000
-5.05349016 16.94079590 -1.54666579 10 10 34339 17.74600000 2430096534 2430096534 -5.00000000
-3.18298793 10.67712116 2.16568208 56 11 34340 11.35000000 2430096537 2430096537 11.00000000
-3.82416105 12.83607578 -0.70192987 4 12 34341 13.41200000 2430096539 2430096539 -3.00000000
-3.06177902 10.28364372 2.47716093 48 13 34342 11.01200000 2430096541 2430096541 13.00000000
-5.04361153 16.95087051 -0.30869818 57 14 34343 17.68800000 2430096544 2430096544 -1.00000000
-2.64285016 8.88224888 2.48310995 38 15 34343 9.59400000 2430096546 2430096546 15.00000000
-0.62786329 2.12099028 -0.59269559 4 0 34351 2.29000000 2430096567 2430096567 -15.00000000
-5.02492094 16.98561859 0.30918685 50 1 34352 17.71600000 2430096569 2430096569 1.00000000
-0.72763419 2.46118331 -0.59252107 3 2 34353 2.63400000 2430096571 2430096571 -13.00000000
-9.11180019 30.83996773 1.68532240 5 3 34354 32.20200000 2430096574 2430096574 3.00000000
-0.87224716 2.95222378 -0.59837699 2 4 34354 3.13600000 2430096576 2430096576 -11.00000000
-7.44012976 25.19818497 2.29864550 32 5 34355 26.37400000 2430096578 2430096578 5.00000000
-1.08120954 3.66418862 -0.60508853 2 6 34356 3.86800000 2430096580 2430096580 -9.00000000
-5.53161097 18.75853348 2.40131354 45 7 34357 19.70400000 2430096583 2430096583 7.00000000
-1.42978108 4.85172606 -0.62104619 2 8 34358 5.09600000 2430096585 2430096585 -7.00000000
-3.67254543 12.46217632 2.05773902 27 9 34358 13.15400000 2430096587 2430096587 9.00000000
-4.99657679 16.96597862 -1.54736304 10 10 34359 17.75400000 2430096590 2430096590 -5.00000000
-3.14292693 10.67875004 2.16377401 56 11 34360 11.34000000 2430096592 2430096592 11.00000000
-3.44513178 11.71310043 -0.63985938 8 12 34361 12.22600000 2430096594 2430096594 -3.00000000
-3.02256632 10.28305054 2.47446156 50 13 34362 11.00000000 2430096597 2430096597 13.00000000
-4.97877502 16.94918633 -0.30834910 57 14 34363 17.66800000 2430096599 2430096599 -1.00000000
-2.61074018 8.88771248 2.48207474 38 15 34363 9.59000000 2430096601 2430096601 15.00000000
-0.61503702 2.10462594 -0.58751923 4 0 34371 2.27000000 2430096622 2430096622 -15.00000000
-4.96111441 16.98769951 0.30890760 41 1 34372 17.70000000 2430096624 2430096624 1.00000000
-0.72231442 2.47493243 -0.59522051 3 2 34373 2.64600000 2430096627 2430096627 -13.00000000
-9.09860229 31.19562149 1.70301199 5 3 34374 32.54000000 2430096629 2430096629 3.00000000
-0.86303604 2.95902014 -0.59914023 2 4 34374 3.14000000 2430096631 2430096631 -11.00000000
-7.33874559 25.17809677 2.29446197 32 5 34375 26.32600000 2430096633 2430096633 5.00000000
-1.07504177 3.69069910 -0.60884291 2 6 34376 3.89200000 2430096636 2430096636 -9.00000000
-5.46554327 18.77582169 2.40106988 51 7 34377 19.70200000 2430096638 2430096638 7.00000000
-1.40950966 4.84525061 -0.61958373 2 8 34378 5.08400000 2430096640 2430096640 -7.00000000
-3.61912441 12.44899750 2.05335879 27 9 34379 13.12600000 2430096643 2430096643 9.00000000
-4.92731237 16.94887924 -1.54422545 10 10 34379 17.71800000 2430096645 2430096645 -5.00000000
-3.10344100 10.68211460 2.16224742 53 11 34380 11.33200000 2430096647 2430096647 11.00000000
-3.40143991 11.71546459 -0.63933605 12 12 34381 12.21600000 2430096650 2430096650 -3.00000000
-2.98665357 10.29353905 2.47446156 50 13 34382 11.00000000 2430096652 2430096652 13.00000000
-4.91178465 16.93957520 -0.30786046 57 14 34383 17.64000000 2430096654 2430096654 -1.00000000
-2.57754850 8.88934994 2.48000407 40 15 34383 9.58200000 2430096656 2430096656 15.00000000
-0.60768676 2.10676003 -0.58751923 4 0 34391 2.27000000 2430096677 2430096677 -15.00000000
-4.90344810 17.01067734 0.30901229 31 1 34392 17.70600000 2430096680 2430096680 1.00000000
-0.71259201 2.47369361 -0.59432071 3 2 34393 2.64200000 2430096682 2430096682 -13.00000000
-9.09739685 31.60145760 1.72342300 12 3 34394 32.93000000 2430096684 2430096684 3.00000000
-0.85161567 2.95824122 -0.59837699 2 4 34394 3.13600000 2430096686 2430096686 -11.00000000
-7.24199963 25.17292404 2.29167318 32 5 34395 26.29400000 2430096689 2430096689 5.00000000
-1.06215239 3.69442916 -0.60884291 2 6 34396 3.89200000 2430096691 2430096691 -9.00000000
-5.39503622 18.77761459 2.39887619 45 7 34397 19.68400000 2430096693 2430096693 7.00000000
-1.39697075 4.86540508 -0.62153363 2 8 34398 5.10000000 2430096696 2430096696 -7.00000000
-3.57346797 12.45395947 2.05210733 27 9 34399 13.11800000 2430096698 2430096698 9.00000000
-3.38553858 11.79900360 -1.07393301 4 10 34399 12.32200000 2430096700 2430096700 -5.00000000
-3.06180549 10.67778492 2.15919471 53 11 34400 11.31600000 2430096703 2430096703 11.00000000
-3.35227180 11.69846630 -0.63776594 12 12 34401 12.18600000 2430096705 2430096705 -3.00000000
-2.95177698 10.30764866 2.47536135 50 13 34402 11.00400000 2430096707 2430096707 13.00000000
-4.84987354 16.94700432 -0.30768591 40 14 34403 17.63000000 2430096709 2430096709 -1.00000000
-2.54016924 8.88202095 2.47534537 42 15 34404 9.56400000 2430096712 2430096712 15.00000000
-0.59890378 2.10525703 -0.58648396 4 0 34412 2.26600000 2430096733 2430096733 -15.00000000
-4.87387753 17.14394379 0.31110659 50 1 34413 17.82600000 2430096735 2430096735 1.00000000
-0.70352072 2.47628856 -0.59432071 3 2 34414 2.64200000 2430096737 2430096737 -13.00000000
-9.09770012 32.04383087 1.74571812 18 3 34415 33.35600000 2430096739 2430096739 3.00000000
-0.84505707 2.97645164 -0.60142994 2 4 34415 3.15200000 2430096742 2430096742 -11.00000000
-7.14642477 25.18779755 2.29062724 32 5 34416 26.28200000 2430096744 2430096744 5.00000000
-1.04321587 3.67929268 -0.60571426 2 6 34417 3.87200000 2430096746 2430096746 -9.00000000
-5.32509470 18.79344368 2.39838862 49 7 34418 19.68000000 2430096749 2430096749 7.00000000
-1.38345540 4.88577271 -0.62348354 2 8 34419 5.11600000 2430096751 2430096751 -7.00000000
-3.52349496 12.45176697 2.04960442 27 9 34420 13.10200000 2430096753 2430096753 9.00000000
-3.33630300 11.79024410 -1.07201564 9 10 34420 12.30000000 2430096756 2430096756 -5.00000000
-3.01837492 10.67382145 2.15614176 50 11 34421 11.30000000 2430096758 2430096758 11.00000000
-3.30285454 11.68761063 -0.63650990 21 12 34422 12.16200000 2430096760 2430096760 -3.00000000
-2.91397786 10.31839752 2.47536135 50 13 34423 11.00400000 2430096762 2430096762 13.00000000
-3.32778263 11.79154968 -0.21386179 15 14 34424 12.25400000 2430096765 2430096765 -1.00000000
-2.51124859 8.89827061 2.47741580 40 15 34424 9.57200000 2430096767 2430096767 15.00000000
-0.59572834 2.12221432 -0.59062505 4 0 34432 2.28200000 2430096788 2430096788 -15.00000000
-0.69592458 2.48248219 -0.59522051 3 2 34434 2.64600000 2430096792 2430096792 -13.00000000
-9.58329868 34.20823669 1.86179936 7 3 34435 35.57400000 2430096795 2430096795 3.00000000
-0.83254373 2.97182155 -0.59990346 2 4 34435 3.14400000 2430096797 2430096797 -11.00000000
-7.05093956 25.18572998 2.28818679 32 5 34436 26.25400000 2430096799 2430096799 5.00000000
-1.03888190 3.71334910 -0.61072016 2 6 34437 3.90400000 2430096802 2430096802 -9.00000000
-5.25411558 18.79279900 2.39595127 47 7 34438 19.66000000 2430096804 2430096804 7.00000000
-1.36852908 4.89821959 -0.62445849 2 8 34439 5.12400000 2430096806 2430096806 -7.00000000
-3.47682142 12.45257473 2.04772711 30 9 34440 13.09000000 2430096809 2430096809 9.00000000
-3.29298377 11.79414272 -1.07131839 4 10 34440 12.29200000 2430096811 2430096811 -5.00000000
-2.98004270 10.68051052 2.15537834 50 11 34441 11.29600000 2430096813 2430096813 11.00000000
-3.26686502 11.71638393 -0.63745195 17 12 34442 12.18000000 2430096815 2430096815 -3.00000000
-2.87637305 10.32287502 2.47401166 53 13 34443 10.99800000 2430096818 2430096818 13.00000000
-3.28982067 11.81465244 -0.21407121 24 14 34444 12.26600000 2430096820 2430096820 -1.00000000
-2.48017263 8.90698242 2.47741580 42 15 34444 9.57200000 2430096822 2430096822 15.00000000
-0.58802575 2.12035227 -0.58958977 4 0 34450 2.27800000 2430096843 2430096843 -15.00000000
-0.68604171 2.47714400 -0.59342086 3 2 34452 2.63800000 2430096848 2430096848 -13.00000000
-9.46896553 34.19032669 1.85928714 21 3 34452 35.52600000 2430096850 2430096850 3.00000000
-0.82425070 2.97820663 -0.60066670 2 4 34453 3.14800000 2430096852 2430096852 -11.00000000
-6.97071934 25.20391655 2.28783822 32 5 34454 26.25000000 2430096855 2430096855 5.00000000
-1.03352571 3.73944235 -0.61447459 2 6 34455 3.92800000 2430096857 2430096857 -9.00000000
-4.57988882 16.58195686 2.11223936 39 7 34456 17.33200000 2430096859 2430096859 7.00000000
-1.35313416 4.90249491 -0.62445849 2 8 34457 5.12400000 2430096861 2430096861 -7.00000000
-3.43565416 12.44760323 2.04522419 27 9 34457 13.07400000 2430096864 2430096864 9.00000000
-3.26809978 11.84860516 -1.07532752 4 10 34458 12.33800000 2430096866 2430096866 -5.00000000
-2.94595265 10.68792725 2.15499687 50 11 34459 11.29400000 2430096868 2430096868 11.00000000
-3.23693585 11.75162125 -0.63881266 12 12 34460 12.20600000 2430096871 2430096871 -3.00000000
-2.84082556 10.32058716 2.47131228 57 13 34461 10.98600000 2430096873 2430096873 13.00000000
-4.66184998 16.94784355 -0.30681330 25 14 34462 17.58000000 2430096875 2430096875 -1.00000000
-2.45064116 8.90914249 2.47586298 40 15 34462 9.56600000 2430096878 2430096878 15.00000000
-0.57960123 2.11866522 -0.58855450 4 0 34470 2.27400000 2430096898 2430096898 -15.00000000
-0.68149924 2.49456239 -0.59702009 3 2 34472 2.65400000 2430096903 2430096903 -13.00000000
-9.33569813 34.19589996 1.85771716 21 3 34473 35.49600000 2430096905 2430096905 3.00000000
-0.80971330 2.96591401 -0.59761375 2 4 34473 3.13200000 2430096908 2430096908 -11.00000000
-6.87797928 25.21079445 2.28626943 40 5 34474 26.23200000 2430096910 2430096910 5.00000000
-1.01527047 3.72396922 -0.61134589 2 6 34475 3.90800000 2430096912 2430096912 -9.00000000
-4.51571751 16.57485962 2.10931468 39 7 34476 17.30800000 2430096914 2430096914 7.00000000
-1.32975531 4.88420391 -0.62153363 2 8 34477 5.10000000 2430096917 2430096917 -7.00000000
-3.38741541 12.45058060 2.04365993 40 9 34478 13.06400000 2430096919 2430096919 9.00000000
-4.60758305 16.93535614 -1.53550982 10 10 34478 17.61800000 2430096921 2430096921 -5.00000000
-2.90759683 10.69435596 2.15423346 46 11 34479 11.29000000 2430096924 2430096924 11.00000000
-3.20165539 11.78404999 -0.63996404 8 12 34480 12.22800000 2430096926 2430096926 -3.00000000
-2.80580378 10.33420181 2.47221208 59 13 34481 10.99000000 2430096928 2430096928 13.00000000
-4.59218979 16.92541504 -0.30611521 45 14 34482 17.54000000 2430096931 2430096931 -1.00000000
-2.41645432 8.91247082 2.47431016 40 15 34483 9.56000000 2430096933 2430096933 15.00000000
-0.57220215 2.12067533 -0.58855450 4 0 34490 2.27400000 2430096954 2430096954 -15.00000000
-0.67177343 2.49316287 -0.59612030 3 2 34492 2.65000000 2430096958 2430096958 -13.00000000
-9.15261936 33.96825409 1.84369111 21 3 34492 35.22800000 2430096961 2430096961 3.00000000
-0.80037630 2.97251391 -0.59837699 4 4 34493 3.13600000 2430096963 2430096963 -11.00000000
-6.78424072 25.21348763 2.28435206 40 5 34494 26.21000000 2430096965 2430096965 5.00000000
-0.99918765 3.71604466 -0.60946870 2 6 34495 3.89600000 2430096967 2430096967 -9.00000000
-4.45680285 16.58668709 2.10882711 39 7 34496 17.30400000 2430096970 2430096970 7.00000000
-1.32093477 4.91949081 -0.62543344 2 8 34497 5.13200000 2430096972 2430096972 -7.00000000
-3.33779097 12.43943501 2.03990531 20 9 34498 13.04000000 2430096974 2430096974 9.00000000
-4.54224348 16.92824554 -1.53341818 10 10 34498 17.59400000 2430096977 2430096977 -5.00000000
-2.87126565 10.70823288 2.15499687 43 11 34499 11.29400000 2430096979 2430096979 11.00000000
-3.51563191 13.12051678 -0.71187365 4 12 34500 13.60200000 2430096981 2430096981 -3.00000000
-2.76870561 10.34016800 2.47131228 60 13 34501 10.98600000 2430096984 2430096984 13.00000000
-4.52998018 16.92975235 -0.30590579 47 14 34502 17.52800000 2430096986 2430096986 -1.00000000
-2.38289165 8.90550518 2.47016907 40 15 34502 9.54400000 2430096988 2430096988 15.00000000
-0.56578958 2.12639356 -0.58958977 4 0 34510 2.27800000 2430097009 2430097009 -15.00000000
-0.66006398 2.48419237 -0.59342086 3 2 34512 2.63800000 2430097013 2430097013 -13.00000000
-9.09041023 34.21232605 1.85520494 21 3 34512 35.44800000 2430097016 2430097016 3.00000000
-0.79301840 2.98667455 -0.60066670 2 4 34513 3.14800000 2430097018 2430097018 -11.00000000
-6.69618797 25.23701477 2.28435206 40 5 34514 26.21000000 2430097020 2430097020 5.00000000
-0.98216003 3.70423460 -0.60696572 2 6 34515 3.88000000 2430097023 2430097023 -9.00000000
-4.39480972 16.58679199 2.10687733 39 7 34516 17.28800000 2430097025 2430097025 7.00000000
-1.30375445 4.92407179 -0.62543344 2 8 34517 5.13200000 2430097027 2430097027 -7.00000000
-3.29333830 12.44719028 2.03927970 23 9 34518 13.03600000 2430097030 2430097030 9.00000000
-4.48108673 16.93629265 -1.53272092 15 10 34518 17.58600000 2430097032 2430097032 -5.00000000
-2.82784748 10.69541454 2.15041733 46 11 34519 11.27000000 2430097034 2430097034 11.00000000
-3.47491336 13.15201950 -0.71292037 4 12 34520 13.62200000 2430097037 2430097037 -3.00000000
-2.73358965 10.35353851 2.47221208 60 13 34521 10.99000000 2430097039 2430097039 13.00000000
-4.47136641 16.94739532 -0.30594069 25 14 34522 17.53000000 2430097041 2430097041 -1.00000000
-2.35031247 8.90816498 2.46861601 40 15 34522 9.53800000 2430097043 2430097043 15.00000000
-0.55836368 2.12835574 -0.58958977 4 0 34530 2.27800000 2430097064 2430097064 -15.00000000
-11.35956955 43.33091354 0.78190273 10 1 34531 44.80200000 2430097066 2430097066 1.00000000
-0.65237623 2.49025154 -0.59432071 3 2 34532 2.64200000 2430097069 2430097069 -13.00000000
-8.95028591 34.18938446 1.85216951 21 3 34533 35.39000000 2430097071 2430097071 3.00000000
-0.78457689 2.99702168 -0.60219318 2 4 34533 3.15600000 2430097073 2430097073 -11.00000000
-6.60805321 25.26023483 2.28435206 40 5 34534 26.21000000 2430097076 2430097076 5.00000000
-0.97122222 3.71528506 -0.60821718 2 6 34535 3.88800000 2430097078 2430097078 -9.00000000
-4.33086348 16.57898331 2.10395241 39 7 34536 17.26400000 2430097080 2430097080 7.00000000
-1.28856385 4.93627548 -0.62640840 2 8 34537 5.14000000 2430097083 2430097083 -7.00000000
-3.25054693 12.45230961 2.03834105 23 9 34537 13.03000000 2430097085 2430097085 9.00000000
-4.42194080 16.95183182 -1.53272092 15 10 34538 17.58600000 2430097087 2430097087 -5.00000000
-2.79346752 10.71661854 2.15270710 43 11 34539 11.28200000 2430097090 2430097090 11.00000000
-3.43200374 13.17566490 -0.71354842 4 12 34540 13.63400000 2430097092 2430097092 -3.00000000
-2.69448709 10.35170174 2.46951270 56 13 34541 10.97800000 2430097094 2430097094 13.00000000
-4.40362453 16.92999840 -0.30534729 45 14 34542 17.49600000 2430097096 2430097096 -1.00000000
-2.31618881 8.91111088 2.46706319 40 15 34543 9.53200000 2430097099 2430097099 15.00000000
-0.55286568 2.13777304 -0.59166032 4 0 34550 2.28600000 2430097119 2430097119 -15.00000000
-11.19824028 43.33158112 0.78120464 10 1 34551 44.76200000 2430097122 2430097122 1.00000000
-0.64757776 2.50760818 -0.59791988 3 2 34552 2.65800000 2430097124 2430097124 -13.00000000
-8.82437611 34.17053223 1.84955275 21 3 34552 35.34000000 2430097126 2430097126 3.00000000
-0.77312940 2.99593997 -0.60142994 2 4 34553 3.15200000 2430097129 2430097129 -11.00000000
-6.51585817 25.26771355 2.28295755 40 5 34554 26.19400000 2430097131 2430097131 5.00000000
-0.96613437 3.74925876 -0.61322308 2 6 34555 3.92000000 2430097133 2430097133 -9.00000000
-4.26999569 16.58246613 2.10248995 39 7 34556 17.25200000 2430097136 2430097136 7.00000000
-1.27132511 4.94074345 -0.62640840 2 8 34557 5.14000000 2430097138 2430097138 -7.00000000
-3.19947410 12.44309521 2.03489947 30 9 34558 13.00800000 2430097140 2430097140 9.00000000
-4.35976410 16.95558548 -1.53167498 10 10 34558 17.57400000 2430097143 2430097143 -5.00000000
-2.75701952 10.73010731 2.15347028 43 11 34559 11.28600000 2430097145 2430097145 11.00000000
-3.40089202 13.24560070 -0.71668857 4 12 34560 13.69400000 2430097147 2430097147 -3.00000000
-2.65446210 10.34594345 2.46591353 57 13 34561 10.96200000 2430097149 2430097149 13.00000000
-4.34251451 16.93751907 -0.30520767 47 14 34562 17.48800000 2430097152 2430097152 -1.00000000
-2.28554845 8.92101288 2.46758080 40 15 34563 9.53400000 2430097154 2430097154 15.00000000
-0.54386359 2.13210702 -0.58958977 4 0 34569 2.27800000 2430097175 2430097175 -15.00000000
-11.13104439 43.66882324 0.78661484 22 1 34570 45.07200000 2430097177 2430097177 1.00000000
-0.63637269 2.49841118 -0.59522051 3 2 34571 2.64600000 2430097179 2430097179 -13.00000000
-8.70854855 34.18992615 1.84902930 21 3 34571 35.33000000 2430097182 2430097182 3.00000000
-0.76028472 2.98707175 -0.59914023 2 4 34572 3.14000000 2430097184 2430097184 -11.00000000
-6.42466497 25.26021767 2.28034282 32 5 34573 26.16400000 2430097186 2430097186 5.00000000
-0.95369607 3.75244212 -0.61322308 2 6 34574 3.92000000 2430097189 2430097189 -9.00000000
-4.21596003 16.60038185 2.10297728 39 7 34575 17.25600000 2430097191 2430097191 7.00000000
-1.24907446 4.92184305 -0.62348354 2 8 34576 5.11600000 2430097193 2430097193 -7.00000000
-3.15745163 12.44159698 2.03302240 27 9 34576 12.99600000 2430097196 2430097196 9.00000000
-4.29861546 16.95063782 -1.52993190 10 10 34577 17.55400000 2430097198 2430097198 -5.00000000
-2.72142220 10.73919106 2.15347028 43 11 34578 11.28600000 2430097200 2430097200 11.00000000
-3.36430359 13.28584766 -0.71825868 4 12 34579 13.72400000 2430097202 2430097202 -3.00000000
-2.61727095 10.34335423 2.46321416 60 13 34580 10.95000000 2430097205 2430097205 13.00000000
-2.25264001 8.91543198 2.46395731 42 15 34582 9.52000000 2430097209 2430097209 15.00000000
-0.53641784 2.13399243 -0.58958977 4 0 34589 2.27800000 2430097230 2430097230 -15.00000000
-11.07159042 44.07784653 0.79328167 11 1 34590 45.45400000 2430097232 2430097232 1.00000000
-0.63239181 2.51951838 -0.59971952 3 2 34591 2.66600000 2430097235 2430097235 -13.00000000
-8.57991219 34.18331146 1.84704053 7 3 34591 35.29200000 2430097237 2430097237 3.00000000
-0.75367421 3.00494170 -0.60219318 2 4 34592 3.15600000 2430097239 2430097239 -11.00000000
-6.33596706 25.28055763 2.28016853 32 5 34593 26.16200000 2430097242 2430097242 5.00000000
-0.94251138 3.76341295 -0.61447459 2 6 34594 3.92800000 2430097244 2430097244 -9.00000000
-4.15798807 16.61499786 2.10297728 39 7 34595 17.25600000 2430097246 2430097246 7.00000000
-1.24440753 4.97624350 -0.62982076 2 8 34596 5.16800000 2430097249 2430097249 -7.00000000
-3.11160707 12.44296074 2.03145790 23 9 34596 12.98600000 2430097251 2430097251 9.00000000
-4.23459053 16.94621086 -1.52818882 10 10 34597 17.53400000 2430097253 2430097253 -5.00000000
-2.68201637 10.74100590 2.15194392 40 11 34598 11.27800000 2430097255 2430097255 11.00000000
-3.33483005 13.36533451 -0.72192216 4 12 34599 13.79400000 2430097258 2430097258 -3.00000000
-2.58114982 10.35242653 2.46321416 60 13 34600 10.95000000 2430097260 2430097260 13.00000000
-4.21745586 16.92787743 -0.30450958 2 14 34601 17.44800000 2430097262 2430097262 -1.00000000
-2.21917224 8.91386795 2.46136904 40 15 34602 9.51000000 2430097265 2430097265 15.00000000
-0.52766460 2.13219357 -0.58855450 4 0 34610 2.27400000 2430097285 2430097285 -15.00000000
-17.87348175 72.27748108 1.29961085 17 1 34611 74.46600000 2430097288 2430097288 1.00000000
-0.61941320 2.50668454 -0.59612030 3 2 34612 2.65000000 2430097290 2430097290 -13.00000000
-8.44977570 34.19514084 1.84599388 7 3 34612 35.27200000 2430097292 2430097292 3.00000000
-0.74265546 3.00768375 -0.60219318 4 4 34613 3.15600000 2430097295 2430097295 -11.00000000
-6.23944855 25.28813553 2.27877402 32 5 34614 26.14600000 2430097297 2430097297 5.00000000
-0.92398274 3.74766278 -0.61134589 2 6 34615 3.90800000 2430097299 2430097299 -9.00000000
-4.09421396 16.61856079 2.10151505 39 7 34616 17.24400000 2430097301 2430097301 7.00000000
-1.22426224 4.97306108 -0.62884581 2 8 34617 5.16000000 2430097304 2430097304 -7.00000000
-3.06692481 12.45811844 2.03208375 23 9 34617 12.99000000 2430097306 2430097306 9.00000000
-4.16864395 16.94613838 -1.52679431 10 10 34618 17.51800000 2430097308 2430097308 -5.00000000
-2.63841295 10.73360538 2.14850926 46 11 34619 11.26000000 2430097311 2430097311 11.00000000
-3.29725504 13.42401791 -0.72443432 4 12 34620 13.84200000 2430097313 2430097313 -3.00000000
-2.54504704 10.36938763 2.46501374 59 13 34621 10.95800000 2430097315 2430097315 13.00000000
-4.15967083 16.96070099 -0.30482373 12 14 34622 17.46600000 2430097318 2430097318 -1.00000000
-2.18528247 8.91030216 2.45826340 38 15 34622 9.49800000 2430097320 2430097320 15.00000000
-0.52387893 2.14903760 -0.59269559 4 0 34630 2.29000000 2430097341 2430097341 -15.00000000
-4.58499193 18.82266998 0.33815783 4 1 34631 19.37600000 2430097343 2430097343 1.00000000
-0.60789424 2.49747086 -0.59342086 3 2 34632 2.63800000 2430097345 2430097345 -13.00000000
-8.32233047 34.19143677 1.84421444 7 3 34632 35.23800000 2430097348 2430097348 3.00000000
-0.73400807 3.01788855 -0.60371965 2 4 34633 3.16400000 2430097350 2430097350 -11.00000000
-6.14831495 25.29814529 2.27772808 32 5 34634 26.13400000 2430097352 2430097352 5.00000000
-0.90996301 3.74702597 -0.61072016 2 6 34635 3.90400000 2430097354 2430097354 -9.00000000
-4.03337097 16.62117767 2.10005260 39 7 34636 17.23200000 2430097357 2430097357 7.00000000
-1.20502436 4.96958733 -0.62787086 2 8 34637 5.15200000 2430097359 2430097359 -7.00000000
-3.02109170 12.45914936 2.03051925 20 9 34637 12.98000000 2430097361 2430097361 9.00000000
-4.10665035 16.94896889 -1.52574849 10 10 34638 17.50600000 2430097364 2430097364 -5.00000000
-2.60231543 10.74847412 2.14965415 40 11 34639 11.26600000 2430097366 2430097366 11.00000000
-3.24896765 13.42962265 -0.72412032 8 12 34640 13.83600000 2430097368 2430097368 -3.00000000
-2.50517249 10.36305523 2.46141434 59 13 34641 10.94200000 2430097371 2430097371 13.00000000
-4.11640549 17.04120636 -0.30601048 7 14 34642 17.53400000 2430097373 2430097373 -1.00000000
-2.15442300 8.92576313 2.46033382 40 15 34643 9.50600000 2430097375 2430097375 15.00000000
-0.51674956 2.15076303 -0.59269559 4 0 34649 2.29000000 2430097396 2430097396 -15.00000000
-4.52208185 18.83582497 0.33812293 16 1 34650 19.37400000 2430097398 2430097398 1.00000000
-0.60142738 2.50705290 -0.59522051 3 2 34651 2.64600000 2430097401 2430097401 -13.00000000
-4.51698875 18.84358597 1.01552689 12 3 34652 19.40400000 2430097403 2430097403 3.00000000
-0.72125047 3.00885081 -0.60142994 2 4 34652 3.15200000 2430097405 2430097405 -11.00000000
-4.51940203 18.86818123 1.69744527 17 5 34653 19.47600000 2430097407 2430097407 5.00000000
-0.90075105 3.76347089 -0.61291021 2 6 34654 3.91800000 2430097410 2430097410 -9.00000000
-3.98100114 16.64604378 2.10151505 39 7 34655 17.24400000 2430097412 2430097412 7.00000000
-1.18761528 4.96969461 -0.62738335 2 8 34656 5.14800000 2430097414 2430097414 -7.00000000
-2.97470856 12.44796467 2.02707791 20 9 34656 12.95800000 2430097417 2430097417 9.00000000
-4.04810905 16.95280457 -1.52487683 5 10 34657 17.49600000 2430097419 2430097419 -5.00000000
-2.56301260 10.74176788 2.14660120 37 11 34658 11.25000000 2430097421 2430097421 11.00000000
-3.20256257 13.43255138 -0.72370160 8 12 34659 13.82800000 2430097424 2430097424 -3.00000000
-2.46718049 10.35614014 2.45781517 56 13 34660 10.92600000 2430097426 2430097426 13.00000000
-4.03579187 16.95360565 -0.30419543 10 14 34661 17.43000000 2430097428 2430097428 -1.00000000
-2.12547660 8.92872906 2.45929861 40 15 34661 9.50200000 2430097431 2430097431 15.00000000
-0.50834936 2.14879394 -0.59166032 4 0 34669 2.28600000 2430097451 2430097451 -15.00000000
-4.45262432 18.83592796 0.33784369 16 1 34670 19.35800000 2430097454 2430097454 1.00000000
-0.59536028 2.52051616 -0.59791988 3 2 34671 2.65800000 2430097456 2430097456 -13.00000000
-4.44751453 18.84368706 1.01468956 12 3 34672 19.38800000 2430097458 2430097458 3.00000000
-0.70984125 3.00752878 -0.60066670 2 4 34672 3.14800000 2430097460 2430097460 -11.00000000
-4.44756699 18.85863304 1.69517922 17 5 34673 19.45000000 2430097463 2430097463 5.00000000
-0.88806170 3.76851487 -0.61322308 2 6 34674 3.92000000 2430097465 2430097465 -9.00000000
-3.91832161 16.64051628 2.09907746 39 7 34675 17.22400000 2430097467 2430097467 7.00000000
-1.16662335 4.95835114 -0.62543344 2 8 34676 5.13200000 2430097470 2430097470 -7.00000000
-2.92589998 12.44532299 2.02488780 13 9 34677 12.94400000 2430097472 2430097472 9.00000000
-3.98206854 16.93773842 -1.52226222 5 10 34677 17.46600000 2430097474 2430097474 -5.00000000
-2.52684832 10.75638199 2.14774609 40 11 34678 11.25600000 2430097477 2430097477 11.00000000
-3.15839338 13.45531464 -0.72432965 4 12 34679 13.84000000 2430097479 2430097479 -3.00000000
-2.42923594 10.35710049 2.45601559 59 13 34680 10.91800000 2430097481 2430097481 13.00000000
-3.98160744 16.98900604 -0.30457941 2 14 34681 17.45200000 2430097484 2430097484 -1.00000000
-2.08921313 8.92141151 2.45515752 38 15 34682 9.48600000 2430097486 2430097486 15.00000000
-0.49902833 2.14106059 -0.58907217 4 0 34688 2.27600000 2430097507 2430097507 -15.00000000
-4.38469505 18.82721901 0.33742481 16 1 34689 19.33400000 2430097509 2430097509 1.00000000
-0.58876544 2.53006864 -0.59971952 3 2 34690 2.66600000 2430097511 2430097511 -13.00000000
-4.38183546 18.84471512 1.01395679 12 3 34691 19.37400000 2430097513 2430097513 3.00000000
-0.70342118 3.02516389 -0.60371965 2 4 34691 3.16400000 2430097516 2430097516 -11.00000000
-4.37824154 18.84416771 1.69256449 17 5 34692 19.42000000 2430097518 2430097518 5.00000000
-0.87555993 3.77143908 -0.61322308 2 6 34693 3.92000000 2430097520 2430097520 -9.00000000
-3.86042666 16.64181709 2.09761524 39 7 34694 17.21200000 2430097523 2430097523 7.00000000
-1.15555334 4.98539829 -0.62835836 2 8 34695 5.15600000 2430097525 2430097525 -7.00000000
-2.88232708 12.43521023 2.02175903 13 9 34695 12.92400000 2430097527 2430097527 9.00000000
-3.92587900 16.95085144 -1.52226222 5 10 34696 17.46600000 2430097530 2430097530 -5.00000000
-2.48895168 10.75513935 2.14583802 37 11 34697 11.24600000 2430097532 2430097532 11.00000000
-3.12230587 13.50268650 -0.72631842 4 12 34698 13.87800000 2430097534 2430097534 -3.00000000
-2.39531589 10.36699772 2.45646548 54 13 34699 10.92000000 2430097537 2430097537 13.00000000
-3.94189167 17.07420921 -0.30587086 2 14 34700 17.52600000 2430097539 2430097539 -1.00000000
-2.05943704 8.92040157 2.45308685 38 15 34700 9.47800000 2430097541 2430097541 15.00000000
-0.49241549 2.14655542 -0.59010744 4 0 34708 2.28000000 2430097562 2430097562 -15.00000000
-4.31090736 18.80732536 0.33679655 16 1 34709 19.29800000 2430097564 2430097564 1.00000000
-0.57819003 2.52451015 -0.59791988 3 2 34710 2.65800000 2430097566 2430097566 -13.00000000
-4.31112766 18.83848000 1.01280546 12 3 34711 19.35200000 2430097569 2430097569 3.00000000
-0.69460893 3.03525615 -0.60524613 2 4 34711 3.17200000 2430097571 2430097571 -11.00000000
-4.30799532 18.83991241 1.69082141 17 5 34712 19.40000000 2430097573 2430097573 5.00000000
-0.86326981 3.77832389 -0.61384887 2 6 34713 3.92400000 2430097576 2430097576 -9.00000000
-3.79789424 16.63583755 2.09517765 39 7 34714 17.19200000 2430097578 2430097578 7.00000000
-1.12754846 4.94295263 -0.62250859 6 8 34715 5.10800000 2430097580 2430097580 -7.00000000
-2.83585238 12.44183922 2.02113318 13 9 34716 12.92000000 2430097583 2430097583 9.00000000
-3.86181521 16.94308281 -1.52034473 5 10 34716 17.44400000 2430097585 2430097585 -5.00000000
-2.44965029 10.75610447 2.14431143 37 11 34717 11.23800000 2430097587 2430097587 11.00000000
-3.07914209 13.53103065 -0.72726047 4 12 34718 13.89600000 2430097589 2430097589 -3.00000000
-2.35868168 10.37339497 2.45601559 57 13 34719 10.91800000 2430097592 2430097592 13.00000000
-3.88935614 17.11906433 -0.30642936 2 14 34720 17.55800000 2430097594 2430097594 -1.00000000
-2.02672839 8.92788982 2.45308685 38 15 34721 9.47800000 2430097596 2430097596 15.00000000
-0.48619571 2.15391445 -0.59166032 4 0 34728 2.28600000 2430097617 2430097617 -15.00000000
-4.24215126 18.80860329 0.33655220 16 1 34729 19.28400000 2430097619 2430097619 1.00000000
-0.57023120 2.53031516 -0.59881973 3 2 34730 2.66200000 2430097622 2430097622 -13.00000000
-4.24314880 18.84367180 1.01228201 12 3 34731 19.34200000 2430097624 2430097624 3.00000000
-0.68055946 3.02233982 -0.60219318 2 4 34731 3.15600000 2430097626 2430097626 -11.00000000
-4.24133062 18.85094833 1.69047284 17 5 34732 19.39600000 2430097629 2430097629 5.00000000
-0.85094231 3.78516865 -0.61447459 2 6 34733 3.92800000 2430097631 2430097631 -9.00000000
-3.74241161 16.66061401 2.09664011 39 7 34734 17.20400000 2430097633 2430097633 7.00000000
-1.11898196 4.98559666 -0.62738335 2 8 34735 5.14800000 2430097636 2430097636 -7.00000000
-2.79414558 12.44924736 2.02082038 13 9 34735 12.91800000 2430097638 2430097638 9.00000000
-3.80657315 16.97395706 -1.52191353 5 10 34736 17.46200000 2430097640 2430097640 -5.00000000
-2.41294813 10.76842117 2.14507484 43 11 34737 11.24200000 2430097642 2430097642 11.00000000
-3.02752757 13.52220631 -0.72621375 4 12 34738 13.87600000 2430097645 2430097645 -3.00000000
-2.31947923 10.36825371 2.45286632 54 13 34739 10.90400000 2430097647 2430097647 13.00000000
-3.79075217 16.95885086 -0.30332282 2 14 34740 17.38000000 2430097649 2430097649 -1.00000000
-1.99795401 8.93833256 2.45412207 42 15 34740 9.48200000 2430097652 2430097652 15.00000000
-0.48118690 2.16691399 -0.59476614 4 0 34748 2.29800000 2430097672 2430097672 -15.00000000
-4.17647123 18.82329559 0.33655220 16 1 34749 19.28400000 2430097675 2430097675 1.00000000
-0.56055170 2.52848530 -0.59791988 3 2 34750 2.65800000 2430097677 2430097677 -13.00000000
-4.17216301 18.83496857 1.01102602 12 3 34751 19.31800000 2430097679 2430097679 3.00000000
-0.67255288 3.03619790 -0.60448289 2 4 34751 3.16800000 2430097682 2430097682 -11.00000000
-4.17162800 18.84812927 1.68890393 17 5 34752 19.37800000 2430097684 2430097684 5.00000000
-0.84028363 3.79968858 -0.61635178 2 6 34753 3.94000000 2430097686 2430097686 -9.00000000
-3.70993018 16.78987694 2.11126447 41 7 34754 17.32400000 2430097689 2430097689 7.00000000
-1.10585177 5.00885630 -0.62982076 2 8 34755 5.16800000 2430097691 2430097691 -7.00000000
-2.74424267 12.44011497 2.01769161 13 9 34756 12.89800000 2430097693 2430097693 9.00000000
-3.74644136 16.98324966 -1.52156496 5 10 34756 17.45800000 2430097695 2430097695 -5.00000000
-2.37365437 10.76910973 2.14354825 43 11 34757 11.23400000 2430097698 2430097698 11.00000000
-2.99749041 13.61071301 -0.73040062 4 12 34758 13.95600000 2430097700 2430097700 -3.00000000
-2.28076053 10.36486721 2.45016694 53 13 34759 10.89200000 2430097702 2430097702 13.00000000
-3.72509050 16.94268227 -0.30279925 5 14 34760 17.35000000 2430097705 2430097705 -1.00000000
-1.96310747 8.93616104 2.45153403 36 15 34761 9.47200000 2430097707 2430097707 15.00000000
-0.47197121 2.16103101 -0.59269559 4 0 34768 2.29000000 2430097728 2430097728 -15.00000000
-4.10818195 18.82603836 0.33634278 16 1 34769 19.27200000 2430097730 2430097730 1.00000000
-0.55255246 2.53423452 -0.59881973 3 2 34770 2.66200000 2430097732 2430097732 -13.00000000
-4.10384035 18.83770752 1.01039803 12 3 34771 19.30600000 2430097735 2430097735 3.00000000
-0.65860730 3.02318096 -0.60142994 2 4 34771 3.15200000 2430097737 2430097737 -11.00000000
-4.10114861 18.84116173 1.68698657 17 5 34772 19.35600000 2430097739 2430097739 5.00000000
-0.82869434 3.81031966 -0.61760324 2 6 34773 3.94800000 2430097742 2430097742 -9.00000000
-3.69682550 17.01222420 2.13758826 41 7 34774 17.54000000 2430097744 2430097744 7.00000000
-1.09509993 5.04372406 -0.63372058 2 8 34775 5.20000000 2430097746 2430097746 -7.00000000
-2.69752598 12.42405128 2.01362443 13 9 34775 12.87200000 2430097748 2430097748 9.00000000
-3.69304943 17.02348328 -1.52400529 5 10 34776 17.48600000 2430097751 2430097751 -5.00000000
-2.33604860 10.77732944 2.14354825 40 11 34777 11.23400000 2430097753 2430097753 11.00000000
-2.95080733 13.62499714 -0.73060995 4 12 34778 13.96000000 2430097755 2430097755 -3.00000000
-2.24456644 10.37276554 2.45016694 51 13 34779 10.89200000 2430097758 2430097758 13.00000000
-3.65916538 16.92431068 -0.30224079 7 14 34780 17.31800000 2430097760 2430097760 -1.00000000
-1.93019724 8.92751598 2.44739294 40 15 34780 9.45600000 2430097762 2430097762 15.00000000
-0.46239689 2.15322137 -0.59010744 4 0 34788 2.28000000 2430097783 2430097783 -15.00000000
