# .PCD v0.7 - Point Cloud Data file format
VERSION 0.7
FIELDS x y z intensity laser_id azimuth distance_m adjustedtime timestamp vertical_angle
SIZE 4 4 4 1 1 2 8 8 4 8
TYPE F F F U U U F U U F
COUNT 1 1 1 1 1 1 1 1 1 1
WIDTH 541
HEIGHT 1
VIEWPOINT 0 0 0 1 0 0 0
POINTS 541
DATA ascii
2.57297492 2.00661492 -0.63424909 5 4 5205 3.32400000 2429415494 2429415494 -11.00000000
3.22589517 2.51490974 0.35786149 6 5 5206 4.10600000 2429415497 2429415497 5.00000000
3.18943620 2.48559165 -0.64044273 9 6 5207 4.09400000 2429415499 2429415499 -9.00000000
3.23218060 2.51799655 0.50307667 7 7 5208 4.12800000 2429415501 2429415501 7.00000000
3.21852446 2.50645518 -0.50088298 10 8 5209 4.11000000 2429415504 2429415504 -7.00000000
3.23550105 2.51967597 0.64951593 8 9 5209 4.15200000 2429415506 2429415506 9.00000000
3.20406771 2.49429870 -0.35524681 9 10 5210 4.07600000 2429415508 2429415508 -5.00000000
3.22581601 2.51032519 0.79452866 8 11 5211 4.16400000 2429415510 2429415510 11.00000000
3.21592426 2.50172639 -0.21353070 7 12 5212 4.08000000 2429415513 2429415513 -3.00000000
3.24744916 2.52534056 0.94974333 8 13 5213 4.22200000 2429415515 2429415515 13.00000000
3.21282744 2.49751759 -0.07103129 7 14 5214 4.07000000 2429415517 2429415517 -1.00000000
3.24109578 2.51949215 1.09998095 8 15 5214 4.25000000 2429415520 2429415520 15.00000000
1.80934739 1.40246248 -0.61340111 4 0 5222 2.37000000 2429415540 2429415540 -15.00000000
3.23097301 2.50349092 0.07134544 7 1 5223 4.08800000 2429415543 2429415543 1.00000000
2.13994932 1.65752327 -0.62491405 3 2 5224 2.77800000 2429415545 2429415545 -13.00000000
3.24212217 2.51031923 0.21489143 7 3 5225 4.10600000 2429415547 2429415547 3.00000000
2.59393477 2.00843883 -0.63768369 5 4 5225 3.34200000 2429415550 2429415550 -11.00000000
3.24725890 2.51339006 0.35925597 6 5 5226 4.12200000 2429415552 2429415552 5.00000000
3.21371651 2.48653126 -0.64357138 9 6 5227 4.11400000 2429415554 2429415554 -9.00000000
3.25508237 2.51762915 0.50527030 7 7 5228 4.14600000 2429415557 2429415557 7.00000000
3.23510599 2.50127625 -0.50210172 8 8 5229 4.12000000 2429415559 2429415559 -7.00000000
3.26659584 2.52471209 0.65389609 8 9 5230 4.18000000 2429415561 2429415561 9.00000000
3.23482490 2.50015688 -0.35768718 9 10 5230 4.10400000 2429415563 2429415563 -5.00000000
3.25164843 2.51225305 0.79872644 8 11 5231 4.18600000 2429415566 2429415566 11.00000000
3.23254085 2.49658966 -0.21405406 7 12 5232 4.09000000 2429415568 2429415568 -3.00000000
3.26858473 2.52351665 0.95334256 8 13 5233 4.23800000 2429415570 2429415570 13.00000000
3.24368858 2.50339222 -0.07151996 7 14 5234 4.09800000 2429415573 2429415573 -1.00000000
3.27172208 2.52411675 1.10722792 8 15 5235 4.27800000 2429415575 2429415575 15.00000000
1.81423187 1.39613807 -0.61340111 4 0 5242 2.37000000 2429415596 2429415596 -15.00000000
3.25237203 2.50195169 0.07162467 7 1 5243 4.10400000 2429415598 2429415598 1.00000000
2.14881182 1.65241921 -0.62581384 3 2 5244 2.78200000 2429415600 2429415600 -13.00000000
3.25719881 2.50385571 0.21531013 7 3 5245 4.11400000 2429415603 2429415603 3.00000000
2.59314704 1.99338949 -0.63577557 5 4 5245 3.33200000 2429415605 2429415605 -11.00000000
3.27181053 2.51417947 0.36099908 6 5 5246 4.14200000 2429415607 2429415607 5.00000000
3.23177576 2.48251843 -0.64544863 9 6 5247 4.12600000 2429415610 2429415610 -9.00000000
3.27802086 2.51713228 0.50746393 7 7 5248 4.16400000 2429415612 2429415612 7.00000000
3.25641489 2.49963808 -0.50405163 8 8 5249 4.13600000 2429415614 2429415614 -7.00000000
3.28435183 2.52108264 0.65577328 8 9 5249 4.19200000 2429415616 2429415616 9.00000000
3.26250029 2.50340462 -0.35977891 9 10 5250 4.12800000 2429415619 2429415619 -5.00000000
3.28843760 2.52239513 0.80559558 8 11 5251 4.22200000 2429415621 2429415621 11.00000000
3.25708556 2.49744368 -0.21510078 7 12 5252 4.11000000 2429415623 2429415623 -3.00000000
3.28356004 2.51683378 0.95514220 8 13 5253 4.24600000 2429415626 2429415626 13.00000000
3.26193118 2.49935174 -0.07172939 7 14 5254 4.11000000 2429415628 2429415628 -1.00000000
3.29080868 2.52147818 1.11085129 8 15 5254 4.29200000 2429415630 2429415630 15.00000000
1.81909430 1.38979673 -0.61340111 4 0 5262 2.37000000 2429415651 2429415651 -15.00000000
3.28333473 2.50757599 0.07211334 7 1 5263 4.13200000 2429415653 2429415653 1.00000000
2.15456653 1.64490843 -0.62581384 3 2 5264 2.78200000 2429415656 2429415656 -13.00000000
3.28655934 2.50822282 0.21667086 7 3 5265 4.14000000 2429415658 2429415658 3.00000000
2.59228611 1.97837019 -0.63386750 6 4 5265 3.32200000 2429415660 2429415660 -11.00000000
3.29323912 2.51241136 0.36239359 7 5 5266 4.15800000 2429415663 2429415663 5.00000000
3.25141692 2.47960734 -0.64763868 9 6 5267 4.14000000 2429415665 2429415665 -9.00000000
3.30257416 2.51770949 0.50990134 7 7 5268 4.18400000 2429415667 2429415667 7.00000000
3.27775145 2.49788165 -0.50600153 8 8 5269 4.15200000 2429415669 2429415669 -7.00000000
3.30142689 2.51501322 0.65733761 8 9 5270 4.20200000 2429415672 2429415672 9.00000000
3.27755857 2.49683046 -0.36047617 9 10 5270 4.13600000 2429415674 2429415674 -5.00000000
3.31284165 2.52279544 0.80941176 8 11 5271 4.24200000 2429415676 2429415676 11.00000000
3.28803205 2.50299597 -0.21656619 7 12 5272 4.13800000 2429415679 2429415679 -3.00000000
3.30938411 2.51833797 0.96009111 8 13 5273 4.26800000 2429415681 2429415681 13.00000000
3.28495979 2.49884629 -0.07204353 7 14 5274 4.12800000 2429415683 2429415683 -1.00000000
3.30771708 2.51524639 1.11343956 8 15 5275 4.30200000 2429415686 2429415686 15.00000000
1.82061505 1.38142133 -0.61236584 4 0 5281 2.36600000 2429415706 2429415706 -15.00000000
3.30437803 2.50634193 0.07239258 7 1 5282 4.14800000 2429415709 2429415709 1.00000000
2.16622090 1.64246416 -0.62761343 3 2 5283 2.79000000 2429415711 2429415711 -13.00000000
3.30122566 2.50213599 0.21708955 7 3 5284 4.14800000 2429415713 2429415713 3.00000000
2.60509086 1.97450662 -0.63539398 5 4 5284 3.33000000 2429415716 2429415716 -11.00000000
3.29837656 2.49907017 0.36204496 7 5 5285 4.15400000 2429415718 2429415718 5.00000000
3.25804687 2.46761894 -0.64732581 9 6 5286 4.13800000 2429415720 2429415720 -9.00000000
3.32989669 2.52112293 0.51282620 7 7 5287 4.20800000 2429415722 2429415722 7.00000000
3.30342817 2.50017619 -0.50868267 8 8 5288 4.17400000 2429415725 2429415725 -7.00000000
3.31718731 2.51058984 0.65890199 8 9 5288 4.21200000 2429415727 2429415727 9.00000000
3.30170918 2.49796915 -0.36221927 9 10 5289 4.15600000 2429415729 2429415729 -5.00000000
3.32745290 2.51653266 0.81093824 8 11 5290 4.25000000 2429415732 2429415732 11.00000000
3.31383944 2.50532794 -0.21771757 7 12 5291 4.16000000 2429415734 2429415734 -3.00000000
3.32859993 2.51557446 0.96324039 8 13 5292 4.28200000 2429415736 2429415736 13.00000000
3.30758810 2.49878788 -0.07235768 7 14 5293 4.14600000 2429415739 2429415739 -1.00000000
3.32639241 2.51299405 1.11706305 8 15 5293 4.31600000 2429415741 2429415741 15.00000000
1.82388306 1.37389541 -0.61184824 4 0 5301 2.36400000 2429415762 2429415762 -15.00000000
3.31949639 2.49960375 0.07253220 7 1 5302 4.15600000 2429415764 2429415764 1.00000000
2.16882706 1.63254869 -0.62671363 3 2 5303 2.78600000 2429415766 2429415766 -13.00000000
3.34664583 2.51821733 0.21949700 7 3 5304 4.19400000 2429415769 2429415769 3.00000000
2.61510468 1.96776187 -0.63615721 6 4 5304 3.33400000 2429415771 2429415771 -11.00000000
3.33096337 2.50550652 0.36465964 7 5 5305 4.18400000 2429415773 2429415773 5.00000000
3.26032519 2.45148253 -0.64607435 11 6 5306 4.13000000 2429415775 2429415775 -9.00000000
3.34502411 2.51425505 0.51380116 7 7 5307 4.21600000 2429415778 2429415778 7.00000000
3.32800555 2.50055432 -0.51112002 8 8 5308 4.19400000 2429415780 2429415780 -7.00000000
3.34961963 2.51679444 0.66359502 8 9 5308 4.24200000 2429415782 2429415782 9.00000000
3.33271170 2.50318050 -0.36465964 9 10 5309 4.18400000 2429415785 2429415785 -5.00000000
3.35034680 2.51551151 0.81437278 8 11 5310 4.26800000 2429415787 2429415787 11.00000000
3.32735658 2.49734187 -0.21803160 7 12 5311 4.16600000 2429415789 2429415789 -3.00000000
3.35606599 2.51797438 0.96863925 8 13 5312 4.30600000 2429415792 2429415792 13.00000000
3.33228803 2.49922514 -0.07270672 7 14 5313 4.16600000 2429415794 2429415794 -1.00000000
3.34596252 2.50948119 1.12068641 8 15 5313 4.33000000 2429415796 2429415796 15.00000000
1.83021474 1.36867750 -0.61236584 4 0 5321 2.36600000 2429415817 2429415817 -15.00000000
3.34421778 2.49997425 0.07288125 7 1 5322 4.17600000 2429415819 2429415819 1.00000000
2.16514635 1.61796892 -0.62401420 3 2 5323 2.77400000 2429415822 2429415822 -13.00000000
3.35381556 2.50532484 0.21939233 7 3 5324 4.19200000 2429415824 2429415824 3.00000000
2.62353039 1.95979643 -0.63653880 5 4 5324 3.33600000 2429415826 2429415826 -11.00000000
3.36682796 2.51412964 0.36762291 7 5 5325 4.21800000 2429415828 2429415828 5.00000000
3.28627563 2.45308495 -0.64951593 9 6 5326 4.15200000 2429415831 2429415831 -9.00000000
3.36014390 2.50731206 0.51477611 7 7 5327 4.22400000 2429415833 2429415833 7.00000000
3.34307861 2.49366975 -0.51209497 8 8 5328 4.20200000 2429415835 2429415835 -7.00000000
3.38574290 2.52457428 0.66891378 8 9 5329 4.27600000 2429415838 2429415838 9.00000000
3.35101247 2.49867773 -0.36570549 9 10 5329 4.19600000 2429415840 2429415840 -5.00000000
3.37642217 2.51670742 0.81857061 8 11 5330 4.29000000 2429415842 2429415842 11.00000000
3.35046768 2.49645209 -0.21897364 8 12 5331 4.18400000 2429415845 2429415845 -3.00000000
3.37264919 2.51206446 0.97088873 8 13 5332 4.31600000 2429415847 2429415847 13.00000000
3.36665440 2.50668573 -0.07326520 7 14 5333 4.19800000 2429415849 2429415849 -1.00000000
3.38259315 2.51855326 1.13000393 8 15 5333 4.36600000 2429415851 2429415851 15.00000000
1.83032787 1.35882580 -0.61081296 4 0 5341 2.36000000 2429415872 2429415872 -15.00000000
3.37540531 2.50496960 0.07336992 7 1 5342 4.20400000 2429415875 2429415875 1.00000000
2.17704129 1.61504567 -0.62581384 3 2 5343 2.78200000 2429415877 2429415877 -13.00000000
3.37377024 2.50193024 0.22012503 7 3 5344 4.20600000 2429415879 2429415879 3.00000000
2.61773992 1.94127119 -0.63348585 5 4 5344 3.32000000 2429415881 2429415881 -11.00000000
3.38838768 2.51185393 0.36901742 7 5 5345 4.23400000 2429415884 2429415884 5.00000000
3.30116677 2.44630337 -0.65076739 9 6 5346 4.16000000 2429415886 2429415886 -9.00000000
3.39439750 2.51447344 0.51867592 7 7 5347 4.25600000 2429415888 2429415888 7.00000000
3.36612058 2.49261713 -0.51428860 8 8 5348 4.22000000 2429415891 2429415891 -7.00000000
3.39612246 2.51391578 0.66922665 8 9 5349 4.27800000 2429415893 2429415893 9.00000000
3.38213372 2.50356078 -0.36814585 9 10 5349 4.22400000 2429415895 2429415895 -5.00000000
3.39938998 2.51541638 0.82200515 8 11 5350 4.30800000 2429415898 2429415898 11.00000000
3.38164163 2.50136995 -0.22043905 8 12 5351 4.21200000 2429415900 2429415900 -3.00000000
3.39236593 2.50838661 0.97403806 8 13 5352 4.33000000 2429415902 2429415902 13.00000000
3.38824868 2.50442767 -0.07354444 7 14 5353 4.21400000 2429415904 2429415904 -1.00000000
3.40423131 2.51532269 1.13414502 8 15 5354 4.38200000 2429415907 2429415907 15.00000000
1.83972526 1.35586691 -0.61236584 4 0 5361 2.36600000 2429415928 2429415928 -15.00000000
3.40022826 2.50503278 0.07371897 7 1 5362 4.22400000 2429415930 2429415930 1.00000000
2.17952728 1.60512531 -0.62491405 3 2 5363 2.77800000 2429415932 2429415932 -13.00000000
3.40339231 2.50553155 0.22148576 7 3 5364 4.23200000 2429415934 2429415934 3.00000000
2.62924337 1.93561351 -0.63463074 6 4 5364 3.32600000 2429415937 2429415937 -11.00000000
3.41157746 2.51063919 0.37058622 7 5 5365 4.25200000 2429415939 2429415939 5.00000000
3.30809474 2.43359470 -0.65045452 9 6 5366 4.15800000 2429415941 2429415941 -9.00000000
3.42234468 2.51672196 0.52160078 7 7 5367 4.28000000 2429415944 2429415944 7.00000000
3.38919568 2.49143362 -0.51648229 8 8 5368 4.23800000 2429415946 2429415946 -7.00000000
3.41442776 2.50906420 0.67110384 8 9 5369 4.29000000 2429415948 2429415948 9.00000000
3.39727402 2.49645901 -0.36884311 9 10 5369 4.23200000 2429415951 2429415951 -5.00000000
3.43188334 2.52096891 0.82772940 8 11 5370 4.33800000 2429415953 2429415953 11.00000000
3.40001154 2.49664330 -0.22106709 8 12 5371 4.22400000 2429415955 2429415955 -3.00000000
3.41995239 2.51036739 0.97943687 9 13 5372 4.35400000 2429415957 2429415957 13.00000000
3.40825582 2.50086617 -0.07378878 7 14 5373 4.22800000 2429415960 2429415960 -1.00000000
3.42657161 2.51430583 1.13880384 8 15 5373 4.40000000 2429415962 2429415962 15.00000000
1.84132862 1.34715545 -0.61133057 4 0 5381 2.36200000 2429415983 2429415983 -15.00000000
3.41863632 2.50023150 0.07392839 7 1 5382 4.23600000 2429415985 2429415985 1.00000000
2.19455600 1.60440826 -0.62761343 3 2 5383 2.79000000 2429415987 2429415987 -13.00000000
3.42985535 2.50659943 0.22263716 7 3 5384 4.25400000 2429415990 2429415990 3.00000000
2.63122869 1.92294872 -0.63348585 5 4 5384 3.32000000 2429415992 2429415992 -11.00000000
3.43319082 2.50811791 0.37198070 7 5 5385 4.26800000 2429415994 2429415994 5.00000000
3.31975985 2.42436242 -0.65108025 9 6 5386 4.16200000 2429415997 2429415997 -9.00000000
3.45515871 2.52231717 0.52525687 7 7 5387 4.31000000 2429415999 2429415999 7.00000000
3.41711426 2.49363017 -0.51940715 8 8 5388 4.26200000 2429416001 2429416001 -7.00000000
3.44391155 2.51226449 0.67517114 8 9 5389 4.31600000 2429416004 2429416004 9.00000000
3.41884470 2.49397850 -0.37023759 9 10 5389 4.24800000 2429416006 2429416006 -5.00000000
3.45652509 2.52054143 0.83154559 8 11 5390 4.35800000 2429416008 2429416008 11.00000000
3.43291521 2.50240731 -0.22263716 8 12 5391 4.25400000 2429416010 2429416010 -3.00000000
3.44916892 2.51333356 0.98528564 9 13 5392 4.38000000 2429416013 2429416013 13.00000000
3.43151188 2.49955034 -0.07410292 7 14 5393 4.24600000 2429416015 2429416015 -1.00000000
3.44938087 2.51256633 1.14346254 8 15 5393 4.41800000 2429416017 2429416017 15.00000000
1.83953428 1.33649993 -0.60926002 4 0 5400 2.35400000 2429416038 2429416038 -15.00000000
3.43823433 2.49710679 0.07417273 7 1 5401 4.25000000 2429416040 2429416040 1.00000000
2.19671035 1.59483218 -0.62671363 3 2 5402 2.78600000 2429416043 2429416043 -13.00000000
3.46195650 2.51341271 0.22420724 7 3 5402 4.28400000 2429416045 2429416045 3.00000000
2.64076877 1.91651893 -0.63424909 5 4 5403 3.32400000 2429416047 2429416047 -11.00000000
3.45922875 2.50958896 0.37389815 7 5 5404 4.29000000 2429416050 2429416050 5.00000000
3.32138467 2.40870142 -0.64982879 9 6 5405 4.15400000 2429416052 2429416052 -9.00000000
3.46832561 2.51434088 0.52598810 7 7 5406 4.31600000 2429416054 2429416054 7.00000000
3.44947553 2.49975753 -0.52306324 8 8 5407 4.29200000 2429416056 2429416056 -7.00000000
3.47098160 2.51534247 0.67892557 8 9 5407 4.34000000 2429416059 2429416059 9.00000000
3.44968534 2.49899149 -0.37267795 9 10 5408 4.27600000 2429416061 2429416061 -5.00000000
3.46963501 2.51251984 0.83269048 8 11 5409 4.36400000 2429416063 2429416063 11.00000000
3.44443035 2.49335170 -0.22284651 8 12 5410 4.25800000 2429416066 2429416066 -3.00000000
3.47800851 2.51673317 0.99113435 9 13 5411 4.40600000 2429416068 2429416068 13.00000000
3.45598412 2.49987721 -0.07445197 7 14 5412 4.26600000 2429416070 2429416070 -1.00000000
3.48117304 2.51809740 1.15122712 8 15 5412 4.44800000 2429416073 2429416073 15.00000000
1.85672319 1.33911097 -0.61340111 4 0 5420 2.37000000 2429416093 2429416093 -15.00000000
3.46639514 2.49912333 0.07459158 7 1 5421 4.27400000 2429416096 2429416096 1.00000000
2.19594026 1.58259702 -0.62491405 3 2 5422 2.77800000 2429416098 2429416098 -13.00000000
3.47600698 2.50420952 0.22452125 7 3 5423 4.29000000 2429416100 2429416100 3.00000000
2.65062833 1.90958440 -0.63501233 5 4 5423 3.32800000 2429416103 2429416103 -11.00000000
3.48413539 2.50914192 0.37564126 7 5 5424 4.31000000 2429416105 2429416105 5.00000000
3.33297873 2.39940119 -0.65045452 9 6 5425 4.15800000 2429416107 2429416107 -9.00000000
3.48835993 2.51033545 0.52769428 7 7 5426 4.33000000 2429416109 2429416109 7.00000000
3.47429490 2.49929357 -0.52550060 8 8 5427 4.31200000 2429416112 2429416112 -7.00000000
3.49942255 2.51644301 0.68268001 8 9 5428 4.36400000 2429416114 2429416114 9.00000000
3.46971059 2.49507689 -0.37389815 9 10 5428 4.29000000 2429416116 2429416116 -5.00000000
3.48954296 2.50841475 0.83536178 8 11 5429 4.37800000 2429416119 2429416119 11.00000000
3.46608829 2.49063706 -0.22368388 8 12 5430 4.27400000 2429416121 2429416121 -3.00000000
3.49785137 2.51253557 0.99428368 8 13 5431 4.42000000 2429416123 2429416123 13.00000000
3.48418117 2.50179458 -0.07487082 7 14 5432 4.29000000 2429416126 2429416126 -1.00000000
3.51235056 2.52109241 1.15847409 8 15 5433 4.47600000 2429416128 2429416128 15.00000000
1.86115360 1.33294654 -0.61340111 4 0 5439 2.37000000 2429416149 2429416149 -15.00000000
3.49580073 2.50274754 0.07504535 7 1 5440 4.30000000 2429416151 2429416151 1.00000000
2.21385384 1.58437932 -0.62851322 3 2 5441 2.79400000 2429416153 2429416153 -13.00000000
3.49847460 2.50373840 0.22546330 7 3 5441 4.30800000 2429416156 2429416156 3.00000000
2.65215611 1.89735723 -0.63386750 5 4 5442 3.32200000 2429416158 2429416158 -11.00000000
3.51188445 2.51148200 0.37773299 7 5 5443 4.33400000 2429416160 2429416160 5.00000000
3.34573793 2.39178181 -0.65139312 9 6 5444 4.16400000 2429416162 2429416162 -9.00000000
3.51604629 2.51260376 0.53061914 7 7 5445 4.35400000 2429416165 2429416165 7.00000000
3.49387074 2.49583578 -0.52720678 8 8 5446 4.32600000 2429416167 2429416167 -7.00000000
3.52221656 2.51515627 0.68549585 8 9 5447 4.38200000 2429416169 2429416169 9.00000000
3.50228691 2.50092483 -0.37651280 10 10 5447 4.32000000 2429416172 2429416172 -5.00000000
3.52820253 2.51850104 0.84261250 8 11 5448 4.41600000 2429416174 2429416174 11.00000000
3.48408341 2.48608994 -0.22431190 8 12 5449 4.28600000 2429416176 2429416176 -3.00000000
3.52361560 2.51337051 0.99923259 8 13 5450 4.44200000 2429416179 2429416179 13.00000000
3.50385571 2.49835324 -0.07511516 7 14 5451 4.30400000 2429416181 2429416181 -1.00000000
3.53283715 2.51901793 1.16261518 8 15 5451 4.49200000 2429416183 2429416183 15.00000000
1.86894417 1.32868040 -0.61443639 4 0 5459 2.37400000 2429416204 2429416204 -15.00000000
3.52081585 2.50211358 0.07539440 7 1 5460 4.32000000 2429416206 2429416206 1.00000000
2.20666170 1.56761324 -0.62491405 3 2 5461 2.77800000 2429416208 2429416208 -13.00000000
3.52673173 2.50539136 0.22671936 7 3 5461 4.33200000 2429416211 2429416211 3.00000000
2.64755797 1.88013089 -0.63119614 5 4 5462 3.30800000 2429416213 2429416213 -11.00000000
3.53200221 2.50728106 0.37895316 7 5 5463 4.34800000 2429416215 2429416215 5.00000000
3.35245538 2.37894535 -0.65108025 9 6 5464 4.16200000 2429416218 2429416218 -9.00000000
3.54908204 2.51754284 0.53427517 7 7 5465 4.38400000 2429416220 2429416220 7.00000000
3.52199316 2.49740338 -0.53013164 8 8 5466 4.35000000 2429416222 2429416222 -7.00000000
3.53742099 2.50741529 0.68674731 8 9 5467 4.39000000 2429416225 2429416225 9.00000000
3.52725005 2.50020599 -0.37825593 10 10 5467 4.34000000 2429416227 2429416227 -5.00000000
3.55939865 2.52206063 0.84795517 8 11 5468 4.44400000 2429416229 2429416229 11.00000000
3.52533698 2.49700141 -0.22640535 8 12 5469 4.32600000 2429416232 2429416232 -3.00000000
3.54509091 2.51006436 1.00283182 8 13 5470 4.45800000 2429416234 2429416234 13.00000000
3.52398086 2.49419427 -0.07535949 7 14 5471 4.31800000 2429416236 2429416236 -1.00000000
3.55737710 2.51783133 1.16779149 8 15 5471 4.51200000 2429416238 2429416238 15.00000000
1.86071420 1.31356239 -0.61029530 4 0 5478 2.35800000 2429416259 2429416259 -15.00000000
3.53889680 2.49734211 0.07560383 7 1 5479 4.33200000 2429416261 2429416261 1.00000000
2.21821737 1.56478024 -0.62671363 3 2 5480 2.78600000 2429416264 2429416264 -13.00000000
3.54851365 2.50227356 0.22755674 7 3 5481 4.34800000 2429416266 2429416266 3.00000000
2.66500926 1.87926078 -0.63386750 5 4 5481 3.32200000 2429416268 2429416268 -11.00000000
3.54518270 2.49899840 0.37947610 7 5 5482 4.35400000 2429416271 2429416271 5.00000000
3.34256339 2.35529900 -0.64763868 6 6 5483 4.14000000 2429416273 2429416273 -9.00000000
3.57364011 2.51719117 0.53671259 7 7 5484 4.40400000 2429416275 2429416275 7.00000000
3.54648662 2.49713898 -0.53256905 8 8 5485 4.37000000 2429416278 2429416278 -7.00000000
3.56627774 2.51107430 0.69081461 8 9 5485 4.41600000 2429416280 2429416280 9.00000000
3.54529715 2.49537611 -0.37930179 10 10 5486 4.35200000 2429416282 2429416282 -5.00000000
3.58379889 2.52154040 0.85177135 9 11 5487 4.46400000 2429416285 2429416285 11.00000000
3.55646896 2.50138330 -0.22787075 8 12 5488 4.35400000 2429416287 2429416287 -3.00000000
3.57571340 2.51398587 1.00913048 8 13 5489 4.48600000 2429416289 2429416289 13.00000000
3.55677319 2.49974203 -0.07588306 7 14 5490 4.34800000 2429416291 2429416291 -1.00000000
3.56614423 2.50539851 1.16779149 8 15 5491 4.51200000 2429416294 2429416294 15.00000000
1.86528802 1.30705929 -0.61029530 4 0 5498 2.35800000 2429416314 2429416314 -15.00000000
3.56397104 2.49644661 0.07595287 7 1 5499 4.35200000 2429416317 2429416317 1.00000000
2.23324394 1.56373429 -0.62941307 3 2 5500 2.79800000 2429416319 2429416319 -13.00000000
3.57969666 2.50653076 0.22902215 7 3 5500 4.37600000 2429416321 2429416321 3.00000000
2.67316127 1.87107253 -0.63424909 5 4 5501 3.32400000 2429416324 2429416324 -11.00000000
3.57837129 2.50374150 0.38209078 7 5 5502 4.38400000 2429416326 2429416326 5.00000000
3.35885835 2.34927797 -0.64920300 9 6 5503 4.15000000 2429416328 2429416328 -9.00000000
3.59216642 2.51152635 0.53817505 7 7 5504 4.41600000 2429416331 2429416331 7.00000000
3.57633376 2.49952769 -0.53573763 8 8 5505 4.39600000 2429416333 2429416333 -7.00000000
3.59488916 2.51156235 0.69456905 8 9 5506 4.44000000 2429416335 2429416335 9.00000000
3.58011842 2.50124264 -0.38209078 10 10 5506 4.38400000 2429416338 2429416338 -5.00000000
3.59579802 2.51126361 0.85253459 9 11 5507 4.46800000 2429416340 2429416340 11.00000000
3.57827997 2.49810004 -0.22870813 8 12 5508 4.37000000 2429416342 2429416342 -3.00000000
3.60843801 2.51821780 1.01587892 8 13 5509 4.51600000 2429416344 2429416344 13.00000000
3.57859778 2.49646425 -0.07616230 7 14 5510 4.36400000 2429416347 2429416347 -1.00000000
3.59546804 2.50730038 1.17452085 8 15 5511 4.53800000 2429416349 2429416349 15.00000000
1.87935495 1.30715883 -0.61340111 4 0 5518 2.37000000 2429416370 2429416370 -15.00000000
3.59236574 2.49768925 0.07637173 7 1 5519 4.37600000 2429416372 2429416372 1.00000000
2.21628594 1.54035878 -0.62311441 3 2 5520 2.77000000 2429416374 2429416374 -13.00000000
3.60318470 2.50427866 0.22996420 7 3 5520 4.39400000 2429416377 2429416377 3.00000000
2.68290091 1.86397040 -0.63501233 5 4 5521 3.32800000 2429416379 2429416379 -11.00000000
3.60999942 2.50714660 0.38453114 7 5 5522 4.41200000 2429416381 2429416381 5.00000000
3.36379290 2.33528590 -0.64857727 9 6 5523 4.14600000 2429416384 2429416384 -9.00000000
3.60743475 2.50349927 0.53915000 7 7 5524 4.42400000 2429416386 2429416386 7.00000000
3.59319210 2.49268603 -0.53695631 8 8 5525 4.40600000 2429416388 2429416388 -7.00000000
3.62105179 2.51201296 0.69801056 8 9 5525 4.46200000 2429416391 2429416391 9.00000000
3.59701371 2.49440742 -0.38296235 10 10 5526 4.39400000 2429416393 2429416393 -5.00000000
3.62874460 2.51547384 0.85825884 9 11 5527 4.49800000 2429416395 2429416395 11.00000000
3.60011148 2.49469495 -0.22954550 8 12 5528 4.38600000 2429416397 2429416397 -3.00000000
3.62681794 2.51226449 1.01857841 9 13 5529 4.52800000 2429416400 2429416400 13.00000000
3.61359477 2.50217152 -0.07672078 7 14 5530 4.39600000 2429416402 2429416402 -1.00000000
3.63120174 2.51342583 1.18332064 8 15 5531 4.57200000 2429416404 2429416404 15.00000000
1.88708591 1.30278575 -0.61443639 4 0 5538 2.37400000 2429416425 2429416425 -15.00000000
3.62081242 2.49876404 0.07679059 7 1 5539 4.40000000 2429416427 2429416427 1.00000000
2.22485733 1.53482628 -0.62401420 3 2 5540 2.77400000 2429416430 2429416430 -13.00000000
3.62834454 2.50302720 0.23101091 7 3 5540 4.41400000 2429416432 2429416432 3.00000000
2.68292618 1.85013580 -0.63348585 5 4 5541 3.32000000 2429416434 2429416434 -11.00000000
3.63349271 2.50470710 0.38609993 7 5 5542 4.43000000 2429416437 2429416437 5.00000000
3.36053801 2.31568384 -0.64638722 9 6 5543 4.13200000 2429416439 2429416439 -9.00000000
3.64230824 2.50890899 0.54304981 7 7 5544 4.45600000 2429416441 2429416441 7.00000000
3.61495113 2.48913479 -0.53890622 8 8 5545 4.42200000 2429416444 2429416444 -7.00000000
3.63956022 2.50607967 0.69988781 8 9 5545 4.47400000 2429416446 2429416446 9.00000000
3.62867570 2.49765134 -0.38540271 10 10 5546 4.42200000 2429416448 2429416448 -5.00000000
3.65044212 2.51169467 0.86131179 9 11 5547 4.51400000 2429416450 2429416450 11.00000000
3.62689924 2.49456310 -0.23069690 8 12 5548 4.40800000 2429416453 2429416453 -3.00000000
3.64520025 2.50621367 1.02127779 9 13 5549 4.54000000 2429416455 2429416455 13.00000000
3.64208293 2.50313425 -0.07713964 7 14 5550 4.42000000 2429416457 2429416457 -1.00000000
3.66702199 2.51933217 1.19212055 8 15 5551 4.60600000 2429416460 2429416460 15.00000000
1.88206029 1.28963876 -0.61133057 4 0 5558 2.36200000 2429416480 2429416480 -15.00000000
3.64930987 2.49967027 0.07720944 7 1 5559 4.42400000 2429416483 2429416483 1.00000000
2.24306488 1.53585851 -0.62761343 3 2 5560 2.79000000 2429416485 2429416485 -13.00000000
3.65848327 2.50501585 0.23237164 7 3 5560 4.44000000 2429416487 2429416487 3.00000000
2.68288755 1.83632386 -0.63195938 6 4 5561 3.31200000 2429416490 2429416490 -11.00000000
3.66687870 2.50888467 0.38871461 7 5 5562 4.46000000 2429416492 2429416492 5.00000000
3.38164473 2.31286073 -0.64889014 6 6 5563 4.14800000 2429416494 2429416494 -9.00000000
3.67234683 2.51074433 0.54621840 7 7 5564 4.48200000 2429416496 2429416496 7.00000000
3.64000702 2.48770189 -0.54134363 8 8 5565 4.44200000 2429416499 2429416499 -7.00000000
3.66296387 2.50339127 0.70270360 8 9 5565 4.49200000 2429416501 2429416501 9.00000000
3.64888787 2.49283695 -0.38662288 10 10 5566 4.43600000 2429416503 2429416503 -5.00000000
3.68836999 2.51886630 0.86818093 9 11 5567 4.55000000 2429416506 2429416506 11.00000000
3.65537906 2.49540067 -0.23195297 8 12 5568 4.43200000 2429416508 2429416508 -3.00000000
3.67968106 2.51104927 1.02847624 8 13 5569 4.57200000 2429416510 2429416510 13.00000000
3.66071010 2.49716711 -0.07734907 7 14 5570 4.43200000 2429416513 2429416513 -1.00000000
3.68652749 2.51477861 1.19574404 8 15 5570 4.62000000 2429416515 2429416515 15.00000000
1.88016081 1.27871561 -0.60926002 4 0 5578 2.35400000 2429416536 2429416536 -15.00000000
3.67124295 2.49591088 0.07748868 7 1 5579 4.44000000 2429416538 2429416538 1.00000000
2.24841237 1.52801943 -0.62761343 3 2 5580 2.79000000 2429416540 2429416540 -13.00000000
3.68537593 2.50457883 0.23352304 7 3 5580 4.46200000 2429416543 2429416543 3.00000000
2.69090533 1.82805085 -0.63234103 5 4 5581 3.31400000 2429416545 2429416545 -11.00000000
3.68550348 2.50278544 0.38976049 8 5 5582 4.47200000 2429416547 2429416547 5.00000000
3.39623499 2.30548024 -0.65014166 6 6 5583 4.15600000 2429416549 2429416549 -9.00000000
3.70244265 2.51240063 0.54938698 8 7 5584 4.50800000 2429416552 2429416552 7.00000000
3.67166781 2.49058151 -0.54475594 8 8 5585 4.47000000 2429416554 2429416554 -7.00000000
3.69293189 2.50500560 0.70677090 8 9 5585 4.51800000 2429416556 2429416556 9.00000000
3.66416335 2.48455763 -0.38732013 10 10 5586 4.44400000 2429416559 2429416559 -5.00000000
3.71339130 2.51699162 0.87199712 9 11 5587 4.57000000 2429416561 2429416561 11.00000000
3.68060207 2.49382901 -0.23299968 8 12 5588 4.45200000 2429416563 2429416563 -3.00000000
3.71262598 2.51458192 1.03522480 9 13 5589 4.60200000 2429416566 2429416566 13.00000000
3.68265128 2.49334240 -0.07762831 7 14 5590 4.44800000 2429416568 2429416568 -1.00000000
3.71491838 2.51424336 1.20195568 8 15 5591 4.64400000 2429416570 2429416570 15.00000000
1.88759291 1.27463591 -0.61029530 4 0 5597 2.35800000 2429416591 2429416591 -15.00000000
3.69607377 2.49491072 0.07783774 8 1 5598 4.46000000 2429416593 2429416593 1.00000000
2.24700546 1.51619506 -0.62581384 3 2 5599 2.78200000 2429416596 2429416596 -13.00000000
3.71396565 2.50510144 0.23477910 7 3 5600 4.48600000 2429416598 2429416598 3.00000000
2.69532490 1.81801963 -0.63195938 5 4 5600 3.31200000 2429416600 2429416600 -11.00000000
3.70865035 2.50057459 0.39132929 8 5 5601 4.49000000 2429416602 2429416602 5.00000000
3.38256693 2.27985263 -0.64607435 9 6 5602 4.13000000 2429416605 2429416605 -9.00000000
3.72063136 2.50676417 0.55084944 8 7 5603 4.52000000 2429416607 2429416607 7.00000000
3.69637156 2.48948121 -0.54719335 8 8 5604 4.49000000 2429416609 2429416609 -7.00000000
3.72743344 2.51040125 0.71177679 8 9 5604 4.55000000 2429416612 2429416612 9.00000000
3.68890977 2.48352003 -0.38906324 10 10 5605 4.46400000 2429416614 2429416614 -5.00000000
3.71683121 2.50137520 0.87085223 9 11 5606 4.56400000 2429416616 2429416616 11.00000000
3.69879460 2.48829913 -0.23362771 8 12 5607 4.46400000 2429416619 2429416619 -3.00000000
3.75166917 2.52291846 1.04377294 9 13 5608 4.64000000 2429416621 2429416621 13.00000000
3.71579313 2.49785066 -0.07815187 7 14 5609 4.47800000 2429416623 2429416623 -1.00000000
3.74684787 2.51872659 1.20972025 8 15 5609 4.67400000 2429416626 2429416626 15.00000000
1.89844978 1.27234137 -0.61236584 4 0 5617 2.36600000 2429416646 2429416646 -15.00000000
3.71805072 2.49089789 0.07811697 8 1 5618 4.47600000 2429416649 2429416649 1.00000000
2.24904585 1.50617349 -0.62491405 3 2 5619 2.77800000 2429416651 2429416651 -13.00000000
3.74260378 2.50545478 0.23603517 7 3 5620 4.51000000 2429416653 2429416653 3.00000000
2.70818019 1.81296861 -0.63348585 5 4 5620 3.32000000 2429416655 2429416655 -11.00000000
3.73391485 2.49869442 0.39307240 8 5 5621 4.51000000 2429416658 2429416658 5.00000000
3.38722086 2.26583481 -0.64544863 9 6 5622 4.12600000 2429416660 2429416660 -9.00000000
3.74091005 2.50148559 0.55255562 8 7 5623 4.53400000 2429416662 2429416662 7.00000000
3.72814393 2.49200749 -0.55060571 8 8 5624 4.51800000 2429416665 2429416665 -7.00000000
3.75303411 2.50769711 0.71490550 8 9 5625 4.57000000 2429416667 2429416667 9.00000000
3.73234510 2.49387336 -0.39272377 10 10 5625 4.50600000 2429416669 2429416669 -5.00000000
3.75819159 2.51019454 0.87848461 9 11 5626 4.60400000 2429416672 2429416672 11.00000000
3.72739053 2.48868108 -0.23488377 8 12 5627 4.48800000 2429416674 2429416674 -3.00000000
3.77341986 2.51846170 1.04737210 8 13 5628 4.65600000 2429416676 2429416676 13.00000000
3.74112415 2.49596310 -0.07850093 7 14 5629 4.49800000 2429416679 2429416679 -1.00000000
3.77534080 2.51783943 1.21593189 8 15 5630 4.69800000 2429416681 2429416681 15.00000000
1.90931356 1.26998639 -0.61443639 4 0 5637 2.37400000 2429416702 2429416702 -15.00000000
3.75669646 2.49783397 0.07874526 8 1 5638 4.51200000 2429416704 2429416704 1.00000000
2.26078153 1.50262856 -0.62671363 3 2 5639 2.78600000 2429416706 2429416706 -13.00000000
3.76297164 2.50011230 0.23676787 7 3 5640 4.52400000 2429416708 2429416708 3.00000000
2.70304561 1.79589915 -0.63081455 5 4 5640 3.30600000 2429416711 2429416711 -11.00000000
3.77912736 2.50989556 0.39690724 8 5 5641 4.55400000 2429416713 2429416713 5.00000000
3.40169215 2.25836778 -0.64670008 9 6 5642 4.13400000 2429416715 2429416715 -9.00000000
3.77608323 2.50597477 0.55645543 8 7 5643 4.56600000 2429416718 2429416718 7.00000000
3.75170755 2.48885489 -0.55279934 8 8 5644 4.53600000 2429416720 2429416720 -7.00000000
3.78602076 2.51161814 0.71959853 8 9 5644 4.60000000 2429416722 2429416722 9.00000000
3.76095319 2.49404335 -0.39481550 10 10 5645 4.53000000 2429416725 2429416725 -5.00000000
3.79311275 2.51441669 0.88459051 9 11 5646 4.63600000 2429416727 2429416727 11.00000000
3.75270391 2.48668718 -0.23593049 8 12 5647 4.50800000 2429416729 2429416729 -3.00000000
3.75981784 2.48951292 -0.07871035 7 14 5649 4.51000000 2429416734 2429416734 -1.00000000
3.79655552 2.51383829 1.22007298 6 15 5649 4.71400000 2429416736 2429416736 15.00000000
1.90728605 1.25905681 -0.61236584 4 0 5657 2.36600000 2429416757 2429416757 -15.00000000
3.79042864 2.50122595 0.07926883 8 1 5658 4.54200000 2429416759 2429416759 1.00000000
2.26275945 1.49258173 -0.62581384 3 2 5659 2.78200000 2429416761 2429416761 -13.00000000
8.26200390 5.44778776 0.51864934 52 3 5660 9.91000000 2429416764 2429416764 3.00000000
2.70438099 1.78321064 -0.62966967 6 4 5660 3.30000000 2429416766 2429416766 -11.00000000
8.25778008 5.44293499 0.86528224 50 5 5661 9.92800000 2429416768 2429416768 5.00000000
3.41780233 2.25191402 -0.64826441 6 6 5662 4.14400000 2429416771 2429416771 -9.00000000
3.80801725 2.50806499 0.55986774 6 7 5663 4.59400000 2429416773 2429416773 7.00000000
3.78358459 2.49102616 -0.55621171 8 8 5664 4.56400000 2429416775 2429416775 -7.00000000
19.07005882 12.55052376 3.61582613 33 9 5665 23.11400000 2429416778 2429416778 9.00000000
3.78295040 2.48966241 -0.39621001 10 10 5665 4.54600000 2429416780 2429416780 -5.00000000
8.65342903 5.69289255 2.01341653 28 11 5666 10.55200000 2429416782 2429416782 11.00000000
3.79139876 2.49332619 -0.23781459 6 12 5667 4.54400000 2429416784 2429416784 -3.00000000
8.29668713 5.45405102 2.29225135 71 13 5668 10.19000000 2429416787 2429416787 13.00000000
8.23551846 5.41178226 -0.17201091 8 14 5669 9.85600000 2429416789 2429416789 -1.00000000
6.26647949 4.11630774 2.00895333 9 15 5670 7.76200000 2429416791 2429416791 15.00000000
1.90520561 1.24815679 -0.61029530 4 0 5677 2.35800000 2429416812 2429416812 -15.00000000
8.24400902 5.39883900 0.17201091 13 1 5678 9.85600000 2429416814 2429416814 1.00000000
2.26795578 1.48467410 -0.62581384 3 2 5679 2.78200000 2429416817 2429416817 -13.00000000
8.25924397 5.40469790 0.51728857 91 3 5680 9.88400000 2429416819 2429416819 3.00000000
2.71551728 1.77698469 -0.63081455 9 4 5680 3.30600000 2429416821 2429416821 -11.00000000
8.25505352 5.39989805 0.86301619 77 5 5681 9.90200000 2429416824 2429416824 5.00000000
3.41572237 2.23348355 -0.64638722 6 6 5682 4.13200000 2429416826 2429416826 -9.00000000
8.33470249 5.44784594 1.22259331 2 7 5683 10.03200000 2429416828 2429416828 7.00000000
4.61153078 3.01310515 -0.67637485 4 8 5684 5.55000000 2429416831 2429416831 -7.00000000
19.11818886 12.49153805 3.61707759 49 9 5684 23.12200000 2429416833 2429416833 9.00000000
7.05778074 4.60969067 -0.73751187 8 10 5685 8.46200000 2429416835 2429416835 -5.00000000
8.68311214 5.66909122 2.01570630 37 11 5686 10.56400000 2429416837 2429416837 11.00000000
8.22569942 5.36840534 -0.51477647 12 12 5687 9.83600000 2429416840 2429416840 -3.00000000
8.31567478 5.42505693 2.29225135 72 13 5688 10.19000000 2429416842 2429416842 13.00000000
8.24095917 5.37426329 -0.17173168 14 14 5689 9.84000000 2429416844 2429416844 -1.00000000
7.38044643 4.81308842 2.36094737 29 15 5689 9.12200000 2429416847 2429416847 15.00000000
1.90631151 1.23939276 -0.60926002 4 0 5697 2.35400000 2429416867 2429416867 -15.00000000
8.23597717 5.35259438 0.17145245 13 1 5698 9.82400000 2429416870 2429416870 1.00000000
2.27312446 1.47674847 -0.62581384 3 2 5699 2.78200000 2429416872 2429416872 -13.00000000
8.26465893 5.36713266 0.51645124 84 3 5700 9.86800000 2429416874 2429416874 3.00000000
2.72170353 1.76749504 -0.63081455 8 4 5700 3.30600000 2429416877 2429416877 -11.00000000
8.25045586 5.35586214 0.86057580 73 5 5701 9.87400000 2429416879 2429416879 5.00000000
3.42018366 2.21939635 -0.64576149 6 6 5702 4.12800000 2429416881 2429416881 -9.00000000
8.34534168 5.41331768 1.22137451 2 7 5703 10.02200000 2429416884 2429416884 7.00000000
4.61535788 2.99266958 -0.67539990 6 8 5704 5.54200000 2429416886 2429416886 -7.00000000
17.74159813 11.49952888 3.34863615 9 9 5705 21.40600000 2429416888 2429416888 9.00000000
7.07048464 4.58285904 -0.73716325 8 10 5705 8.45800000 2429416890 2429416890 -5.00000000
8.68637085 5.62807178 2.01188993 43 11 5706 10.54400000 2429416893 2429416893 11.00000000
8.24438858 5.33965921 -0.51477647 12 12 5707 9.83600000 2429416895 2429416895 -3.00000000
8.31820202 5.38540602 2.28775215 75 13 5708 10.17000000 2429416897 2429416897 13.00000000
8.24455929 5.33568573 -0.17141753 10 14 5709 9.82200000 2429416900 2429416900 -1.00000000
7.40939188 4.79335070 2.36457086 40 15 5710 9.13600000 2429416902 2429416902 15.00000000
1.91387284 1.23482561 -0.61029530 4 0 5717 2.35800000 2429416923 2429416923 -15.00000000
8.23444462 5.31080675 0.17103358 13 1 5718 9.80000000 2429416925 2429416925 1.00000000
2.27171397 1.46458101 -0.62401420 3 2 5719 2.77400000 2429416927 2429416927 -13.00000000
8.25648212 5.32094002 0.51477647 94 3 5720 9.83600000 2429416930 2429416930 3.00000000
2.73280740 1.76117420 -0.63195938 9 4 5720 3.31200000 2429416932 2429416932 -11.00000000
8.25570202 5.31839800 0.85918128 77 5 5721 9.85800000 2429416934 2429416934 5.00000000
3.42790985 2.20744419 -0.64576149 6 6 5722 4.12800000 2429416937 2429416937 -9.00000000
8.33414173 5.36481380 1.21698725 2 7 5723 9.98600000 2429416939 2429416939 7.00000000
4.63245344 2.98083735 -0.67637485 6 8 5724 5.55000000 2429416941 2429416941 -7.00000000
17.80787468 11.45880413 3.35395503 14 9 5724 21.44000000 2429416943 2429416943 9.00000000
7.08979034 4.56030655 -0.73751187 13 10 5725 8.46200000 2429416946 2429416946 -5.00000000
8.69440460 5.59028387 2.00921869 43 11 5726 10.53000000 2429416948 2429416948 11.00000000
8.23273468 5.29141092 -0.51289237 12 12 5727 9.80000000 2429416950 2429416950 -3.00000000
8.30907822 5.33843040 2.28010392 81 13 5728 10.13600000 2429416953 2429416953 13.00000000
8.23957825 5.29174614 -0.17092887 10 14 5729 9.79400000 2429416955 2429416955 -1.00000000
7.41711903 4.76353407 2.36198258 45 15 5729 9.12600000 2429416957 2429416957 15.00000000
1.92142546 1.23022079 -0.61133057 4 0 5737 2.36200000 2429416978 2429416978 -15.00000000
8.23777390 5.27232885 0.17071944 13 1 5738 9.78200000 2429416980 2429416980 1.00000000
2.27352953 1.45454192 -0.62311441 3 2 5739 2.77000000 2429416983 2429416983 -13.00000000
8.24976635 5.27594566 0.51320636 100 3 5740 9.80600000 2429416985 2429416985 3.00000000
2.72736073 1.74422002 -0.62928808 8 4 5740 3.29800000 2429416987 2429416987 -11.00000000
8.25575066 5.27774286 0.85726386 81 5 5741 9.83600000 2429416990 2429416990 5.00000000
3.43392992 2.19440126 -0.64544863 6 6 5742 4.12600000 2429416992 2429416992 -9.00000000
8.34445286 5.33034611 1.21576858 2 7 5743 9.97600000 2429416994 2429416994 7.00000000
4.61773396 2.94862390 -0.67271876 6 8 5744 5.52000000 2429416996 2429416996 -7.00000000
19.27340508 12.30217171 3.62145782 44 9 5745 23.15000000 2429416999 2429416999 9.00000000
7.10566568 4.53553057 -0.73751187 13 10 5745 8.46200000 2429417001 2429417001 -5.00000000
8.71386528 5.55990076 2.00921869 40 11 5746 10.53000000 2429417003 2429417003 11.00000000
8.23263168 5.25082684 -0.51174098 12 12 5747 9.77800000 2429417006 2429417006 -3.00000000
8.28986931 5.28529835 2.26975608 76 13 5748 10.09000000 2429417008 2429417008 13.00000000
8.24282265 5.25327969 -0.17061472 14 14 5749 9.77600000 2429417010 2429417010 -1.00000000
7.44430447 4.74254513 2.36508846 45 15 5750 9.13800000 2429417013 2429417013 15.00000000
1.92244685 1.22143435 -0.61029530 4 0 5757 2.35800000 2429417033 2429417033 -15.00000000
8.24937630 5.23925352 0.17057982 13 1 5758 9.77400000 2429417036 2429417036 1.00000000
2.28188324 1.44868588 -0.62401420 3 2 5759 2.77400000 2429417038 2429417038 -13.00000000
8.25632858 5.23962545 0.51247370 99 3 5760 9.79200000 2429417040 2429417040 3.00000000
2.72514462 1.72942924 -0.62737995 5 4 5760 3.28800000 2429417043 2429417043 -11.00000000
8.24552250 5.23074913 0.85430062 77 5 5761 9.80200000 2429417045 2429417045 5.00000000
3.46158767 2.19509578 -0.64920300 6 6 5762 4.15000000 2429417047 2429417047 -9.00000000
8.35462475 5.29587221 1.21454990 2 7 5763 9.96600000 2429417049 2429417049 7.00000000
4.63638258 2.93779945 -0.67393744 4 8 5764 5.53000000 2429417052 2429417052 -7.00000000
19.30741882 12.23396206 3.62020636 44 9 5764 23.14200000 2429417054 2429417054 9.00000000
7.12145424 4.51069975 -0.73751187 13 10 5765 8.46200000 2429417056 2429417056 -5.00000000
8.73487854 5.53049994 2.00960040 34 11 5766 10.53200000 2429417059 2429417059 11.00000000
8.23403358 5.21137619 -0.51069427 17 12 5767 9.75800000 2429417061 2429417061 -3.00000000
8.29838657 5.25007772 2.26705670 78 13 5768 10.07800000 2429417063 2429417063 13.00000000
8.22561741 5.20202923 -0.16988173 14 14 5769 9.73400000 2429417066 2429417066 -1.00000000
7.45019388 4.71163702 2.36198258 45 15 5769 9.12600000 2429417068 2429417068 15.00000000
1.92343032 1.21265566 -0.60926002 4 0 5777 2.35400000 2429417089 2429417089 -15.00000000
8.23885441 5.19230080 0.16998644 13 1 5778 9.74000000 2429417091 2429417091 1.00000000
2.29681921 1.44694412 -0.62671363 3 2 5779 2.78600000 2429417093 2429417093 -13.00000000
8.26104736 5.20225906 0.51163632 99 3 5780 9.77600000 2429417096 2429417096 3.00000000
2.74611640 1.72932184 -0.63081455 6 4 5780 3.30600000 2429417098 2429417098 -11.00000000
8.24686909 5.19132090 0.85255748 81 5 5781 9.78200000 2429417100 2429417100 5.00000000
3.44415021 2.16721845 -0.64450997 6 6 5782 4.12000000 2429417102 2429417102 -9.00000000
8.35457706 5.25505066 1.21186876 2 7 5783 9.94400000 2429417105 2429417105 7.00000000
4.64324808 2.91948438 -0.67344999 4 8 5784 5.52600000 2429417107 2429417107 -7.00000000
19.33997345 12.16018295 3.61832929 22 9 5784 23.13000000 2429417109 2429417109 9.00000000
7.13040876 4.48157263 -0.73681468 13 10 5785 8.45400000 2429417112 2429417112 -5.00000000
8.73916912 5.49057579 2.00616574 21 11 5786 10.51400000 2429417114 2429417114 11.00000000
8.24033546 5.17516708 -0.50996155 17 12 5787 9.74400000 2429417116 2429417116 -3.00000000
8.30510902 5.21382570 2.26390743 71 13 5788 10.06400000 2429417119 2429417119 13.00000000
8.23356342 5.16690731 -0.16967230 14 14 5789 9.72200000 2429417121 2429417121 -1.00000000
7.46659517 4.68560266 2.36198258 45 15 5789 9.12600000 2429417123 2429417123 15.00000000
1.92907870 1.20729554 -0.60977769 4 0 5796 2.35600000 2429417144 2429417144 -15.00000000
8.22381687 5.14480019 0.16932325 13 1 5797 9.70200000 2429417146 2429417146 1.00000000
2.29169130 1.43312013 -0.62401420 3 2 5798 2.77400000 2429417149 2429417149 -13.00000000
8.25792980 5.16213179 0.51038027 94 3 5799 9.75200000 2429417151 2429417151 3.00000000
2.74850631 1.71812451 -0.63005131 5 4 5799 3.30200000 2429417153 2429417153 -11.00000000
8.23869419 5.14810753 0.84994280 77 5 5800 9.75200000 2429417155 2429417155 5.00000000
3.45466876 2.15787840 -0.64513576 4 6 5801 4.12400000 2429417158 2429417158 -9.00000000
24.09547615 15.04483223 3.48790050 3 7 5802 28.62000000 2429417160 2429417160 7.00000000
4.65290403 2.90407062 -0.67344999 4 8 5803 5.52600000 2429417162 2429417162 -7.00000000
17.87227631 11.15049553 3.33643436 14 9 5804 21.32800000 2429417165 2429417165 9.00000000
7.15537310 4.46423054 -0.73786050 13 10 5804 8.46600000 2429417167 2429417167 -5.00000000
16.28859711 10.15849113 3.73146081 37 11 5805 19.55600000 2429417169 2429417169 11.00000000
8.22524834 5.12773705 -0.50797278 17 12 5806 9.70600000 2429417172 2429417172 -3.00000000
8.30746841 5.17698050 2.25985837 72 13 5807 10.04600000 2429417174 2429417174 13.00000000
8.24046803 5.13323164 -0.16946286 14 14 5808 9.71000000 2429417176 2429417176 -1.00000000
7.47389364 4.65570927 2.35939431 45 15 5808 9.11600000 2429417178 2429417178 15.00000000
1.94148695 1.20565021 -0.61236584 4 0 5816 2.36600000 2429417199 2429417199 -15.00000000
8.22813320 5.10762548 0.16904400 13 1 5817 9.68600000 2429417202 2429417202 1.00000000
2.28674459 1.41894710 -0.62131482 3 2 5818 2.76200000 2429417204 2429417204 -13.00000000
8.25553226 5.12064171 0.50912416 84 3 5819 9.72800000 2429417206 2429417206 3.00000000
2.76449728 1.71472895 -0.63234103 5 4 5819 3.31400000 2429417208 2429417208 -11.00000000
8.24645424 5.11301851 0.84889692 77 5 5820 9.74000000 2429417211 2429417211 5.00000000
3.46553826 2.14788747 -0.64576149 4 6 5821 4.12800000 2429417213 2429417213 -9.00000000
24.12928391 14.94913101 3.48521948 14 7 5822 28.59800000 2429417215 2429417215 7.00000000
4.67313862 2.89408231 -0.67491245 4 8 5823 5.53800000 2429417218 2429417218 -7.00000000
17.88925552 11.07452488 3.33236694 9 9 5824 21.30200000 2429417220 2429417220 9.00000000
7.17430067 4.44132376 -0.73820913 13 10 5824 8.47000000 2429417222 2429417222 -5.00000000
16.32729721 10.10363770 3.73222399 41 11 5825 19.56000000 2429417225 2429417225 11.00000000
8.21761894 5.08323383 -0.50640273 17 12 5826 9.67600000 2429417227 2429417227 -3.00000000
8.30559921 5.13565207 2.25445938 72 13 5827 10.02200000 2429417229 2429417229 13.00000000
8.24472809 5.09602451 -0.16918363 14 14 5828 9.69400000 2429417231 2429417231 -1.00000000
7.50241137 4.63539267 2.36301780 45 15 5829 9.13000000 2429417234 2429417234 15.00000000
1.94403899 1.19785237 -0.61184824 4 0 5836 2.36400000 2429417255 2429417255 -15.00000000
8.23058891 5.06943417 0.16872987 13 1 5837 9.66800000 2429417257 2429417257 1.00000000
2.29832149 1.41504300 -0.62311441 3 2 5838 2.77000000 2429417259 2429417259 -13.00000000
8.24273872 5.07295036 0.50724012 84 3 5839 9.69200000 2429417261 2429417261 3.00000000
2.76210618 1.69992363 -0.63043290 5 4 5839 3.30400000 2429417264 2429417264 -11.00000000
8.25067616 5.07585001 0.84750247 81 5 5840 9.72400000 2429417266 2429417266 5.00000000
3.47638011 2.13784695 -0.64638722 4 6 5841 4.13200000 2429417268 2429417268 -9.00000000
24.11198235 14.82219124 3.47522616 38 7 5842 28.51600000 2429417271 2429417271 7.00000000
4.67982960 2.87567377 -0.67442495 4 8 5843 5.53400000 2429417273 2429417273 -7.00000000
17.87899017 10.98202991 3.32329369 4 9 5844 21.24400000 2429417275 2429417275 9.00000000
7.18296909 4.41208267 -0.73751187 13 10 5844 8.46200000 2429417278 2429417278 -5.00000000
16.36079216 10.04555607 3.73184228 37 11 5845 19.55800000 2429417280 2429417280 11.00000000
8.22509956 5.04824972 -0.50577468 12 12 5846 9.66400000 2429417282 2429417282 -3.00000000
8.30022049 5.09236145 2.24816084 72 13 5847 9.99400000 2429417284 2429417284 13.00000000
8.23348713 5.04944181 -0.16859025 16 14 5848 9.66000000 2429417287 2429417287 -1.00000000
7.52432919 4.61452818 2.36508846 45 15 5848 9.13800000 2429417289 2429417289 15.00000000
1.94326365 1.18803620 -0.61029530 4 0 5856 2.35800000 2429417310 2429417310 -15.00000000
8.24140930 5.03650236 0.16859025 13 1 5857 9.66000000 2429417312 2429417312 1.00000000
2.30324697 1.40701175 -0.62311441 3 2 5858 2.77000000 2429417314 2429417314 -13.00000000
8.24505520 5.03477859 0.50629807 81 3 5859 9.67400000 2429417317 2429417317 3.00000000
2.75461864 1.68208635 -0.62737995 5 4 5859 3.28800000 2429417319 2429417319 -11.00000000
8.24113464 5.03040981 0.84471345 77 5 5860 9.69200000 2429417321 2429417321 5.00000000
3.49056625 2.12981462 -0.64763868 6 6 5861 4.14000000 2429417324 2429417324 -9.00000000
24.20594406 14.76377583 3.48131967 38 7 5862 28.56600000 2429417326 2429417326 7.00000000
4.68136454 2.85415387 -0.67320627 4 8 5863 5.52400000 2429417328 2429417328 -7.00000000
18.05553246 11.00384998 3.34894896 4 9 5864 21.40800000 2429417331 2429417331 9.00000000
7.15579319 4.36106062 -0.73315412 8 10 5864 8.41200000 2429417333 2429417333 -5.00000000
16.38402176 9.98123455 3.72917104 11 11 5865 19.54400000 2429417335 2429417335 11.00000000
8.21708393 5.00392580 -0.50420463 12 12 5866 9.63400000 2429417337 2429417337 -3.00000000
8.30629349 5.05626440 2.24501157 74 13 5867 9.98000000 2429417340 2429417340 13.00000000
8.23056316 5.00819683 -0.16817139 16 14 5868 9.63600000 2429417342 2429417342 -1.00000000
7.53378963 4.58421850 2.36301780 45 15 5868 9.13000000 2429417344 2429417344 15.00000000
1.94388950 1.17958117 -0.60926002 4 0 5875 2.35400000 2429417365 2429417365 -15.00000000
8.23070908 4.99255180 0.16803177 13 1 5876 9.62800000 2429417367 2429417367 1.00000000
