# .PCD v0.7 - Point Cloud Data file format
VERSION 0.7
FIELDS x y z intensity laser_id azimuth distance_m adjustedtime timestamp vertical_angle
SIZE 4 4 4 1 1 2 8 8 4 8
TYPE F F F U U U F U U F
COUNT 1 1 1 1 1 1 1 1 1 1
WIDTH 528
HEIGHT 1
VIEWPOINT 0 0 0 1 0 0 0
POINTS 528
DATA ascii
2.61150694 -1.44400907 -0.58005935 8 4 11894 3.04000000 2429534159 2429534159 -11.00000000
8.04416466 -4.44978094 0.80427319 37 5 11895 9.22800000 2429534162 2429534162 5.00000000
3.23205471 -1.78860867 -0.58506489 4 6 11896 3.74000000 2429534164 2429534164 -9.00000000
8.04441547 -4.45358753 1.12899756 40 7 11897 9.26400000 2429534166 2429534166 7.00000000
4.21978426 -2.33713937 -0.59228504 6 8 11898 4.86000000 2429534168 2429534168 -7.00000000
6.06714010 -3.36030245 1.09848285 25 9 11898 7.02200000 2429534171 2429534171 9.00000000
6.29656172 -3.48880458 -0.62978739 12 10 11899 7.22600000 2429534173 2429534173 -5.00000000
4.97444153 -2.75737786 1.10554731 30 11 11900 5.79400000 2429534175 2429534175 11.00000000
5.16665888 -2.86510491 -0.30961952 12 12 11901 5.91600000 2429534178 2429534178 -3.00000000
8.20342445 -4.55097675 2.16582870 54 13 11902 9.62800000 2429534180 2429534180 13.00000000
5.26287985 -2.92086554 -0.10506348 29 14 11903 6.02000000 2429534182 2429534182 -1.00000000
8.06904507 -4.47826958 2.47275710 45 15 11903 9.55400000 2429534185 2429534185 15.00000000
1.88193524 -1.04790199 -0.57716650 4 0 11911 2.23000000 2429534205 2429534205 -15.00000000
5.89242411 -3.28237581 0.11773393 37 1 11912 6.74600000 2429534208 2429534208 1.00000000
2.19080663 -1.22089028 -0.57902402 3 2 11913 2.57400000 2429534210 2429534210 -13.00000000
4.98744249 -2.78053713 0.29925701 2 3 11914 5.71800000 2429534212 2429534212 3.00000000
2.60645056 -1.45311606 -0.58005935 6 4 11914 3.04000000 2429534215 2429534215 -11.00000000
8.04946327 -4.48947906 0.80636495 37 5 11915 9.25200000 2429534217 2429534217 5.00000000
3.23614192 -1.80565476 -0.58694214 4 6 11916 3.75200000 2429534219 2429534219 -9.00000000
8.04788685 -4.49228382 1.13167870 42 7 11917 9.28600000 2429534221 2429534221 7.00000000
4.20466757 -2.34798360 -0.59131008 6 8 11918 4.85200000 2429534224 2429534224 -7.00000000
6.06340551 -3.38733411 1.10004711 27 9 11919 7.03200000 2429534226 2429534226 9.00000000
6.28086615 -3.50881910 -0.62943876 12 10 11919 7.22200000 2429534228 2429534228 -5.00000000
4.96307230 -2.77376747 1.10516572 24 11 11920 5.79200000 2429534231 2429534231 11.00000000
5.14965343 -2.87922359 -0.30920082 12 12 11921 5.90800000 2429534233 2429534233 -3.00000000
8.18578815 -4.57863283 2.16537881 56 13 11922 9.62600000 2429534235 2429534235 13.00000000
5.21775103 -2.91968894 -0.10436539 31 14 11923 5.98000000 2429534238 2429534238 -1.00000000
8.06100559 -4.51253223 2.47534537 45 15 11924 9.56400000 2429534240 2429534240 15.00000000
1.86310506 -1.04595339 -0.57250774 4 0 11931 2.21200000 2429534261 2429534261 -15.00000000
5.88964844 -3.30782032 0.11790846 51 1 11932 6.75600000 2429534263 2429534263 1.00000000
2.18313384 -1.22662103 -0.57812423 3 2 11933 2.57000000 2429534265 2429534265 -13.00000000
4.97819424 -2.79706097 0.29925701 7 3 11933 5.71800000 2429534268 2429534268 3.00000000
2.58938241 -1.45547163 -0.57738805 5 4 11934 3.02600000 2429534270 2429534270 -11.00000000
8.04242611 -4.52243233 0.80723649 41 5 11935 9.26200000 2429534272 2429534272 5.00000000
3.22637582 -1.81500292 -0.58631635 4 6 11936 3.74800000 2429534274 2429534274 -9.00000000
8.05118656 -4.53105783 1.13435984 38 7 11937 9.30800000 2429534277 2429534277 7.00000000
4.19644594 -2.36264634 -0.59131008 6 8 11938 4.85200000 2429534279 2429534279 -7.00000000
6.06531382 -3.41623402 1.10255015 35 9 11939 7.04800000 2429534281 2429534281 9.00000000
6.25122023 -3.52094436 -0.62769568 12 10 11939 7.20200000 2429534284 2429534284 -5.00000000
5.12739277 -2.89031649 -0.30846813 18 12 11941 5.89400000 2429534288 2429534288 -3.00000000
8.17484856 -4.61005068 2.16672850 53 13 11942 9.63200000 2429534291 2429534291 13.00000000
5.16746950 -2.91528535 -0.10356258 38 14 11943 5.93400000 2429534293 2429534293 -1.00000000
8.03590202 -4.53354311 2.47223949 36 15 11943 9.55200000 2429534295 2429534295 15.00000000
1.85608017 -1.05054736 -0.57147247 4 0 11951 2.20800000 2429534316 2429534316 -15.00000000
5.88502645 -3.33230019 0.11804808 54 1 11952 6.76400000 2429534318 2429534318 1.00000000
2.19240355 -1.24191809 -0.58172345 3 2 11953 2.58600000 2429534320 2429534320 -13.00000000
4.98925447 -2.82623386 0.30051306 42 3 11953 5.74200000 2429534323 2429534323 3.00000000
2.59111834 -1.46837318 -0.57891446 6 4 11954 3.03400000 2429534325 2429534325 -11.00000000
8.03179073 -4.55342579 0.80775940 37 5 11955 9.26800000 2429534327 2429534327 5.00000000
3.20283818 -1.81650889 -0.58318770 4 6 11956 3.72800000 2429534330 2429534330 -9.00000000
8.05949306 -4.57284880 1.13777220 33 7 11957 9.33600000 2429534332 2429534332 7.00000000
4.19507885 -2.38119984 -0.59228504 6 8 11958 4.86000000 2429534334 2429534334 -7.00000000
6.05335188 -3.43738532 1.10255015 35 9 11959 7.04800000 2429534337 2429534337 9.00000000
6.23196173 -3.53880835 -0.62699842 12 10 11959 7.19400000 2429534339 2429534339 -5.00000000
5.15184593 -2.92665577 1.15172315 3 11 11960 6.03600000 2429534341 2429534341 11.00000000
5.12248135 -2.91115713 -0.30878213 25 12 11961 5.90000000 2429534344 2429534344 -3.00000000
8.16887093 -4.64433718 2.16942787 52 13 11962 9.64400000 2429534346 2429534346 13.00000000
5.13292694 -2.91946435 -0.10307391 45 14 11963 5.90600000 2429534348 2429534348 -1.00000000
6.94867611 -3.95221114 2.14198637 13 15 11963 8.27600000 2429534350 2429534350 15.00000000
1.85892820 -1.06117404 -0.57354301 4 0 11972 2.21600000 2429534371 2429534371 -15.00000000
5.88319254 -3.35979748 0.11825751 48 1 11973 6.77600000 2429534373 2429534373 1.00000000
2.17430043 -1.24221170 -0.57812423 3 2 11974 2.57000000 2429534376 2429534376 -13.00000000
2.58742356 -1.47883439 -0.57929611 6 4 11975 3.03600000 2429534380 2429534380 -11.00000000
8.02369595 -4.58777809 0.80863100 37 5 11976 9.27800000 2429534383 2429534383 5.00000000
3.19958806 -1.83019722 -0.58381343 4 6 11977 3.73200000 2429534385 2429534385 -9.00000000
8.05301571 -4.60827351 1.13923466 36 7 11978 9.34800000 2429534387 2429534387 7.00000000
4.17943192 -2.39261460 -0.59131008 6 8 11979 4.85200000 2429534390 2429534390 -7.00000000
6.20511770 -3.55370450 -0.62560391 16 10 11980 7.17800000 2429534394 2429534394 -5.00000000
5.08998013 -2.91623902 1.14027452 3 11 11981 5.97600000 2429534397 2429534397 11.00000000
5.07018995 -2.90607595 -0.30627000 28 12 11982 5.85200000 2429534399 2429534399 -3.00000000
8.15855598 -4.67812347 2.17122769 52 13 11983 9.65200000 2429534401 2429534401 13.00000000
5.11698866 -2.93527293 -0.10296920 56 14 11984 5.90000000 2429534403 2429534403 -1.00000000
1.85688710 -1.06862009 -0.57406062 4 0 11992 2.21800000 2429534426 2429534426 -15.00000000
5.88529253 -3.38829517 0.11853675 40 1 11993 6.79200000 2429534429 2429534429 1.00000000
2.16657376 -1.24784863 -0.57722443 3 2 11994 2.56600000 2429534431 2429534431 -13.00000000
4.95678759 -2.85488582 0.29978037 2 3 11994 5.72800000 2429534433 2429534433 3.00000000
2.58734894 -1.49079764 -0.58044094 6 4 11995 3.04200000 2429534436 2429534436 -11.00000000
8.03525066 -4.63167763 0.81141996 41 5 11996 9.31000000 2429534438 2429534438 5.00000000
3.18633509 -1.83740759 -0.58256197 6 6 11997 3.72400000 2429534440 2429534440 -9.00000000
8.04375935 -4.64032316 1.14020956 33 7 11998 9.35600000 2429534443 2429534443 7.00000000
4.15730000 -2.39925098 -0.58936012 6 8 11999 4.83600000 2429534445 2429534445 -7.00000000
7.24663687 -4.18384790 1.32531273 7 9 12000 8.47200000 2429534447 2429534447 9.00000000
6.20130253 -3.58032370 -0.62647545 16 10 12000 7.18800000 2429534450 2429534450 -5.00000000
5.05256891 -2.91827798 1.13416862 3 11 12001 5.94400000 2429534452 2429534452 11.00000000
5.07730818 -2.93374872 -0.30731672 37 12 12002 5.87200000 2429534454 2429534454 -3.00000000
8.13711548 -4.70364809 2.16987777 51 13 12003 9.64600000 2429534456 2429534456 13.00000000
5.10497999 -2.95211554 -0.10293429 69 14 12004 5.89800000 2429534459 2429534459 -1.00000000
7.99306345 -4.62410259 2.47431016 29 15 12005 9.56000000 2429534461 2429534461 15.00000000
1.85815859 -1.07800364 -0.57561356 4 0 12012 2.22400000 2429534482 2429534482 -15.00000000
5.88553619 -3.41584444 0.11878107 37 1 12013 6.80600000 2429534484 2429534484 1.00000000
2.17231631 -1.26127470 -0.57992381 3 2 12014 2.57800000 2429534486 2429534486 -13.00000000
4.90533829 -2.84810233 0.29726824 9 3 12014 5.68000000 2429534489 2429534489 3.00000000
2.57873416 -1.49784791 -0.57967770 6 4 12015 3.03800000 2429534491 2429534491 -11.00000000
8.03626156 -4.66970778 0.81316310 34 5 12016 9.33000000 2429534493 2429534493 5.00000000
3.17307067 -1.84454775 -0.58131045 4 6 12017 3.71600000 2429534496 2429534496 -9.00000000
8.04810429 -4.68034840 1.14313447 36 7 12018 9.38000000 2429534498 2429534498 7.00000000
4.13860512 -2.40775871 -0.58789772 6 8 12019 4.82400000 2429534500 2429534500 -7.00000000
7.24296761 -4.21381569 1.32719004 7 9 12019 8.48400000 2429534503 2429534503 9.00000000
6.18704510 -3.60094619 -0.62630117 16 10 12020 7.18600000 2429534505 2429534505 -5.00000000
5.03217173 -2.92996979 1.13187897 3 11 12021 5.93200000 2429534507 2429534507 11.00000000
5.07221413 -2.95446992 -0.30763075 62 12 12022 5.87800000 2429534509 2429534509 -3.00000000
8.12401390 -4.73398542 2.17077756 49 13 12023 9.65000000 2429534512 2429534512 13.00000000
5.08255100 -2.96286750 -0.10268996 76 14 12024 5.88400000 2429534514 2429534514 -1.00000000
7.98688650 -4.65781450 2.47741580 22 15 12025 9.57200000 2429534516 2429534516 15.00000000
1.85438430 -1.08448327 -0.57561356 4 0 12032 2.22400000 2429534537 2429534537 -15.00000000
4.82934713 -2.82543564 0.09766366 7 1 12033 5.59600000 2429534539 2429534539 1.00000000
2.16790056 -1.26884985 -0.57992381 3 2 12034 2.57800000 2429534542 2429534542 -13.00000000
4.82814169 -2.82586169 0.29318604 24 3 12034 5.60200000 2429534544 2429534544 3.00000000
2.56163049 -1.49989629 -0.57700640 5 4 12035 3.02400000 2429534546 2429534546 -11.00000000
3.18024731 -1.86360228 -0.58381343 4 6 12037 3.73200000 2429534551 2429534551 -9.00000000
8.04541779 -4.71644449 1.14508438 31 7 12038 9.39600000 2429534553 2429534553 7.00000000
4.14044905 -2.42821574 -0.58936012 6 8 12039 4.83600000 2429534556 2429534556 -7.00000000
7.21799088 -4.23307657 1.32531273 10 9 12039 8.47200000 2429534558 2429534558 9.00000000
6.16928244 -3.61949658 -0.62577826 16 10 12040 7.18000000 2429534560 2429534560 -5.00000000
5.00159550 -2.93559217 1.12729955 12 11 12041 5.90800000 2429534562 2429534562 11.00000000
5.05498075 -2.96811199 -0.30721205 28 12 12042 5.87000000 2429534565 2429534565 -3.00000000
8.11584187 -4.76724958 2.17302728 50 13 12043 9.66000000 2429534567 2429534567 13.00000000
5.07562590 -2.98261714 -0.10275977 65 14 12044 5.88800000 2429534569 2429534569 -1.00000000
6.72819471 -3.95530486 2.09125781 9 15 12045 8.08000000 2429534572 2429534572 15.00000000
1.83099365 -1.07853770 -0.56940192 4 0 12050 2.20000000 2429534592 2429534592 -15.00000000
4.78943586 -2.82231951 0.09703538 52 1 12051 5.56000000 2429534595 2429534595 1.00000000
2.17061853 -1.27961278 -0.58172345 3 2 12052 2.58600000 2429534597 2429534597 -13.00000000
4.80547571 -2.83290148 0.29234865 18 3 12052 5.58600000 2429534599 2429534599 3.00000000
2.55859685 -1.50893378 -0.57738805 5 4 12053 3.02600000 2429534602 2429534602 -11.00000000
4.90602827 -2.89448667 0.49835655 6 5 12054 5.71800000 2429534604 2429534604 5.00000000
3.17097449 -1.87157595 -0.58318770 4 6 12055 3.72800000 2429534606 2429534606 -9.00000000
8.04936409 -4.75279903 1.14776552 36 7 12056 9.41800000 2429534608 2429534608 7.00000000
4.13280010 -2.44121146 -0.58936012 6 8 12057 4.83600000 2429534611 2429534611 -7.00000000
7.21486139 -4.26175976 1.32719004 10 9 12057 8.48400000 2429534613 2429534613 9.00000000
6.14758921 -3.63277841 -0.62473238 16 10 12058 7.16800000 2429534615 2429534615 -5.00000000
5.02614927 -2.97127223 1.13493192 3 11 12059 5.94800000 2429534618 2429534618 11.00000000
5.05594587 -2.99007821 -0.30784011 28 12 12060 5.88200000 2429534620 2429534620 -3.00000000
8.11591911 -4.80165339 2.17707634 51 13 12061 9.67800000 2429534622 2429534622 13.00000000
5.07999754 -3.00669622 -0.10303900 63 14 12062 5.90400000 2429534625 2429534625 -1.00000000
6.67985487 -3.95360303 2.07986975 9 15 12062 8.03600000 2429534627 2429534627 15.00000000
1.83220100 -1.08788133 -0.57095480 4 0 12070 2.20600000 2429534648 2429534648 -15.00000000
4.74173117 -2.81655335 0.09626748 22 1 12071 5.51600000 2429534650 2429534650 1.00000000
2.15608692 -1.28120887 -0.57902402 3 2 12072 2.57400000 2429534652 2429534652 -13.00000000
2.55837679 -1.52086544 -0.57853287 5 4 12073 3.03200000 2429534657 2429534657 -11.00000000
4.90274429 -2.91566801 0.49905378 36 5 12074 5.72600000 2429534659 2429534659 5.00000000
3.16102695 -1.88061333 -0.58256197 4 6 12075 3.72400000 2429534661 2429534661 -9.00000000
8.04125404 -4.78594351 1.14898419 31 7 12076 9.42800000 2429534664 2429534664 7.00000000
4.12766504 -2.45765376 -0.58984762 6 8 12077 4.84000000 2429534666 2429534666 -7.00000000
7.21691418 -4.29702425 1.33031869 10 9 12077 8.50400000 2429534668 2429534668 9.00000000
6.12802410 -3.65013695 -0.62403512 16 10 12078 7.16000000 2429534671 2429534671 -5.00000000
5.01911974 -2.99080873 1.13569510 3 11 12079 5.95200000 2429534673 2429534673 11.00000000
5.03175354 -2.99952698 -0.30700272 18 12 12080 5.86600000 2429534675 2429534675 -3.00000000
8.11752033 -4.84093332 2.18202519 57 13 12081 9.70000000 2429534678 2429534678 13.00000000
5.07977533 -3.03055763 -0.10324844 56 14 12082 5.91600000 2429534680 2429534680 -1.00000000
6.63380098 -3.95924830 2.07003474 6 15 12083 7.99800000 2429534682 2429534682 15.00000000
1.83298230 -1.09788644 -0.57250774 4 0 12092 2.21200000 2429534703 2429534703 -15.00000000
4.60394716 -2.75868058 0.09368452 7 1 12093 5.36800000 2429534705 2429534705 1.00000000
2.13443708 -1.27945900 -0.57452500 3 2 12094 2.55400000 2429534708 2429534708 -13.00000000
4.56140518 -2.73535395 0.27874130 2 3 12095 5.32600000 2429534710 2429534710 3.00000000
2.55420208 -1.53168726 -0.57891446 5 4 12095 3.03400000 2429534712 2429534712 -11.00000000
4.90859795 -2.94472122 0.50079691 33 5 12096 5.74600000 2429534714 2429534714 5.00000000
3.14700747 -1.88867092 -0.58131045 4 6 12097 3.71600000 2429534717 2429534717 -9.00000000
8.04324055 -4.82904625 1.15190899 38 7 12098 9.45200000 2429534719 2429534719 7.00000000
4.11139107 -2.46939635 -0.58887267 6 8 12099 4.83200000 2429534721 2429534721 -7.00000000
7.21390867 -4.33284044 1.33282161 10 9 12099 8.52000000 2429534724 2429534724 9.00000000
6.11225557 -3.67261386 -0.62386084 16 10 12100 7.15800000 2429534726 2429534726 -5.00000000
5.01096439 -3.01208162 1.13645840 3 11 12101 5.95600000 2429534728 2429534728 11.00000000
4.99965954 -3.00647426 -0.30574664 18 12 12102 5.84200000 2429534731 2429534731 -3.00000000
8.10388184 -4.87508059 2.18337488 56 13 12103 9.70600000 2429534733 2429534733 13.00000000
5.08523464 -3.06035137 -0.10359748 54 14 12104 5.93600000 2429534735 2429534735 -1.00000000
7.90535498 -4.75753117 2.47223949 29 15 12104 9.55200000 2429534738 2429534738 15.00000000
1.83244646 -1.10627496 -0.57354301 4 0 12112 2.21600000 2429534758 2429534758 -15.00000000
4.71068716 -2.84503341 0.09605805 32 1 12113 5.50400000 2429534761 2429534761 1.00000000
2.14663744 -1.29697931 -0.57902402 3 2 12114 2.57400000 2429534763 2429534763 -13.00000000
4.55353880 -2.75229263 0.27884597 2 3 12115 5.32800000 2429534765 2429534765 3.00000000
2.54043889 -1.53551602 -0.57700640 5 4 12115 3.02400000 2429534767 2429534767 -11.00000000
4.90510893 -2.96596122 0.50149417 30 5 12116 5.75400000 2429534770 2429534770 5.00000000
3.16067815 -1.91191351 -0.58506489 4 6 12117 3.74000000 2429534772 2429534772 -9.00000000
8.03143024 -4.86017609 1.15264022 29 7 12118 9.45800000 2429534774 2429534774 7.00000000
4.09934950 -2.48167658 -0.58838516 6 8 12119 4.82800000 2429534777 2429534777 -7.00000000
7.19460058 -4.35720491 1.33219588 10 9 12120 8.51600000 2429534779 2429534779 9.00000000
6.09599018 -3.69186282 -0.62351221 16 10 12120 7.15400000 2429534781 2429534781 -5.00000000
5.01385260 -3.03769326 1.13951135 3 11 12121 5.97200000 2429534784 2429534784 11.00000000
4.97717857 -3.01666141 -0.30501395 12 12 12122 5.82800000 2429534786 2429534786 -3.00000000
8.09014797 -4.90535927 2.18427467 62 13 12123 9.71000000 2429534788 2429534788 13.00000000
5.08477974 -3.08430600 -0.10380691 54 14 12124 5.94800000 2429534791 2429534791 -1.00000000
7.90107679 -4.79449129 2.47638059 36 15 12125 9.56800000 2429534793 2429534793 15.00000000
1.82566059 -1.11001909 -0.57250774 4 0 12130 2.21200000 2429534814 2429534814 -15.00000000
4.70685148 -2.86293578 0.09616276 27 1 12131 5.51000000 2429534816 2429534816 1.00000000
2.14255214 -1.30371678 -0.57902402 3 2 12132 2.57400000 2429534818 2429534818 -13.00000000
4.81783485 -2.93274570 0.29559347 15 3 12133 5.64800000 2429534820 2429534820 3.00000000
2.53895640 -1.54553115 -0.57776964 6 4 12133 3.02800000 2429534823 2429534823 -11.00000000
4.90427542 -2.98653769 0.50236571 33 5 12134 5.76400000 2429534825 2429534825 5.00000000
3.13441229 -1.90950096 -0.58131045 4 6 12135 3.71600000 2429534827 2429534827 -9.00000000
7.93136692 -4.83373022 1.14045334 6 7 12136 9.35800000 2429534830 2429534830 7.00000000
4.09153318 -2.49454284 -0.58838516 6 8 12137 4.82800000 2429534832 2429534832 -7.00000000
7.18332720 -4.37956095 1.33250880 12 9 12137 8.51800000 2429534834 2429534834 9.00000000
6.06395006 -3.69854617 -0.62142044 16 10 12138 7.13000000 2429534837 2429534837 -5.00000000
5.01098824 -3.05751991 1.14103782 3 11 12139 5.98000000 2429534839 2429534839 11.00000000
4.97960997 -3.03956699 -0.30574664 12 12 12140 5.84200000 2429534841 2429534841 -3.00000000
8.10130787 -4.94700050 2.19147325 66 13 12141 9.74200000 2429534844 2429534844 13.00000000
5.07506514 -3.10026503 -0.10380691 54 14 12142 5.94800000 2429534846 2429534846 -1.00000000
7.87857389 -4.81287766 2.47379231 42 15 12142 9.55800000 2429534848 2429534848 15.00000000
1.81848049 -1.11436629 -0.57147247 4 0 12150 2.20800000 2429534869 2429534869 -15.00000000
4.70705843 -2.88561916 0.09637219 25 1 12151 5.52200000 2429534871 2429534871 1.00000000
2.14131069 -1.31322527 -0.57992381 3 2 12152 2.57800000 2429534873 2429534873 -13.00000000
4.81608009 -2.95476747 0.29611683 20 3 12153 5.65800000 2429534876 2429534876 3.00000000
2.52685237 -1.55027759 -0.57624316 6 4 12153 3.02000000 2429534878 2429534878 -11.00000000
4.89891481 -3.00676537 0.50288862 33 5 12154 5.77000000 2429534880 2429534880 5.00000000
3.12772775 -1.92043042 -0.58131045 4 6 12155 3.71600000 2429534883 2429534883 -9.00000000
8.01762581 -4.92476416 1.15532136 15 7 12156 9.48000000 2429534885 2429534885 7.00000000
4.08280039 -2.50880980 -0.58838516 6 8 12157 4.82800000 2429534887 2429534887 -7.00000000
7.17059278 -4.40792847 1.33313453 12 9 12158 8.52200000 2429534890 2429534890 9.00000000
6.04081869 -3.71343040 -0.62037456 16 10 12158 7.11800000 2429534892 2429534892 -5.00000000
5.01031923 -3.08116364 1.14332747 3 11 12159 5.99200000 2429534894 2429534894 11.00000000
4.92814255 -3.03181362 -0.30323452 9 12 12160 5.79400000 2429534896 2429534896 -3.00000000
8.10390568 -4.98750591 2.19687200 64 13 12161 9.76600000 2429534899 2429534899 13.00000000
5.08124065 -3.12844539 -0.10415597 51 14 12162 5.96800000 2429534901 2429534901 -1.00000000
7.86252546 -4.84273481 2.47431016 40 15 12163 9.56000000 2429534903 2429534903 15.00000000
1.80964851 -1.11766171 -0.56991953 4 0 12170 2.20200000 2429534924 2429534924 -15.00000000
4.70716381 -2.90833879 0.09658162 25 1 12171 5.53400000 2429534926 2429534926 1.00000000
2.13671374 -1.32069182 -0.57992381 3 2 12172 2.57800000 2429534929 2429534929 -13.00000000
4.81762791 -2.97891355 0.29684955 21 3 12173 5.67200000 2429534931 2429534931 3.00000000
2.52142549 -1.55908859 -0.57624316 6 4 12173 3.02000000 2429534933 2429534933 -11.00000000
4.91211128 -3.03852105 0.50532901 39 5 12174 5.79800000 2429534936 2429534936 5.00000000
3.11092663 -1.92509973 -0.57943326 3 6 12175 3.70400000 2429534938 2429534938 -9.00000000
8.02908039 -4.97048378 1.15946496 18 7 12176 9.51400000 2429534940 2429534940 7.00000000
4.07739353 -2.52513647 -0.58887267 6 8 12177 4.83200000 2429534943 2429534943 -7.00000000
6.01935148 -3.72924781 -0.61950302 16 10 12178 7.10800000 2429534947 2429534947 -5.00000000
4.98618317 -3.09035993 1.14027452 3 11 12179 5.97600000 2429534949 2429534949 11.00000000
4.55427408 -2.82376957 -0.28083473 22 12 12180 5.36600000 2429534952 2429534952 -3.00000000
7.94568348 -4.92845249 2.15863037 15 13 12181 9.59600000 2429534954 2429534954 13.00000000
4.50786781 -2.79717541 -0.09260247 25 14 12182 5.30600000 2429534956 2429534956 -1.00000000
7.84314013 -4.86674404 2.47327471 38 15 12182 9.55600000 2429534959 2429534959 15.00000000
1.81229651 -1.12805521 -0.57199007 4 0 12190 2.21000000 2429534979 2429534979 -15.00000000
4.70377350 -2.92898011 0.09672124 25 1 12191 5.54200000 2429534982 2429534982 1.00000000
2.12878251 -1.32608163 -0.57902402 3 2 12192 2.57400000 2429534984 2429534984 -13.00000000
4.81228542 -2.99888086 0.29716355 23 3 12193 5.67800000 2429534986 2429534986 3.00000000
2.52263284 -1.57203376 -0.57776964 6 4 12193 3.02800000 2429534989 2429534989 -11.00000000
4.91331005 -3.06302738 0.50654918 36 5 12194 5.81200000 2429534991 2429534991 5.00000000
3.10418773 -1.93594718 -0.57943326 3 6 12195 3.70400000 2429534993 2429534993 -9.00000000
7.94768190 -4.95855141 1.15020287 6 7 12196 9.43800000 2429534996 2429534996 7.00000000
4.05508232 -2.53094530 -0.58692276 6 8 12197 4.81600000 2429534998 2429534998 -7.00000000
5.78075027 -3.60940838 1.07939780 2 9 12198 6.90000000 2429535000 2429535000 9.00000000
5.99784708 -3.74496031 -0.61863148 16 10 12198 7.09800000 2429535002 2429535002 -5.00000000
5.01199818 -3.13062787 1.14867020 3 11 12199 6.02000000 2429535005 2429535005 11.00000000
4.49527025 -2.80895662 -0.27779925 35 12 12200 5.30800000 2429535007 2429535007 -3.00000000
7.96809006 -4.98094940 2.16942787 16 13 12201 9.64400000 2429535009 2429535009 13.00000000
4.48112154 -2.80229092 -0.09225342 40 14 12202 5.28600000 2429535012 2429535012 -1.00000000
7.84162760 -4.90570402 2.47845125 40 15 12203 9.57600000 2429535014 2429535014 15.00000000
1.80998433 -1.13540101 -0.57250774 4 0 12210 2.21200000 2429535035 2429535035 -15.00000000
4.70368338 -2.95175910 0.09693067 25 1 12211 5.55400000 2429535037 2429535037 1.00000000
2.12083960 -1.33143210 -0.57812423 3 2 12212 2.57000000 2429535039 2429535039 -13.00000000
4.80178785 -3.01566076 0.29716355 23 3 12213 5.67800000 2429535042 2429535042 3.00000000
2.50881720 -1.57560909 -0.57586157 6 4 12213 3.01800000 2429535044 2429535044 -11.00000000
4.91777182 -3.08969879 0.50811797 39 5 12214 5.83000000 2429535046 2429535046 5.00000000
3.09741116 -1.94677103 -0.57943326 3 6 12215 3.70400000 2429535049 2429535049 -9.00000000
7.88663149 -4.95879126 1.14386570 6 7 12216 9.38600000 2429535051 2429535051 7.00000000
4.04286242 -2.54297090 -0.58643526 6 8 12217 4.81200000 2429535053 2429535053 -7.00000000
5.74868393 -3.61593723 1.07564342 7 9 12217 6.87600000 2429535055 2429535055 9.00000000
5.97799301 -3.76162958 -0.61793423 16 10 12218 7.09000000 2429535058 2429535058 -5.00000000
5.00436258 -3.15019560 1.14943337 3 11 12219 6.02400000 2429535060 2429535060 11.00000000
4.46853685 -2.81398797 -0.27675253 44 12 12220 5.28800000 2429535062 2429535062 -3.00000000
8.03474522 -5.06170797 2.19237304 28 13 12221 9.74600000 2429535065 2429535065 13.00000000
4.43409395 -2.79446006 -0.09148552 42 14 12222 5.24200000 2429535067 2429535067 -1.00000000
7.82858562 -4.93374062 2.47948647 40 15 12222 9.58000000 2429535069 2429535069 15.00000000
1.79947841 -1.13758302 -0.57043719 4 0 12230 2.20400000 2429535090 2429535090 -15.00000000
4.67307043 -2.95533419 0.09651181 25 1 12231 5.53000000 2429535092 2429535092 1.00000000
2.11288548 -1.33674335 -0.57722443 3 2 12232 2.56600000 2429535095 2429535095 -13.00000000
4.80642080 -3.04201674 0.29810560 21 3 12233 5.69600000 2429535097 2429535097 3.00000000
2.49334836 -1.57805729 -0.57357186 6 4 12233 3.00600000 2429535099 2429535099 -11.00000000
4.91369009 -3.11110926 0.50881523 39 5 12234 5.83800000 2429535102 2429535102 5.00000000
3.10060954 -1.96391320 -0.58131045 4 6 12235 3.71600000 2429535104 2429535104 -9.00000000
7.84915257 -4.97354031 1.14094079 6 7 12236 9.36200000 2429535106 2429535106 7.00000000
4.03731441 -2.55919337 -0.58692276 6 8 12237 4.81600000 2429535108 2429535108 -7.00000000
5.72371435 -3.62957764 1.07345331 10 9 12238 6.86200000 2429535111 2429535111 9.00000000
5.94463491 -3.76966977 -0.61584246 16 10 12238 7.06600000 2429535113 2429535113 -5.00000000
5.00991392 -3.17816186 1.15324962 3 11 12239 6.04400000 2429535115 2429535115 11.00000000
4.44013739 -2.81779695 -0.27560115 47 12 12240 5.26600000 2429535118 2429535118 -3.00000000
8.00386620 -5.08136749 2.18877387 39 13 12241 9.73000000 2429535120 2429535120 13.00000000
4.40068007 -2.79491162 -0.09099685 40 14 12242 5.21400000 2429535122 2429535122 -1.00000000
7.81044960 -4.96240044 2.47948647 40 15 12243 9.58000000 2429535125 2429535125 15.00000000
1.78572059 -1.13762951 -0.56733137 4 0 12250 2.19200000 2429535145 2429535145 -15.00000000
4.38279343 -2.79322290 0.09071761 59 1 12251 5.19800000 2429535148 2429535148 1.00000000
2.11477923 -1.34830105 -0.57902402 3 2 12252 2.57400000 2429535150 2429535150 -13.00000000
4.80924416 -3.06736779 0.29894298 7 3 12253 5.71200000 2429535152 2429535152 3.00000000
2.49610090 -1.59202969 -0.57547992 6 4 12253 3.01600000 2429535155 2429535155 -11.00000000
4.90615940 -3.13038564 0.50916386 42 5 12254 5.84200000 2429535157 2429535157 5.00000000
3.07708430 -1.96409619 -0.57818180 5 6 12255 3.69600000 2429535159 2429535159 -9.00000000
7.84847450 -5.01159191 1.14337814 6 7 12256 9.38200000 2429535161 2429535161 7.00000000
4.03170252 -2.57540774 -0.58741021 8 8 12257 4.82000000 2429535164 2429535164 -7.00000000
5.72829390 -3.65917230 1.07658195 10 9 12257 6.88200000 2429535166 2429535166 9.00000000
5.91465139 -3.77966905 -0.61409938 16 10 12258 7.04600000 2429535168 2429535168 -5.00000000
5.06164694 -3.23581362 1.16775107 3 11 12259 6.12000000 2429535171 2429535171 11.00000000
4.40671825 -2.81821370 -0.27413574 47 12 12260 5.23800000 2429535173 2429535173 -3.00000000
7.97130632 -5.09982347 2.18472457 18 13 12261 9.71200000 2429535175 2429535175 13.00000000
4.36731720 -2.79516435 -0.09050818 40 14 12262 5.18600000 2429535178 2429535178 -1.00000000
7.78093386 -4.97994280 2.47534537 45 15 12262 9.56400000 2429535180 2429535180 15.00000000
1.79149270 -1.15011787 -0.57043719 4 0 12270 2.20400000 2429535201 2429535201 -15.00000000
4.33431768 -2.78365064 0.08991480 49 1 12271 5.15200000 2429535203 2429535203 1.00000000
2.10022283 -1.34935462 -0.57632458 3 2 12272 2.56200000 2429535205 2429535205 -13.00000000
4.81194925 -3.09277558 0.29978037 7 3 12273 5.72800000 2429535208 2429535208 3.00000000
2.49713469 -1.60497904 -0.57700640 6 4 12273 3.02400000 2429535210 2429535210 -11.00000000
4.90358210 -3.15287995 0.51003540 40 5 12274 5.85200000 2429535212 2429535212 5.00000000
3.06024146 -1.96841347 -0.57630455 5 6 12275 3.68400000 2429535214 2429535214 -9.00000000
7.84428787 -5.04755116 1.14532804 6 7 12276 9.39800000 2429535217 2429535217 7.00000000
4.02268791 -2.58946538 -0.58741021 8 8 12277 4.82000000 2429535219 2429535219 -7.00000000
5.73043537 -3.68876839 1.07939780 22 9 12277 6.90000000 2429535221 2429535221 9.00000000
5.89807177 -3.79813457 -0.61375076 16 10 12278 7.04200000 2429535224 2429535224 -5.00000000
5.41176558 -3.48630810 1.25132537 6 11 12279 6.55800000 2429535226 2429535226 11.00000000
4.38342333 -2.82492352 -0.27329835 81 12 12280 5.22200000 2429535228 2429535228 -3.00000000
7.93871498 -5.11811399 2.18067551 15 13 12281 9.69400000 2429535231 2429535231 13.00000000
4.33568716 -2.79630232 -0.09005442 64 14 12282 5.16000000 2429535233 2429535233 -1.00000000
7.76512671 -5.00812006 2.47586298 38 15 12282 9.56600000 2429535235 2429535235 15.00000000
1.78077793 -1.15247786 -0.56836665 4 0 12291 2.19600000 2429535256 2429535256 -15.00000000
4.29722786 -2.78212976 0.08935632 49 1 12292 5.12000000 2429535258 2429535258 1.00000000
2.09199190 -1.35492456 -0.57542479 3 2 12293 2.55800000 2429535261 2429535261 -13.00000000
4.81734324 -3.12125182 0.30082709 21 3 12294 5.74800000 2429535263 2429535263 3.00000000
2.49288297 -1.61518824 -0.57738805 5 4 12294 3.02600000 2429535265 2429535265 -11.00000000
4.90536833 -3.17950082 0.51142991 37 5 12295 5.86800000 2429535267 2429535267 5.00000000
3.05963612 -1.98391545 -0.57755607 5 6 12296 3.69200000 2429535270 2429535270 -9.00000000
7.83572769 -5.08274984 1.14679050 6 7 12297 9.41000000 2429535272 2429535272 7.00000000
4.00650930 -2.59986949 -0.58643526 8 8 12298 4.81200000 2429535274 2429535274 -7.00000000
5.72285652 -3.71504664 1.08064926 25 9 12299 6.90800000 2429535277 2429535277 9.00000000
5.87408400 -3.81321740 -0.61270487 12 10 12299 7.03000000 2429535279 2429535279 -5.00000000
5.42694187 -3.52429724 1.25781286 12 11 12300 6.59200000 2429535281 2429535281 11.00000000
4.36801529 -2.83770633 -0.27298436 76 12 12301 5.21600000 2429535284 2429535284 -3.00000000
4.36272764 -2.83535409 1.20123863 6 13 12302 5.34000000 2429535286 2429535286 13.00000000
4.34552717 -2.82525444 -0.09047327 66 14 12303 5.18400000 2429535288 2429535288 -1.00000000
7.75643682 -5.04286480 2.47896886 38 15 12303 9.57800000 2429535290 2429535290 15.00000000
1.79778039 -1.17240548 -0.57509589 5 0 12311 2.22200000 2429535311 2429535311 -15.00000000
4.26906776 -2.78509402 0.08897237 51 1 12312 5.09800000 2429535314 2429535314 1.00000000
2.08724952 -1.36221874 -0.57542479 3 2 12313 2.55800000 2429535316 2429535316 -13.00000000
4.81645298 -3.14459968 0.30145511 26 3 12314 5.76000000 2429535318 2429535318 3.00000000
2.47572255 -1.61636722 -0.57471669 5 4 12314 3.01200000 2429535320 2429535320 -11.00000000
4.90591669 -3.20423079 0.51265007 37 5 12315 5.88200000 2429535323 2429535323 5.00000000
3.05269217 -1.99458349 -0.57755607 5 6 12316 3.69200000 2429535325 2429535325 -9.00000000
5.96024275 -3.89581800 0.87429065 10 7 12317 7.17400000 2429535327 2429535327 7.00000000
3.98744082 -2.60732079 -0.58497286 8 8 12318 4.80000000 2429535330 2429535330 -7.00000000
5.72142553 -3.74257016 1.08283937 25 9 12319 6.92200000 2429535332 2429535332 9.00000000
5.86073780 -3.83369851 -0.61270487 12 10 12319 7.03000000 2429535334 2429535334 -5.00000000
5.37682295 -3.51849437 1.24903572 18 11 12320 6.54600000 2429535337 2429535337 11.00000000
7.75082779 -5.07973146 2.48310995 38 15 12324 9.59400000 2429535346 2429535346 15.00000000
1.77591777 -1.16700363 -0.56940192 4 0 12331 2.20000000 2429535367 2429535367 -15.00000000
4.24595213 -2.79119134 0.08869313 58 1 12332 5.08200000 2429535369 2429535369 1.00000000
2.08899450 -1.37377930 -0.57722443 3 2 12333 2.56600000 2429535371 2429535371 -13.00000000
4.81212091 -3.16578388 0.30187380 23 3 12334 5.76800000 2429535373 2429535373 3.00000000
2.46514487 -1.62176216 -0.57357186 5 4 12334 3.00600000 2429535376 2429535376 -11.00000000
4.89803028 -3.22352695 0.51299870 34 5 12335 5.88600000 2429535378 2429535378 5.00000000
3.05231094 -2.00957227 -0.57880753 5 6 12336 3.70000000 2429535380 2429535380 -9.00000000
5.92671347 -3.90349674 0.87136579 22 7 12337 7.15000000 2429535383 2429535383 7.00000000
3.98163056 -2.62340808 -0.58546031 8 8 12338 4.80400000 2429535385 2429535385 -7.00000000
5.70832682 -3.76251864 1.08283937 25 9 12339 6.92200000 2429535387 2429535387 9.00000000
5.82902098 -3.84207177 -0.61078745 12 10 12339 7.00800000 2429535390 2429535390 -5.00000000
5.42023468 -3.57398629 1.26201069 15 11 12340 6.61400000 2429535392 2429535392 11.00000000
4.27939224 -2.82388330 1.18369246 45 13 12342 5.26200000 2429535396 2429535396 13.00000000
7.73071575 -5.10327768 2.48207474 38 15 12343 9.59000000 2429535401 2429535401 15.00000000
1.76861179 -1.17106259 -0.56836665 4 0 12351 2.19600000 2429535422 2429535422 -15.00000000
4.20784187 -2.78722262 0.08809975 67 1 12352 5.04800000 2429535424 2429535424 1.00000000
2.09068441 -1.38536859 -0.57902402 3 2 12353 2.57400000 2429535426 2429535426 -13.00000000
4.81435871 -3.19139028 0.30271116 23 3 12354 5.78400000 2429535429 2429535429 3.00000000
2.46110511 -1.63144195 -0.57395345 5 4 12354 3.00800000 2429535431 2429535431 -11.00000000
4.88674831 -3.24060464 0.51299870 31 5 12355 5.88600000 2429535433 2429535433 5.00000000
3.03540087 -2.01366234 -0.57693028 5 6 12356 3.68800000 2429535436 2429535436 -9.00000000
5.88162565 -3.90330529 0.86673474 37 7 12357 7.11200000 2429535438 2429535438 7.00000000
3.97079515 -2.63619256 -0.58521658 8 8 12358 4.80200000 2429535440 2429535440 -7.00000000
5.71984148 -3.79881477 1.08753240 17 9 12359 6.95200000 2429535443 2429535443 9.00000000
5.78735924 -3.84365654 -0.60782415 12 10 12359 6.97400000 2429535445 2429535445 -5.00000000
5.40445566 -3.59071183 1.26124752 15 11 12360 6.61000000 2429535447 2429535447 11.00000000
4.32475328 -2.87444711 -0.27214697 2 12 12361 5.20000000 2429535449 2429535449 -3.00000000
4.26139545 -2.83340883 1.18144298 44 13 12362 5.25200000 2429535452 2429535452 13.00000000
4.44557428 -2.95698881 -0.09319585 2 14 12363 5.34000000 2429535454 2429535454 -1.00000000
7.70802927 -5.12702179 2.48052168 38 15 12363 9.58400000 2429535456 2429535456 15.00000000
1.77135372 -1.18089950 -0.57043719 4 0 12369 2.20400000 2429535477 2429535477 -15.00000000
4.19573736 -2.79820895 0.08802994 69 1 12370 5.04400000 2429535479 2429535479 1.00000000
2.06686878 -1.37895143 -0.57362521 4 2 12371 2.55000000 2429535482 2429535482 -13.00000000
4.82148266 -3.21674538 0.30375788 26 3 12371 5.80400000 2429535484 2429535484 3.00000000
2.46413255 -1.64461505 -0.57586157 5 4 12372 3.01800000 2429535486 2429535486 -11.00000000
4.23362875 -2.82668304 0.44536585 30 5 12373 5.11000000 2429535489 2429535489 5.00000000
3.03234529 -2.02538276 -0.57755607 5 6 12374 3.69200000 2429535491 2429535491 -9.00000000
5.83797407 -3.90080953 0.86210376 65 7 12375 7.07400000 2429535493 2429535493 7.00000000
3.98064756 -2.66078877 -0.58789772 12 8 12376 4.82400000 2429535495 2429535495 -7.00000000
5.73153687 -3.83113742 1.09191251 7 9 12376 6.98000000 2429535498 2429535498 9.00000000
4.26146650 -2.84957290 -0.44850346 6 10 12377 5.14600000 2429535500 2429535500 -5.00000000
4.22640085 -2.82719278 0.98839062 5 11 12378 5.18000000 2429535502 2429535502 11.00000000
4.23768663 -2.83581305 -0.26722738 7 12 12379 5.10600000 2429535505 2429535505 -3.00000000
4.24923420 -2.84461427 1.18054318 40 13 12380 5.24800000 2429535507 2429535507 13.00000000
7.69509459 -5.15336180 2.48155689 40 15 12381 9.58800000 2429535512 2429535512 15.00000000
1.76401353 -1.18492103 -0.56940192 4 0 12389 2.20000000 2429535532 2429535532 -15.00000000
4.17432594 -2.80503058 0.08778560 58 1 12390 5.03000000 2429535535 2429535535 1.00000000
2.06527734 -1.38833213 -0.57452500 3 2 12391 2.55400000 2429535537 2429535537 -13.00000000
4.80966043 -3.23439527 0.30375788 23 3 12392 5.80400000 2429535539 2429535539 3.00000000
2.46000576 -1.65430200 -0.57624316 5 4 12392 3.02000000 2429535542 2429535542 -11.00000000
4.19397974 -2.82142591 0.44222823 23 5 12393 5.07400000 2429535544 2429535544 5.00000000
3.01378512 -2.02823496 -0.57536596 5 6 12394 3.67800000 2429535546 2429535546 -9.00000000
5.82267523 -3.92005539 0.86185998 20 7 12395 7.07200000 2429535548 2429535548 7.00000000
3.96310306 -2.66912317 -0.58667904 8 8 12396 4.81400000 2429535551 2429535551 -7.00000000
4.17751122 -2.81458545 0.79781580 20 9 12397 5.10000000 2429535553 2429535553 9.00000000
4.23827457 -2.85552478 -0.44710895 12 10 12397 5.13000000 2429535555 2429535555 -5.00000000
4.21782637 -2.84388876 -0.26659936 7 12 12399 5.09400000 2429535560 2429535560 -3.00000000
4.23604774 -2.85725021 1.17964327 37 13 12400 5.24400000 2429535562 2429535562 13.00000000
7.68896437 -5.19017792 2.48569822 45 15 12402 9.60400000 2429535567 2429535567 15.00000000
1.76306641 -1.19323695 -0.57043719 4 0 12409 2.20400000 2429535588 2429535588 -15.00000000
4.15457392 -2.81285810 0.08757617 49 1 12410 5.01800000 2429535590 2429535590 1.00000000
2.06364560 -1.39771843 -0.57542479 3 2 12411 2.55800000 2429535592 2429535592 -13.00000000
4.10437298 -2.77991438 0.25979570 26 3 12411 4.96400000 2429535595 2429535595 3.00000000
2.44934034 -1.65957522 -0.57509834 5 4 12412 3.01400000 2429535597 2429535597 -11.00000000
4.14947176 -2.81257319 0.43856770 42 5 12413 5.03200000 2429535599 2429535599 5.00000000
3.01159167 -2.04206872 -0.57630455 5 6 12414 3.68400000 2429535601 2429535601 -9.00000000
4.13329601 -2.80371523 0.61324656 51 7 12415 5.03200000 2429535604 2429535604 7.00000000
3.95376182 -2.68294072 -0.58667904 8 8 12416 4.81400000 2429535606 2429535606 -7.00000000
4.15295172 -2.81916523 0.79499996 42 9 12417 5.08200000 2429535608 2429535608 9.00000000
4.21179676 -2.85911131 -0.44536585 12 10 12417 5.11000000 2429535611 2429535611 -5.00000000
4.18382215 -2.84118843 0.98304796 47 11 12418 5.15200000 2429535613 2429535613 11.00000000
4.20622158 -2.85747194 -0.26649469 26 12 12419 5.09200000 2429535615 2429535615 -3.00000000
4.21154213 -2.86216116 1.17559421 25 13 12420 5.22600000 2429535618 2429535618 13.00000000
4.41541386 -3.00183868 -0.09319585 2 14 12421 5.34000000 2429535620 2429535620 -1.00000000
7.65094185 -5.20152712 2.47896886 45 15 12421 9.57800000 2429535622 2429535622 15.00000000
1.75250614 -1.19503045 -0.56836665 4 0 12429 2.19600000 2429535643 2429535643 -15.00000000
4.12821054 -2.81607413 0.08722713 49 1 12430 4.99800000 2429535645 2429535645 1.00000000
2.06519270 -1.40930724 -0.57722443 3 2 12431 2.56600000 2429535647 2429535647 -13.00000000
4.08474588 -2.78746963 0.25916764 56 3 12431 4.95200000 2429535650 2429535650 3.00000000
2.43866801 -1.66479421 -0.57395345 5 4 12432 3.00800000 2429535652 2429535652 -11.00000000
4.08204222 -2.78771353 0.43246680 59 5 12433 4.96200000 2429535654 2429535654 5.00000000
3.00444531 -2.05256867 -0.57630455 5 6 12434 3.68400000 2429535657 2429535657 -9.00000000
4.09890032 -2.80132484 0.60959047 51 7 12435 5.00200000 2429535659 2429535659 7.00000000
3.93617916 -2.69112372 -0.58546031 8 8 12436 4.80400000 2429535661 2429535661 -7.00000000
4.11862803 -2.81691718 0.79030693 54 9 12437 5.05200000 2429535664 2429535664 9.00000000
4.18370104 -2.86142349 -0.44344842 15 10 12437 5.08800000 2429535666 2429535666 -5.00000000
4.16253710 -2.84801507 0.98037660 55 11 12438 5.13800000 2429535668 2429535668 11.00000000
4.19622135 -2.87213707 -0.26649469 18 12 12439 5.09200000 2429535671 2429535671 -3.00000000
4.20795727 -2.88124871 1.17739379 45 13 12440 5.23400000 2429535673 2429535673 13.00000000
4.35541534 -2.98333168 -0.09214871 2 14 12441 5.28000000 2429535675 2429535675 -1.00000000
7.59448719 -5.20200109 2.46654558 45 15 12441 9.53000000 2429535677 2429535677 15.00000000
1.74493015 -1.19925725 -0.56733137 4 0 12450 2.19200000 2429535698 2429535698 -15.00000000
4.08655310 -2.80966043 0.08656394 47 1 12451 4.96000000 2429535700 2429535700 1.00000000
2.05359101 -1.41244972 -0.57542479 3 2 12452 2.55800000 2429535703 2429535703 -13.00000000
4.05262232 -2.78841567 0.25780693 42 3 12453 4.92600000 2429535705 2429535705 3.00000000
2.43093252 -1.67260838 -0.57357186 5 4 12453 3.00600000 2429535707 2429535707 -11.00000000
4.02748537 -2.77215576 0.42776039 45 5 12454 4.90800000 2429535710 2429535710 5.00000000
3.00666404 -2.07028842 -0.57818180 5 6 12455 3.69600000 2429535712 2429535712 -9.00000000
4.07062244 -2.80394220 0.60690933 44 7 12456 4.98000000 2429535714 2429535714 7.00000000
3.93446207 -2.71116424 -0.58667904 8 8 12457 4.81400000 2429535717 2429535717 -7.00000000
4.10226393 -2.82679319 0.78905547 72 9 12457 5.04400000 2429535719 2429535719 9.00000000
4.11741161 -2.83829117 -0.43752182 9 10 12458 5.02000000 2429535721 2429535721 -5.00000000
4.16015196 -2.86882496 0.98228472 55 11 12459 5.14800000 2429535724 2429535724 11.00000000
4.18402243 -2.88636351 -0.26639003 10 12 12460 5.09000000 2429535726 2429535726 -3.00000000
4.21019983 -2.90550709 1.18099308 10 13 12461 5.25000000 2429535728 2429535728 13.00000000
4.37078142 -3.01745248 -0.09270718 2 14 12462 5.31200000 2429535730 2429535730 -1.00000000
7.52517939 -5.19709110 2.45049882 42 15 12463 9.46800000 2429535733 2429535733 15.00000000
1.73914504 -1.20424116 -0.56681371 4 0 12470 2.19000000 2429535753 2429535753 -15.00000000
4.05041933 -2.80568910 0.08600546 45 1 12471 4.92800000 2429535756 2429535756 1.00000000
2.04224110 -1.41516972 -0.57362521 3 2 12472 2.55000000 2429535758 2429535758 -13.00000000
4.02201223 -2.78705096 0.25644618 42 3 12472 4.90000000 2429535760 2429535760 3.00000000
2.42023873 -1.67772818 -0.57242697 5 4 12473 3.00000000 2429535763 2429535763 -11.00000000
4.01123524 -2.78165603 0.42706314 58 5 12474 4.90000000 2429535765 2429535765 5.00000000
2.97344995 -2.06275558 -0.57317591 5 6 12475 3.66400000 2429535767 2429535767 -9.00000000
4.04776335 -2.80908012 0.60495943 57 7 12476 4.96400000 2429535770 2429535770 7.00000000
3.92171311 -2.72261739 -0.58619153 8 8 12477 4.81000000 2429535772 2429535772 -7.00000000
4.09836531 -2.84631705 0.79030693 63 9 12478 5.05200000 2429535774 2429535774 9.00000000
4.11402464 -2.85719252 -0.43821907 9 10 12478 5.02800000 2429535777 2429535777 -5.00000000
4.09519911 -2.84623742 -0.26136577 5 12 12480 4.99400000 2429535781 2429535781 -3.00000000
4.25187302 -2.95733047 -0.09040347 2 14 12482 5.18000000 2429535786 2429535786 -1.00000000
7.48162031 -5.20567322 2.44221640 45 15 12483 9.43600000 2429535788 2429535788 15.00000000
1.74623430 -1.21773684 -0.57043719 4 0 12489 2.20400000 2429535809 2429535809 -15.00000000
4.02633238 -2.80880833 0.08569132 49 1 12490 4.91000000 2429535811 2429535811 1.00000000
2.03434086 -1.41970372 -0.57272536 3 2 12491 2.54600000 2429535813 2429535813 -13.00000000
3.98490429 -2.78094196 0.25466678 54 3 12491 4.86600000 2429535816 2429535816 3.00000000
2.42271066 -1.69136393 -0.57433510 4 4 12492 3.01000000 2429535818 2429535818 -11.00000000
4.01342297 -2.80292797 0.42828333 78 5 12493 4.91400000 2429535820 2429535820 5.00000000
2.97307062 -2.07712984 -0.57442737 3 6 12494 3.67200000 2429535823 2429535823 -9.00000000
4.04493427 -2.82703614 0.60593438 42 7 12495 4.97200000 2429535825 2429535825 7.00000000
3.91266298 -2.73560739 -0.58619153 8 8 12496 4.81000000 2429535827 2429535827 -7.00000000
5.65004635 -3.95032954 1.09191251 40 9 12496 6.98000000 2429535830 2429535830 9.00000000
4.09962940 -2.86739349 -0.43769613 12 10 12497 5.02200000 2429535832 2429535832 -5.00000000
5.27941465 -3.69394016 1.25247025 21 11 12498 6.56400000 2429535834 2429535834 11.00000000
4.05137682 -2.83575082 -0.25916764 27 12 12499 4.95200000 2429535836 2429535836 -3.00000000
4.22384787 -2.95757031 1.19044101 2 13 12500 5.29200000 2429535839 2429535839 13.00000000
4.08808470 -2.86357093 -0.08712241 2 14 12501 4.99200000 2429535841 2429535841 -1.00000000
7.43109226 -5.20717382 2.43134618 45 15 12502 9.39400000 2429535843 2429535843 15.00000000
1.74513447 -1.22604609 -0.57147247 4 0 12509 2.20800000 2429535864 2429535864 -15.00000000
4.00668716 -2.81594682 0.08548189 49 1 12510 4.89800000 2429535866 2429535866 1.00000000
2.03893781 -1.43352115 -0.57542479 3 2 12511 2.55800000 2429535869 2429535869 -13.00000000
3.98007441 -2.79828095 0.25498077 64 3 12511 4.87200000 2429535871 2429535871 3.00000000
2.41358042 -1.69755161 -0.57357186 5 4 12512 3.00600000 2429535873 2429535873 -11.00000000
4.02968597 -2.83526421 0.43107229 49 5 12513 4.94600000 2429535876 2429535876 5.00000000
2.95610976 -2.08067346 -0.57255012 3 6 12514 3.66000000 2429535878 2429535878 -9.00000000
7.59451294 -5.34742022 1.14045334 45 7 12515 9.35800000 2429535880 2429535880 7.00000000
3.88523817 -2.73667383 -0.58351040 8 8 12516 4.78800000 2429535883 2429535883 -7.00000000
5.61038351 -3.95182705 1.08690667 42 9 12516 6.94800000 2429535885 2429535885 9.00000000
4.10425329 -2.89201498 -0.43926495 9 10 12517 5.04000000 2429535887 2429535887 -5.00000000
5.25044155 -3.70103502 1.24865401 25 11 12518 6.54400000 2429535889 2429535889 11.00000000
4.04961443 -2.85563064 -0.25969100 10 12 12519 4.96200000 2429535892 2429535892 -3.00000000
4.20872116 -2.96892619 1.18909132 2 13 12520 5.28600000 2429535894 2429535894 13.00000000
4.04538727 -2.85476422 -0.08642431 2 14 12521 4.95200000 2429535896 2429535896 -1.00000000
7.37183714 -5.20411396 2.41788745 45 15 12522 9.34200000 2429535899 2429535899 15.00000000
1.73611355 -1.22878206 -0.56991953 4 0 12529 2.20200000 2429535919 2429535919 -15.00000000
3.98704100 -2.82298231 0.08527246 48 1 12530 4.88600000 2429535922 2429535922 1.00000000
2.03074098 -1.43837690 -0.57452500 3 2 12531 2.55400000 2429535924 2429535924 -13.00000000
3.98006129 -2.81908345 0.25560880 42 3 12531 4.88400000 2429535926 2429535926 3.00000000
2.39963055 -1.70029104 -0.57166374 5 4 12532 2.99600000 2429535929 2429535929 -11.00000000
4.15792894 -2.94724751 0.44588879 32 5 12533 5.11600000 2429535931 2429535931 5.00000000
2.96816540 -2.10469079 -0.57630455 3 6 12534 3.68400000 2429535933 2429535933 -9.00000000
3.87566161 -2.75021911 -0.58351040 8 8 12536 4.78800000 2429535938 2429535938 -7.00000000
5.57400084 -3.95538235 1.08252645 45 9 12536 6.92000000 2429535940 2429535940 9.00000000
4.01452494 -2.84981203 -0.43072367 9 10 12537 4.94200000 2429535942 2429535942 -5.00000000
5.23909140 -3.72047663 1.24903572 25 11 12538 6.54600000 2429535945 2429535945 11.00000000
4.02333975 -2.85818195 -0.25864428 5 12 12539 4.94200000 2429535947 2429535947 -3.00000000
4.21739388 -2.99714589 1.19449008 3 13 12540 5.31000000 2429535949 2429535949 13.00000000
4.03213787 -2.86655045 -0.08635451 2 14 12541 4.94800000 2429535952 2429535952 -1.00000000
7.31517649 -5.20054722 2.40494657 45 15 12541 9.29200000 2429535954 2429535954 15.00000000
1.72237611 -1.22810543 -0.56681371 4 0 12549 2.19000000 2429535975 2429535975 -15.00000000
3.95762682 -2.82294774 0.08485360 48 1 12550 4.86200000 2429535977 2429535977 1.00000000
2.02888036 -1.44772065 -0.57542479 3 2 12551 2.55800000 2429535979 2429535979 -13.00000000
4.80260468 -3.42692947 0.30920082 14 3 12551 5.90800000 2429535982 2429535982 3.00000000
2.39687657 -1.71093822 -0.57242697 5 4 12552 3.00000000 2429535984 2429535984 -11.00000000
4.15734434 -2.96869040 0.44693464 32 5 12553 5.12800000 2429535986 2429535986 5.00000000
2.94472671 -2.10355639 -0.57317591 3 6 12554 3.66400000 2429535988 2429535988 -9.00000000
3.98119164 -2.84500146 0.60081589 10 7 12555 4.93000000 2429535991 2429535991 7.00000000
3.87088275 -2.76719427 -0.58424163 8 8 12556 4.79400000 2429535993 2429535993 -7.00000000
5.54891109 -3.96677375 1.08033645 47 9 12556 6.90600000 2429535995 2429535995 9.00000000
3.98834682 -2.85221839 -0.42898056 28 10 12557 4.92200000 2429535998 2429535998 -5.00000000
5.20052481 -3.72046518 1.24292982 25 11 12558 6.51400000 2429536000 2429536000 11.00000000
3.96623731 -2.83850002 -0.25560880 7 12 12559 4.88400000 2429536002 2429536002 -3.00000000
4.19739914 -3.00504255 1.19179070 2 13 12560 5.29800000 2429536005 2429536005 13.00000000
4.03511333 -2.88992262 -0.08663374 2 14 12561 4.96400000 2429536007 2429536007 -1.00000000
7.25523615 -5.19807053 2.39148808 40 15 12562 9.24000000 2429536009 2429536009 15.00000000
1.71807873 -1.23411012 -0.56681371 4 0 12569 2.19000000 2429536030 2429536030 -15.00000000
3.93150949 -2.82507610 0.08450455 48 1 12570 4.84200000 2429536032 2429536032 1.00000000
2.00799108 -1.44341946 -0.57092577 3 2 12571 2.53800000 2429536035 2429536035 -13.00000000
4.81109238 -3.45966768 0.31056157 19 3 12572 5.93400000 2429536037 2429536037 3.00000000
2.39567161 -1.72273302 -0.57357186 4 4 12572 3.00600000 2429536039 2429536039 -11.00000000
4.11784363 -2.96224141 0.44379705 32 5 12573 5.09200000 2429536041 2429536041 5.00000000
