# .PCD v0.7 - Point Cloud Data file format
VERSION 0.7
FIELDS x y z intensity laser_id azimuth distance_m adjustedtime timestamp vertical_angle
SIZE 4 4 4 1 1 2 8 8 4 8
TYPE F F F U U U F U U F
COUNT 1 1 1 1 1 1 1 1 1 1
WIDTH 523
HEIGHT 1
VIEWPOINT 0 0 0 1 0 0 0
POINTS 523
DATA ascii
2.06565166 -11.37783432 2.66971922 53 13 16971 11.86800000 2047849235 2047849235 13.00000000
1.02276981 -5.63912725 -0.10003719 170 14 16972 5.73200000 2047849237 2047849237 -1.00000000
1.76411569 -9.72660065 2.64875412 38 15 16972 10.23400000 2047849240 2047849240 15.00000000
0.35339078 -1.96406353 -0.53472012 4 0 16980 2.06600000 2047849260 2047849260 -15.00000000
0.41055179 -2.28632975 -0.53628331 4 2 16982 2.38400000 2047849265 2047849265 -13.00000000
0.24227387 -1.35055852 0.07190961 2 3 16983 1.37400000 2047849267 2047849267 3.00000000
0.48115107 -2.68218255 -0.52968580 3 4 16983 2.77600000 2047849270 2047849270 -11.00000000
0.24531399 -1.36888039 0.12166942 2 5 16984 1.39600000 2047849272 2047849272 5.00000000
1.01439929 -5.66616106 -0.91170007 63 6 16985 5.82800000 2047849274 2047849274 -9.00000000
3.55704236 -19.88868904 2.48077226 2 7 16986 20.35600000 2047849276 2047849276 7.00000000
0.74262583 -4.15647078 -0.51843220 2 8 16987 4.25400000 2047849279 2047849279 -7.00000000
2.61049533 -14.62566471 2.35308719 15 9 16988 15.04200000 2047849281 2047849281 9.00000000
0.99143642 -5.55466127 -0.49365014 14 10 16988 5.66400000 2047849283 2047849283 -5.00000000
2.29245758 -12.85678673 2.53852296 53 11 16989 13.30400000 2047849286 2047849286 11.00000000
1.01328135 -5.68852854 -0.30281585 9 12 16990 5.78600000 2047849288 2047849288 -3.00000000
2.02592301 -11.38497543 2.66971922 48 13 16991 11.86800000 2047849290 2047849290 13.00000000
1.00552928 -5.65644503 -0.10028153 100 14 16992 5.74600000 2047849293 2047849293 -1.00000000
1.72912967 -9.73680496 2.64978933 38 15 16993 10.23800000 2047849295 2047849295 15.00000000
0.34585464 -1.96344292 -0.53420252 4 0 17001 2.06400000 2047849316 2047849316 -15.00000000
0.40149441 -2.28398037 -0.53538352 4 2 17003 2.38000000 2047849320 2047849320 -13.00000000
0.23755805 -1.35139596 0.07190961 2 3 17003 1.37400000 2047849323 2047849323 3.00000000
0.47063804 -2.68006063 -0.52892256 3 4 17004 2.77200000 2047849325 2047849325 -11.00000000
3.47761869 -19.86444092 2.47614121 2 7 17007 20.31800000 2047849332 2047849332 7.00000000
0.72191495 -4.12787819 -0.51453239 2 8 17008 4.22200000 2047849334 2047849334 -7.00000000
2.55993176 -14.65264702 2.35590315 15 9 17009 15.06000000 2047849336 2047849336 9.00000000
0.97209960 -5.56414557 -0.49417305 14 10 17009 5.67000000 2047849339 2047849339 -5.00000000
2.24261951 -12.84963036 2.53547001 56 11 17010 13.28800000 2047849341 2047849341 11.00000000
0.99928588 -5.73155594 -0.30490929 3 12 17011 5.82600000 2047849343 2047849343 -3.00000000
1.98652196 -11.40576267 2.67286849 50 13 17012 11.88200000 2047849346 2047849346 13.00000000
1.69612479 -9.74849129 2.65134239 35 15 17013 10.24400000 2047849350 2047849350 15.00000000
0.33965582 -1.96844566 -0.53523779 4 0 17021 2.06800000 2047849371 2047849371 -15.00000000
0.39153525 -2.27384520 -0.53268409 4 2 17023 2.36800000 2047849375 2047849375 -13.00000000
0.22673877 -1.31678772 0.07002551 2 3 17023 1.33800000 2047849378 2047849378 3.00000000
0.46127999 -2.68168712 -0.52892256 3 4 17024 2.77200000 2047849380 2047849380 -11.00000000
3.41496754 -19.91559029 2.48101616 2 7 17027 20.35800000 2047849387 2047849387 7.00000000
0.70951247 -4.14211273 -0.51599479 2 8 17028 4.23400000 2047849389 2047849389 -7.00000000
2.52842569 -14.77637100 2.37436223 15 9 17029 15.17800000 2047849392 2047849392 9.00000000
0.95334327 -5.57143259 -0.49452168 14 10 17029 5.67400000 2047849394 2047849394 -5.00000000
2.19576740 -12.84576893 2.53318024 53 11 17030 13.27600000 2047849396 2047849396 11.00000000
0.23666602 -1.38600981 -0.07368903 4 12 17031 1.40800000 2047849399 2047849399 -3.00000000
1.94604099 -11.40878582 2.67196870 48 13 17032 11.87800000 2047849401 2047849401 13.00000000
1.66370833 -9.76387405 2.65393043 38 15 17033 10.25400000 2047849405 2047849405 15.00000000
0.33508262 -1.97902679 -0.53782600 4 0 17039 2.07800000 2047849426 2047849426 -15.00000000
0.38568845 -2.28274989 -0.53448373 4 2 17041 2.37600000 2047849431 2047849431 -13.00000000
0.22270328 -1.31950176 0.07013018 2 3 17042 1.34000000 2047849433 2047849433 3.00000000
0.45285296 -2.68312311 -0.52892256 3 4 17042 2.77200000 2047849435 2047849435 -11.00000000
0.54853511 -3.25696087 -0.52311683 1 6 17044 3.34400000 2047849440 2047849440 -9.00000000
3.35304284 -19.93013573 2.48150349 2 7 17045 20.36200000 2047849442 2047849442 7.00000000
0.69518018 -4.13649082 -0.51501983 2 8 17046 4.22600000 2047849445 2047849445 -7.00000000
2.46165490 -14.64744473 2.35246158 7 9 17046 15.03800000 2047849447 2047849447 9.00000000
0.93649513 -5.57833004 -0.49487031 14 10 17047 5.67800000 2047849449 2047849449 -5.00000000
2.15507579 -12.85066795 2.53279853 21 11 17048 13.27400000 2047849452 2047849452 11.00000000
1.50440907 -8.98036480 -0.47719926 4 12 17049 9.11800000 2047849454 2047849454 -3.00000000
1.90890312 -11.40715504 2.67016912 50 13 17050 11.87000000 2047849456 2047849456 13.00000000
0.22947170 -1.37274051 -0.02429375 1 14 17051 1.39200000 2047849458 2047849458 -1.00000000
1.63163924 -9.77124310 2.65444803 40 15 17052 10.25600000 2047849461 2047849461 15.00000000
0.32785663 -1.97827852 -0.53730834 4 0 17059 2.07600000 2047849481 2047849481 -15.00000000
0.37835371 -2.28792763 -0.53538352 4 2 17061 2.38000000 2047849486 2047849486 -13.00000000
0.21800058 -1.31826258 0.07002551 2 3 17061 1.33800000 2047849488 2047849488 3.00000000
0.44092456 -2.66919136 -0.52586961 3 4 17062 2.75600000 2047849491 2047849491 -11.00000000
0.53909051 -3.27055025 -0.52499408 1 6 17064 3.35600000 2047849495 2047849495 -9.00000000
3.29183841 -19.99264526 2.48784089 7 7 17065 20.41400000 2047849498 2047849498 7.00000000
3.34247279 -20.32229233 -2.52878881 3 8 17066 20.75000000 2047849500 2047849500 -7.00000000
2.41307688 -14.68755627 2.35746741 3 9 17067 15.07000000 2047849502 2047849502 9.00000000
0.22707406 -1.38212049 -0.12254097 9 10 17067 1.40600000 2047849505 2047849505 -5.00000000
2.11052346 -12.86004925 2.53318024 46 11 17068 13.27600000 2047849507 2047849507 11.00000000
2.29342556 -13.98980427 -0.74296123 13 12 17069 14.19600000 2047849509 2047849509 -3.00000000
1.86970294 -11.41759491 2.67106891 47 13 17070 11.87400000 2047849511 2047849511 13.00000000
0.21822226 -1.33406377 -0.02359565 1 14 17071 1.35200000 2047849514 2047849514 -1.00000000
1.59689820 -9.77306652 2.65341282 42 15 17072 10.25200000 2047849516 2047849516 15.00000000
0.32002154 -1.97369003 -0.53575540 4 0 17079 2.07000000 2047849537 2047849537 -15.00000000
0.37098750 -2.29308176 -0.53628331 4 2 17081 2.38400000 2047849541 2047849541 -13.00000000
0.21339765 -1.31901550 0.07002551 2 3 17081 1.33800000 2047849544 2047849544 3.00000000
0.43285751 -2.67846680 -0.52739608 3 4 17082 2.76400000 2047849546 2047849546 -11.00000000
0.52767086 -3.27241206 -0.52499408 1 6 17084 3.35600000 2047849551 2047849551 -9.00000000
3.23876143 -20.10788536 2.50075889 16 7 17085 20.52000000 2047849553 2047849553 7.00000000
0.67196119 -4.17652130 -0.51940715 2 8 17086 4.26200000 2047849555 2047849555 -7.00000000
2.35682702 -14.64867020 2.34995842 3 9 17086 15.02200000 2047849558 2047849558 9.00000000
0.21940289 -1.36520040 -0.12097217 12 10 17087 1.38800000 2047849560 2047849560 -5.00000000
2.06375360 -12.85570717 2.53089046 53 11 17088 13.26400000 2047849562 2047849562 11.00000000
2.24236441 -13.98392010 -0.74222851 54 12 17089 14.18200000 2047849564 2047849564 -3.00000000
1.83291876 -11.44329453 2.67556787 50 13 17090 11.89400000 2047849567 2047849567 13.00000000
1.56429851 -9.78811932 2.65600109 40 15 17092 10.26200000 2047849571 2047849571 15.00000000
0.31282759 -1.97288704 -0.53523779 4 0 17099 2.06800000 2047849592 2047849592 -15.00000000
0.36237189 -2.29051328 -0.53538352 4 2 17101 2.38000000 2047849597 2047849597 -13.00000000
0.20972842 -1.32567048 0.07033952 4 3 17101 1.34400000 2047849599 2047849599 3.00000000
0.42350528 -2.67996120 -0.52739608 3 4 17102 2.76400000 2047849601 2047849601 -11.00000000
0.51532185 -3.26838017 -0.52405548 1 6 17104 3.35000000 2047849606 2047849606 -9.00000000
3.16669917 -20.10730171 2.49929643 19 7 17105 20.50800000 2047849608 2047849608 7.00000000
0.64997470 -4.13177776 -0.51355743 2 8 17106 4.21400000 2047849611 2047849611 -7.00000000
2.55985355 -16.27255058 2.60901403 40 9 17106 16.67800000 2047849613 2047849613 9.00000000
0.21587321 -1.37383091 -0.12166942 12 10 17107 1.39600000 2047849615 2047849615 -5.00000000
2.01643085 -12.84731674 2.52783751 50 11 17108 13.24800000 2047849617 2047849617 11.00000000
2.19230032 -13.98376942 -0.74180984 13 12 17109 14.17400000 2047849620 2047849620 -3.00000000
1.79296303 -11.44962215 2.67556787 48 13 17110 11.89400000 2047849622 2047849622 13.00000000
1.52922738 -9.78779411 2.65444803 38 15 17112 10.25600000 2047849627 2047849627 15.00000000
0.30682668 -1.97969425 -0.53679073 4 0 17119 2.07400000 2047849647 2047849647 -15.00000000
0.35258752 -2.28020906 -0.53268409 4 2 17121 2.36800000 2047849652 2047849652 -13.00000000
0.20357364 -1.31652558 0.06981616 4 3 17121 1.33400000 2047849654 2047849654 3.00000000
0.41414788 -2.68142319 -0.52739608 3 4 17122 2.76400000 2047849657 2047849657 -11.00000000
0.20018864 -1.29763365 0.11487127 2 5 17123 1.31800000 2047849659 2047849659 5.00000000
0.50240570 -3.26039743 -0.52249110 1 6 17124 3.34000000 2047849661 2047849661 -9.00000000
3.09739828 -20.12411880 2.50002766 16 7 17125 20.51400000 2047849663 2047849663 7.00000000
0.63856453 -4.15364170 -0.51599479 2 8 17126 4.23400000 2047849666 2047849666 -7.00000000
2.55676484 -16.63087273 2.66501760 40 9 17126 17.03600000 2047849668 2047849668 9.00000000
0.21319315 -1.38836122 -0.12288960 11 10 17127 1.41000000 2047849670 2047849670 -5.00000000
1.97038257 -12.84651470 2.52631116 50 11 17128 13.24000000 2047849673 2047849673 11.00000000
2.14528942 -14.00318241 -0.74243790 4 12 17129 14.18600000 2047849675 2047849675 -3.00000000
1.75357497 -11.45966434 2.67646766 47 13 17130 11.89800000 2047849677 2047849677 13.00000000
1.49676156 -9.79281139 2.65444803 35 15 17131 10.25600000 2047849682 2047849682 15.00000000
0.30251729 -1.99794388 -0.54144943 4 0 17139 2.09200000 2047849703 2047849703 -15.00000000
0.34520811 -2.28527975 -0.53358388 4 2 17141 2.37200000 2047849707 2047849707 -13.00000000
0.19927518 -1.31920302 0.06992084 6 3 17141 1.33600000 2047849710 2047849710 3.00000000
0.40478545 -2.68285251 -0.52739608 3 4 17142 2.76400000 2047849712 2047849712 -11.00000000
0.49219784 -3.26994491 -0.52374262 1 6 17144 3.34800000 2047849716 2047849716 -9.00000000
3.02624774 -20.12891960 2.49929643 9 7 17145 20.50800000 2047849719 2047849719 7.00000000
0.62170345 -4.14014101 -0.51404488 2 8 17146 4.21800000 2047849721 2047849721 -7.00000000
2.54445815 -16.94443893 2.71382499 37 9 17146 17.34800000 2047849723 2047849723 9.00000000
0.87209612 -5.81450367 -0.51439321 3 10 17147 5.90200000 2047849726 2047849726 -5.00000000
1.92552781 -12.85331440 2.52631116 50 11 17148 13.24000000 2047849728 2047849728 11.00000000
1.34922433 -9.01710415 -0.47782728 4 12 17149 9.13000000 2047849730 2047849730 -3.00000000
1.71298659 -11.46186066 2.67556787 48 13 17150 11.89400000 2047849733 2047849733 13.00000000
1.46513224 -9.82689190 2.66221261 42 15 17152 10.28600000 2047849737 2047849737 15.00000000
0.29152369 -1.97419465 -0.53472012 4 0 17160 2.06600000 2047849758 2047849758 -15.00000000
0.33768183 -2.29231358 -0.53493363 3 2 17162 2.37800000 2047849763 2047849763 -13.00000000
0.19333616 -1.31403041 0.06960682 6 3 17163 1.33000000 2047849765 2047849765 3.00000000
0.39037707 -2.65324068 -0.52129018 3 4 17163 2.73200000 2047849767 2047849767 -11.00000000
0.48107016 -3.27759004 -0.52468121 3 6 17165 3.35400000 2047849772 2047849772 -9.00000000
2.95245123 -20.13987541 2.49929643 9 7 17166 20.50800000 2047849774 2047849774 7.00000000
0.60710007 -4.14631987 -0.51453239 2 8 17167 4.22200000 2047849776 2047849776 -7.00000000
2.51839542 -17.19992256 2.75324655 41 9 17167 17.60000000 2047849779 2047849779 9.00000000
0.83867031 -5.73486137 -0.50707209 3 10 17168 5.81800000 2047849781 2047849781 -5.00000000
1.74107158 -11.92004681 2.34160805 12 11 17169 12.27200000 2047849783 2047849783 11.00000000
1.67208910 -11.47577572 2.67736745 48 13 17171 11.90200000 2047849788 2047849788 13.00000000
1.42998636 -9.82621098 2.66065979 38 15 17172 10.28000000 2047849793 2047849793 15.00000000
0.28407961 -1.97137594 -0.53368485 4 0 17180 2.06200000 2047849813 2047849813 -15.00000000
0.32940084 -2.29154921 -0.53448373 4 2 17182 2.37600000 2047849818 2047849818 -13.00000000
0.18789667 -1.30876637 0.06929281 6 3 17183 1.32400000 2047849820 2047849820 3.00000000
0.38446116 -2.67790723 -0.52586961 3 4 17183 2.75600000 2047849822 2047849822 -11.00000000
0.47130656 -3.29098201 -0.52655840 1 6 17185 3.36600000 2047849827 2047849827 -9.00000000
2.88213181 -20.15005875 2.49929643 9 7 17186 20.50800000 2047849829 2047849829 7.00000000
0.59206152 -4.14448357 -0.51404488 2 8 17187 4.21800000 2047849832 2047849832 -7.00000000
2.46008086 -17.24228096 2.75856543 41 9 17188 17.63400000 2047849834 2047849834 9.00000000
0.81639546 -5.72197437 -0.50567764 3 10 17188 5.80200000 2047849836 2047849836 -5.00000000
1.63366652 -11.49311829 2.68006682 48 13 17191 11.91400000 2047849843 2047849843 13.00000000
1.39233470 -9.81991005 2.65755391 40 15 17193 10.26800000 2047849848 2047849848 15.00000000
0.27727154 -1.97039413 -0.53316724 4 0 17199 2.06000000 2047849869 2047849869 -15.00000000
0.32179996 -2.29262900 -0.53448373 4 2 17201 2.37600000 2047849873 2047849873 -13.00000000
0.18438743 -1.31531596 0.06960682 6 3 17202 1.33000000 2047849875 2047849875 3.00000000
0.37694156 -2.68888855 -0.52777767 3 4 17202 2.76600000 2047849878 2047849878 -11.00000000
0.45601383 -3.26122522 -0.52155250 1 6 17204 3.33400000 2047849882 2047849882 -9.00000000
2.81227589 -20.13788033 2.49661541 9 7 17205 20.48600000 2047849885 2047849885 7.00000000
0.58270210 -4.17788124 -0.51794469 2 8 17206 4.25000000 2047849887 2047849887 -7.00000000
2.40917516 -17.27340317 2.76231980 41 9 17206 17.65800000 2047849889 2047849889 9.00000000
0.79961526 -5.74043703 -0.50707209 3 10 17207 5.81800000 2047849892 2047849892 -5.00000000
1.78703785 -12.84555054 2.52096844 53 11 17208 13.21200000 2047849894 2047849894 11.00000000
1.59661627 -11.50619411 2.68186641 46 13 17210 11.92200000 2047849899 2047849899 13.00000000
1.36147773 -9.82423592 2.65755391 40 15 17211 10.26800000 2047849903 2047849903 15.00000000
0.27170447 -1.98091972 -0.53575540 4 0 17219 2.07000000 2047849924 2047849924 -15.00000000
0.31168213 -2.27829242 -0.53088450 4 2 17221 2.36000000 2047849928 2047849928 -13.00000000
0.17871353 -1.30803609 0.06918813 9 3 17222 1.32200000 2047849931 2047849931 3.00000000
0.36649022 -2.68240714 -0.52625120 3 4 17222 2.75800000 2047849933 2047849933 -11.00000000
0.44542742 -3.26866913 -0.52249110 3 6 17224 3.34000000 2047849938 2047849938 -9.00000000
2.74196458 -20.14757347 2.49661541 9 7 17225 20.48600000 2047849940 2047849940 7.00000000
0.56437212 -4.15235186 -0.51453239 2 8 17226 4.22200000 2047849942 2047849942 -7.00000000
2.34850574 -17.30169106 2.76544857 41 9 17227 17.67800000 2047849945 2047849945 9.00000000
0.77957249 -5.74319315 -0.50707209 3 10 17227 5.81800000 2047849947 2047849947 -5.00000000
1.74218762 -12.85170937 2.52096844 53 11 17228 13.21200000 2047849949 2047849949 11.00000000
1.22319436 -9.03506374 -0.47782728 4 12 17229 9.13000000 2047849951 2047849951 -3.00000000
1.55592024 -11.50783443 2.68096662 48 13 17230 11.91800000 2047849954 2047849954 13.00000000
1.32752633 -9.84447575 2.66169500 38 15 17232 10.28400000 2047849958 2047849958 15.00000000
0.26495323 -1.98573196 -0.53679073 4 0 17240 2.07400000 2047849979 2047849979 -15.00000000
0.30461499 -2.28907800 -0.53313398 4 2 17242 2.37000000 2047849984 2047849984 -13.00000000
0.17339191 -1.30472267 0.06897879 9 3 17243 1.31800000 2047849986 2047849986 3.00000000
0.35665625 -2.68373251 -0.52625120 3 4 17243 2.75800000 2047849988 2047849988 -11.00000000
0.43500143 -3.28202915 -0.52436835 1 6 17245 3.35200000 2047849993 2047849993 -9.00000000
2.66888285 -20.16339302 2.49734664 11 7 17246 20.49200000 2047849995 2047849995 7.00000000
0.54706812 -4.13864851 -0.51258248 2 8 17247 4.20600000 2047849998 2047849998 -7.00000000
2.28861499 -17.31369972 2.76607418 41 9 17247 17.68200000 2047850000 2047850000 9.00000000
0.75590992 -5.72625923 -0.50532901 3 10 17248 5.79800000 2047850002 2047850002 -5.00000000
1.69404566 -12.85022354 2.51944208 53 11 17249 13.20400000 2047850004 2047850004 11.00000000
1.51347744 -11.51152802 2.68051672 50 13 17251 11.91600000 2047850009 2047850009 13.00000000
1.29340613 -9.85096550 2.66221261 45 15 17252 10.28600000 2047850014 2047850014 15.00000000
0.25777128 -1.98472893 -0.53627306 4 0 17260 2.07200000 2047850034 2047850034 -15.00000000
0.29737368 -2.29592514 -0.53448373 4 2 17262 2.37600000 2047850039 2047850039 -13.00000000
0.16934891 -1.30928147 0.06918813 11 3 17263 1.32200000 2047850041 2047850041 3.00000000
0.34577507 -2.67327881 -0.52396148 3 4 17263 2.74600000 2047850044 2047850044 -11.00000000
0.42202610 -3.27177286 -0.52249110 1 6 17265 3.34000000 2047850048 2047850048 -9.00000000
2.60025859 -20.18636703 2.49905276 11 7 17266 20.50600000 2047850051 2047850051 7.00000000
0.53768355 -4.17991018 -0.51745725 2 8 17267 4.24600000 2047850053 2047850053 -7.00000000
2.22488999 -17.32001305 2.76576138 37 9 17268 17.68000000 2047850055 2047850055 9.00000000
0.75114805 -5.84743214 -0.51578766 3 10 17268 5.91800000 2047850057 2047850057 -5.00000000
1.64868009 -12.85216331 2.51867867 53 11 17269 13.20000000 2047850060 2047850060 11.00000000
0.19008192 -1.48382151 -0.07839926 2 12 17270 1.49800000 2047850062 2047850062 -3.00000000
1.47526371 -11.53220463 2.68411589 50 13 17271 11.93200000 2047850064 2047850064 13.00000000
1.25778079 -9.85947227 2.66324806 40 15 17273 10.29000000 2047850069 2047850069 15.00000000
0.24963109 -1.97603357 -0.53368485 4 0 17280 2.06200000 2047850090 2047850090 -15.00000000
0.28984475 -2.30081606 -0.53538352 4 2 17282 2.38000000 2047850094 2047850094 -13.00000000
0.16527621 -1.31382787 0.06939748 15 3 17283 1.32600000 2047850097 2047850097 3.00000000
0.33693156 -2.67836547 -0.52472472 3 4 17283 2.75000000 2047850099 2047850099 -11.00000000
0.40937355 -3.26342583 -0.52092677 3 6 17285 3.33000000 2047850104 2047850104 -9.00000000
2.53076601 -20.20319939 2.50002766 14 7 17286 20.51400000 2047850106 2047850106 7.00000000
0.51816183 -4.14236689 -0.51258248 2 8 17287 4.20600000 2047850108 2047850108 -7.00000000
2.16891360 -17.33905602 2.76763844 33 9 17287 17.69200000 2047850110 2047850110 9.00000000
0.71591502 -5.73139715 -0.50532901 3 10 17288 5.79800000 2047850113 2047850113 -5.00000000
1.60332167 -12.85394382 2.51791549 53 11 17289 13.19600000 2047850115 2047850115 11.00000000
0.17255805 -1.38537884 -0.07316567 2 12 17290 1.39800000 2047850117 2047850117 -3.00000000
1.43572140 -11.54308510 2.68546557 51 13 17291 11.93800000 2047850120 2047850120 13.00000000
1.22436440 -9.85783768 2.66169500 42 15 17292 10.28400000 2047850124 2047850124 15.00000000
0.24226107 -1.97305799 -0.53264958 4 0 17300 2.05800000 2047850145 2047850145 -15.00000000
0.27968028 -2.28440499 -0.53133440 4 2 17302 2.36200000 2047850150 2047850150 -13.00000000
0.16141619 -1.32034433 0.06971149 22 3 17303 1.33200000 2047850152 2047850152 3.00000000
0.32758027 -2.67952514 -0.52472472 3 4 17303 2.75000000 2047850154 2047850154 -11.00000000
0.39606738 -3.24914813 -0.51842380 3 6 17305 3.31400000 2047850159 2047850159 -9.00000000
2.42209077 -19.89859390 2.46127319 7 7 17306 20.19600000 2047850161 2047850161 7.00000000
0.50226200 -4.13232708 -0.51112002 2 8 17307 4.19400000 2047850163 2047850163 -7.00000000
2.10701442 -17.36061478 2.76982856 41 9 17308 17.70600000 2047850166 2047850166 9.00000000
0.69014317 -5.68639231 -0.50114554 3 10 17308 5.75000000 2047850168 2047850168 -5.00000000
1.55655360 -12.84387016 2.51486254 56 11 17309 13.18000000 2047850170 2047850170 11.00000000
1.39682245 -11.55963516 2.68816519 46 13 17311 11.95000000 2047850175 2047850175 13.00000000
1.18868756 -9.86609554 2.66273022 38 15 17313 10.28800000 2047850180 2047850180 15.00000000
0.23560107 -1.97580993 -0.53316724 4 0 17320 2.06000000 2047850200 2047850200 -15.00000000
0.27239472 -2.29117274 -0.53268409 4 2 17322 2.36800000 2047850205 2047850205 -13.00000000
0.15586457 -1.31296635 0.06929281 22 3 17323 1.32400000 2047850207 2047850207 3.00000000
0.31915072 -2.68845057 -0.52625120 3 4 17323 2.75800000 2047850210 2047850210 -11.00000000
0.38634858 -3.26424265 -0.52061391 3 6 17325 3.32800000 2047850214 2047850214 -9.00000000
2.34912229 -19.87735558 2.45761728 7 7 17326 20.16600000 2047850216 2047850216 7.00000000
0.49109131 -4.16165447 -0.51453239 2 8 17327 4.22200000 2047850219 2047850219 -7.00000000
2.05082178 -17.37927818 2.77170587 41 9 17327 17.71800000 2047850221 2047850221 9.00000000
0.67448634 -5.72438335 -0.50428313 3 10 17328 5.78600000 2047850223 2047850223 -5.00000000
1.51033437 -12.83752632 2.51257277 56 11 17329 13.16800000 2047850226 2047850226 11.00000000
0.17919368 -1.52540302 -0.08049270 2 12 17330 1.53800000 2047850228 2047850228 -3.00000000
1.35532820 -11.55476284 2.68591547 48 13 17331 11.94000000 2047850230 2047850230 13.00000000
1.15731215 -9.88149548 2.66583610 42 15 17332 10.30000000 2047850235 2047850235 15.00000000
0.22936890 -1.98237741 -0.53472012 4 0 17340 2.06600000 2047850256 2047850256 -15.00000000
0.26439536 -2.29210973 -0.53268409 4 2 17342 2.36800000 2047850260 2047850260 -13.00000000
0.15105198 -1.31151831 0.06918813 33 3 17343 1.32200000 2047850263 2047850263 3.00000000
0.30976433 -2.68954825 -0.52625120 3 4 17343 2.75800000 2047850265 2047850265 -11.00000000
0.37630388 -3.27734613 -0.52249110 3 6 17345 3.34000000 2047850269 2047850269 -9.00000000
2.40498018 -20.97801971 2.59264851 25 7 17346 21.27400000 2047850272 2047850272 7.00000000
0.47114339 -4.11601067 -0.50868267 2 8 17347 4.17400000 2047850274 2047850274 -7.00000000
1.99149227 -17.39810562 2.77358317 41 9 17347 17.73000000 2047850276 2047850276 9.00000000
0.65631026 -5.74253893 -0.50567764 3 10 17348 5.80200000 2047850279 2047850279 -5.00000000
1.46551383 -12.84272099 2.51257277 50 11 17349 13.16800000 2047850281 2047850281 11.00000000
0.16143265 -1.41687620 -0.07473575 4 12 17350 1.42800000 2047850283 2047850283 -3.00000000
1.31542683 -11.56329632 2.68681550 50 13 17351 11.94400000 2047850286 2047850286 13.00000000
1.12346625 -9.89123344 2.66738915 42 15 17352 10.30600000 2047850290 2047850290 15.00000000
0.22201702 -1.97932637 -0.53368485 4 0 17360 2.06200000 2047850311 2047850311 -15.00000000
0.25725898 -2.30076528 -0.53448373 4 2 17362 2.37600000 2047850316 2047850316 -13.00000000
0.14536504 -1.30211294 0.06866477 24 3 17363 1.31200000 2047850318 2047850318 3.00000000
0.29863161 -2.67500401 -0.52319825 3 4 17363 2.74200000 2047850320 2047850320 -11.00000000
0.36486152 -3.27863979 -0.52249110 3 6 17365 3.34000000 2047850325 2047850325 -9.00000000
2.33195782 -20.98826027 2.59289217 32 7 17366 21.27600000 2047850327 2047850327 7.00000000
0.46027482 -4.14919758 -0.51258248 2 8 17367 4.20600000 2047850329 2047850329 -7.00000000
1.92879891 -17.41510582 2.77514744 37 9 17368 17.74000000 2047850332 2047850332 9.00000000
0.63143593 -5.70122862 -0.50184274 3 10 17368 5.75800000 2047850334 2047850334 -5.00000000
1.31861293 -11.92476463 2.33206749 12 11 17369 12.22200000 2047850336 2047850336 11.00000000
1.27676344 -11.58331299 2.69041467 48 13 17371 11.96000000 2047850341 2047850341 13.00000000
1.08850992 -9.89125443 2.66635370 40 15 17372 10.30200000 2047850345 2047850345 15.00000000
0.21427198 -1.97240710 -0.53161430 4 0 17380 2.05400000 2047850366 2047850366 -15.00000000
0.24964583 -2.30552411 -0.53538352 4 2 17382 2.38000000 2047850371 2047850371 -13.00000000
0.14232159 -1.31651223 0.06939748 20 3 17383 1.32600000 2047850373 2047850373 3.00000000
0.29055834 -2.68774152 -0.52548796 3 4 17383 2.75400000 2047850375 2047850375 -11.00000000
0.35320309 -3.27792954 -0.52217823 3 6 17385 3.33800000 2047850380 2047850380 -9.00000000
2.25485897 -20.96074486 2.58850479 27 7 17386 21.24000000 2047850382 2047850382 7.00000000
0.44366884 -4.13104153 -0.51014507 2 8 17387 4.18600000 2047850385 2047850385 -7.00000000
1.86968184 -17.43744469 2.77765036 37 9 17388 17.75600000 2047850387 2047850387 9.00000000
0.61068141 -5.69547367 -0.50114554 3 10 17388 5.75000000 2047850389 2047850389 -5.00000000
1.37331212 -12.82921314 2.50799346 37 11 17389 13.14400000 2047850392 2047850392 11.00000000
1.23756278 -11.59932613 2.69311404 50 13 17391 11.97200000 2047850396 2047850396 13.00000000
1.05224943 -9.89517689 2.66635370 42 15 17393 10.30200000 2047850401 2047850401 15.00000000
0.20874141 -1.98271298 -0.53420252 4 0 17399 2.06400000 2047850422 2047850422 -15.00000000
0.24118562 -2.29858685 -0.53358388 4 2 17401 2.37200000 2047850426 2047850426 -13.00000000
0.13837124 -1.32094979 0.06960682 18 3 17402 1.33000000 2047850428 2047850428 3.00000000
0.28123480 -2.68478513 -0.52472472 3 4 17402 2.75000000 2047850431 2047850431 -11.00000000
0.34130558 -3.26925921 -0.52061391 3 6 17404 3.32800000 2047850435 2047850435 -9.00000000
2.18595576 -20.97403145 2.58923602 42 7 17405 21.24600000 2047850438 2047850438 7.00000000
0.43078908 -4.14038801 -0.51112002 2 8 17406 4.19400000 2047850440 2047850440 -7.00000000
1.81470406 -17.47105598 2.78203058 37 9 17407 17.78400000 2047850442 2047850442 9.00000000
0.59096783 -5.68954086 -0.50044829 3 10 17407 5.74200000 2047850445 2047850445 -5.00000000
1.33096385 -12.83564949 2.50837517 56 11 17408 13.14600000 2047850447 2047850447 11.00000000
1.19989252 -11.61111927 2.69491363 47 13 17410 11.98000000 2047850451 2047850451 13.00000000
1.02175236 -9.90419865 2.66790676 42 15 17411 10.30800000 2047850456 2047850456 15.00000000
0.20162362 -1.98150766 -0.53368485 4 0 17419 2.06200000 2047850477 2047850477 -15.00000000
0.23237421 -2.29165959 -0.53178430 4 2 17421 2.36400000 2047850481 2047850481 -13.00000000
0.13315600 -1.31546342 0.06929281 11 3 17422 1.32400000 2047850484 2047850484 3.00000000
0.27186143 -2.68575048 -0.52472472 3 4 17422 2.75000000 2047850486 2047850486 -11.00000000
0.32870212 -3.25863814 -0.51873666 3 6 17424 3.31600000 2047850491 2047850491 -9.00000000
2.11054158 -20.95980644 2.58655500 50 7 17425 21.22400000 2047850493 2047850493 7.00000000
0.41355428 -4.11421442 -0.50770766 2 8 17426 4.16600000 2047850495 2047850495 -7.00000000
1.75607431 -17.50086975 2.78578496 37 9 17427 17.80800000 2047850498 2047850498 9.00000000
0.57189971 -5.69949865 -0.50114554 3 10 17427 5.75000000 2047850500 2047850500 -5.00000000
1.28478134 -12.82654285 2.50570369 53 11 17428 13.13200000 2047850502 2047850502 11.00000000
1.15896773 -11.61135864 2.69401383 46 13 17430 11.97600000 2047850507 2047850507 13.00000000
0.98698252 -9.90578270 2.66738915 42 15 17431 10.30600000 2047850511 2047850511 15.00000000
0.19524078 -1.98408782 -0.53420252 4 0 17438 2.06400000 2047850533 2047850533 -15.00000000
0.22477351 -2.29241753 -0.53178430 4 2 17440 2.36400000 2047850538 2047850538 -13.00000000
0.12804820 -1.30593657 0.06876945 13 3 17440 1.31400000 2047850540 2047850540 3.00000000
0.26276243 -2.68468332 -0.52434313 3 4 17441 2.74800000 2047850542 2047850542 -11.00000000
0.31942815 -3.27543879 -0.52123964 3 6 17443 3.33200000 2047850547 2047850547 -9.00000000
2.04064012 -20.96273994 2.58606744 50 7 17444 21.22000000 2047850549 2047850549 7.00000000
0.40451649 -4.16298246 -0.51355743 2 8 17445 4.21400000 2047850551 2047850551 -7.00000000
1.70184934 -17.51416588 2.78703642 37 9 17445 17.81600000 2047850554 2047850554 9.00000000
0.55645859 -5.73705912 -0.50428313 3 10 17446 5.78600000 2047850556 2047850556 -5.00000000
1.24223983 -12.83073330 2.50570369 56 11 17447 13.13200000 2047850558 2047850558 11.00000000
1.11970818 -11.60737991 2.69221425 50 13 17449 11.96800000 2047850563 2047850563 13.00000000
0.95560962 -9.92438507 2.67153025 42 15 17450 10.32200000 2047850568 2047850568 15.00000000
0.18794888 -1.98091090 -0.53316724 4 0 17458 2.06000000 2047850588 2047850588 -15.00000000
0.21677011 -2.29318833 -0.53178430 4 2 17460 2.36400000 2047850593 2047850593 -13.00000000
0.12419891 -1.31633925 0.06929281 9 3 17461 1.32400000 2047850595 2047850595 3.00000000
0.25136095 -2.66408372 -0.52014530 3 4 17461 2.72600000 2047850598 2047850598 -11.00000000
0.30984148 -3.29620075 -0.52436835 1 6 17463 3.35200000 2047850602 2047850602 -9.00000000
1.96708322 -20.96578217 2.58557987 50 7 17464 21.21600000 2047850604 2047850604 7.00000000
0.38776141 -4.14065170 -0.51063257 2 8 17465 4.19000000 2047850607 2047850607 -7.00000000
1.63709378 -17.51438522 2.78609776 37 9 17466 17.81000000 2047850609 2047850609 9.00000000
0.53383321 -5.71119404 -0.50184274 3 10 17466 5.75800000 2047850611 2047850611 -5.00000000
1.19817412 -12.84281063 2.50723028 53 11 17467 13.14000000 2047850614 2047850614 11.00000000
1.08026612 -11.62285995 2.69491363 48 13 17469 11.98000000 2047850618 2047850618 13.00000000
0.91851604 -9.92012691 2.66945958 40 15 17471 10.31400000 2047850623 2047850623 15.00000000
0.17981009 -1.97196710 -0.53057903 4 0 17479 2.05000000 2047850644 2047850644 -15.00000000
0.20977394 -2.30949330 -0.53538352 4 2 17481 2.38000000 2047850648 2047850648 -13.00000000
0.11978394 -1.31875384 0.06939748 9 3 17481 1.32600000 2047850651 2047850651 3.00000000
0.24301292 -2.68062901 -0.52319825 3 4 17482 2.74200000 2047850653 2047850653 -11.00000000
0.29704759 -3.28944492 -0.52311683 1 6 17484 3.34400000 2047850657 2047850657 -9.00000000
1.89022660 -20.97285080 2.58557987 27 7 17485 21.21600000 2047850660 2047850660 7.00000000
0.37044844 -4.11831951 -0.50770766 2 8 17486 4.16600000 2047850662 2047850662 -7.00000000
1.57430232 -17.53600693 2.78860068 37 9 17487 17.82600000 2047850664 2047850664 9.00000000
0.50933403 -5.67342424 -0.49835655 3 10 17487 5.71800000 2047850667 2047850667 -5.00000000
1.14934278 -12.82756138 2.50341392 56 11 17488 13.12000000 2047850669 2047850669 11.00000000
1.03904486 -11.64226913 2.69851279 48 13 17490 11.99600000 2047850674 2047850674 13.00000000
0.88456833 -9.93096924 2.67153025 42 15 17491 10.32200000 2047850678 2047850678 15.00000000
0.17343166 -1.97835612 -0.53213197 4 0 17499 2.05600000 2047850699 2047850699 -15.00000000
0.20103301 -2.30244613 -0.53358388 4 2 17501 2.37200000 2047850703 2047850703 -13.00000000
0.11570107 -1.32513309 0.06971149 9 3 17501 1.33200000 2047850706 2047850706 3.00000000
0.23297259 -2.67363763 -0.52167177 3 4 17502 2.73400000 2047850708 2047850708 -11.00000000
0.28300160 -3.26094198 -0.51842380 1 6 17504 3.31400000 2047850713 2047850713 -9.00000000
1.81683481 -20.97734451 2.58533621 62 7 17505 21.21400000 2047850715 2047850715 7.00000000
0.35607058 -4.11958790 -0.50770766 2 8 17506 4.16600000 2047850717 2047850717 -7.00000000
1.51274121 -17.53746033 2.78797507 37 9 17507 17.82200000 2047850720 2047850720 9.00000000
0.48781475 -5.65531731 -0.49661341 3 10 17507 5.69800000 2047850722 2047850722 -5.00000000
1.10422254 -12.82758331 2.50265074 50 11 17508 13.11600000 2047850724 2047850724 11.00000000
0.99939811 -11.65747452 2.70121217 45 13 17510 12.00800000 2047850729 2047850729 13.00000000
0.84923869 -9.92629719 2.66945958 42 15 17511 10.31400000 2047850733 2047850733 15.00000000
0.16879271 -2.00590014 -0.53937888 1 0 17519 2.08400000 2047850754 2047850754 -15.00000000
0.19201837 -2.29148221 -0.53088450 4 2 17521 2.36000000 2047850759 2047850759 -13.00000000
0.11150917 -1.33350945 0.07013018 8 3 17522 1.34000000 2047850761 2047850761 3.00000000
0.22462003 -2.68617320 -0.52396148 3 4 17522 2.74600000 2047850763 2047850763 -11.00000000
0.27260059 -3.27372146 -0.52030104 3 6 17524 3.32600000 2047850768 2047850768 -9.00000000
1.74096906 -20.95190620 2.58143640 45 7 17525 21.18200000 2047850770 2047850770 7.00000000
0.34267259 -4.13267517 -0.50917011 2 8 17526 4.17800000 2047850773 2047850773 -7.00000000
1.45522952 -17.55025482 2.78922653 37 9 17526 17.83000000 2047850775 2047850775 9.00000000
0.46971396 -5.67684174 -0.49835655 3 10 17527 5.71800000 2047850777 2047850777 -5.00000000
1.05879295 -12.82353306 2.50112438 50 11 17528 13.10800000 2047850780 2047850780 11.00000000
0.95774180 -11.64923954 2.69851279 46 13 17530 11.99600000 2047850784 2047850784 13.00000000
0.81379700 -9.94089508 2.67256546 42 15 17532 10.32600000 2047850789 2047850789 15.00000000
0.18370655 -2.28825355 -0.52998471 4 2 17541 2.35600000 2047850814 2047850814 -13.00000000
0.10564800 -1.31595421 0.06918813 9 3 17541 1.32200000 2047850816 2047850816 3.00000000
0.21524216 -2.68694091 -0.52396148 3 4 17542 2.74600000 2047850819 2047850819 -11.00000000
0.26117152 -3.27465296 -0.52030104 3 6 17544 3.32600000 2047850823 2047850823 -9.00000000
0.33044457 -4.16155052 -0.51258248 2 8 17546 4.20600000 2047850828 2047850828 -7.00000000
1.39136279 -17.56137848 2.79016519 37 9 17547 17.83600000 2047850830 2047850830 9.00000000
0.45115411 -5.69433641 -0.49975103 3 10 17547 5.73400000 2047850833 2047850833 -5.00000000
0.91676676 -11.64862633 2.69761300 47 13 17550 11.99200000 2047850839 2047850839 13.00000000
0.77924275 -9.94560146 2.67308307 42 15 17552 10.32800000 2047850844 2047850844 15.00000000
0.17631461 -2.29665303 -0.53178430 4 2 17561 2.36400000 2047850869 2047850869 -13.00000000
0.10197110 -1.32826340 0.06981616 6 3 17561 1.33400000 2047850872 2047850872 3.00000000
0.20466219 -2.67201567 -0.52090853 3 4 17562 2.73000000 2047850874 2047850874 -11.00000000
0.24928872 -3.26963568 -0.51936245 3 6 17564 3.32000000 2047850879 2047850879 -9.00000000
1.52539504 -20.05303764 2.46931672 4 7 17565 20.26200000 2047850881 2047850881 7.00000000
0.31501472 -4.15080214 -0.51112002 2 8 17566 4.19400000 2047850883 2047850883 -7.00000000
1.33356798 -17.57180405 2.79110384 37 9 17566 17.84200000 2047850886 2047850886 9.00000000
0.43007100 -5.67998266 -0.49835655 3 10 17567 5.71800000 2047850888 2047850888 -5.00000000
0.89929283 -11.90463161 2.32061911 6 11 17568 12.16200000 2047850890 2047850890 11.00000000
0.87668431 -11.65952778 2.69941258 47 13 17570 12.00000000 2047850895 2047850895 13.00000000
0.74408883 -9.94248199 2.67153025 42 15 17572 10.32200000 2047850899 2047850899 15.00000000
0.12168293 -1.65305614 -0.44413349 1 0 17579 1.71600000 2047850920 2047850920 -15.00000000
0.16858149 -2.30114150 -0.53268409 4 2 17581 2.36800000 2047850925 2047850925 -13.00000000
0.09762583 -1.33259511 0.07002551 6 3 17581 1.33800000 2047850927 2047850927 3.00000000
0.19619249 -2.68446207 -0.52319825 3 4 17582 2.74200000 2047850929 2047850929 -11.00000000
0.23930703 -3.29018760 -0.52249110 3 6 17584 3.34000000 2047850934 2047850934 -9.00000000
1.45409477 -20.04042053 2.46712303 2 7 17585 20.24400000 2047850936 2047850936 7.00000000
0.29794419 -4.11623812 -0.50673270 2 8 17586 4.15800000 2047850939 2047850939 -7.00000000
1.27022636 -17.54876900 2.78672361 41 9 17586 17.81400000 2047850941 2047850941 9.00000000
0.41024154 -5.68144941 -0.49835655 3 10 17587 5.71800000 2047850943 2047850943 -5.00000000
0.85759139 -11.90573978 2.32023740 9 11 17588 12.16000000 2047850945 2047850945 11.00000000
0.83681560 -11.67418003 2.70211196 45 13 17590 12.01200000 2047850950 2047850950 13.00000000
0.70869130 -9.93538380 2.66894197 45 15 17592 10.31200000 2047850955 2047850955 15.00000000
0.10915717 -1.55711472 -0.41825157 1 0 17599 1.61600000 2047850975 2047850975 -15.00000000
0.16014117 -2.29588389 -0.53133440 3 2 17601 2.36200000 2047850980 2047850980 -13.00000000
0.09325156 -1.33691251 0.07023485 8 3 17601 1.34200000 2047850982 2047850982 3.00000000
0.18654823 -2.68121338 -0.52243501 3 4 17602 2.73800000 2047850985 2047850985 -11.00000000
0.22536512 -3.25553107 -0.51685947 3 6 17604 3.30400000 2047850989 2047850989 -9.00000000
1.38317454 -20.03151131 2.46541691 7 7 17605 20.23000000 2047850991 2047850991 7.00000000
0.28466523 -4.13309622 -0.50868267 2 8 17606 4.17400000 2047850994 2047850994 -7.00000000
1.21194804 -17.59645081 2.79360676 37 9 17606 17.85800000 2047850996 2047850996 9.00000000
0.39040709 -5.68284655 -0.49835655 3 10 17607 5.71800000 2047850998 2047850998 -5.00000000
0.81495363 -11.89299107 2.31718445 12 11 17608 12.14400000 2047851001 2047851001 11.00000000
0.79659021 -11.68480682 2.70391178 45 13 17610 12.02000000 2047851005 2047851005 13.00000000
0.67639577 -9.94731617 2.67153025 42 15 17611 10.32200000 2047851010 2047851010 15.00000000
0.15135320 -2.28476191 -0.52863497 1 2 17621 2.35000000 2047851035 2047851035 -13.00000000
0.08898035 -1.34320855 0.07054887 8 3 17621 1.34800000 2047851038 2047851038 3.00000000
0.17874105 -2.70535612 -0.52701443 3 4 17622 2.76200000 2047851040 2047851040 -11.00000000
0.21464752 -3.26615357 -0.51842380 1 6 17624 3.31400000 2047851044 2047851044 -9.00000000
1.31272376 -20.02829361 2.46444178 9 7 17625 20.22200000 2047851047 2047851047 7.00000000
0.26868245 -4.11029434 -0.50575775 2 8 17626 4.15000000 2047851049 2047851049 -7.00000000
1.15129066 -17.61240196 2.79548383 37 9 17626 17.87000000 2047851051 2047851051 9.00000000
0.77317965 -11.89184570 2.31642127 12 11 17628 12.14000000 2047851056 2047851056 11.00000000
0.75579774 -11.68751621 2.70391178 45 13 17630 12.02000000 2047851061 2047851061 13.00000000
0.64092445 -9.96515179 2.67567134 40 15 17632 10.33800000 2047851065 2047851065 15.00000000
0.10172713 -1.60794961 -0.43171015 1 0 17638 1.66800000 2047851086 2047851086 -15.00000000
0.08404101 -1.33952439 0.07033952 8 3 17641 1.34400000 2047851093 2047851093 3.00000000
0.16841654 -2.68438053 -0.52281666 2 4 17641 2.74000000 2047851095 2047851095 -11.00000000
1.24654686 -20.03649902 2.46492934 9 7 17644 20.22600000 2047851102 2047851102 7.00000000
0.25775492 -4.15475082 -0.51112002 2 8 17645 4.19400000 2047851104 2047851104 -7.00000000
1.09312415 -17.62006569 2.79610968 41 9 17645 17.87400000 2047851107 2047851107 9.00000000
0.73374063 -11.89434433 2.31642127 12 11 17647 12.14000000 2047851111 2047851111 11.00000000
0.09552535 -1.55292952 -0.08153942 5 12 17648 1.55800000 2047851114 2047851114 -3.00000000
0.71679777 -11.68606758 2.70301175 45 13 17649 12.01600000 2047851116 2047851116 13.00000000
0.60914320 -9.95940304 2.67360067 40 15 17650 10.33000000 2047851121 2047851121 15.00000000
0.09311736 -1.55815625 -0.41825157 1 0 17658 1.61600000 2047851141 2047851141 -15.00000000
0.07948279 -1.34180331 0.07044420 6 3 17661 1.34600000 2047851148 2047851148 3.00000000
1.17683148 -20.04469299 2.46541691 9 7 17664 20.23000000 2047851157 2047851157 7.00000000
1.02842093 -17.62198257 2.79579687 41 9 17666 17.87200000 2047851162 2047851162 9.00000000
0.09762208 -1.67275333 -0.14659595 2 10 17666 1.68200000 2047851164 2047851164 -5.00000000
0.69290137 -11.90859222 2.31871080 18 11 17667 12.15200000 2047851167 2047851167 11.00000000
0.09010404 -1.55325353 -0.08153942 13 12 17668 1.55800000 2047851169 2047851169 -3.00000000
0.67645150 -11.69628048 2.70481157 44 13 17669 12.02400000 2047851171 2047851171 13.00000000
0.57285780 -9.96542549 2.67463613 42 15 17671 10.33400000 2047851176 2047851176 15.00000000
0.08870392 -1.58163285 -0.42446324 1 0 17679 1.64000000 2047851197 2047851197 -15.00000000
0.07500748 -1.35006237 0.07086288 6 3 17682 1.35400000 2047851203 2047851203 3.00000000
0.08189850 -1.47409391 -0.28697672 1 4 17682 1.50400000 2047851206 2047851206 -11.00000000
0.08515319 -1.54239571 -0.24466351 1 6 17684 1.56400000 2047851210 2047851210 -9.00000000
1.10281074 -20.03895950 2.46419811 9 7 17685 20.22000000 2047851213 2047851213 7.00000000
0.96733528 -17.63335419 2.79704833 41 9 17686 17.88000000 2047851217 2047851217 9.00000000
0.08779170 -1.60545969 -0.14066938 6 10 17687 1.61400000 2047851220 2047851220 -5.00000000
0.64839470 -11.89536953 2.31565785 18 11 17688 12.13600000 2047851222 2047851222 11.00000000
0.63421023 -11.71035671 2.70751095 44 13 17690 12.03600000 2047851227 2047851227 13.00000000
0.53775603 -9.96157742 2.67308307 40 15 17691 10.32800000 2047851231 2047851231 15.00000000
0.08155937 -1.55106592 -0.41618103 1 0 17699 1.60800000 2047851252 2047851252 -15.00000000
0.07091742 -1.36228335 0.07149091 6 3 17702 1.36600000 2047851259 2047851259 3.00000000
0.07756896 -1.49005568 -0.29002967 10 4 17702 1.52000000 2047851261 2047851261 -11.00000000
0.07701454 -1.48941958 -0.23621604 7 6 17704 1.51000000 2047851266 2047851266 -9.00000000
1.03183341 -20.02286339 2.46176076 9 7 17705 20.20000000 2047851268 2047851268 7.00000000
0.90330517 -17.64861870 2.79892540 41 9 17707 17.89200000 2047851273 2047851273 9.00000000
0.08300180 -1.62167466 -0.14206386 25 10 17707 1.63000000 2047851275 2047851275 -5.00000000
0.60626811 -11.88579559 2.31336832 21 11 17708 12.12400000 2047851277 2047851277 11.00000000
0.07898697 -1.55385852 -0.08153942 100 12 17709 1.55800000 2047851279 2047851279 -3.00000000
0.59332961 -11.71249962 2.70751095 44 13 17710 12.03600000 2047851282 2047851282 13.00000000
0.50143558 -9.96734047 2.67411828 42 15 17712 10.33200000 2047851286 2047851286 15.00000000
0.07803880 -1.58993173 -0.42653379 1 0 17719 1.64800000 2047851307 2047851307 -15.00000000
0.06616173 -1.36252248 0.07149091 6 3 17722 1.36600000 2047851314 2047851314 3.00000000
0.07208157 -1.48443449 -0.28888482 24 4 17722 1.51400000 2047851316 2047851316 -11.00000000
0.07105408 -1.47389472 -0.23371309 18 6 17724 1.49400000 2047851321 2047851321 -9.00000000
0.96174377 -20.02237701 2.46127319 9 7 17725 20.19600000 2047851323 2047851323 7.00000000
0.84515303 -17.65940857 2.80017686 41 9 17726 17.90000000 2047851328 2047851328 9.00000000
0.07667632 -1.60802352 -0.14084367 36 10 17727 1.61600000 2047851330 2047851330 -5.00000000
0.56402987 -11.87215137 2.31031537 21 11 17728 12.10800000 2047851332 2047851332 11.00000000
0.07318479 -1.54614472 -0.08112073 100 12 17729 1.55000000 2047851335 2047851335 -3.00000000
0.55244178 -11.71449947 2.70751095 44 13 17730 12.03600000 2047851337 2047851337 13.00000000
0.46865192 -9.97473812 2.67567134 40 15 17731 10.33800000 2047851342 2047851342 15.00000000
0.07196059 -1.57861531 -0.42342797 1 0 17739 1.63600000 2047851362 2047851362 -15.00000000
0.07141739 -1.57881379 -0.36487061 1 2 17741 1.62200000 2047851367 2047851367 -13.00000000
0.06158505 -1.36673570 0.07170026 8 3 17742 1.37000000 2047851369 2047851369 3.00000000
0.06645761 -1.47487080 -0.28697672 31 4 17742 1.50400000 2047851372 2047851372 -11.00000000
0.06590879 -1.47413373 -0.23371309 28 6 17744 1.49400000 2047851376 2047851376 -9.00000000
0.89158177 -20.01966286 2.46054196 9 7 17745 20.19000000 2047851379 2047851379 7.00000000
0.07240180 -1.63212585 -0.20059694 1 8 17746 1.64600000 2047851381 2047851381 -7.00000000
0.78059673 -17.66633415 2.80080271 41 9 17747 17.90400000 2047851383 2047851383 9.00000000
0.07132665 -1.61425281 -0.14136662 33 10 17747 1.62200000 2047851385 2047851385 -5.00000000
0.52275753 -11.87797070 2.31107855 25 11 17748 12.11200000 2047851388 2047851388 11.00000000
0.06761236 -1.54240000 -0.08091139 100 12 17749 1.54600000 2047851390 2047851390 -3.00000000
0.51171714 -11.72025013 2.70841074 43 13 17750 12.04000000 2047851392 2047851392 13.00000000
0.43259108 -9.98796844 2.67877722 42 15 17752 10.35000000 2047851397 2047851397 15.00000000
0.06721475 -1.59042609 -0.42653379 1 0 17758 1.64800000 2047851418 2047851418 -15.00000000
0.06569184 -1.56735981 -0.36217120 1 2 17760 1.61000000 2047851422 2047851422 -13.00000000
0.05746889 -1.37690997 0.07222362 8 3 17761 1.38000000 2047851425 2047851425 3.00000000
0.06107517 -1.46331370 -0.28468701 35 4 17761 1.49200000 2047851427 2047851427 -11.00000000
0.06061159 -1.46447575 -0.23214875 33 6 17763 1.48400000 2047851432 2047851432 -9.00000000
0.82510757 -20.02052689 2.46029830 9 7 17764 20.18800000 2047851434 2047851434 7.00000000
0.06503557 -1.58475482 -0.19474721 1 8 17765 1.59800000 2047851436 2047851436 -7.00000000
0.72557855 -17.68054199 2.80267978 41 9 17765 17.91600000 2047851438 2047851438 9.00000000
0.48360536 -11.88552380 2.31222343 25 11 17767 12.11800000 2047851443 2047851443 11.00000000
0.06273975 -1.54860270 -0.08122540 100 12 17768 1.55200000 2047851445 2047851445 -3.00000000
0.47284859 -11.72188282 2.70841074 43 13 17769 12.04000000 2047851448 2047851448 13.00000000
0.40121087 -9.98927879 2.67877722 42 15 17770 10.35000000 2047851452 2047851452 15.00000000
0.06076472 -1.56748617 -0.42032212 1 0 17778 1.62400000 2047851473 2047851473 -15.00000000
0.06066918 -1.57926333 -0.36487061 1 2 17780 1.62200000 2047851478 2047851478 -13.00000000
0.05380706 -1.40703917 0.07379370 14 3 17781 1.41000000 2047851480 2047851480 3.00000000
0.05536670 -1.44782341 -0.28163406 36 4 17781 1.47600000 2047851482 2047851482 -11.00000000
0.05497567 -1.45086062 -0.22995867 37 6 17783 1.47000000 2047851487 2047851487 -9.00000000
0.75551713 -20.03121948 2.46127319 14 7 17784 20.19600000 2047851489 2047851489 7.00000000
0.05957782 -1.58695590 -0.19499095 2 8 17785 1.60000000 2047851491 2047851491 -7.00000000
0.66077125 -17.68308258 2.80267978 41 9 17786 17.91600000 2047851494 2047851494 9.00000000
0.05847725 -1.56492591 -0.13700883 7 10 17786 1.57200000 2047851496 2047851496 -5.00000000
0.44196826 -11.88321590 2.31146026 25 11 17787 12.11400000 2047851498 2047851498 11.00000000
0.05792481 -1.56477940 -0.08206278 100 12 17788 1.56800000 2047851501 2047851501 -3.00000000
0.43207222 -11.72735596 2.70931053 42 13 17789 12.04400000 2047851503 2047851503 13.00000000
0.36410245 -9.97716808 2.67515373 42 15 17791 10.33600000 2047851508 2047851508 15.00000000
0.05393090 -1.52907574 -0.40996936 3 0 17798 1.58400000 2047851528 2047851528 -15.00000000
0.05434003 -1.55609488 -0.35947180 1 2 17800 1.59800000 2047851533 2047851533 -13.00000000
0.04938073 -1.42119086 0.07452640 24 3 17801 1.42400000 2047851535 2047851535 3.00000000
0.05058521 -1.45585620 -0.28316054 40 4 17801 1.48400000 2047851538 2047851538 -11.00000000
0.04963926 -1.44314694 -0.22870719 37 6 17803 1.46200000 2047851542 2047851542 -9.00000000
0.68518317 -20.02183151 2.45981073 9 7 17804 20.18400000 2047851544 2047851544 7.00000000
0.05457832 -1.60302567 -0.19694085 2 8 17805 1.61600000 2047851547 2047851547 -7.00000000
0.60253173 -17.69702148 2.80455709 41 9 17805 17.92800000 2047851549 2047851549 9.00000000
0.05233980 -1.54520798 -0.13526571 12 10 17806 1.55200000 2047851551 2047851551 -5.00000000
0.40022093 -11.87683773 2.30993366 25 11 17807 12.10600000 2047851554 2047851554 11.00000000
0.05165936 -1.54101837 -0.08080672 100 12 17808 1.54400000 2047851556 2047851556 -3.00000000
0.39126337 -11.73268795 2.71021032 44 13 17809 12.04800000 2047851558 2047851558 13.00000000
0.33120713 -9.98411274 2.67670655 40 15 17810 10.34200000 2047851563 2047851563 15.00000000
0.04834769 -1.52153111 -0.40789881 3 0 17818 1.57600000 2047851584 2047851584 -15.00000000
0.04841822 -1.54069281 -0.35587257 1 2 17820 1.58200000 2047851588 2047851588 -13.00000000
0.04385807 -1.40338802 0.07358436 74 3 17821 1.40600000 2047851591 2047851591 3.00000000
0.04538037 -1.45209932 -0.28239730 38 4 17821 1.48000000 2047851593 2047851593 -11.00000000
0.04472347 -1.44726026 -0.22933292 39 6 17823 1.46600000 2047851597 2047851597 -9.00000000
0.61498493 -20.01417923 2.45859218 9 7 17824 20.17400000 2047851600 2047851600 7.00000000
0.04849741 -1.58733320 -0.19499095 1 8 17825 1.60000000 2047851602 2047851602 -7.00000000
0.54111582 -17.71086502 2.80643439 41 9 17825 17.94000000 2047851604 2047851604 9.00000000
0.35870132 -11.87619972 2.30955219 28 11 17827 12.10400000 2047851609 2047851609 11.00000000
0.04562046 -1.51922929 -0.07965533 100 12 17828 1.52200000 2047851611 2047851611 -3.00000000
0.35042256 -11.73787880 2.71111012 45 13 17829 12.05200000 2047851614 2047851614 13.00000000
0.29704177 -10.00837994 2.68291831 42 15 17830 10.36600000 2047851618 2047851618 15.00000000
