# .PCD v0.7 - Point Cloud Data file format
VERSION 0.7
FIELDS x y z intensity laser_id azimuth distance_m adjustedtime timestamp vertical_angle
SIZE 4 4 4 1 1 2 8 8 4 8
TYPE F F F U U U F U U F
COUNT 1 1 1 1 1 1 1 1 1 1
WIDTH 537
HEIGHT 1
VIEWPOINT 0 0 0 1 0 0 0
POINTS 537
DATA ascii
19.13186646 12.48142624 3.61801624 44 9 5688 23.12800000 2047917849 2047917849 9.00000000
7.07354307 4.61470366 -0.73890638 8 10 5688 8.47800000 2047917851 2047917851 -5.00000000
8.68114567 5.66132689 2.01456141 40 11 5689 10.55800000 2047917853 2047917853 11.00000000
8.24356747 5.37391376 -0.51571852 12 12 5690 9.85400000 2047917856 2047917856 -3.00000000
8.31198311 5.41644669 2.29045153 75 13 5691 10.18200000 2047917858 2047917858 13.00000000
8.23539352 5.36449051 -0.17155716 12 14 5692 9.83000000 2047917860 2047917860 -1.00000000
7.38380480 4.80793476 2.36094737 29 15 5693 9.12200000 2047917863 2047917863 15.00000000
1.91182077 1.24155092 -0.61081296 4 0 5700 2.36000000 2047917883 2047917883 -15.00000000
8.23374653 5.34501457 0.17134772 13 1 5701 9.81800000 2047917886 2047917886 1.00000000
2.26735854 1.47131491 -0.62401420 3 2 5702 2.77400000 2047917888 2047917888 -13.00000000
8.25909042 5.35736990 0.51592785 89 3 5703 9.85800000 2047917890 2047917890 3.00000000
2.72921705 1.77034330 -0.63234103 8 4 5703 3.31400000 2047917893 2047917893 -11.00000000
8.25325966 5.35154104 0.86057580 73 5 5704 9.87400000 2047917895 2047917895 5.00000000
3.41471481 2.21330738 -0.64450997 6 6 5705 4.12000000 2047917897 2047917897 -9.00000000
8.34317684 5.40570927 1.22064340 2 7 5706 10.01600000 2047917899 2047917899 7.00000000
4.60526085 2.98269868 -0.67369372 6 8 5707 5.52800000 2047917902 2047917902 -7.00000000
17.75721741 11.50085258 3.35082626 9 9 5707 21.42000000 2047917904 2047917904 9.00000000
7.07622862 4.58132219 -0.73751187 13 10 5708 8.46200000 2047917906 2047917906 -5.00000000
8.67777920 5.61605597 2.00921869 43 11 5709 10.53000000 2047917909 2047917909 11.00000000
8.23879814 5.32991743 -0.51425308 12 12 5710 9.82600000 2047917911 2047917911 -3.00000000
8.31447506 5.37681723 2.28595257 78 13 5711 10.16200000 2047917913 2047917913 13.00000000
8.23559666 5.32376909 -0.17117320 10 14 5712 9.80800000 2047917916 2047917916 -1.00000000
7.40782022 4.78866625 2.36353540 40 15 5712 9.13200000 2047917918 2047917918 15.00000000
1.91939068 1.23696291 -0.61184824 4 0 5720 2.36400000 2047917939 2047917939 -15.00000000
8.23218155 5.30324554 0.17092887 13 1 5721 9.79400000 2047917941 2047917941 1.00000000
2.26920366 1.46128118 -0.62311441 3 2 5722 2.77000000 2047917943 2047917943 -13.00000000
8.25590801 5.31445408 0.51456714 94 3 5723 9.83200000 2047917946 2047917946 3.00000000
2.73042774 1.75761783 -0.63119614 9 4 5723 3.30800000 2047917948 2047917948 -11.00000000
8.25345898 5.31084013 0.85865837 77 5 5724 9.85200000 2047917950 2047917950 5.00000000
3.42075849 2.20030570 -0.64419711 6 6 5725 4.11800000 2047917952 2047917952 -9.00000000
8.33861923 5.36152267 1.21723104 2 7 5726 9.98800000 2047917955 2047917955 7.00000000
4.62566423 2.97304487 -0.67515618 4 8 5727 5.54000000 2047917957 2047917957 -7.00000000
17.82051849 11.45375061 3.35520649 9 9 5727 21.44800000 2047917959 2047917959 9.00000000
7.09217691 4.55659342 -0.73751187 13 10 5728 8.46200000 2047917962 2047917962 -5.00000000
8.69402599 5.58360863 2.00845551 43 11 5729 10.52600000 2047917964 2047917964 11.00000000
8.22710037 5.28170443 -0.51236904 12 12 5730 9.79000000 2047917966 2047917966 -3.00000000
8.30039215 5.32671165 2.27695465 78 13 5731 10.12200000 2047917969 2047917969 13.00000000
8.24234772 5.28743124 -0.17092887 12 14 5732 9.79400000 2047917971 2047917971 -1.00000000
7.41961241 4.75964975 2.36198258 45 15 5732 9.12600000 2047917973 2047917973 15.00000000
1.92695177 1.23233712 -0.61288351 4 0 5740 2.36800000 2047917994 2047917994 -15.00000000
8.23716450 5.26586103 0.17064963 13 1 5741 9.77800000 2047917996 2047917996 1.00000000
2.26772237 1.44915390 -0.62131482 3 2 5742 2.76200000 2047917999 2047917999 -13.00000000
8.25084496 5.27055025 0.51310170 99 3 5743 9.80400000 2047918001 2047918001 3.00000000
2.72827363 1.74279177 -0.62928808 6 4 5743 3.29800000 2047918003 2047918003 -11.00000000
8.26019287 5.27449179 0.85743821 81 5 5744 9.83800000 2047918005 2047918005 5.00000000
3.43507838 2.19260311 -0.64544863 6 6 5745 4.12600000 2047918008 2047918008 -9.00000000
8.33887577 5.32063770 1.21454990 2 7 5746 9.96600000 2047918010 2047918010 7.00000000
4.61927700 2.94620562 -0.67271876 4 8 5747 5.52000000 2047918012 2047918012 -7.00000000
19.27484703 12.28889275 3.62051916 44 9 5748 23.14400000 2047918015 2047918015 9.00000000
7.12147951 4.54037809 -0.73890638 13 10 5748 8.47800000 2047918017 2047918017 -5.00000000
8.71511936 5.55428219 2.00883698 37 11 5749 10.52800000 2047918019 2047918019 11.00000000
8.22527313 5.24007654 -0.51111293 17 12 5750 9.76600000 2047918022 2047918022 -3.00000000
8.30085373 5.28619051 2.27200556 81 13 5751 10.10000000 2047918024 2047918024 13.00000000
8.22870255 5.23822451 -0.17026567 14 14 5752 9.75600000 2047918026 2047918026 -1.00000000
7.44595957 4.73994589 2.36508846 45 15 5752 9.13800000 2047918028 2047918028 15.00000000
1.92145503 1.21939242 -0.60977769 4 0 5760 2.35600000 2047918049 2047918049 -15.00000000
8.24705219 5.23171949 0.17047511 13 1 5761 9.76800000 2047918052 2047918052 1.00000000
2.28264141 1.44749093 -0.62401420 3 2 5762 2.77400000 2047918054 2047918054 -13.00000000
8.25569725 5.23316288 0.51226431 99 3 5763 9.78800000 2047918056 2047918056 3.00000000
2.72936606 1.73010433 -0.62814319 5 4 5763 3.29200000 2047918058 2047918058 -11.00000000
8.25162601 5.22856379 0.85464919 81 5 5764 9.80600000 2047918061 2047918061 5.00000000
3.45272398 2.18694091 -0.64732581 6 6 5765 4.13800000 2047918063 2047918063 -9.00000000
8.33391666 5.27663040 1.21113753 2 7 5766 9.93800000 2047918065 2047918065 7.00000000
4.63624287 2.93430972 -0.67369372 6 8 5767 5.52800000 2047918068 2047918068 -7.00000000
19.31762505 12.22153568 3.62051916 38 9 5768 23.14400000 2047918070 2047918070 9.00000000
7.11708021 4.50270939 -0.73681468 13 10 5768 8.45400000 2047918072 2047918072 -5.00000000
8.73113632 5.52172804 2.00807381 34 11 5769 10.52400000 2047918075 2047918075 11.00000000
8.23169708 5.20386267 -0.51038027 17 12 5770 9.75200000 2047918077 2047918077 -3.00000000
8.29289722 5.24052668 2.26480722 71 13 5771 10.06800000 2047918079 2047918079 13.00000000
8.23003101 5.19878960 -0.16991663 16 14 5772 9.73600000 2047918081 2047918081 -1.00000000
7.45511484 4.70746613 2.36250019 45 15 5773 9.12800000 2047918084 2047918084 15.00000000
1.92591143 1.21234179 -0.60977769 4 0 5781 2.35600000 2047918105 2047918105 -15.00000000
8.23062992 5.17909241 0.16974211 13 1 5782 9.72600000 2047918107 2047918107 1.00000000
2.29782891 1.44534028 -0.62671363 3 2 5783 2.78600000 2047918109 2047918109 -13.00000000
8.26129532 5.19436455 0.51142699 99 3 5784 9.77200000 2047918111 2047918111 3.00000000
2.73901296 1.72217917 -0.62890643 5 4 5784 3.29600000 2047918114 2047918114 -11.00000000
8.24543095 5.18238163 0.85203457 81 5 5785 9.77600000 2047918116 2047918116 5.00000000
3.45569825 2.17111874 -0.64638722 6 6 5786 4.13200000 2047918118 2047918118 -9.00000000
8.37169170 5.25766277 1.21381867 2 7 5787 9.96000000 2047918121 2047918121 7.00000000
4.65705395 2.92363024 -0.67515618 4 8 5788 5.54000000 2047918123 2047918123 -7.00000000
19.34388351 12.13910103 3.61707759 16 9 5789 23.12200000 2047918125 2047918125 9.00000000
7.13016033 4.47447538 -0.73646605 13 10 5789 8.45000000 2047918128 2047918128 -5.00000000
8.73302078 5.47821379 2.00387597 12 11 5790 10.50200000 2047918130 2047918130 11.00000000
8.23210144 5.16198540 -0.50922883 17 12 5791 9.73000000 2047918132 2047918132 -3.00000000
8.30214214 5.20388651 2.26210785 74 13 5792 10.05600000 2047918134 2047918134 13.00000000
8.23208523 5.15797281 -0.16956758 14 14 5793 9.71600000 2047918137 2047918137 -1.00000000
7.46331644 4.67628574 2.35991216 45 15 5793 9.11800000 2047918139 2047918139 15.00000000
1.93013155 1.20561171 -0.60977769 4 0 5801 2.35600000 2047918160 2047918160 -15.00000000
8.22830296 5.13762188 0.16932325 13 1 5802 9.70200000 2047918162 2047918162 1.00000000
2.29294109 1.43111980 -0.62401420 3 2 5803 2.77400000 2047918164 2047918164 -13.00000000
8.26243210 5.15492344 0.51038027 99 3 5804 9.75200000 2047918167 2047918167 3.00000000
2.75333595 1.71780372 -0.63081455 5 4 5804 3.30600000 2047918169 2047918169 -11.00000000
8.24825573 5.14407921 0.85046571 81 5 5805 9.75800000 2047918171 2047918171 5.00000000
3.45655060 2.15486288 -0.64513576 4 6 5806 4.12400000 2047918174 2047918174 -9.00000000
23.53410149 14.66578960 3.40478563 3 7 5807 27.93800000 2047918176 2047918176 7.00000000
4.66386080 2.90525699 -0.67466867 4 8 5808 5.53600000 2047918178 2047918178 -7.00000000
17.87696838 11.13176250 3.33549571 14 9 5809 21.32200000 2047918181 2047918181 9.00000000
7.15250111 4.45377207 -0.73716325 13 10 5809 8.45800000 2047918183 2047918183 -5.00000000
16.29078865 10.14012337 3.72993422 33 11 5810 19.54800000 2047918185 2047918185 11.00000000
8.21954536 5.11422634 -0.50734478 17 12 5811 9.69400000 2047918187 2047918187 -3.00000000
8.30867290 5.16767073 2.25895858 70 13 5812 10.04200000 2047918190 2047918190 13.00000000
8.23305702 5.11864758 -0.16921854 14 14 5813 9.69600000 2047918192 2047918192 -1.00000000
7.48615646 4.65428543 2.36198258 45 15 5813 9.12600000 2047918194 2047918194 15.00000000
1.93719292 1.20157862 -0.61081296 4 0 5819 2.36000000 2047918215 2047918215 -15.00000000
8.23080730 5.10331631 0.16904400 13 1 5820 9.68600000 2047918217 2047918217 1.00000000
2.29411292 1.42185605 -0.62311441 3 2 5821 2.77000000 2047918220 2047918220 -13.00000000
8.24713326 5.11144638 0.50849617 94 3 5821 9.71600000 2047918222 2047918222 3.00000000
2.76372576 1.71224725 -0.63195938 5 4 5822 3.31200000 2047918224 2047918224 -11.00000000
8.24913120 5.10869980 0.84889692 77 5 5823 9.74000000 2047918227 2047918227 5.00000000
3.46666241 2.14607263 -0.64576149 4 6 5824 4.12800000 2047918229 2047918229 -9.00000000
24.13204384 14.93336201 3.48448825 14 7 5825 28.59200000 2047918231 2047918231 7.00000000
4.66958857 2.88850212 -0.67418122 4 8 5826 5.53200000 2047918233 2047918233 -7.00000000
17.87463951 11.05684853 3.32892537 9 9 5826 21.28000000 2047918236 2047918236 9.00000000
7.16645765 4.43127966 -0.73716325 13 10 5827 8.45800000 2047918238 2047918238 -5.00000000
16.33258438 10.09508705 3.73222399 37 11 5828 19.56000000 2047918240 2047918240 11.00000000
8.21688175 5.07683086 -0.50619334 12 12 5829 9.67200000 2047918243 2047918243 -3.00000000
8.30828667 5.13130236 2.25445938 68 13 5830 10.02200000 2047918245 2047918245 13.00000000
8.23888779 5.08645439 -0.16900910 16 14 5831 9.68400000 2047918247 2047918247 -1.00000000
7.50074148 4.63074398 2.36198258 45 15 5831 9.12600000 2047918250 2047918250 15.00000000
1.95618248 1.20392215 -0.61547166 4 0 5839 2.37800000 2047918270 2047918270 -15.00000000
8.23153877 5.06407642 0.16869496 13 1 5840 9.66600000 2047918273 2047918273 1.00000000
2.30902195 1.41996431 -0.62581384 3 2 5841 2.78200000 2047918275 2047918275 -13.00000000
8.24028969 5.06549597 0.50692606 81 3 5842 9.68600000 2047918277 2047918277 3.00000000
2.74627066 1.68819582 -0.62661672 5 4 5842 3.28400000 2047918280 2047918280 -11.00000000
8.25163555 5.07048607 0.84732813 77 5 5843 9.72200000 2047918282 2047918282 5.00000000
3.47076607 2.13189077 -0.64513576 6 6 5844 4.12400000 2047918284 2047918284 -9.00000000
4.67625952 2.87010789 -0.67369372 4 8 5846 5.52800000 2047918289 2047918289 -7.00000000
17.87126732 10.96440220 3.32079077 4 9 5847 21.22800000 2047918291 2047918291 9.00000000
7.18188190 4.40623713 -0.73716325 13 10 5847 8.45800000 2047918293 2047918293 -5.00000000
16.36437607 10.03596210 3.73146081 30 11 5848 19.55600000 2047918296 2047918296 11.00000000
8.21752548 5.03767920 -0.50514662 12 12 5849 9.65200000 2047918298 2047918298 -3.00000000
8.29790115 5.08496046 2.24681115 74 13 5850 9.98800000 2047918300 2047918300 13.00000000
8.23101425 5.04199648 -0.16848554 16 14 5851 9.65400000 2047918303 2047918303 -1.00000000
7.53084373 4.61129189 2.36612368 45 15 5852 9.14200000 2047918305 2047918305 15.00000000
1.95398617 1.19271827 -0.61340111 4 0 5860 2.37000000 2047918326 2047918326 -15.00000000
8.24321556 5.02970600 0.16855533 13 1 5861 9.65800000 2047918328 2047918328 1.00000000
2.31421089 1.41149175 -0.62581384 3 2 5862 2.78200000 2047918330 2047918330 -13.00000000
8.24428082 5.02838087 0.50608867 81 3 5862 9.67000000 2047918333 2047918333 3.00000000
2.75411606 1.67914093 -0.62699836 5 4 5863 3.28600000 2047918335 2047918335 -11.00000000
8.24634552 5.02569246 0.84488779 77 5 5864 9.69400000 2047918337 2047918337 5.00000000
3.48530459 2.12326646 -0.64638722 6 6 5865 4.13200000 2047918339 2047918339 -9.00000000
24.22980881 14.75513268 3.48326969 31 7 5866 28.58200000 2047918342 2047918342 7.00000000
4.67657375 2.84675622 -0.67223132 4 8 5867 5.51600000 2047918344 2047918344 -7.00000000
18.03114891 10.97173214 3.34300447 4 9 5868 21.37000000 2047918346 2047918346 9.00000000
6.89331579 4.19449806 -0.70596153 4 10 5868 8.10000000 2047918349 2047918349 -5.00000000
16.40440559 9.97795677 3.73222399 11 11 5869 19.56000000 2047918351 2047918351 11.00000000
8.22228146 4.99922562 -0.50430930 12 12 5870 9.63600000 2047918353 2047918353 -3.00000000
8.29649925 5.04236746 2.24141240 74 13 5871 9.96400000 2047918356 2047918356 13.00000000
8.22380352 4.99622011 -0.16796196 14 14 5872 9.62400000 2047918358 2047918358 -1.00000000
7.53698826 4.57895803 2.36301780 45 15 5872 9.13000000 2047918360 2047918360 15.00000000
1.94491816 1.17788434 -0.60926002 4 0 5880 2.35400000 2047918381 2047918381 -15.00000000
8.22308826 4.97811794 0.16778743 13 1 5881 9.61400000 2047918383 2047918383 1.00000000
2.32579279 1.40744078 -0.62761343 3 2 5882 2.79000000 2047918385 2047918385 -13.00000000
8.24640369 4.99026632 0.50514662 76 3 5882 9.65200000 2047918388 2047918388 3.00000000
2.76667976 1.67358160 -0.62852484 5 4 5883 3.29400000 2047918390 2047918390 -11.00000000
8.24167442 4.98347473 0.84262174 77 5 5884 9.66800000 2047918392 2047918392 5.00000000
3.48255157 2.10495663 -0.64450997 6 6 5885 4.12000000 2047918395 2047918395 -9.00000000
24.28116608 14.67046547 3.48326969 35 7 5886 28.58200000 2047918397 2047918397 7.00000000
4.71027136 2.84478211 -0.67564362 4 8 5887 5.54400000 2047918399 2047918399 -7.00000000
18.04735184 10.89545345 3.33893728 4 9 5888 21.34400000 2047918402 2047918402 9.00000000
6.68788528 4.03757524 -0.68347532 12 10 5888 7.84200000 2047918404 2047918404 -5.00000000
8.33722973 5.03132343 1.89282525 3 11 5889 9.92000000 2047918406 2047918406 11.00000000
8.23113060 4.96533585 -0.50378591 17 12 5890 9.62600000 2047918409 2047918409 -3.00000000
8.29903030 5.00431967 2.23736310 75 13 5891 9.94600000 2047918411 2047918411 13.00000000
8.22406769 4.95716000 -0.16761291 16 14 5892 9.60400000 2047918413 2047918413 -1.00000000
7.55127144 4.55162382 2.36250019 45 15 5892 9.12800000 2047918415 2047918415 15.00000000
1.94529784 1.16977727 -0.60822475 4 0 5898 2.35000000 2047918436 2047918436 -15.00000000
8.21812057 4.93989706 0.16736858 13 1 5899 9.59000000 2047918438 2047918438 1.00000000
2.31683969 1.39209771 -0.62401420 3 2 5900 2.77400000 2047918441 2047918441 -13.00000000
8.24407291 4.95158052 0.50399524 55 3 5901 9.63000000 2047918443 2047918443 3.00000000
2.78033900 1.66993582 -0.63043290 5 4 5901 3.30400000 2047918445 2047918445 -11.00000000
8.23337555 4.94320011 0.84018135 77 5 5902 9.64000000 2047918448 2047918448 5.00000000
3.49592233 2.09807158 -0.64576149 6 6 5903 4.12800000 2047918450 2047918450 -9.00000000
4.70556545 2.82180309 -0.67369372 4 8 5905 5.52800000 2047918455 2047918455 -7.00000000
8.32657814 4.99322796 1.53775084 2 9 5905 9.83000000 2047918457 2047918457 9.00000000
6.69370127 4.01244736 -0.68277806 8 10 5906 7.83400000 2047918459 2047918459 -5.00000000
8.32604980 4.98896074 1.88671935 3 11 5907 9.88800000 2047918462 2047918462 11.00000000
8.22612858 4.92713690 -0.50252986 17 12 5908 9.60200000 2047918464 2047918464 -3.00000000
8.29799080 4.96821260 2.23286414 82 13 5909 9.92600000 2047918466 2047918466 13.00000000
8.23273659 4.92719126 -0.16747329 14 14 5910 9.59600000 2047918468 2047918468 -1.00000000
1.96430063 1.17188776 -0.61288351 4 0 5918 2.36800000 2047918491 2047918491 -15.00000000
8.22672653 4.90605927 0.16719405 13 1 5919 9.58000000 2047918494 2047918494 1.00000000
2.31164145 1.37801492 -0.62131482 3 2 5920 2.76200000 2047918496 2047918496 -13.00000000
8.23814487 4.91092014 0.50263453 44 3 5920 9.60400000 2047918498 2047918498 3.00000000
2.78277802 1.65821052 -0.62966967 5 4 5921 3.30000000 2047918501 2047918501 -11.00000000
8.24202156 4.90933228 0.83930981 81 5 5922 9.63000000 2047918503 2047918503 5.00000000
3.51001382 2.08989787 -0.64701295 4 6 5923 4.13600000 2047918505 2047918505 -9.00000000
24.39498711 14.51925755 3.48570704 28 7 5924 28.60200000 2047918508 2047918508 7.00000000
4.69491482 2.79318094 -0.67076886 4 8 5925 5.50400000 2047918510 2047918510 -7.00000000
18.33823586 10.90577126 3.37929726 19 9 5926 21.60200000 2047918512 2047918512 9.00000000
6.69396687 3.98091030 -0.68138361 12 10 5926 7.81800000 2047918515 2047918515 -5.00000000
8.33666325 4.95585442 1.88519287 3 11 5927 9.88000000 2047918517 2047918517 11.00000000
8.21237087 4.88002729 -0.50064576 12 12 5928 9.56600000 2047918519 2047918519 -3.00000000
8.28847599 4.92329359 2.22566581 76 13 5929 9.89400000 2047918521 2047918521 13.00000000
8.23956871 4.89229822 -0.16726387 14 14 5930 9.58400000 2047918524 2047918524 -1.00000000
6.99066257 4.14910173 2.17822099 40 15 5931 8.41600000 2047918526 2047918526 15.00000000
1.96692002 1.16369665 -0.61236584 4 0 5939 2.36600000 2047918547 2047918547 -15.00000000
8.22916126 4.86671257 0.16687991 13 1 5940 9.56200000 2047918549 2047918549 1.00000000
2.32003188 1.37151647 -0.62221462 3 2 5941 2.76600000 2047918551 2047918551 -13.00000000
8.22170353 4.86036491 0.50054109 23 3 5941 9.56400000 2047918554 2047918554 3.00000000
2.78545666 1.64600241 -0.62890643 5 4 5942 3.29600000 2047918556 2047918556 -11.00000000
8.24795151 4.87199736 0.83808964 81 5 5943 9.61600000 2047918558 2047918558 5.00000000
3.51424813 2.07501030 -0.64638722 4 6 5944 4.13200000 2047918561 2047918561 -9.00000000
24.44804001 14.42974854 3.48570704 7 7 5945 28.60200000 2047918563 2047918563 7.00000000
4.71024990 2.77898049 -0.67150009 6 8 5946 5.51000000 2047918565 2047918565 -7.00000000
18.35067177 10.82663536 3.37460423 4 9 5946 21.57200000 2047918568 2047918568 9.00000000
6.70508051 3.95432472 -0.68103498 97 10 5947 7.81400000 2047918570 2047918570 -5.00000000
8.36830139 4.93324184 1.88824582 3 11 5948 9.89600000 2047918572 2047918572 11.00000000
8.22848129 4.84888077 -0.50054109 12 12 5949 9.56400000 2047918574 2047918574 -3.00000000
8.28463650 4.88002396 2.21981692 74 13 5950 9.86800000 2047918577 2047918577 13.00000000
8.23332024 4.84786081 -0.16677520 14 14 5951 9.55600000 2047918579 2047918579 -1.00000000
7.60851002 4.47817850 2.36560607 40 15 5952 9.14000000 2047918581 2047918581 15.00000000
1.96930397 1.15584588 -0.61184824 4 0 5959 2.36400000 2047918602 2047918602 -15.00000000
8.23230171 4.82986259 0.16660067 13 1 5960 9.54600000 2047918604 2047918604 1.00000000
2.33825302 1.37129641 -0.62581384 3 2 5961 2.78200000 2047918607 2047918607 -13.00000000
8.23517323 4.82961559 0.50033176 23 3 5961 9.56000000 2047918609 2047918609 3.00000000
2.78610420 1.63329065 -0.62776160 5 4 5962 3.29000000 2047918611 2047918611 -11.00000000
8.24256039 4.83008194 0.83582360 89 5 5963 9.59000000 2047918614 2047918614 5.00000000
3.53510571 2.07071805 -0.64889014 4 6 5964 4.14800000 2047918616 2047918616 -9.00000000
8.34595585 4.88675833 1.18749487 15 7 5965 9.74400000 2047918618 2047918618 7.00000000
4.72677469 2.76653266 -0.67247504 6 8 5966 5.51800000 2047918621 2047918621 -7.00000000
8.36392212 4.89531755 1.53493500 2 9 5966 9.81200000 2047918623 2047918623 9.00000000
8.41597557 4.92184067 1.89511490 3 11 5968 9.93200000 2047918627 2047918627 11.00000000
8.22466660 4.80803299 -0.49928501 17 12 5969 9.54000000 2047918630 2047918630 -3.00000000
8.28984261 4.84419298 2.21666765 72 13 5970 9.85400000 2047918632 2047918632 13.00000000
8.21911144 4.80093718 -0.16614690 14 14 5971 9.52000000 2047918634 2047918634 -1.00000000
7.61408567 4.44574785 2.36250019 45 15 5972 9.12800000 2047918637 2047918637 15.00000000
1.96664870 1.14507639 -0.60977769 4 0 5979 2.35600000 2047918657 2047918657 -15.00000000
8.22145844 4.78500271 0.16604219 13 1 5980 9.51400000 2047918660 2047918660 1.00000000
2.34639430 1.36508596 -0.62671363 3 2 5981 2.78600000 2047918662 2047918662 -13.00000000
8.23471832 4.79079676 0.49928501 18 3 5981 9.54000000 2047918664 2047918664 3.00000000
2.79178858 1.62355542 -0.62776160 5 4 5982 3.29000000 2047918667 2047918667 -11.00000000
8.23697853 4.78826380 0.83355755 81 5 5983 9.56400000 2047918669 2047918669 5.00000000
3.52181673 2.04645610 -0.64513576 4 6 5984 4.12400000 2047918671 2047918671 -9.00000000
24.54989815 14.25971508 3.48595071 31 7 5985 28.60400000 2047918673 2047918673 7.00000000
4.75700331 2.76197720 -0.67539990 6 8 5986 5.54200000 2047918676 2047918676 -7.00000000
18.45485115 10.71512318 3.37992311 48 9 5986 21.60600000 2047918678 2047918678 9.00000000
6.71012163 3.89441705 -0.67876893 115 10 5987 7.78800000 2047918680 2047918680 -5.00000000
16.64374924 9.65580750 3.74023795 7 11 5988 19.60200000 2047918683 2047918683 11.00000000
8.22412205 4.76927471 -0.49823830 17 12 5989 9.52000000 2047918685 2047918685 -3.00000000
8.29321384 4.80740786 2.21306849 70 13 5990 9.83800000 2047918687 2047918687 13.00000000
8.21851826 4.76219225 -0.16579786 14 14 5991 9.50000000 2047918690 2047918690 -1.00000000
7.61875772 4.41466284 2.35939431 45 15 5991 9.11600000 2047918692 2047918692 15.00000000
1.96728802 1.13627219 -0.60874242 4 0 5999 2.35200000 2047918713 2047918713 -15.00000000
8.22252464 4.74727678 0.16572805 13 1 6000 9.49600000 2047918715 2047918715 1.00000000
2.33764243 1.34909451 -0.62311441 3 2 6001 2.77000000 2047918717 2047918717 -13.00000000
8.24101162 4.75603294 0.49865699 13 3 6001 9.52800000 2047918720 2047918720 3.00000000
2.80594158 1.61870551 -0.62966967 5 4 6002 3.30000000 2047918722 2047918722 -11.00000000
8.23465633 4.74853373 0.83164012 81 5 6003 9.54200000 2047918724 2047918724 5.00000000
3.52551603 2.03217721 -0.64450997 4 6 6004 4.12000000 2047918726 2047918726 -9.00000000
24.55480385 14.14816570 3.47961354 17 7 6005 28.55200000 2047918729 2047918729 7.00000000
4.77349615 2.74931836 -0.67637485 6 8 6006 5.55000000 2047918731 2047918731 -7.00000000
18.51610565 10.66444016 3.38430333 50 9 6006 21.63400000 2047918733 2047918733 9.00000000
16.65863609 9.58687973 3.73604012 18 11 6008 19.58000000 2047918738 2047918738 11.00000000
8.21475124 4.72559929 -0.49666822 17 12 6009 9.49000000 2047918740 2047918740 -3.00000000
8.29642963 4.77065849 2.20946932 68 13 6010 9.82200000 2047918743 2047918743 13.00000000
8.22295475 4.72649956 -0.16555353 16 14 6011 9.48600000 2047918745 2047918745 -1.00000000
7.64661217 4.39344597 2.36301780 45 15 6012 9.13000000 2047918747 2047918747 15.00000000
1.98445368 1.13742745 -0.61288351 4 0 6018 2.36800000 2047918768 2047918768 -15.00000000
8.22260666 4.71103716 0.16541390 16 1 6019 9.47800000 2047918770 2047918770 1.00000000
2.33533907 1.33746135 -0.62131482 3 2 6020 2.76200000 2047918773 2047918773 -13.00000000
8.23503017 4.71433783 0.49729624 10 3 6021 9.50200000 2047918775 2047918775 3.00000000
2.81640553 1.61231792 -0.63081455 5 4 6021 3.30600000 2047918777 2047918777 -11.00000000
8.23998165 4.71526337 0.83059424 81 5 6022 9.53000000 2047918779 2047918779 5.00000000
3.53566480 2.02243662 -0.64513576 4 6 6023 4.12400000 2047918782 2047918782 -9.00000000
8.24073887 4.71187830 1.16555846 9 7 6024 9.56400000 2047918784 2047918784 7.00000000
4.74984121 2.71475792 -0.67174381 4 8 6025 5.51200000 2047918786 2047918786 -7.00000000
18.57880783 10.61866379 3.38930917 50 9 6025 21.66600000 2047918789 2047918789 9.00000000
6.68803549 3.82097888 -0.67388821 12 10 6026 7.73200000 2047918791 2047918791 -5.00000000
16.66646767 9.51795483 3.73069739 33 11 6027 19.55200000 2047918793 2047918793 11.00000000
8.20956230 4.68645000 -0.49541217 17 12 6028 9.46600000 2047918796 2047918796 -3.00000000
8.29527855 4.73346233 2.20497012 70 13 6029 9.80200000 2047918798 2047918798 13.00000000
8.22642422 4.69226980 -0.16530919 14 14 6030 9.47200000 2047918800 2047918800 -1.00000000
7.65702057 4.36748743 2.36198258 45 15 6030 9.12600000 2047918803 2047918803 15.00000000
1.99177086 1.13240314 -0.61391878 4 0 6038 2.37200000 2047918823 2047918823 -15.00000000
8.22335339 4.67341375 0.16509977 16 1 6039 9.46000000 2047918826 2047918826 1.00000000
2.33660460 1.32737625 -0.62041503 3 2 6040 2.75800000 2047918828 2047918828 -13.00000000
8.22364712 4.66978359 0.49562150 13 3 6041 9.47000000 2047918830 2047918830 3.00000000
2.80835867 1.59472156 -0.62776160 5 4 6041 3.29000000 2047918832 2047918832 -11.00000000
8.24426270 4.67958689 0.82937407 81 5 6042 9.51600000 2047918835 2047918835 5.00000000
3.54270291 2.01008248 -0.64513576 6 6 6043 4.12400000 2047918837 2047918837 -9.00000000
8.24504852 4.67622900 1.16385221 24 7 6044 9.55000000 2047918839 2047918839 7.00000000
4.76446915 2.70109844 -0.67247504 6 8 6045 5.51800000 2047918842 2047918842 -7.00000000
18.61072922 10.54660225 3.38805771 50 9 6046 21.65800000 2047918844 2047918844 9.00000000
6.68746519 3.78975153 -0.67249370 29 10 6046 7.71600000 2047918846 2047918846 -5.00000000
16.70300674 9.46165466 3.73146081 41 11 6047 19.55600000 2047918849 2047918849 11.00000000
8.21544266 4.65186024 -0.49478412 17 12 6048 9.45400000 2047918851 2047918851 -3.00000000
8.28461552 4.68911934 2.19777179 75 13 6049 9.77000000 2047918853 2047918853 13.00000000
8.22012806 4.65072441 -0.16485544 12 14 6050 9.44600000 2047918856 2047918856 -1.00000000
7.67970324 4.34319782 2.36405325 45 15 6051 9.13400000 2047918858 2047918858 15.00000000
1.98373711 1.11914730 -0.61029530 4 0 6057 2.35800000 2047918879 2047918879 -15.00000000
8.22661304 4.63924265 0.16485544 16 1 6058 9.44600000 2047918881 2047918881 1.00000000
2.35796952 1.32918990 -0.62491405 3 2 6059 2.77800000 2047918883 2047918883 -13.00000000
8.22864723 4.63660479 0.49499348 10 3 6060 9.45800000 2047918885 2047918885 3.00000000
2.81192112 1.58443618 -0.62737995 5 4 6060 3.28800000 2047918888 2047918888 -11.00000000
8.23369503 4.63755560 0.82675940 77 5 6061 9.48600000 2047918890 2047918890 5.00000000
3.56311965 2.00607634 -0.64763868 4 6 6062 4.14000000 2047918892 2047918892 -9.00000000
8.24321079 4.63912582 1.16141486 49 7 6063 9.53000000 2047918895 2047918895 7.00000000
4.78897142 2.69404364 -0.67466867 4 8 6064 5.53600000 2047918897 2047918897 -7.00000000
18.64721298 10.49001980 3.38868332 50 9 6064 21.66200000 2047918899 2047918899 9.00000000
6.67915583 3.75583553 -0.67040199 55 10 6065 7.69200000 2047918902 2047918902 -5.00000000
16.74798203 9.41390991 3.73451376 41 11 6066 19.57200000 2047918904 2047918904 11.00000000
8.21515274 4.61578655 -0.49384210 17 12 6067 9.43600000 2047918906 2047918906 -3.00000000
8.28312874 4.65207767 2.19327283 78 13 6068 9.75000000 2047918909 2047918909 13.00000000
8.21458054 4.61169291 -0.16443658 12 14 6069 9.42200000 2047918911 2047918911 -1.00000000
7.68657160 4.31526709 2.36198258 45 15 6069 9.12600000 2047918913 2047918913 15.00000000
1.98425984 1.11032927 -0.60926002 4 0 6077 2.35400000 2047918934 2047918934 -15.00000000
8.21657848 4.59585524 0.16433185 16 1 6078 9.41600000 2047918936 2047918936 1.00000000
2.36259508 1.32095087 -0.62491405 3 2 6079 2.77800000 2047918938 2047918938 -13.00000000
8.23432159 4.60200691 0.49436545 13 3 6080 9.44600000 2047918941 2047918941 3.00000000
2.82428980 1.57844222 -0.62890643 5 4 6080 3.29600000 2047918943 2047918943 -11.00000000
8.23070049 4.59809780 0.82484198 77 5 6081 9.46400000 2047918945 2047918945 5.00000000
3.55630302 1.98592174 -0.64513576 4 6 6082 4.12400000 2047918948 2047918948 -9.00000000
8.24722099 4.60355043 1.15970862 72 7 6083 9.51600000 2047918950 2047918950 7.00000000
4.79661274 2.67634344 -0.67442495 4 8 6084 5.53400000 2047918952 2047918952 -7.00000000
18.69933701 10.42930126 3.39118624 50 9 6085 21.67800000 2047918955 2047918955 9.00000000
16.77045250 9.34965515 3.73222399 41 11 6086 19.56000000 2047918959 2047918959 11.00000000
8.21725750 4.57930374 -0.49300471 17 12 6087 9.42000000 2047918961 2047918961 -3.00000000
8.28229332 4.61365271 2.18877387 80 13 6088 9.73000000 2047918964 2047918964 13.00000000
8.20966339 4.57131672 -0.16401772 14 14 6089 9.39800000 2047918966 2047918966 -1.00000000
7.69896030 4.28518629 2.36094737 45 15 6090 9.12200000 2047918968 2047918968 15.00000000
1.98793089 1.10374308 -0.60926002 4 0 6096 2.35400000 2047918989 2047918989 -15.00000000
8.20379829 4.55305672 0.16377339 13 1 6097 9.38400000 2047918991 2047918991 1.00000000
2.35673809 1.30743682 -0.62221462 3 2 6098 2.76600000 2047918994 2047918994 -13.00000000
8.24255085 4.57080126 0.49394676 13 3 6099 9.43800000 2047918996 2047918996 3.00000000
2.81405616 1.56049895 -0.62547189 5 4 6099 3.27800000 2047918998 2047918998 -11.00000000
8.23196220 4.56305122 0.82344747 81 5 6100 9.44800000 2047919001 2047919001 5.00000000
3.55250168 1.96837342 -0.64325851 4 6 6101 4.11200000 2047919003 2047919003 -9.00000000
8.24333954 4.56559706 1.15702760 90 7 6102 9.49400000 2047919005 2047919005 7.00000000
4.82456493 2.67099881 -0.67710608 4 8 6103 5.55600000 2047919008 2047919008 -7.00000000
18.73546600 10.37241840 3.39181209 50 9 6103 21.68200000 2047919010 2047919010 9.00000000
16.78762054 9.28638840 3.72917104 41 11 6105 19.54400000 2047919014 2047919014 11.00000000
8.21491909 4.54236460 -0.49195799 17 12 6106 9.40000000 2047919017 2047919017 -3.00000000
8.27708054 4.57485008 2.18337488 82 13 6107 9.70600000 2047919019 2047919019 13.00000000
8.21077442 4.53633118 -0.16373847 16 14 6108 9.38200000 2047919021 2047919021 -1.00000000
7.71914816 4.26471519 2.36301780 47 15 6108 9.13000000 2047919024 2047919024 15.00000000
1.99854064 1.10052466 -0.61133057 4 0 6116 2.36200000 2047919044 2047919044 -15.00000000
8.20913029 4.51860666 0.16356395 16 1 6117 9.37200000 2047919047 2047919047 1.00000000
2.35787272 1.29732347 -0.62131482 3 2 6118 2.76200000 2047919049 2047919049 -13.00000000
8.23745441 4.53045130 0.49269068 15 3 6119 9.41400000 2047919051 2047919051 3.00000000
2.84012914 1.56201982 -0.63005131 4 4 6119 3.30200000 2047919054 2047919054 -11.00000000
8.23387241 4.52660990 0.82205296 81 5 6120 9.43200000 2047919056 2047919056 5.00000000
3.57320070 1.96357167 -0.64576149 4 6 6121 4.12800000 2047919058 2047919058 -9.00000000
8.22964859 4.52054739 1.15288401 92 7 6122 9.46000000 2047919061 2047919061 7.00000000
4.81645870 2.64458752 -0.67466867 4 8 6123 5.53600000 2047919063 2047919063 -7.00000000
18.79067421 10.31318378 3.39494085 50 9 6124 21.70200000 2047919065 2047919065 9.00000000
16.82165527 9.22867584 3.72955251 45 11 6125 19.54600000 2047919070 2047919070 11.00000000
8.21146202 4.50309801 -0.49080661 21 12 6126 9.37800000 2047919072 2047919072 -3.00000000
8.27420139 4.53562593 2.17842603 75 13 6127 9.68400000 2047919074 2047919074 13.00000000
8.22480488 4.50668144 -0.16370358 16 14 6128 9.38000000 2047919077 2047919077 -1.00000000
7.73472738 4.23639441 2.36301780 45 15 6129 9.13000000 2047919079 2047919079 15.00000000
1.99916947 1.09134090 -0.61029530 4 0 6137 2.35800000 2047919100 2047919100 -15.00000000
8.22037125 4.48561478 0.16345924 13 1 6138 9.36600000 2047919102 2047919102 1.00000000
2.37287664 1.29427159 -0.62401420 3 2 6139 2.77400000 2047919104 2047919104 -13.00000000
8.22244072 4.48301983 0.49080661 10 3 6140 9.37800000 2047919107 2047919107 3.00000000
2.84238768 1.54972017 -0.62928808 4 4 6140 3.29800000 2047919109 2047919109 -11.00000000
8.23641205 4.48877335 0.82065845 85 5 6141 9.41600000 2047919111 2047919111 5.00000000
3.57343483 1.94668198 -0.64450997 4 6 6142 4.12000000 2047919114 2047919114 -9.00000000
8.24267483 4.48845482 1.15239656 90 7 6143 9.45600000 2047919116 2047919116 7.00000000
4.81914520 2.62312031 -0.67369372 4 8 6144 5.52800000 2047919118 2047919118 -7.00000000
18.81614876 10.24186325 3.39306355 50 9 6144 21.69000000 2047919120 2047919120 9.00000000
16.86226654 9.17071152 3.73107910 45 11 6146 19.55400000 2047919125 2047919125 11.00000000
8.21211910 4.46438551 -0.48986456 21 12 6147 9.36000000 2047919127 2047919127 -3.00000000
8.27193546 4.49503374 2.17347717 72 13 6148 9.66200000 2047919130 2047919130 13.00000000
8.20788097 4.45837069 -0.16304038 16 14 6149 9.34200000 2047919132 2047919132 -1.00000000
7.75286341 4.21121359 2.36405325 45 15 6149 9.13400000 2047919134 2047919134 15.00000000
2.00126791 1.08343613 -0.60977769 4 0 6157 2.35600000 2047919155 2047919155 -15.00000000
8.21839142 4.44737577 0.16311020 13 1 6158 9.34600000 2047919157 2047919157 1.00000000
2.36709571 1.28041780 -0.62131482 3 2 6159 2.76200000 2047919160 2047919160 -13.00000000
8.22925472 4.44954109 0.49028325 10 3 6160 9.36800000 2047919162 2047919162 3.00000000
2.83396411 1.53231871 -0.62623513 4 4 6160 3.28200000 2047919164 2047919164 -11.00000000
8.23275089 4.44957495 0.81874102 89 5 6161 9.39400000 2047919167 2047919167 5.00000000
3.59063601 1.93983018 -0.64638722 4 6 6162 4.13200000 2047919169 2047919169 -9.00000000
8.23733234 4.44833660 1.14947164 90 7 6163 9.43200000 2047919171 2047919171 7.00000000
4.82477856 2.60439658 -0.67320627 4 8 6164 5.52400000 2047919173 2047919173 -7.00000000
17.84351730 9.62784004 3.21128678 13 9 6165 20.52800000 2047919176 2047919176 9.00000000
6.68407059 3.60652876 -0.66447538 12 10 6165 7.62400000 2047919178 2047919178 -5.00000000
16.89244652 9.11086369 3.73069739 45 11 6166 19.55200000 2047919180 2047919180 11.00000000
8.22237778 4.43284941 -0.48955053 17 12 6167 9.35400000 2047919183 2047919183 -3.00000000
8.27385139 4.45873594 2.16987777 70 13 6168 9.64600000 2047919185 2047919185 13.00000000
8.19874668 4.41641617 -0.16255172 16 14 6169 9.31400000 2047919187 2047919187 -1.00000000
7.75804043 4.17727423 2.36094737 47 15 6170 9.12200000 2047919190 2047919190 15.00000000
1.99822938 1.07278860 -0.60770714 4 0 6177 2.34800000 2047919210 2047919210 -15.00000000
8.21095943 4.40636873 0.16265643 12 1 6178 9.32000000 2047919213 2047919213 1.00000000
2.37841988 1.27583206 -0.62311441 3 2 6179 2.77000000 2047919215 2047919215 -13.00000000
8.22713375 4.41135073 0.48923653 10 3 6180 9.34800000 2047919217 2047919217 3.00000000
2.83237481 1.51870608 -0.62470865 4 4 6180 3.27400000 2047919220 2047919220 -11.00000000
8.22189140 4.40669203 0.81612635 85 5 6181 9.36400000 2047919222 2047919222 5.00000000
3.58693790 1.92168748 -0.64450997 6 6 6182 4.12000000 2047919224 2047919224 -9.00000000
8.24405956 4.41486979 1.14825296 94 7 6183 9.42200000 2047919226 2047919226 7.00000000
4.83033991 2.58566546 -0.67271876 4 8 6184 5.52000000 2047919229 2047919229 -7.00000000
17.85444832 9.55742836 3.20753217 31 9 6184 20.50400000 2047919231 2047919231 9.00000000
6.67378139 3.57095528 -0.66220933 17 10 6185 7.59800000 2047919233 2047919233 -5.00000000
16.91375923 9.04628658 3.72840786 45 11 6186 19.54000000 2047919236 2047919236 11.00000000
8.21490383 4.39187956 -0.48818979 17 12 6187 9.32800000 2047919238 2047919238 -3.00000000
8.28248978 4.42615414 2.16807818 70 13 6188 9.63800000 2047919240 2047919240 13.00000000
8.20529366 4.38305902 -0.16237719 18 14 6189 9.30400000 2047919243 2047919243 -1.00000000
7.76844215 4.14970446 2.35991216 45 15 6189 9.11800000 2047919245 2047919245 15.00000000
2.01219344 1.07125401 -0.61081296 4 0 6197 2.36000000 2047919266 2047919266 -15.00000000
8.20863724 4.36828613 0.16230738 12 1 6198 9.30000000 2047919268 2047919268 1.00000000
2.37941790 1.26569164 -0.62221462 3 2 6199 2.76600000 2047919270 2047919270 -13.00000000
8.22661114 4.37416697 0.48829448 10 3 6200 9.33000000 2047919273 2047919273 3.00000000
2.84112573 1.51065338 -0.62547189 4 4 6200 3.27800000 2047919275 2047919275 -11.00000000
8.22842693 4.37329006 0.81525481 81 5 6201 9.35400000 2047919277 2047919277 5.00000000
3.59362411 1.90915501 -0.64450997 6 6 6202 4.12000000 2047919279 2047919279 -9.00000000
8.24013519 4.37582445 1.14557183 87 7 6203 9.40000000 2047919282 2047919282 7.00000000
4.84985638 2.57437301 -0.67418122 4 8 6204 5.53200000 2047919284 2047919284 -7.00000000
17.84407997 9.47189236 3.19971061 36 9 6204 20.45400000 2047919286 2047919286 9.00000000
16.93829727 8.98351192 3.72688127 41 11 6206 19.53200000 2047919291 2047919291 11.00000000
8.20724487 4.35101604 -0.48682907 17 12 6207 9.30200000 2047919293 2047919293 -3.00000000
8.28755856 4.39174080 2.16537881 66 13 6208 9.62600000 2047919296 2047919296 13.00000000
8.20463943 4.34596634 -0.16206305 14 14 6209 9.28600000 2047919298 2047919298 -1.00000000
7.78117275 4.12165785 2.35939431 45 15 6209 9.11600000 2047919300 2047919300 15.00000000
2.01250362 1.06241989 -0.60977769 4 0 6217 2.35600000 2047919321 2047919321 -15.00000000
8.21145630 4.33307314 0.16206305 12 1 6218 9.28600000 2047919323 2047919323 1.00000000
2.38726878 1.25919664 -0.62311441 3 2 6219 2.77000000 2047919326 2047919326 -13.00000000
8.22592926 4.33704042 0.48735243 10 3 6220 9.31200000 2047919328 2047919328 3.00000000
2.84985495 1.50255799 -0.62623513 5 4 6220 3.28200000 2047919330 2047919330 -11.00000000
8.22777939 4.33618069 0.81368601 81 5 6221 9.33600000 2047919332 2047919332 5.00000000
3.60376167 1.89844072 -0.64513576 6 6 6222 4.12400000 2047919335 2047919335 -9.00000000
8.23252487 4.33501101 1.14240324 85 7 6223 9.37400000 2047919337 2047919337 7.00000000
4.86935282 2.56297565 -0.67564362 4 8 6224 5.54400000 2047919339 2047919339 -7.00000000
17.85595131 9.39447021 3.19564319 18 9 6225 20.42800000 2047919342 2047919342 9.00000000
16.96955109 8.92433167 3.72688127 41 11 6226 19.53200000 2047919346 2047919346 11.00000000
8.20116806 4.31118870 -0.48557299 17 12 6227 9.27800000 2047919349 2047919349 -3.00000000
8.28213692 4.35190773 2.15998006 68 13 6228 9.60200000 2047919351 2047919351 13.00000000
8.21444893 4.31451082 -0.16195834 16 14 6229 9.28000000 2047919353 2047919353 -1.00000000
7.79209232 4.09267473 2.35835910 45 15 6229 9.11200000 2047919355 2047919355 15.00000000
2.01962304 1.05718029 -0.61081296 4 0 6237 2.36000000 2047919376 2047919376 -15.00000000
8.21944427 4.30067539 0.16192342 12 1 6238 9.27800000 2047919379 2047919379 1.00000000
2.38474250 1.24724317 -0.62131482 3 2 6239 2.76200000 2047919381 2047919381 -13.00000000
8.21269894 4.29349518 0.48567766 13 3 6240 9.28000000 2047919383 2047919383 3.00000000
2.86030197 1.49532974 -0.62737995 5 4 6240 3.28800000 2047919385 2047919385 -11.00000000
8.23227024 4.30189753 0.81264013 85 5 6241 9.32400000 2047919388 2047919388 5.00000000
3.61211753 1.88676417 -0.64544863 6 6 6242 4.12600000 2047919390 2047919390 -9.00000000
8.23880863 4.30165386 1.14118457 85 7 6243 9.36400000 2047919392 2047919392 7.00000000
4.85891151 2.53585982 -0.67296249 6 8 6244 5.52200000 2047919395 2047919395 -7.00000000
17.85710907 9.31563854 3.19001150 18 9 6245 20.39200000 2047919397 2047919397 9.00000000
17.01104546 8.87048912 3.72917104 41 11 6246 19.54400000 2047919402 2047919402 11.00000000
8.20022678 4.27422667 -0.48463094 17 12 6247 9.26000000 2047919404 2047919404 -3.00000000
8.27308178 4.31036520 2.15368128 75 13 6248 9.57400000 2047919406 2047919406 13.00000000
8.20462894 4.27287960 -0.16146967 16 14 6249 9.25200000 2047919408 2047919408 -1.00000000
7.81560802 4.06854820 2.36094737 45 15 6250 9.12200000 2047919411 2047919411 15.00000000
2.01607704 1.04726815 -0.60874242 4 0 6255 2.35200000 2047919432 2047919432 -15.00000000
8.22049141 4.26838160 0.16167909 12 1 6256 9.26400000 2047919434 2047919434 1.00000000
2.39902687 1.24513149 -0.62401420 3 2 6257 2.77400000 2047919436 2047919436 -13.00000000
8.22260094 4.26583338 0.48546833 13 3 6258 9.27600000 2047919438 2047919438 3.00000000
2.85975742 1.48362422 -0.62623513 5 4 6258 3.28200000 2047919441 2047919441 -11.00000000
8.22275066 4.26409006 0.81037408 75 5 6259 9.29800000 2047919443 2047919443 5.00000000
3.60925817 1.87086177 -0.64388424 6 6 6260 4.11600000 2047919445 2047919445 -9.00000000
8.24170685 4.27027035 1.13972211 85 7 6261 9.35200000 2047919448 2047919448 7.00000000
4.87037945 2.52240849 -0.67344999 6 8 6262 5.52600000 2047919450 2047919450 -7.00000000
17.88804245 9.26040077 3.19032454 4 9 6263 20.39400000 2047919452 2047919452 9.00000000
17.03708458 8.81610107 3.72878933 45 11 6264 19.54200000 2047919457 2047919457 11.00000000
8.20474434 4.24385595 -0.48410758 17 12 6265 9.25000000 2047919459 2047919459 -3.00000000
8.27273369 4.27719307 2.15008211 78 13 6266 9.55800000 2047919461 2047919461 13.00000000
8.20557690 4.24065638 -0.16122533 14 14 6267 9.23800000 2047919464 2047919464 -1.00000000
7.82078028 4.04179287 2.35887671 45 15 6267 9.11400000 2047919466 2047919466 15.00000000
2.01972032 1.04022431 -0.60874242 4 0 6275 2.35200000 2047919487 2047919487 -15.00000000
8.19444847 4.21860886 0.16087629 12 1 6276 9.21800000 2047919489 2047919489 1.00000000
2.39989305 1.23496640 -0.62311441 3 2 6277 2.77000000 2047919491 2047919491 -13.00000000
8.23211288 4.23436451 0.48515430 13 3 6278 9.27000000 2047919494 2047919494 3.00000000
2.86142731 1.47183669 -0.62547189 5 4 6278 3.27800000 2047919496 2047919496 -11.00000000
8.21632290 4.22442913 0.80828238 78 5 6279 9.27400000 2047919498 2047919498 5.00000000
3.62630844 1.86366940 -0.64576149 4 6 6280 4.12800000 2047919501 2047919501 -9.00000000
8.24243641 4.23421860 1.13777220 87 7 6281 9.33600000 2047919503 2047919503 7.00000000
4.87562275 2.50357866 -0.67296249 6 8 6282 5.52200000 2047919505 2047919505 -7.00000000
8.34943104 4.28549957 1.48644030 2 9 6283 9.50200000 2047919508 2047919508 9.00000000
6.68070459 3.42899513 -0.65697998 12 10 6283 7.53800000 2047919510 2047919510 -5.00000000
17.06251526 8.75388813 3.72764444 45 11 6284 19.53600000 2047919512 2047919512 11.00000000
8.21417618 4.21245575 -0.48379359 17 12 6285 9.24400000 2047919514 2047919514 -3.00000000
8.27374077 4.24117804 2.14648294 78 13 6286 9.54200000 2047919517 2047919517 13.00000000
8.20075226 4.20195675 -0.16084138 16 14 6287 9.21600000 2047919519 2047919519 -1.00000000
7.82452536 4.00918293 2.35577106 45 15 6287 9.10200000 2047919521 2047919521 15.00000000
2.02333903 1.03316784 -0.60874242 4 0 6295 2.35200000 2047919542 2047919542 -15.00000000
8.19487476 4.18270636 0.16059704 12 1 6296 9.20200000 2047919544 2047919544 1.00000000
2.39898157 1.22392476 -0.62176472 4 2 6297 2.76400000 2047919547 2047919547 -13.00000000
8.23187637 4.19978142 0.48431695 13 3 6297 9.25400000 2047919549 2047919549 3.00000000
2.88053918 1.46897471 -0.62852484 5 4 6298 3.29400000 2047919551 2047919551 -11.00000000
8.22391796 4.19210386 0.80758512 78 5 6299 9.26600000 2047919554 2047919554 5.00000000
3.62223125 1.84561908 -0.64388424 6 6 6300 4.11600000 2047919556 2047919556 -9.00000000
8.23417091 4.19370985 1.13460362 99 7 6301 9.31000000 2047919558 2047919558 7.00000000
4.89848471 2.49374914 -0.67491245 6 8 6302 5.53800000 2047919560 2047919560 -7.00000000
19.97510529 10.16904354 3.55012369 21 9 6302 22.69400000 2047919563 2047919563 9.00000000
6.67842770 3.39842534 -0.65558547 12 10 6303 7.52200000 2047919565 2047919565 -5.00000000
17.07546806 8.68537521 3.72382832 45 11 6304 19.51600000 2047919567 2047919567 11.00000000
8.20568562 4.17198992 -0.48243284 17 12 6305 9.21800000 2047919570 2047919570 -3.00000000
8.27459621 4.20520878 2.14288378 75 13 6306 9.52600000 2047919572 2047919572 13.00000000
8.21180439 4.17149401 -0.16077156 16 14 6307 9.21200000 2047919574 2047919574 -1.00000000
7.84191704 3.98359585 2.35680628 45 15 6307 9.10600000 2047919577 2047919577 15.00000000
2.03382754 1.02958894 -0.61081296 4 0 6315 2.36000000 2047919597 2047919597 -15.00000000
8.20228863 4.15046406 0.16045742 12 1 6316 9.19400000 2047919600 2047919600 1.00000000
2.38932753 1.20850694 -0.61816549 4 2 6317 2.74800000 2047919602 2047919602 -13.00000000
8.22226048 4.15696573 0.48285154 15 3 6318 9.22600000 2047919604 2047919604 3.00000000
2.89265752 1.46245408 -0.63005131 5 4 6318 3.30200000 2047919607 2047919607 -11.00000000
8.22249699 4.15528345 0.80601633 82 5 6319 9.24800000 2047919609 2047919609 5.00000000
3.61454606 1.82583857 -0.64138132 6 6 6320 4.10000000 2047919611 2047919611 -9.00000000
8.22572327 4.15331030 1.13143504 97 7 6321 9.28400000 2047919613 2047919613 7.00000000
4.89652681 2.47126865 -0.67344999 6 8 6322 5.52600000 2047919616 2047919616 -7.00000000
20.10924339 10.14469719 3.56733155 16 9 6323 22.80400000 2047919618 2047919618 9.00000000
6.66534567 3.36252904 -0.65314513 12 10 6323 7.49400000 2047919620 2047919620 -5.00000000
17.10918808 8.62748528 3.72459149 41 11 6324 19.52000000 2047919623 2047919623 11.00000000
8.19522953 4.13073587 -0.48096743 17 12 6325 9.19000000 2047919625 2047919625 -3.00000000
8.26137924 4.16227007 2.13568521 78 13 6326 9.49400000 2047919627 2047919627 13.00000000
8.21560001 4.13740730 -0.16056214 16 14 6327 9.20000000 2047919630 2047919630 -1.00000000
7.85646486 3.95482707 2.35680628 45 15 6328 9.10600000 2047919632 2047919632 15.00000000
2.04449463 1.02559245 -0.61288351 4 0 6336 2.36800000 2047919653 2047919653 -15.00000000
8.20314503 4.11320257 0.16017818 12 1 6337 9.17800000 2047919655 2047919655 1.00000000
8.18819714 4.10391903 -2.11453986 8 2 6338 9.40000000 2047919657 2047919657 -13.00000000
8.21529388 4.11750031 0.48159546 13 3 6338 9.20200000 2047919660 2047919660 3.00000000
2.88220048 1.44392776 -0.62661672 5 4 6339 3.28400000 2047919662 2047919662 -11.00000000
8.22342014 4.11798191 0.80462182 78 5 6340 9.23200000 2047919664 2047919664 5.00000000
3.63534546 1.81965184 -0.64388424 6 6 6341 4.11600000 2047919666 2047919666 -9.00000000
8.22668839 4.11602783 1.12948513 97 7 6342 9.26800000 2047919669 2047919669 7.00000000
4.90555143 2.45330524 -0.67344999 9 8 6343 5.52600000 2047919671 2047919671 -7.00000000
8.32567310 4.16191912 1.47423840 2 9 6344 9.42400000 2047919673 2047919673 9.00000000
6.73287106 3.36569381 -0.65854877 8 10 6344 7.55600000 2047919676 2047919676 -5.00000000
17.13718224 8.56296444 3.72382832 41 11 6345 19.51600000 2047919678 2047919678 11.00000000
8.20674133 4.09888649 -0.48075810 17 12 6346 9.18600000 2047919680 2047919680 -3.00000000
8.25740051 4.12238789 2.13073635 68 13 6347 9.47200000 2047919683 2047919683 13.00000000
8.20565891 4.09476757 -0.16007347 16 14 6348 9.17200000 2047919685 2047919685 -1.00000000
7.88405085 3.93427944 2.36094737 45 15 6348 9.12200000 2047919687 2047919687 15.00000000
2.04114294 1.01500893 -0.61081296 4 0 6356 2.36000000 2047919708 2047919708 -15.00000000
8.20670891 4.07920313 0.15996876 12 1 6357 9.16600000 2047919710 2047919710 1.00000000
8.19025612 4.06924248 -2.11139059 8 2 6358 9.38600000 2047919712 2047919712 -13.00000000
8.22067356 4.08435535 0.48107210 13 3 6358 9.19200000 2047919715 2047919715 3.00000000
2.87667322 1.42861879 -0.62432700 5 4 6359 3.27200000 2047919717 2047919717 -11.00000000
8.22703648 4.08393621 0.80357593 82 5 6360 9.22000000 2047919719 2047919719 5.00000000
3.65583110 1.81397510 -0.64638722 4 6 6361 4.13200000 2047919722 2047919722 -9.00000000
8.22677898 4.08022976 1.12753522 97 7 6362 9.25200000 2047919724 2047919724 7.00000000
4.91052818 2.43440342 -0.67296249 6 8 6363 5.52200000 2047919726 2047919726 -7.00000000
18.74940681 9.29097748 3.31422067 14 9 6364 21.18600000 2047919729 2047919729 9.00000000
6.76600122 3.35278678 -0.66064054 4 10 6364 7.58000000 2047919731 2047919731 -5.00000000
17.17928314 8.50919247 3.72649980 45 11 6365 19.53000000 2047919733 2047919733 11.00000000
8.21025944 4.06489754 -0.48013008 17 12 6366 9.17400000 2047919736 2047919736 -3.00000000
8.26650047 4.09094620 2.12938666 75 13 6367 9.46600000 2047919738 2047919738 13.00000000
8.19660091 4.05457354 -0.15961970 18 14 6368 9.14600000 2047919740 2047919740 -1.00000000
