# .PCD v0.7 - Point Cloud Data file format
VERSION 0.7
FIELDS x y z intensity laser_id azimuth distance_m adjustedtime timestamp vertical_angle
SIZE 4 4 4 1 1 2 8 8 4 8
TYPE F F F U U U F U U F
COUNT 1 1 1 1 1 1 1 1 1 1
WIDTH 542
HEIGHT 1
VIEWPOINT 0 0 0 1 0 0 0
POINTS 542
DATA ascii
1.97536564 1.85628974 -0.62581384 3 2 4678 2.78200000 2048315025 2048315025 -13.00000000
3.00843978 2.82708979 0.21635684 7 3 4678 4.13400000 2048315027 2048315027 3.00000000
2.39821553 2.25286222 -0.63959175 2 4 4679 3.35200000 2048315029 2048315029 -11.00000000
3.01661277 2.83278799 0.36204496 7 5 4680 4.15400000 2048315032 2048315032 5.00000000
2.97694230 2.79455733 -0.64670008 9 6 4681 4.13400000 2048315034 2048315034 -9.00000000
3.01668215 2.83087230 0.50795144 7 7 4682 4.16800000 2048315036 2048315036 7.00000000
2.98677278 2.80182481 -0.50283289 10 8 4683 4.12600000 2048315038 2048315038 -7.00000000
3.02401972 2.83676529 0.65671188 68 9 4683 4.19800000 2048315041 2048315041 9.00000000
2.99969625 2.81296396 -0.35977891 9 10 4684 4.12800000 2048315043 2048315043 -5.00000000
3.01217556 2.82367849 0.80254263 50 11 4685 4.20600000 2048315045 2048315045 11.00000000
2.98469400 2.79693818 -0.21436808 7 12 4686 4.09600000 2048315048 2048315048 -3.00000000
3.00652909 2.81641436 0.95109308 48 13 4687 4.22800000 2048315050 2048315050 13.00000000
2.99369121 2.80340719 -0.07158977 10 14 4688 4.10200000 2048315052 2048315052 -1.00000000
3.02749395 2.83506179 1.11136901 8 15 4688 4.29400000 2048315055 2048315055 15.00000000
1.66609716 1.55583668 -0.61081296 4 0 4696 2.36000000 2048315075 2048315075 -15.00000000
3.01124692 2.81098247 0.07190391 8 1 4697 4.12000000 2048315078 2048315078 1.00000000
1.99038172 1.85736036 -0.62851322 3 2 4698 2.79400000 2048315080 2048315080 -13.00000000
3.00855803 2.80650759 0.21562414 7 3 4699 4.12000000 2048315082 2048315082 3.00000000
2.39170909 2.23108530 -0.63577557 4 4 4699 3.33200000 2048315085 2048315085 -11.00000000
3.01336837 2.81001139 0.36047617 6 5 4700 4.13600000 2048315087 2048315087 5.00000000
2.98378897 2.78145480 -0.64607435 9 6 4701 4.13000000 2048315089 2048315089 -9.00000000
3.01928401 2.81355810 0.50673270 7 7 4702 4.15800000 2048315091 2048315091 7.00000000
2.98927236 2.78461671 -0.50161421 10 8 4703 4.11600000 2048315094 2048315094 -7.00000000
3.01994038 2.81220078 0.65358317 68 9 4704 4.17800000 2048315096 2048315096 9.00000000
2.98908377 2.78346682 -0.35733855 9 10 4704 4.10000000 2048315098 2048315098 -5.00000000
3.02488756 2.81582212 0.80330586 54 11 4705 4.21000000 2048315101 2048315101 11.00000000
2.99590111 2.78786325 -0.21447276 7 12 4706 4.09800000 2048315103 2048315103 -3.00000000
3.01634192 2.80590248 0.95109308 21 13 4707 4.22800000 2048315105 2048315105 13.00000000
2.99320793 2.78340816 -0.07134544 7 14 4708 4.08800000 2048315108 2048315108 -1.00000000
3.02371550 2.81079340 1.10619259 12 15 4709 4.27400000 2048315110 2048315110 15.00000000
1.66612124 1.54446650 -0.60874242 4 0 4717 2.35200000 2048315131 2048315131 -15.00000000
3.00099468 2.78089809 0.07141525 8 1 4718 4.09200000 2048315133 2048315133 1.00000000
2.00003529 1.85270143 -0.62941307 3 2 4719 2.79800000 2048315135 2048315135 -13.00000000
3.01394057 2.79191685 0.21531013 7 3 4719 4.11400000 2048315138 2048315138 3.00000000
2.40995383 2.23164153 -0.63844693 4 4 4720 3.34600000 2048315140 2048315140 -11.00000000
3.01341248 2.78947377 0.35925597 6 5 4721 4.12200000 2048315142 2048315142 5.00000000
2.98526430 2.76245022 -0.64419711 9 6 4722 4.11800000 2048315144 2048315144 -9.00000000
3.02957606 2.80247307 0.50673270 7 7 4723 4.15800000 2048315147 2048315147 7.00000000
2.98925614 2.76420760 -0.49990806 10 8 4724 4.10200000 2048315149 2048315149 -7.00000000
3.01717210 2.78904533 0.65076739 66 9 4725 4.16000000 2048315151 2048315151 9.00000000
2.99195027 2.76573038 -0.35646698 9 10 4725 4.09000000 2048315154 2048315154 -5.00000000
3.02797842 2.79805446 0.80139780 18 11 4726 4.20000000 2048315156 2048315156 11.00000000
2.99729633 2.76873255 -0.21384472 7 12 4727 4.08600000 2048315158 2048315158 -3.00000000
3.01658392 2.78557372 0.94794375 12 13 4728 4.21400000 2048315161 2048315161 13.00000000
2.99751210 2.76699328 -0.07120582 7 14 4729 4.08000000 2048315163 2048315163 -1.00000000
3.01647425 2.78449726 1.09998095 12 15 4729 4.25000000 2048315165 2048315165 15.00000000
1.68287313 1.54910815 -0.61288351 4 0 4737 2.36800000 2048315186 2048315186 -15.00000000
3.00185466 2.76228142 0.07120582 10 1 4738 4.08000000 2048315188 2048315188 1.00000000
2.00649023 1.84570873 -0.62941307 3 2 4739 2.79800000 2048315190 2048315190 -13.00000000
3.01925802 2.77732277 0.21499611 7 3 4739 4.10800000 2048315193 2048315193 3.00000000
2.41483855 2.22055793 -0.63768369 4 4 4740 3.34200000 2048315195 2048315195 -11.00000000
3.01726389 2.77354455 0.35855871 6 5 4741 4.11400000 2048315197 2048315197 5.00000000
2.97161627 2.73062754 -0.63919121 9 6 4742 4.08600000 2048315200 2048315200 -9.00000000
3.01741123 2.77173734 0.50307667 8 7 4743 4.12800000 2048315202 2048315202 7.00000000
2.99596238 2.75107098 -0.49942058 10 8 4744 4.09800000 2048315204 2048315204 -7.00000000
3.02834463 2.77983212 0.65108025 50 9 4745 4.16200000 2048315207 2048315207 9.00000000
2.98984408 2.74449110 -0.35507250 9 10 4745 4.07400000 2048315209 2048315209 -5.00000000
3.01024270 2.76224780 0.79414701 14 11 4746 4.16200000 2048315211 2048315211 11.00000000
2.99516821 2.74745250 -0.21300735 9 12 4747 4.07000000 2048315214 2048315214 -3.00000000
3.00125599 2.75110817 -0.07106620 7 14 4749 4.07200000 2048315218 2048315218 -1.00000000
3.01051068 2.75959158 1.09428692 20 15 4749 4.22800000 2048315220 2048315220 15.00000000
1.68915689 1.54511750 -0.61340111 4 0 4755 2.37000000 2048315241 2048315241 -15.00000000
2.99723601 2.74069238 0.07089168 8 1 4756 4.06200000 2048315243 2048315243 1.00000000
2.00364852 1.83150721 -0.62671363 3 2 4757 2.78600000 2048315246 2048315246 -13.00000000
3.01960492 2.75921154 0.21436808 7 3 4758 4.09600000 2048315248 2048315248 3.00000000
2.42760015 2.21825790 -0.63921010 4 4 4758 3.35000000 2048315250 2048315250 -11.00000000
3.01566505 2.75464582 0.35733855 6 5 4759 4.10000000 2048315253 2048315253 5.00000000
2.97726274 2.71861458 -0.63856548 9 6 4760 4.08200000 2048315255 2048315255 -9.00000000
3.01437473 2.75153780 0.50112677 8 7 4761 4.11200000 2048315257 2048315257 7.00000000
2.98992682 2.72826505 -0.49698317 10 8 4762 4.07800000 2048315260 2048315260 -7.00000000
3.02052808 2.75618839 0.64763868 36 9 4762 4.14000000 2048315262 2048315262 9.00000000
2.99550748 2.73239923 -0.35472387 11 10 4763 4.07000000 2048315264 2048315264 -5.00000000
3.00730014 2.74219465 0.79109412 16 11 4764 4.14600000 2048315267 2048315267 11.00000000
2.98459601 2.72053814 -0.21164660 7 12 4765 4.04400000 2048315269 2048315269 -3.00000000
3.01194501 2.74450541 0.94074529 57 13 4766 4.18200000 2048315271 2048315271 13.00000000
3.00101399 2.73358631 -0.07085677 7 14 4767 4.06000000 2048315273 2048315273 -1.00000000
3.02393055 2.75349522 1.09583986 20 15 4768 4.23400000 2048315276 2048315276 15.00000000
1.69597006 1.54051077 -0.61391878 4 0 4775 2.37200000 2048315296 2048315296 -15.00000000
2.99938250 2.72349191 0.07071715 8 1 4776 4.05200000 2048315299 2048315299 1.00000000
2.01002932 1.82450211 -0.62671363 3 2 4777 2.78600000 2048315301 2048315301 -13.00000000
3.00655508 2.72904754 0.21279800 8 3 4777 4.06600000 2048315303 2048315303 3.00000000
2.42951274 2.20449352 -0.63768369 4 4 4778 3.34200000 2048315306 2048315306 -11.00000000
3.01935911 2.73874807 0.35664129 6 5 4779 4.09200000 2048315308 2048315308 5.00000000
2.97795415 2.70024395 -0.63668829 9 6 4780 4.07000000 2048315310 2048315310 -9.00000000
3.02101946 2.73833251 0.50063926 8 7 4781 4.10800000 2048315313 2048315313 7.00000000
2.98472166 2.70448256 -0.49454579 12 8 4782 4.05800000 2048315315 2048315315 -7.00000000
3.02182531 2.73714209 0.64576149 20 9 4783 4.12800000 2048315317 2048315317 9.00000000
3.00059700 2.71791387 -0.35420093 11 10 4783 4.06400000 2048315320 2048315320 -5.00000000
3.02267504 2.73695159 0.79262054 26 11 4784 4.15400000 2048315322 2048315322 11.00000000
2.99111271 2.70742297 -0.21143727 7 12 4785 4.04000000 2048315324 2048315324 -3.00000000
3.00416684 2.71828508 0.93534648 28 13 4786 4.15800000 2048315326 2048315326 13.00000000
2.99274135 2.70699716 -0.07043792 7 14 4787 4.03600000 2048315329 2048315329 -1.00000000
3.01346254 2.72478366 1.08859289 50 15 4788 4.20600000 2048315331 2048315331 15.00000000
1.69846809 1.53199351 -0.61288351 4 0 4795 2.36800000 2048315352 2048315352 -15.00000000
3.00144529 2.70631003 0.07054263 8 1 4796 4.04200000 2048315354 2048315354 1.00000000
2.01638579 1.81747460 -0.62671363 3 2 4797 2.78600000 2048315356 2048315356 -13.00000000
3.01902986 2.72121048 0.21300735 8 3 4797 4.07000000 2048315359 2048315359 3.00000000
2.43427610 2.19337106 -0.63692045 4 4 4798 3.33800000 2048315361 2048315361 -11.00000000
3.02149868 2.72152472 0.35576975 6 5 4799 4.08200000 2048315363 2048315363 5.00000000
2.98148966 2.68454528 -0.63543677 9 6 4800 4.06200000 2048315366 2048315366 -9.00000000
3.02170706 2.71980238 0.49917683 8 7 4801 4.09600000 2048315368 2048315368 7.00000000
2.98528981 2.68608069 -0.49308336 10 8 4802 4.04600000 2048315370 2048315370 -7.00000000
3.01032710 2.70860863 0.64138132 8 9 4802 4.10000000 2048315373 2048315373 9.00000000
2.98784614 2.68743730 -0.35158625 11 10 4803 4.03400000 2048315375 2048315375 -5.00000000
3.02053118 2.71588254 0.78956765 54 11 4804 4.13800000 2048315377 2048315377 11.00000000
2.99460363 2.69162488 -0.21101858 7 12 4805 4.03200000 2048315379 2048315379 -3.00000000
3.00638914 2.70126963 0.93309695 13 13 4806 4.14800000 2048315382 2048315382 13.00000000
2.99027085 2.68584394 -0.07015868 8 14 4807 4.02000000 2048315384 2048315384 -1.00000000
3.01289320 2.70521355 1.08496940 56 15 4808 4.19200000 2048315386 2048315386 15.00000000
1.69229317 1.51574421 -0.60874242 4 0 4815 2.35200000 2048315407 2048315407 -15.00000000
2.99895549 2.68514538 0.07026339 8 1 4816 4.02600000 2048315409 2048315409 1.00000000
2.03143001 1.81822300 -0.62941307 3 2 4817 2.79800000 2048315412 2048315412 -13.00000000
3.01660466 2.69999933 0.21216996 8 3 4817 4.05400000 2048315414 2048315414 3.00000000
2.44045448 2.18355131 -0.63653880 5 4 4818 3.33600000 2048315416 2048315416 -11.00000000
3.01761484 2.69900703 0.35420093 8 5 4819 4.06400000 2048315419 2048315419 5.00000000
2.97317123 2.65832186 -0.63168240 9 6 4820 4.03800000 2048315421 2048315421 -9.00000000
3.02230215 2.70130086 0.49771440 8 7 4821 4.08400000 2048315423 2048315423 7.00000000
2.98576593 2.66770816 -0.49162093 12 8 4822 4.03400000 2048315426 2048315426 -7.00000000
3.01239824 2.69150352 0.63981694 8 9 4822 4.09000000 2048315428 2048315428 9.00000000
2.98680687 2.66770077 -0.35036609 11 10 4823 4.02000000 2048315430 2048315430 -5.00000000
3.01534820 2.69224691 0.78575146 70 11 4824 4.11800000 2048315432 2048315432 11.00000000
3.00100064 2.67849565 -0.21080923 9 12 4825 4.02800000 2048315435 2048315435 -3.00000000
3.00562143 2.68167734 0.92994767 35 13 4826 4.13400000 2048315437 2048315437 13.00000000
3.00410509 2.67938280 -0.07026339 7 14 4827 4.02600000 2048315439 2048315439 -1.00000000
3.01510811 2.68825197 1.08238125 70 15 4828 4.18200000 2048315442 2048315442 15.00000000
1.71227467 1.52236760 -0.61391878 4 0 4836 2.37200000 2048315462 2048315462 -15.00000000
2.98785138 2.65553761 0.06977472 6 1 4837 3.99800000 2048315465 2048315465 1.00000000
2.02933979 1.80299926 -0.62671363 3 2 4838 2.78600000 2048315467 2048315467 -13.00000000
3.02349424 2.68627167 0.21196063 10 3 4838 4.05000000 2048315469 2048315469 3.00000000
2.44990897 2.17589569 -0.63692045 4 4 4839 3.33800000 2048315472 2048315472 -11.00000000
3.01556778 2.67734623 0.35280645 8 5 4840 4.04800000 2048315474 2048315474 5.00000000
2.97107506 2.63691664 -0.62917942 9 6 4841 4.02200000 2048315476 2048315476 -9.00000000
3.01436353 2.67439628 0.49478954 7 7 4842 4.06000000 2048315478 2048315478 7.00000000
2.99255323 2.65411234 -0.49113345 10 8 4843 4.03000000 2048315481 2048315481 -7.00000000
3.00894213 2.66864777 0.63700116 8 9 4843 4.07200000 2048315483 2048315483 9.00000000
2.98911047 2.65012693 -0.34949452 13 10 4844 4.01000000 2048315485 2048315485 -5.00000000
3.01050305 2.66815519 0.78193527 66 11 4845 4.09800000 2048315488 2048315488 11.00000000
2.98687887 2.64628673 -0.20913447 10 12 4846 3.99600000 2048315490 2048315490 -3.00000000
3.01688886 2.67193532 0.93039757 59 13 4847 4.13600000 2048315492 2048315492 13.00000000
2.99294424 2.64979649 -0.06977472 6 14 4848 3.99800000 2048315495 2048315495 -1.00000000
3.01579499 2.67002726 1.07927537 70 15 4848 4.17000000 2048315497 2048315497 15.00000000
1.71613014 1.51510286 -0.61340111 4 0 4856 2.37000000 2048315518 2048315518 -15.00000000
2.99110556 2.63979888 0.06963510 6 1 4857 3.99000000 2048315520 2048315520 1.00000000
2.03269839 1.79332614 -0.62581384 3 2 4858 2.78200000 2048315522 2048315522 -13.00000000
3.01038694 2.65588140 0.21039054 8 3 4858 4.02000000 2048315525 2048315525 3.00000000
2.46632385 2.17512226 -0.63921010 4 4 4859 3.35000000 2048315527 2048315527 -11.00000000
3.02190590 2.66416860 0.35245782 8 5 4860 4.04400000 2048315529 2048315529 5.00000000
2.97433352 2.62130547 -0.62792796 9 6 4861 4.01400000 2048315531 2048315531 -9.00000000
3.01772261 2.65860891 0.49381459 7 7 4862 4.05200000 2048315534 2048315534 7.00000000
2.98094344 2.62528253 -0.48772112 10 8 4863 4.00200000 2048315536 2048315536 -7.00000000
3.02713370 2.66596174 0.63887835 8 9 4863 4.08400000 2048315538 2048315538 9.00000000
2.99834275 2.63967681 -0.34949452 11 10 4864 4.01000000 2048315541 2048315541 -5.00000000
3.00800800 2.64725399 0.77888232 66 11 4865 4.08200000 2048315543 2048315543 11.00000000
2.98110247 2.62265205 -0.20808776 8 12 4866 3.97600000 2048315545 2048315545 -3.00000000
3.01156378 2.64851856 0.92589855 59 13 4867 4.11600000 2048315548 2048315548 13.00000000
3.00367737 2.64065313 -0.06980962 8 14 4868 4.00000000 2048315550 2048315550 -1.00000000
3.01975632 2.65385485 1.07720482 72 15 4869 4.16200000 2048315552 2048315552 15.00000000
1.71705031 1.50528264 -0.61184824 3 0 4876 2.36400000 2048315573 2048315573 -15.00000000
2.99729419 2.62670612 0.06956529 8 1 4877 3.98600000 2048315575 2048315575 1.00000000
2.04187751 1.78878796 -0.62671363 3 2 4878 2.78600000 2048315578 2048315578 -13.00000000
3.00808072 2.63430309 0.20955317 7 3 4879 4.00400000 2048315580 2048315580 3.00000000
2.46208596 2.15615249 -0.63615721 4 4 4879 3.33400000 2048315582 2048315582 -11.00000000
3.03118730 2.65360379 0.35245782 8 5 4880 4.04400000 2048315584 2048315584 5.00000000
2.98643875 2.61350894 -0.62855369 9 6 4881 4.01800000 2048315587 2048315587 -9.00000000
3.01802015 2.64021659 0.49235216 7 7 4882 4.04000000 2048315589 2048315589 7.00000000
2.98560643 2.61094069 -0.48698989 9 8 4883 3.99600000 2048315591 2048315591 -7.00000000
3.01857734 2.63977432 0.63512391 8 9 4883 4.06000000 2048315594 2048315594 9.00000000
2.99853873 2.62132668 -0.34844866 12 10 4884 3.99800000 2048315596 2048315596 -5.00000000
3.01427364 2.63415432 0.77811909 64 11 4885 4.07800000 2048315598 2048315598 11.00000000
2.99023890 2.61223006 -0.20808776 8 12 4886 3.97600000 2048315601 2048315601 -3.00000000
3.00317669 2.62260842 0.92049974 57 13 4887 4.09200000 2048315603 2048315603 13.00000000
2.99630570 2.61568642 -0.06942567 9 14 4888 3.97800000 2048315605 2048315605 -1.00000000
3.02562952 2.64128542 1.07616961 76 15 4888 4.15800000 2048315608 2048315608 15.00000000
1.72083724 1.49801147 -0.61133057 4 0 4896 2.36200000 2048315628 2048315628 -15.00000000
2.99739385 2.60835123 0.06935586 8 1 4897 3.97400000 2048315631 2048315631 1.00000000
2.05693078 1.78932357 -0.62941307 3 2 4898 2.79800000 2048315633 2048315633 -13.00000000
3.00972223 2.61723399 0.20902981 8 3 4899 3.99400000 2048315635 2048315635 3.00000000
2.46959734 2.14754510 -0.63615721 4 4 4899 3.33400000 2048315637 2048315637 -11.00000000
3.01336551 2.61947870 0.34932020 6 5 4900 4.00800000 2048315640 2048315640 5.00000000
2.98957896 2.59788561 -0.62730223 9 6 4901 4.01000000 2048315642 2048315642 -9.00000000
3.01522875 2.61925125 0.49040225 7 7 4902 4.02400000 2048315644 2048315644 7.00000000
2.99020553 2.59659839 -0.48625869 7 8 4903 3.99000000 2048315647 2048315647 -7.00000000
3.01182318 2.61444879 0.63168240 8 9 4904 4.03800000 2048315649 2048315649 9.00000000
2.99864292 2.60300732 -0.34740278 10 10 4904 3.98600000 2048315651 2048315651 -5.00000000
3.02345014 2.62361646 0.77811909 66 11 4905 4.07800000 2048315654 2048315654 11.00000000
2.99783039 2.60046768 -0.20798309 7 12 4906 3.97400000 2048315656 2048315656 -3.00000000
3.00347924 2.60444927 0.91780031 56 13 4907 4.08000000 2048315658 2048315658 13.00000000
2.98426366 2.58687425 -0.06893700 9 14 4908 3.95000000 2048315661 2048315661 -1.00000000
3.01777029 2.61499667 1.06995797 76 15 4909 4.13400000 2048315663 2048315663 15.00000000
1.72553480 1.49259794 -0.61133057 4 0 4914 2.36200000 2048315684 2048315684 -15.00000000
2.99195981 2.58715010 0.06904172 6 1 4915 3.95600000 2048315686 2048315686 1.00000000
2.06549048 1.78540146 -0.63031286 3 2 4916 2.80200000 2048315688 2048315688 -13.00000000
3.01490736 2.60515428 0.20882046 8 3 4917 3.99000000 2048315690 2048315690 3.00000000
2.47633171 2.13977599 -0.63615721 4 4 4917 3.33400000 2048315693 2048315693 -11.00000000
2.99745560 2.58916068 0.34653124 6 5 4918 3.97600000 2048315695 2048315695 5.00000000
2.98576474 2.57815266 -0.62479925 8 6 4919 3.99400000 2048315697 2048315697 -9.00000000
3.02344251 2.60976553 0.49040225 7 7 4920 4.02400000 2048315700 2048315700 7.00000000
2.97279835 2.56514549 -0.48211512 13 8 4921 3.95600000 2048315702 2048315702 -7.00000000
3.01508045 2.60162950 0.63074374 8 9 4921 4.03200000 2048315704 2048315704 9.00000000
2.98417544 2.57405400 -0.34478810 4 10 4922 3.95600000 2048315707 2048315707 -5.00000000
3.01978278 2.60384870 0.77506614 70 11 4923 4.06200000 2048315709 2048315709 11.00000000
2.98934412 2.57669282 -0.20683169 3 12 4924 3.95200000 2048315711 2048315711 -3.00000000
3.00574136 2.58991241 0.91600066 57 13 4925 4.07200000 2048315714 2048315714 13.00000000
2.97873974 2.56574059 -0.06862286 4 14 4926 3.93200000 2048315716 2048315716 -1.00000000
3.00795126 2.59090209 1.06374633 72 15 4926 4.11000000 2048315718 2048315718 15.00000000
1.73366547 1.48908305 -0.61236584 4 0 4934 2.36600000 2048315739 2048315739 -15.00000000
2.97062898 2.55063701 0.06834362 6 1 4935 3.91600000 2048315741 2048315741 1.00000000
2.06283784 1.77056539 -0.62761343 3 2 4936 2.79000000 2048315743 2048315743 -13.00000000
3.00124598 2.57510591 0.20725039 4 3 4937 3.96000000 2048315746 2048315746 3.00000000
2.48974586 2.13623261 -0.63768369 4 4 4937 3.34200000 2048315748 2048315748 -11.00000000
3.00042582 2.57349324 0.34583399 7 5 4938 3.96800000 2048315750 2048315750 5.00000000
2.97375131 2.54971361 -0.62041909 8 6 4939 3.96600000 2048315753 2048315753 -9.00000000
3.00992560 2.57981825 0.48674616 6 7 4940 3.99400000 2048315755 2048315755 7.00000000
2.97721195 2.55087805 -0.48138392 28 8 4941 3.95000000 2048315757 2048315757 -7.00000000
3.01859450 2.58542109 0.62949228 8 9 4942 4.02400000 2048315760 2048315760 9.00000000
2.97195745 2.54547668 -0.34234777 31 10 4942 3.92800000 2048315762 2048315762 -5.00000000
3.01692319 2.58307695 0.77201319 66 11 4943 4.04600000 2048315764 2048315764 11.00000000
2.97252488 2.54416442 -0.20505227 21 12 4944 3.91800000 2048315766 2048315766 -3.00000000
3.01476336 2.57940459 0.91600066 55 13 4945 4.07200000 2048315769 2048315769 13.00000000
2.97096133 2.54102993 -0.06823891 19 14 4946 3.91000000 2048315771 2048315771 -1.00000000
3.01155376 2.57483816 1.06167567 72 15 4947 4.10200000 2048315773 2048315773 15.00000000
1.73764145 1.48146546 -0.61184824 4 0 4955 2.36400000 2048315794 2048315794 -15.00000000
2.98908901 2.54751468 0.06855305 22 1 4956 3.92800000 2048315796 2048315796 1.00000000
2.06041312 1.75541008 -0.62491405 3 2 4957 2.77800000 2048315799 2048315799 -13.00000000
2.99545860 2.55113864 0.20620367 27 3 4958 3.94000000 2048315801 2048315801 3.00000000
2.49755883 2.12709284 -0.63768369 4 4 4958 3.34200000 2048315803 2048315803 -11.00000000
3.00528693 2.55860424 0.34531105 19 5 4959 3.96200000 2048315806 2048315806 5.00000000
2.98006797 2.53623652 -0.61979336 8 6 4960 3.96200000 2048315808 2048315808 -9.00000000
3.00726533 2.55847836 0.48479626 17 7 4961 3.97800000 2048315810 2048315810 7.00000000
3.02158189 2.56974959 0.62824082 8 9 4962 4.01600000 2048315815 2048315815 9.00000000
3.02038646 2.56691647 0.77048671 68 11 4964 4.03800000 2048315819 2048315819 11.00000000
3.00785828 2.55446148 0.91105175 55 13 4966 4.05000000 2048315824 2048315824 13.00000000
3.01463246 2.55930924 1.05960512 72 15 4967 4.09400000 2048315829 2048315829 15.00000000
1.75312328 1.48412848 -0.61547166 4 0 4975 2.37800000 2048315849 2048315849 -15.00000000
2.06950355 1.75072443 -0.62581384 3 2 4977 2.78200000 2048315854 2048315854 -13.00000000
2.50796652 2.12089729 -0.63844693 5 4 4978 3.34600000 2048315859 2048315859 -11.00000000
2.97985005 2.51816869 -0.61791611 8 6 4980 3.95000000 2048315863 2048315863 -9.00000000
2.97112274 2.50901628 -0.47748408 5 8 4982 3.91800000 2048315868 2048315868 -7.00000000
3.01437616 2.54464102 0.62479925 9 9 4983 3.99400000 2048315870 2048315870 9.00000000
2.98248386 2.51771879 -0.34147620 4 10 4983 3.91800000 2048315872 2048315872 -5.00000000
3.02632737 2.55382538 0.76972347 42 11 4984 4.03400000 2048315875 2048315875 11.00000000
2.97233486 2.50737476 -0.20379621 1 12 4985 3.89400000 2048315877 2048315877 -3.00000000
3.01377702 2.54143405 0.91015196 24 13 4986 4.04600000 2048315879 2048315879 13.00000000
2.96613431 2.50037241 -0.06771534 1 14 4987 3.88000000 2048315882 2048315882 -1.00000000
3.02251530 2.54699802 1.05908751 36 15 4988 4.09200000 2048315884 2048315884 15.00000000
1.74646282 1.46805537 -0.61133057 4 0 4995 2.36200000 2048315905 2048315905 -15.00000000
2.98996067 2.51243401 0.06816910 4 1 4996 3.90600000 2048315907 2048315907 1.00000000
2.07560205 1.74348974 -0.62581384 3 2 4997 2.78200000 2048315909 2048315909 -13.00000000
2.98566389 2.50704598 0.20431957 1 3 4998 3.90400000 2048315912 2048315912 3.00000000
2.50783706 2.10581756 -0.63653880 5 4 4998 3.33600000 2048315914 2048315914 -11.00000000
2.99713326 2.51578498 0.34234777 4 5 4999 3.92800000 2048315916 2048315916 5.00000000
2.99618816 2.51410031 -0.61948049 8 6 5000 3.96000000 2048315919 2048315919 -9.00000000
3.02505350 2.53742170 0.48479626 4 7 5001 3.97800000 2048315921 2048315921 7.00000000
2.97986269 2.49862981 -0.47748408 5 8 5002 3.91800000 2048315923 2048315923 -7.00000000
3.01068854 2.52447724 0.62229627 11 9 5002 3.97800000 2048315925 2048315925 9.00000000
2.98056579 2.49833345 -0.34025601 10 10 5003 3.90400000 2048315928 2048315928 -5.00000000
3.02017522 2.53063703 0.76590729 10 11 5004 4.01400000 2048315930 2048315930 11.00000000
2.98413134 2.49954915 -0.20400555 14 12 5005 3.89800000 2048315932 2048315932 -3.00000000
3.02711248 2.53465176 0.91150165 11 13 5006 4.05200000 2048315935 2048315935 13.00000000
2.97791100 2.49257040 -0.06778514 13 14 5007 3.88400000 2048315937 2048315937 -1.00000000
3.02501917 2.53200102 1.05701697 12 15 5007 4.08400000 2048315939 2048315939 15.00000000
1.75602603 1.46566379 -0.61288351 4 0 5015 2.36800000 2048315960 2048315960 -15.00000000
2.98489356 2.49045181 0.06785496 6 1 5016 3.88800000 2048315962 2048315962 1.00000000
2.09065461 1.74372315 -0.62851322 3 2 5017 2.79400000 2048315965 2048315965 -13.00000000
3.00666904 2.50684094 0.20515695 6 3 5018 3.92000000 2048315967 2048315967 3.00000000
2.50914097 2.09202170 -0.63501233 5 4 5018 3.32800000 2048315969 2048315969 -11.00000000
2.99977469 2.50020528 0.34165052 4 5 5019 3.92000000 2048315972 2048315972 5.00000000
3.00646329 2.50489092 -0.61979336 8 6 5020 3.96200000 2048315974 2048315974 -9.00000000
3.02931619 2.52303553 0.48406503 4 7 5021 3.97200000 2048315976 2048315976 7.00000000
3.01297545 2.50853515 -0.48138392 1 8 5022 3.95000000 2048315978 2048315978 -7.00000000
3.03662252 2.52732587 0.62573785 14 9 5023 4.00000000 2048315981 2048315981 9.00000000
2.99998808 2.49683595 -0.34147620 2 10 5023 3.91800000 2048315983 2048315983 -5.00000000
3.04257321 2.53137994 0.76934189 12 11 5024 4.03200000 2048315985 2048315985 11.00000000
3.03744006 2.52531552 0.91195160 9 13 5026 4.05400000 2048315990 2048315990 13.00000000
3.01888919 2.50900149 -0.06851815 1 14 5027 3.92600000 2048315992 2048315992 -1.00000000
3.03576517 2.52213144 1.05753458 8 15 5028 4.08600000 2048315995 2048315995 15.00000000
1.75938952 1.45859957 -0.61236584 4 0 5034 2.36600000 2048316015 2048316015 -15.00000000
3.03008795 2.51116395 0.06869267 1 1 5035 3.93600000 2048316018 2048316018 1.00000000
2.09642553 1.73678064 -0.62851322 3 2 5036 2.79400000 2048316020 2048316020 -13.00000000
3.02265692 2.50322628 0.20568031 1 3 5037 3.93000000 2048316022 2048316022 3.00000000
2.52362490 2.08995080 -0.63692045 5 4 5037 3.33800000 2048316025 2048316025 -11.00000000
3.02953529 2.50803137 0.34409088 1 5 5038 3.94800000 2048316027 2048316027 5.00000000
3.01931882 2.49868560 -0.62073195 8 6 5039 3.96800000 2048316029 2048316029 -9.00000000
3.05143213 2.52436423 0.48625869 4 7 5040 3.99000000 2048316031 2048316031 7.00000000
3.02739644 2.50359035 -0.48235887 18 8 5041 3.95800000 2048316034 2048316034 -7.00000000
3.06129217 2.53162146 0.62917942 8 9 5041 4.02200000 2048316036 2048316036 9.00000000
3.01592946 2.49322104 -0.34234777 6 10 5042 3.92800000 2048316038 2048316038 -5.00000000
3.04338408 2.51502347 0.76743376 8 11 5043 4.02200000 2048316041 2048316041 11.00000000
3.00415564 2.48172307 -0.20421490 5 12 5044 3.90200000 2048316043 2048316043 -3.00000000
3.06533146 2.53136039 0.91780031 7 13 5045 4.08000000 2048316045 2048316045 13.00000000
3.01639795 2.49006557 -0.06827381 8 14 5046 3.91200000 2048316048 2048316048 -1.00000000
3.04963279 2.51750112 1.05960512 8 15 5046 4.09400000 2048316050 2048316050 15.00000000
1.76447022 1.45244932 -0.61236584 4 0 5054 2.36600000 2048316071 2048316071 -15.00000000
3.03265858 2.49548912 0.06855305 16 1 5055 3.92800000 2048316073 2048316073 1.00000000
2.08742523 1.71707249 -0.62401420 3 2 5056 2.77400000 2048316075 2048316075 -13.00000000
3.03908968 2.49900246 0.20620367 14 3 5057 3.94000000 2048316078 2048316078 3.00000000
2.53242111 2.08237576 -0.63730204 5 4 5057 3.34000000 2048316080 2048316080 -11.00000000
3.05674124 2.51262307 0.34618261 13 5 5058 3.97200000 2048316082 2048316082 5.00000000
3.04175854 2.49941778 -0.62354779 8 6 5059 3.98600000 2048316084 2048316084 -9.00000000
3.05255556 2.50739741 0.48503998 6 7 5060 3.98000000 2048316087 2048316087 7.00000000
3.03304887 2.49048805 -0.48187140 15 8 5061 3.95400000 2048316089 2048316089 -7.00000000
3.07621717 2.52593422 0.63043088 8 9 5061 4.03000000 2048316091 2048316091 9.00000000
3.04001427 2.49531937 -0.34409088 31 10 5062 3.94800000 2048316094 2048316094 -5.00000000
3.07642817 2.52431011 0.77353966 8 11 5063 4.05400000 2048316096 2048316096 11.00000000
3.02052140 2.47755480 -0.20473826 19 12 5064 3.91200000 2048316098 2048316098 -3.00000000
3.07113504 2.51817369 0.91690052 7 13 5065 4.07600000 2048316101 2048316101 13.00000000
3.03589749 2.48839474 -0.06851815 17 14 5066 3.92600000 2048316103 2048316103 -1.00000000
3.07633114 2.52153635 1.06581688 8 15 5066 4.11800000 2048316105 2048316105 15.00000000
1.77825046 1.45392704 -0.61547166 4 0 5073 2.37800000 2048316126 2048316126 -15.00000000
3.05020714 2.49301171 0.06876248 13 1 5074 3.94000000 2048316128 2048316128 1.00000000
2.10518050 1.72000468 -0.62761343 3 2 5075 2.79000000 2048316131 2048316131 -13.00000000
3.05664134 2.49649119 0.20683169 17 3 5076 3.95200000 2048316133 2048316133 3.00000000
2.53323054 2.06899905 -0.63577557 5 4 5076 3.33200000 2048316135 2048316135 -11.00000000
3.07431650 2.51003313 0.34722847 10 5 5077 3.98400000 2048316137 2048316137 5.00000000
3.06686425 2.50305653 -0.62698936 9 6 5078 4.00800000 2048316140 2048316140 -9.00000000
3.08392525 2.51608443 0.48869607 7 7 5079 4.01000000 2048316142 2048316142 7.00000000
3.06898093 2.50299978 -0.48625869 7 8 5080 3.99000000 2048316144 2048316144 -7.00000000
3.08654666 2.51642919 0.63074374 8 9 5081 4.03200000 2048316147 2048316147 9.00000000
3.07606816 2.50788617 -0.34722847 6 10 5081 3.98400000 2048316149 2048316149 -5.00000000
3.09239149 2.52029610 0.77544779 8 11 5082 4.06400000 2048316151 2048316151 11.00000000
3.07207656 2.50284719 -0.20766908 5 12 5083 3.96800000 2048316154 2048316154 -3.00000000
3.08853483 2.51535916 0.91959989 8 13 5084 4.08800000 2048316156 2048316156 13.00000000
3.08135080 2.50861382 -0.06935586 6 14 5085 3.97400000 2048316158 2048316158 -1.00000000
3.09216666 2.51741934 1.06840503 8 15 5085 4.12800000 2048316160 2048316160 15.00000000
1.76831639 1.43553507 -0.61029530 4 0 5093 2.35800000 2048316181 2048316181 -15.00000000
3.09149837 2.50881100 0.06949548 8 1 5094 3.98200000 2048316184 2048316184 1.00000000
2.11117172 1.71264577 -0.62761343 3 2 5095 2.79000000 2048316186 2048316186 -13.00000000
3.08550382 2.50216031 0.20819244 6 3 5096 3.97800000 2048316188 2048316188 3.00000000
2.53433776 2.05519748 -0.63424909 5 4 5096 3.32400000 2048316190 2048316190 -11.00000000
3.10163212 2.51434231 0.34932020 6 5 5097 4.00800000 2048316193 2048316193 5.00000000
3.08018708 2.49606705 -0.62792796 11 6 5098 4.01400000 2048316195 2048316195 -9.00000000
3.10965657 2.51904917 0.49137720 7 7 5099 4.03200000 2048316197 2048316197 7.00000000
3.09312654 2.50476432 -0.48869607 8 8 5100 4.01000000 2048316200 2048316200 -7.00000000
3.11220098 2.51931143 0.63418531 8 9 5101 4.05400000 2048316202 2048316202 9.00000000
3.09409523 2.50465488 -0.34827435 8 10 5101 3.99600000 2048316204 2048316204 -5.00000000
3.11795783 2.52307105 0.77964556 8 11 5102 4.08600000 2048316207 2048316207 11.00000000
3.09632254 2.50466943 -0.20871580 7 12 5103 3.98800000 2048316209 2048316209 -3.00000000
3.11699533 2.52049208 0.92544866 8 13 5104 4.11400000 2048316211 2048316211 13.00000000
3.09319901 2.50035691 -0.06942567 6 14 5105 3.97800000 2048316213 2048316213 -1.00000000
3.11489606 2.51699686 1.07306373 8 15 5106 4.14600000 2048316216 2048316216 15.00000000
1.77331662 1.42935371 -0.61029530 4 0 5113 2.35800000 2048316237 2048316237 -15.00000000
3.11113691 2.50678682 0.06973982 6 1 5114 3.99600000 2048316239 2048316239 1.00000000
2.11410165 1.70282114 -0.62671363 3 2 5115 2.78600000 2048316241 2048316241 -13.00000000
3.12377691 2.51517367 0.21018121 7 3 5116 4.01600000 2048316243 2048316243 3.00000000
2.54302549 2.04756975 -0.63463074 5 4 5116 3.32600000 2048316246 2048316246 -11.00000000
3.11970258 2.51099586 0.35036609 6 5 5117 4.02000000 2048316248 2048316248 5.00000000
3.10734987 2.50015974 -0.63168240 11 6 5118 4.03800000 2048316250 2048316250 -9.00000000
3.13853979 2.52435279 0.49454579 7 7 5119 4.05800000 2048316253 2048316253 7.00000000
3.11886859 2.50763464 -0.49137720 10 8 5120 4.03200000 2048316255 2048316255 -7.00000000
3.13637304 2.52080750 0.63731402 8 9 5121 4.07400000 2048316257 2048316257 9.00000000
3.10592508 2.49633551 -0.34862298 9 10 5121 4.00000000 2048316260 2048316260 -5.00000000
3.13592887 2.51954985 0.78193527 8 11 5122 4.09800000 2048316262 2048316262 11.00000000
3.12217569 2.50760341 -0.20986718 7 12 5123 4.01000000 2048316264 2048316264 -3.00000000
3.13337255 2.51569653 0.92769814 7 13 5124 4.12400000 2048316266 2048316266 13.00000000
3.12374139 2.50706744 -0.06991434 7 14 5125 4.00600000 2048316269 2048316269 -1.00000000
3.13226533 2.51390862 1.07616961 8 15 5125 4.15800000 2048316271 2048316271 15.00000000
1.78432834 1.42798328 -0.61236584 4 0 5133 2.36600000 2048316292 2048316292 -15.00000000
3.12611413 2.50090837 0.06987944 8 1 5134 4.00400000 2048316294 2048316294 1.00000000
2.12612057 1.70029962 -0.62851322 3 2 5135 2.79400000 2048316296 2048316296 -13.00000000
3.14813757 2.51672578 0.21122792 8 3 5136 4.03600000 2048316299 2048316299 3.00000000
2.55475760 2.04235816 -0.63577557 5 4 5136 3.33200000 2048316301 2048316301 -11.00000000
3.14712572 2.51501656 0.35245782 6 5 5137 4.04400000 2048316303 2048316303 5.00000000
3.12840509 2.49916124 -0.63418531 11 6 5138 4.05400000 2048316306 2048316306 -9.00000000
3.15353703 2.51833677 0.49552074 7 7 5139 4.06600000 2048316308 2048316308 7.00000000
3.14156532 2.50787854 -0.49357083 10 8 5140 4.05000000 2048316310 2048316310 -7.00000000
3.15596128 2.51846910 0.63950408 8 9 5141 4.08800000 2048316313 2048316313 9.00000000
3.13642240 2.50287700 -0.35106334 9 10 5141 4.02800000 2048316315 2048316315 -5.00000000
3.14777422 2.51103663 0.78269851 8 11 5142 4.10200000 2048316317 2048316317 11.00000000
3.13871765 2.50291586 -0.21039054 7 12 5143 4.02000000 2048316319 2048316319 -3.00000000
3.16803980 2.52539396 0.93534648 9 13 5144 4.15800000 2048316322 2048316322 13.00000000
3.14654875 2.50736427 -0.07022848 7 14 5145 4.02400000 2048316324 2048316324 -1.00000000
3.16066217 2.51861072 1.08289886 8 15 5145 4.18400000 2048316326 2048316326 15.00000000
1.79232717 1.42414975 -0.61340111 4 0 5153 2.37000000 2048316347 2048316347 -15.00000000
3.15204930 2.50366235 0.07026339 8 1 5154 4.02600000 2048316349 2048316349 1.00000000
2.12593818 1.68802059 -0.62671363 3 2 5155 2.78600000 2048316352 2048316352 -13.00000000
3.16585112 2.51372409 0.21185595 8 3 5155 4.04800000 2048316354 2048316354 3.00000000
2.57109761 2.04075122 -0.63806528 5 4 5156 3.34400000 2048316356 2048316356 -11.00000000
3.17461491 2.51887631 0.35454956 6 5 5157 4.06800000 2048316359 2048316359 5.00000000
3.14949083 2.49804616 -0.63668829 11 6 5158 4.07000000 2048316361 2048316361 -9.00000000
3.17164135 2.51471329 0.49698317 7 7 5159 4.07800000 2048316363 2048316363 7.00000000
3.16119027 2.50552845 -0.49527702 10 8 5160 4.06400000 2048316365 2048316365 -7.00000000
3.17513204 2.51657867 0.64169419 8 9 5160 4.10200000 2048316368 2048316368 9.00000000
3.16231799 2.50552392 -0.35298076 9 10 5161 4.05000000 2048316370 2048316370 -5.00000000
3.17806625 2.51709867 0.78804117 8 11 5162 4.13000000 2048316372 2048316372 11.00000000
3.15526485 2.49814320 -0.21091390 7 12 5163 4.03000000 2048316375 2048316375 -3.00000000
3.18600416 2.52157640 0.93804592 8 13 5164 4.17000000 2048316377 2048316377 13.00000000
3.16469121 2.50380993 -0.07043792 7 14 5165 4.03600000 2048316379 2048316379 -1.00000000
3.18912983 2.52314496 1.08962822 8 15 5165 4.21000000 2048316382 2048316382 15.00000000
1.80032086 1.42027771 -0.61443639 4 0 5173 2.37400000 2048316402 2048316402 -15.00000000
3.17333078 2.50255060 0.07054263 8 1 5174 4.04200000 2048316405 2048316405 1.00000000
2.13181734 1.68058932 -0.62671363 3 2 5175 2.78600000 2048316407 2048316407 -13.00000000
3.17818046 2.50457621 0.21206529 7 3 5176 4.05200000 2048316409 2048316409 3.00000000
2.56432772 2.02082729 -0.63463074 5 4 5176 3.32600000 2048316412 2048316412 -11.00000000
3.19434381 2.51641011 0.35576975 6 5 5177 4.08200000 2048316414 2048316414 5.00000000
3.16284728 2.49070358 -0.63762689 11 6 5178 4.07600000 2048316416 2048316416 -9.00000000
3.19755769 2.51713347 0.49966431 7 7 5179 4.10000000 2048316418 2048316418 7.00000000
3.17927694 2.50184417 -0.49673945 8 8 5180 4.07600000 2048316421 2048316421 -7.00000000
3.20141292 2.51835895 0.64513576 8 9 5181 4.12400000 2048316423 2048316423 9.00000000
3.18357229 2.50432467 -0.35437524 9 10 5181 4.06600000 2048316425 2048316425 -5.00000000
3.19917941 2.51569819 0.79109412 8 11 5182 4.14600000 2048316428 2048316428 11.00000000
3.17966771 2.49945712 -0.21196063 7 12 5183 4.05000000 2048316430 2048316430 -3.00000000
3.20091581 2.51525593 0.93984550 8 13 5184 4.17800000 2048316432 2048316432 13.00000000
3.18599224 2.50262976 -0.07071715 7 14 5185 4.05200000 2048316435 2048316435 -1.00000000
3.21962810 2.52814245 1.09687507 8 15 5186 4.23800000 2048316437 2048316437 15.00000000
1.79918408 1.40921986 -0.61236584 4 0 5193 2.36600000 2048316458 2048316458 -15.00000000
3.20251536 2.50748444 0.07099639 7 1 5194 4.06800000 2048316460 2048316460 1.00000000
2.14073992 1.67553985 -0.62761343 3 2 5195 2.79000000 2048316462 2048316462 -13.00000000
3.21006012 2.51248837 0.21363537 7 3 5195 4.08200000 2048316465 2048316465 3.00000000
2.56672740 2.00823450 -0.63348585 5 4 5196 3.32000000 2048316467 2048316467 -11.00000000
3.21880198 2.51751900 0.35751286 6 5 5197 4.10200000 2048316469 2048316469 5.00000000
3.19642138 2.49911547 -0.64263278 9 6 5198 4.10800000 2048316471 2048316471 -9.00000000
3.22196507 2.51818085 0.50210172 7 7 5199 4.12000000 2048316474 2048316474 7.00000000
3.20676184 2.50539684 -0.49966431 10 8 5200 4.10000000 2048316476 2048316476 -7.00000000
3.21485448 2.51081610 0.64607435 8 9 5201 4.13000000 2048316478 2048316478 9.00000000
3.20014572 2.49932861 -0.35524681 9 10 5201 4.07600000 2048316481 2048316481 -5.00000000
3.22651124 2.51901364 0.79567349 8 11 5202 4.17000000 2048316483 2048316483 11.00000000
3.20254374 2.49940205 -0.21290267 7 12 5203 4.06800000 2048316485 2048316485 -3.00000000
3.22504091 2.51605415 0.94434452 8 13 5204 4.19800000 2048316488 2048316488 13.00000000
3.20890045 2.50256133 -0.07103129 7 14 5205 4.07000000 2048316490 2048316490 -1.00000000
3.23713398 2.52458024 1.09998095 8 15 5205 4.25000000 2048316492 2048316492 15.00000000
1.81019223 1.40767467 -0.61443639 4 0 5213 2.37400000 2048316513 2048316513 -15.00000000
3.21282744 2.49751759 0.07103129 7 1 5214 4.07000000 2048316515 2048316515 1.00000000
2.15273070 1.67284000 -0.62941307 3 2 5215 2.79800000 2048316517 2048316517 -13.00000000
3.23142743 2.51107192 0.21447276 7 3 5215 4.09800000 2048316520 2048316520 3.00000000
2.57992363 2.00408030 -0.63501233 5 4 5216 3.32800000 2048316522 2048316522 -11.00000000
3.23543859 2.51237774 0.35838440 6 5 5217 4.11200000 2048316524 2048316524 5.00000000
3.21136713 2.49278760 -0.64388424 9 6 5218 4.11600000 2048316527 2048316527 -9.00000000
3.25269198 2.52395606 0.50551403 7 7 5219 4.14800000 2048316529 2048316529 7.00000000
3.22803593 2.50392151 -0.50161421 10 8 5220 4.11600000 2048316531 2048316531 -7.00000000
3.25013757 2.52015662 0.65139312 8 9 5221 4.16400000 2048316534 2048316534 9.00000000
3.22144651 2.49790978 -0.35664129 9 10 5221 4.09200000 2048316536 2048316536 -5.00000000
3.25235319 2.52096581 0.79987133 8 11 5222 4.19200000 2048316538 2048316538 11.00000000
3.22861528 2.50166416 -0.21405406 7 12 5223 4.09000000 2048316541 2048316541 -3.00000000
3.25075102 2.51790786 0.94929343 8 13 5224 4.22000000 2048316543 2048316543 13.00000000
3.22868443 2.49991465 -0.07127563 7 14 5225 4.08400000 2048316545 2048316545 -1.00000000
3.25509167 2.52036142 1.10308683 8 15 5225 4.26200000 2048316547 2048316547 15.00000000
1.80897832 1.39662504 -0.61236584 4 0 5233 2.36600000 2048316568 2048316568 -15.00000000
3.22944117 2.49239635 0.07120582 7 1 5234 4.08000000 2048316570 2048316570 1.00000000
2.14929938 1.65817320 -0.62671363 3 2 5235 2.78600000 2048316573 2048316573 -13.00000000
3.25642490 2.51140833 0.21551947 7 3 5236 4.11800000 2048316575 2048316575 3.00000000
2.59001255 1.99746037 -0.63577557 5 4 5236 3.33200000 2048316577 2048316577 -11.00000000
3.25996780 2.51323342 0.36012754 6 5 5237 4.13200000 2048316580 2048316580 5.00000000
3.22004914 2.48156261 -0.64388424 9 6 5238 4.11600000 2048316582 2048316582 -9.00000000
3.27249050 2.52106690 0.50722021 7 7 5239 4.16200000 2048316584 2048316584 7.00000000
3.25877547 2.50959492 -0.50502658 8 8 5240 4.14400000 2048316587 2048316587 -7.00000000
3.27256250 2.52021241 0.65420896 8 9 5240 4.18200000 2048316589 2048316589 9.00000000
3.24909139 2.50123405 -0.35873303 9 10 5241 4.11600000 2048316591 2048316591 -5.00000000
3.26268911 2.51079488 0.80025291 8 11 5242 4.19400000 2048316594 2048316594 11.00000000
3.24840951 2.49890351 -0.21478677 7 12 5243 4.10400000 2048316596 2048316596 -3.00000000
3.28269219 2.52436447 0.95604199 8 13 5244 4.25000000 2048316598 2048316598 13.00000000
3.25007439 2.49837899 -0.07155487 7 14 5245 4.10000000 2048316600 2048316600 -1.00000000
3.28268933 2.52253914 1.10929847 8 15 5246 4.28600000 2048316603 2048316603 15.00000000
1.82917500 1.40205431 -0.61754227 4 0 5253 2.38600000 2048316623 2048316623 -15.00000000
3.26510596 2.50178432 0.07179920 7 1 5254 4.11400000 2048316626 2048316626 1.00000000
2.15507436 1.65066075 -0.62671363 3 2 5255 2.78600000 2048316628 2048316628 -13.00000000
3.27900553 2.51152611 0.21646151 7 3 5255 4.13600000 2048316630 2048316630 3.00000000
2.60164571 1.99198794 -0.63692045 5 4 5256 3.33800000 2048316633 2048316633 -11.00000000
3.28454232 2.51394820 0.36187065 6 5 5257 4.15200000 2048316635 2048316635 5.00000000
3.23496699 2.47510886 -0.64513576 9 6 5258 4.12400000 2048316637 2048316637 -9.00000000
3.29230809 2.51807022 0.50892639 7 7 5259 4.17600000 2048316640 2048316640 7.00000000
3.27066970 2.50061584 -0.50551403 8 8 5260 4.14800000 2048316642 2048316642 -7.00000000
3.30061126 2.52259517 0.65796334 8 9 5261 4.20600000 2048316644 2048316644 9.00000000
3.27046657 2.49955606 -0.36012754 9 10 5261 4.13200000 2048316647 2048316647 -5.00000000
3.29483438 2.51726913 0.80597723 8 11 5262 4.22400000 2048316649 2048316649 11.00000000
3.25869966 2.48876143 -0.21489143 7 12 5263 4.10600000 2048316651 2048316651 -3.00000000
3.30077744 2.51998544 0.95874137 8 13 5264 4.26200000 2048316653 2048316653 13.00000000
3.27626157 2.50036383 -0.07193882 7 14 5265 4.12200000 2048316656 2048316656 -1.00000000
3.30222607 2.51926732 1.11292195 8 15 5266 4.30000000 2048316658 2048316658 15.00000000
1.82305431 1.38778985 -0.61391878 4 0 5272 2.37200000 2048316679 2048316679 -15.00000000
3.28611493 2.50063062 0.07207844 7 1 5273 4.13000000 2048316681 2048316681 1.00000000
2.15433216 1.63878584 -0.62491405 3 2 5274 2.77800000 2048316683 2048316683 -13.00000000
3.28890562 2.50184798 0.21656619 7 3 5274 4.13800000 2048316686 2048316686 3.00000000
2.59573507 1.97384286 -0.63386750 6 4 5275 3.32200000 2048316688 2048316688 -11.00000000
3.30713606 2.51389384 0.36343944 7 5 5276 4.17000000 2048316690 2048316690 5.00000000
3.25259399 2.47153854 -0.64701295 11 6 5277 4.13600000 2048316693 2048316693 -9.00000000
3.31328630 2.51674461 0.51087630 7 7 5278 4.19200000 2048316695 2048316695 7.00000000
3.29475379 2.50176072 -0.50795144 8 8 5279 4.16800000 2048316697 2048316697 -7.00000000
3.31638598 2.51818633 0.65952772 8 9 5279 4.21600000 2048316700 2048316700 9.00000000
3.29460740 2.50074315 -0.36187065 9 10 5280 4.15200000 2048316702 2048316702 -5.00000000
3.32349563 2.52175641 0.81093824 8 11 5281 4.25000000 2048316704 2048316704 11.00000000
3.29398680 2.49846029 -0.21667086 7 12 5282 4.14000000 2048316706 2048316706 -3.00000000
3.31532741 2.51373553 0.96054101 8 13 5283 4.27000000 2048316709 2048316709 13.00000000
3.29887795 2.50035667 -0.07225296 7 14 5284 4.14000000 2048316711 2048316711 -1.00000000
3.32596016 2.51996946 1.11809826 8 15 5285 4.32000000 2048316713 2048316713 15.00000000
1.82326388 1.37792337 -0.61236584 4 0 5292 2.36600000 2048316734 2048316734 -15.00000000
3.32354379 2.51084185 0.07270672 7 1 5293 4.16600000 2048316736 2048316736 1.00000000
2.16937017 1.63830233 -0.62761343 3 2 5294 2.79000000 2048316739 2048316739 -13.00000000
3.31833839 2.50599980 0.21792692 7 3 5294 4.16400000 2048316741 2048316741 3.00000000
2.59790850 1.96122134 -0.63272262 6 4 5295 3.31600000 2048316743 2048316743 -11.00000000
3.32543325 2.50953555 0.36448532 7 5 5296 4.18200000 2048316746 2048316746 5.00000000
3.27381730 2.46968699 -0.64951593 9 6 5297 4.15200000 2048316748 2048316748 -9.00000000
3.33790064 2.51711583 0.51331365 7 7 5298 4.21200000 2048316750 2048316750 7.00000000
3.31614780 2.49980402 -0.50990134 8 8 5299 4.18400000 2048316753 2048316753 -7.00000000
3.32515597 2.50659466 0.65952772 8 9 5299 4.21600000 2048316755 2048316755 9.00000000
3.31286359 2.49642181 -0.36291650 9 10 5300 4.16400000 2048316757 2048316757 -5.00000000
3.34639120 2.52077103 0.81437278 8 11 5301 4.26800000 2048316759 2048316759 11.00000000
3.32502508 2.50376678 -0.21813627 7 12 5302 4.16800000 2048316762 2048316762 -3.00000000
3.33653736 2.51152325 0.96414024 7 13 5303 4.28600000 2048316764 2048316764 13.00000000
3.31078148 2.49123096 -0.07232277 7 14 5304 4.14400000 2048316766 2048316766 -1.00000000
3.34091163 2.51298928 1.12016881 8 15 5305 4.32800000 2048316769 2048316769 15.00000000
1.82318795 1.36839068 -0.61081296 3 0 5311 2.36000000 2048316789 2048316789 -15.00000000
3.32865262 2.49740672 0.07263692 7 1 5312 4.16200000 2048316792 2048316792 1.00000000
2.17790914 1.63343787 -0.62851322 3 2 5313 2.79400000 2048316794 2048316794 -13.00000000
3.34899950 2.51175904 0.21939233 7 3 5313 4.19200000 2048316796 2048316796 3.00000000
2.61539364 1.96083939 -0.63539398 5 4 5314 3.33000000 2048316799 2048316799 -11.00000000
3.34489703 2.50685835 0.36570549 7 5 5315 4.19600000 2048316801 2048316801 5.00000000
3.27882719 2.45644808 -0.64889014 11 6 5316 4.14800000 2048316803 2048316803 -9.00000000
3.36211848 2.51793265 0.51575106 7 7 5317 4.23200000 2048316805 2048316805 7.00000000
3.33872128 2.49950075 -0.51209497 8 8 5318 4.20200000 2048316808 2048316808 -7.00000000
3.35875106 2.51449585 0.66453362 8 9 5318 4.24800000 2048316810 2048316810 9.00000000
3.34026575 2.49974751 -0.36500826 9 10 5319 4.18800000 2048316812 2048316812 -5.00000000
3.36888027 2.52024460 0.81780738 8 11 5320 4.28600000 2048316815 2048316815 11.00000000
3.35090375 2.50588441 -0.21928766 8 12 5321 4.19000000 2048316817 2048316817 -3.00000000
3.36201644 2.51327991 0.96908915 8 13 5322 4.30800000 2048316819 2048316819 13.00000000
3.35106134 2.50417876 -0.07302087 7 14 5323 4.18400000 2048316822 2048316822 -1.00000000
3.37200236 2.51982737 1.12793338 8 15 5323 4.35800000 2048316824 2048316824 15.00000000
1.82950258 1.36317253 -0.61133057 4 0 5331 2.36200000 2048316845 2048316845 -15.00000000
3.35017967 2.49532819 0.07291616 7 1 5332 4.17800000 2048316847 2048316847 1.00000000
2.17734528 1.62117040 -0.62671363 3 2 5333 2.78600000 2048316849 2048316849 -13.00000000
3.37376666 2.51198125 0.22043905 7 3 5333 4.21200000 2048316852 2048316852 3.00000000
2.62222219 1.95169795 -0.63539398 5 4 5334 3.33000000 2048316854 2048316854 -11.00000000
3.36961222 2.50706029 0.36744860 7 5 5335 4.21600000 2048316856 2048316856 5.00000000
3.28896689 2.44616675 -0.64920300 9 6 5336 4.15000000 2048316858 2048316858 -9.00000000
3.38363147 2.51565647 0.51770097 7 7 5337 4.24800000 2048316861 2048316861 7.00000000
3.36495161 2.50085640 -0.51477611 8 8 5338 4.22400000 2048316863 2048316863 -7.00000000
3.38494802 2.51571798 0.66797519 8 9 5338 4.27000000 2048316865 2048316865 9.00000000
3.36336517 2.49876618 -0.36657706 9 10 5339 4.20600000 2048316868 2048316868 -5.00000000
3.38080931 2.51081061 0.81857061 8 11 5340 4.29000000 2048316870 2048316870 11.00000000
3.36283779 2.49655318 -0.21949700 8 12 5341 4.19400000 2048316872 2048316872 -3.00000000
3.39267731 2.51778769 0.97538775 8 13 5342 4.33600000 2048316875 2048316875 13.00000000
3.37584233 2.50438046 -0.07336992 7 14 5343 4.20400000 2048316877 2048316877 -1.00000000
3.39207745 2.51550674 1.13155687 8 15 5344 4.37200000 2048316879 2048316879 15.00000000
1.83735597 1.35907578 -0.61236584 4 0 5351 2.36600000 2048316900 2048316900 -15.00000000
3.38459563 2.50264120 0.07347463 7 1 5352 4.21000000 2048316902 2048316902 1.00000000
2.17672253 1.60892689 -0.62491405 3 2 5353 2.77800000 2048316905 2048316905 -13.00000000
3.39580154 2.50909400 0.22127642 7 3 5354 4.22800000 2048316907 2048316907 3.00000000
2.62743998 1.94136608 -0.63501233 9 4 5354 3.32800000 2048316909 2048316909 -11.00000000
3.40077972 2.51185489 0.36988896 7 5 5355 4.24400000 2048316911 2048316911 5.00000000
3.29748559 2.43467116 -0.64920300 9 6 5356 4.15000000 2048316914 2048316914 -9.00000000
3.40197515 2.51090312 0.51916343 7 7 5357 4.26000000 2048316916 2048316916 7.00000000
3.37685537 2.49145246 -0.51526356 8 8 5358 4.22800000 2048316918 2048316918 -7.00000000
3.41437316 2.51913309 0.67204249 8 9 5358 4.29600000 2048316921 2048316921 9.00000000
