# .PCD v0.7 - Point Cloud Data file format
VERSION 0.7
FIELDS x y z intensity laser_id azimuth distance_m adjustedtime timestamp vertical_angle
SIZE 4 4 4 1 1 2 8 8 4 8
TYPE F F F U U U F U U F
COUNT 1 1 1 1 1 1 1 1 1 1
WIDTH 541
HEIGHT 1
VIEWPOINT 0 0 0 1 0 0 0
POINTS 541
DATA ascii
0.08906075 2.64294028 -0.61051714 3 2 193 2.71400000 2048502534 2048502534 -13.00000000
0.38912606 11.54758930 0.60552704 2 3 193 11.57000000 2048502536 2048502536 3.00000000
0.10793411 3.18649769 -0.61974764 2 4 194 3.24800000 2048502538 2048502538 -11.00000000
0.83341295 24.47826004 2.14281106 37 5 195 24.58600000 2048502541 2048502541 5.00000000
0.25213915 7.36779261 -1.16762686 13 6 196 7.46400000 2048502543 2048502543 -9.00000000
0.63463157 18.45044708 2.26676989 42 7 197 18.60000000 2048502545 2048502545 7.00000000
0.16584146 4.79708719 -0.58936012 4 8 198 4.83600000 2048502548 2048502548 -7.00000000
0.51106000 14.78278923 2.34276247 15 9 198 14.97600000 2048502550 2048502550 9.00000000
0.28068703 8.07824898 -0.70718169 4 10 199 8.11400000 2048502552 2048502552 -5.00000000
0.37334689 10.69125652 2.07943654 50 11 200 10.89800000 2048502554 2048502554 11.00000000
0.26885846 7.66076374 -0.40173081 12 12 201 7.67600000 2048502557 2048502557 -3.00000000
0.36515534 10.35306454 2.39167953 48 13 202 10.63200000 2048502559 2048502559 13.00000000
0.26159275 7.38024044 -0.12890348 6 14 203 7.38600000 2048502561 2048502561 -1.00000000
0.31764171 8.91756725 2.39097023 38 15 204 9.23800000 2048502564 2048502564 15.00000000
0.08215186 2.22977591 -0.59787202 4 0 211 2.31000000 2048502584 2048502584 -15.00000000
0.51752079 13.98029327 0.24419408 3 1 212 13.99200000 2048502587 2048502587 1.00000000
0.09857550 2.65040278 -0.61231679 3 2 213 2.72200000 2048502589 2048502589 -13.00000000
0.42950651 11.54815674 0.60563171 2 3 213 11.57200000 2048502591 2048502591 3.00000000
0.11832330 3.16648269 -0.61593145 2 4 214 3.22800000 2048502594 2048502594 -11.00000000
0.91847920 24.46524620 2.14193964 30 5 215 24.57600000 2048502596 2048502596 5.00000000
0.27770710 7.36291981 -1.16700113 9 6 216 7.46000000 2048502598 2048502598 -9.00000000
0.69918209 18.45208740 2.26725721 44 7 217 18.60400000 2048502600 2048502600 7.00000000
0.20063253 5.27057314 -0.64761370 2 8 218 5.31400000 2048502603 2048502603 -7.00000000
0.47046000 12.35888195 1.95887232 13 9 218 12.52200000 2048502605 2048502605 9.00000000
0.41021189 10.67811680 2.07714677 43 11 220 10.88600000 2048502610 2048502610 11.00000000
0.29536682 7.65379143 -0.40141678 12 12 221 7.67000000 2048502612 2048502612 -3.00000000
0.40144303 10.35562229 2.39257932 46 13 222 10.63600000 2048502614 2048502614 13.00000000
0.28735301 7.37928247 -0.12890348 12 14 223 7.38600000 2048502617 2048502617 -1.00000000
0.34653515 8.89909172 2.38631153 40 15 223 9.22000000 2048502619 2048502619 15.00000000
0.09047979 2.24298739 -0.60149544 4 0 231 2.32400000 2048502640 2048502640 -15.00000000
0.56364661 13.91246605 0.24304222 7 1 232 13.92600000 2048502642 2048502642 1.00000000
0.10750963 2.64225411 -0.61051714 3 2 233 2.71400000 2048502644 2048502644 -13.00000000
0.46875891 11.52064419 0.60427094 2 3 233 11.54600000 2048502647 2048502647 3.00000000
0.13001694 3.18174314 -0.61898440 2 4 234 3.24400000 2048502649 2048502649 -11.00000000
1.00346482 24.45193672 2.14106798 30 5 235 24.56600000 2048502651 2048502651 5.00000000
0.30332547 7.35993195 -1.16668820 11 6 236 7.45800000 2048502653 2048502653 -9.00000000
0.76325929 18.44160080 2.26628232 42 7 237 18.59600000 2048502656 2048502656 7.00000000
0.32850233 7.90376902 -0.97129869 2 8 238 7.97000000 2048502658 2048502658 -7.00000000
0.51343364 12.35321712 1.95824659 13 9 238 12.51800000 2048502660 2048502660 9.00000000
0.42847025 10.26581478 -0.89892435 4 10 239 10.31400000 2048502663 2048502663 -5.00000000
0.44682527 10.66092777 2.07409382 43 11 240 10.87000000 2048502665 2048502665 11.00000000
0.32166183 7.64273643 -0.40089342 12 12 241 7.66000000 2048502667 2048502667 -3.00000000
0.43758845 10.35415745 2.39257932 47 13 242 10.63600000 2048502670 2048502670 13.00000000
0.31243148 7.36225128 -0.12862423 22 14 243 7.37000000 2048502672 2048502672 -1.00000000
0.37997207 8.91706276 2.39148808 40 15 244 9.24000000 2048502674 2048502674 15.00000000
0.09853026 2.23878074 -0.60046017 4 0 252 2.32000000 2048502695 2048502695 -15.00000000
0.61269259 13.86635590 0.24227430 3 1 253 13.88200000 2048502697 2048502697 1.00000000
0.11771142 2.65352321 -0.61321658 3 2 254 2.72600000 2048502700 2048502700 -13.00000000
0.51352459 11.53073120 0.60489899 2 3 255 11.55800000 2048502702 2048502702 3.00000000
0.14220181 3.19301319 -0.62127411 4 4 255 3.25600000 2048502704 2048502704 -11.00000000
1.09263396 24.43814278 2.14019632 30 5 256 24.55600000 2048502706 2048502706 5.00000000
0.33012176 7.35482407 -1.16606247 15 6 257 7.45400000 2048502709 2048502709 -9.00000000
0.83013117 18.42281342 2.26433229 40 7 258 18.58000000 2048502711 2048502711 7.00000000
0.35190725 7.77956200 -0.95618689 2 8 259 7.84600000 2048502713 2048502713 -7.00000000
0.55915332 12.36111927 1.95981097 13 9 259 12.52800000 2048502716 2048502716 9.00000000
0.48534456 10.68811703 -0.93605268 4 10 260 10.74000000 2048502718 2048502718 -5.00000000
0.48562831 10.65333462 2.07294893 40 11 261 10.86400000 2048502720 2048502720 11.00000000
0.34830222 7.61157846 -0.39932334 12 12 262 7.63000000 2048502723 2048502723 -3.00000000
0.47517774 10.34469700 2.39077973 48 13 263 10.62800000 2048502725 2048502725 13.00000000
0.41074017 8.90796280 2.38941741 42 15 264 9.23200000 2048502730 2048502730 15.00000000
0.10707787 2.25386071 -0.60460126 4 0 272 2.33600000 2048502750 2048502750 -15.00000000
0.35049945 7.35052729 0.12844971 3 1 273 7.36000000 2048502753 2048502753 1.00000000
0.12678692 2.64920306 -0.61231679 3 2 274 2.72200000 2048502755 2048502755 -13.00000000
0.55166310 11.48497868 0.60259622 2 3 275 11.51400000 2048502757 2048502757 3.00000000
0.35190606 7.32627153 -1.42572486 4 4 275 7.47200000 2048502759 2048502759 -11.00000000
1.17735660 24.42223930 2.13915062 30 5 276 24.54400000 2048502762 2048502762 5.00000000
0.35560197 7.34968042 -1.16543674 9 6 277 7.45000000 2048502764 2048502764 -9.00000000
0.89453000 18.42178726 2.26457620 40 7 278 18.58200000 2048502766 2048502766 7.00000000
0.37780473 7.75251055 -0.95301825 4 8 279 7.82000000 2048502769 2048502769 -7.00000000
0.60426229 12.35504055 1.95918524 13 9 280 12.52400000 2048502771 2048502771 9.00000000
0.52566725 10.74804783 -0.94145632 9 10 280 10.80200000 2048502773 2048502773 -5.00000000
0.52300495 10.65549660 2.07371211 40 11 281 10.86800000 2048502776 2048502776 11.00000000
0.37585208 7.63026476 -0.40037006 12 12 282 7.65000000 2048502778 2048502778 -3.00000000
0.51070726 10.33129787 2.38808036 48 13 283 10.61600000 2048502780 2048502780 13.00000000
0.44309857 8.90060902 2.38786459 40 15 285 9.22600000 2048502785 2048502785 15.00000000
0.11366936 2.24386621 -0.60201311 3 0 290 2.32600000 2048502806 2048502806 -15.00000000
0.37501130 7.37734938 0.12893838 3 1 291 7.38800000 2048502808 2048502808 1.00000000
0.13570462 2.66046906 -0.61501616 3 2 292 2.73400000 2048502810 2048502810 -13.00000000
0.58927280 11.51310921 0.60416627 2 3 293 11.54400000 2048502812 2048502812 3.00000000
0.37421796 7.31140518 -1.42305350 5 4 293 7.45800000 2048502815 2048502815 -11.00000000
1.25264478 24.39056396 2.13671017 37 5 294 24.51600000 2048502817 2048502817 5.00000000
0.37919816 7.35839081 -1.16700113 9 6 295 7.46000000 2048502819 2048502819 -9.00000000
0.95270675 18.42483330 2.26530743 40 7 296 18.58800000 2048502822 2048502822 7.00000000
0.40390655 7.78498650 -0.95716184 2 8 297 7.85400000 2048502824 2048502824 -7.00000000
0.64061069 12.34727573 1.95824659 13 9 297 12.51800000 2048502826 2048502826 9.00000000
0.55901629 10.73838520 -0.94075906 9 10 298 10.79400000 2048502829 2048502829 -5.00000000
0.55657995 10.65576172 2.07409382 43 11 299 10.87000000 2048502831 2048502831 11.00000000
0.39940324 7.62106800 -0.39995137 12 12 300 7.64200000 2048502833 2048502833 -3.00000000
0.54316145 10.32964230 2.38808036 48 13 301 10.61600000 2048502836 2048502836 13.00000000
0.38833126 7.36064053 -0.12865914 8 14 302 7.37200000 2048502838 2048502838 -1.00000000
0.46909809 8.89153862 2.38579392 40 15 302 9.21800000 2048502840 2048502840 15.00000000
0.12097886 2.23381066 -0.59942490 4 0 310 2.31600000 2048502861 2048502861 -15.00000000
0.68229145 12.55756283 0.21951637 10 1 311 12.57800000 2048502863 2048502863 1.00000000
0.14562696 2.67165422 -0.61771560 3 2 312 2.74600000 2048502865 2048502865 -13.00000000
0.62934840 11.50898743 0.60406160 5 3 313 11.54200000 2048502868 2048502868 3.00000000
0.39995164 7.31397486 -1.42381668 9 4 313 7.46200000 2048502870 2048502870 -11.00000000
1.33755779 24.38206482 2.13636160 30 5 314 24.51200000 2048502872 2048502872 5.00000000
0.40466434 7.35307789 -1.16637540 9 6 315 7.45600000 2048502875 2048502875 -9.00000000
1.01679683 18.41743088 2.26481986 44 7 316 18.58400000 2048502877 2048502877 7.00000000
0.43788472 7.90641689 -0.97227365 2 8 317 7.97800000 2048502879 2048502879 -7.00000000
0.68586141 12.34484482 1.95824659 13 9 318 12.51800000 2048502882 2048502882 9.00000000
0.58876014 10.59711552 -0.92855728 4 10 318 10.65400000 2048502884 2048502884 -5.00000000
0.59344435 10.64787292 2.07294893 40 11 319 10.86400000 2048502886 2048502886 11.00000000
0.42555735 7.61165094 -0.39953268 12 12 320 7.63400000 2048502888 2048502888 -3.00000000
0.57921529 10.32768345 2.38808036 50 13 321 10.61600000 2048502891 2048502891 13.00000000
0.41458395 7.36922312 -0.12883367 8 14 322 7.38200000 2048502893 2048502893 -1.00000000
0.50135756 8.88397312 2.38424110 40 15 323 9.21200000 2048502895 2048502895 15.00000000
0.12910919 2.23916078 -0.60097784 3 0 330 2.32200000 2048502916 2048502916 -15.00000000
0.72000200 12.44929695 0.21766642 10 1 331 12.47200000 2048502918 2048502918 1.00000000
0.15427475 2.65945673 -0.61501616 3 2 332 2.73400000 2048502921 2048502921 -13.00000000
0.66951847 11.50672054 0.60406160 2 3 333 11.54200000 2048502923 2048502923 3.00000000
0.42559379 7.31449413 -1.42419839 12 4 333 7.46400000 2048502925 2048502925 -11.00000000
1.42091775 24.34741211 2.13374686 37 5 334 24.48200000 2048502928 2048502928 5.00000000
0.42975175 7.34176016 -1.16481102 15 6 335 7.44600000 2048502930 2048502930 -9.00000000
1.08061409 18.40584373 2.26384497 42 7 336 18.57600000 2048502932 2048502932 7.00000000
0.47201529 8.01581287 -0.98592299 2 8 337 8.09000000 2048502935 2048502935 -7.00000000
0.72772360 12.35827827 1.96074963 13 9 337 12.53400000 2048502937 2048502937 9.00000000
0.62175351 10.52737236 -0.92263067 4 10 338 10.58600000 2048502939 2048502939 -5.00000000
0.62921566 10.62221909 2.06836963 40 11 339 10.84000000 2048502941 2048502941 11.00000000
0.45330888 7.63005638 -0.40057942 12 12 340 7.65400000 2048502944 2048502944 -3.00000000
0.61549395 10.32948875 2.38898015 48 13 341 10.62000000 2048502946 2048502946 13.00000000
0.43958908 7.35575390 -0.12862423 16 14 342 7.37000000 2048502948 2048502948 -1.00000000
0.53046936 8.87647629 2.38268805 40 15 342 9.20600000 2048502951 2048502951 15.00000000
0.13727835 2.24448109 -0.60253072 4 0 350 2.32800000 2048502971 2048502971 -15.00000000
0.76088285 12.40479374 0.21693341 10 1 351 12.43000000 2048502974 2048502974 1.00000000
0.16283916 2.64723158 -0.61231679 3 2 352 2.72200000 2048502976 2048502976 -13.00000000
0.70906544 11.49434566 0.60353827 2 3 353 11.53200000 2048502978 2048502978 3.00000000
1.50614357 24.34628105 2.13409543 30 5 354 24.48600000 2048502983 2048502983 5.00000000
0.45513204 7.33627224 -1.16418529 6 6 355 7.44200000 2048502985 2048502985 -9.00000000
1.14374650 18.38412666 2.26165128 38 7 356 18.55800000 2048502988 2048502988 7.00000000
0.49480131 7.93090439 -0.97568595 2 8 357 8.00600000 2048502990 2048502990 -7.00000000
0.77264398 12.34961319 1.95981097 13 9 358 12.52800000 2048502992 2048502992 9.00000000
0.66807663 10.67825222 -0.93605268 9 10 358 10.74000000 2048502994 2048502994 -5.00000000
0.66665906 10.62583637 2.06951427 43 11 359 10.84600000 2048502997 2048502997 11.00000000
0.47805884 7.59852791 -0.39900932 12 12 360 7.62400000 2048502999 2048502999 -3.00000000
0.65081060 10.31560802 2.38628078 50 13 361 10.60800000 2048503001 2048503001 13.00000000
0.46639910 7.37213612 -0.12893838 12 14 362 7.38800000 2048503004 2048503004 -1.00000000
0.56263274 8.86868858 2.38113523 42 15 363 9.20000000 2048503006 2048503006 15.00000000
0.14600387 2.25167418 -0.60460126 4 0 371 2.33600000 2048503027 2048503027 -15.00000000
0.80530560 12.38595772 0.21665417 7 1 372 12.41400000 2048503029 2048503029 1.00000000
0.17304775 2.65439558 -0.61411637 3 2 373 2.73000000 2048503031 2048503031 -13.00000000
0.75053817 11.48170471 0.60301489 2 3 374 11.52200000 2048503034 2048503034 3.00000000
0.20694667 3.16586232 -0.61669469 2 4 374 3.23200000 2048503036 2048503036 -11.00000000
1.59588826 24.34854889 2.13479280 30 5 375 24.49400000 2048503038 2048503038 5.00000000
0.48227683 7.33849716 -1.16481102 9 6 376 7.44600000 2048503041 2048503041 -9.00000000
1.21138108 18.38377380 2.26213884 40 7 377 18.56200000 2048503043 2048503043 7.00000000
0.52465141 7.94092226 -0.97714841 2 8 378 8.01800000 2048503045 2048503045 -7.00000000
0.81574750 12.34684086 1.95981097 13 9 378 12.52800000 2048503047 2048503047 9.00000000
0.70760500 10.68169594 -0.93657559 13 10 379 10.74600000 2048503050 2048503050 -5.00000000
0.70612067 10.63115692 2.07104087 43 11 380 10.85400000 2048503052 2048503052 11.00000000
0.50723279 7.61665344 -0.40005606 12 12 381 7.64400000 2048503054 2048503054 -3.00000000
0.68796569 10.30343151 2.38403130 51 13 382 10.59800000 2048503057 2048503057 13.00000000
0.49368334 7.37436771 -0.12900819 8 14 383 7.39200000 2048503059 2048503059 -1.00000000
0.59423202 8.87630844 2.38372350 40 15 383 9.21000000 2048503061 2048503061 15.00000000
0.15294066 2.23765922 -0.60097784 3 0 391 2.32200000 2048503082 2048503082 -15.00000000
0.83882964 12.24142456 0.21417592 7 1 392 12.27200000 2048503084 2048503084 1.00000000
0.18311365 2.66544032 -0.61681581 3 2 393 2.74200000 2048503087 2048503087 -13.00000000
0.79225904 11.50292587 0.60427094 2 3 394 11.54600000 2048503089 2048503089 3.00000000
0.21961512 3.18862414 -0.62127411 2 4 394 3.25600000 2048503091 2048503091 -11.00000000
1.67922378 24.31897736 2.13270092 37 5 395 24.47000000 2048503094 2048503094 5.00000000
0.50816286 7.34071016 -1.16543674 9 6 396 7.45000000 2048503096 2048503096 -9.00000000
1.27540755 18.37745285 2.26189494 40 7 397 18.56000000 2048503098 2048503098 7.00000000
0.55732733 8.01033306 -0.98592299 2 8 398 8.09000000 2048503100 2048503100 -7.00000000
0.86113292 12.34573841 1.96012390 16 9 399 12.53000000 2048503103 2048503103 9.00000000
0.74557990 10.68909931 -0.93744719 9 10 399 10.75600000 2048503105 2048503105 -5.00000000
0.74349993 10.63254452 2.07180405 40 11 400 10.85800000 2048503107 2048503107 11.00000000
0.53381675 7.61483622 -0.40005606 12 12 401 7.64400000 2048503110 2048503110 -3.00000000
0.72406381 10.30291176 2.38448119 50 13 402 10.60000000 2048503112 2048503112 13.00000000
0.51885951 7.36462021 -0.12886856 8 14 403 7.38400000 2048503114 2048503114 -1.00000000
0.62580860 8.86058140 2.38010001 42 15 404 9.19600000 2048503117 2048503117 15.00000000
0.15996972 2.23716760 -0.60097784 3 0 409 2.32200000 2048503137 2048503137 -15.00000000
0.86198491 12.02530956 0.21044111 7 1 410 12.05800000 2048503140 2048503140 1.00000000
0.19176579 2.66873932 -0.61771560 3 2 411 2.74600000 2048503142 2048503142 -13.00000000
0.82781863 11.49241161 0.60385227 2 3 412 11.53800000 2048503144 2048503144 3.00000000
0.22906716 3.18008566 -0.61974764 2 4 412 3.24800000 2048503147 2048503147 -11.00000000
1.75331986 24.28178787 2.12991214 37 5 413 24.43800000 2048503149 2048503149 5.00000000
0.53150707 7.34301805 -1.16606247 6 6 414 7.45400000 2048503151 2048503151 -9.00000000
1.33284831 18.36939621 2.26140761 44 7 415 18.55600000 2048503153 2048503153 7.00000000
0.39211857 5.39116526 -0.66370046 2 8 416 5.44600000 2048503156 2048503156 -7.00000000
0.89732969 12.33721924 1.95918524 19 9 416 12.52400000 2048503158 2048503158 9.00000000
0.76162666 10.44626331 -0.91635549 4 10 417 10.51400000 2048503160 2048503160 -5.00000000
0.77561140 10.61253357 2.06836963 40 11 418 10.84000000 2048503163 2048503163 11.00000000
0.55846643 7.62308121 -0.40057942 12 12 419 7.65400000 2048503165 2048503165 -3.00000000
0.75685591 10.30641651 2.38583088 51 13 420 10.60600000 2048503167 2048503167 13.00000000
0.54302120 7.37691402 -0.12911290 4 14 421 7.39800000 2048503170 2048503170 -1.00000000
0.65152842 8.85097885 2.37802935 42 15 421 9.18800000 2048503172 2048503172 15.00000000
0.16777791 2.23659563 -0.60097784 3 0 429 2.32200000 2048503193 2048503193 -15.00000000
0.90650469 12.05612659 0.21103449 3 1 430 12.09200000 2048503195 2048503195 1.00000000
0.20078735 2.66416717 -0.61681581 3 2 431 2.74200000 2048503197 2048503197 -13.00000000
0.87003583 11.51733398 0.60531765 2 3 432 11.56600000 2048503200 2048503200 3.00000000
0.23957480 3.17143607 -0.61822116 2 4 432 3.24000000 2048503202 2048503202 -11.00000000
1.83927190 24.29141235 2.13130665 37 5 433 24.45400000 2048503204 2048503204 5.00000000
0.55638832 7.33126926 -1.16449821 6 6 434 7.44400000 2048503206 2048503206 -9.00000000
1.39666021 18.36067200 2.26092005 42 7 435 18.55200000 2048503209 2048503209 7.00000000
0.40912390 5.36601114 -0.66077560 2 8 436 5.42200000 2048503211 2048503211 -7.00000000
0.94114006 12.34385967 1.96074963 22 9 436 12.53400000 2048503213 2048503213 9.00000000
0.81220156 10.60388947 2.06722474 43 11 438 10.83400000 2048503218 2048503218 11.00000000
0.58293223 7.59320593 -0.39911401 12 12 439 7.62600000 2048503220 2048503220 -3.00000000
0.79327589 10.30954075 2.38718057 48 13 440 10.61200000 2048503223 2048503223 13.00000000
0.56723046 7.35503578 -0.12876385 4 14 441 7.37800000 2048503225 2048503225 -1.00000000
0.68212301 8.84479904 2.37699413 45 15 441 9.18400000 2048503227 2048503227 15.00000000
0.17573529 2.23792243 -0.60149544 4 0 449 2.32400000 2048503248 2048503248 -15.00000000
0.58145022 7.38802576 0.12935723 3 1 450 7.41200000 2048503250 2048503250 1.00000000
0.20855346 2.64402294 -0.61231679 3 2 451 2.72200000 2048503253 2048503253 -13.00000000
0.90708560 11.47440624 0.60322422 2 3 452 11.52600000 2048503255 2048503255 3.00000000
0.25064373 3.17058039 -0.61822116 2 4 452 3.24000000 2048503257 2048503257 -11.00000000
1.92295194 24.27094078 2.13008642 37 5 453 24.44000000 2048503259 2048503259 5.00000000
0.58322674 7.34503603 -1.16700113 4 6 454 7.46000000 2048503262 2048503262 -9.00000000
1.45948267 18.33985519 2.25897026 42 7 455 18.53600000 2048503264 2048503264 7.00000000
0.42658973 5.34872007 -0.65882570 2 8 456 5.40600000 2048503266 2048503266 -7.00000000
0.98669100 12.34426594 1.96137536 26 9 457 12.53800000 2048503269 2048503269 9.00000000
0.84952462 10.60490322 2.06798792 43 11 458 10.83800000 2048503273 2048503273 11.00000000
0.60943395 7.59112453 -0.39911401 12 12 459 7.62600000 2048503276 2048503276 -3.00000000
0.82816410 10.29311180 2.38403130 53 13 460 10.59800000 2048503278 2048503278 13.00000000
0.59434736 7.37095022 -0.12907800 2 14 461 7.39600000 2048503280 2048503280 -1.00000000
0.71330351 8.84621525 2.37802935 42 15 461 9.18800000 2048503282 2048503282 15.00000000
0.18370399 2.23922062 -0.60201311 3 0 469 2.32600000 2048503303 2048503303 -15.00000000
0.60363096 7.34210587 0.12858933 3 1 470 7.36800000 2048503306 2048503306 1.00000000
0.21874164 2.65493178 -0.61501616 3 2 471 2.73400000 2048503308 2048503308 -13.00000000
0.94943404 11.49903679 0.60468966 2 3 472 11.55400000 2048503310 2048503310 3.00000000
0.26332507 3.18925214 -0.62203735 2 4 472 3.26000000 2048503312 2048503312 -11.00000000
2.00799036 24.26805305 2.13043499 37 5 473 24.44400000 2048503315 2048503315 5.00000000
0.60918862 7.34689283 -1.16762686 4 6 474 7.46400000 2048503317 2048503317 -9.00000000
1.52414930 18.34256172 2.25994515 40 7 475 18.54400000 2048503319 2048503319 7.00000000
0.66566265 7.99409103 -0.98494804 2 8 476 8.08200000 2048503322 2048503322 -7.00000000
1.02977455 12.34074593 1.96137536 26 9 477 12.53800000 2048503324 2048503324 9.00000000
0.88588303 10.59404755 2.06646132 46 11 478 10.83000000 2048503329 2048503329 11.00000000
0.63826311 7.61681509 -0.40057942 12 12 479 7.65400000 2048503331 2048503331 -3.00000000
0.86441481 10.29404163 2.38493109 60 13 480 10.60200000 2048503333 2048503333 13.00000000
0.61806107 7.34491873 -0.12865914 2 14 481 7.37200000 2048503335 2048503335 -1.00000000
0.74637103 8.85124111 2.38010001 45 15 482 9.19600000 2048503338 2048503338 15.00000000
0.19135454 2.23664093 -0.60149544 4 0 489 2.32400000 2048503359 2048503359 -15.00000000
0.63130575 7.36386251 0.12900819 3 1 490 7.39200000 2048503361 2048503361 1.00000000
0.22667339 2.63861942 -0.61141694 3 2 491 2.71800000 2048503363 2048503363 -13.00000000
0.99093777 11.51157188 0.60552704 2 3 492 11.57000000 2048503365 2048503365 3.00000000
0.27310902 3.17266536 -0.61898440 2 4 492 3.24400000 2048503368 2048503368 -11.00000000
2.09251809 24.25890923 2.13026071 37 5 493 24.44200000 2048503370 2048503370 5.00000000
0.63449013 7.34078550 -1.16700113 6 6 494 7.46000000 2048503372 2048503372 -9.00000000
1.58851004 18.34108543 2.26043248 42 7 495 18.54800000 2048503375 2048503375 7.00000000
0.74436611 8.57710552 -1.05709469 2 8 496 8.67400000 2048503377 2048503377 -7.00000000
1.07216096 12.32920456 1.96012390 26 9 497 12.53000000 2048503379 2048503379 9.00000000
0.92388034 10.60262585 2.06875110 46 11 498 10.84200000 2048503384 2048503384 11.00000000
0.67144841 7.69014883 -0.40455693 12 12 499 7.73000000 2048503386 2048503386 -3.00000000
0.90000278 10.28707886 2.38403130 59 13 500 10.59800000 2048503388 2048503388 13.00000000
0.64247340 7.32877207 -0.12841481 6 14 501 7.35800000 2048503391 2048503391 -1.00000000
0.77470648 8.83717060 2.37699413 45 15 501 9.18400000 2048503393 2048503393 15.00000000
0.19847512 2.22826242 -0.59942490 4 0 509 2.31600000 2048503414 2048503414 -15.00000000
0.65451789 7.33372927 0.12851952 3 1 510 7.36400000 2048503416 2048503416 1.00000000
0.23761822 2.65722203 -0.61591601 3 2 511 2.73800000 2048503418 2048503418 -13.00000000
1.03717470 11.57567787 0.60908586 2 3 512 11.63800000 2048503421 2048503421 3.00000000
0.28558365 3.18733621 -0.62203735 2 4 512 3.26000000 2048503423 2048503423 -11.00000000
2.17736292 24.25344276 2.13043499 30 5 513 24.44400000 2048503425 2048503425 5.00000000
0.66081828 7.34639549 -1.16825259 4 6 514 7.46800000 2048503428 2048503428 -9.00000000
1.65287912 18.33938217 2.26092005 40 7 515 18.55200000 2048503430 2048503430 7.00000000
0.78269237 8.66737652 -1.06855035 2 8 516 8.76800000 2048503432 2048503432 -7.00000000
1.11590338 12.33325672 1.96137536 29 9 517 12.53800000 2048503435 2048503435 9.00000000
0.96053028 10.59542561 2.06798792 43 11 518 10.83800000 2048503439 2048503439 11.00000000
0.70262402 7.73549604 -0.40706906 16 12 519 7.77800000 2048503441 2048503441 -3.00000000
0.93661237 10.29163742 2.38583088 57 13 520 10.60600000 2048503444 2048503444 13.00000000
0.66768849 7.32250214 -0.12834500 14 14 521 7.35400000 2048503446 2048503446 -1.00000000
0.80432123 8.82094574 2.37337065 45 15 521 9.17000000 2048503448 2048503448 15.00000000
0.20625201 2.22755599 -0.59942490 3 0 529 2.31600000 2048503469 2048503469 -15.00000000
0.68159109 7.34732914 0.12879875 3 1 530 7.38000000 2048503471 2048503471 1.00000000
0.24617083 2.64861488 -0.61411637 3 2 531 2.73000000 2048503474 2048503474 -13.00000000
1.06372595 11.44489956 0.60238683 2 3 531 11.51000000 2048503476 2048503476 3.00000000
0.29597968 3.17850065 -0.62051088 2 4 532 3.25200000 2048503478 2048503478 -11.00000000
2.26034427 24.22784042 2.12886620 30 5 533 24.42600000 2048503481 2048503481 5.00000000
0.37540096 4.01621294 -0.63887835 2 6 534 4.08400000 2048503483 2048503483 -9.00000000
1.71651530 18.32954788 2.26043248 42 7 535 18.54800000 2048503485 2048503485 7.00000000
0.81424040 8.67842674 -1.07025659 2 8 536 8.78200000 2048503487 2048503487 -7.00000000
1.15716481 12.33342171 1.96200109 26 9 536 12.54200000 2048503490 2048503490 9.00000000
0.75647551 8.04764748 -0.70718169 4 10 537 8.11400000 2048503492 2048503492 -5.00000000
0.99585271 10.57441711 2.06455326 50 11 538 10.82000000 2048503494 2048503494 11.00000000
0.80297780 8.51047134 -0.44799578 12 12 539 8.56000000 2048503497 2048503497 -3.00000000
0.97326475 10.29606628 2.38763046 56 13 540 10.61400000 2048503499 2048503499 13.00000000
0.83528936 8.82000732 2.37388825 45 15 541 9.17200000 2048503504 2048503504 15.00000000
0.21550496 2.24220634 -0.60356599 4 0 549 2.33200000 2048503524 2048503524 -15.00000000
0.25541472 2.64773941 -0.61411637 3 2 551 2.73000000 2048503529 2048503529 -13.00000000
1.07953775 11.17055607 0.58815145 2 3 552 11.23800000 2048503531 2048503531 3.00000000
0.30896142 3.19698954 -0.62432700 2 4 552 3.27200000 2048503534 2048503534 -11.00000000
2.26886916 23.43448830 2.05983877 29 5 553 23.63400000 2048503536 2048503536 5.00000000
0.38865504 4.00701332 -0.63762689 2 6 554 4.07600000 2048503538 2048503538 -9.00000000
1.78010285 18.31949234 2.25994515 42 7 555 18.54400000 2048503540 2048503540 7.00000000
0.52295011 5.37207222 -0.66272551 2 8 556 5.43800000 2048503543 2048503543 -7.00000000
1.20312822 12.33696175 1.96325254 26 9 557 12.55000000 2048503545 2048503545 9.00000000
0.79423165 8.14410686 -0.71589726 4 10 557 8.21400000 2048503547 2048503547 -5.00000000
1.03409445 10.58455372 2.06722474 50 11 558 10.83400000 2048503550 2048503550 11.00000000
0.76419795 7.80792475 -0.41115126 4 12 559 7.85600000 2048503552 2048503552 -3.00000000
1.00843811 10.28484821 2.38583088 56 13 560 10.60600000 2048503554 2048503554 13.00000000
0.71879256 7.31766224 -0.12834500 100 14 561 7.35400000 2048503557 2048503557 -1.00000000
0.86874580 8.82842159 2.37699413 42 15 562 9.18400000 2048503559 2048503559 15.00000000
0.22352195 2.24336290 -0.60408366 4 0 569 2.33400000 2048503580 2048503580 -15.00000000
0.26543105 2.65458798 -0.61591601 3 2 571 2.73800000 2048503584 2048503584 -13.00000000
1.10783124 11.07947159 0.58354592 2 3 571 11.15000000 2048503587 2048503587 3.00000000
0.31816241 3.17635679 -0.62051088 2 4 572 3.25200000 2048503589 2048503589 -11.00000000
2.32300687 23.15086746 2.03560948 21 5 573 23.35600000 2048503591 2048503591 5.00000000
0.40441784 4.02332163 -0.64044273 2 6 574 4.09400000 2048503593 2048503593 -9.00000000
1.84443676 18.31711769 2.26043248 40 7 575 18.54800000 2048503596 2048503596 7.00000000
0.78336161 7.76597357 -0.95838052 4 8 576 7.86400000 2048503598 2048503598 -7.00000000
1.24658215 12.33661747 1.96387827 29 9 577 12.55400000 2048503600 2048503600 9.00000000
1.07083750 10.57892704 2.06684303 50 11 578 10.83200000 2048503605 2048503605 11.00000000
0.78419441 7.73367548 -0.40738308 24 12 579 7.78400000 2048503607 2048503607 -3.00000000
1.04315126 10.26963234 2.38313150 60 13 580 10.59400000 2048503610 2048503610 13.00000000
0.89840823 8.82933617 2.37802935 42 15 581 9.18800000 2048503614 2048503614 15.00000000
0.23075666 2.23680401 -0.60253072 4 0 589 2.32800000 2048503635 2048503635 -15.00000000
0.27509698 2.65752220 -0.61681581 3 2 591 2.74200000 2048503639 2048503639 -13.00000000
1.14403129 11.05169678 0.58228987 2 3 591 11.12600000 2048503642 2048503642 3.00000000
0.32924801 3.17522693 -0.62051088 2 4 592 3.25200000 2048503644 2048503644 -11.00000000
2.51084137 24.17311668 2.12625146 30 5 593 24.39600000 2048503646 2048503646 5.00000000
0.41907269 4.02777958 -0.64138132 2 6 594 4.10000000 2048503649 2048503649 -9.00000000
1.90877581 18.31451607 2.26092005 40 7 595 18.55200000 2048503651 2048503651 7.00000000
0.80943453 7.75332022 -0.95716184 6 8 596 7.85400000 2048503653 2048503653 -7.00000000
1.28799379 12.31647396 1.96137536 29 9 597 12.53800000 2048503656 2048503656 9.00000000
1.10775828 10.57512474 2.06684303 50 11 598 10.83200000 2048503660 2048503660 11.00000000
1.07939994 10.26980495 2.38403130 56 13 600 10.59800000 2048503665 2048503665 13.00000000
0.77425832 7.35422850 -0.12907800 6 14 601 7.39600000 2048503667 2048503667 -1.00000000
0.92760473 8.81077671 2.37388825 45 15 601 9.17200000 2048503669 2048503669 15.00000000
0.23776366 2.23218441 -0.60149544 4 0 608 2.32400000 2048503690 2048503690 -15.00000000
1.12120605 10.50874710 0.18447194 66 1 609 10.57000000 2048503692 2048503692 1.00000000
0.28390813 2.65659523 -0.61681581 3 2 610 2.74200000 2048503695 2048503695 -13.00000000
1.18685365 11.08735466 0.58438331 2 3 611 11.16600000 2048503697 2048503697 3.00000000
0.33935770 3.17021346 -0.61974764 2 4 611 3.24800000 2048503699 2048503699 -11.00000000
2.58928919 24.14880943 2.12485695 22 5 612 24.38000000 2048503702 2048503702 5.00000000
0.43116134 4.01458311 -0.63950408 2 6 613 4.08800000 2048503704 2048503704 -9.00000000
1.96949840 18.30808640 2.26092005 40 7 614 18.55200000 2048503706 2048503706 7.00000000
0.83556634 7.75454044 -0.95764929 6 8 615 7.85800000 2048503709 2048503709 -7.00000000
1.32816207 12.32611465 1.96356535 29 9 615 12.55200000 2048503711 2048503711 9.00000000
1.14345360 10.57724857 2.06798792 50 11 617 10.83800000 2048503716 2048503716 11.00000000
0.83746231 7.73411512 -0.40769711 100 12 618 7.79000000 2048503718 2048503718 -3.00000000
1.11344993 10.26616955 2.38403130 60 13 619 10.59800000 2048503720 2048503720 13.00000000
0.80058527 7.36951256 -0.12939215 6 14 620 7.41400000 2048503722 2048503722 -1.00000000
0.95814550 8.80556488 2.37337065 45 15 621 9.17000000 2048503725 2048503725 15.00000000
0.24470870 2.22365999 -0.59942490 4 0 628 2.31600000 2048503745 2048503745 -15.00000000
1.15590978 10.48688030 0.18415779 100 1 629 10.55200000 2048503748 2048503748 1.00000000
0.29360732 2.65946198 -0.61771560 3 2 630 2.74600000 2048503750 2048503750 -13.00000000
1.22975075 11.13894367 0.58731413 2 3 630 11.22200000 2048503752 2048503752 3.00000000
0.35257953 3.18852305 -0.62356383 2 4 631 3.26800000 2048503755 2048503755 -11.00000000
2.67313004 24.13566208 2.12450838 22 5 632 24.37600000 2048503757 2048503757 5.00000000
0.44255868 3.98949361 -0.63574964 2 6 633 4.06400000 2048503759 2048503759 -9.00000000
2.03339362 18.30109978 2.26092005 42 7 634 18.55200000 2048503762 2048503762 7.00000000
0.86636209 7.78511620 -0.96179289 4 8 635 7.89200000 2048503764 2048503764 -7.00000000
1.37508118 12.33686924 1.96606839 32 9 636 12.56800000 2048503766 2048503766 9.00000000
1.17927909 10.56343651 2.06607985 50 11 637 10.82800000 2048503771 2048503771 11.00000000
1.14971256 10.26609325 2.38493109 59 13 639 10.60200000 2048503775 2048503775 13.00000000
0.82719642 7.37462234 -0.12953176 6 14 640 7.42200000 2048503778 2048503778 -1.00000000
0.98844546 8.79832649 2.37233543 45 15 641 9.16600000 2048503780 2048503780 15.00000000
0.25377735 2.23430920 -0.60253072 4 0 648 2.32800000 2048503801 2048503801 -15.00000000
1.19386494 10.49470329 0.18436722 84 1 649 10.56400000 2048503803 2048503803 1.00000000
0.30112398 2.64293122 -0.61411637 3 2 650 2.73000000 2048503805 2048503805 -13.00000000
1.27133858 11.15839577 0.58857018 2 3 650 11.24600000 2048503808 2048503808 3.00000000
0.36192670 3.17166829 -0.62051088 2 4 651 3.25200000 2048503810 2048503810 -11.00000000
2.75894642 24.14004135 2.12572861 22 5 652 24.39000000 2048503812 2048503812 5.00000000
0.46187344 4.03502607 -0.64325851 2 6 653 4.11200000 2048503815 2048503815 -9.00000000
2.09590745 18.28205681 2.25945759 42 7 654 18.54000000 2048503817 2048503817 7.00000000
0.89556992 7.79979372 -0.96398652 4 8 655 7.91000000 2048503819 2048503819 -7.00000000
1.41733611 12.34401703 1.96794558 29 9 655 12.58000000 2048503822 2048503822 9.00000000
1.21569586 10.55535507 2.06531668 53 11 657 10.82400000 2048503826 2048503826 11.00000000
0.87953472 7.62490702 -0.40225416 16 12 658 7.68600000 2048503828 2048503828 -3.00000000
1.18509364 10.25814533 2.38403130 60 13 659 10.59800000 2048503831 2048503831 13.00000000
0.85385299 7.37963533 -0.12967138 6 14 660 7.43000000 2048503833 2048503833 -1.00000000
1.02093029 8.81017494 2.37647653 45 15 661 9.18200000 2048503835 2048503835 15.00000000
0.26292333 2.24492216 -0.60563654 4 0 668 2.34000000 2048503856 2048503856 -15.00000000
1.23188877 10.50238800 0.18457665 87 1 669 10.57600000 2048503858 2048503858 1.00000000
0.31171185 2.65347648 -0.61681581 3 2 670 2.74200000 2048503861 2048503861 -13.00000000
1.31866968 11.22530079 0.59233832 2 3 670 11.31800000 2048503863 2048503863 3.00000000
0.37391326 3.17818475 -0.62203735 2 4 671 3.26000000 2048503865 2048503865 -11.00000000
2.40301776 20.39447594 1.79662848 6 5 672 20.61400000 2048503868 2048503868 5.00000000
0.47317755 4.00984812 -0.63950408 2 6 673 4.08800000 2048503870 2048503870 -9.00000000
2.16064286 18.28251457 2.26043248 42 7 674 18.54800000 2048503872 2048503872 7.00000000
0.92745727 7.83604670 -0.96886128 2 8 675 7.95000000 2048503875 2048503875 -7.00000000
1.45879090 12.32526207 1.96575546 29 9 675 12.56600000 2048503877 2048503877 9.00000000
1.25392210 10.56274509 2.06760621 50 11 677 10.83600000 2048503881 2048503881 11.00000000
0.91887796 7.72888803 -0.40790644 82 12 678 7.79400000 2048503884 2048503884 -3.00000000
1.21997237 10.24620628 2.38223171 60 13 679 10.59000000 2048503886 2048503886 13.00000000
0.87913394 7.37263870 -0.12960157 6 14 680 7.42600000 2048503888 2048503888 -1.00000000
1.05236459 8.81231213 2.37802935 45 15 681 9.18800000 2048503891 2048503891 15.00000000
0.26859018 2.23257709 -0.60253072 4 0 686 2.32800000 2048503911 2048503911 -15.00000000
1.26559448 10.50442219 0.18468137 109 1 687 10.58200000 2048503914 2048503914 1.00000000
0.32004645 2.65248418 -0.61681581 3 2 688 2.74200000 2048503916 2048503916 -13.00000000
1.37211168 11.37180138 0.60029340 2 3 688 11.47000000 2048503918 2048503918 3.00000000
0.38248286 3.16529989 -0.61974764 2 4 689 3.24800000 2048503921 2048503921 -11.00000000
2.46444392 20.36506844 1.79471111 18 5 690 20.59200000 2048503923 2048503923 5.00000000
0.89145434 7.35581684 -1.17357135 15 6 691 7.50200000 2048503925 2048503925 -9.00000000
2.21758986 18.27169609 2.25994515 42 7 692 18.54400000 2048503927 2048503927 7.00000000
1.01146996 8.32180119 -1.02930844 6 8 693 8.44600000 2048503930 2048503930 -7.00000000
1.49774301 12.32257938 1.96606839 22 9 693 12.56800000 2048503932 2048503932 9.00000000
0.98005331 8.05158997 -0.70962209 4 10 694 8.14200000 2048503934 2048503934 -5.00000000
1.28757489 10.56265068 2.06836963 50 11 695 10.84000000 2048503937 2048503937 11.00000000
1.25168276 10.23845387 2.38133192 60 13 697 10.58600000 2048503941 2048503941 13.00000000
0.90180540 7.36587095 -0.12953176 6 14 698 7.42200000 2048503944 2048503944 -1.00000000
1.07615888 8.78997612 2.37285304 42 15 698 9.16800000 2048503946 2048503946 15.00000000
0.27685657 2.23546028 -0.60356599 4 0 706 2.33200000 2048503967 2048503967 -15.00000000
1.30151570 10.49398708 0.18457665 87 1 707 10.57600000 2048503969 2048503969 1.00000000
0.33122495 2.66682196 -0.62041503 3 2 708 2.75800000 2048503971 2048503971 -13.00000000
1.43247676 11.53343296 0.60908586 2 3 708 11.63800000 2048503974 2048503974 3.00000000
0.39304483 3.16004896 -0.61898440 2 4 709 3.24400000 2048503976 2048503976 -11.00000000
2.53650141 20.36425018 1.79540825 18 5 710 20.60000000 2048503978 2048503978 5.00000000
2.27988029 18.25202560 2.25848269 44 7 712 18.53200000 2048503983 2048503983 7.00000000
1.04593289 8.36155415 -1.03467071 2 8 713 8.49000000 2048503985 2048503985 -7.00000000
1.54246402 12.33099747 1.96825838 22 9 713 12.58200000 2048503987 2048503987 9.00000000
1.00864792 8.05207348 -0.70997065 4 10 714 8.14600000 2048503990 2048503990 -5.00000000
1.32492626 10.56198788 2.06913280 50 11 715 10.84400000 2048503992 2048503992 11.00000000
1.05127156 8.36865330 -0.44202948 4 12 716 8.44600000 2048503994 2048503994 -3.00000000
1.28741407 10.23402309 2.38133192 59 13 717 10.58600000 2048503997 2048503997 13.00000000
0.92726165 7.36069393 -0.12949686 6 14 718 7.42000000 2048503999 2048503999 -1.00000000
1.10764313 8.78022289 2.37129998 45 15 719 9.16200000 2048504001 2048504001 15.00000000
0.28382576 2.22484899 -0.60097784 3 0 727 2.32200000 2048504022 2048504022 -15.00000000
0.33802977 2.64239407 -0.61501616 3 2 729 2.73400000 2048504027 2048504027 -13.00000000
0.40761787 3.18195534 -0.62356383 2 4 730 3.26800000 2048504031 2048504031 -11.00000000
2.61264420 20.36667252 1.79645419 18 5 731 20.61200000 2048504033 2048504033 5.00000000
2.34777498 18.25142288 2.25945759 42 7 733 18.54000000 2048504038 2048504038 7.00000000
1.05881977 8.21984673 -1.01760900 2 8 734 8.35000000 2048504040 2048504040 -7.00000000
1.58891082 12.33505630 1.96982276 22 9 734 12.59200000 2048504043 2048504043 9.00000000
1.33331215 10.33655167 -0.91182339 4 10 735 10.46200000 2048504045 2048504045 -5.00000000
1.36262298 10.54927254 2.06760621 50 11 736 10.83600000 2048504047 2048504047 11.00000000
1.07425117 8.30532074 -0.43888932 4 12 737 8.38600000 2048504050 2048504050 -3.00000000
1.32641685 10.24083042 2.38403130 57 13 738 10.59800000 2048504052 2048504052 13.00000000
0.95551974 7.36716127 -0.12967138 6 14 739 7.43000000 2048504054 2048504054 -1.00000000
1.13853359 8.77821827 2.37181783 42 15 739 9.16400000 2048504057 2048504057 15.00000000
0.29259482 2.23150635 -0.60304838 4 0 747 2.33000000 2048504077 2048504077 -15.00000000
1.37553382 10.47647476 0.18443704 35 1 748 10.56800000 2048504080 2048504080 1.00000000
0.34826747 2.64892650 -0.61681581 3 2 749 2.74200000 2048504082 2048504082 -13.00000000
0.41820997 3.17662024 -0.62280059 2 4 750 3.26400000 2048504086 2048504086 -11.00000000
2.68554401 20.37125587 1.79767430 24 5 751 20.62600000 2048504089 2048504089 5.00000000
2.41042948 18.23524284 2.25848269 42 7 753 18.53200000 2048504093 2048504093 7.00000000
1.09740424 8.29088116 -1.02687109 2 8 754 8.42600000 2048504096 2048504096 -7.00000000
1.63462949 12.33306694 1.97044849 19 9 755 12.59600000 2048504098 2048504098 9.00000000
1.35996115 10.26073074 -0.90554816 4 10 755 10.39000000 2048504100 2048504100 -5.00000000
1.39995515 10.54834461 2.06836963 56 11 756 10.84000000 2048504103 2048504103 11.00000000
1.09376347 8.23024559 -0.43512115 4 12 757 8.31400000 2048504105 2048504105 -3.00000000
1.36009943 10.22068501 2.38043213 57 13 758 10.58200000 2048504107 2048504107 13.00000000
0.98334312 7.37963867 -0.12995061 6 14 759 7.44600000 2048504110 2048504110 -1.00000000
1.17248821 8.78739071 2.37544131 45 15 760 9.17800000 2048504112 2048504112 15.00000000
0.30115595 2.23621511 -0.60460126 4 0 767 2.33600000 2048504133 2048504133 -15.00000000
1.41369855 10.48349953 0.18464646 13 1 768 10.58000000 2048504135 2048504135 1.00000000
0.35803336 2.65155721 -0.61771560 3 2 769 2.74600000 2048504137 2048504137 -13.00000000
1.06854725 7.90314579 0.41795495 2 3 770 7.98600000 2048504139 2048504139 3.00000000
0.42929590 3.17514110 -0.62280059 2 4 770 3.26400000 2048504142 2048504142 -11.00000000
2.75850773 20.37557793 1.79889452 24 5 771 20.64000000 2048504144 2048504144 5.00000000
0.99986327 7.37575674 -1.17889011 197 6 772 7.53600000 2048504146 2048504146 -9.00000000
2.47353363 18.22278404 2.25799513 42 7 773 18.52800000 2048504149 2048504149 7.00000000
0.72638518 5.34435797 -0.66223800 2 8 774 5.43400000 2048504151 2048504151 -7.00000000
1.67631650 12.33345032 1.97138715 16 9 774 12.60200000 2048504153 2048504153 9.00000000
1.09861434 8.07246590 -0.71275967 4 10 775 8.17800000 2048504156 2048504156 -5.00000000
1.43729734 10.54728413 2.06913280 53 11 776 10.84400000 2048504158 2048504158 11.00000000
1.09764361 8.04431725 -0.42549133 4 12 777 8.13000000 2048504160 2048504160 -3.00000000
1.39418519 10.20429039 2.37773275 59 13 778 10.57000000 2048504163 2048504163 13.00000000
1.00882578 7.37417984 -0.12991571 8 14 779 7.44400000 2048504165 2048504165 -1.00000000
1.20240736 8.78919601 2.37699413 42 15 779 9.18400000 2048504167 2048504167 15.00000000
0.30843094 2.23132300 -0.60356599 4 0 787 2.33200000 2048504188 2048504188 -15.00000000
1.04892015 7.57859087 0.13354582 42 1 788 7.65200000 2048504190 2048504190 1.00000000
0.36782187 2.65415192 -0.61861539 3 2 789 2.75000000 2048504192 2048504192 -13.00000000
1.11314762 8.02202320 0.42444462 2 3 790 8.11000000 2048504195 2048504195 3.00000000
0.44037661 3.17362309 -0.62280059 4 4 790 3.26400000 2048504197 2048504197 -11.00000000
2.83208251 20.38358688 1.80046332 24 5 791 20.65800000 2048504199 2048504199 5.00000000
1.02696431 7.38200426 -1.18045449 194 6 792 7.54600000 2048504202 2048504202 -9.00000000
2.53822351 18.22190285 2.25897026 40 7 793 18.53600000 2048504204 2048504204 7.00000000
0.75106871 5.38504314 -0.66760027 2 8 794 5.47800000 2048504206 2048504206 -7.00000000
1.71905077 12.30961609 1.96857131 16 9 795 12.58400000 2048504209 2048504209 9.00000000
1.14552426 8.20276165 -0.72461283 4 10 795 8.31400000 2048504211 2048504211 -5.00000000
1.47519302 10.54998016 2.07065916 53 11 796 10.85200000 2048504213 2048504213 11.00000000
1.10965502 7.92571449 -0.41942036 4 12 797 8.01400000 2048504215 2048504215 -3.00000000
1.42925525 10.19550133 2.37683272 60 13 798 10.56600000 2048504218 2048504218 13.00000000
1.03456032 7.37061357 -0.12991571 8 14 799 7.44400000 2048504220 2048504220 -1.00000000
1.23246241 8.76942539 2.37285304 45 15 800 9.16800000 2048504222 2048504222 15.00000000
0.31528684 2.22646236 -0.60253072 4 0 806 2.32800000 2048504243 2048504243 -15.00000000
1.08274829 7.63644743 0.13462786 36 1 807 7.71400000 2048504245 2048504245 1.00000000
0.37607351 2.64905882 -0.61771560 3 2 808 2.74600000 2048504248 2048504248 -13.00000000
3.81104374 26.81133270 1.41924644 8 3 809 27.11800000 2048504250 2048504250 3.00000000
0.45034572 3.16825795 -0.62203735 2 4 809 3.26000000 2048504252 2048504252 -11.00000000
2.89881921 20.36816597 1.79994035 24 5 810 20.65200000 2048504255 2048504255 5.00000000
1.05394638 7.39615870 -1.18327034 221 6 811 7.56400000 2048504257 2048504257 -9.00000000
2.59863544 18.21338654 2.25897026 42 7 812 18.53600000 2048504259 2048504259 7.00000000
1.14004838 7.98044014 -0.98982280 2 8 813 8.12200000 2048504262 2048504262 -7.00000000
1.76022816 12.32175446 1.97138715 13 9 813 12.60200000 2048504264 2048504264 9.00000000
1.16876984 8.17130566 -0.72217250 4 10 814 8.28600000 2048504266 2048504266 -5.00000000
1.51016986 10.54503059 2.07065916 53 11 815 10.85200000 2048504268 2048504268 11.00000000
1.13706541 7.92989922 -0.41983905 4 12 816 8.02200000 2048504271 2048504271 -3.00000000
1.46361077 10.19456387 2.37773275 60 13 817 10.57000000 2048504273 2048504273 13.00000000
1.06127274 7.38297701 -0.13019495 8 14 818 7.46000000 2048504275 2048504275 -1.00000000
1.25890672 8.75786209 2.37078238 42 15 818 9.16000000 2048504278 2048504278 15.00000000
0.32277918 2.22343659 -0.60201311 4 0 826 2.32600000 2048504298 2048504298 -15.00000000
1.10795975 7.62272692 0.13445334 30 1 827 7.70400000 2048504301 2048504301 1.00000000
0.38419560 2.64001608 -0.61591601 3 2 828 2.73800000 2048504303 2048504303 -13.00000000
3.90864110 26.82553673 1.42071187 13 3 829 27.14600000 2048504305 2048504305 3.00000000
0.46310067 3.17832303 -0.62432700 4 4 829 3.27200000 2048504308 2048504308 -11.00000000
2.97191310 20.37172318 1.80116057 24 5 830 20.66600000 2048504310 2048504310 5.00000000
1.07975733 7.39243460 -1.18327034 221 6 831 7.56400000 2048504312 2048504312 -9.00000000
2.65932369 18.18456268 2.25653267 42 7 832 18.51600000 2048504315 2048504315 7.00000000
0.78425479 5.35623646 -0.66467541 2 8 833 5.45400000 2048504317 2048504317 -7.00000000
1.80681050 12.32499218 1.97295153 13 9 834 12.61200000 2048504319 2048504319 9.00000000
1.19063914 8.12183571 -0.71816331 8 10 834 8.24000000 2048504321 2048504321 -5.00000000
1.54582930 10.53192425 2.06913280 53 11 835 10.84400000 2048504324 2048504324 11.00000000
1.15138125 7.83498430 -0.41502413 4 12 836 7.93000000 2048504326 2048504326 -3.00000000
1.49918759 10.18939304 2.37773275 62 13 837 10.57000000 2048504328 2048504328 13.00000000
1.08936906 7.39505434 -0.13047419 12 14 838 7.47600000 2048504331 2048504331 -1.00000000
1.29099751 8.75318909 2.37078238 42 15 839 9.16000000 2048504333 2048504333 15.00000000
0.33309636 2.23949361 -0.60667187 4 0 846 2.34400000 2048504354 2048504354 -15.00000000
1.13456118 7.61881304 0.13445334 51 1 847 7.70400000 2048504356 2048504356 1.00000000
0.39340863 2.63865900 -0.61591601 3 2 848 2.73800000 2048504358 2048504358 -13.00000000
4.00255060 26.81370544 1.42081654 13 3 849 27.14800000 2048504361 2048504361 3.00000000
0.47477198 3.18057060 -0.62509024 4 4 849 3.27600000 2048504363 2048504363 -11.00000000
3.04388905 20.36713600 1.80168355 24 5 850 20.67200000 2048504365 2048504365 5.00000000
1.10789371 7.40424967 -1.18577325 209 6 851 7.58000000 2048504368 2048504368 -9.00000000
2.72101903 18.16338921 2.25507045 40 7 852 18.50400000 2048504370 2048504370 7.00000000
0.80176902 5.34561348 -0.66370046 2 8 853 5.44600000 2048504372 2048504372 -7.00000000
1.85001564 12.33456135 1.97545445 13 9 853 12.62800000 2048504374 2048504374 9.00000000
1.21986997 8.12354088 -0.71868628 8 10 854 8.24600000 2048504377 2048504377 -5.00000000
1.58258319 10.52646446 2.06913280 56 11 855 10.84400000 2048504379 2048504379 11.00000000
1.14186049 7.58601618 -0.40204480 4 12 856 7.68200000 2048504381 2048504381 -3.00000000
1.53416526 10.18024349 2.37683272 60 13 857 10.56600000 2048504384 2048504384 13.00000000
1.11696601 7.40307045 -0.13068362 14 14 858 7.48800000 2048504386 2048504386 -1.00000000
1.32174635 8.76032066 2.37388825 45 15 858 9.17200000 2048504388 2048504388 15.00000000
0.34149340 2.24213696 -0.60770714 4 0 866 2.34800000 2048504409 2048504409 -15.00000000
1.16325903 7.62864399 0.13469768 51 1 867 7.71800000 2048504411 2048504411 1.00000000
0.40379325 2.64497542 -0.61771560 3 2 868 2.74600000 2048504414 2048504414 -13.00000000
4.09491682 26.79167366 1.42039788 13 3 869 27.14000000 2048504416 2048504416 3.00000000
0.48409158 3.16724968 -0.62280059 4 4 869 3.26400000 2048504418 2048504418 -11.00000000
3.11797881 20.37608147 1.80342662 24 5 870 20.69200000 2048504421 2048504421 5.00000000
1.13522828 7.41010046 -1.18733764 177 6 871 7.59000000 2048504423 2048504423 -9.00000000
2.78891873 18.18321228 2.25872636 25 7 872 18.53400000 2048504425 2048504425 7.00000000
0.82162899 5.35063076 -0.66467541 2 8 873 5.45400000 2048504427 2048504427 -7.00000000
1.89461136 12.32379341 1.97482872 13 9 874 12.62400000 2048504430 2048504430 9.00000000
1.24882448 8.12317181 -0.71903485 8 10 874 8.25000000 2048504432 2048504432 -5.00000000
1.62170696 10.53639984 2.07218575 56 11 875 10.86000000 2048504434 2048504434 11.00000000
1.56731462 10.15941906 2.37323356 57 13 877 10.55000000 2048504439 2048504439 13.00000000
1.14341128 7.40307903 -0.13075343 12 14 878 7.49200000 2048504441 2048504441 -1.00000000
1.35443604 8.75923634 2.37492347 45 15 879 9.17600000 2048504444 2048504444 15.00000000
0.34744063 2.23144794 -0.60511893 3 0 885 2.33800000 2048504464 2048504464 -15.00000000
1.18701017 7.61486530 0.13452315 9 1 886 7.70800000 2048504467 2048504467 1.00000000
0.41436499 2.65517426 -0.62041503 3 2 887 2.75800000 2048504469 2048504469 -13.00000000
4.18774652 26.80359840 1.42175853 13 3 888 27.16600000 2048504471 2048504471 3.00000000
0.49398580 3.16174746 -0.62203735 2 4 888 3.26000000 2048504474 2048504474 -11.00000000
3.01957321 19.30463409 1.70947278 5 5 889 19.61400000 2048504476 2048504476 5.00000000
1.16162848 7.41800451 -1.18921483 147 6 890 7.60200000 2048504478 2048504478 -9.00000000
2.85073829 18.18367004 2.25994515 21 7 891 18.54400000 2048504480 2048504480 7.00000000
0.84183019 5.36356544 -0.66662532 2 8 892 5.47000000 2048504483 2048504483 -7.00000000
2.24818707 14.32390785 2.29645801 15 9 892 14.68000000 2048504485 2048504485 9.00000000
1.27761066 8.13079548 -0.72008073 8 10 893 8.26200000 2048504487 2048504487 -5.00000000
1.65785837 10.53872108 2.07371211 56 11 894 10.86800000 2048504490 2048504490 11.00000000
1.60220981 10.16186523 2.37503314 59 13 896 10.55800000 2048504494 2048504494 13.00000000
