# .PCD v0.7 - Point Cloud Data file format
VERSION 0.7
FIELDS x y z intensity laser_id azimuth distance_m adjustedtime timestamp vertical_angle
SIZE 4 4 4 1 1 2 8 8 4 8
TYPE F F F U U U F U U F
COUNT 1 1 1 1 1 1 1 1 1 1
WIDTH 534
HEIGHT 1
VIEWPOINT 0 0 0 1 0 0 0
POINTS 534
DATA ascii
1.81167805 10.52133942 2.07523870 56 11 977 10.87600000 2047704742 2047704742 11.00000000
2.84066963 16.48001862 -0.87641793 4 12 978 16.74600000 2047704745 2047704745 -3.00000000
1.74659288 10.12222672 2.37143397 59 13 979 10.54200000 2047704747 2047704747 13.00000000
7.45676374 43.17005539 -0.76469463 6 14 980 43.81600000 2047704749 2047704749 -1.00000000
1.50665092 8.72257900 2.37181783 42 15 980 9.16400000 2047704751 2047704751 15.00000000
0.38650241 2.21913218 -0.60356599 4 0 988 2.33200000 2047704772 2047704772 -15.00000000
7.53143501 43.19768906 0.76539272 100 1 989 43.85600000 2047704774 2047704774 1.00000000
0.46135715 2.64345741 -0.61951518 3 2 990 2.75400000 2047704777 2047704777 -13.00000000
3.39364982 19.42471886 1.03342581 9 3 991 19.74600000 2047704779 2047704779 3.00000000
0.55817461 3.19490409 -0.63043290 2 4 991 3.30400000 2047704781 2047704781 -11.00000000
3.56312060 20.37376785 1.80952752 18 5 992 20.76200000 2047704784 2047704784 5.00000000
0.69900066 3.99274850 -0.64200705 2 6 993 4.10400000 2047704786 2047704786 -9.00000000
2.62374973 14.97168732 1.86630714 14 7 994 15.31400000 2047704788 2047704788 7.00000000
3.32882977 18.97554970 -2.36548400 3 8 995 19.41000000 2047704791 2047704791 -7.00000000
2.50735712 14.29285431 2.29833508 45 9 995 14.69200000 2047704793 2047704793 9.00000000
1.40908933 8.02409649 -0.71275967 4 10 996 8.17800000 2047704795 2047704795 -5.00000000
1.84975302 10.52268600 2.07676506 53 11 997 10.88400000 2047704798 2047704798 11.00000000
2.90163970 16.48967171 -0.87746465 4 12 998 16.76600000 2047704800 2047704800 -3.00000000
1.78056312 10.10839176 2.36963439 59 13 999 10.53400000 2047704802 2047704802 13.00000000
3.40229154 19.29535294 -0.34199736 2 14 1000 19.59600000 2047704804 2047704804 -1.00000000
1.54062545 8.72841263 2.37492347 42 15 1001 9.17600000 2047704807 2047704807 15.00000000
0.39762744 2.23678994 -0.60874242 4 0 1008 2.35200000 2047704827 2047704827 -15.00000000
7.68673134 43.19673157 0.76584649 32 1 1009 43.88200000 2047704830 2047704830 1.00000000
0.47058174 2.64183068 -0.61951518 3 2 1010 2.75400000 2047704832 2047704832 -13.00000000
3.45594430 19.40155983 1.03279781 9 3 1010 19.73400000 2047704834 2047704834 3.00000000
0.56587726 3.17360830 -0.62661672 2 4 1011 3.28400000 2047704837 2047704837 -11.00000000
3.45147300 19.33736038 1.71853697 5 5 1012 19.71800000 2047704839 2047704839 5.00000000
0.71362853 3.99417353 -0.64263278 2 6 1013 4.10800000 2047704841 2047704841 -9.00000000
2.67774200 14.97220802 1.86752582 17 7 1014 15.32400000 2047704844 2047704844 7.00000000
3.38874984 18.92864227 -2.36109662 3 8 1015 19.37400000 2047704846 2047704846 -7.00000000
2.55589318 14.26217937 2.29489350 45 9 1016 14.67000000 2047704848 2047704848 9.00000000
1.43568432 8.01128483 -0.71206242 4 10 1016 8.17000000 2047704851 2047704851 -5.00000000
1.88785934 10.52389431 2.07829165 59 11 1017 10.89200000 2047704853 2047704853 11.00000000
2.96588850 16.51679420 -0.87945342 5 12 1018 16.80400000 2047704855 2047704855 -3.00000000
1.81307912 10.08677101 2.36603522 57 13 1019 10.51800000 2047704857 2047704857 13.00000000
3.41154909 18.96059227 -0.33627295 2 14 1020 19.26800000 2047704860 2047704860 -1.00000000
1.57142639 8.72488308 2.37544131 45 15 1021 9.17800000 2047704862 2047704862 15.00000000
0.40198532 2.21637988 -0.60356599 4 0 1028 2.33200000 2047704883 2047704883 -15.00000000
3.42739701 18.87847710 0.33491167 4 1 1029 19.19000000 2047704885 2047704885 1.00000000
0.48119432 2.64784145 -0.62131482 3 2 1030 2.76200000 2047704887 2047704887 -13.00000000
3.44401073 18.95116615 1.00945592 21 3 1030 19.28800000 2047704890 2047704890 3.00000000
0.57273531 3.14843512 -0.62203735 2 4 1031 3.26000000 2047704892 2047704892 -11.00000000
3.46112967 19.00764847 1.69029844 23 5 1032 19.39400000 2047704894 2047704894 5.00000000
0.73181713 4.01497841 -0.64638722 2 6 1033 4.13200000 2047704897 2047704897 -9.00000000
2.73212624 14.97448730 1.86898828 15 7 1034 15.33600000 2047704899 2047704899 7.00000000
0.97969878 5.36431980 -0.66955018 2 8 1035 5.49400000 2047704901 2047704901 -7.00000000
2.60033512 14.23808002 2.29239058 41 9 1035 14.65400000 2047704904 2047704904 9.00000000
1.46220696 7.99838448 -0.71136516 4 10 1036 8.16200000 2047704906 2047704906 -5.00000000
1.92776358 10.53462124 2.08172607 59 11 1037 10.91000000 2047704908 2047704908 11.00000000
3.02316499 16.50437546 -0.87934875 5 12 1038 16.80200000 2047704910 2047704910 -3.00000000
1.84898043 10.08421421 2.36693501 56 13 1039 10.52200000 2047704913 2047704913 13.00000000
3.42753649 18.67517662 -0.33142120 21 14 1040 18.99000000 2047704915 2047704915 -1.00000000
1.60012698 8.70984459 2.37285304 42 15 1041 9.16800000 2047704917 2047704917 15.00000000
0.40901670 2.21116400 -0.60253072 4 0 1048 2.32800000 2047704938 2047704938 -15.00000000
3.46378446 18.70713043 0.33208439 16 1 1049 19.02800000 2047704940 2047704940 1.00000000
0.49114436 2.64997768 -0.62221462 3 2 1050 2.76600000 2047704943 2047704943 -13.00000000
3.47520041 18.75050354 0.99940741 12 3 1050 19.09600000 2047704945 2047704945 3.00000000
0.58873546 3.17344117 -0.62737995 2 4 1051 3.28800000 2047704947 2047704947 -11.00000000
3.47871280 18.73295784 1.66694069 16 5 1052 19.12600000 2047704950 2047704950 5.00000000
0.74221754 3.99297833 -0.64325851 2 6 1053 4.11200000 2047704952 2047704952 -9.00000000
2.78655910 14.97656822 1.87045074 17 7 1054 15.34800000 2047704954 2047704954 7.00000000
0.99841779 5.36086750 -0.66955018 2 8 1055 5.49400000 2047704957 2047704957 -7.00000000
2.65110445 14.23474216 2.29332924 45 9 1055 14.66000000 2047704959 2047704959 9.00000000
1.49084795 7.99714899 -0.71171379 4 10 1056 8.16600000 2047704961 2047704961 -5.00000000
1.96308398 10.52010822 2.08019972 56 11 1057 10.90200000 2047704963 2047704963 11.00000000
3.08442473 16.51335526 -0.88039547 5 12 1058 16.82200000 2047704966 2047704966 -3.00000000
1.88560212 10.08536053 2.36873460 59 13 1059 10.53000000 2047704968 2047704968 13.00000000
3.49969316 18.70044518 -0.33208439 10 14 1060 19.02800000 2047704970 2047704970 -1.00000000
1.62838602 8.69281292 2.36974716 45 15 1061 9.15600000 2047704973 2047704973 15.00000000
0.41810539 2.22125912 -0.60563654 4 0 1066 2.34000000 2047704993 2047704993 -15.00000000
3.52179694 18.69222450 0.33201459 16 1 1067 19.02400000 2047704996 2047704996 1.00000000
0.49874476 2.64459181 -0.62131482 3 2 1068 2.76200000 2047704998 2047704998 -13.00000000
3.53223896 18.72967911 0.99888408 12 3 1068 19.08600000 2047705000 2047705000 3.00000000
0.59651715 3.16000080 -0.62509024 2 4 1069 3.27600000 2047705003 2047705003 -11.00000000
3.53754687 18.72193718 1.66694069 16 5 1070 19.12600000 2047705005 2047705005 5.00000000
0.75842917 4.01003647 -0.64638722 2 6 1071 4.13200000 2047705007 2047705007 -9.00000000
2.83433414 14.97164154 1.87093818 19 7 1072 15.35200000 2047705009 2047705009 7.00000000
1.01821125 5.37330770 -0.67150009 2 8 1073 5.51000000 2047705012 2047705012 -7.00000000
2.69544339 14.22440243 2.29301643 45 9 1073 14.65800000 2047705014 2047705014 9.00000000
1.51819205 8.00417042 -0.71275967 4 10 1074 8.17800000 2047705016 2047705016 -5.00000000
1.99575806 10.51196003 2.07981801 59 11 1075 10.90000000 2047705019 2047705019 11.00000000
3.14150810 16.53105354 -0.88186085 5 12 1076 16.85000000 2047705021 2047705021 -3.00000000
1.91800523 10.08321571 2.36963439 56 13 1077 10.53400000 2047705023 2047705023 13.00000000
3.55954719 18.69525146 -0.33218911 10 14 1078 19.03400000 2047705026 2047705026 -1.00000000
1.65561628 8.69553375 2.37181783 40 15 1078 9.16400000 2047705028 2047705028 15.00000000
0.42658445 2.22358060 -0.60667187 4 0 1086 2.34400000 2047705049 2047705049 -15.00000000
3.59041762 18.69749260 0.33232874 16 1 1087 19.04200000 2047705051 2047705051 1.00000000
0.50650173 2.63517976 -0.61951518 3 2 1088 2.75400000 2047705053 2047705053 -13.00000000
3.59797311 18.71919823 0.99898875 12 3 1088 19.08800000 2047705056 2047705056 3.00000000
0.60606039 3.15018773 -0.62356383 2 4 1089 3.26800000 2047705058 2047705058 -11.00000000
3.60287714 18.70947456 1.66694069 16 5 1090 19.12600000 2047705060 2047705060 5.00000000
0.76943117 3.99184728 -0.64388424 2 6 1091 4.11600000 2047705062 2047705062 -9.00000000
2.88845778 14.97140217 1.87215686 19 7 1092 15.36200000 2047705065 2047705065 7.00000000
1.03620851 5.36582232 -0.67101258 2 8 1093 5.50600000 2047705067 2047705067 -7.00000000
2.74320650 14.20520878 2.29145193 37 9 1093 14.64800000 2047705069 2047705069 9.00000000
1.54158509 7.97534847 -0.71066791 4 10 1094 8.15400000 2047705072 2047705072 -5.00000000
2.03318524 10.50878429 2.08058119 59 11 1095 10.90400000 2047705074 2047705074 11.00000000
3.20830631 16.56704712 -0.88437301 5 12 1096 16.89800000 2047705076 2047705076 -3.00000000
1.88050675 9.70148563 2.28145361 49 13 1097 10.14200000 2047705079 2047705079 13.00000000
3.62668848 18.69252777 -0.33236364 10 14 1098 19.04400000 2047705081 2047705081 -1.00000000
1.68821239 8.69320011 2.37285304 42 15 1099 9.16800000 2047705083 2047705083 15.00000000
0.43360239 2.21828604 -0.60563654 4 0 1106 2.34000000 2047705104 2047705104 -15.00000000
3.65911770 18.70250893 0.33264285 16 1 1107 19.06000000 2047705106 2047705106 1.00000000
0.51345015 2.62192130 -0.61681581 3 2 1108 2.74200000 2047705109 2047705109 -13.00000000
3.66694236 18.70784378 0.99909341 12 3 1109 19.09000000 2047705111 2047705111 3.00000000
0.61478710 3.13649344 -0.62127411 2 4 1109 3.25600000 2047705113 2047705113 -11.00000000
3.67238259 18.71829033 1.66885817 16 5 1110 19.14800000 2047705115 2047705115 5.00000000
0.78564453 4.00076723 -0.64576149 2 6 1111 4.12800000 2047705118 2047705118 -9.00000000
2.94184875 14.96707153 1.87288809 21 7 1112 15.36800000 2047705120 2047705120 7.00000000
1.05110049 5.34269524 -0.66857523 2 8 1113 5.48600000 2047705122 2047705122 -7.00000000
2.42060852 12.30384159 1.98609197 13 9 1113 12.69600000 2047705125 2047705125 9.00000000
1.57403421 7.99337673 -0.71275967 4 10 1114 8.17800000 2047705127 2047705127 -5.00000000
2.07213330 10.51318073 2.08287096 56 11 1115 10.91600000 2047705129 2047705129 11.00000000
3.27771378 16.61453247 -0.88751316 5 12 1116 16.95800000 2047705132 2047705132 -3.00000000
1.98495436 10.05237389 2.36558533 59 13 1117 10.51600000 2047705134 2047705134 13.00000000
3.69462943 18.69348717 -0.33260795 10 14 1118 19.05800000 2047705136 2047705136 -1.00000000
1.71852911 8.69513512 2.37492347 42 15 1118 9.17600000 2047705139 2047705139 15.00000000
0.44209746 2.22054839 -0.60667187 4 0 1126 2.34400000 2047705159 2047705159 -15.00000000
3.72750568 18.70531082 0.33292210 16 1 1127 19.07600000 2047705162 2047705162 1.00000000
0.52755457 2.64495730 -0.62266451 3 2 1128 2.76800000 2047705164 2047705164 -13.00000000
3.73495984 18.70864105 0.99982613 12 3 1129 19.10400000 2047705166 2047705166 3.00000000
0.62803787 3.14587998 -0.62356383 2 4 1129 3.26800000 2047705168 2047705168 -11.00000000
3.73887062 18.71121979 1.66938114 16 5 1130 19.15400000 2047705171 2047705171 5.00000000
0.80192941 4.00962257 -0.64763868 2 6 1131 4.14000000 2047705173 2047705173 -9.00000000
2.99680328 14.97033691 1.87459421 19 7 1132 15.38200000 2047705175 2047705175 7.00000000
1.07286346 5.35456467 -0.67052513 2 8 1133 5.50200000 2047705178 2047705178 -7.00000000
2.84245539 14.17359447 2.28957486 32 9 1134 14.63600000 2047705180 2047705180 9.00000000
1.60349381 7.99564791 -0.71345693 4 10 1134 8.18600000 2047705182 2047705182 -5.00000000
2.11190939 10.52128220 2.08592391 59 11 1135 10.93200000 2047705185 2047705185 11.00000000
3.33883643 16.61865425 -0.88835055 5 12 1136 16.97400000 2047705187 2047705187 -3.00000000
2.02195263 10.05493641 2.36783481 57 13 1137 10.52600000 2047705189 2047705189 13.00000000
3.75985932 18.68047714 -0.33260795 10 14 1138 19.05800000 2047705192 2047705192 -1.00000000
1.74886084 8.68120289 2.37285304 42 15 1139 9.16800000 2047705194 2047705194 15.00000000
0.44831240 2.20944667 -0.60408366 3 0 1147 2.33400000 2047705215 2047705215 -15.00000000
3.79564118 18.68956375 0.33288720 16 1 1148 19.07400000 2047705217 2047705217 1.00000000
0.53530437 2.63345742 -0.62041503 3 2 1149 2.75800000 2047705219 2047705219 -13.00000000
3.80907989 18.72222519 1.00129151 12 3 1150 19.13200000 2047705221 2047705221 3.00000000
0.63878107 3.13970923 -0.62280059 2 4 1150 3.26400000 2047705224 2047705224 -11.00000000
3.80702806 18.69543839 1.66920674 16 5 1151 19.15200000 2047705226 2047705226 5.00000000
0.81504202 3.99891400 -0.64638722 2 6 1152 4.13200000 2047705228 2047705228 -9.00000000
3.05442953 14.97286797 1.87630045 17 7 1153 15.39600000 2047705231 2047705231 7.00000000
1.09486449 5.36226654 -0.67198753 2 8 1154 5.51400000 2047705233 2047705233 -7.00000000
2.89349365 14.17132854 2.29082632 50 9 1154 14.64400000 2047705235 2047705235 9.00000000
1.63119280 7.98190880 -0.71275967 4 10 1155 8.17800000 2047705238 2047705238 -5.00000000
2.15085125 10.51539421 2.08630562 59 11 1156 10.93400000 2047705240 2047705240 11.00000000
3.40853739 16.64935303 -0.89065331 5 12 1157 17.01800000 2047705242 2047705242 -3.00000000
2.05722737 10.03982162 2.36603522 57 13 1158 10.51800000 2047705245 2047705245 13.00000000
3.83071208 18.67832375 -0.33281741 10 14 1159 19.07000000 2047705247 2047705247 -1.00000000
1.77760065 8.66747475 2.37078238 42 15 1159 9.16000000 2047705249 2047705249 15.00000000
0.45953897 2.22489572 -0.60874242 4 0 1167 2.35200000 2047705270 2047705270 -15.00000000
3.86207128 18.68207550 0.33299193 16 1 1168 19.08000000 2047705272 2047705272 1.00000000
0.54449356 2.63157296 -0.62041503 3 2 1169 2.75800000 2047705274 2047705274 -13.00000000
3.87602949 18.71663857 1.00171018 12 3 1170 19.14000000 2047705277 2047705277 3.00000000
0.65132928 3.14515018 -0.62432700 2 4 1170 3.27200000 2047705279 2047705279 -11.00000000
3.87711644 18.70544624 1.67129850 16 5 1171 19.17600000 2047705281 2047705281 5.00000000
0.82899588 3.99604464 -0.64638722 2 6 1172 4.13200000 2047705284 2047705284 -9.00000000
3.10829020 14.96988964 1.87727535 15 7 1173 15.40400000 2047705286 2047705286 7.00000000
1.11115217 5.34675026 -0.67052513 2 8 1174 5.50200000 2047705288 2047705288 -7.00000000
2.94420815 14.15482616 2.28988767 39 9 1175 14.63800000 2047705291 2047705291 9.00000000
1.66066790 7.98396873 -0.71345693 4 10 1175 8.18600000 2047705293 2047705293 -5.00000000
2.18714356 10.50590038 2.08592391 59 11 1176 10.93200000 2047705295 2047705295 11.00000000
3.47070765 16.65690613 -0.89170003 5 12 1177 17.03800000 2047705297 2047705297 -3.00000000
2.09385180 10.04020977 2.36783481 57 13 1178 10.52600000 2047705300 2047705300 13.00000000
3.90079117 18.68832779 -0.33323625 10 14 1179 19.09400000 2047705302 2047705302 -1.00000000
1.80698633 8.64955521 2.36767673 42 15 1180 9.14800000 2047705304 2047705304 15.00000000
0.46532631 2.21579719 -0.60667187 4 0 1186 2.34400000 2047705325 2047705325 -15.00000000
3.92811513 18.68873405 0.33334097 16 1 1187 19.10000000 2047705327 2047705327 1.00000000
0.55241483 2.62593889 -0.61951518 3 2 1188 2.75400000 2047705330 2047705330 -13.00000000
3.93889785 18.70759201 1.00191951 12 3 1189 19.14400000 2047705332 2047705332 3.00000000
0.66337341 3.15065765 -0.62585348 2 4 1189 3.28000000 2047705334 2047705334 -11.00000000
3.94035721 18.69833565 1.67182148 16 5 1190 19.18200000 2047705337 2047705337 5.00000000
0.83898133 3.97781086 -0.64388424 2 6 1191 4.11600000 2047705339 2047705339 -9.00000000
3.15791512 14.95949936 1.87727535 15 7 1192 15.40400000 2047705341 2047705341 7.00000000
1.12559378 5.32749844 -0.66857523 2 8 1193 5.48600000 2047705344 2047705344 -7.00000000
2.98947883 14.14937210 2.29051352 43 9 1193 14.64200000 2047705346 2047705346 9.00000000
2.22440934 10.51011467 2.08821368 59 11 1195 10.94400000 2047705350 2047705350 11.00000000
3.53006387 16.66484451 -0.89274675 5 12 1196 17.05800000 2047705353 2047705353 -3.00000000
2.12592220 10.02749252 2.36648512 54 13 1197 10.52000000 2047705355 2047705355 13.00000000
3.96564817 18.68898392 -0.33348060 10 14 1198 19.10800000 2047705357 2047705357 -1.00000000
1.83655667 8.65517521 2.37078238 42 15 1198 9.16000000 2047705360 2047705360 15.00000000
0.47467259 2.22171617 -0.60874242 4 0 1206 2.35200000 2047705380 2047705380 -15.00000000
3.99667239 18.69055367 0.33362019 16 1 1207 19.11600000 2047705383 2047705383 1.00000000
0.56076205 2.62018347 -0.61861539 3 2 1208 2.75000000 2047705385 2047705385 -13.00000000
4.00668573 18.70544624 1.00254762 12 3 1209 19.15600000 2047705387 2047705387 3.00000000
0.67272240 3.14064384 -0.62432700 2 4 1209 3.27200000 2047705390 2047705390 -11.00000000
4.01228476 18.71563721 1.67461050 16 5 1210 19.21400000 2047705392 2047705392 5.00000000
0.85451901 3.98258376 -0.64513576 2 6 1211 4.12400000 2047705394 2047705394 -9.00000000
3.21469903 14.96973419 1.87995648 15 7 1212 15.42600000 2047705397 2047705397 7.00000000
1.14585185 5.33130026 -0.66955018 2 8 1213 5.49400000 2047705399 2047705399 -7.00000000
3.03924155 14.12866402 2.28894901 36 9 1214 14.63200000 2047705401 2047705401 9.00000000
1.74179029 8.09714127 -0.72461283 4 10 1214 8.31400000 2047705403 2047705403 -5.00000000
2.26273584 10.50996304 2.08974004 59 11 1215 10.95200000 2047705406 2047705406 11.00000000
3.57643366 16.59775162 -0.88981593 5 12 1216 17.00200000 2047705408 2047705408 -3.00000000
2.15803599 10.00667572 2.36333585 60 13 1217 10.50600000 2047705410 2047705410 13.00000000
4.03254843 18.68284607 -0.33362019 10 14 1218 19.11600000 2047705413 2047705413 -1.00000000
1.86949086 8.65404987 2.37233543 45 15 1219 9.16600000 2047705415 2047705415 15.00000000
0.47996357 2.20871902 -0.60563654 4 0 1226 2.34000000 2047705436 2047705436 -15.00000000
4.06698990 18.69993591 0.33403906 16 1 1227 19.14000000 2047705438 2047705438 1.00000000
0.57239163 2.62963486 -0.62131482 3 2 1228 2.76200000 2047705440 2047705440 -13.00000000
4.07578135 18.70890999 1.00348961 12 3 1229 19.17400000 2047705443 2047705443 3.00000000
0.68368119 3.13827658 -0.62432700 2 4 1229 3.27200000 2047705445 2047705445 -11.00000000
4.08183432 18.72098351 1.67635357 16 5 1230 19.23400000 2047705447 2047705447 5.00000000
0.87010026 3.98729658 -0.64638722 2 6 1231 4.13200000 2047705450 2047705450 -9.00000000
3.29234719 15.07478428 1.89458084 19 7 1232 15.54600000 2047705452 2047705452 7.00000000
1.16615021 5.33502531 -0.67052513 2 8 1233 5.50200000 2047705454 2047705454 -7.00000000
3.08312440 14.10499954 2.28675890 47 9 1233 14.61800000 2047705456 2047705456 9.00000000
1.74449611 7.97423077 -0.71415418 4 10 1234 8.19400000 2047705459 2047705459 -5.00000000
2.30276775 10.51734257 2.09279299 59 11 1235 10.96800000 2047705461 2047705461 11.00000000
3.64845705 16.64954758 -0.89327008 5 12 1236 17.06800000 2047705463 2047705463 -3.00000000
2.19462252 10.00669575 2.36513543 59 13 1237 10.51400000 2047705466 2047705466 13.00000000
4.09645271 18.66279602 -0.33351550 10 14 1238 19.11000000 2047705468 2047705468 -1.00000000
1.89610755 8.63836861 2.36974716 42 15 1238 9.15600000 2047705470 2047705470 15.00000000
0.48516965 2.19571209 -0.60253072 4 0 1246 2.32800000 2047705491 2047705491 -15.00000000
4.13353539 18.69148254 0.33414379 16 1 1247 19.14600000 2047705493 2047705493 1.00000000
0.58072507 2.62381554 -0.62041503 3 2 1248 2.75800000 2047705496 2047705496 -13.00000000
4.14365482 18.70626831 1.00411761 12 3 1249 19.18600000 2047705498 2047705498 3.00000000
0.69293332 3.12820387 -0.62280059 2 4 1249 3.26400000 2047705500 2047705500 -11.00000000
4.14715815 18.70662117 1.67635357 16 5 1250 19.23400000 2047705503 2047705503 5.00000000
0.88486898 3.98809195 -0.64701295 2 6 1251 4.13600000 2047705505 2047705505 -9.00000000
3.41164899 15.36357307 1.93236029 21 7 1252 15.85600000 2047705507 2047705507 7.00000000
1.18519640 5.33285999 -0.67076886 2 8 1253 5.50400000 2047705509 2047705509 -7.00000000
3.13694572 14.10324574 2.28832340 39 9 1254 14.62800000 2047705512 2047705512 9.00000000
4.17578983 18.77373695 -1.68262875 5 10 1254 19.30600000 2047705514 2047705514 -5.00000000
2.34031940 10.51307297 2.09355640 59 11 1255 10.97200000 2047705516 2047705516 11.00000000
3.71567345 16.67765045 -0.89546824 5 12 1256 17.11000000 2047705519 2047705519 -3.00000000
2.22953916 9.99897385 2.36513543 60 13 1257 10.51400000 2047705521 2047705521 13.00000000
4.16767073 18.67570686 -0.33400416 10 14 1258 19.13800000 2047705523 2047705523 -1.00000000
1.92607176 8.62381935 2.36767673 42 15 1259 9.14800000 2047705526 2047705526 15.00000000
0.49583274 2.20917058 -0.60667187 4 0 1265 2.34400000 2047705546 2047705546 -15.00000000
4.19856358 18.69132996 0.33438811 12 1 1266 19.16000000 2047705549 2047705549 1.00000000
0.59155989 2.63138175 -0.62266451 4 2 1267 2.76800000 2047705551 2047705551 -13.00000000
4.21004820 18.71191025 1.00516438 12 3 1268 19.20600000 2047705553 2047705553 3.00000000
0.70761245 3.14504242 -0.62661672 2 4 1268 3.28400000 2047705556 2047705556 -11.00000000
4.21442080 18.71609116 1.67844534 17 5 1269 19.25800000 2047705558 2047705558 5.00000000
0.89722055 3.98128152 -0.64638722 2 6 1270 4.13200000 2047705560 2047705560 -9.00000000
3.48921967 15.47029877 1.94722831 26 7 1271 15.97800000 2047705562 2047705562 7.00000000
1.20986772 5.35988235 -0.67466867 2 8 1272 5.53600000 2047705565 2047705565 -7.00000000
3.18036675 14.08946705 2.28769755 36 9 1272 14.62400000 2047705567 2047705567 9.00000000
2.37343740 10.49759483 2.09202981 53 11 1274 10.96400000 2047705572 2047705572 11.00000000
3.77624750 16.68861198 -0.89672428 5 12 1275 17.13400000 2047705574 2047705574 -3.00000000
2.26440644 9.99912834 2.36693501 60 13 1276 10.52200000 2047705576 2047705576 13.00000000
4.24416494 18.72614098 -0.33515602 2 14 1277 19.20400000 2047705579 2047705579 -1.00000000
1.95486271 8.62526226 2.36974716 45 15 1277 9.15600000 2047705581 2047705581 15.00000000
0.50440043 2.21119332 -0.60770714 4 0 1285 2.34800000 2047705602 2047705602 -15.00000000
9.78222179 42.84886551 0.76717287 32 1 1286 43.95800000 2047705604 2047705604 1.00000000
0.59423059 2.60080409 -0.61591601 3 2 1287 2.73800000 2047705606 2047705606 -13.00000000
7.89176941 34.51263046 1.85541427 35 3 1288 35.45200000 2047705609 2047705609 3.00000000
0.72296268 3.16169190 -0.63043290 2 4 1288 3.30400000 2047705611 2047705611 -11.00000000
5.29710054 23.14691925 2.07744431 29 5 1289 23.83600000 2047705613 2047705613 5.00000000
0.91023034 3.97427440 -0.64576149 2 6 1290 4.12800000 2047705615 2047705615 -9.00000000
3.54852200 15.48124313 1.95015323 29 7 1291 16.00200000 2047705618 2047705618 7.00000000
1.22058058 5.32079935 -0.67028141 2 8 1292 5.50000000 2047705620 2047705620 -7.00000000
3.22643709 14.06480217 2.28550744 47 9 1292 14.61000000 2047705622 2047705622 9.00000000
1.85326540 8.07235622 -0.72461283 4 10 1293 8.31400000 2047705625 2047705625 -5.00000000
2.41490221 10.51029396 2.09622765 43 11 1294 10.98600000 2047705627 2047705627 11.00000000
3.83447862 16.67532921 -0.89672428 5 12 1295 17.13400000 2047705629 2047705629 -3.00000000
2.29579973 9.97597027 2.36333585 56 13 1296 10.50600000 2047705632 2047705632 13.00000000
9.10103703 39.51530457 -0.70779979 5 14 1297 40.55600000 2047705634 2047705634 -1.00000000
1.98279071 8.60897255 2.36715889 40 15 1297 9.14600000 2047705636 2047705636 15.00000000
0.51376081 2.21300387 -0.60874242 4 0 1307 2.35200000 2047705657 2047705657 -15.00000000
9.25924873 39.85226059 0.71415246 10 1 1308 40.92000000 2047705659 2047705659 1.00000000
0.60862607 2.61748409 -0.62041503 3 2 1309 2.75800000 2047705662 2047705662 -13.00000000
8.02377701 34.48012924 1.85530961 49 3 1310 35.45000000 2047705664 2047705664 3.00000000
0.72619784 3.12064934 -0.62280059 2 4 1310 3.26400000 2047705666 2047705666 -11.00000000
5.38503504 23.12252808 2.07709575 29 5 1311 23.83200000 2047705668 2047705668 5.00000000
0.92279333 3.95920730 -0.64388424 2 6 1312 4.11600000 2047705671 2047705671 -9.00000000
3.61199784 15.48490238 1.95234692 36 7 1313 16.02000000 2047705673 2047705673 7.00000000
1.24280703 5.32380581 -0.67125636 2 8 1314 5.50800000 2047705675 2047705675 -7.00000000
3.24242473 13.87861538 2.25734925 39 9 1315 14.43000000 2047705678 2047705678 9.00000000
1.88424730 8.06518078 -0.72461283 4 10 1315 8.31400000 2047705680 2047705680 -5.00000000
2.45568800 10.50285530 2.09660935 50 11 1316 10.98800000 2047705682 2047705682 11.00000000
3.90849018 16.70326805 -0.89902705 5 12 1317 17.17800000 2047705685 2047705685 -3.00000000
2.33319902 9.96328640 2.36243606 59 13 1318 10.50200000 2047705687 2047705687 13.00000000
9.10668373 38.85704803 -0.69663024 4 14 1319 39.91600000 2047705689 2047705689 -1.00000000
2.01979947 8.61822414 2.37181783 45 15 1319 9.16400000 2047705691 2047705691 15.00000000
0.51793504 2.19615507 -0.60460126 4 0 1327 2.33600000 2047705712 2047705712 -15.00000000
10.18930340 43.17109299 0.77425855 10 1 1328 44.36400000 2047705715 2047705715 1.00000000
0.61955100 2.62293005 -0.62221462 3 2 1329 2.76600000 2047705717 2047705717 -13.00000000
8.14316750 34.44802475 1.85510027 49 3 1330 35.44600000 2047705719 2047705719 3.00000000
0.73889309 3.12573791 -0.62432700 2 4 1330 3.27200000 2047705721 2047705721 -11.00000000
5.46158695 23.08613968 2.07552695 36 5 1331 23.81400000 2047705724 2047705724 5.00000000
0.93842834 3.96365094 -0.64513576 2 6 1332 4.12400000 2047705726 2047705726 -9.00000000
3.66831660 15.48185825 1.95356560 40 7 1333 16.03000000 2047705728 2047705728 7.00000000
1.26413119 5.33102465 -0.67271876 2 8 1334 5.52000000 2047705731 2047705731 -7.00000000
3.23520470 13.63272858 2.21917939 43 9 1335 14.18600000 2047705733 2047705733 9.00000000
1.90134752 8.01202965 -0.72042936 4 10 1335 8.26600000 2047705735 2047705735 -5.00000000
2.49596405 10.50950050 2.09966230 50 11 1336 11.00400000 2047705738 2047705738 11.00000000
3.96215320 16.67009163 -0.89798033 5 12 1337 17.15800000 2047705740 2047705740 -3.00000000
2.36886501 9.95887375 2.36333585 57 13 1338 10.50600000 2047705742 2047705742 13.00000000
9.09592915 38.21029663 -0.68560034 4 14 1339 39.28400000 2047705744 2047705744 -1.00000000
2.04734397 8.59385014 2.36715889 40 15 1340 9.14600000 2047705747 2047705747 15.00000000
0.52348387 2.18888044 -0.60304838 4 0 1345 2.33000000 2047705768 2047705768 -15.00000000
10.32953358 43.15831375 0.77460760 10 1 1346 44.38400000 2047705770 2047705770 1.00000000
0.62778813 2.62097073 -0.62221462 3 2 1347 2.76600000 2047705772 2047705772 -13.00000000
8.24902153 34.41255951 1.85457695 49 3 1348 35.43600000 2047705774 2047705774 3.00000000
0.75053984 3.13103771 -0.62585348 2 4 1348 3.28000000 2047705777 2047705777 -11.00000000
5.53222799 23.06111908 2.07482958 43 5 1349 23.80600000 2047705779 2047705779 5.00000000
0.95548731 3.97989106 -0.64826441 2 6 1350 4.14400000 2047705781 2047705781 -9.00000000
3.71647239 15.46832752 1.95332181 36 7 1351 16.02800000 2047705784 2047705784 7.00000000
1.28272915 5.33474731 -0.67369372 2 8 1352 5.52800000 2047705786 2047705786 -7.00000000
3.22995377 13.42276001 2.18664098 38 9 1353 13.97800000 2047705788 2047705788 9.00000000
1.91438925 7.95565224 -0.71589726 4 10 1353 8.21400000 2047705791 2047705791 -5.00000000
4.01450443 16.65756226 -0.89798033 5 12 1355 17.15800000 2047705795 2047705795 -3.00000000
2.39922619 9.94759369 2.36243606 56 13 1356 10.50200000 2047705797 2047705797 13.00000000
9.05921459 37.53227615 -0.67394215 4 14 1357 38.61600000 2047705800 2047705800 -1.00000000
2.07147336 8.58210373 2.36560607 45 15 1357 9.14000000 2047705802 2047705802 15.00000000
0.53431255 2.20018077 -0.60667187 4 0 1365 2.34400000 2047705823 2047705823 -15.00000000
10.48153782 43.12782669 0.77471232 21 1 1366 44.39000000 2047705825 2047705825 1.00000000
0.63739371 2.62065673 -0.62266451 3 2 1367 2.76800000 2047705827 2047705827 -13.00000000
8.37098217 34.39131927 1.85499561 49 3 1368 35.44400000 2047705830 2047705830 3.00000000
0.76332182 3.13602901 -0.62737995 2 4 1368 3.28800000 2047705832 2047705832 -11.00000000
5.60797739 23.02230835 2.07308650 43 5 1369 23.78600000 2047705834 2047705834 5.00000000
0.96282411 3.94966316 -0.64388424 2 6 1370 4.11600000 2047705837 2047705837 -9.00000000
3.76668024 15.43983173 1.95137191 35 7 1371 16.01200000 2047705839 2047705839 7.00000000
1.29851818 5.31866646 -0.67223132 2 8 1372 5.51600000 2047705841 2047705841 -7.00000000
3.22240162 13.18880749 2.15034819 42 9 1373 13.74600000 2047705844 2047705844 9.00000000
1.94214809 7.94892120 -0.71589726 4 10 1373 8.21400000 2047705846 2047705846 -5.00000000
2.34971094 9.60974026 1.92297304 6 11 1374 10.07800000 2047705848 2047705848 11.00000000
4.09018993 16.71522713 -0.90185320 5 12 1375 17.23200000 2047705850 2047705850 -3.00000000
2.43486214 9.94294357 2.36333585 60 13 1376 10.50600000 2047705853 2047705853 13.00000000
9.04737759 36.91775894 -0.66347069 4 14 1377 38.01600000 2047705855 2047705855 -1.00000000
2.10371709 8.58420277 2.36819434 45 15 1377 9.15000000 2047705857 2047705857 15.00000000
0.54291427 2.20205355 -0.60770714 4 0 1385 2.34800000 2047705878 2047705878 -15.00000000
10.64974213 43.16280746 0.77600378 10 1 1386 44.46400000 2047705880 2047705880 1.00000000
0.64420187 2.60895634 -0.62041503 3 2 1387 2.75800000 2047705883 2047705883 -13.00000000
8.47540665 34.32458878 1.85290217 42 3 1387 35.40400000 2047705885 2047705885 3.00000000
0.77708977 3.14478111 -0.62966967 2 4 1388 3.30000000 2047705887 2047705887 -11.00000000
5.68447971 22.98711967 2.07169199 21 5 1389 23.77000000 2047705890 2047705890 5.00000000
0.97850329 3.95394826 -0.64513576 2 6 1390 4.12400000 2047705892 2047705892 -9.00000000
3.82007527 15.42466259 1.95112824 40 7 1391 16.01000000 2047705894 2047705894 7.00000000
1.31134534 5.29097986 -0.66930646 2 8 1392 5.49200000 2047705896 2047705896 -7.00000000
3.22049952 12.99398232 2.12031269 42 9 1392 13.55400000 2047705899 2047705899 9.00000000
1.96988308 7.94209337 -0.71589726 4 10 1393 8.21400000 2047705901 2047705901 -5.00000000
2.38749766 9.61862946 1.92640758 12 11 1394 10.09600000 2047705903 2047705903 11.00000000
4.15284586 16.71829414 -0.90279526 5 12 1395 17.25000000 2047705906 2047705906 -3.00000000
2.46767426 9.92681885 2.36153626 55 13 1396 10.49800000 2047705908 2047705908 13.00000000
9.03619099 36.32319641 -0.65334827 4 14 1397 37.43600000 2047705910 2047705910 -1.00000000
2.13366866 8.57680702 2.36819434 47 15 1397 9.15000000 2047705913 2047705913 15.00000000
0.55153555 2.20389318 -0.60874242 4 0 1405 2.35200000 2047705933 2047705933 -15.00000000
10.80228710 43.13312912 0.77614343 32 1 1406 44.47200000 2047705936 2047705936 1.00000000
0.65235740 2.60291123 -0.61951518 3 2 1407 2.75400000 2047705938 2047705938 -13.00000000
8.59241009 34.25842285 1.85101807 35 3 1408 35.36800000 2047705940 2047705940 3.00000000
0.78424144 3.12681508 -0.62661672 2 4 1408 3.28400000 2047705943 2047705943 -11.00000000
5.76322985 22.96133995 2.07116914 43 5 1409 23.76400000 2047705945 2047705945 5.00000000
0.99422407 3.95817208 -0.64638722 2 6 1410 4.13200000 2047705947 2047705947 -9.00000000
3.87244225 15.40545845 1.95039701 35 7 1411 16.00400000 2047705949 2047705949 7.00000000
1.33368039 5.30177116 -0.67125636 2 8 1412 5.50800000 2047705952 2047705952 -7.00000000
3.21650410 12.77712059 2.08683586 31 9 1413 13.34000000 2047705954 2047705954 9.00000000
2.00537634 7.96608257 -0.71868628 4 10 1413 8.24600000 2047705956 2047705956 -5.00000000
2.42345643 9.61975574 1.92831576 12 11 1414 10.10600000 2047705959 2047705959 11.00000000
4.21606064 16.72306252 -0.90384197 5 12 1415 17.27000000 2047705961 2047705961 -3.00000000
2.50135684 9.91436577 2.36063647 57 13 1416 10.49400000 2047705963 2047705963 13.00000000
9.01802826 35.71752930 -0.64301646 4 14 1417 36.84400000 2047705966 2047705966 -1.00000000
2.16461682 8.56705570 2.36767673 45 15 1418 9.14800000 2047705968 2047705968 15.00000000
0.55827415 2.19820976 -0.60770714 4 0 1425 2.34800000 2047705989 2047705989 -15.00000000
10.96263504 43.13392258 0.77684152 32 1 1426 44.51200000 2047705991 2047705991 1.00000000
0.66240001 2.60439539 -0.62041503 3 2 1427 2.75800000 2047705993 2047705993 -13.00000000
8.70301342 34.21812820 1.85039008 49 3 1427 35.35600000 2047705996 2047705996 3.00000000
0.79224575 3.11264300 -0.62432700 2 4 1428 3.27200000 2047705998 2047705998 -11.00000000
5.83498430 22.90826035 2.06820583 43 5 1429 23.73000000 2047706000 2047706000 5.00000000
1.00608301 3.94702077 -0.64513576 2 6 1430 4.12400000 2047706002 2047706002 -9.00000000
3.92717505 15.39569473 1.95088446 36 7 1431 16.00800000 2047706005 2047706005 7.00000000
1.35414290 5.30477715 -0.67223132 2 8 1432 5.51600000 2047706007 2047706007 -7.00000000
3.19654775 12.51317883 2.04553699 10 9 1433 13.07600000 2047706009 2047706009 9.00000000
2.02232218 7.91656542 -0.71485138 4 10 1433 8.20200000 2047706012 2047706012 -5.00000000
2.46139717 9.62835598 1.93175030 15 11 1434 10.12400000 2047706014 2047706014 11.00000000
4.28133965 16.73533249 -0.90530735 5 12 1435 17.29800000 2047706016 2047706016 -3.00000000
2.53498244 9.90179825 2.35973644 59 13 1436 10.49000000 2047706019 2047706019 13.00000000
8.82403278 34.44219589 -0.62060755 4 14 1437 35.56000000 2047706021 2047706021 -1.00000000
2.19013739 8.54860210 2.36457086 42 15 1437 9.13600000 2047706023 2047706023 15.00000000
0.56401569 2.18876457 -0.60563654 4 0 1445 2.34000000 2047706044 2047706044 -15.00000000
8.88411522 34.45153046 0.62102646 24 1 1446 35.58400000 2047706046 2047706046 1.00000000
0.67246085 2.60584116 -0.62131482 3 2 1447 2.76200000 2047706048 2047706048 -13.00000000
8.80843067 34.13339233 1.84745920 56 3 1447 35.30000000 2047706051 2047706051 3.00000000
0.80506963 3.11746216 -0.62585348 2 4 1448 3.28000000 2047706053 2047706053 -11.00000000
5.91142416 22.87425041 2.06698561 36 5 1449 23.71600000 2047706055 2047706055 5.00000000
1.02578962 3.96643424 -0.64889014 2 6 1450 4.14800000 2047706058 2047706058 -9.00000000
3.97890282 15.37420559 1.94990945 35 7 1451 16.00000000 2047706060 2047706060 7.00000000
1.37265182 5.30001783 -0.67223132 2 8 1452 5.51600000 2047706062 2047706062 -7.00000000
3.15298247 12.16539764 1.99047208 6 9 1453 12.72400000 2047706065 2047706065 9.00000000
2.05294299 7.92102957 -0.71589726 4 10 1453 8.21400000 2047706067 2047706067 -5.00000000
2.49400544 9.61590481 1.93098700 18 11 1454 10.12000000 2047706069 2047706069 11.00000000
4.35177279 16.76668358 -0.90781951 5 12 1455 17.34600000 2047706072 2047706072 -3.00000000
2.57051063 9.89666176 2.36063647 60 13 1456 10.49400000 2047706074 2047706074 13.00000000
8.95728397 34.46150589 -0.62151510 4 14 1457 35.61200000 2047706076 2047706076 -1.00000000
2.21899247 8.53716564 2.36353540 45 15 1457 9.13200000 2047706078 2047706078 15.00000000
0.57360685 2.19425869 -0.60770714 4 0 1465 2.34800000 2047706099 2047706099 -15.00000000
8.99774075 34.39515686 0.62057269 32 1 1466 35.55800000 2047706101 2047706101 1.00000000
0.68007231 2.59782243 -0.61996508 3 2 1467 2.75600000 2047706104 2047706104 -13.00000000
8.91778564 34.04098511 1.84421444 49 3 1468 35.23800000 2047706106 2047706106 3.00000000
0.81495166 3.11083460 -0.62509024 2 4 1468 3.27600000 2047706108 2047706108 -11.00000000
5.98921299 22.84576607 2.06628823 29 5 1469 23.70800000 2047706111 2047706111 5.00000000
1.03662121 3.95136523 -0.64701295 2 6 1470 4.13600000 2047706113 2047706113 -9.00000000
4.02851200 15.34486198 1.94795954 32 7 1471 15.98400000 2047706115 2047706115 7.00000000
1.38912630 5.28751421 -0.67125636 2 8 1472 5.50800000 2047706118 2047706118 -7.00000000
3.23597145 12.31727123 2.01706600 30 9 1472 12.89400000 2047706120 2047706120 9.00000000
2.07551408 7.89454651 -0.71415418 4 10 1473 8.19400000 2047706122 2047706122 -5.00000000
2.52705669 9.60524178 1.93060541 15 11 1474 10.11800000 2047706125 2047706125 11.00000000
4.41790056 16.78036118 -0.90938956 5 12 1475 17.37600000 2047706127 2047706127 -3.00000000
2.60603380 9.89139748 2.36153626 59 13 1476 10.49800000 2047706129 2047706129 13.00000000
8.97352314 34.03556824 -0.61439455 4 14 1477 35.20400000 2047706131 2047706131 -1.00000000
2.25421047 8.54391861 2.36767673 40 15 1478 9.14800000 2047706134 2047706134 15.00000000
0.58126271 2.19224310 -0.60770714 4 0 1485 2.34800000 2047706154 2047706154 -15.00000000
8.99261475 33.89193344 0.61205590 31 1 1486 35.07000000 2047706157 2047706157 1.00000000
0.68663573 2.58601522 -0.61771560 3 2 1487 2.74600000 2047706159 2047706159 -13.00000000
9.00396824 33.91084671 1.83877146 56 3 1487 35.13400000 2047706161 2047706161 3.00000000
0.83185542 3.13073993 -0.62966967 2 4 1488 3.30000000 2047706164 2047706164 -11.00000000
6.06380367 22.80546570 2.06454515 58 5 1489 23.68800000 2047706166 2047706166 5.00000000
1.04532838 3.92863297 -0.64388424 2 6 1490 4.11600000 2047706168 2047706168 -9.00000000
4.07796478 15.31536102 1.94600964 36 7 1491 15.96800000 2047706171 2047706171 7.00000000
1.40399694 5.26920605 -0.66955018 2 8 1492 5.49400000 2047706173 2047706173 -7.00000000
3.28363943 12.31487179 2.01863027 43 9 1493 12.90400000 2047706175 2047706175 9.00000000
2.11332488 7.92575598 -0.71764040 4 10 1493 8.23400000 2047706178 2047706178 -5.00000000
2.56158209 9.60015583 1.93136871 15 11 1494 10.12200000 2047706180 2047706180 11.00000000
4.47799397 16.77062798 -0.90970361 5 12 1495 17.38200000 2047706182 2047706182 -3.00000000
2.63853312 9.87470913 2.35973644 57 13 1496 10.49000000 2047706184 2047706184 13.00000000
8.97036934 33.54812622 -0.60615700 4 14 1497 34.73200000 2047706187 2047706187 -1.00000000
2.28202319 8.52853298 2.36560607 42 15 1498 9.14000000 2047706189 2047706189 15.00000000
0.59029770 2.19382882 -0.60874242 4 0 1506 2.35200000 2047706210 2047706210 -15.00000000
8.98939419 33.38566971 0.60350424 30 1 1507 34.58000000 2047706212 2047706212 1.00000000
0.69813734 2.59100771 -0.61951518 3 2 1508 2.75400000 2047706214 2047706214 -13.00000000
9.03830242 33.54399109 1.82066321 61 3 1508 34.78800000 2047706217 2047706217 3.00000000
0.83616906 3.10113215 -0.62432700 2 4 1509 3.27200000 2047706219 2047706219 -11.00000000
6.15824842 22.82348442 2.06820583 43 5 1510 23.73000000 2047706221 2047706221 5.00000000
1.05972052 3.92477536 -0.64388424 2 6 1511 4.11600000 2047706224 2047706224 -9.00000000
4.12992859 15.28498077 1.94405973 36 7 1512 15.95200000 2047706226 2047706226 7.00000000
1.42796338 5.28127098 -0.67174381 2 8 1513 5.51200000 2047706228 2047706228 -7.00000000
3.32145047 12.28426552 2.01550174 47 9 1513 12.88400000 2047706231 2047706231 9.00000000
2.14444160 7.92564964 -0.71833766 4 10 1514 8.24200000 2047706233 2047706233 -5.00000000
2.60136890 9.60775852 1.93480325 18 11 1515 10.14000000 2047706235 2047706235 11.00000000
4.54674339 16.78108978 -0.91116899 5 12 1516 17.41000000 2047706237 2047706237 -3.00000000
2.67266798 9.85744953 2.35793686 56 13 1517 10.48200000 2047706240 2047706240 13.00000000
4.76917505 17.57772827 -0.31791303 2 14 1518 18.21600000 2047706242 2047706242 -1.00000000
2.31529117 8.52756977 2.36767673 40 15 1519 9.14800000 2047706244 2047706244 15.00000000
0.59896892 2.19548249 -0.60977769 4 0 1526 2.35600000 2047706265 2047706265 -15.00000000
8.97790051 32.88531876 0.59502232 29 1 1527 34.09400000 2047706267 2047706267 1.00000000
0.70820451 2.59231472 -0.62041503 3 2 1528 2.75800000 2047706270 2047706270 -13.00000000
9.03427696 33.06910324 1.79658866 46 3 1528 34.32800000 2047706272 2047706272 3.00000000
0.84595352 3.09440708 -0.62356383 2 4 1529 3.26800000 2047706274 2047706274 -11.00000000
6.24103403 22.81337929 2.06925154 36 5 1530 23.74200000 2047706277 2047706277 5.00000000
1.08280253 3.95534730 -0.64951593 2 6 1531 4.15200000 2047706279 2047706279 -9.00000000
4.76018667 17.37647820 2.21217227 26 7 1532 18.15200000 2047706281 2047706281 7.00000000
1.44114161 5.25710964 -0.66930646 2 8 1533 5.49200000 2047706284 2047706284 -7.00000000
3.36169910 12.26307106 2.01393723 43 9 1533 12.87400000 2047706286 2047706286 9.00000000
2.17947316 7.94501591 -0.72077799 4 10 1534 8.27000000 2047706288 2047706288 -5.00000000
2.63904810 9.61376476 1.93785620 25 11 1535 10.15600000 2047706290 2047706290 11.00000000
4.61798954 16.81133842 -0.91368115 5 12 1536 17.45800000 2047706293 2047706293 -3.00000000
2.70706081 9.84805965 2.35793686 56 13 1537 10.48200000 2047706295 2047706295 13.00000000
8.93865967 32.49589920 -0.58828574 4 14 1538 33.70800000 2047706297 2047706297 -1.00000000
2.34094238 8.50453472 2.36353540 45 15 1539 9.13200000 2047706300 2047706300 15.00000000
0.60174876 2.17869282 -0.60563654 4 0 1544 2.34000000 2047706320 2047706320 -15.00000000
8.95225143 32.39051056 0.58657539 28 1 1545 33.61000000 2047706323 2047706323 1.00000000
0.71842289 2.59758997 -0.62221462 3 2 1546 2.76600000 2047706325 2047706325 -13.00000000
9.01673508 32.60166168 1.77272356 52 3 1546 33.87200000 2047706327 2047706327 3.00000000
0.85881269 3.10308695 -0.62585348 2 4 1547 3.28000000 2047706330 2047706330 -11.00000000
6.31267357 22.79365921 2.06925154 36 5 1548 23.74200000 2047706332 2047706332 5.00000000
1.08783746 3.92527533 -0.64513576 2 6 1549 4.12400000 2047706334 2047706334 -9.00000000
4.80467367 17.32509422 2.20754123 38 7 1550 18.11400000 2047706336 2047706336 7.00000000
1.46242750 5.26977158 -0.67150009 2 8 1551 5.51000000 2047706339 2047706339 -7.00000000
3.39915156 12.24864292 2.01331162 40 9 1551 12.87000000 2047706341 2047706341 9.00000000
2.19269395 7.89589500 -0.71694314 4 10 1552 8.22600000 2047706343 2047706343 -5.00000000
2.67028880 9.60921001 1.93861938 21 11 1553 10.16000000 2047706346 2047706346 11.00000000
4.66757059 16.78520203 -0.91305310 5 12 1554 17.44600000 2047706348 2047706348 -3.00000000
2.73798585 9.83950615 2.35793686 59 13 1555 10.48200000 2047706350 2047706350 13.00000000
8.91947460 32.03229141 -0.58039725 4 14 1556 33.25600000 2047706353 2047706353 -1.00000000
2.36564732 8.49569035 2.36301780 38 15 1556 9.13000000 2047706355 2047706355 15.00000000
0.61039174 2.18029976 -0.60667187 4 0 1564 2.34400000 2047706376 2047706376 -15.00000000
8.93417740 31.89115334 0.57809353 27 1 1565 33.12400000 2047706378 2047706378 1.00000000
0.72432965 2.58380795 -0.61951518 3 2 1566 2.75400000 2047706380 2047706380 -13.00000000
9.01403141 32.15459442 1.75011432 56 3 1566 33.44000000 2047706383 2047706383 3.00000000
0.87176031 3.10763121 -0.62737995 2 4 1567 3.28800000 2047706385 2047706385 -11.00000000
6.38789225 22.75613976 2.06785727 36 5 1568 23.72600000 2047706387 2047706387 5.00000000
1.10153258 3.92145395 -0.64513576 2 6 1569 4.12400000 2047706389 2047706389 -9.00000000
4.86028576 17.29101753 2.20534754 42 7 1570 18.09600000 2047706392 2047706392 7.00000000
1.48457611 5.27801132 -0.67320627 2 8 1571 5.52400000 2047706394 2047706394 -7.00000000
3.44509578 12.24811268 2.01518869 43 9 1571 12.88200000 2047706396 2047706396 9.00000000
2.21700358 7.87668610 -0.71589726 4 10 1572 8.21400000 2047706399 2047706399 -5.00000000
2.70381498 9.59983063 1.93861938 21 11 1573 10.16000000 2047706401 2047706401 11.00000000
4.74022055 16.81878853 -0.91577458 5 12 1574 17.49800000 2047706403 2047706403 -3.00000000
2.77337337 9.83364010 2.35883665 59 13 1575 10.48600000 2047706406 2047706406 13.00000000
8.90739918 31.56217003 -0.57243896 4 14 1576 32.80000000 2047706408 2047706408 -1.00000000
2.39729452 8.48882198 2.36353540 42 15 1577 9.13200000 2047706410 2047706410 15.00000000
0.61943412 2.18176484 -0.60770714 4 0 1585 2.34800000 2047706431 2047706431 -15.00000000
8.94498444 31.48502159 0.57132196 20 1 1586 32.73600000 2047706433 2047706433 1.00000000
0.73326206 2.57926130 -0.61906528 3 2 1587 2.75200000 2047706436 2047706436 -13.00000000
9.00736332 31.66253853 1.72520244 42 3 1588 32.96400000 2047706438 2047706438 3.00000000
0.88314450 3.10441518 -0.62737995 2 4 1588 3.28800000 2047706440 2047706440 -11.00000000
6.47452784 22.74407196 2.06890297 43 5 1589 23.73800000 2047706442 2047706442 5.00000000
1.11373329 3.90979123 -0.64388424 2 6 1590 4.11600000 2047706445 2047706445 -9.00000000
4.92036295 17.26163292 2.20388532 42 7 1591 18.08400000 2047706447 2047706447 7.00000000
1.50118852 5.26299000 -0.67198753 2 8 1592 5.51400000 2047706449 2047706449 -7.00000000
3.49267340 12.24490070 2.01675320 43 9 1592 12.89200000 2047706452 2047706452 9.00000000
2.25679493 7.90682507 -0.71938348 4 10 1593 8.25400000 2047706454 2047706454 -5.00000000
2.74059939 9.59551907 1.93976426 25 11 1594 10.16600000 2047706456 2047706456 11.00000000
3.19811153 11.18998623 -0.60992324 4 12 1595 11.65400000 2047706459 2047706459 -3.00000000
2.80725360 9.81591511 2.35703707 59 13 1596 10.47800000 2047706461 2047706461 13.00000000
3.20537305 11.20059490 -0.20335545 2 14 1597 11.65200000 2047706463 2047706463 -1.00000000
2.43116379 8.49526024 2.36767673 42 15 1597 9.14800000 2047706466 2047706466 15.00000000
0.62758023 2.18144584 -0.60822475 3 0 1605 2.35000000 2047706486 2047706486 -15.00000000
3.21964383 11.18401623 0.20314601 3 1 1606 11.64000000 2047706489 2047706489 1.00000000
0.74280030 2.57855868 -0.61951518 3 2 1607 2.75400000 2047706491 2047706491 -13.00000000
9.03651142 31.34879494 1.70981574 18 3 1608 32.67000000 2047706493 2047706493 3.00000000
0.89180040 3.09376788 -0.62585348 2 4 1608 3.28000000 2047706495 2047706495 -11.00000000
6.54835796 22.70218849 2.06715989 21 5 1609 23.71800000 2047706498 2047706498 5.00000000
1.13285232 3.92485881 -0.64701295 2 6 1610 4.13600000 2047706500 2047706500 -9.00000000
4.97838402 17.23672485 2.20291018 44 7 1611 18.07600000 2047706502 2047706502 7.00000000
1.52340877 5.27106714 -0.67369372 2 8 1612 5.52800000 2047706505 2047706505 -7.00000000
3.53423691 12.22063160 2.01487589 43 9 1613 12.88000000 2047706507 2047706507 9.00000000
2.26998949 7.84913635 -0.71485138 4 10 1613 8.20200000 2047706509 2047706509 -5.00000000
2.78062654 9.60852432 1.94434369 25 11 1614 10.19000000 2047706512 2047706512 11.00000000
3.20770860 11.07707691 -0.60437560 4 12 1615 11.54800000 2047706514 2047706514 -3.00000000
2.84041572 9.80231285 2.35613728 56 13 1616 10.47400000 2047706516 2047706516 13.00000000
3.21660638 11.09330845 -0.20161019 6 14 1617 11.55200000 2047706519 2047706519 -1.00000000
2.46120739 8.48258209 2.36664128 42 15 1618 9.14400000 2047706521 2047706521 15.00000000
0.63318992 2.17378831 -0.60667187 4 0 1624 2.34400000 2047706542 2047706542 -15.00000000
3.23656893 11.10416508 0.20188944 6 1 1625 11.56800000 2047706544 2047706544 1.00000000
0.75134706 2.57608128 -0.61951518 3 2 1626 2.75400000 2047706546 2047706546 -13.00000000
3.24544978 11.12018394 0.60709709 28 3 1627 11.60000000 2047706548 2047706548 3.00000000
0.90095478 3.08702421 -0.62509024 2 4 1627 3.27600000 2047706551 2047706551 -11.00000000
3.25064349 11.13075542 1.01449287 25 5 1628 11.64000000 2047706553 2047706553 5.00000000
1.14253676 3.90970397 -0.64513576 2 6 1629 4.12400000 2047706555 2047706555 -9.00000000
3.26099491 11.15173340 1.42660248 27 7 1630 11.70600000 2047706558 2047706558 7.00000000
1.53307509 5.23931313 -0.67028141 2 8 1631 5.50000000 2047706560 2047706560 -7.00000000
3.27193546 11.18190098 1.84530091 15 9 1631 11.79600000 2047706562 2047706562 9.00000000
2.31616092 7.91040134 -0.72112662 4 10 1632 8.27400000 2047706565 2047706565 -5.00000000
2.81744218 9.61620712 1.94777822 21 11 1633 10.20800000 2047706567 2047706567 11.00000000
3.20565271 10.93413448 -0.59715325 4 12 1634 11.41000000 2047706569 2047706569 -3.00000000
2.87071133 9.78535938 2.35433769 59 13 1635 10.46600000 2047706572 2047706572 13.00000000
3.21451068 10.95018864 -0.19920176 6 14 1636 11.41400000 2047706574 2047706574 -1.00000000
2.48784399 8.47480869 2.36664128 42 15 1636 9.14400000 2047706576 2047706576 15.00000000
0.63968050 2.16785908 -0.60563654 4 0 1644 2.34000000 2047706597 2047706597 -15.00000000
3.23283982 10.94896126 0.19927157 6 1 1645 11.41800000 2047706599 2047706599 1.00000000
0.76364768 2.58465600 -0.62221462 3 2 1646 2.76600000 2047706601 2047706601 -13.00000000
3.24347687 10.97088528 0.59956074 28 3 1647 11.45600000 2047706604 2047706604 3.00000000
