# .PCD v0.7 - Point Cloud Data file format
VERSION 0.7
FIELDS x y z intensity laser_id azimuth distance_m adjustedtime timestamp vertical_angle
SIZE 4 4 4 1 1 2 8 8 4 8
TYPE F F F U U U F U U F
COUNT 1 1 1 1 1 1 1 1 1 1
WIDTH 541
HEIGHT 1
VIEWPOINT 0 0 0 1 0 0 0
POINTS 541
DATA ascii
3.03043175 3.03890610 0.83421695 65 11 4492 4.37200000 2048214517 2048214517 11.00000000
3.00446939 3.01181960 -0.22295117 8 12 4493 4.26000000 2048214519 2048214519 -3.00000000
3.02284575 3.02918339 0.98798501 54 13 4494 4.39200000 2048214522 2048214522 13.00000000
2.99647188 3.00170612 -0.07403311 7 14 4495 4.24200000 2048214524 2048214524 -1.00000000
3.02499819 3.02922487 1.14708602 60 15 4496 4.43200000 2048214526 2048214526 15.00000000
1.61822069 1.61652696 -0.61288351 4 0 4503 2.36800000 2048214547 2048214547 -15.00000000
2.99693823 2.99275661 0.07392839 7 1 4504 4.23600000 2048214549 2048214549 1.00000000
1.92669952 1.92333972 -0.62851322 3 2 4505 2.79400000 2048214552 2048214552 -13.00000000
3.01501107 3.00975347 0.22326519 7 3 4505 4.26600000 2048214554 2048214554 3.00000000
2.32355070 2.31868935 -0.63806528 4 4 4506 3.34400000 2048214556 2048214556 -11.00000000
3.01858163 3.01121497 0.37302658 7 5 4507 4.28000000 2048214559 2048214559 5.00000000
2.94856739 2.94034505 -0.65952772 13 6 4508 4.21600000 2048214561 2048214561 -9.00000000
3.02684975 3.01735544 0.52476937 67 7 4509 4.30600000 2048214563 2048214563 7.00000000
2.99784780 2.98740149 -0.51965088 10 8 4510 4.26400000 2048214566 2048214566 -7.00000000
3.02235413 3.01182246 0.67579687 70 9 4510 4.32000000 2048214568 2048214568 9.00000000
2.99527550 2.98379660 -0.36988896 9 10 4511 4.24400000 2048214570 2048214570 -5.00000000
3.01737165 3.00475883 0.82772940 63 11 4512 4.33800000 2048214572 2048214572 11.00000000
2.98948550 2.97595048 -0.22106709 8 12 4513 4.22400000 2048214575 2048214575 -3.00000000
3.02373195 3.00899124 0.98483574 57 13 4514 4.37800000 2048214577 2048214577 13.00000000
3.00267839 2.98699737 -0.07392839 7 14 4515 4.23600000 2048214579 2048214579 -1.00000000
3.02733469 3.01047397 1.14398015 60 15 4516 4.42000000 2048214582 2048214582 15.00000000
1.61917818 1.60735226 -0.61133057 4 0 4521 2.36200000 2048214602 2048214602 -15.00000000
3.00206709 2.97910094 0.07382368 7 1 4522 4.23000000 2048214605 2048214605 1.00000000
1.92719841 1.91178763 -0.62671363 3 2 4523 2.78600000 2048214607 2048214607 -13.00000000
3.01594400 2.99182725 0.22263716 7 3 4523 4.25400000 2048214609 2048214609 3.00000000
2.33918786 2.31967282 -0.64035499 4 4 4524 3.35600000 2048214612 2048214612 -11.00000000
3.01953697 2.99330091 0.37198070 7 5 4525 4.26800000 2048214614 2048214614 5.00000000
2.95358086 2.92689610 -0.65858912 13 6 4526 4.21000000 2048214616 2048214616 -9.00000000
3.00951886 2.98128772 0.52013838 61 7 4527 4.26800000 2048214618 2048214618 7.00000000
2.99029207 2.96120715 -0.51672602 10 8 4528 4.24000000 2048214621 2048214621 -7.00000000
3.02618670 2.99675274 0.67454541 68 9 4528 4.31200000 2048214623 2048214623 9.00000000
2.99330711 2.96315861 -0.36849448 9 10 4529 4.22800000 2048214625 2048214625 -5.00000000
3.02121449 2.98974109 0.82620293 63 11 4530 4.33000000 2048214628 2048214628 11.00000000
2.99314046 2.96092558 -0.22064839 8 12 4531 4.21600000 2048214630 2048214630 -3.00000000
3.02069926 2.98714471 0.98078662 58 13 4532 4.36000000 2048214632 2048214632 13.00000000
2.99924827 2.96489692 -0.07361425 7 14 4533 4.21800000 2048214635 2048214635 -1.00000000
3.03075814 2.99604583 1.14190960 62 15 4533 4.41200000 2048214637 2048214637 15.00000000
1.62477899 1.60169041 -0.61133057 4 0 4541 2.36200000 2048214658 2048214658 -15.00000000
2.99962902 2.95597124 0.07350954 7 1 4542 4.21200000 2048214660 2048214660 1.00000000
1.92830706 1.89957857 -0.62491405 3 2 4543 2.77800000 2048214662 2048214662 -13.00000000
3.00644946 2.96165848 0.22117175 7 3 4543 4.22600000 2048214665 2048214665 3.00000000
2.33048463 2.29496288 -0.63577557 4 4 4544 3.33200000 2048214667 2048214667 -11.00000000
3.02002835 2.97295856 0.37076053 7 5 4545 4.25400000 2048214669 2048214669 5.00000000
2.96941161 2.92211032 -0.65984058 13 6 4546 4.21800000 2048214671 2048214671 -9.00000000
3.01424670 2.96519589 0.51916343 63 7 4547 4.26000000 2048214674 2048214674 7.00000000
2.98079491 2.93126512 -0.51331365 8 8 4548 4.21200000 2048214676 2048214676 -7.00000000
3.02958655 2.97924590 0.67298108 72 9 4548 4.30200000 2048214678 2048214678 9.00000000
3.00079060 2.94989848 -0.36814585 9 10 4549 4.22400000 2048214681 2048214681 -5.00000000
3.02183032 2.96954441 0.82353163 55 11 4550 4.31600000 2048214683 2048214683 11.00000000
2.99490905 2.94206166 -0.22002035 8 12 4551 4.20400000 2048214685 2048214685 -3.00000000
3.01303244 2.95883203 0.97493786 59 13 4552 4.33400000 2048214688 2048214688 13.00000000
2.99816346 2.94320273 -0.07333501 7 14 4553 4.20200000 2048214690 2048214690 -1.00000000
3.03344584 2.97679901 1.13880384 62 15 4554 4.40000000 2048214692 2048214692 15.00000000
1.63312101 1.59871197 -0.61236584 4 0 4561 2.36600000 2048214713 2048214713 -15.00000000
3.00421214 2.93988824 0.07336992 7 1 4562 4.20400000 2048214715 2048214715 1.00000000
1.94328427 1.90101230 -0.62761343 3 2 4563 2.79000000 2048214718 2048214718 -13.00000000
3.00871658 2.94224095 0.22054371 7 3 4564 4.21400000 2048214720 2048214720 3.00000000
2.33848119 2.28681397 -0.63577557 4 4 4564 3.33200000 2048214722 2048214722 -11.00000000
3.01614022 2.94847083 0.36901742 7 5 4565 4.23400000 2048214724 2048214724 5.00000000
2.97818089 2.91034675 -0.65952772 11 6 4566 4.21600000 2048214727 2048214727 -9.00000000
3.01463890 2.94494605 0.51745725 45 7 4567 4.24600000 2048214729 2048214729 7.00000000
2.99100876 2.92084217 -0.51331365 8 8 4568 4.21200000 2048214731 2048214731 -7.00000000
3.01735497 2.94657040 0.66797519 72 9 4568 4.27000000 2048214734 2048214734 9.00000000
2.99681234 2.92548800 -0.36640275 9 10 4569 4.20400000 2048214736 2048214736 -5.00000000
3.02515197 2.95212221 0.82162356 25 11 4570 4.30600000 2048214738 2048214738 11.00000000
3.00087142 2.92740560 -0.21970634 8 12 4571 4.19800000 2048214741 2048214741 -3.00000000
3.01357627 2.93877292 0.97178853 57 13 4572 4.32000000 2048214743 2048214743 13.00000000
2.98980403 2.91457295 -0.07288125 8 14 4573 4.17600000 2048214745 2048214745 -1.00000000
3.02393413 2.94784427 1.13155687 66 15 4573 4.37200000 2048214748 2048214748 15.00000000
1.63315082 1.58761525 -0.61029530 4 0 4581 2.35800000 2048214768 2048214768 -15.00000000
3.00154901 2.91684103 0.07305577 8 1 4582 4.18600000 2048214771 2048214771 1.00000000
1.95549929 1.89964879 -0.62941307 3 2 4583 2.79800000 2048214773 2048214773 -13.00000000
3.01610279 2.92893767 0.22033438 7 3 4584 4.21000000 2048214775 2048214775 3.00000000
2.35208321 2.28410816 -0.63730204 2 4 4584 3.34000000 2048214777 2048214777 -11.00000000
3.01783633 2.92959809 0.36797154 7 5 4585 4.22200000 2048214780 2048214780 5.00000000
2.97414565 2.88617659 -0.65639901 9 6 4586 4.19600000 2048214782 2048214782 -9.00000000
3.02347541 2.93302274 0.51721346 36 7 4587 4.24400000 2048214784 2048214784 7.00000000
2.99263573 2.90209222 -0.51185125 8 8 4588 4.20000000 2048214787 2048214787 -7.00000000
3.01962447 2.92724180 0.66609794 72 9 4589 4.25800000 2048214789 2048214789 9.00000000
2.99556160 2.90391517 -0.36500826 9 10 4589 4.18800000 2048214791 2048214791 -5.00000000
3.01992989 2.92651582 0.81742573 8 11 4590 4.28400000 2048214794 2048214794 11.00000000
3.00389910 2.90996432 -0.21918298 8 12 4591 4.18800000 2048214796 2048214796 -3.00000000
3.02521586 2.92959118 0.97223848 14 13 4592 4.32200000 2048214798 2048214798 13.00000000
2.99421263 2.89855528 -0.07274163 8 14 4593 4.16800000 2048214801 2048214801 -1.00000000
3.01389456 2.91658974 1.12379229 22 15 4594 4.34200000 2048214803 2048214803 15.00000000
1.64702201 1.58995521 -0.61340111 4 0 4601 2.37000000 2048214824 2048214824 -15.00000000
2.99732304 2.89245987 0.07270672 7 1 4602 4.16600000 2048214826 2048214826 1.00000000
1.95650840 1.88739944 -0.62761343 3 2 4603 2.79000000 2048214828 2048214828 -13.00000000
3.01193166 2.90452766 0.21928766 7 3 4604 4.19000000 2048214830 2048214830 3.00000000
2.36569476 2.28133535 -0.63882852 2 4 4604 3.34800000 2048214833 2048214833 -11.00000000
3.01370001 2.90521812 0.36622843 7 5 4605 4.20200000 2048214835 2048214835 5.00000000
2.97424531 2.86618209 -0.65420896 9 6 4606 4.18200000 2048214837 2048214837 -9.00000000
3.02368760 2.91281056 0.51550734 26 7 4607 4.23000000 2048214840 2048214840 7.00000000
2.99559832 2.88474345 -0.51063257 8 8 4608 4.19000000 2048214842 2048214842 -7.00000000
3.02220058 2.91036129 0.66453362 70 9 4608 4.24800000 2048214844 2048214844 9.00000000
2.99706769 2.88515043 -0.36396238 9 10 4609 4.17600000 2048214847 2048214847 -5.00000000
3.01598072 2.90234303 0.81360954 21 11 4610 4.26400000 2048214849 2048214849 11.00000000
2.99820542 2.88422990 -0.21803160 7 12 4611 4.16600000 2048214851 2048214851 -3.00000000
3.02278185 2.90685654 0.96818936 11 13 4612 4.30400000 2048214854 2048214854 13.00000000
3.00142908 2.88531423 -0.07267182 8 14 4613 4.16400000 2048214856 2048214856 -1.00000000
3.02215695 2.90524030 1.12327468 14 15 4613 4.34000000 2048214858 2048214858 15.00000000
1.65256190 1.58419633 -0.61340111 4 0 4621 2.37000000 2048214879 2048214879 -15.00000000
2.99296355 2.86814404 0.07235768 8 1 4622 4.14600000 2048214881 2048214881 1.00000000
1.96027017 1.87786222 -0.62671363 3 2 4623 2.78600000 2048214883 2048214883 -13.00000000
3.00906944 2.88156390 0.21834561 7 3 4624 4.17200000 2048214886 2048214886 3.00000000
2.38215137 2.28121066 -0.64111823 2 4 4624 3.36000000 2048214888 2048214888 -11.00000000
3.01518750 2.88641405 0.36518255 7 5 4625 4.19000000 2048214890 2048214890 5.00000000
2.98137760 2.85305119 -0.65358317 9 6 4626 4.17800000 2048214893 2048214893 -9.00000000
3.02236128 2.89126039 0.51355743 15 7 4627 4.21400000 2048214895 2048214895 7.00000000
2.98843360 2.85780573 -0.50770766 8 8 4628 4.16600000 2048214897 2048214897 -7.00000000
3.02285218 2.88970971 0.66234350 72 9 4629 4.23400000 2048214900 2048214900 9.00000000
2.99559903 2.86365700 -0.36256790 9 10 4629 4.16000000 2048214902 2048214902 -5.00000000
3.02325463 2.88908505 0.81284630 17 11 4630 4.26000000 2048214904 2048214904 11.00000000
2.99381304 2.85995054 -0.21698487 7 12 4631 4.14600000 2048214906 2048214906 -3.00000000
3.01881695 2.88282871 0.96369034 11 13 4632 4.28400000 2048214909 2048214909 13.00000000
3.00280380 2.86653495 -0.07246239 8 14 4633 4.15200000 2048214911 2048214911 -1.00000000
3.02300167 2.88480806 1.11965120 12 15 4634 4.32600000 2048214913 2048214913 15.00000000
1.65248489 1.57309020 -0.61133057 4 0 4641 2.36200000 2048214934 2048214934 -15.00000000
3.00005984 2.85492206 0.07228786 7 1 4642 4.14200000 2048214936 2048214936 1.00000000
1.96963704 1.87369454 -0.62761343 3 2 4643 2.79000000 2048214939 2048214939 -13.00000000
3.01042557 2.86278462 0.21771757 7 3 4644 4.16000000 2048214941 2048214941 3.00000000
2.37871838 2.26205826 -0.63806528 2 4 4644 3.34400000 2048214943 2048214943 -11.00000000
3.02091241 2.87175322 0.36465964 7 5 4645 4.18400000 2048214946 2048214946 5.00000000
2.99418235 2.84534836 -0.65420896 9 6 4646 4.18200000 2048214948 2048214948 -9.00000000
3.02523923 2.87385678 0.51233870 8 7 4647 4.20400000 2048214950 2048214950 7.00000000
2.98255706 2.83232021 -0.50502658 8 8 4648 4.14400000 2048214953 2048214953 -7.00000000
3.01952624 2.86742735 0.65952772 66 9 4648 4.21600000 2048214955 2048214955 9.00000000
2.99979687 2.84769607 -0.36187065 9 10 4649 4.15200000 2048214957 2048214957 -5.00000000
3.02477646 2.87040567 0.81055659 10 11 4650 4.24800000 2048214959 2048214959 11.00000000
2.99508405 2.84123516 -0.21635684 7 12 4651 4.13400000 2048214962 2048214962 -3.00000000
3.01047897 2.85484147 0.95784158 10 13 4652 4.25800000 2048214964 2048214964 13.00000000
2.99537659 2.83952689 -0.07204353 10 14 4653 4.12800000 2048214966 2048214966 -1.00000000
3.03114939 2.87343860 1.11913359 14 15 4653 4.32400000 2048214969 2048214969 15.00000000
1.66077363 1.56996655 -0.61236584 4 0 4661 2.36600000 2048214989 2048214989 -15.00000000
3.00128651 2.83619165 0.07207844 7 1 4662 4.13000000 2048214992 2048214992 1.00000000
1.97899878 1.86948419 -0.62851322 3 2 4663 2.79400000 2048214994 2048214994 -13.00000000
3.01023555 2.84265995 0.21698487 7 3 4664 4.14600000 2048214996 2048214996 3.00000000
2.38945460 2.25643706 -0.63882852 2 4 4664 3.34800000 2048214999 2048214999 -11.00000000
3.00918627 2.84067559 0.36204496 7 5 4665 4.15400000 2048215001 2048215001 5.00000000
2.99547601 2.82674479 -0.65233171 9 6 4666 4.17000000 2048215003 2048215003 -9.00000000
3.02514458 2.85374403 0.51063257 7 7 4667 4.19000000 2048215006 2048215006 7.00000000
2.99242544 2.82189202 -0.50502658 8 8 4668 4.14400000 2048215008 2048215008 -7.00000000
3.01995397 2.84685588 0.65733761 62 9 4669 4.20200000 2048215010 2048215010 9.00000000
2.99812078 2.82627416 -0.36047617 9 10 4669 4.13600000 2048215012 2048215012 -5.00000000
3.02620482 2.85175109 0.80826688 40 11 4670 4.23600000 2048215015 2048215015 11.00000000
2.99916840 2.82528520 -0.21593815 7 12 4671 4.12600000 2048215017 2048215017 -3.00000000
2.98634148 2.81123519 -0.07158977 10 14 4673 4.10200000 2048215022 2048215022 -1.00000000
3.02618504 2.84774637 1.11343956 10 15 4674 4.30200000 2048215024 2048215024 15.00000000
1.65752113 1.55651593 -0.60926002 4 0 4680 2.35400000 2048215045 2048215045 -15.00000000
3.00046945 2.81664300 0.07183410 8 1 4681 4.11600000 2048215047 2048215047 1.00000000
1.99087143 1.86824536 -0.63031286 3 2 4682 2.80200000 2048215049 2048215049 -13.00000000
3.01381898 2.82719612 0.21656619 7 3 4683 4.13800000 2048215052 2048215052 3.00000000
2.40265155 2.25387383 -0.64035499 2 4 4683 3.35600000 2048215054 2048215054 -11.00000000
3.00841618 2.82114100 0.36082476 6 5 4684 4.14000000 2048215056 2048215056 5.00000000
2.98753953 2.80058408 -0.64857727 9 6 4685 4.14600000 2048215059 2048215059 -9.00000000
3.03169417 2.84098196 0.51014507 7 7 4686 4.18600000 2048215061 2048215061 7.00000000
2.99017692 2.80109620 -0.50307667 10 8 4687 4.12800000 2048215063 2048215063 -7.00000000
3.01879120 2.82790112 0.65514755 66 9 4687 4.18800000 2048215065 2048215065 9.00000000
2.99293351 2.80269790 -0.35873303 9 10 4688 4.11600000 2048215068 2048215068 -5.00000000
3.01557922 2.82291651 0.80292428 52 11 4689 4.20800000 2048215070 2048215070 11.00000000
3.00268745 2.80986524 -0.21551947 7 12 4690 4.11800000 2048215072 2048215072 -3.00000000
3.01703334 2.82230234 0.95379245 52 13 4691 4.24000000 2048215075 2048215075 13.00000000
2.99418688 2.79995084 -0.07155487 8 14 4692 4.10000000 2048215077 2048215077 -1.00000000
3.02100635 2.82503057 1.10826313 8 15 4692 4.28200000 2048215079 2048215079 15.00000000
1.67142153 1.55862570 -0.61236584 4 0 4700 2.36600000 2048215100 2048215100 -15.00000000
2.99126768 2.78842640 0.07138034 10 1 4701 4.09000000 2048215102 2048215102 1.00000000
1.98597527 1.85065627 -0.62671363 3 2 4702 2.78600000 2048215105 2048215105 -13.00000000
3.01636219 2.80985188 0.21604283 7 3 4703 4.12800000 2048215107 2048215107 3.00000000
2.41050434 2.24547315 -0.64035499 4 4 4703 3.35600000 2048215109 2048215109 -11.00000000
3.01387119 2.80654931 0.36030185 6 5 4704 4.13400000 2048215112 2048215112 5.00000000
2.97705483 2.77129531 -0.64419711 9 6 4705 4.11800000 2048215114 2048215114 -9.00000000
3.02415395 2.81415415 0.50722021 7 7 4706 4.16200000 2048215116 2048215116 7.00000000
2.99557590 2.78658533 -0.50234544 8 8 4707 4.12200000 2048215118 2048215118 -7.00000000
3.02045631 2.80874658 0.65327030 66 9 4708 4.17600000 2048215121 2048215121 9.00000000
2.98810816 2.77866578 -0.35698992 9 10 4708 4.09600000 2048215123 2048215123 -5.00000000
3.01822519 2.80568957 0.80101615 54 11 4709 4.19800000 2048215125 2048215125 11.00000000
2.99345756 2.78169227 -0.21415873 7 12 4710 4.09200000 2048215128 2048215128 -3.00000000
3.02686667 2.81175375 0.95379245 13 13 4711 4.24000000 2048215130 2048215130 13.00000000
2.99661565 2.78267837 -0.07138034 7 14 4712 4.09000000 2048215132 2048215132 -1.00000000
3.02142930 2.80473876 1.10463965 10 15 4713 4.26800000 2048215135 2048215135 15.00000000
1.68137598 1.55642617 -0.61391878 4 0 4721 2.37200000 2048215155 2048215155 -15.00000000
2.99559689 2.77201152 0.07124072 8 1 4722 4.08200000 2048215158 2048215158 1.00000000
1.98988378 1.84071827 -0.62581384 3 2 4723 2.78200000 2048215160 2048215160 -13.00000000
3.00904393 2.78250575 0.21478677 7 3 4724 4.10400000 2048215162 2048215162 3.00000000
2.42015982 2.23795605 -0.64073658 4 4 4724 3.35800000 2048215165 2048215165 -11.00000000
3.01535916 2.78736949 0.35925597 6 5 4725 4.12200000 2048215167 2048215167 5.00000000
2.97848749 2.75232148 -0.64231992 9 6 4726 4.10600000 2048215169 2048215169 -9.00000000
3.01111746 2.78149962 0.50332040 7 7 4727 4.13000000 2048215171 2048215171 7.00000000
2.98972678 2.76077342 -0.49966431 10 8 4728 4.10000000 2048215174 2048215174 -7.00000000
3.03024220 2.79818606 0.65327030 66 9 4728 4.17600000 2048215176 2048215176 9.00000000
2.98802447 2.75823522 -0.35576975 9 10 4729 4.08200000 2048215178 2048215178 -5.00000000
3.02415967 2.79061437 0.79987133 14 11 4730 4.19200000 2048215181 2048215181 11.00000000
2.98748422 2.75580573 -0.21300735 7 12 4731 4.07000000 2048215183 2048215183 -3.00000000
3.01423001 2.77950382 0.94659406 17 13 4732 4.20800000 2048215185 2048215185 13.00000000
2.99797273 2.76354456 -0.07117091 7 14 4733 4.07800000 2048215188 2048215188 -1.00000000
3.02125835 2.78500938 1.10101616 12 15 4733 4.25400000 2048215190 2048215190 15.00000000
1.68822098 1.55185497 -0.61443639 4 0 4741 2.37400000 2048215211 2048215211 -15.00000000
2.99936509 2.75612593 0.07110111 10 1 4742 4.07400000 2048215213 2048215213 1.00000000
2.00203753 1.83903420 -0.62761343 3 2 4743 2.79000000 2048215215 2048215215 -13.00000000
3.00696945 2.76117826 0.21394938 8 3 4744 4.08800000 2048215218 2048215218 3.00000000
2.41349626 2.21621585 -0.63692045 4 4 4744 3.33800000 2048215220 2048215220 -11.00000000
3.01919961 2.77143764 0.35855871 6 5 4745 4.11400000 2048215222 2048215222 5.00000000
2.98225474 2.73656559 -0.64106846 9 6 4746 4.09800000 2048215224 2048215224 -9.00000000
3.01788259 2.76828814 0.50283289 7 7 4747 4.12600000 2048215227 2048215227 7.00000000
2.98325133 2.73556256 -0.49698317 12 8 4748 4.07800000 2048215229 2048215229 -7.00000000
3.02397609 2.77290606 0.64982879 46 9 4748 4.15400000 2048215231 2048215231 9.00000000
3.00057173 2.75048089 -0.35611835 11 10 4749 4.08600000 2048215234 2048215234 -5.00000000
3.02085519 2.76810384 0.79643673 16 11 4750 4.17400000 2048215236 2048215236 11.00000000
2.99414015 2.74266267 -0.21279800 7 12 4751 4.06600000 2048215238 2048215238 -3.00000000
2.99085784 2.73869610 0.93624628 36 13 4752 4.16200000 2048215241 2048215241 13.00000000
2.99580073 2.74226117 -0.07089168 7 14 4753 4.06200000 2048215243 2048215243 -1.00000000
3.02098656 2.76531553 1.09739280 26 15 4753 4.24000000 2048215245 2048215245 15.00000000
1.69077396 1.54334772 -0.61340111 4 0 4761 2.37000000 2048215266 2048215266 -15.00000000
3.00601315 2.74294353 0.07103129 10 1 4762 4.07000000 2048215268 2048215268 1.00000000
2.00556540 1.82940805 -0.62671363 3 2 4763 2.78600000 2048215271 2048215271 -13.00000000
3.00773430 2.74259067 0.21332136 8 3 4764 4.07600000 2048215273 2048215273 3.00000000
2.41831613 2.20513201 -0.63615721 4 4 4764 3.33400000 2048215275 2048215275 -11.00000000
3.01118565 2.74477553 0.35646698 6 5 4765 4.09000000 2048215277 2048215277 5.00000000
2.98594856 2.72081709 -0.63981694 9 6 4766 4.09000000 2048215280 2048215280 -9.00000000
3.02312469 2.75372672 0.50210172 7 7 4767 4.12000000 2048215282 2048215282 7.00000000
2.98984647 2.72245955 -0.49649569 12 8 4768 4.07400000 2048215284 2048215284 -7.00000000
3.01804996 2.74717712 0.64638722 34 9 4769 4.13200000 2048215287 2048215287 9.00000000
2.99542046 2.72657871 -0.35437524 11 10 4769 4.06600000 2048215289 2048215289 -5.00000000
3.02759504 2.75489950 0.79567349 16 11 4770 4.17000000 2048215291 2048215291 11.00000000
2.99483061 2.72413087 -0.21216996 7 12 4771 4.05400000 2048215294 2048215294 -3.00000000
3.00616670 2.73348355 0.93804592 52 13 4772 4.17000000 2048215296 2048215296 13.00000000
2.99055719 2.71833682 -0.07054263 7 14 4773 4.04200000 2048215298 2048215298 -1.00000000
3.01918459 2.74435806 1.09325171 24 15 4773 4.22400000 2048215300 2048215300 15.00000000
1.69042563 1.53224683 -0.61133057 4 0 4781 2.36200000 2048215321 2048215321 -15.00000000
3.00223279 2.72034955 0.07071715 8 1 4782 4.05200000 2048215324 2048215324 1.00000000
2.02060485 1.83024561 -0.62941307 3 2 4783 2.79800000 2048215326 2048215326 -13.00000000
3.02025056 2.73475623 0.21353070 8 3 4784 4.08000000 2048215328 2048215328 3.00000000
2.43181992 2.20194817 -0.63768369 4 4 4784 3.34200000 2048215330 2048215330 -11.00000000
3.00893116 2.72355127 0.35507250 6 5 4785 4.07400000 2048215333 2048215333 5.00000000
2.97785068 2.69447327 -0.63606256 9 6 4786 4.06600000 2048215335 2048215335 -9.00000000
3.02682972 2.73783064 0.50112677 7 7 4787 4.11200000 2048215337 2048215337 7.00000000
2.99344182 2.70668077 -0.49552074 12 8 4788 4.06600000 2048215340 2048215340 -7.00000000
3.01882815 2.72867775 0.64450997 18 9 4789 4.12000000 2048215342 2048215342 9.00000000
2.98570466 2.69873786 -0.35210919 11 10 4789 4.04000000 2048215344 2048215344 -5.00000000
3.01971269 2.72851992 0.79109412 28 11 4790 4.14600000 2048215347 2048215347 11.00000000
2.99987507 2.70964408 -0.21185595 7 12 4791 4.04800000 2048215349 2048215349 -3.00000000
3.01713634 2.72427940 0.93849581 19 13 4792 4.17200000 2048215351 2048215351 13.00000000
2.99409008 2.70252180 -0.07040301 7 14 4793 4.03400000 2048215353 2048215353 -1.00000000
3.00627422 2.71256733 1.08496940 52 15 4794 4.19200000 2048215356 2048215356 15.00000000
1.69523096 1.52692866 -0.61133057 4 0 4799 2.36200000 2048215377 2048215377 -15.00000000
2.99441743 2.69618559 0.07033320 8 1 4800 4.03000000 2048215379 2048215379 1.00000000
2.02344799 1.82128131 -0.62851322 3 2 4801 2.79400000 2048215381 2048215381 -13.00000000
3.02288818 2.71991062 0.21311201 8 3 4802 4.07200000 2048215383 2048215383 3.00000000
2.43872547 2.19429731 -0.63768369 4 4 4802 3.34200000 2048215386 2048215386 -11.00000000
3.01895404 2.71541762 0.35524681 6 5 4803 4.07600000 2048215388 2048215388 5.00000000
2.97161174 2.67189717 -0.63293386 9 6 4804 4.04600000 2048215390 2048215390 -9.00000000
3.02065229 2.71503830 0.49868935 8 7 4805 4.09200000 2048215393 2048215393 7.00000000
2.99454737 2.69062972 -0.49430206 12 8 4806 4.05600000 2048215395 2048215395 -7.00000000
3.02003765 2.71258044 0.64294565 8 9 4807 4.11000000 2048215397 2048215397 9.00000000
2.98675704 2.68268800 -0.35123765 11 10 4807 4.03000000 2048215400 2048215400 -5.00000000
3.00927925 2.70196843 0.78613305 58 11 4808 4.12000000 2048215402 2048215402 11.00000000
2.99648190 2.68953371 -0.21101858 7 12 4809 4.03200000 2048215404 2048215404 -3.00000000
3.01987815 2.70958161 0.93669617 16 13 4810 4.16400000 2048215406 2048215406 13.00000000
2.99065661 2.68242049 -0.07012377 7 14 4811 4.01800000 2048215409 2048215409 -1.00000000
3.02006173 2.70879507 1.08703995 64 15 4811 4.20000000 2048215411 2048215411 15.00000000
1.71206999 1.53130496 -0.61547166 4 0 4819 2.37800000 2048215432 2048215432 -15.00000000
2.99486637 2.67771959 0.07012377 8 1 4820 4.01800000 2048215434 2048215434 1.00000000
2.02688718 1.81160975 -0.62761343 3 2 4821 2.79000000 2048215436 2048215436 -13.00000000
3.01747036 2.69603515 0.21206529 8 3 4822 4.05200000 2048215439 2048215439 3.00000000
2.45222640 2.19100356 -0.63921010 4 4 4822 3.35000000 2048215441 2048215441 -11.00000000
3.01206851 2.69026351 0.35332939 6 5 4823 4.05400000 2048215443 2048215443 5.00000000
2.97502637 2.65624547 -0.63168240 9 6 4824 4.03800000 2048215446 2048215446 -9.00000000
3.01974416 2.69522476 0.49698317 8 7 4825 4.07800000 2048215448 2048215448 7.00000000
2.98762774 2.66562295 -0.49162093 10 8 4826 4.03400000 2048215450 2048215450 -7.00000000
3.02064276 2.69413304 0.64106846 8 9 4827 4.09800000 2048215453 2048215453 9.00000000
2.99164248 2.66826749 -0.35071471 13 10 4827 4.02400000 2048215455 2048215455 -5.00000000
3.01429629 2.68752813 0.78498822 64 11 4828 4.11400000 2048215457 2048215457 11.00000000
2.98199582 2.65779519 -0.20934382 9 12 4829 4.00000000 2048215459 2048215459 -3.00000000
3.00167274 2.67439294 0.92814803 36 13 4830 4.12600000 2048215462 2048215462 13.00000000
2.99850845 2.67063498 -0.07008886 7 14 4831 4.01600000 2048215464 2048215464 -1.00000000
3.02228570 2.69181228 1.08445179 68 15 4831 4.19000000 2048215466 2048215466 15.00000000
1.71478176 1.52245450 -0.61443639 4 0 4840 2.37400000 2048215487 2048215487 -15.00000000
2.99867821 2.66141534 0.06998415 8 1 4841 4.01000000 2048215489 2048215489 1.00000000
2.03351331 1.80416870 -0.62761343 3 2 4842 2.79000000 2048215492 2048215492 -13.00000000
3.00893474 2.66957951 0.21080923 10 3 4842 4.02800000 2048215494 2048215494 3.00000000
2.44848990 2.17157960 -0.63615721 4 4 4843 3.33400000 2048215496 2048215496 -11.00000000
3.02638102 2.68317103 0.35385230 6 5 4844 4.06000000 2048215499 2048215499 5.00000000
2.98474193 2.64532351 -0.63168240 9 6 4845 4.03800000 2048215501 2048215501 -9.00000000
3.02068758 2.67624044 0.49552074 8 7 4846 4.06600000 2048215503 2048215503 7.00000000
2.98251700 2.64149356 -0.48918355 10 8 4847 4.01400000 2048215505 2048215505 -7.00000000
3.01671958 2.67178535 0.63825262 8 9 4847 4.08000000 2048215508 2048215508 9.00000000
2.99543500 2.65200162 -0.35001746 13 10 4848 4.01600000 2048215510 2048215510 -5.00000000
3.01530528 2.66865516 0.78269851 66 11 4849 4.10200000 2048215512 2048215512 11.00000000
2.98872542 2.64420104 -0.20913447 8 12 4850 3.99600000 2048215515 2048215515 -3.00000000
3.00707555 2.65950012 0.92679834 59 13 4851 4.12000000 2048215517 2048215517 13.00000000
2.99778962 2.65035534 -0.06984453 8 14 4852 4.00200000 2048215519 2048215519 -1.00000000
3.02634215 2.67559862 1.08238125 70 15 4852 4.18200000 2048215522 2048215522 15.00000000
1.71573830 1.51262677 -0.61288351 4 0 4860 2.36800000 2048215542 2048215542 -15.00000000
3.00344920 2.64696527 0.06987944 8 1 4861 4.00400000 2048215545 2048215545 1.00000000
2.02810097 1.78675365 -0.62401420 3 2 4862 2.77400000 2048215547 2048215547 -13.00000000
3.00670815 2.64797306 0.20997186 8 3 4863 4.01200000 2048215549 2048215549 3.00000000
2.45310855 2.16042423 -0.63539398 4 4 4863 3.33000000 2048215552 2048215552 -11.00000000
3.01927876 2.65810847 0.35193488 8 5 4864 4.03800000 2048215554 2048215554 5.00000000
2.98209453 2.62444854 -0.62917942 9 6 4865 4.02200000 2048215556 2048215556 -9.00000000
3.01957798 2.65650153 0.49381459 8 7 4866 4.05200000 2048215558 2048215558 7.00000000
2.98575687 2.62582254 -0.48820859 12 8 4867 4.00600000 2048215561 2048215561 -7.00000000
3.01313972 2.64897203 0.63543677 8 9 4868 4.06200000 2048215563 2048215563 9.00000000
2.98971057 2.62837434 -0.34827435 10 10 4868 3.99600000 2048215565 2048215565 -5.00000000
3.02460241 2.65811348 0.78269851 70 11 4869 4.10200000 2048215568 2048215568 11.00000000
2.99493623 2.63111591 -0.20892514 8 12 4870 3.99200000 2048215570 2048215570 -3.00000000
3.00609088 2.63998604 0.92364901 59 13 4871 4.10600000 2048215572 2048215572 13.00000000
2.99199533 2.62668204 -0.06949548 9 14 4872 3.98200000 2048215575 2048215575 -1.00000000
3.02160835 2.65174603 1.07720482 72 15 4873 4.16200000 2048215577 2048215577 15.00000000
1.70937943 1.49644864 -0.60874242 4 0 4880 2.35200000 2048215598 2048215598 -15.00000000
2.99611759 2.62197900 0.06949548 8 1 4881 3.98200000 2048215600 2048215600 1.00000000
2.04899263 1.79249442 -0.62851322 3 2 4882 2.79400000 2048215602 2048215602 -13.00000000
3.01096296 2.63404274 0.20965785 7 3 4882 4.00600000 2048215605 2048215605 3.00000000
2.46654630 2.15701771 -0.63692045 4 4 4883 3.33800000 2048215607 2048215607 -11.00000000
3.01803899 2.63837385 0.35071471 8 5 4884 4.02400000 2048215609 2048215609 5.00000000
2.98231268 2.60622382 -0.62730223 9 6 4885 4.01000000 2048215611 2048215611 -9.00000000
3.02285266 2.64072108 0.49283963 7 7 4886 4.04400000 2048215614 2048215614 7.00000000
2.98443794 2.60624433 -0.48650241 9 8 4887 3.99200000 2048215616 2048215616 -7.00000000
3.01492739 2.63194275 0.63387245 8 9 4888 4.05200000 2048215618 2048215618 9.00000000
2.98685956 2.60744023 -0.34687987 10 10 4888 3.98000000 2048215621 2048215621 -5.00000000
3.01907039 2.63463092 0.77888232 64 11 4889 4.08200000 2048215623 2048215623 11.00000000
2.99958730 2.61670661 -0.20861112 8 12 4890 3.98600000 2048215625 2048215625 -3.00000000
3.00794435 2.62307262 0.92139953 58 13 4891 4.09600000 2048215628 2048215628 13.00000000
2.99059439 2.60702395 -0.06925115 11 14 4892 3.96800000 2048215630 2048215630 -1.00000000
3.01145458 2.62520862 1.07047558 78 15 4892 4.13600000 2048215632 2048215632 15.00000000
1.72479856 1.49934447 -0.61236584 3 0 4900 2.36600000 2048215653 2048215653 -15.00000000
2.98713875 2.59576488 0.06907663 8 1 4901 3.95800000 2048215655 2048215655 1.00000000
2.05523705 1.78533125 -0.62851322 3 2 4902 2.79400000 2048215657 2048215657 -13.00000000
3.01410794 2.61827731 0.20923916 8 3 4902 3.99800000 2048215660 2048215660 3.00000000
2.47406054 2.14839482 -0.63692045 4 4 4903 3.33800000 2048215662 2048215662 -11.00000000
3.01970720 2.62129235 0.34984314 8 5 4904 4.01400000 2048215664 2048215664 5.00000000
2.97945619 2.58544040 -0.62479925 8 6 4905 3.99400000 2048215667 2048215667 -9.00000000
3.01705670 2.61714554 0.49040225 7 7 4906 4.02400000 2048215669 2048215669 7.00000000
2.99201751 2.59451032 -0.48625869 5 8 4907 3.99000000 2048215671 2048215671 -7.00000000
3.01663303 2.61493325 0.63230813 8 9 4908 4.04200000 2048215674 2048215674 9.00000000
2.98992109 2.59177828 -0.34618261 8 10 4908 3.97200000 2048215676 2048215676 -5.00000000
3.01341152 2.61121964 0.77506614 64 11 4909 4.06200000 2048215678 2048215678 11.00000000
2.99360657 2.59314346 -0.20756440 7 12 4910 3.96600000 2048215681 2048215681 -3.00000000
3.01708221 2.61255693 0.92139953 57 13 4911 4.09600000 2048215683 2048215683 13.00000000
2.99211669 2.59002519 -0.06907663 9 14 4912 3.95800000 2048215685 2048215685 -1.00000000
3.01037526 2.60583019 1.06685209 68 15 4912 4.12200000 2048215687 2048215687 15.00000000
1.73999631 1.50245464 -0.61598933 4 0 4919 2.38000000 2048215708 2048215708 -15.00000000
2.99270248 2.58323169 0.06900682 6 1 4920 3.95400000 2048215710 2048215710 1.00000000
2.04934287 1.76832128 -0.62491405 3 2 4921 2.77800000 2048215713 2048215713 -13.00000000
3.01113009 2.59730411 0.20840178 6 3 4922 3.98200000 2048215715 2048215715 3.00000000
2.48711777 2.14530802 -0.63844693 4 4 4922 3.34600000 2048215717 2048215717 -11.00000000
3.01631188 2.60085583 0.34844866 6 5 4923 3.99800000 2048215720 2048215720 5.00000000
2.97604346 2.56522822 -0.62229627 8 6 4924 3.97800000 2048215722 2048215722 -9.00000000
3.01669598 2.59935141 0.48893979 7 7 4925 4.01200000 2048215724 2048215724 7.00000000
2.97353172 2.56125474 -0.48187140 24 8 4926 3.95400000 2048215727 2048215727 -7.00000000
3.02333641 2.60415411 0.63199526 8 9 4926 4.04000000 2048215729 2048215729 9.00000000
2.97887158 2.56494856 -0.34391657 6 10 4927 3.94600000 2048215731 2048215731 -5.00000000
3.01610208 2.59608936 0.77353966 62 11 4928 4.05400000 2048215734 2048215734 11.00000000
2.95828438 2.54542446 -0.20452891 7 12 4929 3.90800000 2048215736 2048215736 -3.00000000
3.00652289 2.58601761 0.91555077 54 13 4930 4.07000000 2048215738 2048215738 13.00000000
2.98249388 2.56444383 -0.06865776 6 14 4931 3.93400000 2048215740 2048215740 -1.00000000
3.01066279 2.58775067 1.06374633 72 15 4932 4.11000000 2048215743 2048215743 15.00000000
1.73789740 1.49008441 -0.61340111 4 0 4939 2.37000000 2048215763 2048215763 -15.00000000
2.98955512 2.56235862 0.06872758 17 1 4940 3.93800000 2048215766 2048215766 1.00000000
2.06734180 1.77130044 -0.62851322 3 2 4941 2.79400000 2048215768 2048215768 -13.00000000
2.99090934 2.56261396 0.20641302 13 3 4941 3.94400000 2048215770 2048215770 3.00000000
2.47968030 2.12384200 -0.63463074 5 4 4942 3.32600000 2048215773 2048215773 -11.00000000
3.01023769 2.57735300 0.34670556 16 5 4943 3.97800000 2048215775 2048215775 5.00000000
2.98497963 2.55482435 -0.62229627 8 6 4944 3.97800000 2048215777 2048215777 -9.00000000
3.00161719 2.56815696 0.48503998 14 7 4945 3.98000000 2048215780 2048215780 7.00000000
2.95680833 2.52892494 -0.47772783 18 8 4946 3.92000000 2048215782 2048215782 -7.00000000
3.01784682 2.58021855 0.62886655 8 9 4947 4.02000000 2048215784 2048215784 9.00000000
2.98932099 2.55582952 -0.34409088 36 10 4947 3.94800000 2048215787 2048215787 -5.00000000
3.02216101 2.58299422 0.77277642 70 11 4948 4.05000000 2048215789 2048215789 11.00000000
2.97170711 2.53897476 -0.20484294 21 12 4949 3.91400000 2048215791 2048215791 -3.00000000
3.00071311 2.56285119 0.91105175 55 13 4950 4.05000000 2048215793 2048215793 13.00000000
2.97621918 2.54103303 -0.06830872 19 14 4951 3.91400000 2048215796 2048215796 -1.00000000
3.02261615 2.57973385 1.06478155 68 15 4952 4.11400000 2048215798 2048215798 15.00000000
1.73867536 1.48025203 -0.61184824 4 0 4959 2.36400000 2048215819 2048215819 -15.00000000
2.99086690 2.54542732 0.06855305 17 1 4960 3.92800000 2048215821 2048215821 1.00000000
2.06460667 1.75649667 -0.62581384 3 2 4961 2.78200000 2048215823 2048215823 -13.00000000
3.00287890 2.55474663 0.20662236 19 3 4961 3.94800000 2048215826 2048215826 3.00000000
2.49455643 2.12153292 -0.63653880 5 4 4962 3.33600000 2048215828 2048215828 -11.00000000
3.00555444 2.55521488 0.34513673 16 5 4963 3.96000000 2048215830 2048215830 5.00000000
2.98484826 2.53671384 -0.62041909 8 6 4964 3.96600000 2048215833 2048215833 -9.00000000
3.00905061 2.55637836 0.48479626 14 7 4965 3.97800000 2048215835 2048215835 7.00000000
3.01584673 2.56124592 0.62667644 8 9 4966 4.00600000 2048215840 2048215840 9.00000000
3.02517152 2.56734800 0.77124995 64 11 4968 4.04200000 2048215844 2048215844 11.00000000
3.01112700 2.55362153 0.91150165 58 13 4970 4.05200000 2048215849 2048215849 13.00000000
3.01686478 2.55667758 1.05960512 72 15 4972 4.09400000 2048215853 2048215853 15.00000000
1.73793042 1.46918511 -0.60977769 4 0 4979 2.35600000 2048215874 2048215874 -15.00000000
2.07965732 1.75682461 -0.62851322 3 2 4981 2.79400000 2048215879 2048215879 -13.00000000
2.50344682 2.11407900 -0.63692045 6 4 4982 3.33800000 2048215883 2048215883 -11.00000000
2.97254944 2.50844383 -0.61603892 8 6 4984 3.93800000 2048215888 2048215888 -9.00000000
2.97894382 2.51206017 -0.47845903 7 8 4986 3.92600000 2048215893 2048215893 -7.00000000
3.01419806 2.54178905 0.62448639 9 9 4986 3.99200000 2048215895 2048215895 9.00000000
2.97205424 2.50536275 -0.34008172 4 10 4987 3.90200000 2048215897 2048215897 -5.00000000
3.01760054 2.54285645 0.76705217 30 11 4988 4.02000000 2048215899 2048215899 11.00000000
2.99241495 2.52074003 -0.20505227 3 12 4989 3.91800000 2048215902 2048215902 -3.00000000
2.97399855 2.50345230 -0.06785496 4 14 4991 3.88800000 2048215906 2048215906 -1.00000000
3.01246762 2.53493667 1.05494642 24 15 4992 4.07600000 2048215909 2048215909 15.00000000
1.75488567 1.47304595 -0.61391878 4 0 4999 2.37200000 2048215929 2048215929 -15.00000000
2.97639537 2.49749231 0.06782005 6 1 5000 3.88600000 2048215932 2048215932 1.00000000
2.07681894 1.74204028 -0.62581384 3 2 5001 2.78200000 2048215934 2048215934 -13.00000000
2.99309707 2.51061654 0.20473826 4 3 5001 3.91200000 2048215936 2048215936 3.00000000
2.50629783 2.10154319 -0.63577557 5 4 5002 3.33200000 2048215939 2048215939 -11.00000000
2.99736190 2.51241207 0.34217346 4 5 5003 3.92600000 2048215941 2048215941 5.00000000
2.97977328 2.49678373 -0.61572605 8 6 5004 3.93600000 2048215943 2048215943 -9.00000000
3.01464987 2.52511191 0.48284635 4 7 5005 3.96200000 2048215945 2048215945 7.00000000
2.98160648 2.49654889 -0.47748408 5 8 5006 3.91800000 2048215948 2048215948 -7.00000000
3.01850843 2.52744746 0.62354779 11 9 5006 3.98600000 2048215950 2048215950 9.00000000
2.96703100 2.48346376 -0.33851290 8 10 5007 3.88400000 2048215952 2048215952 -5.00000000
3.02645826 2.53230739 0.76705217 12 11 5008 4.02000000 2048215955 2048215955 11.00000000
2.97974753 2.49233961 -0.20358688 12 12 5009 3.89000000 2048215957 2048215957 -3.00000000
3.03635621 2.53878784 0.91375118 10 13 5010 4.06200000 2048215959 2048215959 13.00000000
2.97658181 2.48792601 -0.06771534 6 14 5011 3.88000000 2048215962 2048215962 -1.00000000
3.02085710 2.52493286 1.05494642 12 15 5011 4.07600000 2048215964 2048215964 15.00000000
1.75408089 1.46196377 -0.61184824 4 0 5019 2.36400000 2048215985 2048215985 -15.00000000
2.99738574 2.49732757 0.06809929 3 1 5020 3.90200000 2048215987 2048215987 1.00000000
2.07989216 1.73228598 -0.62491405 3 2 5021 2.77800000 2048215989 2048215989 -13.00000000
3.00030780 2.49887538 0.20463359 4 3 5021 3.91000000 2048215992 2048215992 3.00000000
2.51663589 2.09529424 -0.63653880 5 4 5022 3.33600000 2048215994 2048215994 -11.00000000
3.00151944 2.49811029 0.34165052 1 5 5023 3.92000000 2048215996 2048215996 5.00000000
3.00669289 2.50152802 -0.61948049 8 6 5024 3.96000000 2048215998 2048215998 -9.00000000
3.02649832 2.51711202 0.48333383 4 7 5025 3.96600000 2048216001 2048216001 7.00000000
3.01472592 2.50643110 -0.48138392 1 8 5026 3.95000000 2048216003 2048216003 -7.00000000
3.03642631 2.52447271 0.62542498 11 9 5026 3.99800000 2048216005 2048216005 9.00000000
3.02011776 2.51002264 -0.34356794 2 10 5027 3.94200000 2048216008 2048216008 -5.00000000
3.03678942 2.52298236 0.76743376 10 11 5028 4.02200000 2048216010 2048216010 11.00000000
3.01301289 2.50233984 -0.20526162 1 12 5029 3.92200000 2048216012 2048216012 -3.00000000
3.04669905 2.52941823 0.91420108 9 13 5030 4.06400000 2048216015 2048216015 13.00000000
3.03756690 2.52094102 -0.06890210 1 14 5031 3.94800000 2048216017 2048216017 -1.00000000
3.04495907 2.52617884 1.06012285 8 15 5032 4.09600000 2048216019 2048216019 15.00000000
1.76487160 1.46106672 -0.61391878 4 0 5038 2.37200000 2048216040 2048216040 -15.00000000
3.02875924 2.50649810 0.06862286 1 1 5039 3.93200000 2048216042 2048216042 1.00000000
2.08862829 1.72786367 -0.62581384 3 2 5040 2.78200000 2048216045 2048216045 -13.00000000
3.01824713 2.49602389 0.20526162 1 3 5041 3.92200000 2048216047 2048216047 3.00000000
2.51297975 2.07817912 -0.63386750 4 4 5041 3.32200000 2048216049 2048216049 -11.00000000
3.05585527 2.52622700 0.34687987 1 5 5042 3.98000000 2048216051 2048216051 5.00000000
3.02867603 2.50286889 -0.62229627 8 6 5043 3.97800000 2048216054 2048216054 -9.00000000
3.04860234 2.51844049 0.48552746 4 7 5044 3.98400000 2048216056 2048216056 7.00000000
3.01536775 2.49010015 -0.48016521 22 8 5045 3.94000000 2048216058 2048216058 -7.00000000
3.06153584 2.52822566 0.62886655 8 9 5045 4.02000000 2048216061 2048216061 9.00000000
3.01766944 2.49111509 -0.34234777 10 10 5046 3.92800000 2048216063 2048216063 -5.00000000
3.06633854 2.53039217 0.77277642 8 11 5047 4.05000000 2048216065 2048216065 11.00000000
3.01359081 2.48597980 -0.20473826 8 12 5048 3.91200000 2048216068 2048216068 -3.00000000
3.05206323 2.51682162 0.91330129 8 13 5049 4.06000000 2048216070 2048216070 13.00000000
3.02739382 2.49559069 -0.06848324 16 14 5050 3.92400000 2048216072 2048216072 -1.00000000
3.06927752 2.53011727 1.06581688 8 15 5050 4.11800000 2048216075 2048216075 15.00000000
1.76697612 1.45244384 -0.61288351 4 0 5058 2.36800000 2048216095 2048216095 -15.00000000
3.04367018 2.50098848 0.06876248 22 1 5059 3.94000000 2048216098 2048216098 1.00000000
2.10368204 1.72798395 -0.62851322 3 2 5060 2.79400000 2048216100 2048216100 -13.00000000
3.05009508 2.50448489 0.20683169 17 3 5061 3.95200000 2048216102 2048216102 3.00000000
2.52477050 2.07313204 -0.63501233 5 4 5061 3.32800000 2048216104 2048216104 -11.00000000
3.06003475 2.51175261 0.34635693 18 5 5062 3.97400000 2048216107 2048216107 5.00000000
3.05113816 2.50355887 -0.62511212 10 6 5063 3.99600000 2048216109 2048216109 -9.00000000
3.06351423 2.51281929 0.48650241 8 7 5064 3.99200000 2048216111 2048216111 7.00000000
3.04246211 2.49466324 -0.48309007 5 8 5065 3.96400000 2048216114 2048216114 -7.00000000
3.07078171 2.51698780 0.62886655 8 9 5066 4.02000000 2048216116 2048216116 9.00000000
3.03713298 2.48940730 -0.34356794 25 10 5066 3.94200000 2048216118 2048216118 -5.00000000
3.08881998 2.53087187 0.77621096 8 11 5067 4.06800000 2048216121 2048216121 11.00000000
3.02997589 2.48177314 -0.20526162 17 12 5068 3.92200000 2048216123 2048216123 -3.00000000
3.07590795 2.51849818 0.91780031 8 13 5069 4.08000000 2048216125 2048216125 13.00000000
3.03453898 2.48374152 -0.06844833 16 14 5070 3.92200000 2048216128 2048216128 -1.00000000
3.07853031 2.51885080 1.06581688 8 15 5071 4.11800000 2048216130 2048216130 15.00000000
1.76305544 1.43893802 -0.60977769 4 0 5078 2.35600000 2048216151 2048216151 -15.00000000
3.05702996 2.49414134 0.06886720 6 1 5079 3.94600000 2048216153 2048216153 1.00000000
2.10668087 1.71816695 -0.62761343 3 2 5080 2.79000000 2048216155 2048216155 -13.00000000
3.06501079 2.49887109 0.20725039 8 3 5081 3.96000000 2048216157 2048216157 3.00000000
2.53047013 2.06306577 -0.63463074 5 4 5081 3.32600000 2048216160 2048216160 -11.00000000
3.05333948 2.48846865 0.34461382 4 5 5082 3.95400000 2048216162 2048216162 5.00000000
3.06751585 2.49913168 -0.62667644 9 6 5083 4.00600000 2048216164 2048216164 -9.00000000
3.09073734 2.51715302 0.48942727 7 7 5084 4.01600000 2048216167 2048216167 7.00000000
3.08194017 2.50909376 -0.48796484 8 8 5085 4.00400000 2048216169 2048216169 -7.00000000
3.09289837 2.51801515 0.63168240 8 9 5085 4.03800000 2048216171 2048216171 9.00000000
3.07361960 2.50142789 -0.34670556 8 10 5086 3.97800000 2048216174 2048216174 -5.00000000
3.10372734 2.52503014 0.77773744 8 11 5087 4.07600000 2048216176 2048216176 11.00000000
3.08510613 2.50898647 -0.20840178 7 12 5088 3.98200000 2048216178 2048216178 -3.00000000
3.09375310 2.51512146 0.92049974 8 13 5089 4.09200000 2048216181 2048216181 13.00000000
3.08043504 2.50340152 -0.06928606 6 14 5090 3.97000000 2048216183 2048216183 -1.00000000
3.09436226 2.51471996 1.06840503 8 15 5090 4.12800000 2048216185 2048216185 15.00000000
1.77106941 1.43520761 -0.61081296 4 0 5098 2.36000000 2048216206 2048216206 -15.00000000
3.08436346 2.49855971 0.06928606 8 1 5099 3.97000000 2048216208 2048216208 1.00000000
2.11569428 1.71325552 -0.62851322 3 2 5100 2.79400000 2048216210 2048216210 -13.00000000
3.11097193 2.51831651 0.20976251 7 3 5101 4.00800000 2048216213 2048216213 3.00000000
2.54376006 2.05916119 -0.63615721 5 4 5101 3.33400000 2048216215 2048216215 -11.00000000
3.10227633 2.51038146 0.34914592 6 5 5102 4.00600000 2048216217 2048216217 5.00000000
3.08389997 2.49462032 -0.62824082 11 6 5103 4.01600000 2048216220 2048216220 -9.00000000
3.11185384 2.51633430 0.49137720 7 7 5104 4.03200000 2048216222 2048216222 7.00000000
3.10457397 2.50955176 -0.49015850 8 8 5105 4.02200000 2048216224 2048216224 -7.00000000
3.12208056 2.52280235 0.63574964 8 9 5106 4.06400000 2048216227 2048216227 9.00000000
3.09318042 2.49944925 -0.34792572 8 10 5106 3.99200000 2048216229 2048216229 -5.00000000
3.11863136 2.51911545 0.77926391 8 11 5107 4.08400000 2048216231 2048216231 11.00000000
3.10161495 2.50447583 -0.20892514 7 12 5108 3.99200000 2048216233 2048216233 -3.00000000
3.12829208 2.52511501 0.92814803 8 13 5109 4.12600000 2048216236 2048216236 13.00000000
3.11249852 2.51146960 -0.06980962 7 14 5110 4.00000000 2048216238 2048216238 -1.00000000
3.11859512 2.51549029 1.07358146 8 15 5111 4.14800000 2048216240 2048216240 15.00000000
1.78509927 1.43628287 -0.61391878 4 0 5118 2.37200000 2048216261 2048216261 -15.00000000
3.10241556 2.49529791 0.06949548 6 1 5119 3.98200000 2048216263 2048216263 1.00000000
2.10647464 1.69364905 -0.62401420 3 2 5120 2.77400000 2048216266 2048216266 -13.00000000
3.12130022 2.50869298 0.20986718 7 3 5121 4.01000000 2048216268 2048216268 3.00000000
2.54940200 2.04903936 -0.63577557 5 4 5121 3.33200000 2048216270 2048216270 -11.00000000
3.13587117 2.51950336 0.35193488 6 5 5122 4.03800000 2048216273 2048216273 5.00000000
3.11107063 2.49868417 -0.63199526 9 6 5123 4.04000000 2048216275 2048216275 -9.00000000
3.12681007 2.51042771 0.49235216 7 7 5124 4.04000000 2048216277 2048216277 7.00000000
3.12415195 2.50739694 -0.49186468 10 8 5125 4.03600000 2048216280 2048216280 -7.00000000
3.14121342 2.52109027 0.63793975 8 9 5125 4.07800000 2048216282 2048216282 9.00000000
3.12053490 2.50359869 -0.35001746 9 10 5126 4.01600000 2048216284 2048216284 -5.00000000
3.13353181 2.51312733 0.78079039 8 11 5127 4.09200000 2048216286 2048216286 11.00000000
3.11657143 2.49863124 -0.20934382 7 12 5128 4.00000000 2048216289 2048216289 -3.00000000
3.14621115 2.52149200 0.93084747 8 13 5129 4.13800000 2048216291 2048216291 13.00000000
3.13529181 2.51184225 -0.07012377 7 14 5130 4.01800000 2048216293 2048216293 -1.00000000
3.14501166 2.51962948 1.07979310 8 15 5130 4.17200000 2048216296 2048216296 15.00000000
1.79312062 1.43245447 -0.61495405 4 0 5138 2.37600000 2048216316 2048216316 -15.00000000
3.13767099 2.50566649 0.07008886 8 1 5139 4.01600000 2048216319 2048216319 1.00000000
2.12151146 1.69358039 -0.62671363 3 2 5140 2.78600000 2048216321 2048216321 -13.00000000
3.15033269 2.51397753 0.21122792 8 3 5141 4.03600000 2048216323 2048216323 3.00000000
2.55960798 2.04257703 -0.63653880 5 4 5141 3.33600000 2048216326 2048216326 -11.00000000
3.15710711 2.51848149 0.35332939 6 5 5142 4.05400000 2048216328 2048216328 5.00000000
3.12749577 2.49396706 -0.63355958 11 6 5143 4.05000000 2048216330 2048216330 -9.00000000
3.16194248 2.52053332 0.49649569 7 7 5144 4.07400000 2048216333 2048216333 7.00000000
3.13909531 2.50142479 -0.49283963 10 8 5145 4.04400000 2048216335 2048216335 -7.00000000
3.15815783 2.51571417 0.63950408 8 9 5146 4.08800000 2048216337 2048216337 9.00000000
3.14172220 2.50262165 -0.35141197 9 10 5146 4.03200000 2048216339 2048216339 -5.00000000
3.16225076 2.51807237 0.78575146 8 11 5147 4.11800000 2048216342 2048216342 11.00000000
3.13621283 2.49644423 -0.21007653 7 12 5148 4.01400000 2048216344 2048216344 -3.00000000
3.16566777 2.51898813 0.93399680 8 13 5149 4.15200000 2048216346 2048216346 13.00000000
3.15030050 2.50586224 -0.07026339 7 14 5150 4.02600000 2048216349 2048216349 -1.00000000
3.16481018 2.51650190 1.08341658 8 15 5151 4.18600000 2048216351 2048216351 15.00000000
1.79205573 1.42138457 -0.61288351 4 0 5158 2.36800000 2048216372 2048216372 -15.00000000
3.15893364 2.50463772 0.07036810 8 1 5159 4.03200000 2048216374 2048216374 1.00000000
2.12435579 1.68374372 -0.62581384 3 2 5160 2.78200000 2048216376 2048216376 -13.00000000
3.16535068 2.50792670 0.21164660 8 3 5161 4.04400000 2048216379 2048216379 3.00000000
2.55287313 2.02265692 -0.63310426 5 4 5161 3.31800000 2048216381 2048216381 -11.00000000
3.17525005 2.51486802 0.35437524 6 5 5162 4.06600000 2048216383 2048216383 5.00000000
3.15166974 2.49529696 -0.63668829 11 6 5163 4.07000000 2048216386 2048216386 -9.00000000
3.18161750 2.51810431 0.49820188 7 7 5164 4.08800000 2048216388 2048216388 7.00000000
3.16337562 2.50276899 -0.49527702 10 8 5165 4.06400000 2048216390 2048216390 -7.00000000
3.17113042 2.50890446 0.64044273 8 9 5165 4.09400000 2048216392 2048216392 9.00000000
3.15981507 2.49905539 -0.35245782 9 10 5166 4.04400000 2048216395 2048216395 -5.00000000
3.18642211 2.51919460 0.78956765 8 11 5167 4.13800000 2048216397 2048216397 11.00000000
3.16684532 2.50281930 -0.21154194 7 12 5168 4.04200000 2048216399 2048216399 -3.00000000
3.18973255 2.52000308 0.93849581 9 13 5169 4.17200000 2048216402 2048216402 13.00000000
3.16687512 2.50104713 -0.07043792 7 14 5170 4.03600000 2048216404 2048216404 -1.00000000
3.19133067 2.52036095 1.08962822 8 15 5170 4.21000000 2048216406 2048216406 15.00000000
1.78789985 1.40794933 -0.60977769 4 0 5178 2.35600000 2048216427 2048216427 -15.00000000
3.17394233 2.49854350 0.07050772 7 1 5179 4.04000000 2048216429 2048216429 1.00000000
