# .PCD v0.7 - Point Cloud Data file format
VERSION 0.7
FIELDS x y z intensity laser_id azimuth distance_m adjustedtime timestamp vertical_angle
SIZE 4 4 4 1 1 2 8 8 4 8
TYPE F F F U U U F U U F
COUNT 1 1 1 1 1 1 1 1 1 1
WIDTH 519
HEIGHT 1
VIEWPOINT 0 0 0 1 0 0 0
POINTS 519
DATA ascii
-24.51780891 -1.16909683 3.01382875 33 7 26727 24.73000000 2048476223 2048476223 7.00000000
-3.90226030 -0.18539113 -0.47967774 3 8 26728 3.93600000 2048476226 2048476226 -7.00000000
-5.16446829 -0.24445352 -0.45233831 3 10 26729 5.19000000 2048476230 2048476230 -5.00000000
-12.78620815 -0.60298228 2.48814940 37 11 26730 13.04000000 2048476233 2048476233 11.00000000
-7.62311745 -0.35816365 -0.39995137 16 12 26731 7.64200000 2048476235 2048476235 -3.00000000
-12.06118774 -0.56457174 2.78759336 57 13 26732 12.39200000 2048476237 2048476237 13.00000000
-14.99741459 -0.69939017 -0.26206532 2 14 26733 15.01600000 2048476240 2048476240 -1.00000000
-10.24321938 -0.47589120 2.74762297 47 15 26734 10.61600000 2048476242 2048476242 15.00000000
-1.94145751 -0.08782152 -0.52074391 5 0 26741 2.01200000 2048476263 2048476263 -15.00000000
-25.84583282 -1.16461205 0.45159847 25 1 26742 25.87600000 2048476265 2048476265 1.00000000
-2.23295665 -0.10022642 -0.51603770 4 2 26743 2.29400000 2048476267 2048476267 -13.00000000
-58.49520874 -2.61533165 3.06866646 58 3 26744 58.63400000 2048476269 2048476269 3.00000000
-2.59871602 -0.11618907 -0.50564384 3 4 26744 2.65000000 2048476272 2048476272 -11.00000000
-36.63361359 -1.63148928 3.20820284 83 5 26745 36.81000000 2048476274 2048476274 5.00000000
-3.14960384 -0.13971777 -0.49933881 3 6 26746 3.19200000 2048476276 2048476276 -9.00000000
-24.51579094 -1.08324373 3.01309776 36 7 26747 24.72400000 2048476279 2048476279 7.00000000
-3.91874909 -0.17246681 -0.48162764 3 8 26748 3.95200000 2048476281 2048476281 -7.00000000
-18.29995346 -0.80539340 2.90123367 24 9 26748 18.54600000 2048476283 2048476283 9.00000000
-5.15135670 -0.22581390 -0.45111811 3 10 26749 5.17600000 2048476286 2048476286 -5.00000000
-12.79608059 -0.55868894 2.48967576 43 11 26750 13.04800000 2048476288 2048476288 11.00000000
-7.63230276 -0.33189893 -0.40037006 16 12 26751 7.65000000 2048476290 2048476290 -3.00000000
-12.06697845 -0.52263552 2.78849316 59 13 26752 12.39600000 2048476293 2048476293 13.00000000
-15.04771233 -0.64910352 -0.26290306 2 14 26753 15.06400000 2048476295 2048476295 -1.00000000
-10.23702145 -0.44158781 2.74555254 45 15 26753 10.60800000 2048476297 2048476297 15.00000000
-1.93982208 -0.08096348 -0.52022630 5 0 26761 2.01000000 2048476318 2048476318 -15.00000000
-25.81977272 -1.07314062 0.45107490 50 1 26762 25.84600000 2048476320 2048476320 1.00000000
-2.24692249 -0.09299543 -0.51918703 4 2 26763 2.30800000 2048476322 2048476322 -13.00000000
-58.49599838 -2.41080022 3.06824780 58 3 26764 58.62600000 2048476325 2048476325 3.00000000
-2.60302877 -0.10727884 -0.50640708 3 4 26764 2.65400000 2048476327 2048476327 -11.00000000
-36.61917877 -1.50278711 3.20645976 83 5 26765 36.79000000 2048476329 2048476329 5.00000000
-3.13822985 -0.12823883 -0.49746159 3 6 26766 3.18000000 2048476332 2048476332 -9.00000000
-24.49958801 -0.99685401 3.01066017 36 7 26767 24.70400000 2048476334 2048476334 7.00000000
-3.94114518 -0.15967071 -0.48430878 3 8 26768 3.97400000 2048476336 2048476336 -7.00000000
-18.29488754 -0.73799682 2.89998221 41 9 26769 18.53800000 2048476339 2048476339 9.00000000
-5.15211344 -0.20783094 -0.45111811 3 10 26769 5.17600000 2048476341 2048476341 -5.00000000
-12.79991436 -0.51409769 2.49005747 40 11 26770 13.05000000 2048476343 2048476343 11.00000000
-7.63940191 -0.30549461 -0.40068409 16 12 26771 7.65600000 2048476345 2048476345 -3.00000000
-12.06483459 -0.48035568 2.78759336 59 13 26772 12.39200000 2048476348 2048476348 13.00000000
-15.06986713 -0.59736526 -0.26325211 2 14 26773 15.08400000 2048476350 2048476350 -1.00000000
-10.23278046 -0.40383574 2.74399948 47 15 26774 10.60200000 2048476352 2048476352 15.00000000
-1.94392765 -0.07501795 -0.52126157 5 0 26779 2.01400000 2048476373 2048476373 -15.00000000
-25.79304314 -0.99086875 0.45055133 95 1 26780 25.81600000 2048476375 2048476375 1.00000000
-2.24720359 -0.08593606 -0.51918703 4 2 26781 2.30800000 2048476378 2048476378 -13.00000000
-58.49729538 -2.22679019 3.06793380 58 3 26782 58.62000000 2048476380 2048476380 3.00000000
-2.61512399 -0.09954874 -0.50869679 3 4 26782 2.66600000 2048476382 2048476382 -11.00000000
-36.61973953 -1.38758647 3.20611119 83 5 26783 36.78600000 2048476385 2048476385 5.00000000
-3.13466930 -0.11823027 -0.49683586 3 6 26784 3.17600000 2048476387 2048476387 -9.00000000
-24.47681046 -0.91891336 3.00749159 39 7 26785 24.67800000 2048476389 2048476389 7.00000000
-3.94361115 -0.14736259 -0.48455250 3 8 26786 3.97600000 2048476392 2048476392 -7.00000000
-18.29107475 -0.68349034 2.89904356 45 9 26786 18.53200000 2048476394 2048476394 9.00000000
-5.17265129 -0.19238460 -0.45286125 3 10 26787 5.19600000 2048476396 2048476396 -5.00000000
-12.77792358 -0.47301158 2.48547792 43 11 26788 13.02600000 2048476398 2048476398 11.00000000
-7.63433599 -0.28127265 -0.40037006 16 12 26789 7.65000000 2048476401 2048476401 -3.00000000
-12.07017994 -0.44259340 2.78849316 59 13 26790 12.39600000 2048476403 2048476403 13.00000000
-25.77291489 -0.94054568 -0.45016736 6 14 26791 25.79400000 2048476405 2048476405 -1.00000000
-10.23586369 -0.37354320 2.74451709 45 15 26791 10.60400000 2048476408 2048476408 15.00000000
-1.94417763 -0.06823192 -0.52126157 5 0 26799 2.01400000 2048476428 2048476428 -15.00000000
-25.77236176 -0.89999074 0.45013246 100 1 26800 25.79200000 2048476431 2048476431 1.00000000
-2.22801423 -0.07741464 -0.51468801 4 2 26801 2.28800000 2048476433 2048476433 -13.00000000
-58.47876358 -2.02168584 3.06657290 58 3 26802 58.59400000 2048476435 2048476435 3.00000000
-2.61153150 -0.09028399 -0.50793356 3 4 26802 2.66200000 2048476438 2048476438 -11.00000000
-36.62834167 -1.25988829 3.20645976 83 5 26803 36.79000000 2048476440 2048476440 5.00000000
-3.14690828 -0.10769287 -0.49871308 3 6 26804 3.18800000 2048476442 2048476442 -9.00000000
-24.46201324 -0.83285981 3.00529790 45 7 26805 24.66000000 2048476445 2048476445 7.00000000
-3.91434216 -0.13258791 -0.48089644 3 8 26806 3.94600000 2048476447 2048476447 -7.00000000
-18.29543114 -0.61651212 2.89935637 45 9 26807 18.53400000 2048476449 2048476449 9.00000000
-5.16930866 -0.17419331 -0.45251262 3 10 26807 5.19200000 2048476451 2048476451 -5.00000000
-12.78342152 -0.42853698 2.48624110 40 11 26808 13.03000000 2048476454 2048476454 11.00000000
-7.64126015 -0.25482184 -0.40068409 16 12 26809 7.65600000 2048476456 2048476456 -3.00000000
-12.06385994 -0.40019947 2.78669357 57 13 26810 12.38800000 2048476458 2048476458 13.00000000
-25.78003883 -0.85070759 -0.45023718 91 14 26811 25.79800000 2048476461 2048476461 -1.00000000
-10.24102592 -0.33615112 2.74555254 47 15 26812 10.60800000 2048476463 2048476463 15.00000000
-1.95600009 -0.06146978 -0.52436739 5 0 26820 2.02600000 2048476484 2048476484 -15.00000000
-25.76349640 -0.80514950 0.44992304 42 1 26821 25.78000000 2048476486 2048476486 1.00000000
-2.23023081 -0.06930856 -0.51513791 4 2 26822 2.29000000 2048476488 2048476488 -13.00000000
-58.46781540 -1.80678165 3.06563091 43 3 26823 58.57600000 2048476491 2048476491 3.00000000
-2.60792017 -0.08059036 -0.50717032 3 4 26823 2.65800000 2048476493 2048476493 -11.00000000
-36.62873077 -1.12550783 3.20611119 72 5 26824 36.78600000 2048476495 2048476495 5.00000000
-3.15123081 -0.09627881 -0.49933881 3 6 26825 3.19200000 2048476498 2048476498 -9.00000000
-24.46490288 -0.74319649 3.00529790 30 7 26826 24.66000000 2048476500 2048476500 7.00000000
-3.94456482 -0.11913916 -0.48455250 3 8 26827 3.97600000 2048476502 2048476502 -7.00000000
-18.28562546 -0.55228758 2.89747906 49 9 26827 18.52200000 2048476504 2048476504 9.00000000
-5.16393805 -0.15506627 -0.45198968 3 10 26828 5.18600000 2048476507 2048476507 -5.00000000
-12.78490639 -0.38168052 2.48624110 40 11 26829 13.03000000 2048476509 2048476509 11.00000000
-7.64613533 -0.22693200 -0.40089342 20 12 26830 7.66000000 2048476511 2048476511 -3.00000000
-12.04966259 -0.35552073 2.78309441 59 13 26831 12.37200000 2048476514 2048476514 13.00000000
-25.73301315 -0.75474763 -0.44936457 65 14 26832 25.74800000 2048476516 2048476516 -1.00000000
-10.24599838 -0.30051449 2.74658775 45 15 26832 10.61200000 2048476518 2048476518 15.00000000
-1.95427167 -0.05458775 -0.52384973 5 0 26840 2.02400000 2048476539 2048476539 -15.00000000
-25.74815941 -0.71471381 0.44960889 42 1 26841 25.76200000 2048476541 2048476541 1.00000000
-2.24409509 -0.06189931 -0.51828724 4 2 26842 2.30400000 2048476544 2048476544 -13.00000000
-58.47975540 -1.60284400 3.06594491 14 3 26843 58.58200000 2048476546 2048476546 3.00000000
-2.59641051 -0.07116380 -0.50488061 3 4 26843 2.64600000 2048476548 2048476548 -11.00000000
-36.62048721 -0.99731743 3.20506525 72 5 26844 36.77400000 2048476551 2048476551 5.00000000
-3.14759827 -0.08517151 -0.49871308 3 6 26845 3.18800000 2048476553 2048476553 -9.00000000
-24.60029984 -0.66136789 3.02162862 9 7 26846 24.79400000 2048476555 2048476555 7.00000000
-3.93106580 -0.10499832 -0.48284635 3 8 26847 3.96200000 2048476557 2048476557 -7.00000000
-18.27370262 -0.48489693 2.89528918 45 9 26848 18.50800000 2048476560 2048476560 9.00000000
-5.16046429 -0.13693412 -0.45164105 3 10 26848 5.18200000 2048476562 2048476562 -5.00000000
-12.78812313 -0.33710226 2.48662281 40 11 26849 13.03200000 2048476564 2048476564 11.00000000
-7.65486717 -0.20044975 -0.40131211 24 12 26850 7.66800000 2048476567 2048476567 -3.00000000
-12.04693413 -0.31335604 2.78219461 60 13 26851 12.36800000 2048476569 2048476569 13.00000000
-25.72349548 -0.66460818 -0.44915512 87 14 26852 25.73600000 2048476571 2048476571 -1.00000000
-10.22771931 -0.26246342 2.74141121 45 15 26853 10.59200000 2048476574 2048476574 15.00000000
-1.93707705 -0.04700286 -0.51919103 5 0 26861 2.00600000 2048476594 2048476594 -15.00000000
-25.72661591 -0.61975938 0.44919005 48 1 26862 25.73800000 2048476597 2048476597 1.00000000
-2.23651409 -0.05348751 -0.51648760 4 2 26863 2.29600000 2048476599 2048476599 -13.00000000
-2.60843015 -0.06192657 -0.50717032 3 4 26864 2.65800000 2048476604 2048476604 -11.00000000
-36.60995102 -0.86276132 3.20384502 72 5 26865 36.76000000 2048476606 2048476606 5.00000000
-3.15578866 -0.07381919 -0.49996457 3 6 26866 3.19600000 2048476608 2048476608 -9.00000000
-24.59462166 -0.57101452 3.02065349 12 7 26867 24.78600000 2048476610 2048476610 7.00000000
-3.93142438 -0.09058954 -0.48284635 3 8 26868 3.96200000 2048476613 2048476613 -7.00000000
-18.26343536 -0.42083380 2.89341187 49 9 26868 18.49600000 2048476615 2048476615 9.00000000
-5.16292334 -0.11806469 -0.45181537 3 10 26869 5.18400000 2048476617 2048476617 -5.00000000
-12.79516125 -0.29036283 2.48776770 43 11 26870 13.03800000 2048476620 2048476620 11.00000000
-7.65555048 -0.17239192 -0.40131211 24 12 26871 7.66800000 2048476622 2048476622 -3.00000000
-12.05969143 -0.26946092 2.78489399 60 13 26872 12.38000000 2048476624 2048476624 13.00000000
-25.73375511 -0.57049966 -0.44929475 68 14 26873 25.74400000 2048476627 2048476627 -1.00000000
-10.20153427 -0.22616099 2.73416448 45 15 26873 10.56400000 2048476629 2048476629 15.00000000
-1.93916070 -0.04028103 -0.51970863 5 0 26881 2.00800000 2048476650 2048476650 -15.00000000
-25.70862961 -0.52954113 0.44884098 51 1 26882 25.71800000 2048476652 2048476652 1.00000000
-2.24448061 -0.04583945 -0.51828724 4 2 26883 2.30400000 2048476654 2048476654 -13.00000000
-2.62040734 -0.05305954 -0.50946003 3 4 26884 2.67000000 2048476659 2048476659 -11.00000000
-36.60277939 -0.73476356 3.20297360 51 5 26885 36.75000000 2048476661 2048476661 5.00000000
-3.14417720 -0.06256717 -0.49808735 3 6 26886 3.18400000 2048476663 2048476663 -9.00000000
-24.56272507 -0.48449430 3.01651001 15 7 26887 24.75200000 2048476666 2048476666 7.00000000
-3.94164014 -0.07705977 -0.48406503 3 8 26888 3.97200000 2048476668 2048476668 -7.00000000
-18.25294304 -0.35684830 2.89153457 45 9 26888 18.48400000 2048476670 2048476670 9.00000000
-5.15732813 -0.09992622 -0.45129243 6 10 26889 5.17800000 2048476673 2048476673 -5.00000000
-12.79217052 -0.24562223 2.48700452 43 11 26890 13.03400000 2048476675 2048476675 11.00000000
-7.65610552 -0.14566800 -0.40131211 24 12 26891 7.66800000 2048476677 2048476677 -3.00000000
-12.06835175 -0.22751002 2.78669357 60 13 26892 12.38800000 2048476680 2048476680 13.00000000
-25.72759247 -0.48051926 -0.44915512 71 14 26893 25.73600000 2048476682 2048476682 -1.00000000
-10.19839764 -0.19047746 2.73312902 45 15 26893 10.56000000 2048476684 2048476684 15.00000000
-1.95279860 -0.03442716 -0.52333212 5 0 26899 2.02200000 2048476705 2048476705 -15.00000000
-25.72016335 -0.44894713 0.44901550 69 1 26900 25.72800000 2048476707 2048476707 1.00000000
-2.22707748 -0.03848496 -0.51423812 4 2 26901 2.28600000 2048476710 2048476710 -13.00000000
-2.62841296 -0.04496136 -0.51098651 3 4 26902 2.67800000 2048476714 2048476714 -11.00000000
-36.61287689 -0.61990404 3.20367074 83 5 26903 36.75800000 2048476716 2048476716 5.00000000
-3.14830852 -0.05275535 -0.49871308 3 6 26904 3.18800000 2048476719 2048476719 -9.00000000
-24.53435326 -0.40683225 3.01285386 21 7 26905 24.72200000 2048476721 2048476721 7.00000000
-3.93987799 -0.06464382 -0.48382130 3 8 26906 3.97000000 2048476723 2048476723 -7.00000000
-18.26390266 -0.29647771 2.89309907 45 9 26907 18.49400000 2048476726 2048476726 9.00000000
-5.16956949 -0.08391756 -0.45233831 6 10 26907 5.19000000 2048476728 2048476728 -5.00000000
-12.78502750 -0.20530720 2.48547792 43 11 26908 13.02600000 2048476730 2048476730 11.00000000
-7.62657022 -0.12113916 -0.39974204 16 12 26909 7.63800000 2048476733 2048476733 -3.00000000
-12.04172802 -0.18916659 2.78039503 55 13 26910 12.36000000 2048476735 2048476735 13.00000000
-25.73097610 -0.39972246 -0.44919005 59 14 26911 25.73800000 2048476737 2048476737 -1.00000000
-10.19121933 -0.15831733 2.73105860 47 15 26911 10.55200000 2048476739 2048476739 15.00000000
-1.96063352 -0.02771965 -0.52540267 5 0 26919 2.03000000 2048476760 2048476760 -15.00000000
-25.72957230 -0.35927594 0.44915512 64 1 26920 25.73600000 2048476763 2048476763 1.00000000
-2.23499250 -0.03081826 -0.51603770 4 2 26921 2.29400000 2048476765 2048476765 -13.00000000
-27.98100471 -0.38094485 1.46655822 4 3 26922 28.02200000 2048476767 2048476767 3.00000000
-2.60892320 -0.03551895 -0.50717032 3 4 26922 2.65800000 2048476769 2048476769 -11.00000000
-36.60684967 -0.49199036 3.20297360 62 5 26923 36.75000000 2048476772 2048476772 5.00000000
-3.15242386 -0.04181778 -0.49933881 3 6 26924 3.19200000 2048476774 2048476774 -9.00000000
-24.53959274 -0.32124087 3.01334143 24 7 26925 24.72600000 2048476776 2048476776 7.00000000
-3.93412471 -0.05081376 -0.48309007 3 8 26926 3.96400000 2048476779 2048476779 -7.00000000
-18.24507332 -0.23247130 2.88997030 49 9 26927 18.47400000 2048476781 2048476781 9.00000000
-5.17779970 -0.06597342 -0.45303556 6 10 26927 5.19800000 2048476783 2048476783 -5.00000000
-12.78959274 -0.16072722 2.48624110 40 11 26928 13.03000000 2048476786 2048476786 11.00000000
-7.63493538 -0.09461572 -0.40016073 16 12 26929 7.64600000 2048476788 2048476788 -3.00000000
-12.03452110 -0.14703673 2.77859545 56 13 26930 12.35200000 2048476790 2048476790 13.00000000
-10.18979931 -0.12094066 2.73054099 42 15 26932 10.55000000 2048476795 2048476795 15.00000000
-1.95105958 -0.02077276 -0.52281445 5 0 26939 2.02000000 2048476816 2048476816 -15.00000000
-25.73266983 -0.26948172 0.44919005 60 1 26940 25.73800000 2048476818 2048476818 1.00000000
-2.23703504 -0.02303655 -0.51648760 4 2 26941 2.29600000 2048476820 2048476820 -13.00000000
-2.61688399 -0.02649138 -0.50869679 3 4 26942 2.66600000 2048476825 2048476825 -11.00000000
-36.58443451 -0.36396775 3.20088172 31 5 26943 36.72600000 2048476827 2048476827 5.00000000
-3.16440225 -0.03092936 -0.50121605 3 6 26944 3.20400000 2048476829 2048476829 -9.00000000
-24.54056549 -0.23557976 3.01334143 24 7 26945 24.72600000 2048476832 2048476832 7.00000000
-3.94221830 -0.03715563 -0.48406503 3 8 26946 3.97200000 2048476834 2048476834 -7.00000000
-18.22602081 -0.16859996 2.88684154 41 9 26947 18.45400000 2048476836 2048476836 9.00000000
-5.16206026 -0.04775168 -0.45164105 9 10 26947 5.18200000 2048476839 2048476839 -5.00000000
-12.79792786 -0.11615350 2.48776770 43 11 26948 13.03800000 2048476841 2048476841 11.00000000
-7.64919901 -0.06808869 -0.40089342 16 12 26949 7.66000000 2048476843 2048476843 -3.00000000
-12.03885841 -0.10506152 2.77949524 60 13 26950 12.35600000 2048476845 2048476845 13.00000000
-25.76313400 -0.22033460 -0.44971362 3 14 26951 25.76800000 2048476848 2048476848 -1.00000000
-10.18821335 -0.08713288 2.73002338 45 15 26951 10.54800000 2048476850 2048476850 15.00000000
-1.95112026 -0.01396216 -0.52281445 5 0 26959 2.02000000 2048476871 2048476871 -15.00000000
-25.74545097 -0.17974007 0.44939947 43 1 26960 25.75000000 2048476873 2048476873 1.00000000
-2.24684525 -0.01529403 -0.51873714 4 2 26961 2.30600000 2048476875 2048476875 -13.00000000
-58.44051361 -0.38759783 3.06280494 14 3 26962 58.52200000 2048476878 2048476878 3.00000000
-2.61303401 -0.01733055 -0.50793356 3 4 26962 2.66200000 2048476880 2048476880 -11.00000000
-36.58349228 -0.23624916 3.20070744 51 5 26963 36.72400000 2048476882 2048476882 5.00000000
-3.16449094 -0.01988334 -0.50121605 3 6 26964 3.20400000 2048476885 2048476885 -9.00000000
-24.52734375 -0.14983088 3.01163530 21 7 26965 24.71200000 2048476887 2048476887 7.00000000
-3.94827914 -0.02342984 -0.48479626 3 8 26966 3.97800000 2048476889 2048476889 -7.00000000
-18.21662140 -0.10492137 2.88527727 53 9 26967 18.44400000 2048476892 2048476892 9.00000000
-5.16219521 -0.02973244 -0.45164105 9 10 26967 5.18200000 2048476894 2048476894 -5.00000000
-12.79825592 -0.07147969 2.48776770 40 11 26968 13.03800000 2048476896 2048476896 11.00000000
-7.65737915 -0.04143081 -0.40131211 24 12 26969 7.66800000 2048476898 2048476898 -3.00000000
-12.04304886 -0.06305783 2.78039503 56 13 26970 12.36000000 2048476901 2048476901 13.00000000
-15.20548916 -0.07696255 -0.26541620 2 14 26971 15.20800000 2048476903 2048476903 -1.00000000
-10.18845558 -0.05156885 2.73002338 47 15 26971 10.54800000 2048476905 2048476905 15.00000000
-1.94729459 -0.00679737 -0.52177918 6 0 26980 2.01600000 2048476927 2048476927 -15.00000000
-25.75193596 -0.08539697 0.44950417 100 1 26981 25.75600000 2048476929 2048476929 1.00000000
-2.24103999 -0.00704046 -0.51738745 4 2 26982 2.30000000 2048476932 2048476932 -13.00000000
-58.43551636 -0.18358120 3.06249070 43 3 26982 58.51600000 2048476934 2048476934 3.00000000
-2.61700654 -0.00776484 -0.50869679 3 4 26983 2.66600000 2048476936 2048476936 -11.00000000
-36.56618118 -0.10211230 3.19913864 72 5 26984 36.70600000 2048476939 2048476939 5.00000000
-3.14478898 -0.00823306 -0.49808735 3 6 26985 3.18400000 2048476941 2048476941 -9.00000000
-24.44633865 -0.05973379 3.00164199 39 7 26986 24.63000000 2048476943 2048476943 7.00000000
-3.95627880 -0.00897653 -0.48577121 3 8 26987 3.98600000 2048476945 2048476945 -7.00000000
-18.22082710 -0.04134182 2.88590312 45 9 26987 18.44800000 2048476948 2048476948 9.00000000
-5.16625452 -0.01082019 -0.45198968 9 10 26988 5.18600000 2048476950 2048476950 -5.00000000
-12.77487278 -0.02452602 2.48318815 37 11 26989 13.01400000 2048476952 2048476952 11.00000000
-7.64549589 -0.01334392 -0.40068409 20 12 26990 7.65600000 2048476955 2048476955 -3.00000000
-12.03930187 -0.01891131 2.77949524 60 13 26991 12.35600000 2048476957 2048476957 13.00000000
-15.21366787 -0.02124230 -0.26555583 2 14 26992 15.21600000 2048476959 2048476959 -1.00000000
-10.17698479 -0.01420976 2.72691751 47 15 26992 10.53600000 2048476962 2048476962 15.00000000
-1.95503390 -0.00000000 -0.52384973 5 0 27000 2.02400000 2048476982 2048476982 -15.00000000
-25.78807068 0.00450087 0.45013246 45 1 27001 25.79200000 2048476985 2048476985 1.00000000
-2.23910236 0.00078159 -0.51693749 4 2 27002 2.29800000 2048476987 2048476987 -13.00000000
-58.43180466 0.03059482 3.06228137 58 3 27003 58.51200000 2048476989 2048476989 3.00000000
-2.61309123 0.00136821 -0.50793356 3 4 27003 2.66200000 2048476992 2048476992 -11.00000000
-36.58026123 0.02553784 3.20035887 62 5 27004 36.72000000 2048476994 2048476994 5.00000000
-3.14479852 0.00274436 -0.49808735 3 6 27005 3.18400000 2048476996 2048476996 -9.00000000
-24.35706902 0.02550667 2.99067378 28 7 27006 24.54000000 2048476998 2048476998 7.00000000
-3.93643498 0.00480927 -0.48333383 3 8 27007 3.96600000 2048477001 2048477001 -7.00000000
-18.21690559 0.02543562 2.88527727 49 9 27008 18.44400000 2048477003 2048477003 9.00000000
-5.18219995 0.00723572 -0.45338416 9 10 27008 5.20200000 2048477005 2048477005 -5.00000000
-12.77684402 0.02006984 2.48356986 34 11 27009 13.01600000 2048477008 2048477008 11.00000000
-7.64549589 0.01334392 -0.40068409 20 12 27010 7.65600000 2048477010 2048477010 -3.00000000
-12.02760220 0.02309137 2.77679586 57 13 27011 12.34400000 2048477012 2048477012 13.00000000
-15.23764515 0.03191370 -0.26597467 2 14 27012 15.24000000 2048477015 2048477015 -1.00000000
-10.18083191 0.02309961 2.72795272 47 15 27013 10.54000000 2048477017 2048477017 15.00000000
-1.96275043 0.00650875 -0.52592027 5 0 27019 2.03200000 2048477038 2048477038 -15.00000000
-25.81790924 0.09012187 0.45065603 20 1 27020 25.82200000 2048477040 2048477040 1.00000000
-2.23713875 0.00819958 -0.51648760 4 2 27021 2.29600000 2048477042 2048477042 -13.00000000
-58.42942047 0.21415597 3.06217670 43 3 27021 58.51000000 2048477045 2048477045 3.00000000
-2.61699867 0.01004860 -0.50869679 3 4 27022 2.66600000 2048477047 2048477047 -11.00000000
-36.58196640 0.14685021 3.20053315 72 5 27023 36.72200000 2048477049 2048477049 5.00000000
-3.14872289 0.01318942 -0.49871308 3 6 27024 3.18800000 2048477051 2048477051 -9.00000000
-24.36280632 0.10630347 2.99140501 37 7 27025 24.54600000 2048477054 2048477054 7.00000000
-3.92250204 0.01779987 -0.48162764 5 8 27026 3.95200000 2048477056 2048477056 -7.00000000
-18.20882034 0.08580768 2.88402581 45 9 27027 18.43600000 2048477058 2048477058 9.00000000
-5.18214750 0.02442047 -0.45338416 6 10 27027 5.20200000 2048477061 2048477061 -5.00000000
-12.79633904 0.06253521 2.48738599 43 11 27028 13.03600000 2048477063 2048477063 11.00000000
-7.64141512 0.03867701 -0.40047473 16 12 27029 7.65200000 2048477065 2048477065 -3.00000000
-12.03135681 0.06299661 2.77769566 59 13 27030 12.34800000 2048477068 2048477068 13.00000000
-15.23745537 0.08244337 -0.26597467 2 14 27031 15.24000000 2048477070 2048477070 -1.00000000
-10.18070889 0.05508348 2.72795272 45 15 27031 10.54000000 2048477072 2048477072 15.00000000
-1.94919312 0.01326794 -0.52229685 5 0 27039 2.01800000 2048477093 2048477093 -15.00000000
-25.88542557 0.18071730 0.45184281 15 1 27040 25.89000000 2048477095 2048477095 1.00000000
-2.24683976 0.01607832 -0.51873714 4 2 27041 2.30600000 2048477097 2048477097 -13.00000000
-55.31267548 0.39581594 2.89888859 40 3 27041 55.39000000 2048477100 2048477100 3.00000000
-2.61302137 0.01915479 -0.50793356 3 4 27042 2.66200000 2048477102 2048477102 -11.00000000
-36.57326126 0.27448440 3.19983602 62 5 27043 36.71400000 2048477104 2048477104 5.00000000
-3.15260816 0.02421077 -0.49933881 3 6 27044 3.19200000 2048477107 2048477107 -9.00000000
-24.35434723 0.19128253 2.99042988 37 7 27045 24.53800000 2048477109 2048477109 7.00000000
-3.95616150 0.03176278 -0.48577121 5 8 27046 3.98600000 2048477111 2048477111 -7.00000000
-18.20050812 0.14930299 2.88277435 49 9 27047 18.42800000 2048477114 2048477114 9.00000000
-5.18601513 0.04254208 -0.45373279 6 10 27047 5.20600000 2048477116 2048477116 -5.00000000
-12.80978489 0.10731751 2.49005747 40 11 27048 13.05000000 2048477118 2048477118 11.00000000
-7.64323092 0.06536737 -0.40057942 16 12 27049 7.65400000 2048477121 2048477121 -3.00000000
-12.03885841 0.10506152 2.77949524 55 13 27050 12.35600000 2048477123 2048477123 13.00000000
-15.22107792 0.13548912 -0.26569542 2 14 27051 15.22400000 2048477125 2048477125 -1.00000000
-10.15534210 0.09039690 2.72122335 42 15 27051 10.51400000 2048477127 2048477127 15.00000000
-1.93947971 0.01963385 -0.51970863 5 0 27058 2.00800000 2048477148 2048477148 -15.00000000
-25.96866798 0.26742032 0.45330879 5 1 27059 25.97400000 2048477150 2048477150 1.00000000
-2.24092817 0.02346780 -0.51738745 4 2 27060 2.30000000 2048477153 2048477153 -13.00000000
-55.30296707 0.58880574 2.89846992 53 3 27061 55.38200000 2048477155 2048477155 3.00000000
-2.61294341 0.02781978 -0.50793356 3 4 27061 2.66200000 2048477157 2048477157 -11.00000000
-36.55621338 0.39559174 3.19844151 62 5 27062 36.69800000 2048477160 2048477160 5.00000000
-3.14856005 0.03462162 -0.49871308 3 6 27063 3.18800000 2048477162 2048477162 -9.00000000
-24.35556221 0.27206558 2.99067378 34 7 27064 24.54000000 2048477164 2048477164 7.00000000
-3.94809461 0.04479163 -0.48479626 5 8 27065 3.97800000 2048477167 2048477167 -7.00000000
-18.19007301 0.20636868 2.88121009 45 9 27065 18.41800000 2048477169 2048477169 9.00000000
-5.18584538 0.05973930 -0.45373279 6 10 27066 5.20600000 2048477171 2048477171 -5.00000000
-12.80935860 0.14979571 2.49005747 43 11 27067 13.05000000 2048477174 2048477174 11.00000000
-7.65495491 0.09085510 -0.40120745 16 12 27068 7.66600000 2048477176 2048477176 -3.00000000
-12.04623795 0.14507711 2.78129482 56 13 27069 12.36400000 2048477178 2048477178 13.00000000
-15.25253773 0.18635418 -0.26625392 2 14 27070 15.25600000 2048477180 2048477180 -1.00000000
-10.14337444 0.12570149 2.71811771 42 15 27071 10.50200000 2048477183 2048477183 15.00000000
-1.94905770 0.02653527 -0.52229685 5 0 27078 2.01800000 2048477203 2048477203 -15.00000000
-26.20951653 0.36140236 0.45753229 5 1 27079 26.21600000 2048477206 2048477206 1.00000000
-2.23693562 0.03123554 -0.51648760 4 2 27080 2.29600000 2048477208 2048477208 -13.00000000
-55.29471970 0.77211010 2.89815593 53 3 27080 55.37600000 2048477210 2048477210 3.00000000
-2.61675644 0.03699599 -0.50869679 3 4 27081 2.66600000 2048477213 2048477213 -11.00000000
-36.55859375 0.52325135 3.19879007 62 5 27082 36.70200000 2048477215 2048477215 5.00000000
-3.14446974 0.04555471 -0.49808735 3 6 27083 3.18400000 2048477217 2048477217 -9.00000000
-24.32866096 0.35670236 2.98750520 37 7 27084 24.51400000 2048477220 2048477220 7.00000000
-3.95982337 0.05874947 -0.48625869 5 8 27085 3.99000000 2048477222 2048477222 -7.00000000
-18.19511986 0.27312621 2.88214850 45 9 27086 18.42400000 2048477224 2048477224 9.00000000
-5.17365217 0.07766148 -0.45268694 9 10 27086 5.19400000 2048477227 2048477227 -5.00000000
-12.80090618 0.19438855 2.48853087 46 11 27087 13.04200000 2048477229 2048477229 11.00000000
-7.65259409 0.11754465 -0.40110278 16 12 27088 7.66400000 2048477231 2048477231 -3.00000000
-12.05540085 0.18727680 2.78354430 54 13 27089 12.37400000 2048477233 2048477233 13.00000000
-15.30378056 0.24041100 -0.26716143 2 14 27090 15.30800000 2048477236 2048477236 -1.00000000
-10.14480495 0.16113839 2.71863532 45 15 27091 10.50400000 2048477238 2048477238 15.00000000
-1.95281053 0.03374550 -0.52333212 5 0 27099 2.02200000 2048477259 2048477259 -15.00000000
-2.22511554 0.03922801 -0.51378822 4 2 27101 2.28400000 2048477263 2048477263 -13.00000000
-58.40875626 1.02972603 3.06154871 58 3 27101 58.49800000 2048477266 2048477266 3.00000000
-2.62052917 0.04665653 -0.50946003 3 4 27102 2.67000000 2048477268 2048477268 -11.00000000
-36.55443954 0.65720594 3.19861579 62 5 27103 36.70000000 2048477270 2048477270 5.00000000
-3.14823174 0.05715116 -0.49871308 3 6 27104 3.18800000 2048477273 2048477273 -9.00000000
-24.30734253 0.44550520 2.98506761 40 7 27105 24.49400000 2048477275 2048477275 7.00000000
-3.95164251 0.07311566 -0.48528373 7 8 27106 3.98200000 2048477277 2048477277 -7.00000000
-18.18418121 0.33645463 2.88058424 49 9 27106 18.41400000 2048477280 2048477280 9.00000000
-5.18926954 0.09692099 -0.45408142 6 10 27107 5.21000000 2048477282 2048477282 -5.00000000
-12.80010700 0.24130492 2.48853087 50 11 27108 13.04200000 2048477284 2048477284 11.00000000
-7.63014603 0.14517409 -0.39995137 12 12 27109 7.64200000 2048477286 2048477286 -3.00000000
-12.05073643 0.23138596 2.78264451 56 13 27110 12.37000000 2048477289 2048477289 13.00000000
-15.29479885 0.29634559 -0.26702181 2 14 27111 15.30000000 2048477291 2048477291 -1.00000000
-10.14028358 0.19824435 2.71759987 42 15 27112 10.50000000 2048477293 2048477293 15.00000000
-1.94495499 0.04040140 -0.52126157 4 0 27119 2.01400000 2048477314 2048477314 -15.00000000
-2.22886157 0.04707718 -0.51468801 4 2 27121 2.28800000 2048477319 2048477319 -13.00000000
-58.39681625 1.23343563 3.06113005 58 3 27121 58.49000000 2048477321 2048477321 3.00000000
-2.61249924 0.05563640 -0.50793356 3 4 27122 2.66200000 2048477323 2048477323 -11.00000000
-36.55192184 0.78480077 3.19861579 62 5 27123 36.70000000 2048477326 2048477326 5.00000000
-3.15986252 0.06839669 -0.50059026 3 6 27124 3.20000000 2048477328 2048477328 -9.00000000
-24.30762482 0.53039426 2.98531151 40 7 27125 24.49600000 2048477330 2048477330 7.00000000
-3.94739389 0.08682172 -0.48479626 7 8 27126 3.97800000 2048477333 2048477333 -7.00000000
-18.18289566 0.39992723 2.88058424 41 9 27126 18.41400000 2048477335 2048477335 9.00000000
-5.18889952 0.11503433 -0.45408142 9 10 27127 5.21000000 2048477337 2048477337 -5.00000000
-12.79918671 0.28598416 2.48853087 46 11 27128 13.04200000 2048477339 2048477339 11.00000000
-7.64556694 0.17216709 -0.40078875 12 12 27129 7.65800000 2048477342 2048477342 -3.00000000
-12.03816605 0.27318421 2.77994514 55 13 27130 12.35800000 2048477344 2048477344 13.00000000
-15.35364628 0.35110408 -0.26806897 2 14 27131 15.36000000 2048477346 2048477346 -1.00000000
-10.15498066 0.23399535 2.72174096 45 15 27132 10.51600000 2048477349 2048477349 15.00000000
-1.95252728 0.04737776 -0.52333212 5 0 27139 2.02200000 2048477369 2048477369 -15.00000000
-58.45563889 1.42862499 1.02065158 14 1 27140 58.48200000 2048477372 2048477372 1.00000000
-2.24426889 0.05524068 -0.51828724 4 2 27141 2.30400000 2048477374 2048477374 -13.00000000
-58.39614868 1.43736935 3.06133938 58 3 27141 58.49400000 2048477376 2048477376 3.00000000
-2.61621428 0.06485268 -0.50869679 3 4 27142 2.66600000 2048477379 2048477379 -11.00000000
-36.54497528 0.91228652 3.19826722 62 5 27143 36.69600000 2048477381 2048477381 5.00000000
-3.15170550 0.07922768 -0.49933881 3 6 27144 3.19200000 2048477383 2048477383 -9.00000000
-24.27982712 0.61458743 2.98214293 37 7 27145 24.47000000 2048477385 2048477385 7.00000000
-3.95500469 0.10080248 -0.48577121 7 8 27146 3.98600000 2048477388 2048477388 -7.00000000
-18.16559029 0.46299231 2.87808132 49 9 27146 18.39800000 2048477390 2048477390 9.00000000
-5.18049955 0.13294183 -0.45338416 9 10 27147 5.20200000 2048477392 2048477392 -5.00000000
-12.81381130 0.33106557 2.49158382 43 11 27148 13.05800000 2048477395 2048477395 11.00000000
-7.63693285 0.19864632 -0.40037006 12 12 27149 7.65000000 2048477397 2048477397 -3.00000000
-12.04882717 0.31550965 2.78264451 56 13 27150 12.37000000 2048477399 2048477399 13.00000000
-15.39230728 0.40575007 -0.26876706 2 14 27151 15.40000000 2048477402 2048477402 -1.00000000
-10.14642429 0.26746556 2.71967053 45 15 27151 10.50800000 2048477404 2048477404 15.00000000
-1.94462562 0.05397865 -0.52126157 5 0 27159 2.01400000 2048477425 2048477425 -15.00000000
-58.43230438 1.63216209 1.02033746 14 1 27160 58.46400000 2048477427 2048477427 1.00000000
-2.23627043 0.06285530 -0.51648760 4 2 27161 2.29600000 2048477429 2048477429 -13.00000000
-58.39476776 1.64131343 3.06154871 58 3 27161 58.49800000 2048477432 2048477432 3.00000000
-2.60812211 0.07376257 -0.50717032 3 4 27162 2.65800000 2048477434 2048477434 -11.00000000
-36.52364349 1.03933668 3.19669843 51 5 27163 36.67800000 2048477436 2048477436 5.00000000
-3.14351153 0.09000257 -0.49808735 3 6 27164 3.18400000 2048477438 2048477438 -9.00000000
-24.26761246 0.69905031 2.98092413 40 7 27165 24.46000000 2048477441 2048477441 7.00000000
-3.94272304 0.11426238 -0.48430878 7 8 27166 3.97400000 2048477443 2048477443 -7.00000000
-5.18000364 0.15102433 -0.45338416 9 10 27167 5.20200000 2048477448 2048477448 -5.00000000
-12.80865288 0.37567699 2.49082065 43 11 27168 13.05400000 2048477450 2048477450 11.00000000
-7.65016747 0.22571529 -0.40110278 12 12 27169 7.66400000 2048477452 2048477452 -3.00000000
-12.05154800 0.35768160 2.78354430 55 13 27170 12.37400000 2048477455 2048477455 13.00000000
-15.27486706 0.45601580 -0.26674259 2 14 27171 15.28400000 2048477457 2048477457 -1.00000000
-10.13572025 0.30436236 2.71708226 42 15 27172 10.49800000 2048477459 2048477459 15.00000000
-1.94829774 0.06054698 -0.52229685 4 0 27178 2.01800000 2048477480 2048477480 -15.00000000
-58.43056870 1.82604647 1.02040732 14 1 27179 58.46800000 2048477482 2048477482 1.00000000
-2.23410201 0.07020948 -0.51603770 4 2 27180 2.29400000 2048477485 2048477485 -13.00000000
-58.39267731 1.84526539 3.06175804 58 3 27181 58.50200000 2048477487 2048477487 3.00000000
-2.61571240 0.08265905 -0.50869679 3 4 27181 2.66600000 2048477489 2048477489 -11.00000000
-36.51203156 1.16019464 3.19600105 51 5 27182 36.67000000 2048477491 2048477491 5.00000000
-3.16293955 0.10105715 -0.50121605 3 6 27183 3.20400000 2048477494 2048477494 -9.00000000
-24.23936844 0.77869219 2.97775555 37 7 27184 24.43400000 2048477496 2048477496 7.00000000
-3.96216297 0.12797713 -0.48674616 7 8 27185 3.99400000 2048477498 2048477498 -7.00000000
-18.16794205 0.58682120 2.87901998 53 9 27185 18.40400000 2048477501 2048477501 9.00000000
-5.18743992 0.16845968 -0.45408142 6 10 27186 5.21000000 2048477503 2048477503 -5.00000000
-12.79556370 0.41776556 2.48853087 46 11 27187 13.04200000 2048477505 2048477505 11.00000000
-7.64937687 0.25108293 -0.40110278 16 12 27188 7.66400000 2048477508 2048477508 -3.00000000
-12.04640102 0.39751548 2.78264451 55 13 27189 12.37000000 2048477510 2048477510 13.00000000
-15.41317272 0.51130760 -0.26918593 2 14 27190 15.42400000 2048477512 2048477512 -1.00000000
-10.13664532 0.33626714 2.71759987 45 15 27190 10.50000000 2048477515 2048477515 15.00000000
-1.95193589 0.06748093 -0.52333212 5 0 27198 2.02200000 2048477535 2048477535 -15.00000000
-58.43982697 2.03055167 1.02068651 14 1 27199 58.48400000 2048477538 2048477538 1.00000000
-2.24163342 0.07827957 -0.51783735 4 2 27200 2.30200000 2048477540 2048477540 -13.00000000
-58.37789536 2.04880238 3.06133938 58 3 27201 58.49400000 2048477542 2048477542 3.00000000
-2.62718010 0.09220225 -0.51098651 3 4 27201 2.67800000 2048477544 2048477544 -11.00000000
-36.50377655 1.28749788 3.19565248 51 5 27202 36.66600000 2048477547 2048477547 5.00000000
-3.15467095 0.11181736 -0.49996457 3 6 27203 3.19600000 2048477549 2048477549 -9.00000000
-24.21467972 0.86252135 2.97507453 40 7 27204 24.41200000 2048477551 2048477551 7.00000000
-3.94978929 0.14138083 -0.48528373 7 8 27205 3.98200000 2048477554 2048477554 -7.00000000
-18.16961670 0.65354806 2.87964559 49 9 27206 18.40800000 2048477556 2048477556 9.00000000
-5.19478464 0.18685268 -0.45477867 6 10 27206 5.21800000 2048477558 2048477558 -5.00000000
-12.79010391 0.46228606 2.48776770 46 11 27207 13.03800000 2048477561 2048477561 11.00000000
-7.64845419 0.27778271 -0.40110278 16 12 27208 7.66400000 2048477563 2048477563 -3.00000000
-12.03130722 0.43906537 2.77949524 52 13 27209 12.35600000 2048477565 2048477565 13.00000000
-15.44326687 0.56627887 -0.26974440 2 14 27210 15.45600000 2048477568 2048477568 -1.00000000
-10.14306641 0.37370205 2.71967053 45 15 27211 10.50800000 2048477570 2048477570 15.00000000
-1.95361888 0.07436753 -0.52384973 4 0 27218 2.02400000 2048477591 2048477591 -15.00000000
-2.23745203 0.08595423 -0.51693749 4 2 27220 2.29800000 2048477595 2048477595 -13.00000000
-58.37038803 2.25256681 3.06133938 58 3 27221 58.49400000 2048477597 2048477597 3.00000000
-2.61899519 0.10106942 -0.50946003 3 4 27221 2.67000000 2048477600 2048477600 -11.00000000
-36.50105286 1.41498923 3.19582677 51 5 27222 36.66800000 2048477602 2048477602 5.00000000
-3.15820909 0.12298226 -0.50059026 3 6 27223 3.20000000 2048477604 2048477604 -9.00000000
-24.20160484 0.94665313 2.97385573 37 7 27224 24.40200000 2048477607 2048477607 7.00000000
-3.94332099 0.15493350 -0.48455250 7 8 27225 3.97600000 2048477609 2048477609 -7.00000000
-18.16142845 0.71356446 2.87870693 41 9 27225 18.40200000 2048477611 2048477611 9.00000000
-5.19410086 0.20498472 -0.45477867 9 10 27226 5.21800000 2048477614 2048477614 -5.00000000
-12.79233551 0.50708455 2.48853087 46 11 27227 13.04200000 2048477616 2048477616 11.00000000
-7.65542030 0.30479693 -0.40152144 16 12 27228 7.67200000 2048477618 2048477618 -3.00000000
-12.01412392 0.48043686 2.77589607 54 13 27229 12.34000000 2048477621 2048477621 13.00000000
-15.46117687 0.62098503 -0.27009344 2 14 27230 15.47600000 2048477623 2048477623 -1.00000000
-10.15142345 0.40772328 2.72225881 47 15 27230 10.51800000 2048477625 2048477625 15.00000000
-1.94755685 0.08094580 -0.52229685 5 0 27238 2.01800000 2048477646 2048477646 -15.00000000
-41.88914490 1.74835145 0.73181432 31 1 27239 41.93200000 2048477648 2048477648 1.00000000
-2.24103236 0.09392709 -0.51783735 4 2 27240 2.30200000 2048477650 2048477650 -13.00000000
-58.36616135 2.45647168 3.06154871 58 3 27241 58.49800000 2048477653 2048477653 3.00000000
-2.61862636 0.11021081 -0.50946003 3 4 27241 2.67000000 2048477655 2048477655 -11.00000000
-36.49987030 1.54256129 3.19617534 62 5 27242 36.67200000 2048477657 2048477657 5.00000000
-3.16960216 0.13450824 -0.50246751 3 6 27243 3.21200000 2048477660 2048477660 -9.00000000
-24.19616890 1.03104222 2.97361207 34 7 27244 24.40000000 2048477662 2048477662 7.00000000
-3.94870591 0.16895190 -0.48528373 7 8 27245 3.98200000 2048477664 2048477664 -7.00000000
-18.13500786 0.77910721 2.87495255 45 9 27246 18.37800000 2048477667 2048477667 9.00000000
-5.18937254 0.22294323 -0.45443004 6 10 27246 5.21400000 2048477669 2048477669 -5.00000000
-12.79440975 0.55190426 2.48929405 50 11 27247 13.04600000 2048477671 2048477671 11.00000000
-7.65430975 0.33151749 -0.40152144 20 12 27248 7.67200000 2048477673 2048477673 -3.00000000
-12.00848007 0.52220172 2.77499628 53 13 27249 12.33600000 2048477676 2048477676 13.00000000
-15.49487591 0.67652088 -0.27072173 2 14 27250 15.51200000 2048477678 2048477678 -1.00000000
-10.14021111 0.44450435 2.71967053 47 15 27251 10.50800000 2048477680 2048477680 15.00000000
-1.94726241 0.08774356 -0.52229685 4 0 27258 2.01800000 2048477701 2048477701 -15.00000000
-41.69300842 1.88597667 0.72849834 71 1 27259 41.74200000 2048477703 2048477703 1.00000000
-2.25237131 0.10227958 -0.52053672 4 2 27260 2.31400000 2048477706 2048477706 -13.00000000
-58.36321640 2.66046548 3.06186271 58 3 27261 58.50400000 2048477708 2048477708 3.00000000
-2.61430335 0.11917204 -0.50869679 3 4 27261 2.66600000 2048477710 2048477710 -11.00000000
-36.48033142 1.66932261 3.19495511 51 5 27262 36.65800000 2048477713 2048477713 5.00000000
-3.15727353 0.14502755 -0.50059026 3 6 27263 3.20000000 2048477715 2048477715 -9.00000000
-24.16069412 1.11403334 2.96971226 34 7 27264 24.36800000 2048477717 2048477717 7.00000000
-3.96395588 0.18346865 -0.48723364 7 8 27265 3.99800000 2048477720 2048477720 -7.00000000
-18.13232422 0.83924073 2.87495255 45 9 27265 18.37800000 2048477722 2048477722 9.00000000
-5.19652367 0.24142602 -0.45512730 9 10 27266 5.22200000 2048477724 2048477724 -5.00000000
-12.79240608 0.59656173 2.48929405 43 11 27267 13.04600000 2048477726 2048477726 11.00000000
-7.65909147 0.35851416 -0.40183547 28 12 27268 7.67800000 2048477729 2048477729 -3.00000000
-12.01631737 0.56457323 2.77724576 55 13 27269 12.34600000 2048477731 2048477731 13.00000000
-15.57631397 0.73456031 -0.27218774 2 14 27270 15.59600000 2048477733 2048477733 -1.00000000
-10.12710285 0.47758204 2.71656466 45 15 27270 10.49600000 2048477736 2048477736 15.00000000
-1.94115555 0.09425914 -0.52074391 4 0 27278 2.01200000 2048477756 2048477756 -15.00000000
-41.59429550 2.02702355 0.72689271 41 1 27279 41.65000000 2048477759 2048477759 1.00000000
-2.24032211 0.10957003 -0.51783735 4 2 27280 2.30200000 2048477761 2048477761 -13.00000000
-58.37352371 2.86515403 3.06290960 58 3 27281 58.52400000 2048477763 2048477763 3.00000000
-2.61779308 0.12848943 -0.50946003 3 4 27281 2.67000000 2048477766 2048477766 -11.00000000
-36.46831131 1.79635859 3.19443226 51 5 27282 36.65200000 2048477768 2048477768 5.00000000
-3.15280223 0.15585254 -0.49996457 3 6 27283 3.19600000 2048477770 2048477770 -9.00000000
-24.12890244 1.19698620 2.96629977 34 7 27284 24.34000000 2048477773 2048477773 7.00000000
-3.95932603 0.19710693 -0.48674616 5 8 27285 3.99400000 2048477775 2048477775 -7.00000000
-18.12518120 0.90549630 2.87432694 41 9 27286 18.37400000 2048477777 2048477777 9.00000000
-5.19962883 0.25976261 -0.45547593 6 10 27286 5.22600000 2048477779 2048477779 -5.00000000
-12.77455902 0.64042550 2.48624110 50 11 27287 13.03000000 2048477782 2048477782 11.00000000
-7.65180922 0.38494614 -0.40152144 24 12 27288 7.67200000 2048477784 2048477784 -3.00000000
-12.02789688 0.60720235 2.78039503 54 13 27289 12.36000000 2048477786 2048477786 13.00000000
-15.51773548 0.78609455 -0.27121040 2 14 27290 15.54000000 2048477789 2048477789 -1.00000000
-10.12914276 0.51489264 2.71759987 47 15 27291 10.50000000 2048477791 2048477791 15.00000000
-1.94853163 0.10143620 -0.52281445 4 0 27298 2.02000000 2048477812 2048477812 -15.00000000
-41.54103470 2.16980314 0.72608989 10 1 27299 41.60400000 2048477814 2048477814 1.00000000
-2.23603368 0.11718556 -0.51693749 4 2 27300 2.29800000 2048477816 2048477816 -13.00000000
-58.35917664 3.06868839 3.06270027 58 3 27301 58.52000000 2048477819 2048477819 3.00000000
-2.62909198 0.13824500 -0.51174974 3 4 27301 2.68200000 2048477821 2048477821 -11.00000000
-36.45585251 1.92333090 3.19390941 51 5 27302 36.64600000 2048477823 2048477823 5.00000000
-3.14829373 0.16664809 -0.49933881 3 6 27303 3.19200000 2048477826 2048477826 -9.00000000
-24.12854004 1.28141499 2.96678734 31 7 27304 24.34400000 2048477828 2048477828 7.00000000
-3.96654296 0.21134885 -0.48772112 6 8 27305 4.00200000 2048477830 2048477830 -7.00000000
-18.12996864 0.96601701 2.87557840 45 9 27305 18.38200000 2048477832 2048477832 9.00000000
-5.19073248 0.27748570 -0.45477867 6 10 27306 5.21800000 2048477835 2048477835 -5.00000000
-12.77224541 0.68501318 2.48624110 46 11 27307 13.03000000 2048477837 2048477837 11.00000000
-7.63845253 0.41100970 -0.40089342 24 12 27308 7.66000000 2048477839 2048477839 -3.00000000
-12.01402855 0.64855355 2.77769566 52 13 27309 12.34800000 2048477842 2048477842 13.00000000
-15.61473465 0.84566385 -0.27295563 2 14 27310 15.64000000 2048477844 2048477844 -1.00000000
-10.12737942 0.54847926 2.71759987 45 15 27310 10.50000000 2048477846 2048477846 15.00000000
-1.94237912 0.10791573 -0.52126157 4 0 27318 2.01400000 2048477867 2048477867 -15.00000000
-41.51124573 2.31357121 0.72570598 20 1 27319 41.58200000 2048477869 2048477869 1.00000000
-2.23950243 0.12520763 -0.51783735 4 2 27320 2.30200000 2048477872 2048477872 -13.00000000
-58.34811020 3.27238131 3.06270027 58 3 27321 58.52000000 2048477874 2048477874 3.00000000
-2.62467313 0.14720154 -0.51098651 3 4 27321 2.67800000 2048477876 2048477876 -11.00000000
-36.44493484 2.05034995 3.19356084 51 5 27322 36.64200000 2048477879 2048477879 5.00000000
-3.15952635 0.17830448 -0.50121605 3 6 27323 3.20400000 2048477881 2048477881 -9.00000000
-24.12392044 1.36563158 2.96678734 28 7 27324 24.34400000 2048477883 2048477883 7.00000000
-3.94992590 0.22429305 -0.48577121 5 8 27325 3.98600000 2048477885 2048477885 -7.00000000
-18.11841774 1.03201079 2.87432694 41 9 27326 18.37400000 2048477888 2048477888 9.00000000
-5.20564556 0.29650947 -0.45617315 6 10 27326 5.23400000 2048477890 2048477890 -5.00000000
-12.77369690 0.72981638 2.48700452 46 11 27327 13.03400000 2048477892 2048477892 11.00000000
-7.64694118 0.43824175 -0.40141678 28 12 27328 7.67000000 2048477895 2048477895 -3.00000000
-12.01169205 0.69048643 2.77769566 54 13 27329 12.34800000 2048477897 2048477897 13.00000000
-15.55179691 0.89671093 -0.27190849 2 14 27330 15.58000000 2048477899 2048477899 -1.00000000
-10.12915897 0.58581740 2.71863532 45 15 27331 10.50400000 2048477902 2048477902 15.00000000
-1.94006205 0.11458134 -0.52074391 4 0 27338 2.01200000 2048477922 2048477922 -15.00000000
-41.49892426 2.45822191 0.72563618 41 1 27339 41.57800000 2048477925 2048477925 1.00000000
-2.24099708 0.13313976 -0.51828724 4 2 27340 2.30400000 2048477927 2048477927 -13.00000000
-58.33633041 3.47603440 3.06270027 58 3 27341 58.52000000 2048477929 2048477929 3.00000000
-2.61630416 0.15589535 -0.50946003 3 4 27341 2.67000000 2048477932 2048477932 -11.00000000
-36.41965866 2.17648435 3.19199181 51 5 27342 36.62400000 2048477934 2048477934 5.00000000
-3.15494084 0.18909584 -0.50059026 3 6 27343 3.20000000 2048477936 2048477936 -9.00000000
-24.12693214 1.45030785 2.96776223 28 7 27344 24.35200000 2048477938 2048477938 7.00000000
-3.96893382 0.23927407 -0.48820859 6 8 27345 4.00600000 2048477941 2048477941 -7.00000000
-18.09912109 1.09113705 2.87182403 41 9 27345 18.35800000 2048477943 2048477943 9.00000000
-5.19264603 0.31395727 -0.45512730 6 10 27346 5.22200000 2048477945 2048477945 -5.00000000
-12.77891064 0.77487582 2.48853087 43 11 27347 13.04200000 2048477948 2048477948 11.00000000
-7.66530037 0.46614423 -0.40246350 32 12 27348 7.69000000 2048477950 2048477950 -3.00000000
-12.00531769 0.73217356 2.77679586 53 13 27349 12.34400000 2048477952 2048477952 13.00000000
-15.58050728 0.95294464 -0.27246696 2 14 27350 15.61200000 2048477955 2048477955 -1.00000000
-10.11751938 0.61881399 2.71604705 42 15 27350 10.49400000 2048477957 2048477957 15.00000000
-1.93386602 0.12099084 -0.51919103 4 0 27358 2.00600000 2048477978 2048477978 -15.00000000
-41.48011017 2.60243917 0.72546160 30 1 27359 41.56800000 2048477980 2048477980 1.00000000
-2.24635339 0.14132857 -0.51963693 4 2 27360 2.31000000 2048477982 2048477982 -13.00000000
-58.34178162 3.68077683 3.06364226 72 3 27361 58.53800000 2048477985 2048477985 3.00000000
-2.62162209 0.16539785 -0.51060486 3 4 27361 2.67600000 2048477987 2048477987 -11.00000000
-36.40587234 2.30322194 3.19146895 41 5 27362 36.61800000 2048477989 2048477989 5.00000000
-3.16214728 0.20060775 -0.50184178 3 6 27363 3.20800000 2048477991 2048477991 -9.00000000
-24.12964821 1.53502190 2.96873713 25 7 27364 24.36000000 2048477994 2048477994 7.00000000
-3.96807456 0.25312677 -0.48820859 6 8 27365 4.00600000 2048477996 2048477996 -7.00000000
-18.09717369 1.15443385 2.87213683 45 9 27365 18.36000000 2048477998 2048477998 9.00000000
-5.20742512 0.33309856 -0.45652178 6 10 27366 5.23800000 2048478001 2048478001 -5.00000000
-12.77220917 0.81922644 2.48776770 43 11 27367 13.03800000 2048478003 2048478003 11.00000000
-7.66362667 0.49289829 -0.40246350 28 12 27368 7.69000000 2048478005 2048478005 -3.00000000
-12.01630211 0.77495342 2.77994514 57 13 27369 12.35800000 2048478008 2048478008 13.00000000
-15.58905888 1.00809920 -0.27267641 2 14 27370 15.62400000 2048478010 2048478010 -1.00000000
-10.11336994 0.65400225 2.71552944 45 15 27370 10.49200000 2048478012 2048478012 15.00000000
-1.94114256 0.12824999 -0.52126157 4 0 27378 2.01400000 2048478033 2048478033 -15.00000000
-41.48075104 2.74787688 0.72563618 20 1 27379 41.57800000 2048478035 2048478035 1.00000000
-2.23223519 0.14826490 -0.51648760 4 2 27380 2.29600000 2048478038 2048478038 -13.00000000
-58.33654785 3.88493609 3.06406093 58 3 27381 58.54600000 2048478040 2048478040 3.00000000
-2.62690544 0.17493938 -0.51174974 3 4 27381 2.68200000 2048478042 2048478042 -11.00000000
-36.39562225 2.43015552 3.19129467 41 5 27382 36.61600000 2048478044 2048478044 5.00000000
-3.15354395 0.21111669 -0.50059026 3 6 27383 3.20000000 2048478047 2048478047 -9.00000000
-24.11027908 1.61831009 2.96703100 20 7 27384 24.34600000 2048478049 2048478049 7.00000000
