# .PCD v0.7 - Point Cloud Data file format
VERSION 0.7
FIELDS x y z intensity laser_id azimuth distance_m adjustedtime timestamp vertical_angle
SIZE 4 4 4 1 1 2 8 8 4 8
TYPE F F F U U U F U U F
COUNT 1 1 1 1 1 1 1 1 1 1
WIDTH 523
HEIGHT 1
VIEWPOINT 0 0 0 1 0 0 0
POINTS 523
DATA ascii
0.37641984 -2.29614592 -0.53718311 4 2 17069 2.38800000 2048049492 2048049492 -13.00000000
0.21722063 -1.32648742 0.07044420 2 3 17070 1.34600000 2048049494 2048049494 3.00000000
0.43783179 -2.67367935 -0.52663285 3 4 17070 2.76000000 2048049497 2048049497 -11.00000000
0.53261214 -3.25960255 -0.52311683 1 6 17072 3.34400000 2048049501 2048049501 -9.00000000
3.26935625 -20.03052711 2.49198437 9 7 17073 20.44800000 2048049504 2048049504 7.00000000
3.31728864 -20.34653282 -2.53122616 3 8 17074 20.77000000 2048049506 2048049506 -7.00000000
2.38526368 -14.64606857 2.35027146 3 9 17075 15.02400000 2048049508 2048049508 9.00000000
0.91178530 -5.59857178 -0.49626479 10 10 17075 5.69400000 2048049511 2048049511 -5.00000000
2.09004354 -12.84748077 2.53012729 56 11 17076 13.26000000 2048049513 2048049513 11.00000000
2.27068639 -13.97327900 -0.74191451 27 12 17077 14.17600000 2048049515 2048049515 -3.00000000
1.85656929 -11.43750668 2.67511797 46 13 17078 11.89200000 2048049517 2048049517 13.00000000
1.58433855 -9.77119541 2.65237761 42 15 17079 10.24800000 2048049522 2048049522 15.00000000
0.31757200 -1.97604227 -0.53627306 4 0 17087 2.07200000 2048049543 2048049543 -15.00000000
0.36562559 -2.28012848 -0.53313398 4 2 17089 2.37000000 2048049547 2048049547 -13.00000000
0.21227314 -1.32526541 0.07033952 4 3 17090 1.34400000 2048049550 2048049550 3.00000000
0.43253279 -2.70039248 -0.53159386 3 4 17090 2.78600000 2048049552 2048049552 -11.00000000
0.52123076 -3.26144195 -0.52311683 1 6 17092 3.34400000 2048049557 2048049557 -9.00000000
3.20943069 -20.10454559 2.49978399 11 7 17093 20.51200000 2048049559 2048049559 7.00000000
0.66050237 -4.14216948 -0.51501983 2 8 17094 4.22600000 2048049561 2048049561 -7.00000000
2.33878565 -14.68356705 2.35496449 3 9 17095 15.05400000 2048049564 2048049564 9.00000000
0.21906348 -1.37534332 -0.12184373 12 10 17095 1.39800000 2048049566 2048049566 -5.00000000
2.04333377 -12.84306526 2.52783751 53 11 17096 13.24800000 2048049568 2048049568 11.00000000
2.21813488 -13.95744991 -0.74065846 45 12 17097 14.15200000 2048049570 2048049570 -3.00000000
1.81693912 -11.44584179 2.67556787 51 13 17098 11.89400000 2048049573 2048049573 13.00000000
1.55354905 -9.79765511 2.65807152 40 15 17099 10.27000000 2048049577 2048049577 15.00000000
0.31226414 -1.98275518 -0.53782600 4 0 17105 2.07800000 2048049598 2048049598 -15.00000000
0.35876307 -2.28319097 -0.53358388 4 2 17107 2.37200000 2048049603 2048049603 -13.00000000
0.20709994 -1.31799722 0.06992084 6 3 17107 1.33600000 2048049605 2048049605 3.00000000
0.42130741 -2.68428230 -0.52815932 3 4 17108 2.76800000 2048049607 2048049607 -11.00000000
0.51251012 -3.27282119 -0.52468121 3 6 17110 3.35400000 2048049612 2048049612 -9.00000000
3.14502764 -20.10668564 2.49880910 9 7 17111 20.50400000 2048049614 2048049614 7.00000000
0.65116334 -4.16775942 -0.51794469 2 8 17112 4.25000000 2048049616 2048049616 -7.00000000
2.55958271 -16.38256454 2.62622190 52 9 17112 16.78800000 2048049619 2048049619 9.00000000
0.90412682 -5.79347754 -0.51299870 3 10 17113 5.88600000 2048049621 2048049621 -5.00000000
2.00297618 -12.84942150 2.52783751 50 11 17114 13.24800000 2048049623 2048049623 11.00000000
1.78007364 -11.44571686 2.67421818 48 13 17116 11.88800000 2048049628 2048049628 13.00000000
1.49192047 -9.60395527 2.60423732 33 15 17117 10.06200000 2048049633 2048049633 15.00000000
0.30416560 -1.97619569 -0.53575540 4 0 17125 2.07000000 2048049653 2048049653 -15.00000000
0.35197416 -2.29213405 -0.53538352 4 2 17127 2.38000000 2048049658 2048049658 -13.00000000
0.20196505 -1.31677330 0.06981616 6 3 17128 1.33400000 2048049660 2048049660 3.00000000
0.41014913 -2.67409325 -0.52586961 3 4 17128 2.75600000 2048049663 2048049663 -11.00000000
0.49988756 -3.26677966 -0.52342969 1 6 17130 3.34600000 2048049667 2048049667 -9.00000000
3.07482290 -20.11754036 2.49880910 7 7 17131 20.50400000 2048049669 2048049669 7.00000000
0.63181782 -4.13860941 -0.51404488 2 8 17132 4.21800000 2048049672 2048049672 -7.00000000
2.54835558 -16.71209717 2.67753220 40 9 17133 17.11600000 2048049674 2048049674 9.00000000
0.20933643 -1.37282670 -0.12149511 12 10 17133 1.39400000 2048049676 2048049676 -5.00000000
1.95692861 -12.84857082 2.52631116 53 11 17134 13.24000000 2048049679 2048049679 11.00000000
1.74128079 -11.45956707 2.67601776 46 13 17136 11.89600000 2048049683 2048049683 13.00000000
1.48653352 -9.80609226 2.65755391 40 15 17138 10.26800000 2048049688 2048049688 15.00000000
0.29582947 -1.96769345 -0.53316724 4 0 17145 2.06000000 2048049709 2048049709 -15.00000000
0.34454909 -2.29720306 -0.53628331 4 2 17147 2.38400000 2048049713 2048049713 -13.00000000
0.19730112 -1.31546056 0.06971149 6 3 17147 1.33200000 2048049716 2048049716 3.00000000
0.40023056 -2.67162561 -0.52510637 3 4 17148 2.75200000 2048049718 2048049718 -11.00000000
0.48935723 -3.27436590 -0.52436835 1 6 17150 3.35200000 2048049722 2048049722 -9.00000000
3.00311565 -20.11833382 2.49759030 7 7 17151 20.49400000 2048049725 2048049725 7.00000000
0.61912394 -4.15257025 -0.51550734 2 8 17152 4.23000000 2048049727 2048049727 -7.00000000
2.53772068 -17.04131889 2.72884274 37 9 17153 17.44400000 2048049729 2048049729 9.00000000
0.20395617 -1.36960781 -0.12114649 9 10 17153 1.39000000 2048049732 2048049732 -5.00000000
1.33978081 -9.01851273 -0.47782728 4 12 17155 9.13000000 2048049736 2048049736 -3.00000000
1.70327103 -11.47906971 2.67916703 51 13 17156 11.91000000 2048049739 2048049739 13.00000000
1.45372391 -9.80905724 2.65703630 38 15 17157 10.26600000 2048049743 2048049743 15.00000000
0.28923967 -1.97062552 -0.53368485 4 0 17165 2.06200000 2048049764 2048049764 -15.00000000
0.33539894 -2.29067898 -0.53448373 4 2 17167 2.37600000 2048049768 2048049768 -13.00000000
0.19270810 -1.31614125 0.06971149 6 3 17167 1.33200000 2048049771 2048049771 3.00000000
0.39260691 -2.68466187 -0.52739608 3 4 17168 2.76400000 2048049773 2048049773 -11.00000000
0.47535819 -3.25846195 -0.52155250 1 6 17170 3.33400000 2048049778 2048049778 -9.00000000
2.93287110 -20.12869453 2.49759030 7 7 17171 20.49400000 2048049780 2048049780 7.00000000
0.60462499 -4.15470600 -0.51550734 2 8 17172 4.23000000 2048049782 2048049782 -7.00000000
2.50208712 -17.21427917 2.75512385 41 9 17173 17.61200000 2048049785 2048049785 9.00000000
1.72982264 -11.91573334 2.34046316 9 11 17174 12.26600000 2048049789 2048049789 11.00000000
1.66374969 -11.48880196 2.68006682 47 13 17176 11.91400000 2048049794 2048049794 13.00000000
1.42058122 -9.82171917 2.65910697 40 15 17177 10.27400000 2048049798 2048049798 15.00000000
0.28400236 -1.98309720 -0.53679073 4 0 17185 2.07400000 2048049819 2048049819 -15.00000000
0.32629859 -2.28411937 -0.53268409 4 2 17187 2.36800000 2048049824 2048049824 -13.00000000
0.18760081 -1.31486154 0.06960682 6 3 17188 1.33000000 2048049826 2048049826 3.00000000
0.38461983 -2.69573379 -0.52930415 3 4 17188 2.77400000 2048049828 2048049828 -11.00000000
0.46759945 -3.28552508 -0.52561980 3 6 17190 3.36000000 2048049833 2048049833 -9.00000000
2.86091495 -20.12701797 2.49612784 7 7 17191 20.48200000 2048049835 2048049835 7.00000000
0.58677047 -4.13320637 -0.51258248 2 8 17192 4.20600000 2048049838 2048049838 -7.00000000
2.45054173 -17.26159668 2.76138115 41 9 17192 17.65200000 2048049840 2048049840 9.00000000
0.81363940 -5.73846626 -0.50707209 3 10 17193 5.81800000 2048049842 2048049842 -5.00000000
1.62390876 -11.49646950 2.68051672 50 13 17196 11.91600000 2048049849 2048049849 13.00000000
1.38538194 -9.83259964 2.66065979 40 15 17198 10.28000000 2048049854 2048049854 15.00000000
0.27814710 -1.99172962 -0.53886127 4 0 17205 2.08200000 2048049874 2048049874 -15.00000000
0.31832355 -2.28524446 -0.53268409 4 2 17207 2.36800000 2048049879 2048049879 -13.00000000
0.18103515 -1.29965115 0.06876945 9 3 17207 1.31400000 2048049881 2048049881 3.00000000
0.37250245 -2.67761469 -0.52548796 3 4 17208 2.75400000 2048049884 2048049884 -11.00000000
0.45259842 -3.26170111 -0.52155250 1 6 17210 3.33400000 2048049888 2048049888 -9.00000000
2.78955102 -20.12901688 2.49515295 7 7 17211 20.47400000 2048049891 2048049891 7.00000000
0.57233930 -4.13522959 -0.51258248 2 8 17212 4.20600000 2048049893 2048049893 -7.00000000
2.38779950 -17.27437592 2.76200700 41 9 17213 17.65600000 2048049895 2048049895 9.00000000
0.78978407 -5.71364069 -0.50463176 3 10 17213 5.79000000 2048049898 2048049898 -5.00000000
1.77412200 -12.85130405 2.52173162 53 11 17214 13.21600000 2048049900 2048049900 11.00000000
1.58323705 -11.49820709 2.67961693 50 13 17216 11.91200000 2048049904 2048049904 13.00000000
1.35105121 -9.83737469 2.66065979 38 15 17218 10.28000000 2048049909 2048049909 15.00000000
0.26858786 -1.97354627 -0.53368485 4 0 17225 2.06200000 2048049930 2048049930 -15.00000000
0.31034461 -2.28634167 -0.53268409 4 2 17227 2.36800000 2048049934 2048049934 -13.00000000
0.17649741 -1.30027509 0.06876945 9 3 17227 1.31400000 2048049937 2048049937 3.00000000
0.36262611 -2.67500782 -0.52472472 3 4 17228 2.75000000 2048049939 2048049939 -11.00000000
0.44279823 -3.27500653 -0.52342969 3 6 17230 3.34600000 2048049944 2048049944 -9.00000000
2.71927071 -20.13863182 2.49515295 7 7 17231 20.47400000 2048049946 2048049946 7.00000000
0.55737060 -4.13326740 -0.51209497 2 8 17232 4.20200000 2048049948 2048049948 -7.00000000
2.33155847 -17.29002953 2.76325846 41 9 17232 17.66400000 2048049951 2048049951 9.00000000
0.77355784 -5.74400663 -0.50707209 3 10 17233 5.81800000 2048049953 2048049953 -5.00000000
1.72872841 -12.85352707 2.52096844 53 11 17234 13.21200000 2048049955 2048049955 11.00000000
1.54360938 -11.50752640 2.68051672 47 13 17236 11.91600000 2048049960 2048049960 13.00000000
1.31747270 -9.84777546 2.66221261 42 15 17238 10.28600000 2048049964 2048049964 15.00000000
0.26093578 -1.96872652 -0.53213197 4 0 17245 2.05600000 2048049985 2048049985 -15.00000000
0.30389413 -2.29900265 -0.53538352 4 2 17247 2.38000000 2048049990 2048049990 -13.00000000
0.17352793 -1.31276357 0.06939748 11 3 17247 1.32600000 2048049992 2048049992 3.00000000
0.35380024 -2.68015003 -0.52548796 3 4 17248 2.75400000 2048049994 2048049994 -11.00000000
0.43291068 -3.28828287 -0.52530694 1 6 17250 3.35800000 2048049999 2048049999 -9.00000000
2.64792204 -20.14012718 2.49417806 7 7 17251 20.46600000 2048050001 2048050001 7.00000000
0.54500675 -4.15093374 -0.51404488 2 8 17252 4.21800000 2048050004 2048050004 -7.00000000
2.27324796 -17.31373215 2.76576138 41 9 17252 17.68000000 2048050006 2048050006 9.00000000
0.75350279 -5.74667168 -0.50707209 3 10 17253 5.81800000 2048050008 2048050008 -5.00000000
1.68283117 -12.85169697 2.51944208 53 11 17254 13.20400000 2048050010 2048050010 11.00000000
1.50444055 -11.52057362 2.68231630 48 13 17256 11.92400000 2048050015 2048050015 13.00000000
1.28159261 -9.84082031 2.65910697 42 15 17258 10.27400000 2048050020 2048050020 15.00000000
0.25480348 -1.97537327 -0.53368485 4 0 17265 2.06200000 2048050040 2048050040 -15.00000000
0.29537001 -2.29618382 -0.53448373 4 2 17267 2.37600000 2048050045 2048050045 -13.00000000
0.17072819 -1.32722783 0.07013018 14 3 17267 1.34000000 2048050047 2048050047 3.00000000
0.34644374 -2.69694662 -0.52854091 3 4 17268 2.77000000 2048050050 2048050050 -11.00000000
0.41841778 -3.26626182 -0.52155250 1 6 17270 3.33400000 2048050054 2048050054 -9.00000000
0.17556825 -1.37242508 0.16988586 6 7 17271 1.39400000 2048050056 2048050056 7.00000000
0.53252637 -4.16856337 -0.51599479 2 8 17272 4.23400000 2048050059 2048050059 -7.00000000
2.21404958 -17.33135796 2.76732564 20 9 17272 17.69000000 2048050061 2048050061 9.00000000
0.73091727 -5.72950315 -0.50532901 3 10 17273 5.79800000 2048050063 2048050063 -5.00000000
1.63547909 -12.83801746 2.51562572 56 11 17274 13.18400000 2048050066 2048050066 11.00000000
1.46618176 -11.54122066 2.68591547 50 13 17276 11.94000000 2048050070 2048050070 13.00000000
1.25065410 -9.85843182 2.66273022 42 15 17277 10.28800000 2048050075 2048050075 15.00000000
0.24814704 -1.97816753 -0.53420252 4 0 17285 2.06400000 2048050096 2048050096 -15.00000000
0.28686929 -2.29333353 -0.53358388 4 2 17287 2.37200000 2048050100 2048050100 -13.00000000
0.16386314 -1.30997932 0.06918813 20 3 17287 1.32200000 2048050103 2048050103 3.00000000
0.33605418 -2.69034696 -0.52701443 3 4 17288 2.76200000 2048050105 2048050105 -11.00000000
0.40652552 -3.26378179 -0.52092677 1 6 17290 3.33000000 2048050109 2048050109 -9.00000000
0.16930643 -1.36121011 0.16842343 6 7 17291 1.38200000 2048050112 2048050112 7.00000000
0.51161063 -4.11917782 -0.50965762 2 8 17292 4.18200000 2048050114 2048050114 -7.00000000
2.15572953 -17.35662460 2.77014160 41 9 17292 17.70800000 2048050116 2048050116 9.00000000
0.70944178 -5.72015619 -0.50428313 3 10 17293 5.78600000 2048050119 2048050119 -5.00000000
1.59065604 -12.84364796 2.51562572 53 11 17294 13.18400000 2048050121 2048050121 11.00000000
0.17281982 -1.39742184 -0.07379370 2 12 17295 1.41000000 2048050123 2048050123 -3.00000000
1.42540884 -11.54240036 2.68501568 50 13 17296 11.93600000 2048050126 2048050126 13.00000000
1.21498501 -9.86678410 2.66376567 38 15 17298 10.29200000 2048050130 2048050130 15.00000000
0.24217547 -1.98669231 -0.53627306 4 0 17305 2.07200000 2048050151 2048050151 -15.00000000
0.27933255 -2.29818988 -0.53448373 4 2 17307 2.37600000 2048050156 2048050156 -13.00000000
0.15833881 -1.30462301 0.06887412 22 3 17308 1.31600000 2048050158 2048050158 3.00000000
0.32666105 -2.69150376 -0.52701443 3 4 17308 2.76200000 2048050160 2048050160 -11.00000000
0.39679155 -3.27890849 -0.52311683 3 6 17310 3.34400000 2048050165 2048050165 -9.00000000
0.16669713 -1.37952960 0.17061707 6 7 17311 1.40000000 2048050167 2048050167 7.00000000
0.50055802 -4.14853001 -0.51306993 2 8 17312 4.21000000 2048050169 2048050169 -7.00000000
2.09560370 -17.36796570 2.77076721 41 9 17312 17.71200000 2048050172 2048050172 9.00000000
0.69090033 -5.73446608 -0.50532901 3 10 17313 5.79800000 2048050174 2048050174 -5.00000000
1.54628265 -12.85302067 2.51638913 56 11 17314 13.18800000 2048050176 2048050176 11.00000000
1.38418126 -11.53956604 2.68321609 48 13 17316 11.92800000 2048050181 2048050181 13.00000000
1.18317783 -9.87843132 2.66583610 42 15 17317 10.30000000 2048050186 2048050186 15.00000000
0.23364970 -1.97409630 -0.53264958 4 0 17325 2.05800000 2048050206 2048050206 -15.00000000
0.27130866 -2.29915094 -0.53448373 4 2 17327 2.37600000 2048050211 2048050211 -13.00000000
0.15495244 -1.31508541 0.06939748 27 3 17328 1.32600000 2048050213 2048050213 3.00000000
0.31680450 -2.68872809 -0.52625120 3 4 17328 2.75800000 2048050215 2048050215 -11.00000000
0.38534358 -3.28027368 -0.52311683 3 6 17330 3.34400000 2048050220 2048050220 -9.00000000
0.16188066 -1.38010311 0.17061707 6 7 17331 1.40000000 2048050222 2048050222 7.00000000
0.48561209 -4.14630890 -0.51258248 2 8 17332 4.20600000 2048050225 2048050225 -7.00000000
2.03147388 -17.37160683 2.77014160 41 9 17333 17.70800000 2048050227 2048050227 9.00000000
0.66810209 -5.71309614 -0.50323725 3 10 17333 5.77400000 2048050229 2048050229 -5.00000000
1.50095248 -12.85443974 2.51562572 56 11 17334 13.18400000 2048050232 2048050232 11.00000000
0.16444759 -1.41049719 -0.07442173 2 12 17335 1.42200000 2048050234 2048050234 -3.00000000
1.34569490 -11.55981255 2.68681550 46 13 17336 11.94400000 2048050236 2048050236 13.00000000
1.14629555 -9.87694454 2.66428328 42 15 17338 10.29400000 2048050241 2048050241 15.00000000
0.22631666 -1.97106135 -0.53161430 4 0 17345 2.05400000 2048050262 2048050262 -15.00000000
0.26416796 -2.30782843 -0.53628331 4 2 17347 2.38400000 2048050266 2048050266 -13.00000000
0.15036099 -1.31561828 0.06939748 29 3 17348 1.32600000 2048050268 2048050268 3.00000000
0.30652544 -2.68201542 -0.52472472 3 4 17348 2.75000000 2048050271 2048050271 -11.00000000
0.37165475 -3.26197195 -0.51998818 3 6 17350 3.32400000 2048050275 2048050275 -9.00000000
2.38779426 -20.98997307 2.59386706 12 7 17351 21.28400000 2048050278 2048050278 7.00000000
0.47113580 -4.14797878 -0.51258248 2 8 17352 4.20600000 2048050280 2048050280 -7.00000000
1.97519410 -17.39002419 2.77201867 41 9 17352 17.72000000 2048050282 2048050282 9.00000000
0.64501250 -5.68767786 -0.50079691 3 10 17353 5.74600000 2048050285 2048050285 -5.00000000
1.35026908 -11.92517281 2.33283067 12 11 17354 12.22600000 2048050287 2048050287 11.00000000
0.15907431 -1.40709341 -0.07421239 6 12 17355 1.41800000 2048050289 2048050289 -3.00000000
1.30620968 -11.57218552 2.68861508 50 13 17356 11.95200000 2048050292 2048050292 13.00000000
1.11310339 -9.87685204 2.66324806 42 15 17357 10.29000000 2048050296 2048050296 15.00000000
0.22007598 -1.97759938 -0.53316724 4 0 17365 2.06000000 2048050317 2048050317 -15.00000000
0.25439167 -2.29324150 -0.53268409 4 2 17367 2.36800000 2048050321 2048050321 -13.00000000
0.14598757 -1.31812024 0.06950215 29 3 17368 1.32800000 2048050324 2048050324 3.00000000
0.29802606 -2.69087434 -0.52625120 3 4 17368 2.75800000 2048050326 2048050326 -11.00000000
0.36069962 -3.26717639 -0.52061391 3 6 17370 3.32800000 2048050331 2048050331 -9.00000000
2.31277132 -20.98239517 2.59191728 20 7 17371 21.26800000 2048050333 2048050333 7.00000000
0.45752236 -4.15749073 -0.51355743 2 8 17372 4.21400000 2048050335 2048050335 -7.00000000
1.91467929 -17.42659950 2.77671170 37 9 17373 17.75000000 2048050338 2048050338 9.00000000
0.62428445 -5.68197250 -0.50009966 3 10 17373 5.73800000 2048050340 2048050340 -5.00000000
1.30670762 -11.91224957 2.32939625 6 11 17374 12.20800000 2048050342 2048050342 11.00000000
1.26750183 -11.59217167 2.69221425 47 13 17376 11.96800000 2048050347 2048050347 13.00000000
1.07773268 -9.88854790 2.66531849 40 15 17378 10.29800000 2048050351 2048050351 15.00000000
0.21476060 -1.98984253 -0.53627306 4 0 17384 2.07200000 2048050372 2048050372 -15.00000000
0.24511813 -2.27857208 -0.52908486 4 2 17386 2.35200000 2048050377 2048050377 -13.00000000
0.14140245 -1.31661129 0.06939748 20 3 17387 1.32600000 2048050379 2048050379 3.00000000
0.28993973 -2.69965577 -0.52777767 3 4 17387 2.76600000 2048050381 2048050381 -11.00000000
0.35154533 -3.28406763 -0.52311683 3 6 17389 3.34400000 2048050386 2048050386 -9.00000000
2.24001431 -20.96034050 2.58826113 22 7 17390 21.23800000 2048050388 2048050388 7.00000000
0.44289070 -4.15108919 -0.51258248 2 8 17391 4.20600000 2048050391 2048050391 -7.00000000
1.86285663 -17.46002769 2.78109193 37 9 17391 17.77800000 2048050393 2048050393 9.00000000
0.60712713 -5.69986105 -0.50149417 3 10 17392 5.75400000 2048050395 2048050395 -5.00000000
1.36539328 -12.83993053 2.50990152 50 11 17393 13.15400000 2048050397 2048050397 11.00000000
1.22864306 -11.59243584 2.69131446 48 13 17395 11.96400000 2048050402 2048050402 13.00000000
1.04706812 -9.89572716 2.66635370 42 15 17396 10.30200000 2048050407 2048050407 15.00000000
0.20741227 -1.98673713 -0.53523779 4 0 17404 2.06800000 2048050427 2048050427 -15.00000000
0.23877630 -2.29491997 -0.53268409 4 2 17406 2.36800000 2048050432 2048050432 -13.00000000
0.13515501 -1.30120432 0.06856010 18 3 17407 1.31000000 2048050434 2048050434 3.00000000
0.27808046 -2.67721844 -0.52319825 3 4 17407 2.74200000 2048050437 2048050437 -11.00000000
0.33763888 -3.26169634 -0.51936245 3 6 17409 3.32000000 2048050441 2048050441 -9.00000000
2.16703939 -20.97000694 2.58850479 27 7 17410 21.24000000 2048050444 2048050444 7.00000000
0.42717576 -4.14076233 -0.51112002 2 8 17411 4.19400000 2048050446 2048050446 -7.00000000
1.79965937 -17.47459793 2.78234339 37 9 17412 17.78600000 2048050448 2048050448 9.00000000
0.58845186 -5.71383715 -0.50253999 3 10 17412 5.76600000 2048050450 2048050450 -5.00000000
1.31956136 -12.83485317 2.50799346 43 11 17413 13.14400000 2048050453 2048050453 11.00000000
1.18817043 -11.59665394 2.69131446 48 13 17415 11.96400000 2048050457 2048050457 13.00000000
1.01216507 -9.91295147 2.66997719 45 15 17417 10.31600000 2048050462 2048050462 15.00000000
0.19935493 -1.97979558 -0.53316724 4 0 17425 2.06000000 2048050483 2048050483 -15.00000000
0.23036338 -2.29577971 -0.53268409 4 2 17427 2.36800000 2048050487 2048050487 -13.00000000
0.13217649 -1.31957674 0.06950215 15 3 17428 1.32800000 2048050490 2048050490 3.00000000
0.26787475 -2.67431283 -0.52243501 3 4 17428 2.73800000 2048050492 2048050492 -11.00000000
0.32764384 -3.28256798 -0.52249110 3 6 17430 3.34000000 2048050497 2048050497 -9.00000000
2.08996916 -20.97583389 2.58826113 37 7 17431 21.23800000 2048050499 2048050499 7.00000000
0.41081741 -4.13044834 -0.50965762 2 8 17432 4.18200000 2048050501 2048050501 -7.00000000
1.73904169 -17.48470497 2.78296924 37 9 17432 17.79000000 2048050503 2048050503 9.00000000
0.56514353 -5.69216394 -0.50044829 3 10 17433 5.74200000 2048050506 2048050506 -5.00000000
1.27289772 -12.84351063 2.50875664 56 11 17434 13.14800000 2048050508 2048050508 11.00000000
1.14642465 -11.60868740 2.69311404 47 13 17436 11.97200000 2048050513 2048050513 13.00000000
0.97660863 -9.90681076 2.66738915 40 15 17437 10.30600000 2048050517 2048050517 15.00000000
0.19262977 -1.98240209 -0.53368485 4 0 17445 2.06200000 2048050538 2048050538 -15.00000000
0.22234821 -2.29656982 -0.53268409 4 2 17447 2.36800000 2048050543 2048050543 -13.00000000
0.12737739 -1.31804216 0.06939748 11 3 17448 1.32600000 2048050545 2048050545 3.00000000
0.25778261 -2.66741490 -0.52090853 3 4 17448 2.73000000 2048050547 2048050547 -11.00000000
0.31504756 -3.27189398 -0.52061391 3 6 17450 3.32800000 2048050552 2048050552 -9.00000000
2.01521778 -20.96719360 2.58631110 47 7 17451 21.22200000 2048050554 2048050554 7.00000000
0.39677611 -4.13580894 -0.51014507 2 8 17452 4.18600000 2048050556 2048050556 -7.00000000
1.67720497 -17.51455879 2.78672361 37 9 17453 17.81400000 2048050559 2048050559 9.00000000
0.54527074 -5.69410181 -0.50044829 3 10 17453 5.74200000 2048050561 2048050561 -5.00000000
1.22693682 -12.83615017 2.50646687 53 11 17454 13.13600000 2048050563 2048050563 11.00000000
1.10663474 -11.62037849 2.69491363 47 13 17456 11.98000000 2048050568 2048050568 13.00000000
0.94065678 -9.91417027 2.66842437 42 15 17458 10.31000000 2048050573 2048050573 15.00000000
0.18569390 -1.97918320 -0.53264958 4 0 17464 2.05800000 2048050593 2048050593 -15.00000000
0.21509402 -2.30117512 -0.53358388 4 2 17466 2.37200000 2048050598 2048050598 -13.00000000
0.12319143 -1.32044590 0.06950215 9 3 17467 1.32800000 2048050600 2048050600 3.00000000
0.25075942 -2.68780279 -0.52472472 3 4 17467 2.75000000 2048050603 2048050603 -11.00000000
0.30291617 -3.25915241 -0.51842380 1 6 17469 3.31400000 2048050607 2048050607 -9.00000000
1.94402659 -20.95597076 2.58411765 47 7 17470 21.20400000 2048050609 2048050609 7.00000000
0.38232702 -4.12919569 -0.50917011 2 8 17471 4.17800000 2048050612 2048050612 -7.00000000
1.62253749 -17.52367401 2.78734922 37 9 17471 17.81800000 2048050614 2048050614 9.00000000
0.52711880 -5.70381451 -0.50114554 3 10 17472 5.75000000 2048050616 2048050616 -5.00000000
1.18256068 -12.82059860 2.50265074 56 11 17473 13.11600000 2048050619 2048050619 11.00000000
1.06916404 -11.63562775 2.69761300 47 13 17475 11.99200000 2048050623 2048050623 13.00000000
0.90950590 -9.91707706 2.66842437 42 15 17476 10.31000000 2048050628 2048050628 15.00000000
0.17913163 -1.98366737 -0.53368485 4 0 17484 2.06200000 2048050649 2048050649 -15.00000000
0.20566341 -2.28638458 -0.52998471 4 2 17486 2.35600000 2048050653 2048050653 -13.00000000
0.11840288 -1.31887865 0.06939748 9 3 17487 1.32600000 2048050656 2048050656 3.00000000
0.24137573 -2.68866181 -0.52472472 3 4 17487 2.75000000 2048050658 2048050658 -11.00000000
0.29188964 -3.26412511 -0.51904953 1 6 17489 3.31800000 2048050662 2048050662 -9.00000000
1.87015891 -20.95471954 2.58314252 37 7 17490 21.19600000 2048050665 2048050665 7.00000000
0.36932006 -4.14632320 -0.51112002 2 8 17491 4.19400000 2048050667 2048050667 -7.00000000
1.56205952 -17.53710175 2.78860068 41 9 17491 17.82600000 2048050669 2048050669 9.00000000
0.50720555 -5.70561981 -0.50114554 3 10 17492 5.75000000 2048050672 2048050672 -5.00000000
1.13814819 -12.82855988 2.50341392 53 11 17493 13.12000000 2048050674 2048050674 11.00000000
1.02819848 -11.63540649 2.69671321 47 13 17495 11.98800000 2048050679 2048050679 13.00000000
0.87539244 -9.92596436 2.66997719 45 15 17496 10.31600000 2048050683 2048050683 15.00000000
0.17185992 -1.98431063 -0.53368485 3 0 17505 2.06200000 2048050704 2048050704 -15.00000000
0.19828683 -2.29877234 -0.53268409 4 2 17507 2.36800000 2048050709 2048050709 -13.00000000
0.11322556 -1.31532395 0.06918813 9 3 17508 1.32200000 2048050711 2048050711 3.00000000
0.23050940 -2.67779231 -0.52243501 3 4 17508 2.73800000 2048050713 2048050713 -11.00000000
0.28127390 -3.28091812 -0.52155250 1 6 17510 3.33400000 2048050718 2048050718 -9.00000000
1.79317427 -20.95945549 2.58289886 42 7 17511 21.19400000 2048050720 2048050720 7.00000000
0.35344505 -4.13973713 -0.51014507 2 8 17512 4.18600000 2048050722 2048050722 -7.00000000
1.49471056 -17.54297066 2.78860068 41 9 17513 17.82600000 2048050725 2048050725 9.00000000
0.48561344 -5.69949961 -0.50044829 3 10 17513 5.74200000 2048050727 2048050727 -5.00000000
1.09211957 -12.84438229 2.50570369 53 11 17514 13.13200000 2048050729 2048050729 11.00000000
0.98587453 -11.64298058 2.69761300 47 13 17516 11.99200000 2048050734 2048050734 13.00000000
0.84014469 -9.94258118 2.67360067 40 15 17517 10.33000000 2048050738 2048050738 15.00000000
0.19058281 -2.30333471 -0.53358388 4 2 17527 2.37200000 2048050764 2048050764 -13.00000000
0.10945527 -1.32566357 0.06971149 9 3 17528 1.33200000 2048050766 2048050766 3.00000000
0.22148386 -2.68249369 -0.52319825 3 4 17528 2.74200000 2048050768 2048050768 -11.00000000
0.26949593 -3.27794242 -0.52092677 3 6 17530 3.33000000 2048050773 2048050773 -9.00000000
1.71983886 -20.96360970 2.58265519 42 7 17531 21.19200000 2048050775 2048050775 7.00000000
0.33964038 -4.14885950 -0.51112002 2 8 17532 4.19400000 2048050778 2048050778 -7.00000000
1.43378675 -17.55201912 2.78922653 37 9 17533 17.83000000 2048050780 2048050780 9.00000000
0.46506664 -5.69321680 -0.49975103 3 10 17533 5.73400000 2048050782 2048050782 -5.00000000
1.04552317 -12.82659149 2.50150585 46 11 17534 13.11000000 2048050785 2048050785 11.00000000
0.94617277 -11.65800476 2.70031238 45 13 17536 12.00400000 2048050789 2048050789 13.00000000
0.80276406 -9.93404007 2.67049479 42 15 17538 10.31800000 2048050794 2048050794 15.00000000
0.18263511 -2.30006862 -0.53268409 4 2 17546 2.36800000 2048050819 2048050819 -13.00000000
0.10505861 -1.32601929 0.06971149 9 3 17547 1.33200000 2048050821 2048050821 3.00000000
0.21258716 -2.68321347 -0.52319825 3 4 17547 2.74200000 2048050824 2048050824 -11.00000000
0.25831375 -3.27487969 -0.52030104 1 6 17549 3.32600000 2048050828 2048050828 -9.00000000
1.57648683 -20.03116417 2.46712303 11 7 17550 20.24400000 2048050831 2048050831 7.00000000
0.32588041 -4.14996338 -0.51112002 2 8 17551 4.19400000 2048050833 2048050833 -7.00000000
1.37619138 -17.56455421 2.79047799 37 9 17552 17.83800000 2048050835 2048050835 9.00000000
0.44493967 -5.67883730 -0.49835655 3 10 17552 5.71800000 2048050838 2048050838 -5.00000000
0.90781069 -11.66496468 2.70121217 46 13 17555 12.00800000 2048050844 2048050844 13.00000000
0.77080369 -9.92688274 2.66790676 40 15 17556 10.30800000 2048050849 2048050849 15.00000000
0.17460527 -2.30069232 -0.53268409 4 2 17566 2.36800000 2048050874 2048050874 -13.00000000
0.10073089 -1.33036101 0.06992084 8 3 17567 1.33600000 2048050877 2048050877 3.00000000
0.20351616 -2.68785453 -0.52396148 3 4 17567 2.74600000 2048050879 2048050879 -11.00000000
0.24509925 -3.25212383 -0.51654661 1 6 17569 3.30200000 2048050884 2048050884 -9.00000000
0.31406525 -4.18670702 -0.51550734 2 8 17571 4.23000000 2048050888 2048050888 -7.00000000
1.31383932 -17.55546188 2.78828788 37 9 17572 17.82400000 2048050891 2048050891 9.00000000
0.42511413 -5.68035603 -0.49835655 3 10 17572 5.71800000 2048050893 2048050893 -5.00000000
0.88714957 -11.88191795 2.31603956 9 11 17573 12.13800000 2048050895 2048050895 11.00000000
0.86737561 -11.67194939 2.70211196 46 13 17575 12.01200000 2048050900 2048050900 13.00000000
0.73714751 -9.94299889 2.67153025 42 15 17576 10.32200000 2048050904 2048050904 15.00000000
0.16629192 -2.29740047 -0.53178430 4 2 17586 2.36400000 2048050931 2048050931 -13.00000000
0.09660707 -1.33467185 0.07013018 8 3 17586 1.34000000 2048050933 2048050933 3.00000000
0.19384977 -2.68463206 -0.52319825 3 4 17587 2.74200000 2048050935 2048050935 -11.00000000
0.23431203 -3.26084089 -0.51779807 3 6 17589 3.31000000 2048050940 2048050940 -9.00000000
1.43589592 -20.03178215 2.46590424 4 7 17590 20.23400000 2048050942 2048050942 7.00000000
0.29576781 -4.13629675 -0.50917011 2 8 17591 4.17800000 2048050944 2048050944 -7.00000000
1.25688410 -17.57745552 2.79110384 37 9 17591 17.84200000 2048050947 2048050947 9.00000000
0.40670097 -5.70167875 -0.50009966 3 10 17592 5.73800000 2048050949 2048050949 -5.00000000
0.84580791 -11.88690090 2.31642127 12 11 17593 12.14000000 2048050951 2048050951 11.00000000
0.82690293 -11.67879295 2.70301175 45 13 17595 12.01600000 2048050956 2048050956 13.00000000
0.70229936 -9.94358444 2.67101264 45 15 17596 10.32000000 2048050961 2048050961 15.00000000
0.15706636 -2.28046966 -0.52773517 3 2 17606 2.34600000 2048050986 2048050986 -13.00000000
0.09103017 -1.32505417 0.06960682 9 3 17607 1.33000000 2048050988 2048050988 3.00000000
0.18501571 -2.69312692 -0.52472472 3 4 17607 2.75000000 2048050991 2048050991 -11.00000000
0.09262063 -1.35165513 0.11853181 7 5 17608 1.36000000 2048050993 2048050993 5.00000000
0.22292815 -3.26163888 -0.51779807 1 6 17609 3.31000000 2048050995 2048050995 -9.00000000
1.36596322 -20.03667259 2.46590424 7 7 17610 20.23400000 2048050997 2048050997 7.00000000
0.27849954 -4.09571314 -0.50405163 2 8 17611 4.13600000 2048051000 2048051000 -7.00000000
1.19445610 -17.61150742 2.79579687 41 9 17612 17.87200000 2048051002 2048051002 9.00000000
0.80470723 -11.89565659 2.31756616 12 11 17613 12.14600000 2048051007 2048051007 11.00000000
0.78560787 -11.67383099 2.70121217 45 13 17615 12.00800000 2048051011 2048051011 13.00000000
0.66649479 -9.95572948 2.67360067 40 15 17617 10.33000000 2048051016 2048051016 15.00000000
0.08728703 -1.33531368 0.07013018 8 3 17626 1.34000000 2048051044 2048051044 3.00000000
0.17433661 -2.67416549 -0.52090853 3 4 17627 2.73000000 2048051046 2048051046 -11.00000000
0.21192500 -3.26831079 -0.51873666 1 6 17629 3.31600000 2048051050 2048051050 -9.00000000
1.29639816 -20.04726028 2.46663547 21 7 17630 20.24000000 2048051053 2048051053 7.00000000
0.26611751 -4.12637520 -0.50770766 2 8 17631 4.16600000 2048051055 2048051055 -7.00000000
1.13259280 -17.60965538 2.79485822 41 9 17632 17.86600000 2048051057 2048051057 9.00000000
0.76355577 -11.90427113 2.31871080 12 11 17633 12.15200000 2048051062 2048051062 11.00000000
0.09511221 -1.48691642 -0.07808524 6 12 17634 1.49200000 2048051064 2048051064 -3.00000000
0.74584633 -11.69206047 2.70481157 44 13 17635 12.02400000 2048051067 2048051067 13.00000000
0.63347673 -9.95788479 2.67360067 42 15 17636 10.33000000 2048051071 2048051071 15.00000000
0.09692438 -1.55792403 -0.41825157 1 0 17644 1.61600000 2048051092 2048051092 -15.00000000
0.08250206 -1.33361685 0.07002551 6 3 17646 1.33800000 2048051099 2048051099 3.00000000
0.16584714 -2.68847442 -0.52357990 2 4 17647 2.74400000 2048051101 2048051101 -11.00000000
1.22568512 -20.03977585 2.46517301 7 7 17650 20.22800000 2048051108 2048051108 7.00000000
1.07219589 -17.63124657 2.79767394 41 9 17652 17.88400000 2048051113 2048051113 9.00000000
0.72152215 -11.89902496 2.31718445 15 11 17653 12.14400000 2048051117 2048051117 11.00000000
0.09546607 -1.57894576 -0.08290015 5 12 17654 1.58400000 2048051120 2048051120 -3.00000000
0.70502883 -11.69459343 2.70481157 45 13 17655 12.02400000 2048051122 2048051122 13.00000000
0.59824973 -9.95232201 2.67153025 42 15 17656 10.32200000 2048051126 2048051126 15.00000000
0.09329721 -1.58910930 -0.42653379 1 0 17664 1.64800000 2048051147 2048051147 -15.00000000
0.07854167 -1.34986138 0.07086288 6 3 17667 1.35400000 2048051154 2048051154 3.00000000
0.09009086 -1.54835224 -0.30147821 1 4 17667 1.58000000 2048051156 2048051156 -11.00000000
1.15515447 -20.03402328 2.46395445 9 7 17670 20.21800000 2048051163 2048051163 7.00000000
1.01372266 -17.63470650 2.79767394 41 9 17671 17.88400000 2048051168 2048051168 9.00000000
0.09473037 -1.65296340 -0.14485285 2 10 17672 1.66200000 2048051170 2048051170 -5.00000000
0.67908651 -11.88579082 2.31413150 18 11 17673 12.12800000 2048051173 2048051173 11.00000000
0.66486567 -11.70865631 2.70751095 43 13 17675 12.03600000 2048051177 2048051177 13.00000000
0.56220400 -9.96216297 2.67360067 40 15 17677 10.33000000 2048051182 2048051182 15.00000000
0.08604574 -1.55856276 -0.41825157 1 0 17684 1.61600000 2048051202 2048051202 -15.00000000
0.07417434 -1.35210860 0.07096756 6 3 17686 1.35600000 2048051209 2048051209 3.00000000
0.08230678 -1.51485491 -0.24028334 3 6 17689 1.53600000 2048051216 2048051216 -9.00000000
1.08457160 -20.02603912 2.46249199 9 7 17690 20.20600000 2048051219 2048051219 7.00000000
0.94929373 -17.64224815 2.79829979 41 9 17692 17.88800000 2048051223 2048051223 9.00000000
0.08713999 -1.61946225 -0.14188954 9 10 17692 1.62800000 2048051226 2048051226 -5.00000000
0.63748807 -11.88612843 2.31374979 21 11 17693 12.12600000 2048051228 2048051228 11.00000000
0.62399077 -11.71090603 2.70751095 43 13 17695 12.03600000 2048051232 2048051232 13.00000000
0.52803880 -9.97563934 2.67670655 45 15 17697 10.34200000 2048051237 2048051237 15.00000000
0.08192349 -1.58973634 -0.42653379 1 0 17705 1.64800000 2048051258 2048051258 -15.00000000
0.06962648 -1.36035001 0.07138625 6 3 17707 1.36400000 2048051265 2048051265 3.00000000
0.07575461 -1.49541795 -0.23715465 10 6 17710 1.51600000 2048051272 2048051272 -9.00000000
1.01086485 -20.02393341 2.46176076 9 7 17711 20.20000000 2048051274 2048051274 7.00000000
0.08467893 -1.68321466 -0.20693414 1 8 17712 1.69800000 2048051276 2048051276 -7.00000000
0.88770503 -17.64545441 2.79829979 41 9 17712 17.88800000 2048051279 2048051279 9.00000000
0.08140330 -1.62375057 -0.14223817 27 10 17713 1.63200000 2048051281 2048051281 -5.00000000
0.59401691 -11.89034557 2.31413150 25 11 17714 12.12800000 2048051283 2048051283 11.00000000
0.07706182 -1.54795599 -0.08122540 100 12 17715 1.55200000 2048051285 2048051285 -3.00000000
0.58067781 -11.70532894 2.70571136 44 13 17716 12.02800000 2048051288 2048051288 13.00000000
0.49109256 -9.96978951 2.67463613 40 15 17718 10.33400000 2048051292 2048051292 15.00000000
0.07581766 -1.57843482 -0.42342797 1 0 17725 1.63600000 2048051313 2048051313 -15.00000000
0.07546058 -1.58252764 -0.36577040 1 2 17727 1.62600000 2048051318 2048051318 -13.00000000
0.06497268 -1.36257970 0.07149091 6 3 17727 1.36600000 2048051320 2048051320 3.00000000
0.06978974 -1.47988784 -0.23465170 22 6 17730 1.50000000 2048051327 2048051327 -9.00000000
0.94133484 -20.03527069 2.46273565 9 7 17731 20.20800000 2048051329 2048051329 7.00000000
0.82619786 -17.65041733 2.79861259 41 9 17732 17.89000000 2048051334 2048051334 9.00000000
0.07508517 -1.61009324 -0.14101799 40 10 17733 1.61800000 2048051336 2048051336 -5.00000000
0.55250823 -11.89234734 2.31413150 21 11 17734 12.12800000 2048051338 2048051338 11.00000000
0.07193500 -1.55420101 -0.08153942 100 12 17735 1.55800000 2048051341 2048051341 -3.00000000
0.53999454 -11.71117783 2.70661116 43 13 17736 12.03200000 2048051343 2048051343 13.00000000
0.45664173 -9.97916222 2.67670655 45 15 17738 10.34200000 2048051348 2048051348 15.00000000
0.06972009 -1.55937827 -0.41825157 1 0 17744 1.61600000 2048051368 2048051368 -15.00000000
0.06917597 -1.55940723 -0.36037159 1 2 17746 1.60200000 2048051373 2048051373 -13.00000000
0.06133897 -1.38274074 0.07253764 6 3 17746 1.38600000 2048051375 2048051375 3.00000000
0.06436282 -1.46827018 -0.23277448 30 6 17749 1.48800000 2048051382 2048051382 -9.00000000
0.87437075 -20.02638245 2.46127319 9 7 17750 20.19600000 2048051384 2048051384 7.00000000
0.07166741 -1.64805412 -0.20254685 1 8 17751 1.66200000 2048051387 2048051387 -7.00000000
0.76826316 -17.66687584 2.80080271 41 9 17751 17.90400000 2048051389 2048051389 9.00000000
0.06957307 -1.60635233 -0.14066938 13 10 17752 1.61400000 2048051391 2048051391 -5.00000000
0.51247650 -11.88038349 2.31146026 25 11 17753 12.11400000 2048051394 2048051394 11.00000000
0.06703787 -1.56041718 -0.08185343 100 12 17754 1.56400000 2048051396 2048051396 -3.00000000
0.50148910 -11.72069168 2.70841074 43 13 17755 12.04000000 2048051398 2048051398 13.00000000
0.42446664 -9.96124649 2.67153025 40 15 17756 10.32200000 2048051403 2048051403 15.00000000
0.06364002 -1.54417050 -0.41411048 1 0 17764 1.60000000 2048051424 2048051424 -15.00000000
0.06261829 -1.53237963 -0.35407296 1 2 17766 1.57400000 2048051428 2048051428 -13.00000000
0.05716430 -1.39891112 0.07337501 8 3 17766 1.40200000 2048051431 2048051431 3.00000000
0.05867986 -1.45466959 -0.23058440 35 6 17769 1.47400000 2048051437 2048051437 -9.00000000
0.80438066 -20.02733040 2.46102953 9 7 17770 20.19400000 2048051440 2048051440 7.00000000
0.06432781 -1.60862410 -0.19767207 1 8 17771 1.62200000 2048051442 2048051442 -7.00000000
0.70690531 -17.67734528 2.80205417 41 9 17771 17.91200000 2048051444 2048051444 9.00000000
0.47069204 -11.87425327 2.30993366 25 11 17773 12.10600000 2048051449 2048051449 11.00000000
0.06151183 -1.55864608 -0.08174876 100 12 17774 1.56200000 2048051451 2048051451 -3.00000000
0.46072623 -11.72626591 2.70931053 43 13 17775 12.04400000 2048051454 2048051454 13.00000000
0.38885602 -9.98589993 2.67774177 42 15 17777 10.34600000 2048051458 2048051458 15.00000000
0.05912321 -1.56754899 -0.42032212 1 0 17784 1.62400000 2048051479 2048051479 -15.00000000
0.05799658 -1.55206263 -0.35857198 1 2 17786 1.59400000 2048051484 2048051484 -13.00000000
0.05277897 -1.41907001 0.07442173 18 3 17787 1.42200000 2048051486 2048051486 3.00000000
0.05345630 -1.45091748 -0.22995867 37 6 17789 1.47000000 2048051493 2048051493 -9.00000000
0.73381269 -20.01216125 2.45883584 9 7 17790 20.17600000 2048051495 2048051495 7.00000000
0.05856748 -1.60487139 -0.19718459 2 8 17791 1.61800000 2048051497 2048051497 -7.00000000
0.64584386 -17.69747162 2.80486989 41 9 17791 17.93000000 2048051500 2048051500 9.00000000
0.05705537 -1.57095945 -0.13753176 9 10 17792 1.57800000 2048051502 2048051502 -5.00000000
0.42909846 -11.87189960 2.30917048 25 11 17793 12.10200000 2048051504 2048051504 11.00000000
0.05556821 -1.54487944 -0.08101606 100 12 17794 1.54800000 2048051507 2048051507 -3.00000000
0.41979110 -11.72780228 2.70931053 42 13 17795 12.04400000 2048051509 2048051509 13.00000000
0.35573944 -9.98713493 2.67774177 40 15 17796 10.34600000 2048051514 2048051514 15.00000000
0.05219749 -1.52526987 -0.40893409 3 0 17804 1.58000000 2048051534 2048051534 -15.00000000
0.05218270 -1.54056990 -0.35587257 1 2 17806 1.58200000 2048051539 2048051539 -13.00000000
0.04701800 -1.39529216 0.07316567 34 3 17807 1.39800000 2048051541 2048051541 3.00000000
0.04865468 -1.45899236 -0.23121014 39 6 17809 1.47800000 2048051548 2048051548 -9.00000000
0.66408432 -20.01856995 2.45932341 9 7 17810 20.18000000 2048051550 2048051550 7.00000000
0.05211397 -1.57927382 -0.19401599 1 8 17811 1.59200000 2048051553 2048051553 -7.00000000
0.58078068 -17.69379616 2.80393124 41 9 17812 17.92400000 2048051555 2048051555 9.00000000
0.38803956 -11.88509846 2.31146026 28 11 17813 12.11400000 2048051560 2048051560 11.00000000
0.04933250 -1.51911330 -0.07965533 100 12 17814 1.52200000 2048051562 2048051562 -3.00000000
0.37872505 -11.72530079 2.70841074 45 13 17815 12.04000000 2048051564 2048051564 13.00000000
0.31974930 -10.00767994 2.68291831 42 15 17817 10.36600000 2048051569 2048051569 15.00000000
0.04675432 -1.52158093 -0.40789881 3 0 17824 1.57600000 2048051590 2048051590 -15.00000000
0.04704147 -1.54853404 -0.35767218 1 2 17826 1.59000000 2048051594 2048051594 -13.00000000
0.04208694 -1.39345133 0.07306100 100 3 17827 1.39600000 2048051596 2048051596 3.00000000
0.04356156 -1.45915329 -0.23121014 39 6 17829 1.47800000 2048051603 2048051603 -9.00000000
0.59426135 -20.02274895 2.45956707 7 7 17830 20.18200000 2048051606 2048051606 7.00000000
0.04706931 -1.59531999 -0.19596590 1 8 17831 1.60800000 2048051608 2048051608 -7.00000000
0.52210271 -17.69562531 2.80393124 41 9 17831 17.92400000 2048051610 2048051610 9.00000000
0.34649324 -11.88441849 2.31107855 28 11 17833 12.11200000 2048051615 2048051615 11.00000000
0.04431879 -1.52925837 -0.08017869 100 12 17834 1.53200000 2048051617 2048051617 -3.00000000
0.33790603 -11.73044682 2.70931053 41 13 17835 12.04400000 2048051620 2048051620 13.00000000
0.28633973 -10.00096130 2.68084764 42 15 17836 10.35800000 2048051624 2048051624 15.00000000
0.04186346 -1.53718400 -0.41203991 1 0 17844 1.59200000 2048051645 2048051645 -15.00000000
0.03753871 -1.38728082 0.02422394 104 1 17845 1.38800000 2048051647 2048051647 1.00000000
0.04126919 -1.53505254 -0.35452285 3 2 17846 1.57600000 2048051649 2048051649 -13.00000000
0.03738261 -1.39957941 0.07337501 100 3 17847 1.40200000 2048051652 2048051652 3.00000000
0.03805146 -1.44349897 -0.22870719 37 6 17849 1.46200000 2048051659 2048051659 -9.00000000
0.52467704 -20.03660774 2.46102953 4 7 17850 20.19400000 2048051661 2048051661 7.00000000
0.04139708 -1.59150577 -0.19547842 1 8 17851 1.60400000 2048051663 2048051663 -7.00000000
0.45785373 -17.72111702 2.80768585 41 9 17852 17.94800000 2048051666 2048051666 9.00000000
0.03982960 -1.54159498 -0.13491710 80 10 17852 1.54800000 2048051668 2048051668 -5.00000000
0.30475497 -11.87574291 2.30917048 31 11 17853 12.10200000 2048051670 2048051670 11.00000000
0.03730110 -1.46351564 -0.07672451 87 12 17854 1.46600000 2048051672 2048051672 -3.00000000
0.29715434 -11.73934746 2.71111012 45 13 17855 12.05200000 2048051675 2048051675 13.00000000
0.24948961 -9.99421883 2.67877722 42 15 17857 10.35000000 2048051679 2048051679 15.00000000
0.03778189 -1.57980287 -0.42342797 1 0 17863 1.63600000 2048051700 2048051700 -15.00000000
0.03293812 -1.38739765 0.02422394 99 1 17864 1.38800000 2048051702 2048051702 1.00000000
0.03325500 -1.42165959 0.07452640 100 3 17866 1.42400000 2048051707 2048051707 3.00000000
0.03326444 -1.44361711 -0.22870719 39 6 17868 1.46200000 2048051714 2048051714 -9.00000000
0.45782194 -20.02037621 2.45883584 2 7 17869 20.17600000 2048051716 2048051716 7.00000000
0.03634442 -1.60155714 -0.19669712 2 8 17870 1.61400000 2048051719 2048051719 -7.00000000
0.40235832 -17.73036766 2.80893731 41 9 17870 17.95600000 2048051721 2048051721 9.00000000
0.03467242 -1.53972661 -0.13474278 100 10 17871 1.54600000 2048051723 2048051723 -5.00000000
0.26537189 -11.87668800 2.30917048 31 11 17872 12.10200000 2048051725 2048051725 11.00000000
0.03054422 -1.37777019 -0.07222362 100 12 17873 1.38000000 2048051728 2048051728 -3.00000000
0.25835216 -11.74611378 2.71245980 45 13 17874 12.05800000 2048051730 2048051730 13.00000000
0.03049256 -1.39745450 -0.02439846 100 14 17875 1.39800000 2048051732 2048051732 -1.00000000
0.21834351 -10.00654125 2.68188286 42 15 17875 10.36200000 2048051735 2048051735 15.00000000
0.03187265 -1.56061065 -0.41825157 1 0 17883 1.61600000 2048051755 2048051755 -15.00000000
0.02813548 -1.38950348 0.02425884 103 1 17884 1.39000000 2048051758 2048051758 1.00000000
0.02793465 -1.40379524 0.07358436 100 3 17886 1.40600000 2048051762 2048051762 3.00000000
0.02822507 -1.44372451 -0.22870719 39 6 17888 1.46200000 2048051769 2048051769 -9.00000000
0.38758889 -20.00399017 2.45664215 2 7 17889 20.15800000 2048051772 2048051772 7.00000000
0.03060128 -1.59373534 -0.19572216 3 8 17890 1.60600000 2048051774 2048051774 -7.00000000
0.33744574 -17.73567200 2.80956292 41 9 17891 17.96000000 2048051776 2048051776 9.00000000
0.02922175 -1.53585422 -0.13439415 100 10 17891 1.54200000 2048051778 2048051778 -5.00000000
0.22365388 -11.86380100 2.30649924 34 11 17892 12.08800000 2048051781 2048051781 11.00000000
0.02599579 -1.39184678 -0.07295632 90 12 17893 1.39400000 2048051783 2048051783 -3.00000000
0.21734901 -11.74694347 2.71245980 43 13 17894 12.05800000 2048051785 2048051785 13.00000000
0.02583422 -1.40954852 -0.02460789 100 14 17895 1.41000000 2048051788 2048051788 -1.00000000
0.18219219 -10.03624725 2.68964744 47 15 17896 10.39200000 2048051790 2048051790 15.00000000
0.02615251 -1.56071699 -0.41825157 1 0 17904 1.61600000 2048051811 2048051811 -15.00000000
0.02314197 -1.39559555 0.02436356 100 1 17905 1.39600000 2048051813 2048051813 1.00000000
0.02265963 -1.39590013 0.07316567 100 3 17907 1.39800000 2048051818 2048051818 3.00000000
0.02227454 -1.40234053 -0.22213694 22 6 17909 1.42000000 2048051825 2048051825 -9.00000000
0.31429920 -20.00726128 2.45688605 2 7 17910 20.16000000 2048051827 2048051827 7.00000000
0.02457474 -1.58192766 -0.19425973 5 8 17911 1.59400000 2048051829 2048051829 -7.00000000
0.27565736 -17.74464226 2.81081438 41 9 17911 17.96800000 2048051831 2048051831 9.00000000
0.02325577 -1.51403737 -0.13247673 100 10 17912 1.52000000 2048051834 2048051834 -5.00000000
0.18019918 -11.86650467 2.30688071 34 11 17913 12.09000000 2048051836 2048051836 11.00000000
0.02095420 -1.39592683 -0.07316567 83 12 17914 1.39800000 2048051838 2048051838 -3.00000000
0.17423503 -11.74376392 2.71156001 46 13 17915 12.05400000 2048051841 2048051841 13.00000000
0.02046258 -1.39563739 -0.02436356 100 14 17916 1.39600000 2048051843 2048051843 -1.00000000
0.14732797 -10.04841232 2.69275331 47 15 17916 10.40400000 2048051845 2048051845 15.00000000
0.01832264 -1.39966691 0.02443337 100 1 17925 1.40000000 2048051868 2048051868 1.00000000
0.01768511 -1.38798237 0.07274698 100 3 17927 1.39000000 2048051873 2048051873 3.00000000
0.01662051 -1.34117782 -0.21243800 24 6 17929 1.35800000 2048051880 2048051880 -9.00000000
0.24448314 -20.01022148 2.45712972 2 7 17930 20.16200000 2048051882 2048051882 7.00000000
0.01905263 -1.58200383 -0.19425973 7 8 17931 1.59400000 2048051884 2048051884 -7.00000000
0.21057124 -17.74158287 2.81018877 41 9 17932 17.96400000 2048051887 2048051887 9.00000000
0.01652827 -1.39258206 -0.12184373 100 10 17932 1.39800000 2048051889 2048051889 -5.00000000
0.13891399 -11.87883949 2.30917048 37 11 17933 12.10200000 2048051891 2048051891 11.00000000
0.01615040 -1.40198290 -0.07347968 90 12 17934 1.40400000 2048051894 2048051894 -3.00000000
0.13328479 -11.74819851 2.71245980 45 13 17935 12.05800000 2048051896 2048051896 13.00000000
0.01550142 -1.38770199 -0.02422394 100 14 17936 1.38800000 2048051898 2048051898 -1.00000000
0.11032778 -10.03343105 2.68861222 47 15 17937 10.38800000 2048051901 2048051901 15.00000000
0.01903237 -1.94721341 -0.52177918 1 0 17944 2.01600000 2048051921 2048051921 -15.00000000
0.01332161 -1.38772464 0.02422394 100 1 17945 1.38800000 2048051924 2048051924 1.00000000
0.01289546 -1.39402723 0.07306100 100 3 17947 1.39600000 2048051928 2048051928 3.00000000
0.01178058 -1.32344997 -0.20962219 34 6 17949 1.34000000 2048051935 2048051935 -9.00000000
0.01250719 -1.43318212 0.17597933 1 7 17950 1.44400000 2048051937 2048051937 7.00000000
0.01349634 -1.57809067 -0.19377226 7 8 17951 1.59000000 2048051940 2048051940 -7.00000000
0.15177067 -17.74613571 2.81081438 41 9 17951 17.96800000 2048051942 2048051942 9.00000000
0.01183407 -1.41255450 -0.12358684 76 10 17952 1.41800000 2048051944 2048051944 -5.00000000
0.09736773 -11.86943626 2.30726242 34 11 17953 12.09200000 2048051947 2048051947 11.00000000
0.01124043 -1.40003347 -0.07337501 100 12 17954 1.40200000 2048051949 2048051949 -3.00000000
0.09233634 -11.75638676 2.71425939 44 13 17955 12.06600000 2048051951 2048051951 13.00000000
0.01074949 -1.39974546 -0.02443337 100 14 17956 1.40000000 2048051954 2048051954 -1.00000000
