# .PCD v0.7 - Point Cloud Data file format
VERSION 0.7
FIELDS x y z intensity laser_id azimuth distance_m adjustedtime timestamp vertical_angle
SIZE 4 4 4 1 1 2 8 8 4 8
TYPE F F F U U U F U U F
COUNT 1 1 1 1 1 1 1 1 1 1
WIDTH 528
HEIGHT 1
VIEWPOINT 0 0 0 1 0 0 0
POINTS 528
DATA ascii
1.40984488 -1.51240265 -0.47734615 4 2 13701 2.12200000 2687238648 2687238648 -13.00000000
3.41012859 -3.65819502 0.26209846 21 3 13701 5.00800000 2687238650 2687238650 3.00000000
1.95679188 -2.09987164 -0.55792552 3 4 13702 2.92400000 2687238653 2687238653 -11.00000000
2.40026522 -2.57757473 -0.55784529 5 6 13704 3.56600000 2687238657 2687238657 -9.00000000
4.93955708 -5.30630302 0.89013368 57 7 13705 7.30400000 2687238659 2687238659 7.00000000
3.11166215 -3.34386277 -0.56084269 4 8 13706 4.60200000 2687238662 2687238662 -7.00000000
4.92522573 -5.29275894 1.14510024 57 9 13706 7.32000000 2687238664 2687238664 9.00000000
4.30991173 -4.63315010 -0.55361331 15 10 13707 6.35200000 2687238666 2687238666 -5.00000000
4.91589212 -5.28642845 1.40320933 56 11 13708 7.35400000 2687238669 2687238669 11.00000000
4.94298649 -5.31742573 -0.38048241 11 12 13709 7.27000000 2687238671 2687238671 -3.00000000
4.90690136 -5.28045464 1.66418791 66 13 13710 7.39800000 2687238673 2687238673 13.00000000
3.67192054 -3.95284033 -0.09417319 27 14 13711 5.39600000 2687238676 2687238676 -1.00000000
4.88318491 -5.25677204 1.92250788 47 15 13711 7.42800000 2687238678 2687238678 15.00000000
1.42179179 -1.53485811 -0.56060207 4 0 13719 2.16600000 2687238699 2687238699 -15.00000000
4.91161251 -5.30405903 0.12618090 12 1 13720 7.23000000 2687238701 2687238701 1.00000000
1.40455711 -1.51731479 -0.47734615 4 2 13721 2.12200000 2687238703 2687238703 -13.00000000
3.41768980 -3.69206166 0.26366854 21 3 13721 5.03800000 2687238706 2687238706 3.00000000
1.95878398 -2.11677599 -0.56059682 3 4 13722 2.93800000 2687238708 2687238708 -11.00000000
3.78960180 -4.09669828 0.48824647 2 5 13723 5.60200000 2687238710 2687238710 5.00000000
2.38588858 -2.58013630 -0.55659384 5 6 13724 3.55800000 2687238712 2687238712 -9.00000000
4.89540243 -5.29581690 0.88550264 52 7 13725 7.26600000 2687238715 2687238715 7.00000000
3.09997082 -3.35470414 -0.56084269 6 8 13726 4.60200000 2687238717 2687238717 -7.00000000
4.89063263 -5.29250956 1.14134586 57 9 13726 7.29600000 2687238719 2687238719 9.00000000
4.28830481 -4.64231205 -0.55291605 15 10 13727 6.34400000 2687238722 2687238722 -5.00000000
4.87343502 -5.27759314 1.39634025 56 11 13728 7.31800000 2687238724 2687238724 11.00000000
4.89730072 -5.30529594 -0.37838897 11 12 13729 7.23000000 2687238726 2687238726 -3.00000000
4.87522364 -5.28322935 1.65968883 68 13 13730 7.37800000 2687238729 2687238729 13.00000000
4.84947920 -5.25901222 1.91681385 47 15 13732 7.40600000 2687238733 2687238733 15.00000000
1.41119409 -1.53412449 -0.55853152 4 0 13739 2.15800000 2687238754 2687238754 -15.00000000
4.87953234 -5.30645180 0.12583186 9 1 13740 7.21000000 2687238756 2687238756 1.00000000
1.39529562 -1.51790428 -0.47599643 4 2 13741 2.11600000 2687238759 2687238759 -13.00000000
3.41224313 -3.71338725 0.26429659 21 3 13742 5.05000000 2687238761 2687238761 3.00000000
1.94606960 -2.11781812 -0.55907035 3 4 13742 2.93000000 2687238763 2687238763 -11.00000000
3.75101757 -4.08349037 0.48510885 2 5 13743 5.56600000 2687238765 2687238765 5.00000000
2.37953997 -2.59135890 -0.55721956 5 6 13744 3.56200000 2687238768 2687238768 -9.00000000
4.85272408 -5.28654957 0.88111538 52 7 13745 7.23000000 2687238770 2687238770 7.00000000
3.08689976 -3.36404204 -0.56059897 6 8 13746 4.60000000 2687238772 2687238772 -7.00000000
4.85877323 -5.29499388 1.13821721 55 9 13746 7.27600000 2687238775 2687238775 9.00000000
4.27207422 -4.65725279 -0.55291605 15 10 13747 6.34400000 2687238777 2687238777 -5.00000000
4.84304142 -5.28154945 1.39290571 59 11 13748 7.30000000 2687238779 2687238779 11.00000000
4.87335396 -5.31646919 -0.37797028 11 12 13749 7.22200000 2687238782 2687238782 -3.00000000
4.83042097 -5.27147961 1.65069079 70 13 13750 7.33800000 2687238784 2687238784 13.00000000
3.13366413 -3.42099285 -0.08097917 5 14 13751 4.64000000 2687238786 2687238786 -1.00000000
4.82157373 -5.26366854 1.91267276 47 15 13751 7.39000000 2687238789 2687238789 15.00000000
1.41234481 -1.54617298 -0.56111968 9 0 13759 2.16800000 2687238809 2687238809 -15.00000000
4.85019255 -5.31163883 0.12555261 9 1 13760 7.19400000 2687238812 2687238812 1.00000000
1.39524388 -1.52852261 -0.47779605 4 2 13761 2.12400000 2687238814 2687238814 -13.00000000
3.41003013 -3.73707843 0.26513395 21 3 13762 5.06600000 2687238816 2687238816 3.00000000
1.93072534 -2.11589670 -0.55678064 3 4 13762 2.91800000 2687238818 2687238818 -11.00000000
3.73405528 -4.09361506 0.48476025 2 5 13763 5.56200000 2687238821 2687238821 5.00000000
2.36781788 -2.59672976 -0.55659384 5 6 13764 3.55800000 2687238823 2687238823 -9.00000000
4.82621717 -5.29465389 0.87965292 52 7 13765 7.21800000 2687238825 2687238825 7.00000000
3.06444216 -3.36305833 -0.55864906 6 8 13766 4.58400000 2687238828 2687238828 -7.00000000
4.82071018 -5.29232168 1.13383698 55 9 13767 7.24800000 2687238830 2687238830 9.00000000
4.25579119 -4.67213678 -0.55291605 15 10 13767 6.34400000 2687238832 2687238832 -5.00000000
4.81135750 -5.28390646 1.38908947 56 11 13768 7.28000000 2687238835 2687238835 11.00000000
4.83863306 -5.31572390 -0.37671420 11 12 13769 7.19800000 2687238837 2687238837 -3.00000000
4.78838301 -5.26236439 1.64259255 68 13 13770 7.30200000 2687238839 2687238839 13.00000000
3.13246799 -3.44374466 -0.08125840 5 14 13771 4.65600000 2687238842 2687238842 -1.00000000
4.78665304 -5.26415348 1.90646112 47 15 13772 7.36600000 2687238844 2687238844 15.00000000
1.38254464 -1.52366519 -0.55128455 27 0 13778 2.13000000 2687238865 2687238865 -15.00000000
4.81643009 -5.30991936 0.12513375 12 1 13779 7.17000000 2687238867 2687238867 1.00000000
1.38754940 -1.53025377 -0.47689623 4 2 13780 2.12000000 2687238869 2687238869 -13.00000000
3.41773891 -3.77056313 0.26670402 19 3 13781 5.09600000 2687238871 2687238871 3.00000000
1.91578710 -2.11355996 -0.55449092 3 4 13781 2.90600000 2687238874 2687238874 -11.00000000
3.70574403 -4.08973408 0.48284280 2 5 13782 5.54000000 2687238876 2687238876 5.00000000
2.36449838 -2.61042380 -0.55784529 5 6 13783 3.56600000 2687238878 2687238878 -9.00000000
4.79530907 -5.29591417 0.87721550 52 7 13784 7.19800000 2687238881 2687238881 7.00000000
3.05060863 -3.37025833 -0.55816162 6 8 13785 4.58000000 2687238883 2687238883 -7.00000000
4.78019905 -5.28107882 1.12820542 55 9 13785 7.21200000 2687238885 2687238885 9.00000000
4.22690678 -4.67145014 -0.55117291 15 10 13786 6.32400000 2687238888 2687238888 -5.00000000
4.78195620 -5.28672838 1.38565493 56 11 13787 7.26200000 2687238890 2687238890 11.00000000
4.80490446 -5.31396294 -0.37545815 11 12 13788 7.17400000 2687238892 2687238892 -3.00000000
4.76045227 -5.26664877 1.63899338 70 13 13789 7.28600000 2687238895 2687238895 13.00000000
3.10628366 -3.43779230 -0.08087445 5 14 13790 4.63400000 2687238897 2687238897 -1.00000000
4.75454998 -5.26196480 1.90024948 49 15 13790 7.34200000 2687238899 2687238899 15.00000000
1.36557925 -1.51556516 -0.54662585 48 0 13798 2.11200000 2687238920 2687238920 -15.00000000
4.77912903 -5.30589771 0.12464508 9 1 13799 7.14200000 2687238922 2687238922 1.00000000
1.38741517 -1.54088068 -0.47869584 4 2 13800 2.12800000 2687238924 2687238924 -13.00000000
3.42326260 -3.80325317 0.26816943 17 3 13801 5.12400000 2687238927 2687238927 3.00000000
1.90839767 -2.12023449 -0.55449092 3 4 13801 2.90600000 2687238929 2687238929 -11.00000000
3.65279865 -4.05969286 0.47778779 2 5 13802 5.48200000 2687238931 2687238931 5.00000000
2.35008788 -2.61278677 -0.55659384 5 6 13803 3.55800000 2687238934 2687238934 -9.00000000
4.76617575 -5.30081177 0.87526560 50 7 13804 7.18200000 2687238936 2687238936 7.00000000
3.03882575 -3.38088655 -0.55816162 6 8 13805 4.58000000 2687238938 2687238938 -7.00000000
4.74892855 -5.28533936 1.12538958 52 9 13806 7.19400000 2687238941 2687238941 9.00000000
4.19992161 -4.67431974 -0.54977840 19 10 13806 6.30800000 2687238943 2687238943 -5.00000000
4.74248266 -5.28001928 1.37954903 53 11 13807 7.23000000 2687238945 2687238945 11.00000000
4.78098869 -5.32475805 -0.37503946 11 12 13808 7.16600000 2687238947 2687238947 -3.00000000
4.72902250 -5.26873159 1.63449430 66 13 13809 7.26600000 2687238950 2687238950 13.00000000
4.75824976 -5.30315638 -0.12436585 8 14 13810 7.12600000 2687238952 2687238952 -1.00000000
4.70943403 -5.25059319 1.88989663 47 15 13811 7.30200000 2687238954 2687238954 15.00000000
1.36414504 -1.52464175 -0.54817873 72 0 13818 2.11800000 2687238975 2687238975 -15.00000000
1.37683249 -1.53990328 -0.47689623 4 2 13820 2.12000000 2687238980 2687238980 -13.00000000
3.42327571 -3.83007073 0.26921615 8 3 13821 5.14400000 2687238982 2687238982 3.00000000
1.90621829 -2.13273811 -0.55601740 3 4 13821 2.91400000 2687238984 2687238984 -11.00000000
2.33832145 -2.61802769 -0.55596811 5 6 13823 3.55400000 2687238989 2687238989 -9.00000000
4.72648954 -5.29372406 0.87136579 52 7 13824 7.15000000 2687238991 2687238991 7.00000000
3.03493667 -3.40035939 -0.55962402 6 8 13825 4.59200000 2687238994 2687238994 -7.00000000
4.72085238 -5.28926849 1.12288654 52 9 13825 7.17800000 2687238996 2687238996 9.00000000
4.17562103 -4.68003178 -0.54873258 15 10 13826 6.29600000 2687238998 2687238998 -5.00000000
4.70572805 -5.27602911 1.37420642 56 11 13827 7.20200000 2687239000 2687239000 11.00000000
4.73578930 -5.31159925 -0.37294602 11 12 13828 7.12600000 2687239003 2687239003 -3.00000000
4.70022964 -5.27356863 1.63089514 62 13 13829 7.25000000 2687239005 2687239005 13.00000000
4.71842527 -5.29584455 -0.12380737 8 14 13830 7.09400000 2687239007 2687239007 -1.00000000
4.68171549 -5.25464201 1.88575554 47 15 13830 7.28600000 2687239010 2687239010 15.00000000
1.36009777 -1.53083837 -0.54869640 80 0 13838 2.12000000 2687239030 2687239030 -15.00000000
3.02630949 -3.40741634 0.07954807 8 1 13839 4.55800000 2687239033 2687239033 1.00000000
1.37921178 -1.55344355 -0.47959566 4 2 13840 2.13200000 2687239035 2687239035 -13.00000000
3.01745701 -3.39983869 0.23823327 7 3 13841 4.55200000 2687239037 2687239037 3.00000000
1.90918767 -2.15112591 -0.55907035 3 4 13841 2.93000000 2687239040 2687239040 -11.00000000
2.33441138 -2.63208532 -0.55721956 5 6 13843 3.56200000 2687239044 2687239044 -9.00000000
4.69086266 -5.29088068 0.86819720 57 7 13844 7.12400000 2687239047 2687239047 7.00000000
3.00988221 -3.39607668 -0.55718666 8 8 13845 4.57200000 2687239049 2687239049 -7.00000000
4.68964529 -5.29322863 1.12007082 52 9 13846 7.16000000 2687239051 2687239051 9.00000000
4.15001059 -4.68414021 -0.54751235 15 10 13846 6.28200000 2687239053 2687239053 -5.00000000
4.67166281 -5.27478647 1.36962700 59 11 13847 7.17800000 2687239056 2687239056 11.00000000
4.69603634 -5.30417156 -0.37127128 11 12 13848 7.09400000 2687239058 2687239058 -3.00000000
4.66371107 -5.26951313 1.62459648 64 13 13849 7.22200000 2687239060 2687239060 13.00000000
4.69063520 -5.30179882 -0.12356304 8 14 13850 7.08000000 2687239063 2687239063 -1.00000000
4.65218592 -5.26018953 1.88161445 47 15 13851 7.27000000 2687239065 2687239065 15.00000000
1.34963369 -1.52978206 -0.54662585 83 0 13858 2.11200000 2687239086 2687239086 -15.00000000
3.00117016 -3.40296173 0.07919902 10 1 13859 4.53800000 2687239088 2687239088 1.00000000
1.37635827 -1.56117201 -0.48049545 4 2 13860 2.13600000 2687239090 2687239090 -13.00000000
3.00689149 -3.41184926 0.23833795 11 3 13861 4.55400000 2687239093 2687239093 3.00000000
1.88349426 -2.13715672 -0.55372769 3 4 13861 2.90200000 2687239095 2687239095 -11.00000000
2.31737614 -2.63132334 -0.55534238 5 6 13863 3.55000000 2687239100 2687239100 -9.00000000
4.65268946 -5.28487349 0.86454111 52 7 13864 7.09400000 2687239102 2687239102 7.00000000
2.98489475 -3.39166045 -0.55474925 8 8 13865 4.55200000 2687239104 2687239104 -7.00000000
4.64857531 -5.28205919 1.11443913 55 9 13865 7.12400000 2687239106 2687239106 9.00000000
4.13889837 -4.70458126 -0.54820961 15 10 13866 6.29000000 2687239109 2687239109 -5.00000000
4.64025688 -5.27631903 1.36581075 59 11 13867 7.15800000 2687239111 2687239111 11.00000000
4.65639305 -5.29653120 -0.36959651 11 12 13868 7.06200000 2687239113 2687239113 -3.00000000
4.62727880 -5.26526737 1.61829793 68 13 13869 7.19400000 2687239116 2687239116 13.00000000
4.66022205 -5.30461931 -0.12324890 8 14 13870 7.06200000 2687239118 2687239118 -1.00000000
4.61941671 -5.25817156 1.87540281 47 15 13870 7.24600000 2687239120 2687239120 15.00000000
1.33792055 -1.52721834 -0.54403764 78 0 13878 2.10200000 2687239141 2687239141 -15.00000000
3.01825690 -3.44651341 0.07996693 8 1 13879 4.58200000 2687239143 2687239143 1.00000000
1.37346756 -1.56889939 -0.48139524 4 2 13880 2.14000000 2687239146 2687239146 -13.00000000
2.99890947 -3.42683339 0.23865196 5 3 13881 4.56000000 2687239148 2687239148 3.00000000
1.87343693 -2.14076352 -0.55296445 3 4 13881 2.89800000 2687239150 2687239150 -11.00000000
4.63080406 -5.29345226 0.61531955 16 5 13882 7.06000000 2687239153 2687239153 5.00000000
2.31077766 -2.64237046 -0.55596811 5 6 13883 3.55400000 2687239155 2687239155 -9.00000000
4.62376118 -5.28912592 0.86259121 55 7 13884 7.07800000 2687239157 2687239157 7.00000000
2.97826242 -3.40803814 -0.55572420 8 8 13885 4.56000000 2687239159 2687239159 -7.00000000
4.61099005 -5.27823400 1.11005902 55 9 13886 7.09600000 2687239162 2687239162 9.00000000
4.12114048 -4.71749973 -0.54803532 11 10 13886 6.28800000 2687239164 2687239164 -5.00000000
4.61147976 -5.28065443 1.36275780 59 11 13887 7.14200000 2687239166 2687239166 11.00000000
4.63262272 -5.30673456 -0.36917785 11 12 13888 7.05400000 2687239169 2687239169 -3.00000000
4.59862089 -5.26964140 1.61469865 70 13 13889 7.17800000 2687239171 2687239171 13.00000000
4.62984610 -5.30729198 -0.12293475 2 14 13890 7.04400000 2687239173 2687239173 -1.00000000
4.58487701 -5.25759554 1.86919117 47 15 13891 7.22200000 2687239176 2687239176 15.00000000
1.32750976 -1.52604902 -0.54196709 76 0 13898 2.09400000 2687239196 2687239196 -15.00000000
4.59788418 -5.28739691 0.12230647 6 1 13899 7.00800000 2687239199 2687239199 1.00000000
1.57765484 -1.81488431 -0.55517918 3 2 13900 2.46800000 2687239201 2687239201 -13.00000000
3.02099085 -3.47647762 0.24137343 1 3 13901 4.61200000 2687239203 2687239203 3.00000000
1.87110388 -2.15321755 -0.55449092 3 4 13901 2.90600000 2687239206 2687239206 -11.00000000
4.59923220 -5.29454327 0.61357641 57 5 13902 7.04000000 2687239208 2687239208 5.00000000
2.30154014 -2.65042043 -0.55596811 3 6 13903 3.55400000 2687239210 2687239210 -9.00000000
4.59746265 -5.29623890 0.86112881 52 7 13904 7.06600000 2687239212 2687239212 7.00000000
2.97025108 -3.42291141 -0.55645543 8 8 13905 4.56600000 2687239215 2687239215 -7.00000000
4.58051491 -5.27857590 1.10693026 55 9 13905 7.07600000 2687239217 2687239217 9.00000000
4.08637047 -4.71078587 -0.54559493 11 10 13906 6.26000000 2687239219 2687239219 -5.00000000
4.57372570 -5.27447033 1.35703361 59 11 13907 7.11200000 2687239222 2687239222 11.00000000
4.60622120 -5.31381798 -0.36854979 11 12 13908 7.04200000 2687239224 2687239224 -3.00000000
4.56998920 -5.27387953 1.61109948 70 13 13909 7.16200000 2687239226 2687239226 13.00000000
3.31510258 -3.82705903 -0.08837899 6 14 13910 5.06400000 2687239229 2687239229 -1.00000000
4.54970884 -5.25232792 1.86194420 47 15 13910 7.19400000 2687239231 2687239231 15.00000000
1.32470036 -1.53359759 -0.54300237 73 0 13918 2.09800000 2687239252 2687239252 -15.00000000
4.56763792 -5.28979254 0.12199232 8 1 13919 6.99000000 2687239254 2687239254 1.00000000
1.57385683 -1.82333064 -0.55607903 3 2 13920 2.47200000 2687239256 2687239256 -13.00000000
3.52683735 -4.08732271 0.28292817 2 3 13921 5.40600000 2687239259 2687239259 3.00000000
1.86870658 -2.16568160 -0.55601740 3 4 13921 2.91400000 2687239261 2687239261 -11.00000000
4.57031202 -5.29849577 0.61218196 54 5 13922 7.02400000 2687239263 2687239263 5.00000000
2.28195453 -2.64647007 -0.55346513 3 6 13923 3.53800000 2687239265 2687239265 -9.00000000
4.55302668 -5.28218269 0.85625398 52 7 13924 7.02600000 2687239268 2687239268 7.00000000
2.96087646 -3.43626618 -0.55694288 8 8 13925 4.57000000 2687239270 2687239270 -7.00000000
4.55174589 -5.28256083 1.10442734 55 9 13925 7.06000000 2687239272 2687239272 9.00000000
4.05429840 -4.70690584 -0.54350322 15 10 13926 6.23600000 2687239275 2687239275 -5.00000000
4.54119539 -5.27403831 1.35283577 59 11 13927 7.09000000 2687239277 2687239277 11.00000000
4.57200909 -5.31169939 -0.36729375 11 12 13928 7.01800000 2687239279 2687239279 -3.00000000
4.53757048 -5.27355051 1.60615051 74 13 13929 7.14000000 2687239282 2687239282 13.00000000
3.30563545 -3.84315562 -0.08848370 12 14 13930 5.07000000 2687239284 2687239284 -1.00000000
4.51623011 -5.25060177 1.85573256 47 15 13930 7.17000000 2687239286 2687239286 15.00000000
1.32940066 -1.54994309 -0.54714346 62 0 13938 2.11400000 2687239307 2687239307 -15.00000000
4.54393864 -5.29963207 0.12185270 11 1 13939 6.98200000 2687239309 2687239309 1.00000000
1.57255542 -1.83473182 -0.55787861 2 2 13940 2.48000000 2687239312 2687239312 -13.00000000
4.54045296 -5.29930925 0.36572367 10 3 13941 6.98800000 2687239314 2687239314 3.00000000
1.86369038 -2.17517304 -0.55678064 3 4 13941 2.91800000 2687239316 2687239316 -11.00000000
4.53623629 -5.29625797 0.61009020 64 5 13942 7.00000000 2687239318 2687239318 5.00000000
2.28041124 -2.66342258 -0.55534238 3 6 13943 3.55000000 2687239321 2687239321 -9.00000000
4.52423429 -5.28597879 0.85430408 52 7 13944 7.01000000 2687239323 2687239323 7.00000000
2.94757295 -3.44507241 -0.55669916 8 8 13945 4.56800000 2687239325 2687239325 -7.00000000
4.52593374 -5.29170275 1.10286295 60 9 13946 7.05000000 2687239328 2687239328 9.00000000
4.01323843 -4.69226122 -0.54019129 15 10 13946 6.19800000 2687239330 2687239330 -5.00000000
4.50617218 -5.27045918 1.34787476 56 11 13947 7.06400000 2687239332 2687239332 11.00000000
4.53267765 -5.30333424 -0.36561900 10 12 13948 6.98600000 2687239335 2687239335 -3.00000000
4.49508333 -5.26120663 1.59760237 70 13 13949 7.10200000 2687239337 2687239337 13.00000000
4.52466488 -5.29770184 -0.12160837 4 14 13950 6.96800000 2687239339 2687239339 -1.00000000
4.48783779 -5.25458288 1.85159147 49 15 13950 7.15400000 2687239341 2687239341 15.00000000
1.33525562 -1.56781089 -0.55180222 50 0 13958 2.13200000 2687239362 2687239362 -15.00000000
4.51763391 -5.30632496 0.12164328 11 1 13959 6.97000000 2687239365 2687239365 1.00000000
1.55351126 -1.82536948 -0.55337960 1 2 13960 2.46000000 2687239367 2687239367 -13.00000000
4.50380850 -5.29382896 0.36425826 10 3 13961 6.96000000 2687239369 2687239369 3.00000000
1.84463668 -2.16820741 -0.55334610 3 4 13961 2.90000000 2687239371 2687239371 -11.00000000
4.50481367 -5.29688311 0.60834706 64 5 13962 6.98000000 2687239374 2687239374 5.00000000
2.27877712 -2.68039632 -0.55721956 3 6 13963 3.56200000 2687239376 2687239376 -9.00000000
4.49289989 -5.28661251 0.85186672 55 7 13964 6.99000000 2687239378 2687239378 7.00000000
2.92267704 -3.44021177 -0.55426174 8 8 13965 4.54800000 2687239381 2687239381 -7.00000000
4.48825407 -5.28488398 1.09816992 52 9 13966 7.02000000 2687239383 2687239383 9.00000000
3.99038625 -4.69864845 -0.53931975 15 10 13966 6.18800000 2687239385 2687239385 -5.00000000
4.47885323 -5.27568007 1.34520340 59 11 13967 7.05000000 2687239388 2687239388 11.00000000
4.50638390 -5.30998707 -0.36499095 10 12 13968 6.97400000 2687239390 2687239390 -3.00000000
4.46156263 -5.25903320 1.59220362 72 13 13969 7.07800000 2687239392 2687239392 13.00000000
4.48933077 -5.29363728 -0.12115461 8 14 13970 6.94200000 2687239394 2687239394 -1.00000000
4.45730543 -5.25773382 1.84693265 51 15 13971 7.13600000 2687239397 2687239397 15.00000000
1.32727993 -1.56951201 -0.55076694 35 0 13978 2.12800000 2687239418 2687239418 -15.00000000
4.48875618 -5.30984545 0.12136403 11 1 13979 6.95400000 2687239420 2687239420 1.00000000
1.54712999 -1.83078122 -0.55337960 1 2 13980 2.46000000 2687239422 2687239422 -13.00000000
4.47499132 -5.29731226 0.36342087 10 3 13981 6.94400000 2687239424 2687239424 3.00000000
1.83959091 -2.17763281 -0.55410933 3 4 13981 2.90400000 2687239427 2687239427 -11.00000000
4.46701431 -5.28974199 0.60573244 57 5 13982 6.95000000 2687239429 2687239429 5.00000000
2.26813269 -2.68682504 -0.55690670 3 6 13983 3.56000000 2687239431 2687239431 -9.00000000
4.47185850 -5.29922962 0.85137922 55 7 13984 6.98600000 2687239434 2687239434 7.00000000
2.92089033 -3.46253157 -0.55621171 8 8 13985 4.56400000 2687239436 2687239436 -7.00000000
4.45195103 -5.27937698 1.09378982 52 9 13986 6.99200000 2687239438 2687239438 9.00000000
3.99065804 -4.73234940 -0.54158580 15 10 13986 6.21400000 2687239441 2687239441 -5.00000000
4.45028734 -5.27927351 1.34215045 56 11 13987 7.03400000 2687239443 2687239443 11.00000000
4.47881222 -5.31499386 -0.36425826 10 12 13988 6.96000000 2687239445 2687239445 -3.00000000
4.42811203 -5.25669003 1.58680475 64 13 13989 7.05400000 2687239447 2687239447 13.00000000
4.45794487 -5.29397964 -0.12080555 8 14 13990 6.92200000 2687239450 2687239450 -1.00000000
4.42491341 -5.25475359 1.84072101 49 15 13990 7.11200000 2687239452 2687239452 15.00000000
1.33048916 -1.58449173 -0.55439037 22 0 13998 2.14200000 2687239473 2687239473 -15.00000000
4.44705200 -5.29791212 0.12073575 11 1 13999 6.91800000 2687239475 2687239475 1.00000000
1.53196156 -1.82572079 -0.55023026 1 2 14000 2.44600000 2687239477 2687239477 -13.00000000
4.44877148 -5.30371904 0.36279285 10 3 14001 6.93200000 2687239480 2687239480 3.00000000
1.82945502 -2.18103242 -0.55334610 3 4 14001 2.90000000 2687239482 2687239482 -11.00000000
4.42547989 -5.27782202 0.60259479 43 5 14002 6.91400000 2687239484 2687239484 5.00000000
2.25239539 -2.68715644 -0.55534238 1 6 14003 3.55000000 2687239487 2687239487 -9.00000000
4.44058418 -5.29959106 0.84894186 55 7 14004 6.96600000 2687239489 2687239489 7.00000000
2.90113807 -3.46357560 -0.55474925 8 8 14005 4.55200000 2687239491 2687239491 -7.00000000
4.42335033 -5.28276825 1.09128678 52 9 14006 6.97600000 2687239494 2687239494 9.00000000
3.99585915 -4.77221966 -0.54454911 11 10 14006 6.24800000 2687239496 2687239496 -5.00000000
4.41923094 -5.27972078 1.33833432 53 11 14007 7.01400000 2687239498 2687239498 11.00000000
4.44997883 -5.31834126 -0.36342087 10 12 14008 6.94400000 2687239500 2687239500 -3.00000000
4.40223408 -5.26314640 1.58410537 60 13 14009 7.04200000 2687239503 2687239503 13.00000000
4.41634941 -5.28189468 -0.12017727 8 14 14010 6.88600000 2687239505 2687239505 -1.00000000
4.38547754 -5.24497223 1.83192122 47 15 14010 7.07800000 2687239507 2687239507 15.00000000
1.32989860 -1.59506142 -0.55646098 19 0 14018 2.15000000 2687239528 2687239528 -15.00000000
4.41188812 -5.29343367 0.12028199 11 1 14019 6.89200000 2687239530 2687239530 1.00000000
1.47194076 -1.76667821 -0.53088450 1 2 14020 2.36000000 2687239533 2687239533 -13.00000000
4.41581774 -5.30002928 0.36153677 10 3 14020 6.90800000 2687239535 2687239535 3.00000000
1.81931770 -2.18438816 -0.55258286 3 4 14021 2.89600000 2687239537 2687239537 -11.00000000
4.40193081 -5.28711271 0.60189754 33 5 14022 6.90600000 2687239540 2687239540 5.00000000
2.23415613 -2.68437433 -0.55315226 3 6 14023 3.53600000 2687239542 2687239542 -9.00000000
4.40174389 -5.29064369 0.84504205 55 7 14024 6.93400000 2687239544 2687239544 7.00000000
2.89664626 -3.48283863 -0.55621171 8 8 14025 4.56400000 2687239546 2687239546 -7.00000000
4.39570236 -5.28525782 1.08878386 55 9 14025 6.96000000 2687239549 2687239549 9.00000000
4.00337791 -4.81524754 -0.54786098 11 10 14026 6.28600000 2687239551 2687239551 -5.00000000
4.37944221 -5.26944685 1.33184683 59 11 14027 6.98000000 2687239553 2687239553 11.00000000
4.40330791 -5.30004454 -0.36111811 10 12 14028 6.90000000 2687239556 2687239556 -3.00000000
4.37636518 -5.26948595 1.58140588 62 13 14029 7.03000000 2687239558 2687239558 13.00000000
4.40043974 -5.30035543 -0.12024708 8 14 14030 6.89000000 2687239560 2687239560 -1.00000000
4.35727024 -5.24835777 1.82778013 49 15 14030 7.06200000 2687239563 2687239563 15.00000000
1.34280169 -1.62201524 -0.56422549 22 0 14038 2.18000000 2687239583 2687239583 -15.00000000
4.37553453 -5.28723383 0.11979332 11 1 14039 6.86400000 2687239586 2687239586 1.00000000
1.40862501 -1.70273507 -0.51018900 1 2 14040 2.26800000 2687239588 2687239588 -13.00000000
4.38490725 -5.30232620 0.36059475 10 3 14041 6.89000000 2687239590 2687239590 3.00000000
1.81418407 -2.19375134 -0.55334610 3 4 14041 2.90000000 2687239593 2687239593 -11.00000000
4.37710094 -5.29476833 0.60102600 20 5 14042 6.89600000 2687239595 2687239595 5.00000000
2.22477221 -2.69215655 -0.55315226 1 6 14043 3.53600000 2687239597 2687239597 -9.00000000
2.88194323 -3.48986721 -0.55572420 8 8 14045 4.56000000 2687239602 2687239602 -7.00000000
4.36624098 -5.28914642 1.08628094 55 9 14046 6.94400000 2687239604 2687239604 9.00000000
3.99288702 -4.83687544 -0.54873258 11 10 14046 6.29600000 2687239606 2687239606 -5.00000000
4.34852600 -5.26955938 1.32803059 59 11 14047 6.96000000 2687239609 2687239609 11.00000000
4.36952925 -5.29689455 -0.35986203 10 12 14048 6.87600000 2687239611 2687239611 -3.00000000
4.34554672 -5.26969528 1.57690692 66 13 14049 7.01000000 2687239613 2687239613 13.00000000
4.36791992 -5.29871035 -0.11986313 8 14 14050 6.86800000 2687239616 2687239616 -1.00000000
4.33063364 -5.25534725 1.82467425 47 15 14051 7.05000000 2687239618 2687239618 15.00000000
1.34232342 -1.63242781 -0.56629604 21 0 14057 2.18800000 2687239639 2687239639 -15.00000000
4.35162878 -5.29399061 0.11961880 11 1 14058 6.85400000 2687239641 2687239641 1.00000000
1.38812447 -1.68932927 -0.50479019 1 2 14059 2.24400000 2687239643 2687239643 -13.00000000
4.34793997 -5.29138565 0.35891998 10 3 14059 6.85800000 2687239646 2687239646 3.00000000
1.81188381 -2.20582342 -0.55487257 3 4 14060 2.90800000 2687239648 2687239648 -11.00000000
4.34687519 -5.29385614 0.59928286 13 5 14061 6.87600000 2687239650 2687239650 5.00000000
2.22711229 -2.71326113 -0.55596811 1 6 14062 3.55400000 2687239652 2687239652 -9.00000000
3.02080965 -3.68152213 0.58472914 6 7 14063 4.79800000 2687239655 2687239655 7.00000000
2.86028314 -3.48712635 -0.55377430 8 8 14064 4.54400000 2687239657 2687239657 -7.00000000
4.33114243 -5.28221083 1.08190072 65 9 14065 6.91600000 2687239659 2687239659 9.00000000
3.97429872 -4.84700823 -0.54838395 11 10 14065 6.29200000 2687239662 2687239662 -5.00000000
4.32231569 -5.27332211 1.32535923 59 11 14066 6.94600000 2687239664 2687239664 11.00000000
4.34434509 -5.30208588 -0.35923401 10 12 14067 6.86400000 2687239666 2687239666 -3.00000000
4.30829048 -5.25995541 1.56970847 68 13 14068 6.97800000 2687239669 2687239669 13.00000000
4.33765650 -5.29769373 -0.11951408 8 14 14069 6.84800000 2687239671 2687239671 -1.00000000
4.30186367 -5.25397921 1.81949794 47 15 14069 7.03000000 2687239673 2687239673 15.00000000
1.33906054 -1.64009631 -0.56733137 15 0 14077 2.19200000 2687239694 2687239694 -15.00000000
4.32300711 -5.29675484 0.11933956 8 1 14078 6.83800000 2687239696 2687239696 1.00000000
1.41794503 -1.73795295 -0.51783735 2 2 14079 2.30200000 2687239698 2687239698 -13.00000000
4.32186747 -5.29724503 0.35829195 7 3 14079 6.84600000 2687239701 2687239701 3.00000000
1.79176474 -2.19692063 -0.55105639 3 4 14080 2.88800000 2687239703 2687239703 -11.00000000
4.31703901 -5.29509926 0.59771407 10 5 14081 6.85800000 2687239705 2687239705 5.00000000
2.22386742 -2.72867489 -0.55753243 1 6 14082 3.56400000 2687239708 2687239708 -9.00000000
3.00417876 -3.68742728 0.58399791 6 7 14083 4.79200000 2687239710 2687239710 7.00000000
2.84809351 -3.49708939 -0.55377430 8 8 14084 4.54400000 2687239712 2687239712 -7.00000000
4.29397058 -5.27431870 1.07720768 67 9 14085 6.88600000 2687239715 2687239715 9.00000000
3.92464995 -4.82067919 -0.54385185 11 10 14085 6.24000000 2687239717 2687239717 -5.00000000
4.29396772 -5.27619600 1.32230639 62 11 14086 6.93000000 2687239719 2687239719 11.00000000
4.31950855 -5.30947161 -0.35871065 10 12 14087 6.85400000 2687239722 2687239722 -3.00000000
4.28006744 -5.26286697 1.56610930 68 13 14088 6.96200000 2687239724 2687239724 13.00000000
3.05896854 -3.76271796 -0.08464417 2 14 14089 4.85000000 2687239726 2687239726 -1.00000000
4.26887417 -5.25097561 1.81328619 47 15 14089 7.00600000 2687239728 2687239728 15.00000000
1.31021309 -1.61624742 -0.55749625 6 0 14097 2.15400000 2687239749 2687239749 -15.00000000
3.03416944 -3.74421406 0.08412060 4 1 14098 4.82000000 2687239751 2687239751 1.00000000
1.48669517 -1.83526063 -0.54528135 2 2 14099 2.42400000 2687239754 2687239754 -13.00000000
3.03293800 -3.74536657 0.25257331 4 3 14100 4.82600000 2687239756 2687239756 3.00000000
1.78408515 -2.20316172 -0.55105639 3 4 14100 2.88800000 2687239758 2687239758 -11.00000000
3.02363729 -3.73521399 0.42043930 6 5 14101 4.82400000 2687239761 2687239761 5.00000000
2.19693255 -2.71492290 -0.55315226 1 6 14102 3.53600000 2687239763 2687239763 -9.00000000
4.28218746 -5.29372597 0.83602369 28 7 14103 6.86000000 2687239765 2687239765 7.00000000
2.84335804 -3.51627111 -0.55523676 8 8 14104 4.55600000 2687239768 2687239768 -7.00000000
4.26652002 -5.27624083 1.07470477 65 9 14104 6.87000000 2687239770 2687239770 9.00000000
3.87899113 -4.79871178 -0.53984267 11 10 14105 6.19400000 2687239772 2687239772 -5.00000000
4.25824976 -5.26977444 1.31696367 62 11 14106 6.90200000 2687239775 2687239775 11.00000000
4.28588867 -5.30587292 -0.35745457 10 12 14107 6.83000000 2687239777 2687239777 -3.00000000
4.25187635 -5.26564598 1.56251001 70 13 14108 6.94600000 2687239779 2687239779 13.00000000
3.03702354 -3.76248074 -0.08439983 6 14 14109 4.83600000 2687239781 2687239781 -1.00000000
4.23018932 -5.24253130 1.80500400 49 15 14110 6.97400000 2687239784 2687239784 15.00000000
1.29245043 -1.60576177 -0.55231982 4 0 14117 2.13400000 2687239804 2687239804 -15.00000000
3.02860260 -3.76413059 0.08433003 8 1 14118 4.83200000 2687239807 2687239807 1.00000000
1.47539449 -1.83436489 -0.54348177 3 2 14119 2.41600000 2687239809 2687239809 -13.00000000
3.03051519 -3.76785398 0.25341070 8 3 14119 4.84200000 2687239811 2687239811 3.00000000
1.78622520 -2.22161603 -0.55410933 3 4 14120 2.90400000 2687239814 2687239814 -11.00000000
3.01432514 -3.75040460 0.42096224 9 5 14121 4.83000000 2687239816 2687239816 5.00000000
2.17878151 -2.71179557 -0.55096221 1 6 14122 3.52200000 2687239818 2687239818 -9.00000000
4.25000906 -5.29161644 0.83334255 63 7 14123 6.83800000 2687239821 2687239821 7.00000000
2.82858109 -3.52307916 -0.55474925 8 8 14124 4.55200000 2687239823 2687239823 -7.00000000
4.23602486 -5.27797794 1.07188892 52 9 14125 6.85200000 2687239825 2687239825 9.00000000
3.84101653 -4.78580761 -0.53687936 11 10 14125 6.16000000 2687239828 2687239828 -5.00000000
4.22262859 -5.26316786 1.31162107 62 11 14126 6.87400000 2687239830 2687239830 11.00000000
4.25859451 -5.30989456 -0.35672188 10 12 14127 6.81600000 2687239832 2687239832 -3.00000000
4.21396637 -5.25612879 1.55531156 68 13 14128 6.91400000 2687239834 2687239834 13.00000000
3.01761866 -3.76525688 -0.08422531 6 14 14129 4.82600000 2687239837 2687239837 -1.00000000
4.20099306 -5.24369621 1.80034530 51 15 14130 6.95600000 2687239839 2687239839 15.00000000
1.29861403 -1.62558162 -0.55749625 4 0 14138 2.15400000 2687239860 2687239860 -15.00000000
3.00355554 -3.76114249 0.08401588 6 1 14139 4.81400000 2687239862 2687239862 1.00000000
1.50878203 -1.89001858 -0.55832851 4 2 14140 2.48200000 2687239864 2687239864 -13.00000000
2.99425626 -3.75083995 0.25152659 6 3 14140 4.80600000 2687239867 2687239867 3.00000000
1.77807057 -2.22814798 -0.55410933 3 4 14141 2.90400000 2687239869 2687239869 -11.00000000
3.00055909 -3.76142740 0.42096224 6 5 14142 4.83000000 2687239871 2687239871 5.00000000
2.17375398 -2.72594070 -0.55221367 1 6 14143 3.53000000 2687239874 2687239874 -9.00000000
4.21202517 -5.28387451 0.82968646 68 7 14144 6.80800000 2687239876 2687239876 7.00000000
2.80822659 -3.52410793 -0.55328679 8 8 14145 4.54000000 2687239878 2687239878 -7.00000000
4.21142054 -5.28500795 1.07032466 60 9 14145 6.84200000 2687239881 2687239881 9.00000000
3.83958769 -4.82011223 -0.53914541 11 10 14146 6.18600000 2687239883 2687239883 -5.00000000
4.19352627 -5.26632261 1.30856812 59 11 14147 6.85800000 2687239885 2687239885 11.00000000
4.22417736 -5.30671597 -0.35546583 10 12 14148 6.79200000 2687239887 2687239887 -3.00000000
4.18253946 -5.25628948 1.55081260 70 13 14149 6.89400000 2687239890 2687239890 13.00000000
4.21751690 -5.30214500 -0.11825751 8 14 14150 6.77600000 2687239892 2687239892 -1.00000000
4.17813873 -5.25452232 1.79879236 58 15 14151 6.95000000 2687239894 2687239894 15.00000000
1.28572881 -1.62102330 -0.55439037 4 0 14158 2.14200000 2687239915 2687239915 -15.00000000
4.20048618 -5.29779482 0.11801317 11 1 14159 6.76200000 2687239917 2687239917 1.00000000
1.51064861 -1.90596414 -0.56147784 9 2 14160 2.49600000 2687239920 2687239920 -13.00000000
4.19072342 -5.28737688 0.35358173 10 3 14160 6.75600000 2687239922 2687239922 3.00000000
1.76296687 -2.22510839 -0.55181962 3 4 14161 2.89200000 2687239924 2687239924 -11.00000000
4.18237543 -5.28062963 0.58934712 10 5 14162 6.76200000 2687239927 2687239927 5.00000000
2.17158270 -2.74280453 -0.55409086 1 6 14163 3.54200000 2687239929 2687239929 -9.00000000
4.18000412 -5.28142262 0.82700539 55 7 14164 6.78600000 2687239931 2687239931 7.00000000
2.79098153 -3.52766180 -0.55231184 8 8 14165 4.53200000 2687239934 2687239934 -7.00000000
4.17823887 -5.28108644 1.06657016 57 9 14165 6.81800000 2687239936 2687239936 9.00000000
3.85858107 -4.87880468 -0.54420048 11 10 14166 6.24400000 2687239938 2687239938 -5.00000000
4.16781187 -5.27168798 1.30627835 59 11 14167 6.84600000 2687239940 2687239940 11.00000000
4.19324398 -5.30575895 -0.35441908 10 12 14168 6.77200000 2687239943 2687239943 -3.00000000
4.14483738 -5.24639130 1.54361415 64 13 14169 6.86200000 2687239945 2687239945 13.00000000
4.17419577 -5.28544855 -0.11755941 8 14 14170 6.73600000 2687239947 2687239947 -1.00000000
4.14660358 -5.25239563 1.79309833 60 15 14171 6.92800000 2687239950 2687239950 15.00000000
1.28034627 -1.62527812 -0.55439037 4 0 14177 2.14200000 2687239970 2687239970 -15.00000000
4.17547178 -5.30226898 0.11780374 11 1 14178 6.75000000 2687239973 2687239973 1.00000000
1.50190914 -1.90790081 -0.56057805 12 2 14179 2.49200000 2687239975 2687239975 -13.00000000
4.16451883 -5.29025936 0.35284901 10 3 14179 6.74200000 2687239977 2687239977 3.00000000
1.75315022 -2.22785664 -0.55105639 3 4 14180 2.88800000 2687239980 2687239980 -11.00000000
4.15252256 -5.27881050 0.58760405 10 5 14181 6.74200000 2687239982 2687239982 5.00000000
2.16003323 -2.74688506 -0.55346513 1 6 14182 3.53800000 2687239984 2687239984 -9.00000000
4.15755987 -5.28901243 0.82603043 55 7 14183 6.77800000 2687239986 2687239986 7.00000000
2.78172088 -3.54001951 -0.55279934 8 8 14184 4.53600000 2687239989 2687239989 -7.00000000
4.13751364 -5.26540184 1.06062567 55 9 14184 6.78000000 2687239991 2687239991 9.00000000
3.84730411 -4.89784050 -0.54489768 11 10 14185 6.25200000 2687239993 2687239993 -5.00000000
4.13818264 -5.27003908 1.30246222 56 11 14186 6.82600000 2687239996 2687239996 11.00000000
4.17562628 -5.31963491 -0.35441908 10 12 14187 6.77200000 2687239998 2687239998 -3.00000000
4.12260485 -5.25397491 1.54181457 62 13 14188 6.85400000 2687240000 2687240000 13.00000000
4.14306974 -5.28195381 -0.11717546 8 14 14189 6.71400000 2687240003 2687240003 -1.00000000
4.11339045 -5.24411631 1.78585136 54 15 14189 6.90000000 2687240005 2687240005 15.00000000
1.26990449 -1.62365067 -0.55231982 4 0 14197 2.13400000 2687240026 2687240026 -15.00000000
4.14092636 -5.29633236 0.11734998 11 1 14198 6.72400000 2687240028 2687240028 1.00000000
1.49884021 -1.91773808 -0.56192774 17 2 14199 2.49800000 2687240030 2687240030 -13.00000000
4.13126802 -5.28588009 0.35159296 10 3 14199 6.71800000 2687240033 2687240033 3.00000000
1.75019777 -2.24015093 -0.55258286 3 4 14200 2.89600000 2687240035 2687240035 -11.00000000
4.12425995 -5.28071165 0.58620954 10 5 14201 6.72600000 2687240037 2687240037 5.00000000
2.15772533 -2.76375031 -0.55534238 1 6 14202 3.55000000 2687240039 2687240039 -9.00000000
4.12930202 -5.29097366 0.82408053 55 7 14203 6.76200000 2687240042 2687240042 7.00000000
2.77178907 -3.55283809 -0.55328679 8 8 14204 4.54000000 2687240044 2687240044 -7.00000000
4.11181831 -5.27046728 1.05874848 52 9 14204 6.76800000 2687240046 2687240046 9.00000000
3.82283258 -4.90181351 -0.54385185 15 10 14205 6.24000000 2687240049 2687240049 -5.00000000
4.10527658 -5.26587200 1.29788280 56 11 14206 6.80200000 2687240051 2687240051 11.00000000
4.13984394 -5.31212330 -0.35295370 10 12 14207 6.74400000 2687240053 2687240053 -3.00000000
4.09705448 -5.25910950 1.53911507 62 13 14208 6.84200000 2687240056 2687240056 13.00000000
4.11354923 -5.28218460 -0.11686131 8 14 14209 6.69600000 2687240058 2687240058 -1.00000000
4.07634163 -5.23629141 1.77808678 47 15 14210 6.87000000 2687240060 2687240060 15.00000000
1.26868331 -1.63439834 -0.55439037 4 0 14218 2.14200000 2687240081 2687240081 -15.00000000
4.09451675 -5.27671719 0.11658207 11 1 14219 6.68000000 2687240083 2687240083 1.00000000
1.48702371 -1.91705942 -0.56012815 30 2 14220 2.49000000 2687240086 2687240086 -13.00000000
4.11338902 -5.30486107 0.35180229 10 3 14221 6.72200000 2687240088 2687240088 3.00000000
1.73956931 -2.24344778 -0.55181962 3 4 14221 2.89200000 2687240090 2687240090 -11.00000000
4.09267139 -5.28004503 0.58446640 10 5 14222 6.70600000 2687240092 2687240092 5.00000000
2.13911176 -2.76071000 -0.55315226 1 6 14223 3.53600000 2687240095 2687240095 -9.00000000
4.09286356 -5.28410149 0.82066816 57 7 14224 6.73400000 2687240097 2687240097 7.00000000
2.76117945 -3.56611252 -0.55377430 6 8 14225 4.54400000 2687240099 2687240099 -7.00000000
4.08521700 -5.27613115 1.05687129 55 9 14225 6.75600000 2687240102 2687240102 9.00000000
3.80971885 -4.92209435 -0.54454911 15 10 14226 6.24800000 2687240104 2687240104 -5.00000000
4.06912947 -5.25914478 1.29254019 53 11 14227 6.77400000 2687240106 2687240106 11.00000000
4.09590769 -5.29566383 -0.35086024 14 12 14228 6.70400000 2687240109 2687240109 -3.00000000
3.99908066 -5.17233992 1.50942159 12 13 14229 6.71000000 2687240111 2687240111 13.00000000
4.08315563 -5.28298616 -0.11654717 8 14 14230 6.67800000 2687240113 2687240113 -1.00000000
1.26532900 -1.64187729 -0.55542564 4 0 14238 2.14600000 2687240136 2687240136 -15.00000000
4.07607222 -5.29097748 0.11658207 11 1 14239 6.68000000 2687240139 2687240139 1.00000000
1.47081077 -1.90988672 -0.55652893 40 2 14240 2.47400000 2687240141 2687240141 -13.00000000
4.07535315 -5.29386520 0.35012755 10 3 14241 6.69000000 2687240143 2687240143 3.00000000
1.73412287 -2.25261760 -0.55258286 3 4 14241 2.89600000 2687240145 2687240145 -11.00000000
4.06935549 -5.28798294 0.58376914 10 5 14242 6.69800000 2687240148 2687240148 5.00000000
2.12946200 -2.76815987 -0.55315226 1 6 14243 3.53600000 2687240150 2687240150 -9.00000000
4.06350279 -5.28419352 0.81847453 60 7 14244 6.71600000 2687240152 2687240152 7.00000000
2.73903584 -3.56313848 -0.55182439 6 8 14245 4.52800000 2687240155 2687240155 -7.00000000
3.79008627 -4.93220329 -0.54420048 15 10 14246 6.24400000 2687240159 2687240159 -5.00000000
4.06036758 -5.28775120 -0.34939486 10 12 14248 6.67600000 2687240164 2687240164 -3.00000000
3.95964289 -5.15844297 1.50132334 33 13 14249 6.67400000 2687240166 2687240166 13.00000000
4.06468964 -5.29720688 -0.11654717 8 14 14250 6.67800000 2687240169 2687240169 -1.00000000
3.95528769 -5.15649462 1.74133456 9 15 14251 6.72800000 2687240171 2687240171 15.00000000
1.25606835 -1.64168119 -0.55387276 4 0 14258 2.14000000 2687240192 2687240192 -15.00000000
4.04421520 -5.28770113 0.11619812 11 1 14259 6.65800000 2687240194 2687240194 1.00000000
1.46650231 -1.91810536 -0.55742872 40 2 14260 2.47800000 2687240196 2687240196 -13.00000000
4.03259325 -5.27632093 0.34803411 10 3 14261 6.65000000 2687240198 2687240198 3.00000000
1.71194327 -2.23993897 -0.54800344 2 4 14261 2.87200000 2687240201 2687240201 -11.00000000
4.04240513 -5.29107285 0.58254898 10 5 14262 6.68400000 2687240203 2687240203 5.00000000
2.12937832 -2.78813553 -0.55565524 3 6 14263 3.55200000 2687240205 2687240205 -9.00000000
4.03298712 -5.28256702 0.81603712 60 7 14264 6.69600000 2687240208 2687240208 7.00000000
2.73139882 -3.57898998 -0.55279934 6 8 14265 4.53600000 2687240210 2687240210 -7.00000000
3.96079850 -5.18988943 1.03403187 10 9 14265 6.61000000 2687240212 2687240212 9.00000000
3.77526355 -4.94857121 -0.54454911 15 10 14266 6.24800000 2687240215 2687240215 -5.00000000
3.95373988 -5.18439198 1.26735330 12 11 14267 6.64200000 2687240217 2687240217 11.00000000
4.03219843 -5.28918552 -0.34855747 10 12 14268 6.66000000 2687240219 2687240219 -3.00000000
3.92625713 -5.15208340 1.49547458 22 13 14269 6.64800000 2687240222 2687240222 13.00000000
4.02799749 -5.28750229 -0.11602360 9 14 14270 6.64800000 2687240224 2687240224 -1.00000000
3.92645979 -5.15421486 1.73615813 9 15 14270 6.70800000 2687240226 2687240226 15.00000000
1.25266719 -1.64913249 -0.55490804 2 0 14278 2.14400000 2687240247 2687240247 -15.00000000
4.02331448 -5.29860067 0.11612831 11 1 14279 6.65400000 2687240249 2687240249 1.00000000
1.45626330 -1.91855609 -0.55607903 31 2 14280 2.47200000 2687240251 2687240251 -13.00000000
4.00690699 -5.28081894 0.34740609 7 3 14281 6.63800000 2687240254 2687240254 3.00000000
1.71479440 -2.25997710 -0.55143797 3 4 14281 2.89000000 2687240256 2687240256 -11.00000000
4.01066685 -5.28768969 0.58063155 9 5 14282 6.66200000 2687240258 2687240258 5.00000000
2.11843944 -2.79397726 -0.55534238 1 6 14283 3.55000000 2687240261 2687240261 -9.00000000
4.00852728 -5.28870249 0.81481844 68 7 14284 6.68600000 2687240263 2687240263 7.00000000
2.71289515 -3.58059144 -0.55158067 6 8 14285 4.52600000 2687240265 2687240265 -7.00000000
3.91789675 -5.17287779 1.02777445 10 9 14286 6.57000000 2687240268 2687240268 9.00000000
3.74714041 -4.94742489 -0.54298025 15 10 14286 6.23000000 2687240270 2687240270 -5.00000000
3.92376828 -5.18250895 1.26353717 12 11 14287 6.62200000 2687240272 2687240272 11.00000000
4.00647926 -5.29367304 -0.34792945 10 12 14288 6.64800000 2687240274 2687240274 -3.00000000
3.89649129 -5.15021658 1.49097562 22 13 14289 6.62800000 2687240277 2687240277 13.00000000
3.99745369 -5.28558111 -0.11567455 9 14 14290 6.62800000 2687240279 2687240279 -1.00000000
3.89589167 -5.15316153 1.73098183 9 15 14291 6.68800000 2687240281 2687240281 15.00000000
1.24253798 -1.64710844 -0.55283749 4 0 14297 2.13600000 2687240302 2687240302 -15.00000000
3.98525357 -5.28477097 0.11553493 11 1 14298 6.62000000 2687240304 2687240304 1.00000000
1.46631587 -1.94516039 -0.56237763 12 2 14299 2.50000000 2687240307 2687240307 -13.00000000
3.98095942 -5.28291178 0.34667337 10 3 14300 6.62400000 2687240309 2687240309 3.00000000
1.70020151 -2.25624347 -0.54914826 3 4 14300 2.87800000 2687240311 2687240311 -11.00000000
3.96793580 -5.26754141 0.57697099 9 5 14301 6.62000000 2687240314 2687240314 5.00000000
2.10084486 -2.78994083 -0.55315226 1 6 14302 3.53600000 2687240316 2687240316 -9.00000000
3.97544765 -5.28134823 0.81164980 63 7 14303 6.66000000 2687240318 2687240318 7.00000000
2.70697427 -3.59749889 -0.55279934 6 8 14304 4.53600000 2687240321 2687240321 -7.00000000
3.89568782 -5.17726851 1.02621007 10 9 14304 6.56000000 2687240323 2687240323 9.00000000
3.72712064 -4.95504665 -0.54245734 15 10 14305 6.22400000 2687240325 2687240325 -5.00000000
3.89358211 -5.17823172 1.25933933 12 11 14306 6.60000000 2687240327 2687240327 11.00000000
3.97930241 -5.29415751 -0.34709206 10 12 14307 6.63200000 2687240330 2687240330 -3.00000000
3.87119699 -5.15220356 1.48782623 23 13 14308 6.61400000 2687240332 2687240332 13.00000000
3.97029662 -5.28601694 -0.11539531 9 14 14309 6.61200000 2687240334 2687240334 -1.00000000
3.87156200 -5.15456247 1.72735834 9 15 14309 6.67400000 2687240337 2687240337 15.00000000
1.23562288 -1.64988935 -0.55231982 4 0 14317 2.13400000 2687240357 2687240357 -15.00000000
3.95359945 -5.28104115 0.11515098 11 1 14318 6.59800000 2687240360 2687240360 1.00000000
1.43850005 -1.92218316 -0.55427939 6 2 14319 2.46400000 2687240362 2687240362 -13.00000000
3.96129799 -5.29517651 0.34656870 7 3 14320 6.62200000 2687240364 2687240364 3.00000000
1.69466746 -2.26530862 -0.54991150 3 4 14320 2.88200000 2687240367 2687240367 -11.00000000
3.93639922 -5.26380825 0.57505357 9 5 14321 6.59800000 2687240369 2687240369 5.00000000
2.08517957 -2.78934646 -0.55158794 1 6 14322 3.52600000 2687240371 2687240371 -9.00000000
3.94154024 -5.27452135 0.80848122 57 7 14323 6.63400000 2687240374 2687240374 7.00000000
2.69677615 -3.61010695 -0.55328679 6 8 14324 4.54000000 2687240376 2687240376 -7.00000000
3.86604881 -5.17726707 1.02339423 10 9 14325 6.54200000 2687240378 2687240378 9.00000000
3.70503306 -4.96164083 -0.54176009 15 10 14325 6.21600000 2687240380 2687240380 -5.00000000
3.85786724 -5.16819191 1.25361514 12 11 14326 6.57000000 2687240383 2687240383 11.00000000
3.95840907 -5.30481434 -0.34688273 10 12 14327 6.62800000 2687240385 2687240385 -3.00000000
3.84852815 -5.15943718 1.48602664 25 13 14328 6.60600000 2687240387 2687240387 13.00000000
3.94942999 -5.29663754 -0.11532550 9 14 14329 6.60800000 2687240390 2687240390 -1.00000000
3.84802556 -5.16252232 1.72528780 11 15 14330 6.66600000 2687240392 2687240392 15.00000000
1.23677194 -1.66349435 -0.55542564 4 0 14337 2.14600000 2687240413 2687240413 -15.00000000
3.92798400 -5.28517962 0.11494155 11 1 14338 6.58600000 2687240415 2687240415 1.00000000
1.42945731 -1.92406416 -0.55337960 5 2 14339 2.46000000 2687240417 2687240417 -13.00000000
3.92850041 -5.28973055 0.34531263 7 3 14340 6.59800000 2687240420 2687240420 3.00000000
1.69143188 -2.27751493 -0.55143797 3 4 14340 2.89000000 2687240422 2687240422 -11.00000000
3.91681337 -5.27591705 0.57487929 9 5 14341 6.59600000 2687240424 2687240424 5.00000000
2.07543015 -2.79660797 -0.55158794 1 6 14342 3.52600000 2687240427 2687240427 -9.00000000
3.90654659 -5.26592779 0.80506891 55 7 14343 6.60600000 2687240429 2687240429 7.00000000
2.67588115 -3.60833693 -0.55158067 6 8 14344 4.52600000 2687240431 2687240431 -7.00000000
3.84768248 -5.18847227 1.02308142 15 9 14344 6.54000000 2687240433 2687240433 9.00000000
3.69481015 -4.98414707 -0.54280597 15 10 14345 6.22800000 2687240436 2687240436 -5.00000000
3.83162117 -5.17058563 1.25094378 15 11 14346 6.55600000 2687240438 2687240438 11.00000000
3.92322373 -5.29613066 -0.34541732 10 12 14347 6.60000000 2687240440 2687240440 -3.00000000
3.73307991 -5.04128695 1.44823492 12 13 14348 6.43800000 2687240443 2687240443 13.00000000
3.92139935 -5.29753304 -0.11504626 9 14 14349 6.59200000 2687240445 2687240445 -1.00000000
3.66652346 -4.95321369 1.65126550 9 15 14349 6.38000000 2687240447 2687240447 15.00000000
1.23439932 -1.67246437 -0.55697858 4 0 14357 2.15200000 2687240468 2687240468 -15.00000000
3.90476251 -5.29242229 0.11480193 11 1 14358 6.57800000 2687240470 2687240470 1.00000000
1.41694880 -1.92120051 -0.55113006 14 2 14359 2.45000000 2687240473 2687240473 -13.00000000
3.88867807 -5.27447462 0.34342855 7 3 14360 6.56200000 2687240475 2687240475 3.00000000
1.67881143 -2.27708435 -0.54991150 3 4 14360 2.88200000 2687240477 2687240477 -11.00000000
3.88537073 -5.27191496 0.57296187 9 5 14361 6.57400000 2687240480 2687240480 5.00000000
2.06917048 -2.80860662 -0.55252653 1 6 14362 3.53200000 2687240482 2687240482 -9.00000000
3.87872410 -5.26674461 0.80311894 36 7 14363 6.59000000 2687240484 2687240484 7.00000000
2.66209245 -3.61605692 -0.55133688 6 8 14364 4.52400000 2687240486 2687240486 -7.00000000
3.68696856 -5.01002979 0.98522425 10 9 14365 6.29800000 2687240489 2687240489 9.00000000
3.67148519 -4.98899078 -0.54193443 15 10 14365 6.21800000 2687240491 2687240491 -5.00000000
3.64951301 -4.96094704 1.19713569 9 11 14366 6.27400000 2687240493 2687240493 11.00000000
