# .PCD v0.7 - Point Cloud Data file format
VERSION 0.7
FIELDS x y z intensity laser_id azimuth distance_m adjustedtime timestamp vertical_angle
SIZE 4 4 4 1 1 2 8 8 4 8
TYPE F F F U U U F U U F
COUNT 1 1 1 1 1 1 1 1 1 1
WIDTH 515
HEIGHT 1
VIEWPOINT 0 0 0 1 0 0 0
POINTS 515
DATA ascii
-1.25422132 -10.08383942 2.72277641 49 15 18709 10.52000000 2686652539 2686652539 15.00000000
-0.17939450 -1.42605829 -0.38512275 33 0 18717 1.48800000 2686652560 2686652560 -15.00000000
-0.16771637 -1.32761180 0.07013018 6 3 18720 1.34000000 2686652567 2686652567 3.00000000
-0.19761848 -1.55993211 -0.24904367 100 6 18722 1.59200000 2686652574 2686652574 -9.00000000
-2.67766929 -21.10704994 2.61239123 40 7 18723 21.43600000 2686652576 2686652576 7.00000000
-0.19388400 -1.52618039 -0.18889748 93 8 18724 1.55000000 2686652578 2686652578 -7.00000000
-2.28026032 -17.92431068 2.86181211 53 9 18725 18.29400000 2686652581 2686652581 9.00000000
-0.19486405 -1.53175664 -0.13509139 100 10 18725 1.55000000 2686652583 2686652583 -5.00000000
-1.50820351 -11.83894253 2.31985569 12 11 18726 12.15800000 2686652585 2686652585 11.00000000
-0.18905222 -1.48193967 -0.07829459 93 12 18727 1.49600000 2686652588 2686652588 -3.00000000
-1.50831664 -11.80695248 2.74800205 47 13 18728 12.21600000 2686652590 2686652590 13.00000000
-1.29215395 -10.08683968 2.72484684 52 15 18730 10.52800000 2686652595 2686652595 15.00000000
-0.18461910 -1.42733920 -0.38564038 35 0 18737 1.49000000 2686652615 2686652615 -15.00000000
-0.17106338 -1.31711507 0.06960682 4 3 18740 1.33000000 2686652622 2686652622 3.00000000
-4.58923101 -35.28689957 3.11320305 10 5 18741 35.72000000 2686652627 2686652627 5.00000000
-0.20459308 -1.57098579 -0.25092089 100 6 18742 1.60400000 2686652629 2686652629 -9.00000000
-2.75364065 -21.11529160 2.61458492 37 7 18743 21.45400000 2686652631 2686652631 7.00000000
-0.20049541 -1.53533626 -0.19011618 75 8 18744 1.56000000 2686652634 2686652634 -7.00000000
-2.34122157 -17.92840195 2.86368942 49 9 18744 18.30600000 2686652636 2686652636 9.00000000
-0.19659300 -1.50340915 -0.13265105 100 10 18745 1.52200000 2686652638 2686652638 -5.00000000
-1.55053949 -11.84139252 2.32138228 12 11 18746 12.16600000 2686652641 2686652641 11.00000000
-0.19552229 -1.49117231 -0.07881795 84 12 18747 1.50600000 2686652643 2686652643 -3.00000000
-1.55002880 -11.80548000 2.74890184 47 13 18748 12.22000000 2686652645 2686652645 13.00000000
-1.32660329 -10.09016037 2.72691751 49 15 18749 10.53600000 2686652650 2686652650 15.00000000
-0.18960030 -1.42668605 -0.38564038 33 0 18757 1.49000000 2686652671 2686652671 -15.00000000
-0.17592408 -1.31848967 0.06971149 4 3 18760 1.33200000 2686652678 2686652678 3.00000000
-0.19473970 -1.45950615 -0.28621349 1 4 18760 1.50000000 2686652680 2686652680 -11.00000000
-4.73374891 -35.43062973 3.12732244 41 5 18761 35.88200000 2686652682 2686652682 5.00000000
-0.21007560 -1.57026207 -0.25092089 100 6 18762 1.60400000 2686652684 2686652684 -9.00000000
-2.83049297 -21.12915993 2.61750984 35 7 18763 21.47800000 2686652687 2686652687 7.00000000
-0.19819999 -1.47757041 -0.18304776 31 8 18764 1.50200000 2686652689 2686652689 -7.00000000
-2.40588999 -17.93578339 2.86619234 53 9 18764 18.32200000 2686652691 2686652691 9.00000000
-0.19786124 -1.47309387 -0.13003637 100 10 18765 1.49200000 2686652694 2686652694 -5.00000000
-1.59474277 -11.85731030 2.32558012 12 11 18766 12.18800000 2686652696 2686652696 11.00000000
-0.19592804 -1.45485163 -0.07693385 100 12 18767 1.47000000 2686652698 2686652698 -3.00000000
-1.59018636 -11.79227161 2.74710226 47 13 18768 12.21200000 2686652701 2686652701 13.00000000
-1.36336744 -10.09695530 2.73002338 49 15 18769 10.54800000 2686652705 2686652705 15.00000000
-0.19248977 -1.41070271 -0.38149926 35 0 18777 1.47400000 2686652726 2686652726 -15.00000000
-0.18296494 -1.33567655 0.07065354 2 3 18780 1.35000000 2686652733 2686652733 3.00000000
-0.19663581 -1.43547642 -0.28163406 1 4 18780 1.47600000 2686652735 2686652735 -11.00000000
-4.85062790 -35.36454010 3.12296462 41 5 18781 35.83200000 2686652737 2686652737 5.00000000
-0.21609311 -1.57343316 -0.25154662 100 6 18782 1.60800000 2686652740 2686652740 -9.00000000
-2.90909815 -21.15455055 2.62189698 35 7 18783 21.51400000 2686652742 2686652742 7.00000000
-0.20173177 -1.46507037 -0.18158533 87 8 18784 1.49000000 2686652744 2686652744 -7.00000000
-2.47215152 -17.93075752 2.86681795 49 9 18785 18.32600000 2686652747 2686652747 9.00000000
-0.20136936 -1.46055186 -0.12899050 76 10 18785 1.48000000 2686652749 2686652749 -5.00000000
-1.63773370 -11.86334038 2.32786965 12 11 18786 12.20000000 2686652751 2686652751 11.00000000
-0.20155217 -1.45811582 -0.07714320 100 12 18787 1.47400000 2686652754 2686652754 -3.00000000
-1.63240814 -11.79437065 2.74890184 47 13 18788 12.22000000 2686652756 2686652756 13.00000000
-1.39754343 -10.08448029 2.72795272 49 15 18789 10.54000000 2686652760 2686652760 15.00000000
-0.19634144 -1.40236938 -0.37942871 33 0 18797 1.46600000 2686652781 2686652781 -15.00000000
-0.18901603 -1.34491885 0.07117690 4 3 18800 1.36000000 2686652788 2686652788 3.00000000
-0.19782011 -1.40756321 -0.27629143 1 4 18800 1.44800000 2686652790 2686652790 -11.00000000
-4.83217382 -34.33921432 3.03389144 20 5 18801 34.81000000 2686652793 2686652793 5.00000000
-0.22075729 -1.56680119 -0.25060803 74 6 18802 1.60200000 2686652795 2686652795 -9.00000000
-2.98458743 -21.15606117 2.62335944 35 7 18803 21.52600000 2686652797 2686652797 7.00000000
-0.21822798 -1.54494596 -0.19157861 100 8 18804 1.57200000 2686652800 2686652800 -7.00000000
-2.53666282 -17.93571091 2.86900806 45 9 18805 18.34000000 2686652802 2686652802 9.00000000
-0.21232560 -1.50126803 -0.13265105 79 10 18805 1.52200000 2686652804 2686652804 -5.00000000
-1.67968512 -11.86143970 2.32863307 12 11 18806 12.20400000 2686652807 2686652807 11.00000000
-0.20972490 -1.47915566 -0.07829459 100 12 18807 1.49600000 2686652809 2686652809 -3.00000000
-1.67521167 -11.80017757 2.75160122 50 13 18808 12.23200000 2686652811 2686652811 13.00000000
-1.43449545 -10.07929039 2.72795272 49 15 18810 10.54000000 2686652816 2686652816 15.00000000
-0.20019840 -1.39792097 -0.37839344 33 0 18815 1.46200000 2686652837 2686652837 -15.00000000
-0.20915417 -1.45502698 0.07703853 5 3 18818 1.47200000 2686652843 2686652843 3.00000000
-0.20643120 -1.43608403 -0.28201568 1 4 18818 1.47800000 2686652846 2686652846 -11.00000000
-4.81514502 -33.45615387 2.95719433 40 5 18819 33.93000000 2686652848 2686652848 5.00000000
-0.21948004 -1.52308595 -0.24372490 54 6 18820 1.55800000 2686652850 2686652850 -9.00000000
-3.05670571 -21.18587494 2.62823415 35 7 18821 21.56600000 2686652853 2686652853 7.00000000
-0.22194523 -1.53639400 -0.19060366 76 8 18822 1.56400000 2686652855 2686652855 -7.00000000
-2.59441066 -17.93742943 2.87057233 45 9 18823 18.35000000 2686652857 2686652857 9.00000000
-0.22017817 -1.52228415 -0.13456847 102 10 18823 1.54400000 2686652860 2686652860 -5.00000000
-1.71525228 -11.84444618 2.32634330 12 11 18824 12.19200000 2686652862 2686652862 11.00000000
-0.21609032 -1.49034905 -0.07892262 102 12 18825 1.50800000 2686652864 2686652864 -3.00000000
-1.71311462 -11.80064201 2.75295091 53 13 18826 12.23800000 2686652866 2686652866 13.00000000
-1.46495068 -10.07881355 2.72898793 49 15 18827 10.54400000 2686652871 2686652871 15.00000000
-0.20563792 -1.40103638 -0.37942871 35 0 18835 1.46600000 2686652892 2686652892 -15.00000000
-0.22267309 -1.51159012 0.08007401 7 3 18838 1.53000000 2686652899 2686652899 3.00000000
-4.80340576 -32.56793213 2.88014865 49 5 18839 33.04600000 2686652903 2686652903 5.00000000
-0.22017816 -1.49104357 -0.23871899 78 6 18840 1.52600000 2686652906 2686652906 -9.00000000
-3.13092995 -21.17704010 2.62847805 40 7 18841 21.56800000 2686652908 2686652908 7.00000000
-0.22440015 -1.51597297 -0.18816626 43 8 18842 1.54400000 2686652910 2686652910 -7.00000000
-2.65845609 -17.93803406 2.87213683 45 9 18843 18.36000000 2686652913 2686652913 9.00000000
-0.22403017 -1.51165199 -0.13369691 100 10 18843 1.53400000 2686652915 2686652915 -5.00000000
-1.75773931 -11.84615421 2.32786965 12 11 18844 12.20000000 2686652917 2686652917 11.00000000
-0.22246526 -1.49748790 -0.07934131 99 12 18845 1.51600000 2686652919 2686652919 -3.00000000
-1.75458276 -11.79651737 2.75340080 51 13 18846 12.24000000 2686652922 2686652922 13.00000000
-1.50069249 -10.07746029 2.73002338 49 15 18847 10.54800000 2686652926 2686652926 15.00000000
-0.21101598 -1.40023649 -0.37942871 35 0 18857 1.46600000 2686652948 2686652948 -15.00000000
-0.23089670 -1.52853763 0.08101606 12 3 18859 1.54800000 2686652955 2686652955 3.00000000
-0.21812691 -1.44229698 -0.28354216 1 4 18860 1.48600000 2686652957 2686652957 -11.00000000
-4.81060266 -31.77112389 2.81129575 39 5 18861 32.25600000 2686652960 2686652960 5.00000000
-0.23182312 -1.52924836 -0.24497637 100 6 18862 1.56600000 2686652962 2686652962 -9.00000000
-3.21609282 -21.19037628 2.63164663 35 7 18863 21.59400000 2686652964 2686652964 7.00000000
-0.22693907 -1.49351192 -0.18548514 10 8 18864 1.52200000 2686652966 2686652966 -7.00000000
-2.72566819 -17.93793488 2.87370110 45 9 18864 18.37000000 2686652969 2686652969 9.00000000
-0.22773527 -1.49699247 -0.13247673 100 10 18865 1.52000000 2686652971 2686652971 -5.00000000
-1.80469024 -11.84902191 2.32977772 12 11 18866 12.21000000 2686652973 2686652973 11.00000000
-0.22761139 -1.49267387 -0.07913197 97 12 18867 1.51200000 2686652976 2686652976 -3.00000000
-1.79810047 -11.77813435 2.75070143 48 13 18868 12.22800000 2686652978 2686652978 13.00000000
-0.22478513 -1.47069418 -0.02596918 88 14 18869 1.48800000 2686652980 2686652980 -1.00000000
-1.54112732 -10.08308125 2.73312902 49 15 18869 10.56000000 2686652983 2686652983 15.00000000
-0.21413516 -1.38803577 -0.37632290 35 0 18877 1.45400000 2686653003 2686653003 -15.00000000
-0.23710862 -1.53162849 0.08122540 7 3 18880 1.55200000 2686653010 2686653010 3.00000000
-0.22135803 -1.42988586 -0.28125247 1 4 18880 1.47400000 2686653013 2686653013 -11.00000000
-4.87478733 -31.45289803 2.78462601 58 5 18881 31.95000000 2686653015 2686653015 5.00000000
-0.24321750 -1.56747019 -0.25123376 100 6 18882 1.60600000 2686653017 2686653017 -9.00000000
-3.29369807 -21.20255852 2.63457155 37 7 18883 21.61800000 2686653019 2686653019 7.00000000
-2.79321933 -17.93953514 2.87557840 49 9 18885 18.38200000 2686653024 2686653024 9.00000000
-0.22928105 -1.47256446 -0.13038500 100 10 18885 1.49600000 2686653026 2686653026 -5.00000000
-1.84906387 -11.86204910 2.33359408 9 11 18886 12.23000000 2686653029 2686653029 11.00000000
-0.23374431 -1.49779034 -0.07944598 100 12 18887 1.51800000 2686653031 2686653031 -3.00000000
-1.84070694 -11.78141308 2.75295091 53 13 18888 12.23800000 2686653033 2686653033 13.00000000
-0.23022647 -1.47187614 -0.02600409 100 14 18889 1.49000000 2686653036 2686653036 -1.00000000
-1.57747555 -10.07354832 2.73209381 49 15 18890 10.55600000 2686653038 2686653038 15.00000000
-0.21656932 -1.37201405 -0.37218177 37 0 18897 1.43800000 2686653059 2686653059 -15.00000000
-0.24312267 -1.53675199 0.08153942 7 3 18899 1.55800000 2686653066 2686653066 3.00000000
-0.22573368 -1.42522633 -0.28048924 1 4 18900 1.47000000 2686653068 2686653068 -11.00000000
-4.66223001 -29.40294838 2.60456228 28 5 18901 29.88400000 2686653070 2686653070 5.00000000
-0.24466144 -1.54124939 -0.24716645 79 6 18902 1.58000000 2686653072 2686653072 -9.00000000
-3.37267375 -21.22230148 2.63847136 37 7 18903 21.65000000 2686653075 2686653075 7.00000000
-0.24172682 -1.51933730 -0.18889748 11 8 18904 1.55000000 2686653077 2686653077 -7.00000000
-2.85830855 -17.94528198 2.87808132 45 9 18905 18.39800000 2686653079 2686653079 9.00000000
-0.23222609 -1.45798194 -0.12916481 100 10 18905 1.48200000 2686653082 2686653082 -5.00000000
-1.88860393 -11.84388924 2.33130431 9 11 18906 12.21800000 2686653084 2686653084 11.00000000
-0.23960084 -1.50090992 -0.07965533 100 12 18907 1.52200000 2686653086 2686653086 -3.00000000
-1.88366580 -11.78646278 2.75565052 50 13 18908 12.25000000 2686653089 2686653089 13.00000000
-0.23599473 -1.47501278 -0.02607390 100 14 18909 1.49400000 2686653091 2686653091 -1.00000000
-1.61087191 -10.06826115 2.73209381 49 15 18909 10.55600000 2686653093 2686653093 15.00000000
-0.22166510 -1.37315691 -0.37269944 39 0 18917 1.44000000 2686653114 2686653114 -15.00000000
-0.25103730 -1.55166698 0.08237679 3 3 18919 1.57400000 2686653121 2686653121 3.00000000
-0.23196281 -1.43218172 -0.28201568 1 4 18920 1.47800000 2686653123 2686653123 -11.00000000
-4.70456696 -29.01478767 2.57161736 27 5 18921 29.50600000 2686653125 2686653125 5.00000000
-0.24845739 -1.53063667 -0.24560212 100 6 18922 1.57000000 2686653128 2686653128 -9.00000000
-3.44736981 -21.21431732 2.63895869 37 7 18923 21.65400000 2686653130 2686653130 7.00000000
-2.92410731 -17.95469093 2.88121009 49 9 18925 18.41800000 2686653135 2686653135 9.00000000
-0.23859502 -1.46502841 -0.12986206 69 10 18925 1.49000000 2686653137 2686653137 -5.00000000
-1.92867172 -11.82947445 2.32977772 12 11 18926 12.21000000 2686653139 2686653139 11.00000000
-0.24065602 -1.47443914 -0.07829459 100 12 18927 1.49600000 2686653142 2686653142 -3.00000000
-1.92542529 -11.78366184 2.75655031 53 13 18928 12.25400000 2686653144 2686653144 13.00000000
-0.24178767 -1.47812688 -0.02614371 100 14 18929 1.49800000 2686653146 2686653146 -1.00000000
-1.64538324 -10.05876446 2.73105860 49 15 18929 10.55200000 2686653148 2686653148 15.00000000
-0.22660561 -1.37626600 -0.37373471 39 0 18935 1.44400000 2686653169 2686653169 -15.00000000
-4.79127645 -29.00458336 1.54066586 14 3 18938 29.43800000 2686653176 2686653176 3.00000000
-0.23710094 -1.43531990 -0.28277892 1 4 18938 1.48200000 2686653178 2686653178 -11.00000000
-4.79212046 -28.97824097 2.56970000 27 5 18939 29.48400000 2686653181 2686653181 5.00000000
-0.25229689 -1.52400196 -0.24466351 100 6 18940 1.56400000 2686653183 2686653183 -9.00000000
-3.51659584 -21.21904945 2.64090872 37 7 18941 21.67000000 2686653185 2686653185 7.00000000
-0.24887395 -1.50007582 -0.18670383 8 8 18942 1.53200000 2686653188 2686653188 -7.00000000
-2.97866011 -17.95373154 2.88246155 45 9 18942 18.42600000 2686653190 2686653190 9.00000000
-0.24384925 -1.46820259 -0.13021068 69 10 18943 1.49400000 2686653192 2686653192 -5.00000000
-1.96872354 -11.84078693 2.33321238 12 11 18944 12.22800000 2686653195 2686653195 11.00000000
-0.24495898 -1.47170568 -0.07818992 100 12 18945 1.49400000 2686653197 2686653197 -3.00000000
-1.96211493 -11.77563286 2.75610042 51 13 18946 12.25200000 2686653199 2686653199 13.00000000
-0.24577212 -1.47341514 -0.02607390 100 14 18947 1.49400000 2686653201 2686653201 -1.00000000
-1.68000293 -10.06087494 2.73312902 49 15 18948 10.56000000 2686653204 2686653204 15.00000000
-0.23269033 -1.38308704 -0.37580526 41 0 18955 1.45200000 2686653224 2686653224 -15.00000000
-4.88809681 -28.99247360 1.54087520 14 3 18957 29.44200000 2686653231 2686653231 3.00000000
-0.23884237 -1.41512477 -0.27896276 1 4 18958 1.46200000 2686653234 2686653234 -11.00000000
-4.89656353 -28.98098183 2.57144308 27 5 18959 29.50400000 2686653236 2686653236 5.00000000
-0.25794455 -1.52505970 -0.24497637 100 6 18960 1.56600000 2686653238 2686653238 -9.00000000
-3.59727073 -21.24579048 2.64578342 37 7 18961 21.71000000 2686653241 2686653241 7.00000000
-0.25709429 -1.51681256 -0.18889748 5 8 18962 1.55000000 2686653243 2686653243 -7.00000000
-3.04873967 -17.96801186 2.88652873 57 9 18963 18.45200000 2686653245 2686653245 9.00000000
-0.25163913 -1.48305690 -0.13160518 100 10 18963 1.51000000 2686653248 2686653248 -5.00000000
-2.01300240 -11.85126209 2.33664703 9 11 18964 12.24600000 2686653250 2686653250 11.00000000
-0.24674670 -1.45115161 -0.07714320 100 12 18965 1.47400000 2686653252 2686653252 -3.00000000
-2.00157261 -11.75910568 2.75385070 53 13 18966 12.24200000 2686653254 2686653254 13.00000000
-0.24957022 -1.46466315 -0.02593428 100 14 18967 1.48600000 2686653257 2686653257 -1.00000000
-1.71641099 -10.06256580 2.73519969 49 15 18968 10.56800000 2686653259 2686653259 15.00000000
-0.23481062 -1.36508977 -0.37114650 43 0 18976 1.43400000 2686653280 2686653280 -15.00000000
-4.99907637 -29.00191879 1.54234064 14 3 18978 29.47000000 2686653287 2686653287 3.00000000
-0.24402745 -1.41423988 -0.27896276 1 4 18979 1.46200000 2686653289 2686653289 -11.00000000
-5.00614262 -28.98247528 2.57318616 27 5 18980 29.52400000 2686653291 2686653291 5.00000000
-0.26555184 -1.53578305 -0.24685359 82 6 18981 1.57800000 2686653294 2686653294 -9.00000000
-3.67917895 -21.25593376 2.64870834 35 7 18982 21.73400000 2686653296 2686653296 7.00000000
-0.26265195 -1.51586008 -0.18889748 26 8 18983 1.55000000 2686653298 2686653298 -7.00000000
-3.10975504 -17.94752884 2.88496447 53 9 18983 18.44200000 2686653301 2686653301 9.00000000
-0.25673261 -1.48016155 -0.13143086 100 10 18984 1.50800000 2686653303 2686653303 -5.00000000
-2.05776930 -11.85154152 2.33817339 9 11 18985 12.25400000 2686653305 2686653305 11.00000000
-0.25274780 -1.45417297 -0.07735255 100 12 18986 1.47800000 2686653307 2686653307 -3.00000000
-2.04666257 -11.76321030 2.75655031 57 13 18987 12.25400000 2686653310 2686653310 13.00000000
-0.25768176 -1.47949886 -0.02621351 81 14 18988 1.50200000 2686653312 2686653312 -1.00000000
-1.75261700 -10.05240154 2.73416448 49 15 18989 10.56400000 2686653314 2686653314 15.00000000
-0.23823771 -1.35665095 -0.36907595 46 0 18996 1.42600000 2686653335 2686653335 -15.00000000
-5.10512733 -29.01183128 1.54380608 14 3 18998 29.49800000 2686653342 2686653342 3.00000000
-0.25509298 -1.44818223 -0.28583187 1 4 18999 1.49800000 2686653344 2686653344 -11.00000000
-5.10866356 -28.97267151 2.57388330 37 5 19000 29.53200000 2686653347 2686653347 5.00000000
-0.27091110 -1.53484678 -0.24685359 73 6 19001 1.57800000 2686653349 2686653349 -9.00000000
-3.75715280 -21.26446533 2.65138936 35 7 19002 21.75600000 2686653351 2686653351 7.00000000
-0.26794168 -1.51493394 -0.18889748 28 8 19003 1.55000000 2686653354 2686653354 -7.00000000
-3.17823315 -17.96963120 2.89028311 61 9 19003 18.47600000 2686653356 2686653356 9.00000000
-0.25981370 -1.46748507 -0.13038500 65 10 19004 1.49600000 2686653358 2686653358 -5.00000000
-2.09844112 -11.84042072 2.33741021 9 11 19005 12.25000000 2686653360 2686653360 11.00000000
-0.25921780 -1.46114814 -0.07777123 100 12 19006 1.48600000 2686653363 2686653363 -3.00000000
-2.08805227 -11.75791359 2.75700021 53 13 19007 12.25600000 2686653365 2686653365 13.00000000
-0.26284459 -1.47859037 -0.02621351 78 14 19008 1.50200000 2686653367 2686653367 -1.00000000
-1.78701890 -10.04241848 2.73312902 52 15 19009 10.56000000 2686653370 2686653370 15.00000000
-0.24365340 -1.35961413 -0.37011123 48 0 19016 1.43000000 2686653390 2686653390 -15.00000000
-5.20954323 -29.01152611 1.54474807 38 3 19018 29.51600000 2686653397 2686653397 3.00000000
-0.25111607 -1.39704347 -0.27590981 1 4 19019 1.44600000 2686653400 2686653400 -11.00000000
-5.21082449 -28.96054459 2.57440639 37 5 19020 29.53800000 2686653402 2686653402 5.00000000
-0.27416620 -1.52222717 -0.24497637 63 6 19021 1.56600000 2686653404 2686653404 -9.00000000
-3.83417439 -21.26684952 2.65333939 40 7 19022 21.77200000 2686653406 2686653406 7.00000000
-0.27428582 -1.51985002 -0.18962871 15 8 19023 1.55600000 2686653409 2686653409 -7.00000000
-3.24304461 -17.97009277 2.89216042 57 9 19023 18.48800000 2686653411 2686653411 9.00000000
-0.26776811 -1.48225451 -0.13177948 49 10 19024 1.51200000 2686653413 2686653413 -5.00000000
-2.14115667 -11.84075069 2.33893657 9 11 19025 12.25800000 2686653416 2686653416 11.00000000
-0.26680678 -1.47399163 -0.07850394 100 12 19026 1.50000000 2686653418 2686653418 -3.00000000
-2.13081932 -11.76014042 2.75924969 56 13 19027 12.26600000 2686653420 2686653420 13.00000000
-0.26514933 -1.46192312 -0.02593428 93 14 19028 1.48600000 2686653423 2686653423 -1.00000000
-1.82168996 -10.04404068 2.73519969 49 15 19028 10.56800000 2686653425 2686653425 15.00000000
-0.24839786 -1.35875535 -0.37011123 48 0 19036 1.43000000 2686653446 2686653446 -15.00000000
-5.31078100 -28.99316406 1.54474807 28 3 19038 29.51600000 2686653453 2686653453 3.00000000
-0.25988588 -1.41740012 -0.28010762 5 4 19039 1.46800000 2686653455 2686653455 -11.00000000
-5.31655979 -28.96765518 2.57667232 27 5 19040 29.56400000 2686653457 2686653457 5.00000000
-0.28233352 -1.53680372 -0.24747932 26 6 19041 1.58200000 2686653459 2686653459 -9.00000000
-3.91233563 -21.27481270 2.65602040 37 7 19042 21.79400000 2686653462 2686653462 7.00000000
-0.27851132 -1.51302648 -0.18889748 5 8 19043 1.55000000 2686653464 2686653464 -7.00000000
-3.31075859 -17.98586082 2.89654064 61 9 19043 18.51600000 2686653466 2686653466 9.00000000
-0.27871704 -1.51266122 -0.13456847 15 10 19044 1.54400000 2686653469 2686653469 -5.00000000
-2.18176341 -11.82934380 2.33817339 9 11 19045 12.25400000 2686653471 2686653471 11.00000000
-0.27013734 -1.46323097 -0.07798058 100 12 19046 1.49000000 2686653473 2686653473 -3.00000000
-2.17256522 -11.75646400 2.76014948 59 13 19047 12.27000000 2686653476 2686653476 13.00000000
-0.26915959 -1.45508969 -0.02582956 100 14 19048 1.48000000 2686653478 2686653478 -1.00000000
-1.85989785 -10.04489422 2.73727012 49 15 19049 10.57600000 2686653480 2686653480 15.00000000
-0.25337628 -1.35783577 -0.37011123 48 0 19057 1.43000000 2686653501 2686653501 -15.00000000
-5.42427158 -28.98433876 1.54537606 14 3 19060 29.52800000 2686653508 2686653508 3.00000000
-5.42819834 -28.97735023 2.57928705 37 5 19061 29.59400000 2686653512 2686653512 5.00000000
-0.28687215 -1.52993405 -0.24654071 19 6 19062 1.57600000 2686653515 2686653515 -9.00000000
-3.99614429 -21.29154587 2.65992022 37 7 19063 21.82600000 2686653517 2686653517 7.00000000
-0.28662062 -1.52565229 -0.19060366 1 8 19064 1.56400000 2686653519 2686653519 -7.00000000
-3.37519908 -17.96583939 2.89528918 61 9 19064 18.50800000 2686653522 2686653522 9.00000000
-2.22873712 -11.84056091 2.34198952 9 11 19066 12.27400000 2686653526 2686653526 11.00000000
-0.27697772 -1.47008193 -0.07839926 38 12 19067 1.49800000 2686653529 2686653529 -3.00000000
-2.21419573 -11.74076176 2.75834990 55 13 19068 12.26200000 2686653531 2686653531 13.00000000
-0.27560377 -1.45998836 -0.02593428 100 14 19069 1.48600000 2686653533 2686653533 -1.00000000
-1.89638317 -10.04593468 2.73934078 49 15 19069 10.58400000 2686653536 2686653536 15.00000000
-0.25594848 -1.34555614 -0.36700541 48 0 19077 1.41800000 2686653556 2686653556 -15.00000000
-5.52915525 -28.98484612 1.54642284 14 3 19080 29.54800000 2686653563 2686653563 3.00000000
-0.26891822 -1.40971863 -0.27896276 3 4 19080 1.46200000 2686653565 2686653565 -11.00000000
-5.53118372 -28.96800995 2.58015871 27 5 19081 29.60400000 2686653568 2686653568 5.00000000
-0.29777327 -1.55802715 -0.25123376 4 6 19082 1.60600000 2686653570 2686653570 -9.00000000
-4.07790136 -21.31646156 2.66479516 42 7 19083 21.86600000 2686653572 2686653572 7.00000000
-3.44251180 -17.96110916 2.89654064 61 9 19085 18.51600000 2686653577 2686653577 9.00000000
-0.27828285 -1.45192492 -0.12933913 5 10 19085 1.48400000 2686653579 2686653579 -5.00000000
-2.27227402 -11.84427834 2.34427929 9 11 19086 12.28600000 2686653582 2686653582 11.00000000
-2.25626850 -11.73870277 2.75969958 54 13 19088 12.26800000 2686653586 2686653586 13.00000000
-0.27994281 -1.45509005 -0.02586447 100 14 19089 1.48200000 2686653589 2686653589 -1.00000000
-1.93355584 -10.04081345 2.73985839 49 15 19090 10.58600000 2686653591 2686653591 15.00000000
-0.26137903 -1.34844768 -0.36804068 46 0 19097 1.42200000 2686653612 2686653612 -15.00000000
-5.63410854 -28.98497581 1.54746950 14 3 19100 29.56800000 2686653618 2686653618 3.00000000
-0.27496123 -1.41455293 -0.28010762 1 4 19100 1.46800000 2686653621 2686653621 -11.00000000
-5.63378906 -28.95634842 2.58085585 37 5 19101 29.61200000 2686653623 2686653623 5.00000000
-4.15684223 -21.32547760 2.66771984 44 7 19103 21.89000000 2686653628 2686653628 7.00000000
-0.28281954 -1.44957662 -0.18134159 1 8 19104 1.48800000 2686653630 2686653630 -7.00000000
-3.50205398 -17.94959450 2.89654064 61 9 19104 18.51600000 2686653632 2686653632 9.00000000
-0.28105810 -1.43921196 -0.12829325 5 10 19105 1.47200000 2686653635 2686653635 -5.00000000
-2.31435776 -11.84012794 2.34504247 9 11 19106 12.29000000 2686653637 2686653637 11.00000000
-0.28876796 -1.47595286 -0.07881795 2 12 19107 1.50600000 2686653639 2686653639 -3.00000000
-2.29910302 -11.74031734 2.76194906 59 13 19108 12.27800000 2686653642 2686653642 13.00000000
-0.28732818 -1.46587813 -0.02607390 100 14 19109 1.49400000 2686653644 2686653644 -1.00000000
-1.96498382 -10.02486706 2.73727012 49 15 19109 10.57600000 2686653646 2686653646 15.00000000
-0.26608440 -1.34752703 -0.36804068 48 0 19117 1.42200000 2686653667 2686653667 -15.00000000
-5.73990583 -28.98864174 1.54872561 14 3 19120 29.59200000 2686653674 2686653674 3.00000000
-0.27799061 -1.40395522 -0.27819952 3 4 19120 1.45800000 2686653676 2686653676 -11.00000000
-5.73986673 -28.96191406 2.58312201 27 5 19121 29.63800000 2686653678 2686653678 5.00000000
-4.23202991 -21.31473351 2.66820741 42 7 19123 21.89400000 2686653683 2686653683 7.00000000
-0.30180734 -1.51867318 -0.19011618 1 8 19124 1.56000000 2686653685 2686653685 -7.00000000
-3.57090211 -17.95213699 2.89904356 61 9 19125 18.53200000 2686653688 2686653688 9.00000000
-0.28841236 -1.44994676 -0.12933913 5 10 19125 1.48400000 2686653690 2686653690 -5.00000000
-2.35567331 -11.83197689 2.34504247 12 11 19126 12.29000000 2686653692 2686653692 11.00000000
-0.29860219 -1.49844086 -0.08007401 2 12 19127 1.53000000 2686653694 2686653694 -3.00000000
-2.34235740 -11.74368668 2.76464844 55 13 19128 12.29000000 2686653697 2686653697 13.00000000
-0.29009435 -1.45310020 -0.02586447 100 14 19129 1.48200000 2686653699 2686653699 -1.00000000
-2.00360632 -10.02707005 2.73985839 49 15 19130 10.58600000 2686653701 2686653701 15.00000000
-0.27269077 -1.35605967 -0.37062886 50 0 19137 1.43200000 2686653722 2686653722 -15.00000000
-9.41336060 -46.68506241 2.49590182 10 3 19140 47.69000000 2686653729 2686653729 3.00000000
-7.17828274 -35.56827545 3.17456079 41 5 19141 36.42400000 2686653734 2686653734 5.00000000
-0.29529834 -1.46188259 -0.23621604 1 6 19142 1.51000000 2686653736 2686653736 -9.00000000
-4.30168581 -21.27648163 2.66528249 42 7 19143 21.87000000 2686653738 2686653738 7.00000000
-0.29686975 -1.46702337 -0.18377897 1 8 19144 1.50800000 2686653741 2686653741 -7.00000000
-3.63589907 -17.96730232 2.90342379 57 9 19144 18.56000000 2686653743 2686653743 9.00000000
-0.29347184 -1.44893122 -0.12933913 7 10 19145 1.48400000 2686653745 2686653745 -5.00000000
-2.39891076 -11.83330250 2.34695053 12 11 19146 12.30000000 2686653747 2686653747 11.00000000
-0.28635567 -1.41126502 -0.07546845 2 12 19147 1.44200000 2686653750 2686653750 -3.00000000
-2.38178492 -11.72780037 2.76284885 57 13 19148 12.28200000 2686653752 2686653752 13.00000000
-0.29516485 -1.45207882 -0.02586447 100 14 19149 1.48200000 2686653754 2686653754 -1.00000000
-2.03800082 -10.02605057 2.74141121 49 15 19149 10.59200000 2686653757 2686653757 15.00000000
-0.27703518 -1.35320699 -0.37011123 48 0 19157 1.43000000 2686653777 2686653777 -15.00000000
-9.60678577 -46.80061340 2.50385690 10 3 19160 47.84200000 2686653784 2686653784 3.00000000
-7.30159330 -35.53909683 3.17421222 41 5 19161 36.42000000 2686653789 2686653789 5.00000000
-0.30039945 -1.46084297 -0.23621604 1 6 19162 1.51000000 2686653791 2686653791 -9.00000000
-4.37672853 -21.26522446 2.66577005 42 7 19163 21.87400000 2686653794 2686653794 7.00000000
-0.29558057 -1.43486989 -0.17987914 1 8 19164 1.47600000 2686653796 2686653796 -7.00000000
-3.70292473 -17.95965958 2.90436220 57 9 19165 18.56600000 2686653798 2686653798 9.00000000
-0.29893011 -1.44984937 -0.12951343 21 10 19165 1.48600000 2686653800 2686653800 -5.00000000
-2.44178915 -11.83254814 2.34847713 12 11 19166 12.30800000 2686653803 2686653803 11.00000000
-0.29249215 -1.41612482 -0.07578246 4 12 19167 1.44800000 2686653805 2686653805 -3.00000000
-2.42349720 -11.72323132 2.76374865 59 13 19168 12.28600000 2686653807 2686653807 13.00000000
-0.29942140 -1.44712317 -0.02579466 100 14 19169 1.47800000 2686653810 2686653810 -1.00000000
-2.07630134 -10.02608013 2.74348187 49 15 19170 10.60000000 2686653812 2686653812 15.00000000
-0.28049824 -1.34854722 -0.36907595 45 0 19175 1.42600000 2686653833 2686653833 -15.00000000
-9.74316502 -46.71936417 2.50113535 10 3 19178 47.79000000 2686653840 2686653840 3.00000000
-0.29298985 -1.40491307 -0.27896276 3 4 19178 1.46200000 2686653842 2686653842 -11.00000000
-4.51346636 -21.62359810 1.93259144 20 5 19179 22.17400000 2686653844 2686653844 5.00000000
-0.31145063 -1.49083018 -0.24122195 1 6 19180 1.54200000 2686653847 2686653847 -9.00000000
-4.45082664 -21.28634453 2.67015743 39 7 19181 21.91000000 2686653849 2686653849 7.00000000
-0.29886702 -1.42810524 -0.17914793 2 8 19182 1.47000000 2686653851 2686653851 -7.00000000
-3.75821900 -17.95826149 2.90592670 57 9 19182 18.57600000 2686653853 2686653853 9.00000000
-0.29980734 -1.43135238 -0.12794463 27 10 19183 1.46800000 2686653856 2686653856 -5.00000000
-2.48257542 -11.84211159 2.35191178 12 11 19184 12.32600000 2686653858 2686653858 11.00000000
-0.29775986 -1.41910827 -0.07599181 4 12 19185 1.45200000 2686653860 2686653860 -3.00000000
-2.46191669 -11.72318840 2.76554823 57 13 19186 12.29400000 2686653863 2686653863 13.00000000
-0.30232090 -1.43834758 -0.02565504 100 14 19187 1.47000000 2686653865 2686653865 -1.00000000
-2.10604024 -10.01987553 2.74348187 49 15 19187 10.60000000 2686653867 2686653867 15.00000000
-0.28480384 -1.34566987 -0.36855832 52 0 19195 1.42400000 2686653888 2686653888 -15.00000000
-4.55531216 -21.46790314 1.15013492 14 3 19198 21.97600000 2686653895 2686653895 3.00000000
-0.29789212 -1.40388179 -0.27896276 1 4 19198 1.46200000 2686653897 2686653897 -11.00000000
-4.52517843 -21.30757713 1.90574741 33 5 19199 21.86600000 2686653900 2686653900 5.00000000
-0.31008145 -1.45881855 -0.23621604 1 6 19200 1.51000000 2686653902 2686653902 -9.00000000
-4.50981951 -21.19883919 2.66113901 31 7 19201 21.83600000 2686653904 2686653904 7.00000000
-0.30757084 -1.44452739 -0.18134159 5 8 19202 1.48800000 2686653906 2686653906 -7.00000000
-3.82977796 -17.97141457 2.91030669 61 9 19203 18.60400000 2686653909 2686653909 9.00000000
-0.30438662 -1.42834854 -0.12777032 33 10 19203 1.46600000 2686653911 2686653911 -5.00000000
-2.52471614 -11.83721352 2.35267496 12 11 19204 12.33000000 2686653913 2686653913 11.00000000
-0.30646428 -1.43563950 -0.07693385 6 12 19205 1.47000000 2686653916 2686653916 -3.00000000
-2.50445199 -11.72214603 2.76734781 60 13 19206 12.30200000 2686653918 2686653918 13.00000000
-0.30817613 -1.44119453 -0.02572485 100 14 19207 1.47400000 2686653920 2686653920 -1.00000000
-2.14113355 -10.00453281 2.74141121 49 15 19208 10.59200000 2686653923 2686653923 15.00000000
-0.28996873 -1.34456646 -0.36855832 50 0 19217 1.42400000 2686653943 2686653943 -15.00000000
-4.55570793 -21.10664940 0.37690216 4 1 19218 21.59600000 2686653946 2686653946 1.00000000
-4.55287313 -21.05787086 1.12909591 10 3 19220 21.57400000 2686653950 2686653950 3.00000000
-0.30659953 -1.41807890 -0.28201568 1 4 19220 1.47800000 2686653953 2686653953 -11.00000000
-4.53321838 -20.94926453 1.87524295 26 5 19221 21.51600000 2686653955 2686653955 5.00000000
-0.30648196 -1.41514349 -0.22933292 1 6 19222 1.46600000 2686653957 2686653957 -9.00000000
-4.53567553 -20.92528152 2.62896538 20 7 19223 21.57200000 2686653959 2686653959 7.00000000
-0.31353599 -1.44527578 -0.18158533 5 8 19224 1.49000000 2686653962 2686653962 -7.00000000
-3.89813352 -17.96883965 2.91218400 57 9 19224 18.61600000 2686653964 2686653964 9.00000000
-0.30944607 -1.42522228 -0.12759601 52 10 19225 1.46400000 2686653966 2686653966 -5.00000000
-2.56973195 -11.82551384 2.35229325 12 11 19226 12.32800000 2686653969 2686653969 11.00000000
-0.31494564 -1.44811368 -0.07766656 4 12 19227 1.48400000 2686653971 2686653971 -3.00000000
-2.55027223 -11.71625137 2.76824760 59 13 19228 12.30600000 2686653973 2686653973 13.00000000
-0.31626156 -1.45172381 -0.02593428 52 14 19229 1.48600000 2686653976 2686653976 -1.00000000
-2.17861009 -10.00039291 2.74244666 49 15 19229 10.59600000 2686653978 2686653978 15.00000000
-0.29590189 -1.34920704 -0.37011123 48 0 19237 1.43000000 2686653999 2686653999 -15.00000000
-4.59077120 -20.91483116 0.37376073 36 1 19238 21.41600000 2686654001 2686654001 1.00000000
-4.60104704 -20.92676163 1.12292027 16 3 19240 21.45600000 2686654006 2686654006 3.00000000
-0.31407714 -1.42850482 -0.28430539 1 4 19240 1.49000000 2686654008 2686654008 -11.00000000
-4.59861040 -20.89828682 1.87210536 26 5 19241 21.48000000 2686654010 2686654010 5.00000000
-0.30802101 -1.39863193 -0.22682998 5 6 19242 1.45000000 2686654012 2686654012 -9.00000000
-4.60570002 -20.89575005 2.62725925 22 7 19243 21.55800000 2686654015 2686654015 7.00000000
-0.31515804 -1.42866457 -0.17963541 5 8 19244 1.47400000 2686654017 2686654017 -7.00000000
-3.96508813 -17.97441292 2.91531277 61 9 19244 18.63600000 2686654019 2686654019 9.00000000
-0.31398961 -1.42218781 -0.12742169 55 10 19245 1.46200000 2686654022 2686654022 -5.00000000
-2.61353660 -11.82797337 2.35458302 12 11 19246 12.34000000 2686654024 2686654024 11.00000000
-2.59283853 -11.71488857 2.77004719 56 13 19248 12.31400000 2686654029 2686654029 13.00000000
-0.32002968 -1.44475389 -0.02582956 13 14 19249 1.48000000 2686654031 2686654031 -1.00000000
-2.21434021 -9.99650002 2.74348187 49 15 19249 10.60000000 2686654033 2686654033 15.00000000
-0.30205482 -1.35576093 -0.37218177 45 0 19256 1.43800000 2686654054 2686654054 -15.00000000
-4.66619444 -20.92681694 0.37424940 22 1 19257 21.44400000 2686654056 2686654056 1.00000000
-4.66954660 -20.90748978 1.12271094 16 3 19259 21.45200000 2686654061 2686654061 3.00000000
-0.31025380 -1.38913453 -0.27667305 1 4 19259 1.45000000 2686654063 2686654063 -11.00000000
-4.67310190 -20.90625572 1.87419713 26 5 19260 21.50400000 2686654065 2686654065 5.00000000
-0.31265736 -1.39760280 -0.22682998 13 6 19261 1.45000000 2686654068 2686654068 -9.00000000
-4.67626858 -20.88617516 2.62799048 22 7 19262 21.56400000 2686654070 2686654070 7.00000000
-0.31685561 -1.41405225 -0.17792924 3 8 19263 1.46000000 2686654072 2686654072 -7.00000000
-4.02953529 -17.96817207 2.91656423 61 9 19264 18.64400000 2686654075 2686654075 9.00000000
-0.32393584 -1.44446802 -0.12951343 28 10 19264 1.48600000 2686654077 2686654077 -5.00000000
-2.65446496 -11.82690430 2.35610938 12 11 19265 12.34800000 2686654079 2686654079 11.00000000
-0.32260662 -1.43619287 -0.07714320 6 12 19266 1.47400000 2686654082 2686654082 -3.00000000
-2.62996244 -11.69862080 2.76824760 60 13 19267 12.30600000 2686654084 2686654084 13.00000000
-0.32174629 -1.43002820 -0.02558523 4 14 19268 1.46600000 2686654086 2686654086 -1.00000000
-2.25002193 -10.00041008 2.74658775 49 15 19268 10.61200000 2686654088 2686654088 15.00000000
-0.30721217 -1.35658240 -0.37269944 43 0 19276 1.44000000 2686654109 2686654109 -15.00000000
-4.74230862 -20.92405319 0.37449375 36 1 19277 21.45800000 2686654112 2686654112 1.00000000
-4.74736261 -20.91248894 1.12386227 13 3 19279 21.47400000 2686654116 2686654116 3.00000000
-0.31944710 -1.40718842 -0.28048924 1 4 19279 1.47000000 2686654118 2686654118 -11.00000000
-4.74649096 -20.89175797 1.87437141 26 5 19280 21.50600000 2686654121 2686654121 5.00000000
-0.31928590 -1.40420771 -0.22808145 5 6 19281 1.45800000 2686654123 2686654123 -9.00000000
-4.75355101 -20.88908005 2.63042784 25 7 19282 21.58400000 2686654125 2686654125 7.00000000
-0.32619771 -1.43229294 -0.18036664 2 8 19283 1.48000000 2686654128 2686654128 -7.00000000
-4.09223175 -17.95399857 2.91656423 57 9 19284 18.64400000 2686654130 2686654130 9.00000000
-0.32764769 -1.43750072 -0.12899050 55 10 19284 1.48000000 2686654132 2686654132 -5.00000000
-2.70140862 -11.84244919 2.36107039 12 11 19285 12.37400000 2686654135 2686654135 11.00000000
-0.32806244 -1.43700516 -0.07724787 6 12 19286 1.47600000 2686654137 2686654137 -3.00000000
-2.67251849 -11.69696903 2.77004719 60 13 19287 12.31400000 2686654139 2686654139 13.00000000
-0.32317004 -1.41330135 -0.02530599 1 14 19288 1.45000000 2686654141 2686654141 -1.00000000
-2.28450537 -9.98268032 2.74399948 49 15 19289 10.60200000 2686654144 2686654144 15.00000000
-0.31044787 -1.34791708 -0.37062886 43 0 19297 1.43200000 2686654165 2686654165 -15.00000000
-4.82031441 -20.91237831 0.37459844 22 1 19298 21.46400000 2686654167 2686654167 1.00000000
-4.82757282 -20.91051674 1.12469971 13 3 19300 21.49000000 2686654171 2686654171 3.00000000
-0.32106948 -1.39070463 -0.27743629 3 4 19300 1.45400000 2686654174 2686654174 -11.00000000
-4.82572269 -20.88586998 1.87541723 26 5 19301 21.51800000 2686654176 2686654176 5.00000000
-0.32443044 -1.40302801 -0.22808145 1 6 19302 1.45800000 2686654178 2686654178 -9.00000000
-4.83589983 -20.89665794 2.63359642 25 7 19303 21.61000000 2686654181 2686654181 7.00000000
-0.33592412 -1.45042670 -0.18280402 1 8 19304 1.50000000 2686654183 2686654183 -7.00000000
-4.15934706 -17.94465065 2.91750288 68 9 19305 18.65000000 2686654185 2686654185 9.00000000
-0.32886523 -1.41882181 -0.12742169 19 10 19305 1.46200000 2686654188 2686654188 -5.00000000
-2.74435163 -11.83055687 2.36068892 12 11 19306 12.37200000 2686654190 2686654190 11.00000000
-0.33739209 -1.45330274 -0.07818992 4 12 19307 1.49400000 2686654192 2686654192 -3.00000000
-2.71801829 -11.69848442 2.77274680 60 13 19308 12.32600000 2686654194 2686654194 13.00000000
-0.33378261 -1.43548024 -0.02572485 1 14 19309 1.47400000 2686654197 2686654197 -1.00000000
-2.31977510 -9.97652626 2.74451709 49 15 19309 10.60400000 2686654199 2686654199 15.00000000
-0.31559125 -1.34870625 -0.37114650 35 0 19317 1.43400000 2686654220 2686654220 -15.00000000
-4.89373875 -20.89737129 0.37463334 18 1 19318 21.46600000 2686654222 2686654222 1.00000000
-4.90509558 -20.91298294 1.12574637 13 3 19320 21.51000000 2686654227 2686654227 3.00000000
-0.32592198 -1.38957548 -0.27743629 3 4 19320 1.45400000 2686654229 2686654229 -11.00000000
-4.90315151 -20.88829422 1.87716043 26 5 19321 21.53800000 2686654231 2686654231 5.00000000
-0.34107146 -1.45188570 -0.23621604 1 6 19322 1.51000000 2686654234 2686654234 -9.00000000
-4.90790462 -20.87578583 2.63310909 22 7 19323 21.60600000 2686654236 2686654236 7.00000000
-0.34007573 -1.44538069 -0.18231654 1 8 19324 1.49600000 2686654238 2686654238 -7.00000000
-4.22467661 -17.94156075 2.91937995 68 9 19325 18.66200000 2686654241 2686654241 9.00000000
-0.33701244 -1.43124068 -0.12864187 11 10 19325 1.47600000 2686654243 2686654243 -5.00000000
-2.78518081 -11.81899357 2.36030722 18 11 19326 12.37000000 2686654245 2686654245 11.00000000
-0.33375242 -1.41518152 -0.07620116 2 12 19327 1.45600000 2686654247 2686654247 -3.00000000
-2.75973225 -11.69271851 2.77364659 60 13 19328 12.33000000 2686654250 2686654250 13.00000000
-0.34706575 -1.46933687 -0.02635313 1 14 19329 1.51000000 2686654252 2686654252 -1.00000000
-2.35547376 -9.97212887 2.74555254 49 15 19329 10.60800000 2686654254 2686654254 15.00000000
-0.32565781 -1.37015033 -0.37735817 33 0 19337 1.45800000 2686654275 2686654275 -15.00000000
-4.97452116 -20.91323280 0.37522674 18 1 19338 21.50000000 2686654277 2686654277 1.00000000
-4.97996902 -20.91991615 1.12700248 13 3 19339 21.53400000 2686654282 2686654282 3.00000000
-4.98065615 -20.89043236 1.87890351 26 5 19341 21.55800000 2686654287 2686654287 5.00000000
-0.34063590 -1.42762911 -0.23246162 1 6 19342 1.48600000 2686654289 2686654289 -9.00000000
-4.98489428 -20.87590408 2.63530278 25 7 19343 21.62400000 2686654291 2686654291 7.00000000
-0.35250118 -1.47507644 -0.18621635 1 8 19344 1.52800000 2686654293 2686654293 -7.00000000
-4.28369045 -17.92553139 2.91906714 68 9 19344 18.66000000 2686654296 2686654296 9.00000000
-0.34339663 -1.43586886 -0.12916481 15 10 19345 1.48200000 2686654298 2686654298 -5.00000000
-2.82916188 -11.82065582 2.36259699 18 11 19346 12.38200000 2686654300 2686654300 11.00000000
-0.34287742 -1.43148875 -0.07714320 2 12 19347 1.47400000 2686654303 2686654303 -3.00000000
-2.80143905 -11.68680382 2.77454638 62 13 19348 12.33400000 2686654305 2686654305 13.00000000
-0.35499147 -1.47978365 -0.02656256 1 14 19349 1.52200000 2686654307 2686654307 -1.00000000
-2.39207125 -9.97136021 2.74762297 49 15 19349 10.61600000 2686654310 2686654310 15.00000000
-0.33225164 -1.37651682 -0.37942871 24 0 19357 1.46600000 2686654330 2686654330 -15.00000000
-5.04890060 -20.90157318 0.37533146 27 1 19358 21.50600000 2686654333 2686654333 1.00000000
-5.05661106 -20.90152359 1.12700248 13 3 19360 21.53400000 2686654337 2686654337 3.00000000
-0.34115475 -1.41016471 -0.28201568 3 4 19360 1.47800000 2686654340 2686654340 -11.00000000
-5.05682898 -20.88647461 1.88012373 26 5 19361 21.57200000 2686654342 2686654342 5.00000000
-0.35119915 -1.44946921 -0.23621604 1 6 19362 1.51000000 2686654344 2686654344 -9.00000000
-5.06288004 -20.87959862 2.63798380 27 7 19363 21.64600000 2686654346 2686654346 7.00000000
-0.34828550 -1.43525481 -0.18134159 1 8 19364 1.48800000 2686654349 2686654349 -7.00000000
-4.34982824 -17.91162872 2.91937995 76 9 19365 18.66200000 2686654351 2686654351 9.00000000
-0.35122776 -1.44627810 -0.13021068 18 10 19365 1.49400000 2686654353 2686654353 -5.00000000
-2.87411547 -11.82596970 2.36564994 18 11 19366 12.39800000 2686654356 2686654356 11.00000000
-2.84313846 -11.68074131 2.77544618 59 13 19368 12.33800000 2686654360 2686654360 13.00000000
-0.36394083 -1.49407852 -0.02684180 8 14 19369 1.53800000 2686654363 2686654363 -1.00000000
-2.42997456 -9.96815586 2.74917579 49 15 19370 10.62200000 2686654365 2686654365 15.00000000
-0.33705455 -1.37534869 -0.37942871 22 0 19377 1.46600000 2686654386 2686654386 -15.00000000
-5.12706900 -20.90518570 0.37571540 27 1 19378 21.52800000 2686654388 2686654388 1.00000000
-5.13017988 -20.90209770 1.12794447 14 3 19379 21.55200000 2686654393 2686654393 3.00000000
-0.34747997 -1.41468501 -0.28316054 1 4 19380 1.48400000 2686654395 2686654395 -11.00000000
-5.13493681 -20.88997841 1.88204110 26 5 19381 21.59400000 2686654397 2686654397 5.00000000
-0.35625660 -1.44823456 -0.23621604 1 6 19382 1.51000000 2686654399 2686654399 -9.00000000
-5.13763094 -20.86950874 2.63895869 25 7 19383 21.65400000 2686654402 2686654402 7.00000000
-0.35329336 -1.43403029 -0.18134159 1 8 19384 1.48800000 2686654404 2686654404 -7.00000000
-4.41185236 -17.89441872 2.91906714 76 9 19385 18.66000000 2686654406 2686654406 9.00000000
-0.35579714 -1.44310880 -0.13003637 15 10 19385 1.49200000 2686654409 2686654409 -5.00000000
-2.91631889 -11.81967735 2.36641312 21 11 19386 12.40200000 2686654411 2686654411 11.00000000
-2.88389444 -11.67074490 2.77544618 59 13 19388 12.33800000 2686654416 2686654416 13.00000000
-0.36531356 -1.47726929 -0.02656256 8 14 19389 1.52200000 2686654418 2686654418 -1.00000000
-2.46301675 -9.96004295 2.74917579 49 15 19389 10.62200000 2686654420 2686654420 15.00000000
-0.34418526 -1.38353729 -0.38201690 21 0 19397 1.47600000 2686654441 2686654441 -15.00000000
-5.20629072 -20.91238785 0.37616917 18 1 19398 21.55400000 2686654443 2686654443 1.00000000
-5.20890427 -20.90732002 1.12920058 17 3 19399 21.57600000 2686654448 2686654448 3.00000000
-0.37663868 -1.51061535 -0.30262306 1 4 19400 1.58600000 2686654450 2686654450 -11.00000000
-5.21071911 -20.88352585 1.88308692 26 5 19401 21.60600000 2686654452 2686654452 5.00000000
-0.36896661 -1.47764671 -0.24122195 1 6 19402 1.54200000 2686654455 2686654455 -9.00000000
-5.21718502 -20.87840843 2.64237118 22 7 19403 21.68200000 2686654457 2686654457 7.00000000
-0.35829690 -1.43278837 -0.18134159 1 8 19404 1.48800000 2686654459 2686654459 -7.00000000
-4.47524738 -17.88274193 2.91969275 76 9 19405 18.66400000 2686654462 2686654462 9.00000000
-2.96137500 -11.82466125 2.36946607 18 11 19406 12.41800000 2686654466 2686654466 11.00000000
-2.92840815 -11.67572880 2.77904534 62 13 19408 12.35400000 2686654471 2686654471 13.00000000
-3.95831156 -15.77034760 -0.28381103 2 14 19409 16.26200000 2686654473 2686654473 -1.00000000
-2.49588752 -9.94389057 2.74710536 47 15 19409 10.61400000 2686654475 2686654475 15.00000000
-0.35325268 -1.40118158 -0.38719329 19 0 19415 1.49600000 2686654496 2686654496 -15.00000000
-5.27196312 -20.89592743 0.37616917 18 1 19416 21.55400000 2686654498 2686654498 1.00000000
-5.28407812 -20.91316795 1.13045669 14 3 19418 21.60000000 2686654503 2686654503 3.00000000
-0.43139994 -1.70738196 -0.34231135 1 4 19418 1.79400000 2686654505 2686654505 -11.00000000
-5.27923155 -20.87864113 1.88413286 26 5 19419 21.61800000 2686654508 2686654508 5.00000000
-0.38329843 -1.51478064 -0.24747932 1 6 19420 1.58200000 2686654510 2686654510 -9.00000000
-5.28713655 -20.87923622 2.64456487 27 7 19421 21.70000000 2686654512 2686654512 7.00000000
-0.37059844 -1.46244395 -0.18524140 1 8 19422 1.52000000 2686654515 2686654515 -7.00000000
-4.50596571 -17.78130150 2.90530086 74 9 19422 18.57200000 2686654517 2686654517 9.00000000
-0.37025788 -1.46002984 -0.13177948 2 10 19423 1.51200000 2686654519 2686654519 -5.00000000
-2.99850869 -11.81529903 2.36946607 18 11 19424 12.41800000 2686654522 2686654522 11.00000000
-0.39379716 -1.55058002 -0.08384220 1 12 19425 1.60200000 2686654524 2686654524 -3.00000000
-2.96891403 -11.68158150 2.78264451 57 13 19426 12.37000000 2686654526 2686654526 13.00000000
-4.00241375 -15.73651695 -0.28342709 2 14 19427 16.24000000 2686654528 2686654528 -1.00000000
-2.53170800 -9.94679165 2.75021124 49 15 19428 10.62600000 2686654531 2686654531 15.00000000
-0.37059033 -1.44860101 -0.40065187 24 0 19435 1.54800000 2686654551 2686654551 -15.00000000
-5.35131884 -20.90258217 0.37662295 18 1 19436 21.58000000 2686654554 2686654554 1.00000000
-0.41109705 -1.60460484 -0.38241678 100 2 19437 1.70000000 2686654556 2686654556 -13.00000000
-5.35736513 -20.91100883 1.13129401 14 3 19437 21.61600000 2686654558 2686654558 3.00000000
-0.45149696 -1.76101625 -0.35337827 6 4 19438 1.85200000 2686654561 2686654561 -11.00000000
-5.35752583 -20.88131523 1.88605022 26 5 19439 21.64000000 2686654563 2686654563 5.00000000
-0.39546123 -1.54021990 -0.25185949 1 6 19440 1.61000000 2686654565 2686654565 -9.00000000
-5.36146832 -20.86642075 2.64529586 30 7 19441 21.70600000 2686654568 2686654568 7.00000000
-4.50711393 -17.51596832 2.86462784 78 9 19443 18.31200000 2686654572 2686654572 9.00000000
-0.37634507 -1.46258759 -0.13212810 2 10 19443 1.51600000 2686654575 2686654575 -5.00000000
-3.04022312 -11.80666161 2.36984777 21 11 19444 12.42000000 2686654577 2686654577 11.00000000
-3.00869918 -11.66737270 2.78174472 59 13 19446 12.36600000 2686654581 2686654581 13.00000000
-4.05831957 -15.72632217 -0.28349689 7 14 19447 16.24400000 2686654584 2686654584 -1.00000000
-2.56689644 -9.93976402 2.75072885 49 15 19448 10.62800000 2686654586 2686654586 15.00000000
-0.40088177 -1.54453313 -0.42756906 33 0 19455 1.65200000 2686654607 2686654607 -15.00000000
-5.43028259 -20.90700150 0.37704179 36 1 19456 21.60400000 2686654609 2686654609 1.00000000
-0.41816637 -1.60881829 -0.38376650 82 2 19457 1.70600000 2686654611 2686654611 -13.00000000
-5.43183279 -20.89797974 1.13160801 17 3 19457 21.62200000 2686654614 2686654614 3.00000000
-0.45615867 -1.75372946 -0.35223341 20 4 19458 1.84600000 2686654616 2686654616 -11.00000000
-5.43941641 -20.89719391 1.88918793 26 5 19459 21.67600000 2686654618 2686654618 5.00000000
-0.41726696 -1.60191250 -0.26218417 1 6 19460 1.67600000 2686654621 2686654621 -9.00000000
-5.44028187 -20.87062836 2.64822078 25 7 19461 21.73000000 2686654623 2686654623 7.00000000
-0.42288744 -1.62116981 -0.20571545 1 8 19462 1.68800000 2686654625 2686654625 -7.00000000
-4.49636745 -17.23715210 2.82145190 78 9 19462 18.03600000 2686654628 2686654628 9.00000000
-0.38044170 -1.45740938 -0.13177948 2 10 19463 1.51200000 2686654630 2686654630 -5.00000000
-3.08489084 -11.80927467 2.37251902 21 11 19464 12.43400000 2686654632 2686654632 11.00000000
