# .PCD v0.7 - Point Cloud Data file format
VERSION 0.7
FIELDS x y z intensity laser_id azimuth distance_m adjustedtime timestamp vertical_angle
SIZE 4 4 4 1 1 2 8 8 4 8
TYPE F F F U U U F U U F
COUNT 1 1 1 1 1 1 1 1 1 1
WIDTH 525
HEIGHT 1
VIEWPOINT 0 0 0 1 0 0 0
POINTS 525
DATA ascii
-1.92764306 0.40867838 -0.52799088 4 0 28197 2.04000000 2686578796 2686578796 -15.00000000
-4.16071463 0.88286930 0.07424254 5 1 28198 4.25400000 2686578798 2686578798 1.00000000
-4.06598043 0.86350912 -0.95964122 5 2 28199 4.26600000 2686578800 2686578800 -13.00000000
-4.18870401 0.88957250 0.22441658 14 3 28199 4.28800000 2686578803 2686578803 3.00000000
-2.60591841 0.55390507 -0.51785558 3 4 28200 2.71400000 2686578805 2686578805 -11.00000000
-4.86220264 1.03438008 0.43490717 9 5 28201 4.99000000 2686578807 2686578807 5.00000000
-3.11642313 0.66355330 -0.50465757 3 6 28202 3.22600000 2686578810 2686578810 -9.00000000
-3.91391206 0.83478403 -0.49137720 6 8 28204 4.03200000 2686578814 2686578814 -7.00000000
-15.59389973 3.32881141 2.52547789 48 9 28205 16.14400000 2686578817 2686578817 9.00000000
-5.22584677 1.11555529 -0.46750340 6 10 28205 5.36400000 2686578819 2686578819 -5.00000000
-12.38735008 2.64657354 2.46219921 46 11 28206 12.90400000 2686578821 2686578821 11.00000000
-4.13277102 0.88372624 -0.22148576 12 12 28207 4.23200000 2686578824 2686578824 -3.00000000
-11.70030975 2.50405741 2.76239896 53 13 28208 12.28000000 2686578826 2686578826 13.00000000
-4.06906605 0.87158942 -0.07263692 100 14 28209 4.16200000 2686578828 2686578828 -1.00000000
-8.27194309 1.77184093 2.26673722 9 15 28209 8.75800000 2686578830 2686578830 15.00000000
-1.94123912 0.41900152 -0.53213197 4 0 28218 2.05600000 2686578851 2686578851 -15.00000000
-4.14181376 0.89473522 0.07396330 5 1 28219 4.23800000 2686578853 2686578853 1.00000000
-4.07040691 0.88005316 -0.96144080 5 2 28220 4.27400000 2686578856 2686578856 -13.00000000
-4.17549706 0.90353727 0.22389323 14 3 28221 4.27800000 2686578858 2686578858 3.00000000
-2.60003304 0.56262207 -0.51709241 3 4 28221 2.71000000 2686578860 2686578860 -11.00000000
-4.87006235 1.05472434 0.43595302 9 5 28222 5.00200000 2686578863 2686578863 5.00000000
-3.12169242 0.67664492 -0.50590909 3 6 28223 3.23400000 2686578865 2686578865 -9.00000000
-3.91858578 0.85080838 -0.49235216 6 8 28225 4.04000000 2686578870 2686578870 -7.00000000
-15.58604622 3.38406229 2.52610373 40 9 28225 16.14800000 2686578872 2686578872 9.00000000
-5.23729849 1.13808620 -0.46889791 6 10 28226 5.38000000 2686578874 2686578874 -5.00000000
-12.39866924 2.69654727 2.46639705 50 11 28227 12.92600000 2686578877 2686578877 11.00000000
-4.12169790 0.89716846 -0.22106709 10 12 28228 4.22400000 2686578879 2686578879 -3.00000000
-11.68153286 2.54485035 2.76014948 50 13 28229 12.27000000 2686578881 2686578881 13.00000000
-4.06193686 0.88564545 -0.07256711 100 14 28230 4.15800000 2686578883 2686578883 -1.00000000
-9.86751175 2.15326953 2.70621204 38 15 28231 10.45600000 2686578886 2686578886 15.00000000
-1.92278230 0.42204756 -0.52747321 4 0 28238 2.03800000 2686578906 2686578906 -15.00000000
-4.14452505 0.91047460 0.07406801 7 1 28239 4.24400000 2686578909 2686578909 1.00000000
-4.07301998 0.89551157 -0.96279049 5 2 28240 4.28000000 2686578911 2686578911 -13.00000000
-4.17247772 0.91737878 0.22389323 14 3 28240 4.27800000 2686578913 2686578913 3.00000000
-2.59805322 0.57169443 -0.51709241 3 4 28241 2.71000000 2686578916 2686578916 -11.00000000
-4.85467625 1.06914651 0.43490717 9 5 28242 4.99000000 2686578918 2686578918 5.00000000
-3.12316966 0.68838793 -0.50653481 3 6 28243 3.23800000 2686578920 2686578920 -9.00000000
-3.92722249 0.86704940 -0.49381459 6 8 28245 4.05200000 2686578925 2686578925 -7.00000000
-5.21773005 1.15292180 -0.46750340 9 10 28246 5.36400000 2686578930 2686578930 -5.00000000
-12.41218376 2.74489737 2.47097659 53 11 28247 12.95000000 2686578932 2686578932 11.00000000
-4.12829161 0.91370845 -0.22159044 8 12 28248 4.23400000 2686578934 2686578934 -3.00000000
-11.66116238 2.58308244 2.75745010 51 13 28249 12.25800000 2686578936 2686578936 13.00000000
-4.05491590 0.89895320 -0.07249729 100 14 28250 4.15400000 2686578939 2686578939 -1.00000000
-9.85239124 2.18602657 2.70414138 45 15 28251 10.44800000 2686578941 2686578941 15.00000000
-1.91564095 0.42749444 -0.52592027 4 0 28258 2.03200000 2686578962 2686578962 -15.00000000
-4.12570858 0.92144907 0.07378878 13 1 28259 4.22800000 2686578964 2686578964 1.00000000
-4.06606579 0.90887338 -0.96189070 5 2 28260 4.27600000 2686578966 2686578966 -13.00000000
-4.17314863 0.93280923 0.22410257 14 3 28260 4.28200000 2686578969 2686578969 3.00000000
-2.59987378 0.58161706 -0.51785558 3 4 28261 2.71400000 2686578971 2686578971 -11.00000000
-4.83341646 1.08216822 0.43333834 9 5 28262 4.97200000 2686578973 2686578973 5.00000000
-3.10532713 0.69583023 -0.50403184 3 6 28263 3.22200000 2686578976 2686578976 -9.00000000
-3.92998266 0.88205683 -0.49454579 4 8 28265 4.05800000 2686578980 2686578980 -7.00000000
-12.69403076 2.84908533 2.06055474 6 9 28265 13.17200000 2686578983 2686578983 9.00000000
-5.23505735 1.17593133 -0.46942082 10 10 28266 5.38600000 2686578985 2686578985 -5.00000000
-12.39678097 2.78691530 2.46983171 50 11 28267 12.94400000 2686578987 2686578987 11.00000000
-4.12702560 0.92855167 -0.22169511 8 12 28268 4.23600000 2686578989 2686578989 -3.00000000
-11.65587711 2.62462783 2.75834990 51 13 28269 12.26200000 2686578992 2686578992 13.00000000
-4.05175352 0.91310203 -0.07249729 100 14 28270 4.15400000 2686578994 2686578994 -1.00000000
-9.84281635 2.21997952 2.70362377 42 15 28271 10.44600000 2686578996 2686578996 15.00000000
-1.92167306 0.43588805 -0.52799088 4 0 28278 2.04000000 2686579017 2686579017 -15.00000000
-4.09906578 0.93053263 0.07336992 7 1 28279 4.20400000 2686579019 2686579019 1.00000000
-4.05906773 0.92219758 -0.96099091 12 2 28280 4.27200000 2686579022 2686579022 -13.00000000
-4.17181444 0.94781303 0.22420724 12 3 28280 4.28400000 2686579024 2686579024 3.00000000
-2.59782767 0.59068877 -0.51785558 3 4 28281 2.71400000 2686579026 2686579026 -11.00000000
-4.83738041 1.10080171 0.43403560 9 5 28282 4.98000000 2686579029 2686579029 5.00000000
-3.12599206 0.71192938 -0.50778627 3 6 28283 3.24600000 2686579031 2686579031 -9.00000000
-3.92494440 0.89532816 -0.49430206 4 8 28285 4.05600000 2686579036 2686579036 -7.00000000
-12.47601032 2.84593153 2.02676487 6 9 28285 12.95600000 2686579038 2686579038 9.00000000
-5.22120857 1.19198072 -0.46854928 9 10 28286 5.37600000 2686579040 2686579040 -5.00000000
-12.37357903 2.82711029 2.46716022 53 11 28287 12.93000000 2686579042 2686579042 11.00000000
-4.11791801 0.94161642 -0.22138110 8 12 28288 4.23000000 2686579045 2686579045 -3.00000000
-11.65234375 2.66660261 2.75969958 55 13 28289 12.26800000 2686579047 2686579047 13.00000000
-4.05243969 0.92813259 -0.07256711 100 14 28290 4.15800000 2686579049 2686579049 -1.00000000
-9.83500671 2.25432396 2.70362377 42 15 28291 10.44600000 2686579052 2686579052 15.00000000
-1.92202234 0.44302720 -0.52850848 4 0 28298 2.04200000 2686579072 2686579072 -15.00000000
-4.09774113 0.94528484 0.07340482 17 1 28299 4.20600000 2686579075 2686579075 1.00000000
-4.04822874 0.93460727 -0.95919132 17 2 28300 4.26400000 2686579077 2686579077 -13.00000000
-4.16458845 0.96147102 0.22399789 12 3 28300 4.28000000 2686579079 2686579079 3.00000000
-2.60148859 0.60107923 -0.51900047 3 4 28301 2.72000000 2686579082 2686579082 -11.00000000
-4.84321404 1.11992490 0.43490717 9 5 28302 4.99000000 2686579084 2686579084 5.00000000
-3.11578965 0.72105533 -0.50653481 3 6 28303 3.23800000 2686579086 2686579086 -9.00000000
-3.91405988 0.90723038 -0.49332711 4 8 28305 4.04800000 2686579091 2686579091 -7.00000000
-12.24854755 2.83906078 1.99141073 10 9 28305 12.73000000 2686579093 2686579093 9.00000000
-5.22866106 1.21290028 -0.46959513 10 10 28306 5.38800000 2686579095 2686579095 -5.00000000
-12.25271702 2.84453440 2.44502640 15 11 28307 12.81400000 2686579098 2686579098 11.00000000
-4.11266088 0.95553291 -0.22127642 6 12 28308 4.22800000 2686579100 2686579100 -3.00000000
-11.62777996 2.70372987 2.75610042 52 13 28309 12.25200000 2686579102 2686579102 13.00000000
-4.05696583 0.94408554 -0.07270672 100 14 28310 4.16600000 2686579105 2686579105 -1.00000000
-9.84629250 2.29130411 2.70880008 45 15 28310 10.46600000 2686579107 2686579107 15.00000000
-1.93174994 0.45237651 -0.53161430 4 0 28318 2.05400000 2686579128 2686579128 -15.00000000
-4.09636354 0.96003920 0.07343972 19 1 28319 4.20800000 2686579130 2686579130 1.00000000
-4.04494190 0.94873255 -0.95919132 16 2 28320 4.26400000 2686579132 2686579132 -13.00000000
-4.14953995 0.97326583 0.22336987 10 3 28320 4.26800000 2686579135 2686579135 3.00000000
-2.60893106 0.61239964 -0.52090853 3 4 28321 2.73000000 2686579137 2686579137 -11.00000000
-4.84315443 1.13773537 0.43525577 9 5 28322 4.99400000 2686579139 2686579139 5.00000000
-3.10171604 0.72921455 -0.50465757 3 6 28323 3.22600000 2686579141 2686579141 -9.00000000
-3.91473389 0.92179745 -0.49381459 4 8 28325 4.05200000 2686579146 2686579146 -7.00000000
-12.19241619 2.87093282 1.98390186 40 9 28325 12.68200000 2686579148 2686579148 9.00000000
-5.23603106 1.23388624 -0.47064102 10 10 28326 5.40000000 2686579151 2686579151 -5.00000000
-12.19494152 2.87602091 2.43548608 68 11 28327 12.76400000 2686579153 2686579153 11.00000000
-4.09763718 0.96713018 -0.22064839 12 12 28328 4.21600000 2686579155 2686579155 -3.00000000
-11.60689163 2.74161410 2.75340080 55 13 28329 12.24000000 2686579158 2686579158 13.00000000
-4.03807735 0.95456100 -0.07242749 100 14 28330 4.15000000 2686579160 2686579160 -1.00000000
-9.83782864 2.32737732 2.70880008 45 15 28331 10.46600000 2686579162 2686579162 15.00000000
-1.91324437 0.45509338 -0.52695560 4 0 28338 2.03600000 2686579183 2686579183 -15.00000000
-4.09493303 0.97479540 0.07347463 19 1 28339 4.21000000 2686579185 2686579185 1.00000000
-4.04350138 0.96329784 -0.95964122 15 2 28340 4.26600000 2686579188 2686579188 -13.00000000
-4.14983082 0.98939455 0.22357920 8 3 28341 4.27200000 2686579190 2686579190 3.00000000
-2.59149957 0.61786026 -0.51785558 3 4 28341 2.71400000 2686579192 2686579192 -11.00000000
-4.84109163 1.15509665 0.43543008 9 5 28342 4.99600000 2686579194 2686579194 5.00000000
-3.11452270 0.74370748 -0.50716054 3 6 28343 3.24200000 2686579197 2686579197 -9.00000000
-3.92307615 0.93822718 -0.49527702 4 8 28345 4.06400000 2686579201 2686579201 -7.00000000
-12.18039894 2.91301537 1.98358905 64 9 28345 12.68000000 2686579204 2686579204 9.00000000
-5.22200394 1.24983704 -0.46976945 10 10 28346 5.39000000 2686579206 2686579206 -5.00000000
-12.18291950 2.91811442 2.43510437 71 11 28347 12.76200000 2686579208 2686579208 11.00000000
-4.10200500 0.98329002 -0.22106709 16 12 28348 4.22400000 2686579211 2686579211 -3.00000000
-11.53850651 2.76802063 2.73945403 59 13 28349 12.17800000 2686579213 2686579213 13.00000000
-4.02694273 0.96678340 -0.07228786 100 14 28350 4.14200000 2686579215 2686579215 -1.00000000
-9.83005714 2.35998774 2.70880008 45 15 28350 10.46600000 2686579218 2686579218 15.00000000
-1.91727757 0.46312991 -0.52850848 4 0 28358 2.04200000 2686579238 2686579238 -15.00000000
-4.08567429 0.98767382 0.07336992 21 1 28359 4.20400000 2686579241 2686579241 1.00000000
-4.05526686 0.98107231 -0.96324039 15 2 28360 4.28200000 2686579243 2686579243 -13.00000000
-4.15217543 1.00528407 0.22389323 10 3 28361 4.27800000 2686579245 2686579245 3.00000000
-2.60077596 0.62967438 -0.52014530 3 4 28361 2.72600000 2686579247 2686579247 -11.00000000
-4.82153940 1.16823483 0.43403560 9 5 28362 4.98000000 2686579250 2686579250 5.00000000
-3.12342620 0.75736767 -0.50903773 3 6 28363 3.25400000 2686579252 2686579252 -9.00000000
-3.92942238 0.95425785 -0.49649569 4 8 28365 4.07400000 2686579257 2686579257 -7.00000000
-12.18883514 2.96230412 1.98671770 91 9 28366 12.70000000 2686579259 2686579259 9.00000000
-5.21760941 1.26805770 -0.46976945 10 10 28366 5.39000000 2686579261 2686579261 -5.00000000
-12.19173527 2.96526265 2.43892050 90 11 28367 12.78200000 2686579264 2686579264 11.00000000
-4.10048819 0.99807507 -0.22117175 16 12 28368 4.22600000 2686579266 2686579266 -3.00000000
-11.36026382 2.76723337 2.69941258 54 13 28369 12.00000000 2686579268 2686579268 13.00000000
-4.03131485 0.98272860 -0.07242749 100 14 28370 4.15000000 2686579271 2686579271 -1.00000000
-9.81383324 2.39416957 2.70672965 42 15 28371 10.45800000 2686579273 2686579273 15.00000000
-1.91948390 0.47040495 -0.52954376 4 0 28377 2.04600000 2686579294 2686579294 -15.00000000
-4.07655001 0.99978805 0.07326520 19 1 28378 4.19800000 2686579296 2686579296 1.00000000
-4.03874302 0.99126309 -0.96009111 16 2 28379 4.26800000 2686579298 2686579298 -13.00000000
-4.16627550 1.02333534 0.22483526 8 3 28380 4.29600000 2686579300 2686579300 3.00000000
-2.60629988 0.64016861 -0.52167177 3 4 28380 2.73400000 2686579303 2686579303 -11.00000000
-4.82344294 1.18564391 0.43455854 9 5 28381 4.98600000 2686579305 2686579305 5.00000000
-3.09020638 0.76017135 -0.50403184 3 6 28382 3.22200000 2686579307 2686579307 -9.00000000
-3.93009114 0.96823275 -0.49698317 4 8 28384 4.07800000 2686579312 2686579312 -7.00000000
-12.19673061 3.00483465 1.98953354 94 9 28384 12.71800000 2686579314 2686579314 9.00000000
-5.22304773 1.28773761 -0.47064102 10 10 28385 5.40000000 2686579317 2686579317 -5.00000000
-12.18183517 3.00567555 2.43892050 90 11 28386 12.78200000 2686579319 2686579319 11.00000000
-4.09909534 1.01214612 -0.22127642 8 12 28387 4.22800000 2686579321 2686579321 -3.00000000
-11.18265152 2.76328421 2.65937138 56 13 28388 11.82200000 2686579324 2686579324 13.00000000
-4.03191614 0.99705160 -0.07249729 100 14 28389 4.15400000 2686579326 2686579326 -1.00000000
-9.81751633 2.42777133 2.70983529 45 15 28389 10.47000000 2686579328 2686579328 15.00000000
-1.91783023 0.47710231 -0.52954376 4 0 28397 2.04600000 2686579349 2686579349 -15.00000000
-4.07497597 1.01449478 0.07330011 19 1 28398 4.20000000 2686579351 2686579351 1.00000000
-4.03147650 1.00441265 -0.95919132 16 2 28399 4.26400000 2686579353 2686579353 -13.00000000
-4.14717436 1.03400671 0.22399789 8 3 28400 4.28000000 2686579356 2686579356 3.00000000
-2.61166906 0.65116221 -0.52319825 3 4 28400 2.74200000 2686579358 2686579358 -11.00000000
-4.83087397 1.20536768 0.43560439 9 5 28401 4.99800000 2686579360 2686579360 5.00000000
-3.10286641 0.77478200 -0.50653481 4 6 28402 3.23800000 2686579363 2686579363 -9.00000000
-3.92283583 0.98098224 -0.49649569 4 8 28404 4.07400000 2686579367 2686579367 -7.00000000
-12.20096588 3.05335426 1.99203646 100 9 28405 12.73400000 2686579370 2686579370 9.00000000
-5.21852112 1.30596161 -0.47064102 10 10 28405 5.40000000 2686579372 2686579372 -5.00000000
-12.18079090 3.05056453 2.44082856 84 11 28406 12.79200000 2686579374 2686579374 11.00000000
-4.09747458 1.02693391 -0.22138110 6 12 28407 4.23000000 2686579376 2686579376 -3.00000000
-10.99147892 2.75679016 2.61618066 55 13 28408 11.63000000 2686579379 2686579379 13.00000000
-4.04004860 1.01404047 -0.07270672 100 14 28409 4.16600000 2686579381 2686579381 -1.00000000
-9.81791973 2.46609116 2.71242356 47 15 28410 10.48000000 2686579383 2686579383 15.00000000
-1.91998386 0.48440462 -0.53057903 4 0 28416 2.05000000 2686579404 2686579404 -15.00000000
-4.07740593 1.02947092 0.07340482 22 1 28417 4.20600000 2686579406 2686579406 1.00000000
-4.03190231 1.01873076 -0.96009111 15 2 28418 4.26800000 2686579409 2686579409 -13.00000000
-4.13985014 1.04677439 0.22378854 8 3 28419 4.27600000 2686579411 2686579411 3.00000000
-2.60188198 0.65789419 -0.52167177 3 4 28419 2.73400000 2686579413 2686579413 -11.00000000
-4.84423351 1.22577953 0.43717322 9 5 28420 5.01600000 2686579416 2686579416 5.00000000
-3.11942935 0.78991628 -0.50966346 3 6 28421 3.25800000 2686579418 2686579418 -9.00000000
-3.91186452 0.99203360 -0.49552074 4 8 28423 4.06600000 2686579423 2686579423 -7.00000000
-12.19897270 3.09361196 1.99328792 100 9 28423 12.74200000 2686579425 2686579425 9.00000000
-5.21416140 1.32325959 -0.47064102 10 10 28424 5.40000000 2686579427 2686579427 -5.00000000
-12.18202496 3.09384036 2.44311833 78 11 28425 12.80400000 2686579429 2686579429 11.00000000
-4.10566092 1.04346788 -0.22200912 6 12 28426 4.24200000 2686579432 2686579432 -3.00000000
-10.79719257 2.74615002 2.57209039 55 13 28427 11.43400000 2686579434 2686579434 13.00000000
-4.02503633 1.02447271 -0.07249729 100 14 28428 4.15400000 2686579436 2686579436 -1.00000000
-9.82510185 2.50073481 2.71656466 47 15 28428 10.49600000 2686579439 2686579439 15.00000000
-1.91828132 0.49110368 -0.53057903 4 0 28436 2.05000000 2686579459 2686579459 -15.00000000
-4.07378721 1.04369748 0.07340482 21 1 28437 4.20600000 2686579462 2686579462 1.00000000
-4.03020954 1.03328252 -0.96054101 13 2 28438 4.27000000 2686579464 2686579464 -13.00000000
-4.14390945 1.06320417 0.22420724 8 3 28439 4.28400000 2686579466 2686579466 3.00000000
-2.57674980 0.66111755 -0.51709241 3 4 28439 2.71000000 2686579469 2686579469 -11.00000000
-4.83027649 1.24020422 0.43630165 9 5 28440 5.00600000 2686579471 2686579471 5.00000000
-3.10517359 0.79785079 -0.50778627 3 6 28441 3.24600000 2686579473 2686579473 -9.00000000
-3.91414523 1.00716650 -0.49625197 4 8 28443 4.07200000 2686579478 2686579478 -7.00000000
-12.18181324 3.13682485 1.99234939 100 9 28444 12.73600000 2686579480 2686579480 9.00000000
-5.21336985 1.34244609 -0.47098964 10 10 28444 5.40400000 2686579482 2686579482 -5.00000000
-12.19016266 3.14124370 2.44693446 71 11 28445 12.82400000 2686579485 2686579485 11.00000000
-4.09812546 1.05679548 -0.22179978 6 12 28446 4.23800000 2686579487 2686579487 -3.00000000
-10.61583138 2.73951125 2.53114915 53 13 28447 11.25200000 2686579489 2686579489 13.00000000
-4.01369095 1.03651643 -0.07235768 100 14 28448 4.14600000 2686579492 2686579492 -1.00000000
-9.81586933 2.53672886 2.71656466 47 15 28449 10.49600000 2686579494 2686579494 15.00000000
-1.91468549 0.49731109 -0.53006142 4 0 28456 2.04800000 2686579515 2686579515 -15.00000000
-4.06431341 1.05640209 0.07330011 21 1 28457 4.20000000 2686579517 2686579517 1.00000000
-4.04732370 1.05274045 -0.96548992 5 2 28458 4.29200000 2686579519 2686579519 -13.00000000
-4.14403868 1.07866883 0.22441658 8 3 28459 4.28800000 2686579522 2686579522 3.00000000
-2.57822609 0.67109710 -0.51785558 3 4 28459 2.71400000 2686579524 2686579524 -11.00000000
-4.83170223 1.25856411 0.43682459 9 5 28460 5.01200000 2686579526 2686579526 5.00000000
-3.12148476 0.81366765 -0.51091498 3 6 28461 3.26600000 2686579529 2686579529 -9.00000000
-3.91060591 1.02082336 -0.49625197 4 8 28463 4.07200000 2686579533 2686579533 -7.00000000
-12.18854618 3.18169427 1.99516511 100 9 28463 12.75400000 2686579535 2686579535 9.00000000
-5.20479631 1.35962880 -0.47064102 10 10 28464 5.40000000 2686579538 2686579538 -5.00000000
-12.18102360 3.18427277 2.44731617 65 11 28465 12.82600000 2686579540 2686579540 11.00000000
-4.11373377 1.07614887 -0.22284651 6 12 28466 4.25800000 2686579542 2686579542 -3.00000000
-10.45727158 2.73756242 2.49560690 57 13 28467 11.09400000 2686579545 2686579545 13.00000000
-4.01778603 1.05254757 -0.07249729 100 14 28468 4.15400000 2686579547 2686579547 -1.00000000
-9.79619122 2.56632805 2.71345878 47 15 28468 10.48400000 2686579549 2686579549 15.00000000
-1.91667414 0.50497591 -0.53109670 4 0 28476 2.05200000 2686579570 2686579570 -15.00000000
-4.05866718 1.07007301 0.07326520 21 1 28477 4.19800000 2686579572 2686579572 1.00000000
-4.03420305 1.06437612 -0.96324039 5 2 28478 4.28200000 2686579575 2686579575 -13.00000000
-4.14990330 1.09567690 0.22493994 8 3 28479 4.29800000 2686579577 2686579577 3.00000000
-2.59105349 0.68410212 -0.52090853 3 4 28479 2.73000000 2686579579 2686579579 -11.00000000
-4.83691072 1.27796698 0.43769613 9 5 28480 5.02200000 2686579582 2686579582 5.00000000
-3.11098647 0.82253897 -0.50966346 3 6 28481 3.25800000 2686579584 2686579584 -9.00000000
-3.92428946 1.03904045 -0.49844560 4 8 28483 4.09000000 2686579588 2686579588 -7.00000000
-12.19589710 3.23140550 1.99829388 91 9 28484 12.77400000 2686579591 2686579591 9.00000000
-5.20772266 1.37982988 -0.47133824 10 10 28484 5.40800000 2686579593 2686579593 -5.00000000
-12.17362881 3.22777939 2.44807935 62 11 28485 12.83000000 2686579595 2686579595 11.00000000
-4.08871746 1.08486760 -0.22169511 6 12 28486 4.23600000 2686579598 2686579598 -3.00000000
-10.32710934 2.74204206 2.46681333 59 13 28487 10.96600000 2686579600 2686579600 13.00000000
-4.01795244 1.06759286 -0.07256711 100 14 28488 4.15800000 2686579602 2686579602 -1.00000000
-9.79792118 2.60519409 2.71656466 47 15 28489 10.49600000 2686579605 2686579605 15.00000000
-1.92414188 0.51449257 -0.53368485 4 0 28497 2.06200000 2686579625 2686579625 -15.00000000
-4.05858135 1.08597529 0.07333501 21 1 28498 4.20200000 2686579628 2686579628 1.00000000
-4.01521540 1.07512271 -0.95964122 5 2 28499 4.26600000 2686579630 2686579630 -13.00000000
-4.14393044 1.11036277 0.22483526 8 3 28500 4.29600000 2686579632 2686579632 3.00000000
-2.60369968 0.69765919 -0.52396148 3 4 28500 2.74600000 2686579635 2686579635 -11.00000000
-4.84374094 1.29878259 0.43874201 9 5 28501 5.03400000 2686579637 2686579637 5.00000000
-3.10031915 0.83188808 -0.50841200 3 6 28502 3.25000000 2686579639 2686579639 -9.00000000
-3.90511799 1.04929578 -0.49649569 8 8 28504 4.07400000 2686579644 2686579644 -7.00000000
-12.19598961 3.27703309 2.00017118 87 9 28504 12.78600000 2686579646 2686579646 9.00000000
-5.22187090 1.40408134 -0.47308138 10 10 28505 5.42800000 2686579648 2686579648 -5.00000000
-12.16550827 3.27339649 2.44884276 62 11 28506 12.83400000 2686579651 2686579651 11.00000000
-4.09049940 1.10140407 -0.22200912 6 12 28507 4.24200000 2686579653 2686579653 -3.00000000
-10.21914482 2.75351048 2.44341826 62 13 28508 10.86200000 2686579655 2686579655 13.00000000
-4.02173567 1.08439457 -0.07270672 100 14 28509 4.16600000 2686579658 2686579658 -1.00000000
-9.80368900 2.64340281 2.72070575 47 15 28509 10.51200000 2686579660 2686579660 15.00000000
-1.92233419 0.52120596 -0.53368485 4 0 28517 2.06200000 2686579681 2686579681 -15.00000000
-4.06441545 1.10275400 0.07350954 21 1 28518 4.21200000 2686579683 2686579683 1.00000000
-4.03400612 1.09525919 -0.96504003 5 2 28519 4.29000000 2686579685 2686579685 -13.00000000
-4.12653780 1.12115550 0.22410257 7 3 28520 4.28200000 2686579688 2686579688 3.00000000
-2.58230281 0.70159614 -0.52014530 3 4 28520 2.72600000 2686579690 2686579690 -11.00000000
-4.85455847 1.31986427 0.44013649 9 5 28521 5.05000000 2686579692 2686579692 5.00000000
-3.09358430 0.84166795 -0.50778627 3 6 28522 3.24600000 2686579694 2686579694 -9.00000000
-7.00069189 1.90598261 0.89086491 2 7 28523 7.31000000 2686579697 2686579697 7.00000000
-3.90143156 1.06292081 -0.49649569 4 8 28524 4.07400000 2686579699 2686579699 -7.00000000
-12.18828869 3.32062364 2.00079679 87 9 28524 12.79000000 2686579701 2686579701 9.00000000
-5.20924902 1.42020428 -0.47238412 10 10 28525 5.42000000 2686579704 2686579704 -5.00000000
-12.16537285 3.31894231 2.45113230 59 11 28526 12.84600000 2686579706 2686579706 11.00000000
-4.09048319 1.11672783 -0.22221847 6 12 28527 4.24600000 2686579708 2686579708 -3.00000000
-10.17187405 2.77889395 2.43442035 60 13 28528 10.82200000 2686579711 2686579711 13.00000000
-4.01792574 1.09842646 -0.07270672 100 14 28529 4.16600000 2686579713 2686579713 -1.00000000
-9.80185604 2.67964578 2.72277641 47 15 28529 10.52000000 2686579715 2686579715 15.00000000
-1.90932655 0.52484077 -0.53057903 4 0 28537 2.05000000 2686579736 2686579736 -15.00000000
-4.06825399 1.11905611 0.07364915 19 1 28538 4.22000000 2686579738 2686579738 1.00000000
-4.02640057 1.10829949 -0.96414024 5 2 28539 4.28600000 2686579741 2686579741 -13.00000000
-4.12452459 1.13608336 0.22420724 8 3 28540 4.28400000 2686579743 2686579743 3.00000000
-2.57605243 0.70956308 -0.51938206 3 4 28540 2.72200000 2686579745 2686579745 -11.00000000
-4.84992170 1.33680177 0.44013649 9 5 28541 5.05000000 2686579747 2686579747 5.00000000
-3.11347866 0.85876429 -0.51154071 3 6 28542 3.27000000 2686579750 2686579750 -9.00000000
-6.99399614 1.93040800 0.89086491 2 7 28543 7.31000000 2686579752 2686579752 7.00000000
-3.90152431 1.07758987 -0.49698317 4 8 28544 4.07800000 2686579754 2686579754 -7.00000000
-12.17603588 3.36527348 2.00079679 91 9 28545 12.79000000 2686579757 2686579757 9.00000000
-5.20041895 1.43731773 -0.47203550 10 10 28545 5.41600000 2686579759 2686579759 -5.00000000
-12.16128159 3.36348057 2.45265889 62 11 28546 12.85400000 2686579761 2686579761 11.00000000
-4.09425974 1.13313043 -0.22263716 6 12 28547 4.25400000 2686579764 2686579764 -3.00000000
-10.16211224 2.81438351 2.43442035 60 13 28548 10.82200000 2686579766 2686579766 13.00000000
-4.00635910 1.11030865 -0.07256711 100 14 28549 4.15800000 2686579768 2686579768 -1.00000000
-9.78685760 2.71229649 2.72122335 49 15 28549 10.51400000 2686579770 2686579770 15.00000000
-1.90562201 0.53098381 -0.53006142 4 0 28557 2.04800000 2686579791 2686579791 -15.00000000
-4.05469179 1.13056469 0.07347463 17 1 28558 4.21000000 2686579794 2686579794 1.00000000
-4.03940058 1.12706101 -0.96818936 5 2 28559 4.30400000 2686579796 2686579796 -13.00000000
-4.13784695 1.15530753 0.22514929 7 3 28560 4.30200000 2686579798 2686579798 3.00000000
-2.58112359 0.72066271 -0.52090853 3 4 28560 2.73000000 2686579800 2686579800 -11.00000000
-4.85673952 1.35693979 0.44118237 9 5 28561 5.06200000 2686579803 2686579803 5.00000000
-3.10285234 0.86749959 -0.51028925 3 6 28562 3.26200000 2686579805 2686579805 -9.00000000
-3.90347385 1.09280765 -0.49771440 6 8 28564 4.08400000 2686579810 2686579810 -7.00000000
-12.17182350 3.40988684 2.00204825 94 9 28565 12.79800000 2686579812 2686579812 9.00000000
-5.19920683 1.45653677 -0.47238412 10 10 28565 5.42000000 2686579814 2686579814 -5.00000000
-12.14757633 3.40538096 2.45227718 53 11 28566 12.85200000 2686579817 2686579817 11.00000000
-4.09797192 1.14957297 -0.22305584 6 12 28567 4.26200000 2686579819 2686579819 -3.00000000
-10.14472198 2.84773207 2.43262076 60 13 28568 10.81400000 2686579821 2686579821 13.00000000
-4.01400995 1.12753141 -0.07277653 100 14 28569 4.17000000 2686579823 2686579823 -1.00000000
-9.70060062 2.72671580 2.70000029 47 15 28570 10.43200000 2686579826 2686579826 15.00000000
-1.90385067 0.53730017 -0.53006142 4 0 28576 2.04800000 2686579847 2686579847 -15.00000000
-4.04707146 1.14291739 0.07340482 17 1 28577 4.20600000 2686579849 2686579849 1.00000000
-2.20722556 0.62374985 -0.52953476 4 2 28578 2.35400000 2686579851 2686579851 -13.00000000
-4.13783693 1.17010975 0.22535862 7 3 28579 4.30600000 2686579853 2686579853 3.00000000
-2.58627629 0.73135495 -0.52243501 3 4 28579 2.73800000 2686579856 2686579856 -11.00000000
-4.85604715 1.37412286 0.44153100 9 5 28580 5.06600000 2686579858 2686579858 5.00000000
-3.09805799 0.87724608 -0.50997633 3 6 28581 3.26000000 2686579860 2686579860 -9.00000000
-3.90364814 1.10682905 -0.49820188 6 8 28583 4.08800000 2686579865 2686579865 -7.00000000
-12.17565155 3.45454478 2.00455117 97 9 28584 12.81400000 2686579867 2686579867 9.00000000
-5.19051504 1.47268224 -0.47203550 10 10 28584 5.41600000 2686579870 2686579870 -5.00000000
-12.11921978 3.44081926 2.44884276 53 11 28585 12.83400000 2686579872 2686579872 11.00000000
-4.07876730 1.15878940 -0.22221847 6 12 28586 4.24600000 2686579874 2686579874 -3.00000000
-10.13147354 2.88029170 2.43172097 62 13 28587 10.81000000 2686579876 2686579876 13.00000000
-4.01024914 1.14083612 -0.07277653 100 14 28588 4.17000000 2686579879 2686579879 -1.00000000
-9.56563377 2.72123265 2.66480088 47 15 28588 10.29600000 2686579881 2686579881 15.00000000
-1.90567839 0.54500496 -0.53109670 4 0 28596 2.05200000 2686579902 2686579902 -15.00000000
-4.04690218 1.15813768 0.07347463 17 1 28597 4.21000000 2686579904 2686579904 1.00000000
-2.19379425 0.62823170 -0.52683538 4 2 28598 2.34200000 2686579906 2686579906 -13.00000000
-4.12604713 1.18234563 0.22493994 7 3 28599 4.29800000 2686579909 2686579909 3.00000000
-2.57615852 0.73821503 -0.52090853 3 4 28599 2.73000000 2686579911 2686579911 -11.00000000
-4.86654234 1.39545858 0.44292548 10 5 28600 5.08200000 2686579913 2686579913 5.00000000
-3.10447073 0.89077908 -0.51154071 3 6 28601 3.27000000 2686579916 2686579916 -9.00000000
-3.89212918 1.11825585 -0.49722692 6 8 28603 4.08000000 2686579920 2686579920 -7.00000000
-12.18250370 3.50248289 2.00767994 97 9 28604 12.83400000 2686579923 2686579923 9.00000000
-5.19300222 1.49299359 -0.47273275 10 10 28604 5.42400000 2686579925 2686579925 -5.00000000
-12.10336208 3.48201656 2.44807935 50 11 28605 12.83000000 2686579927 2686579927 11.00000000
-4.07661676 1.17357242 -0.22232315 6 12 28606 4.24800000 2686579929 2686579929 -3.00000000
-10.11012173 2.91240287 2.42902160 60 13 28607 10.79800000 2686579932 2686579932 13.00000000
-4.01777077 1.15815079 -0.07298596 100 14 28608 4.18200000 2686579934 2686579934 -1.00000000
-9.42984962 2.71822095 2.62960148 47 15 28608 10.16000000 2686579936 2686579936 15.00000000
-1.91851139 0.55628991 -0.53523779 4 0 28617 2.06800000 2686579957 2686579957 -15.00000000
-4.04647112 1.17407703 0.07354444 17 1 28618 4.21400000 2686579959 2686579959 1.00000000
-2.19896269 0.63844156 -0.52863497 4 2 28619 2.35000000 2686579962 2686579962 -13.00000000
-4.10846853 1.19284284 0.22420724 8 3 28619 4.28400000 2686579964 2686579964 3.00000000
-2.57720613 0.74874759 -0.52167177 3 4 28620 2.73400000 2686579966 2686579966 -11.00000000
-4.87478733 1.41717935 0.44414568 10 5 28621 5.09600000 2686579969 2686579969 5.00000000
-3.10877204 0.90435863 -0.51279217 3 6 28622 3.27800000 2686579971 2686579971 -9.00000000
-3.89181614 1.13362408 -0.49771440 6 8 28624 4.08400000 2686579975 2686579975 -7.00000000
-12.17020321 3.54498625 2.00767994 94 9 28624 12.83400000 2686579978 2686579978 9.00000000
-5.19705915 1.51480460 -0.47360429 10 10 28625 5.43400000 2686579980 2686579980 -5.00000000
-12.09240341 3.52690411 2.44846106 50 11 28626 12.83200000 2686579982 2686579982 11.00000000
-4.07995701 1.19074440 -0.22274183 6 12 28627 4.25600000 2686579985 2686579985 -3.00000000
-10.08441448 2.94506860 2.42542219 66 13 28628 10.78200000 2686579987 2686579987 13.00000000
-4.00966024 1.17174709 -0.07291616 89 14 28629 4.17800000 2686579989 2686579989 -1.00000000
-9.29373169 2.71591663 2.59440207 47 15 28629 10.02400000 2686579992 2686579992 15.00000000
-1.90914381 0.56080550 -0.53316724 4 0 28637 2.06000000 2686580012 2686580012 -15.00000000
-4.05385971 1.19157827 0.07375387 18 1 28638 4.22600000 2686580015 2686580015 1.00000000
-2.20419908 0.64831305 -0.53043461 4 2 28639 2.35800000 2686580017 2686580017 -13.00000000
-4.11748075 1.21184051 0.22493994 7 3 28640 4.29800000 2686580019 2686580019 3.00000000
-2.57457685 0.75773919 -0.52167177 3 4 28640 2.73400000 2686580022 2686580022 -11.00000000
-4.88318968 1.43812704 0.44536585 10 5 28641 5.11000000 2686580024 2686580024 5.00000000
-3.11317563 0.91743833 -0.51404363 3 6 28642 3.28600000 2686580026 2686580026 -9.00000000
-3.89545107 1.14944935 -0.49868935 6 8 28644 4.09200000 2686580031 2686580031 -7.00000000
-12.16660118 3.59236550 2.00924420 100 9 28645 12.84400000 2686580033 2686580033 9.00000000
-5.19747210 1.53462911 -0.47412723 10 10 28645 5.44000000 2686580035 2686580035 -5.00000000
-12.08378410 3.57020545 2.44922423 43 11 28646 12.83600000 2686580038 2686580038 11.00000000
-4.10259008 1.21290636 -0.22420724 6 12 28647 4.28400000 2686580040 2686580040 -3.00000000
-10.08154774 2.98246312 2.42722178 66 13 28648 10.79000000 2686580042 2686580042 13.00000000
-3.97294927 1.17608690 -0.07232277 64 14 28649 4.14400000 2686580045 2686580045 -1.00000000
-9.15220165 2.71100569 2.55764985 42 15 28650 9.88200000 2686580047 2686580047 15.00000000
-1.89606476 0.56416065 -0.53006142 4 0 28657 2.04800000 2686580068 2686580068 -15.00000000
-4.04584217 1.20458043 0.07368406 17 1 28658 4.22200000 2686580070 2686580070 1.00000000
-2.20565772 0.65711600 -0.53133440 4 2 28659 2.36200000 2686580072 2686580072 -13.00000000
-4.11535358 1.22605813 0.22504461 7 3 28659 4.30000000 2686580075 2686580075 3.00000000
-2.57944179 0.76896501 -0.52319825 3 4 28660 2.74200000 2686580077 2686580077 -11.00000000
-4.87432146 1.45402467 0.44501722 10 5 28661 5.10600000 2686580079 2686580079 5.00000000
-3.12131119 0.93168980 -0.51592088 3 6 28662 3.29800000 2686580081 2686580081 -9.00000000
-3.90282679 1.16645062 -0.50015181 6 8 28664 4.10400000 2686580086 2686580086 -7.00000000
-12.15020180 3.63368106 2.00861859 30 9 28665 12.84000000 2686580088 2686580088 9.00000000
-5.17299509 1.54705358 -0.47238412 10 10 28665 5.42000000 2686580091 2686580091 -5.00000000
-12.05243969 3.60673547 2.44540811 46 11 28666 12.81600000 2686580093 2686580093 11.00000000
-4.10024452 1.22779262 -0.22431190 6 12 28667 4.28600000 2686580095 2686580095 -3.00000000
-10.07107544 3.01763606 2.42722178 66 13 28668 10.79000000 2686580098 2686580098 13.00000000
-3.98031235 1.19339371 -0.07253220 63 14 28669 4.15600000 2686580100 2686580100 -1.00000000
-9.01547909 2.70305848 2.52193284 45 15 28669 9.74400000 2686580102 2686580102 15.00000000
-1.89593363 0.57133311 -0.53057903 4 0 28677 2.05000000 2686580123 2686580123 -15.00000000
-4.04161310 1.21869564 0.07368406 17 1 28678 4.22200000 2686580125 2686580125 1.00000000
-2.21454453 0.66818869 -0.53403378 4 2 28679 2.37400000 2686580127 2686580127 -13.00000000
-4.12634563 1.24503148 0.22588199 7 3 28679 4.31600000 2686580130 2686580130 3.00000000
-2.59177756 0.78250378 -0.52625120 3 4 28680 2.75800000 2686580132 2686580132 -11.00000000
-4.88065958 1.47448754 0.44606310 10 5 28681 5.11800000 2686580134 2686580134 5.00000000
-3.09534955 0.93572026 -0.51216644 3 6 28682 3.27400000 2686580137 2686580137 -9.00000000
-3.89683127 1.17949188 -0.49990806 6 8 28684 4.10200000 2686580141 2686580141 -7.00000000
-17.00187492 5.14936209 2.81363034 45 9 28685 17.98600000 2686580144 2686580144 9.00000000
-5.18663168 1.57087660 -0.47412723 10 10 28685 5.44000000 2686580146 2686580146 -5.00000000
-12.02098751 3.64309025 2.44159198 50 11 28686 12.79600000 2686580148 2686580148 11.00000000
-4.09975624 1.24325681 -0.22452125 6 12 28687 4.29000000 2686580151 2686580151 -3.00000000
-10.05675125 3.05164051 2.42632198 66 13 28688 10.78600000 2686580153 2686580153 13.00000000
-3.97994924 1.20844233 -0.07260201 64 14 28689 4.16000000 2686580155 2686580155 -1.00000000
-8.90062332 2.70251942 2.49242735 40 15 28689 9.63000000 2686580157 2686580157 15.00000000
-1.89762318 0.57907534 -0.53161430 4 0 28697 2.05400000 2686580178 2686580178 -15.00000000
-4.03733444 1.23279607 0.07368406 15 1 28698 4.22200000 2686580180 2686580180 1.00000000
-2.19356179 0.67022055 -0.52953476 4 2 28699 2.35400000 2686580183 2686580183 -13.00000000
-4.12557507 1.26131475 0.22609133 8 3 28700 4.32000000 2686580185 2686580185 3.00000000
-2.58339810 0.78982401 -0.52510637 3 4 28700 2.75200000 2686580187 2686580187 -11.00000000
-4.89644051 1.49792659 0.44798052 10 5 28701 5.14000000 2686580190 2686580190 5.00000000
-3.10339761 0.94998854 -0.51404363 3 6 28702 3.28600000 2686580192 2686580192 -9.00000000
-3.89838433 1.19483232 -0.50063926 6 8 28704 4.10800000 2686580197 2686580197 -7.00000000
-16.99414825 5.20860863 2.81519461 45 9 28704 17.99600000 2686580199 2686580199 9.00000000
-5.19254589 1.59247684 -0.47517312 10 10 28705 5.45200000 2686580201 2686580201 -5.00000000
-12.06262684 3.70173216 2.45265889 59 11 28706 12.85400000 2686580204 2686580204 11.00000000
-4.09921026 1.25873268 -0.22473060 6 12 28707 4.29400000 2686580206 2686580206 -3.00000000
-10.03113556 3.08214784 2.42272282 66 13 28708 10.77000000 2686580208 2686580208 13.00000000
-3.98908663 1.22644114 -0.07284635 57 14 28709 4.17400000 2686580210 2686580210 -1.00000000
-8.77617836 2.69990492 2.46033382 42 15 28710 9.50600000 2686580213 2686580213 15.00000000
-1.90666485 0.58911753 -0.53472012 4 0 28717 2.06600000 2686580233 2686580233 -15.00000000
-4.04064846 1.24924421 0.07382368 16 1 28718 4.23000000 2686580236 2686580236 1.00000000
-2.19679403 0.67960119 -0.53088450 4 2 28719 2.36000000 2686580238 2686580238 -13.00000000
-4.11182928 1.27203739 0.22556797 7 3 28719 4.31000000 2686580240 2686580240 3.00000000
-2.59000254 0.80173969 -0.52701443 3 4 28720 2.76200000 2686580243 2686580243 -11.00000000
-4.90450430 1.51913571 0.44920069 10 5 28721 5.15400000 2686580245 2686580245 5.00000000
-3.10949683 0.96373963 -0.51560801 3 6 28722 3.29600000 2686580247 2686580247 -9.00000000
-3.87902260 1.20372629 -0.49868935 6 8 28724 4.09200000 2686580252 2686580252 -7.00000000
-16.90891647 5.25035810 2.80424428 49 9 28725 17.92600000 2686580254 2686580254 9.00000000
-5.19266367 1.61236489 -0.47569606 6 10 28725 5.45800000 2686580257 2686580257 -5.00000000
-12.14149952 3.77235913 2.47135806 59 11 28726 12.95200000 2686580259 2686580259 11.00000000
-4.08525515 1.27006924 -0.22420724 6 12 28727 4.28400000 2686580261 2686580261 -3.00000000
-10.00915146 3.11367106 2.42002344 70 13 28728 10.75800000 2686580263 2686580263 13.00000000
-3.98096251 1.23916960 -0.07277653 57 14 28729 4.17000000 2686580266 2686580266 -1.00000000
-8.67078876 2.70064998 2.43341660 42 15 28730 9.40200000 2686580268 2686580268 15.00000000
-1.89722180 0.59346253 -0.53264958 4 0 28737 2.05800000 2686580289 2686580289 -15.00000000
-4.05153036 1.26811969 0.07410292 16 1 28738 4.24600000 2686580291 2686580291 1.00000000
-2.19998741 0.68901259 -0.53223419 4 2 28739 2.36600000 2686580293 2686580293 -13.00000000
-4.11879969 1.28996420 0.22619601 7 3 28739 4.32200000 2686580296 2686580296 3.00000000
-2.56845403 0.80490470 -0.52319825 3 4 28740 2.74200000 2686580298 2686580298 -11.00000000
-4.90297365 1.53743863 0.44954932 10 5 28741 5.15800000 2686580300 2686580300 5.00000000
-3.11742234 0.97813618 -0.51748520 3 6 28742 3.30800000 2686580303 2686580303 -9.00000000
-3.87858486 1.21844912 -0.49917683 6 8 28744 4.09600000 2686580307 2686580307 -7.00000000
-16.91402626 5.31350565 2.80799866 45 9 28744 17.95000000 2686580310 2686580310 9.00000000
-5.17369890 1.62629867 -0.47447586 10 10 28745 5.44400000 2686580312 2686580312 -5.00000000
-12.15634918 3.82355380 2.47708249 65 11 28746 12.98200000 2686580314 2686580314 11.00000000
-4.10175371 1.29091716 -0.22535862 6 12 28747 4.30600000 2686580316 2686580316 -3.00000000
-9.99822140 3.14859056 2.42002344 68 13 28748 10.75800000 2686580319 2686580319 13.00000000
-3.97279835 1.25185621 -0.07270672 59 14 28749 4.16600000 2686580321 2686580321 -1.00000000
-8.56734467 2.70127344 2.40701723 45 15 28750 9.30000000 2686580323 2686580323 15.00000000
-1.89145529 0.59891510 -0.53161430 4 0 28757 2.05400000 2686580344 2686580344 -15.00000000
-4.03945398 1.27983844 0.07396330 15 1 28758 4.23800000 2686580346 2686580346 1.00000000
-2.20685697 0.69963235 -0.53448373 4 2 28759 2.37600000 2686580349 2686580349 -13.00000000
-4.11427212 1.30433369 0.22619601 7 3 28759 4.32200000 2686580351 2686580351 3.00000000
-2.57311416 0.81623989 -0.52472472 3 4 28760 2.75000000 2686580353 2686580353 -11.00000000
-4.90707254 1.55755770 0.45042089 10 5 28761 5.16800000 2686580356 2686580356 5.00000000
-3.11398911 0.98901206 -0.51748520 3 6 28762 3.30800000 2686580358 2686580358 -9.00000000
-3.88944197 1.23679292 -0.50112677 6 8 28764 4.11200000 2686580363 2686580363 -7.00000000
-16.89725876 5.37311268 2.80831146 16 9 28764 17.95200000 2686580365 2686580365 9.00000000
-5.16229486 1.64253604 -0.47395292 6 10 28765 5.43800000 2686580367 2686580367 -5.00000000
-12.15041161 3.86834645 2.47860885 62 11 28766 12.99000000 2686580369 2686580369 11.00000000
-4.10483456 1.30765200 -0.22577731 6 12 28767 4.31400000 2686580372 2686580372 -3.00000000
-9.99088287 3.18465519 2.42092323 66 13 28768 10.76200000 2686580374 2686580374 13.00000000
-3.97602487 1.26814675 -0.07284635 56 14 28769 4.17400000 2686580376 2686580376 -1.00000000
-8.50449181 2.71412945 2.39200568 45 15 28770 9.24200000 2686580379 2686580379 15.00000000
-1.89303243 0.60669303 -0.53264958 4 0 28777 2.05800000 2686580399 2686580399 -15.00000000
-4.02734518 1.29148841 0.07382368 18 1 28778 4.23000000 2686580402 2686580402 1.00000000
-2.20069027 0.70614070 -0.53358388 3 2 28779 2.37200000 2686580404 2686580404 -13.00000000
-4.12680960 1.32417917 0.22713806 7 3 28779 4.34000000 2686580406 2686580406 3.00000000
-2.57398772 0.82641709 -0.52548796 3 4 28780 2.75400000 2686580409 2686580409 -11.00000000
-4.91678095 1.57955229 0.45181537 7 5 28781 5.18400000 2686580411 2686580411 5.00000000
-3.10111475 0.99685329 -0.51592088 3 6 28782 3.29800000 2686580413 2686580413 -9.00000000
-3.90021825 1.25522733 -0.50307667 6 8 28784 4.12800000 2686580418 2686580418 -7.00000000
-14.36055470 4.62173128 2.38937998 11 9 28784 15.27400000 2686580420 2686580420 9.00000000
-5.17170191 1.66543150 -0.47534743 6 10 28785 5.45400000 2686580422 2686580422 -5.00000000
-12.13870239 3.91133785 2.47899055 65 11 28786 12.99200000 2686580425 2686580425 11.00000000
-4.11925411 1.32810140 -0.22682403 6 12 28787 4.33400000 2686580427 2686580427 -3.00000000
-9.98712444 3.22190380 2.42272282 68 13 28788 10.77000000 2686580429 2686580429 13.00000000
-3.97728300 1.28386080 -0.07295106 61 14 28789 4.18000000 2686580432 2686580432 -1.00000000
-8.47889805 2.73697543 2.38734698 47 15 28789 9.22400000 2686580434 2686580434 15.00000000
-1.90009129 0.61627734 -0.53523779 4 0 28797 2.06800000 2686580455 2686580455 -15.00000000
-4.03232241 1.30862498 0.07399821 60 1 28798 4.24000000 2686580457 2686580457 1.00000000
-2.17967725 0.70779949 -0.52908486 3 2 28799 2.35200000 2686580459 2686580459 -13.00000000
-4.11456394 1.33610892 0.22671936 7 3 28799 4.33200000 2686580462 2686580462 3.00000000
-2.57855606 0.83782363 -0.52701443 3 4 28800 2.76200000 2686580464 2686580464 -11.00000000
-4.92828989 1.60224950 0.45338416 7 5 28801 5.20200000 2686580466 2686580466 5.00000000
-3.10888720 1.01133859 -0.51779807 3 6 28802 3.31000000 2686580468 2686580468 -9.00000000
-6.33294344 2.06136465 0.81774330 2 7 28803 6.71000000 2686580471 2686580471 7.00000000
-3.89203787 1.26760447 -0.50258917 6 8 28804 4.12400000 2686580473 2686580473 -7.00000000
-16.85557938 5.48972225 2.80768585 16 9 28804 17.94800000 2686580475 2686580475 9.00000000
-5.19616604 1.69335139 -0.47813639 3 10 28805 5.48600000 2686580478 2686580478 -5.00000000
-12.14177418 3.95916367 2.48242497 65 11 28806 13.01000000 2686580480 2686580480 11.00000000
-4.08801031 1.33379900 -0.22535862 6 12 28807 4.30600000 2686580482 2686580482 -3.00000000
-9.94988155 3.24827886 2.41642427 66 13 28808 10.74200000 2686580485 2686580485 13.00000000
-3.97467804 1.29835725 -0.07298596 59 14 28809 4.18200000 2686580487 2686580487 -1.00000000
-8.45779228 2.76443267 2.38424110 45 15 28810 9.21200000 2686580489 2686580489 15.00000000
-1.89080286 0.61983645 -0.53316724 4 0 28815 2.06000000 2686580510 2686580510 -15.00000000
-4.03009176 1.32190967 0.07403311 20 1 28816 4.24200000 2686580512 2686580512 1.00000000
-2.18670082 0.71768212 -0.53133440 4 2 28817 2.36200000 2686580515 2686580515 -13.00000000
-4.11011028 1.34974599 0.22671936 7 3 28818 4.33200000 2686580517 2686580517 3.00000000
-2.58710265 0.84959555 -0.52930415 3 4 28818 2.77400000 2686580519 2686580519 -11.00000000
-4.94973183 1.62643170 0.45582452 7 5 28819 5.23000000 2686580521 2686580521 5.00000000
-3.09068227 1.01616466 -0.51529515 3 6 28820 3.29400000 2686580524 2686580524 -9.00000000
-3.88426518 1.27858400 -0.50210172 6 8 28822 4.12000000 2686580528 2686580528 -7.00000000
-16.80072212 5.53029585 2.80142832 41 9 28822 17.90800000 2686580531 2686580531 9.00000000
-5.18703604 1.70842063 -0.47778779 3 10 28823 5.48200000 2686580533 2686580533 -5.00000000
-12.14419365 4.00220442 2.48547792 62 11 28824 13.02600000 2686580535 2686580535 11.00000000
-4.11225176 1.35601735 -0.22692871 6 12 28825 4.33600000 2686580538 2686580538 -3.00000000
-9.93222523 3.27707887 2.41462469 68 13 28826 10.73400000 2686580540 2686580540 13.00000000
-3.97057962 1.31083763 -0.07298596 59 14 28827 4.18200000 2686580542 2686580542 -1.00000000
-8.44955254 2.78951526 2.38424110 45 15 28827 9.21200000 2686580545 2686580545 15.00000000
-1.89412856 0.62825739 -0.53472012 4 0 28835 2.06600000 2686580565 2686580565 -15.00000000
-4.02545261 1.33596933 0.07403311 7 1 28836 4.24200000 2686580568 2686580568 1.00000000
-2.20082712 0.73083812 -0.53538352 3 2 28837 2.38000000 2686580570 2686580570 -13.00000000
-4.11295557 1.36660373 0.22713806 7 3 28838 4.34000000 2686580572 2686580572 3.00000000
-2.56549025 0.85243052 -0.52548796 3 4 28838 2.75400000 2686580574 2686580574 -11.00000000
-4.93646145 1.64118540 0.45512730 5 5 28839 5.22200000 2686580577 2686580577 5.00000000
-3.10773444 1.03380573 -0.51873666 3 6 28840 3.31600000 2686580579 2686580579 -9.00000000
-3.87601185 1.29088032 -0.50161421 6 8 28842 4.11600000 2686580584 2686580584 -7.00000000
-16.77096939 5.58871412 2.79986405 49 9 28843 17.89800000 2686580586 2686580586 9.00000000
-5.17537022 1.72462678 -0.47726485 3 10 28843 5.47600000 2686580588 2686580588 -5.00000000
-12.14132404 4.04829741 2.48776770 62 11 28844 13.03800000 2686580591 2686580591 11.00000000
-4.10180998 1.36846721 -0.22661468 6 12 28845 4.33000000 2686580593 2686580593 -3.00000000
-9.92811966 3.31419706 2.41642427 66 13 28846 10.74200000 2686580595 2686580595 13.00000000
-3.96977305 1.32595658 -0.07305577 56 14 28847 4.18600000 2686580598 2686580598 -1.00000000
-8.42461395 2.81556678 2.38010001 47 15 28848 9.19600000 2686580600 2686580600 15.00000000
-1.88448763 0.63273591 -0.53264958 4 0 28856 2.05800000 2686580621 2686580621 -15.00000000
-4.03000689 1.35389853 0.07420763 7 1 28857 4.25200000 2686580623 2686580623 1.00000000
-2.20182800 0.74014145 -0.53628331 4 2 28858 2.38400000 2686580625 2686580625 -13.00000000
-4.11549139 1.38421619 0.22755674 7 3 28859 4.34800000 2686580627 2686580627 3.00000000
-2.56979203 0.86433131 -0.52701443 3 4 28859 2.76200000 2686580630 2686580630 -11.00000000
-4.93985510 1.66244483 0.45599884 2 5 28860 5.23200000 2686580632 2686580632 5.00000000
-3.09456420 1.04203725 -0.51717234 3 6 28861 3.30600000 2686580634 2686580634 -9.00000000
-3.88254094 1.30888283 -0.50307667 6 8 28863 4.12800000 2686580639 2686580639 -7.00000000
-16.74387169 5.64469719 2.79861259 45 9 28863 17.89000000 2686580641 2686580641 9.00000000
-5.16146278 1.74103665 -0.47656760 6 10 28864 5.46800000 2686580644 2686580644 -5.00000000
-12.13756561 4.09653711 2.49005747 62 11 28865 13.05000000 2686580646 2686580646 11.00000000
-4.11758137 1.39052129 -0.22776608 6 12 28866 4.35200000 2686580648 2686580648 -3.00000000
-9.91590595 3.35056305 2.41642427 66 13 28867 10.74200000 2686580651 2686580651 13.00000000
-3.96488643 1.34049761 -0.07305577 59 14 28868 4.18600000 2686580653 2686580653 -1.00000000
-8.40741444 2.84248209 2.37802935 45 15 28868 9.18800000 2686580655 2686580655 15.00000000
-1.88592601 0.64055270 -0.53368485 4 0 28876 2.06200000 2686580676 2686580676 -15.00000000
-4.02336311 1.36731422 0.07417273 9 1 28877 4.25000000 2686580678 2686580678 1.00000000
-2.18262625 0.74217647 -0.53223419 4 2 28878 2.36600000 2686580680 2686580680 -13.00000000
-4.11630678 1.40050352 0.22787075 7 3 28879 4.35400000 2686580683 2686580683 3.00000000
-2.57419372 0.87582576 -0.52854091 3 4 28879 2.77000000 2686580685 2686580685 -11.00000000
-4.97740173 1.69444585 0.46000800 2 5 28880 5.27800000 2686580687 2686580687 5.00000000
-3.07594895 1.04773748 -0.51466942 3 6 28881 3.29000000 2686580690 2686580690 -9.00000000
-3.88170600 1.32370889 -0.50356412 6 8 28883 4.13200000 2686580694 2686580694 -7.00000000
-16.71185303 5.70220137 2.79673529 45 9 28884 17.87800000 2686580697 2686580697 9.00000000
-5.16289663 1.76161647 -0.47726485 6 10 28884 5.47600000 2686580699 2686580699 -5.00000000
-12.12319183 4.13888025 2.49005747 62 11 28885 13.05000000 2686580701 2686580701 11.00000000
-4.11459255 1.40553141 -0.22787075 6 12 28886 4.35400000 2686580703 2686580703 -3.00000000
-9.90046120 3.38389516 2.41552448 66 13 28887 10.73800000 2686580706 2686580706 13.00000000
