# .PCD v0.7 - Point Cloud Data file format
VERSION 0.7
FIELDS x y z intensity laser_id azimuth distance_m adjustedtime timestamp vertical_angle
SIZE 4 4 4 1 1 2 8 8 4 8
TYPE F F F U U U F U U F
COUNT 1 1 1 1 1 1 1 1 1 1
WIDTH 517
HEIGHT 1
VIEWPOINT 0 0 0 1 0 0 0
POINTS 517
DATA ascii
-9.84983635 -5.63192654 -0.19804990 14 14 24024 11.34800000 2686967228 2686967228 -1.00000000
-8.06500053 -4.61139536 2.48932147 36 15 24024 9.61800000 2686967230 2686967230 15.00000000
-1.67152131 -0.95303231 -0.51556754 4 0 24031 1.99200000 2686967251 2686967251 -15.00000000
-22.13897705 -12.61760902 0.44479203 5 1 24032 25.48600000 2686967253 2686967253 1.00000000
-1.91336393 -1.09003615 -0.50838935 4 2 24033 2.26000000 2686967256 2686967256 -13.00000000
-22.12508011 -12.59945869 1.33435750 4 3 24034 25.49600000 2686967258 2686967258 3.00000000
-2.24342060 -1.27754962 -0.50182766 3 4 24034 2.63000000 2686967260 2686967260 -11.00000000
-22.15470886 -12.61121178 2.23031545 39 5 24035 25.59000000 2686967262 2686967262 5.00000000
-2.66634321 -1.51715696 -0.48588544 2 6 24036 3.10600000 2686967265 2686967265 -9.00000000
-20.64577484 -11.74273586 2.91633344 43 7 24037 23.93000000 2686967267 2686967267 7.00000000
-3.32366991 -1.88964224 -0.46944070 1 8 24038 3.85200000 2686967269 2686967269 -7.00000000
-16.57987404 -9.42250633 3.02043676 42 9 24039 19.30800000 2686967272 2686967272 9.00000000
-4.37380695 -2.48567796 -0.44013649 6 10 24039 5.05000000 2686967274 2686967274 -5.00000000
-10.15859318 -5.77088404 2.27100873 12 11 24040 11.90200000 2686967276 2686967276 11.00000000
-6.36703110 -3.61550736 -0.38372722 3 12 24041 7.33200000 2686967279 2686967279 -3.00000000
-10.78881359 -6.12391901 2.86407685 43 13 24042 12.73200000 2686967281 2686967281 13.00000000
-9.87715530 -5.60416651 -0.19822443 8 14 24043 11.35800000 2686967283 2686967283 -1.00000000
-8.08528900 -4.58748531 2.49087453 33 15 24043 9.62400000 2686967285 2686967285 15.00000000
-1.67483783 -0.94719183 -0.51556754 5 0 24051 1.99200000 2686967306 2686967306 -15.00000000
-22.29777718 -12.60520267 0.44709575 5 1 24052 25.61800000 2686967309 2686967309 1.00000000
-1.91206741 -1.08047450 -0.50703967 4 2 24053 2.25400000 2686967311 2686967311 -13.00000000
-22.31152344 -12.60269833 1.34294069 4 3 24054 25.66000000 2686967313 2686967313 3.00000000
-2.24786639 -1.26971078 -0.50182766 3 4 24054 2.63000000 2686967315 2686967315 -11.00000000
-22.32871628 -12.60726929 2.24338889 31 5 24055 25.74000000 2686967318 2686967318 5.00000000
-2.67162275 -1.50784039 -0.48588544 2 6 24056 3.10600000 2686967320 2686967320 -9.00000000
-20.65551949 -11.65303993 2.91194606 46 7 24057 23.89400000 2686967322 2686967322 7.00000000
-3.33716226 -1.88192928 -0.47041565 1 8 24058 3.86000000 2686967325 2686967325 -7.00000000
-16.61610413 -9.36651516 3.02106237 42 9 24059 19.31200000 2686967327 2686967327 9.00000000
-4.39113474 -2.47528720 -0.44100806 6 10 24059 5.06000000 2686967329 2686967329 -5.00000000
-10.09828568 -5.69009161 2.25307250 12 11 24060 11.80800000 2686967332 2686967332 11.00000000
-6.38831377 -3.59816098 -0.38425058 3 12 24061 7.34200000 2686967334 2686967334 -3.00000000
-9.53145313 -5.36631489 2.52530050 35 13 24062 11.22600000 2686967336 2686967336 13.00000000
-9.93151093 -5.58926964 -0.19892253 6 14 24063 11.39800000 2686967338 2686967338 -1.00000000
-8.10878372 -4.56160927 2.49294496 33 15 24064 9.63200000 2686967341 2686967341 15.00000000
-1.67476416 -0.93944955 -0.51453227 4 0 24071 1.98800000 2686967362 2686967362 -15.00000000
-22.47769165 -12.60357666 0.44981831 5 1 24072 25.77400000 2686967364 2686967364 1.00000000
-1.92262709 -1.07760465 -0.50883931 4 2 24073 2.26200000 2686967366 2686967366 -13.00000000
-22.47038078 -12.58916950 1.34984899 4 3 24074 25.79200000 2686967368 2686967368 3.00000000
-2.24200821 -1.25609899 -0.49953794 3 4 24074 2.61800000 2686967371 2686967371 -11.00000000
-22.49427223 -12.59739780 2.25559068 32 5 24075 25.88000000 2686967373 2686967373 5.00000000
-2.68721199 -1.50429499 -0.48776266 2 6 24076 3.11800000 2686967375 2686967375 -9.00000000
-20.64410019 -11.55178738 2.90463400 43 7 24077 23.83400000 2686967378 2686967378 7.00000000
-3.34024596 -1.86833084 -0.46992818 1 8 24078 3.85600000 2686967380 2686967380 -7.00000000
-16.64525032 -9.30652905 3.02043676 46 9 24079 19.30800000 2686967382 2686967382 9.00000000
-4.38235807 -2.45022106 -0.43926495 6 10 24079 5.04000000 2686967385 2686967385 -5.00000000
-10.09752178 -5.64331388 2.24849319 12 11 24080 11.78400000 2686967387 2686967387 11.00000000
-6.38688564 -3.56804705 -0.38341323 3 12 24081 7.32600000 2686967389 2686967389 -3.00000000
-9.53821659 -5.32636070 2.52215123 45 13 24082 11.21200000 2686967391 2686967391 13.00000000
-11.73022461 -6.54774284 -0.23449053 4 14 24083 13.43600000 2686967394 2686967394 -1.00000000
-8.12723923 -4.53657770 2.49398041 33 15 24083 9.63600000 2686967396 2686967396 15.00000000
-1.66621614 -0.92702317 -0.51090878 4 0 24091 1.97400000 2686967417 2686967417 -15.00000000
-22.65961075 -12.60181904 0.45257580 5 1 24092 25.93200000 2686967419 2686967419 1.00000000
-1.92978334 -1.07278061 -0.50973910 4 2 24093 2.26600000 2686967421 2686967421 -13.00000000
-22.64861679 -12.58535576 1.35790873 8 3 24094 25.94600000 2686967424 2686967424 3.00000000
-2.25324368 -1.25207973 -0.50106442 3 4 24094 2.62600000 2686967426 2686967426 -11.00000000
-22.66525459 -12.58942509 2.26831532 32 5 24095 26.02600000 2686967428 2686967428 5.00000000
-2.67517614 -1.48531687 -0.48463398 2 6 24096 3.09800000 2686967431 2686967431 -9.00000000
-20.66173363 -11.46713257 2.90146542 34 7 24097 23.80800000 2686967433 2686967433 7.00000000
-3.33633208 -1.85088181 -0.46846575 1 8 24098 3.84400000 2686967435 2686967435 -7.00000000
-16.67417908 -9.24645329 3.01981091 42 9 24099 19.30400000 2686967438 2686967438 9.00000000
-4.38217211 -2.43007779 -0.43839338 3 10 24099 5.03000000 2686967440 2686967440 -5.00000000
-10.09655380 -5.59661102 2.24391389 12 11 24100 11.76000000 2686967442 2686967442 11.00000000
-6.41153097 -3.55250692 -0.38414592 3 12 24101 7.34000000 2686967444 2686967444 -3.00000000
-9.56016064 -5.29492188 2.52305102 45 13 24102 11.21600000 2686967447 2686967447 13.00000000
-11.77050400 -6.51644278 -0.23483959 2 14 24103 13.45600000 2686967449 2686967449 -1.00000000
-8.16499710 -4.52034473 2.50070953 38 15 24103 9.66200000 2686967451 2686967451 15.00000000
-1.68128192 -0.92773467 -0.51453227 4 0 24111 1.98800000 2686967472 2686967472 -15.00000000
-22.84003830 -12.59797859 0.45529839 5 1 24112 26.08800000 2686967474 2686967474 1.00000000
-1.93351638 -1.06603789 -0.50973910 4 2 24113 2.26600000 2686967477 2686967477 -13.00000000
-22.83889389 -12.59214878 1.36680579 12 3 24113 26.11600000 2686967479 2686967479 3.00000000
-2.24556446 -1.23757350 -0.49839309 3 4 24114 2.61200000 2686967481 2686967481 -11.00000000
-22.84867096 -12.58714104 2.28226018 40 5 24115 26.18600000 2686967484 2686967484 5.00000000
-2.69072700 -1.48168683 -0.48651120 2 6 24116 3.11000000 2686967486 2686967486 -9.00000000
-20.66511536 -11.37483788 2.89634681 11 7 24117 23.76600000 2686967488 2686967488 7.00000000
-3.34451175 -1.84018147 -0.46870950 1 8 24118 3.84600000 2686967490 2686967490 -7.00000000
-16.70475006 -9.19110870 3.01981091 42 9 24118 19.30400000 2686967493 2686967493 9.00000000
-4.38888216 -2.41380620 -0.43821907 6 10 24119 5.02800000 2686967495 2686967495 -5.00000000
-10.07817841 -5.54052591 2.23551822 12 11 24120 11.71600000 2686967497 2686967497 11.00000000
-6.41864109 -3.52721906 -0.38383189 3 12 24121 7.33400000 2686967500 2686967500 -3.00000000
-9.58200073 -5.26339483 2.52395082 45 13 24122 11.22000000 2686967502 2686967502 13.00000000
-11.81245995 -6.48590279 -0.23522353 2 14 24123 13.47800000 2686967504 2686967504 -1.00000000
-8.21967411 -4.51320124 2.51261520 38 15 24123 9.70800000 2686967507 2686967507 15.00000000
-1.68620479 -0.92278767 -0.51504987 4 0 24131 1.99000000 2686967527 2686967527 -15.00000000
-22.99089050 -12.57671642 0.45742756 5 1 24132 26.21000000 2686967530 2686967530 1.00000000
-1.92354715 -1.05180264 -0.50613987 4 2 24133 2.25000000 2686967532 2686967532 -13.00000000
-23.01633453 -12.58019829 1.37465620 12 3 24134 26.26600000 2686967534 2686967534 3.00000000
-2.25848436 -1.23443556 -0.50030118 3 4 24134 2.62200000 2686967537 2686967537 -11.00000000
-23.02360344 -12.57895279 2.29533362 32 5 24135 26.33600000 2686967539 2686967539 5.00000000
-2.70281720 -1.47607255 -0.48776266 2 6 24136 3.11800000 2686967541 2686967541 -9.00000000
-17.00039673 -9.28046799 2.37815833 9 7 24137 19.51400000 2686967543 2686967543 7.00000000
-3.35091496 -1.82849574 -0.46870950 1 8 24138 3.84600000 2686967546 2686967546 -7.00000000
-16.73485756 -9.12792969 3.01918507 46 9 24139 19.30000000 2686967548 2686967548 9.00000000
-4.41127443 -2.40610361 -0.43961358 3 10 24139 5.04400000 2686967550 2686967550 -5.00000000
-10.08711529 -5.49967384 2.23322845 21 11 24140 11.70400000 2686967553 2686967553 11.00000000
-6.42389965 -3.50096941 -0.38341323 3 12 24141 7.32600000 2686967555 2686967555 -3.00000000
-9.59347057 -5.22618628 2.52215123 46 13 24142 11.21200000 2686967557 2686967557 13.00000000
-11.87190819 -6.46471310 -0.23595653 4 14 24143 13.52000000 2686967560 2686967560 -1.00000000
-8.27348995 -4.50336313 2.52400327 36 15 24144 9.75200000 2686967562 2686967562 15.00000000
-1.69604659 -0.92087811 -0.51712048 5 0 24150 1.99800000 2686967583 2686967583 -15.00000000
-23.17131615 -12.57576180 0.46018505 5 1 24151 26.36800000 2686967585 2686967585 1.00000000
-1.93045032 -1.04727662 -0.50703967 4 2 24152 2.25400000 2686967587 2686967587 -13.00000000
-23.19267654 -12.58211517 1.38282061 17 3 24152 26.42200000 2686967590 2686967590 3.00000000
-2.26429129 -1.22787523 -0.50068283 3 4 24153 2.62400000 2686967592 2686967592 -11.00000000
-23.21057320 -12.58133984 2.30980158 33 5 24154 26.50200000 2686967594 2686967594 5.00000000
-2.71117091 -1.46898377 -0.48838839 2 6 24155 3.12200000 2686967596 2686967596 -9.00000000
-20.64256668 -11.18002605 2.88245368 11 7 24156 23.65200000 2686967599 2686967599 7.00000000
-3.35346866 -1.81548357 -0.46822202 1 8 24157 3.84200000 2686967601 2686967601 -7.00000000
-16.75461006 -9.06674385 3.01730800 42 9 24158 19.28800000 2686967603 2686967603 9.00000000
-4.43324709 -2.39904809 -0.44100806 6 10 24158 5.06000000 2686967606 2686967606 -5.00000000
-10.10357094 -5.46525955 2.23284698 15 11 24159 11.70200000 2686967608 2686967608 11.00000000
-6.44952869 -3.48724723 -0.38425058 3 12 24160 7.34200000 2686967610 2686967610 -3.00000000
-9.60389042 -5.19063854 2.52035165 47 13 24161 11.20400000 2686967613 2686967613 13.00000000
-11.87920570 -6.41770506 -0.23567730 4 14 24162 13.50400000 2686967615 2686967615 -1.00000000
-8.34368610 -4.50765085 2.54108548 36 15 24162 9.81800000 2686967617 2686967617 15.00000000
-1.69414783 -0.91220462 -0.51556754 4 0 24170 1.99200000 2686967638 2686967638 -15.00000000
-23.38411331 -12.58578396 0.46353590 5 1 24171 26.56000000 2686967640 2686967640 1.00000000
-1.95983636 -1.05438089 -0.51378822 4 2 24172 2.28400000 2686967642 2686967642 -13.00000000
-23.38771820 -12.58246040 1.39182246 25 3 24172 26.59400000 2686967645 2686967645 3.00000000
-2.26683450 -1.21903408 -0.50030118 3 4 24173 2.62200000 2686967647 2686967647 -11.00000000
-23.39649582 -12.57665443 2.32392073 33 5 24174 26.66400000 2686967649 2686967649 5.00000000
-2.71280193 -1.45764101 -0.48776266 2 6 24175 3.11800000 2686967652 2686967652 -9.00000000
-16.98097801 -9.12038994 2.36670256 6 7 24176 19.42000000 2686967654 2686967654 7.00000000
-3.37027931 -1.80940056 -0.46968445 1 8 24177 3.85400000 2686967656 2686967656 -7.00000000
-16.78267479 -9.00633526 3.01668215 42 9 24178 19.28400000 2686967659 2686967659 9.00000000
-4.43983889 -2.38261652 -0.44083375 3 10 24178 5.05800000 2686967661 2686967661 -5.00000000
-12.41318703 -6.65868235 2.73810911 29 11 24179 14.35000000 2686967663 2686967663 11.00000000
-6.45110130 -3.45905018 -0.38362256 3 12 24180 7.33000000 2686967666 2686967666 -3.00000000
-9.62538624 -5.15892410 2.52125144 47 13 24181 11.20800000 2686967668 2686967668 13.00000000
-11.89095974 -6.37053347 -0.23546787 4 14 24182 13.49200000 2686967670 2686967670 -1.00000000
-8.39513016 -4.49765682 2.55195570 33 15 24182 9.86000000 2686967672 2686967672 15.00000000
-1.68895841 -0.90144098 -0.51297933 5 0 24191 1.98200000 2686967693 2686967693 -15.00000000
-23.56593895 -12.57246971 0.46622360 5 1 24192 26.71400000 2686967695 2686967695 1.00000000
-1.95509017 -1.04260576 -0.51153868 4 2 24193 2.27400000 2686967698 2686967698 -13.00000000
-23.58919525 -12.57430172 1.40092885 29 3 24194 26.76800000 2686967700 2686967700 3.00000000
-2.26782227 -1.20887053 -0.49953794 3 4 24194 2.61800000 2686967702 2686967702 -11.00000000
-23.58837891 -12.56858063 2.33838868 33 5 24195 26.83000000 2686967705 2686967705 5.00000000
-2.71115208 -1.44397390 -0.48651120 2 6 24196 3.11000000 2686967707 2686967707 -9.00000000
-16.97574234 -9.03756714 2.36134028 9 7 24197 19.37600000 2686967709 2686967709 7.00000000
-3.36637402 -1.79144037 -0.46822202 1 8 24198 3.84200000 2686967712 2686967712 -7.00000000
-16.82098579 -8.95141029 3.01793361 42 9 24198 19.29200000 2686967714 2686967714 9.00000000
-4.43271065 -2.35790658 -0.43926495 9 10 24199 5.04000000 2686967716 2686967716 -5.00000000
-11.67652416 -6.20851803 2.57057881 6 11 24200 13.47200000 2686967719 2686967719 11.00000000
-6.47784519 -3.44288111 -0.38445994 3 12 24201 7.34600000 2686967721 2686967721 -3.00000000
-9.65455532 -5.12909603 2.52395082 45 13 24202 11.22000000 2686967723 2686967723 13.00000000
-11.96721268 -6.35504436 -0.23651502 4 14 24203 13.55200000 2686967725 2686967725 -1.00000000
-8.44134617 -4.48078680 2.56075573 18 15 24204 9.89400000 2686967728 2686967728 15.00000000
-1.69380212 -0.89644361 -0.51349699 4 0 24211 1.98400000 2686967748 2686967748 -15.00000000
-23.77053070 -12.57522678 0.46939993 5 1 24212 26.89600000 2686967751 2686967751 1.00000000
-1.95699489 -1.03486383 -0.51108879 4 2 24213 2.27200000 2686967753 2686967753 -13.00000000
-23.77377701 -12.57163429 1.40940726 34 3 24213 26.93000000 2686967755 2686967755 3.00000000
-2.27202821 -1.20094693 -0.49953794 3 4 24214 2.61800000 2686967758 2686967758 -11.00000000
-23.78360748 -12.56621075 2.35337925 33 5 24215 27.00200000 2686967760 2686967760 5.00000000
-2.71617603 -1.43450141 -0.48651120 2 6 24216 3.11000000 2686967762 2686967762 -9.00000000
-16.97383118 -8.96064758 2.35670948 9 7 24217 19.33800000 2686967765 2686967765 7.00000000
-3.40069723 -1.79450154 -0.47212183 3 8 24218 3.87400000 2686967767 2686967767 -7.00000000
-16.83970451 -8.88232517 3.01543069 51 9 24219 19.27600000 2686967769 2686967769 9.00000000
-4.43738985 -2.34055996 -0.43891633 3 10 24219 5.03600000 2686967772 2686967772 -5.00000000
-12.41536427 -6.54587889 2.72818708 45 11 24220 14.29800000 2686967774 2686967774 11.00000000
-6.50749254 -3.42956018 -0.38550666 3 12 24221 7.36600000 2686967776 2686967776 -3.00000000
-9.66895199 -5.09354782 2.52305102 46 13 24222 11.21600000 2686967778 2686967778 13.00000000
-11.97870636 -6.30764198 -0.23630558 4 14 24223 13.54000000 2686967781 2686967781 -1.00000000
-8.24666595 -4.34061861 2.49708605 6 15 24224 9.64800000 2686967783 2686967783 15.00000000
-1.70547402 -0.89501423 -0.51608515 5 0 24231 1.99400000 2686967804 2686967804 -15.00000000
-23.95417786 -12.56556034 0.47215739 5 1 24232 27.05400000 2686967806 2686967806 1.00000000
-1.94678831 -1.02078676 -0.50748956 4 2 24233 2.25600000 2686967808 2686967808 -13.00000000
-23.96433067 -12.56555271 1.41809511 30 3 24233 27.09600000 2686967811 2686967811 3.00000000
-2.27620649 -1.19300878 -0.49953794 3 4 24234 2.61800000 2686967813 2686967813 -11.00000000
-23.98263359 -12.56447887 2.36871886 33 5 24235 27.17800000 2686967815 2686967815 5.00000000
-2.72466683 -1.42684424 -0.48713693 2 6 24236 3.11400000 2686967818 2686967818 -9.00000000
-16.95400429 -8.87464523 2.34964085 6 7 24237 19.28000000 2686967820 2686967820 7.00000000
-3.37528062 -1.76605463 -0.46773455 3 8 24238 3.83800000 2686967822 2686967822 -7.00000000
-16.89006996 -8.83742332 3.01918507 42 9 24238 19.30000000 2686967825 2686967825 9.00000000
-4.48084259 -2.34352398 -0.44240254 3 10 24239 5.07600000 2686967827 2686967827 -5.00000000
-12.41204071 -6.48885775 2.72246265 48 11 24240 14.26800000 2686967829 2686967829 11.00000000
-6.51942396 -3.40682387 -0.38550666 3 12 24241 7.36600000 2686967831 2686967831 -3.00000000
-9.68667316 -5.05976582 2.52305102 45 13 24242 11.21600000 2686967834 2686967834 13.00000000
-12.01128674 -6.27134323 -0.23651502 4 14 24243 13.55200000 2686967836 2686967836 -1.00000000
-8.11961842 -4.23761845 2.45412207 2 15 24244 9.48200000 2686967838 2686967838 15.00000000
-1.70858777 -0.88905555 -0.51608515 5 0 24251 1.99400000 2686967859 2686967859 -15.00000000
-24.14691734 -12.55937862 0.47508940 5 1 24252 27.22200000 2686967861 2686967861 1.00000000
-1.95725572 -1.01758063 -0.50928921 4 2 24253 2.26400000 2686967864 2686967864 -13.00000000
-24.14803886 -12.55460835 1.42636418 35 3 24253 27.25400000 2686967866 2686967866 3.00000000
-2.28384113 -1.18686664 -0.50030118 3 4 24254 2.62200000 2686967868 2686967868 -11.00000000
-24.17840004 -12.55967331 2.38370967 42 5 24255 27.35000000 2686967871 2686967871 5.00000000
-2.72612453 -1.41550422 -0.48651120 2 6 24256 3.11000000 2686967873 2686967873 -9.00000000
-16.96373558 -8.80443764 2.34671617 6 7 24257 19.25600000 2686967875 2686967875 7.00000000
-3.39375925 -1.76066101 -0.46944070 3 8 24258 3.85200000 2686967878 2686967878 -7.00000000
-16.91380119 -8.77477360 3.01793361 42 9 24258 19.29200000 2686967880 2686967880 9.00000000
-4.46777153 -2.31686211 -0.44031081 3 10 24259 5.05200000 2686967882 2686967882 -5.00000000
-12.41718483 -6.43645716 2.71864653 48 11 24260 14.24800000 2686967884 2686967884 11.00000000
-6.50999641 -3.37302017 -0.38425058 3 12 24261 7.34200000 2686967887 2686967887 -3.00000000
-9.70081520 -5.02412987 2.52215123 47 13 24262 11.21200000 2686967889 2686967889 13.00000000
-12.06862164 -6.24776459 -0.23721310 4 14 24263 13.59200000 2686967891 2686967891 -1.00000000
-8.11205578 -4.19770813 2.44739294 2 15 24264 9.45600000 2686967894 2686967894 15.00000000
-1.70996392 -0.88220030 -0.51556754 4 0 24271 1.99200000 2686967914 2686967914 -15.00000000
-24.32746124 -12.54558659 0.47777706 5 1 24272 27.37600000 2686967917 2686967917 1.00000000
-1.96599233 -1.01342106 -0.51063889 4 2 24273 2.27000000 2686967919 2686967919 -13.00000000
-24.35504150 -12.55442905 1.43599391 39 3 24273 27.43800000 2686967921 2686967921 3.00000000
-2.28447962 -1.17708886 -0.49953794 3 4 24274 2.61800000 2686967924 2686967924 -11.00000000
-24.36733818 -12.55000401 2.39800310 42 5 24275 27.51400000 2686967926 2686967926 5.00000000
-2.74509931 -1.41321290 -0.48901415 2 6 24276 3.12600000 2686967928 2686967928 -9.00000000
-16.97318459 -8.73426914 2.34379125 6 7 24277 19.23200000 2686967930 2686967930 7.00000000
-3.38929296 -1.74335587 -0.46797827 3 8 24278 3.84000000 2686967933 2686967933 -7.00000000
-16.92676163 -8.70664501 3.01480508 46 9 24278 19.27200000 2686967935 2686967935 9.00000000
-4.46342802 -2.29487538 -0.43909064 3 10 24279 5.03800000 2686967937 2686967937 -5.00000000
-12.36973095 -6.35717821 2.70338178 52 11 24280 14.16800000 2686967940 2686967940 11.00000000
-6.51817751 -3.34845018 -0.38404125 3 12 24281 7.33800000 2686967942 2686967942 -3.00000000
-9.71482658 -4.98845673 2.52125144 46 13 24282 11.20800000 2686967944 2686967944 13.00000000
-12.06722927 -6.19372845 -0.23675935 6 14 24283 13.56600000 2686967947 2686967947 -1.00000000
-8.13280582 -4.17431307 2.44946337 2 15 24283 9.46400000 2686967949 2686967949 15.00000000
-1.70271349 -0.87094754 -0.51246172 4 0 24291 1.98000000 2686967970 2686967970 -15.00000000
-24.53134727 -12.54252148 0.48091853 5 1 24292 27.55600000 2686967972 2686967972 1.00000000
-1.97472358 -1.00921273 -0.51198858 4 2 24293 2.27600000 2686967974 2686967974 -13.00000000
-24.55522156 -12.54932213 1.44520509 39 3 24293 27.61400000 2686967977 2686967977 3.00000000
-2.28857470 -1.16910744 -0.49953794 3 4 24294 2.61800000 2686967979 2686967979 -11.00000000
-24.56005096 -12.54097939 2.41264534 34 5 24295 27.68200000 2686967981 2686967981 5.00000000
-2.73593998 -1.39643788 -0.48651120 2 6 24296 3.11000000 2686967983 2686967983 -9.00000000
-16.97881317 -8.66233921 2.34037876 6 7 24297 19.20400000 2686967986 2686967986 7.00000000
-3.40596819 -1.73692536 -0.46944070 3 8 24298 3.85200000 2686967988 2686967988 -7.00000000
-16.94297218 -8.64032650 3.01230216 42 9 24298 19.25600000 2686967990 2686967990 9.00000000
-4.46963644 -2.27837634 -0.43891633 6 10 24299 5.03600000 2686967993 2686967993 -5.00000000
-12.42158413 -6.32911301 2.70986938 52 11 24300 14.20200000 2686967995 2686967995 11.00000000
-6.54584360 -3.33383489 -0.38498330 3 12 24301 7.35600000 2686967997 2686967997 -3.00000000
-9.74260044 -4.95981979 2.52395082 48 13 24302 11.22000000 2686968000 2686968000 13.00000000
-12.10659790 -6.16063738 -0.23710839 6 14 24303 13.58600000 2686968002 2686968002 -1.00000000
-8.82131577 -4.48693037 2.65186000 9 15 24304 10.24600000 2686968004 2686968004 15.00000000
-1.71278679 -0.86819470 -0.51453227 4 0 24312 1.98800000 2686968025 2686968025 -15.00000000
-24.75374985 -12.54200077 0.48437408 5 1 24313 27.75400000 2686968027 2686968027 1.00000000
-1.96276283 -0.99404407 -0.50793946 4 2 24314 2.25800000 2686968030 2686968030 -13.00000000
-24.77072906 -12.53973961 1.45504427 36 3 24315 27.80200000 2686968032 2686968032 3.00000000
-2.29634738 -1.16248488 -0.50030118 3 4 24315 2.62200000 2686968034 2686968034 -11.00000000
-24.76584816 -12.53183937 2.42833328 34 5 24316 27.86200000 2686968036 2686968036 5.00000000
-2.73751450 -1.38461769 -0.48588544 2 6 24317 3.10600000 2686968039 2686968039 -9.00000000
-16.97501755 -8.58213711 2.33550406 6 7 24318 19.16400000 2686968041 2686968041 7.00000000
-3.41053987 -1.72353482 -0.46919698 3 8 24319 3.85000000 2686968043 2686968043 -7.00000000
-16.97981644 -8.58084297 3.01324058 42 9 24319 19.26200000 2686968046 2686968046 9.00000000
-4.47795725 -2.26197886 -0.43891633 9 10 24320 5.03600000 2686968048 2686968048 -5.00000000
-12.40614223 -6.26407576 2.70147371 55 11 24321 14.15800000 2686968050 2686968050 11.00000000
-6.54018831 -3.30082178 -0.38393658 3 12 24322 7.33600000 2686968053 2686968053 -3.00000000
-9.76071358 -4.92407799 2.52395082 48 13 24323 11.22000000 2686968055 2686968055 13.00000000
-12.10588455 -6.10451841 -0.23665462 4 14 24324 13.56000000 2686968057 2686968057 -1.00000000
-8.89729786 -4.48655462 2.66997719 26 15 24324 10.31600000 2686968060 2686968060 15.00000000
-1.71580684 -0.86221069 -0.51453227 5 0 24332 1.98800000 2686968080 2686968080 -15.00000000
-24.95820236 -12.53629875 0.48751551 5 1 24333 27.93400000 2686968083 2686968083 1.00000000
-1.96970379 -0.98893547 -0.50883931 4 2 24334 2.26200000 2686968085 2686968085 -13.00000000
-24.96786499 -12.53024006 1.46404600 36 3 24335 27.97400000 2686968087 2686968087 3.00000000
-2.30390072 -1.15622330 -0.50106442 3 4 24335 2.62600000 2686968089 2686968089 -11.00000000
-24.97684479 -12.52928925 2.44471860 35 5 24336 28.05000000 2686968092 2686968092 5.00000000
-2.74939442 -1.37859511 -0.48713693 2 6 24337 3.11400000 2686968094 2686968094 -9.00000000
-16.97292709 -8.50682068 2.33111691 6 7 24338 19.12800000 2686968096 2686968096 7.00000000
-3.41121078 -1.70895183 -0.46846575 3 8 24339 3.84400000 2686968099 2686968099 -7.00000000
-17.00055504 -8.51324368 3.01136351 42 9 24340 19.25000000 2686968101 2686968101 9.00000000
-4.48938847 -2.24811840 -0.43926495 9 10 24340 5.04000000 2686968103 2686968103 -5.00000000
-12.39633083 -6.20491457 2.69460464 55 11 24341 14.12200000 2686968106 2686968106 11.00000000
-6.54631186 -3.27529120 -0.38362256 3 12 24342 7.33000000 2686968108 2686968108 -3.00000000
-9.77784252 -4.88997698 2.52395082 45 13 24343 11.22000000 2686968110 2686968110 13.00000000
-12.15931606 -6.07831812 -0.23728292 2 14 24344 13.59600000 2686968113 2686968113 -1.00000000
-8.96034145 -4.47722864 2.68395352 35 15 24345 10.37000000 2686968115 2686968115 15.00000000
-1.72399366 -0.85880029 -0.51608515 5 0 24352 1.99400000 2686968136 2686968136 -15.00000000
-25.15754700 -12.52664757 0.49055225 5 1 24353 28.10800000 2686968138 2686968138 1.00000000
-1.96616542 -0.97858065 -0.50703967 4 2 24354 2.25400000 2686968140 2686968140 -13.00000000
-25.17060089 -12.52218533 1.47336185 31 3 24355 28.15200000 2686968142 2686968142 3.00000000
-2.29561830 -1.14205289 -0.49839309 3 4 24355 2.61200000 2686968145 2686968145 -11.00000000
-25.19525909 -12.52896690 2.46180105 35 5 24356 28.24600000 2686968147 2686968147 5.00000000
-2.75418973 -1.36898959 -0.48713693 2 6 24357 3.11400000 2686968149 2686968149 -9.00000000
-16.94918633 -8.42102432 2.32380462 6 7 24358 19.06800000 2686968152 2686968152 7.00000000
-3.41359949 -1.69526815 -0.46797827 3 8 24359 3.84000000 2686968154 2686968154 -7.00000000
-17.02515411 -8.45506382 3.01073766 46 9 24359 19.24600000 2686968156 2686968156 9.00000000
-4.50077772 -2.23420548 -0.43961358 9 10 24360 5.04400000 2686968159 2686968159 -5.00000000
-12.40736294 -6.15636969 2.69231486 55 11 24361 14.11000000 2686968161 2686968161 11.00000000
-6.56844091 -3.25774503 -0.38425058 3 12 24362 7.34200000 2686968163 2686968163 -3.00000000
-9.78786755 -4.85235357 2.52215123 47 13 24363 11.21200000 2686968166 2686968166 13.00000000
-12.19120979 -6.04116440 -0.23749235 2 14 24364 13.60800000 2686968168 2686968168 -1.00000000
-9.03572369 -4.47751236 2.70207071 42 15 24364 10.44000000 2686968170 2686968170 15.00000000
-1.72871315 -0.85363251 -0.51660281 4 0 24372 1.99600000 2686968191 2686968191 -15.00000000
-25.36609077 -12.52018070 0.49376348 5 1 24373 28.29200000 2686968193 2686968193 1.00000000
-1.99054086 -0.98205805 -0.51243848 4 2 24374 2.27800000 2686968195 2686968195 -13.00000000
-25.38074875 -12.51640034 1.48309636 31 3 24375 28.33800000 2686968198 2686968198 3.00000000
-2.30135155 -1.13490105 -0.49877471 3 4 24375 2.61400000 2686968200 2686968200 -11.00000000
-25.39788818 -12.51934242 2.47731495 35 5 24376 28.42400000 2686968202 2686968202 5.00000000
-2.76249552 -1.36111343 -0.48776266 2 6 24377 3.11800000 2686968205 2686968205 -9.00000000
-16.95354652 -8.34953117 2.32039237 6 7 24378 19.04000000 2686968207 2686968207 7.00000000
-3.42305827 -1.68509567 -0.46846575 3 8 24379 3.84400000 2686968209 2686968209 -7.00000000
-17.04716682 -8.38824558 3.00917339 46 9 24380 19.23600000 2686968212 2686968212 9.00000000
-4.51927519 -2.22375917 -0.44065943 9 10 24380 5.05600000 2686968214 2686968214 -5.00000000
-12.40763664 -6.10262442 2.68773556 52 11 24381 14.08600000 2686968216 2686968216 11.00000000
-6.58335686 -3.23655939 -0.38445994 3 12 24382 7.34600000 2686968218 2686968218 -3.00000000
-9.81523991 -4.82331514 2.52485061 45 13 24383 11.22400000 2686968221 2686968221 13.00000000
-12.22119713 -6.00298023 -0.23766688 2 14 24384 13.61800000 2686968223 2686968223 -1.00000000
-9.11103344 -4.47331238 2.71967053 42 15 24385 10.50800000 2686968225 2686968225 15.00000000
-1.72285938 -0.84364724 -0.51401460 5 0 24391 1.98600000 2686968246 2686968246 -15.00000000
-25.57630157 -12.51863194 0.49704453 5 1 24392 28.48000000 2686968248 2686968248 1.00000000
-1.99028552 -0.97373897 -0.51153868 4 2 24393 2.27400000 2686968251 2686968251 -13.00000000
-25.59615326 -12.51727581 1.49324954 32 3 24394 28.53200000 2686968253 2686968253 3.00000000
-2.31215715 -1.13071322 -0.50030118 3 4 24394 2.62200000 2686968255 2686968255 -11.00000000
-25.59499359 -12.51117325 2.49248004 35 5 24395 28.59800000 2686968258 2686968258 5.00000000
-2.77054358 -1.35367954 -0.48838839 2 6 24396 3.12200000 2686968260 2686968260 -9.00000000
-16.97757339 -8.29152298 2.31990480 4 7 24397 19.03600000 2686968262 2686968262 7.00000000
-3.45716977 -1.68766844 -0.47236559 3 8 24398 3.87600000 2686968265 2686968265 -7.00000000
-17.07521057 -8.33551598 3.00948620 42 9 24398 19.23800000 2686968267 2686968267 9.00000000
-4.51588106 -2.20351815 -0.43961358 9 10 24399 5.04400000 2686968269 2686968269 -5.00000000
-12.40310192 -6.04939699 2.68239284 52 11 24400 14.05800000 2686968271 2686968271 11.00000000
-6.59764433 -3.21646070 -0.38466927 3 12 24401 7.35000000 2686968274 2686968274 -3.00000000
-9.82767677 -4.78903246 2.52395082 47 13 24402 11.22000000 2686968276 2686968276 13.00000000
-12.23744106 -5.96066904 -0.23759706 2 14 24403 13.61400000 2686968278 2686968278 -1.00000000
-9.18061924 -4.47173786 2.73623490 42 15 24403 10.57200000 2686968281 2686968281 15.00000000
-1.72231781 -0.83594114 -0.51297933 4 0 24411 1.98200000 2686968301 2686968301 -15.00000000
-25.77996826 -12.50696087 0.50015104 5 1 24412 28.65800000 2686968304 2686968304 1.00000000
-1.98841202 -0.96423477 -0.51018900 4 2 24413 2.26800000 2686968306 2686968306 -13.00000000
-25.81222725 -12.51148224 1.50329804 32 3 24414 28.72400000 2686968308 2686968308 3.00000000
-2.32315660 -1.12606061 -0.50182766 3 4 24414 2.63000000 2686968311 2686968311 -11.00000000
-25.81601906 -12.50775623 2.50973678 36 5 24415 28.79600000 2686968313 2686968313 5.00000000
-2.76814055 -1.34055638 -0.48713693 2 6 24416 3.11400000 2686968315 2686968315 -9.00000000
-16.98497200 -8.22183037 2.31697989 4 7 24417 19.01200000 2686968318 2686968318 7.00000000
-3.43266201 -1.66089225 -0.46822202 3 8 24418 3.84200000 2686968320 2686968320 -7.00000000
-17.11631584 -8.27803707 3.01136351 42 9 24419 19.25000000 2686968322 2686968322 9.00000000
-4.53071976 -2.19121122 -0.44031081 9 10 24419 5.05200000 2686968324 2686968324 -5.00000000
-12.39409351 -5.99153900 2.67590547 48 11 24420 14.02400000 2686968327 2686968327 11.00000000
-6.60883141 -3.19341111 -0.38466927 3 12 24421 7.35000000 2686968329 2686968329 -3.00000000
-9.85135365 -4.75808859 2.52575040 45 13 24422 11.22800000 2686968331 2686968331 13.00000000
-12.25817299 -5.91791630 -0.23759706 2 14 24423 13.61400000 2686968334 2686968334 -1.00000000
-9.26828194 -4.47248220 2.75745821 40 15 24424 10.65400000 2686968336 2686968336 15.00000000
-1.73581636 -0.83464587 -0.51608515 4 0 24432 1.99400000 2686968357 2686968357 -15.00000000
-26.01848412 -12.50507641 0.50388587 5 1 24433 28.87200000 2686968359 2686968359 1.00000000
-1.98841965 -0.95525265 -0.50928921 4 2 24434 2.26400000 2686968361 2686968361 -13.00000000
-26.02535248 -12.49719620 1.51303244 32 3 24435 28.91000000 2686968364 2686968364 3.00000000
-2.32372856 -1.11583865 -0.50106442 3 4 24435 2.62600000 2686968366 2686968366 -11.00000000
-26.04310608 -12.50012779 2.52734232 36 5 24436 28.99800000 2686968368 2686968368 5.00000000
-2.77481627 -1.33125615 -0.48744980 2 6 24437 3.11600000 2686968371 2686968371 -9.00000000
-20.62705231 -9.89168262 2.80884457 11 7 24438 23.04800000 2686968373 2686968373 7.00000000
-3.45304704 -1.65516400 -0.47017193 3 8 24439 3.85800000 2686968375 2686968375 -7.00000000
-4.53872061 -2.17459059 -0.44031081 9 10 24440 5.05200000 2686968380 2686968380 -5.00000000
-12.40711784 -5.94183254 2.67399716 52 11 24441 14.01400000 2686968382 2686968382 11.00000000
-6.60788107 -3.16313052 -0.38393658 3 12 24442 7.33600000 2686968384 2686968384 -3.00000000
-9.86169529 -4.71858501 2.52395082 46 13 24443 11.22000000 2686968387 2686968387 13.00000000
-12.29240894 -5.87898731 -0.23784140 2 14 24444 13.62800000 2686968389 2686968389 -1.00000000
-9.35180569 -4.47260952 2.77764606 45 15 24444 10.73200000 2686968391 2686968391 15.00000000
-1.74395108 -0.83107489 -0.51763809 5 0 24452 2.00000000 2686968412 2686968412 -15.00000000
-26.23890114 -12.49845409 0.50730658 5 1 24453 29.06800000 2686968414 2686968414 1.00000000
-1.98294461 -0.94411731 -0.50703967 4 2 24454 2.25400000 2686968417 2686968417 -13.00000000
-26.23292923 -12.48437691 1.52255762 27 3 24455 29.09200000 2686968419 2686968419 3.00000000
-2.32760954 -1.10772049 -0.50106442 3 4 24455 2.62600000 2686968421 2686968421 -11.00000000
-26.26470184 -12.49387455 2.54459906 36 5 24456 29.19600000 2686968424 2686968424 5.00000000
-2.78479838 -1.32410681 -0.48838839 2 6 24457 3.12200000 2686968426 2686968426 -9.00000000
-20.64531898 -9.81195164 2.80665088 16 7 24458 23.03000000 2686968428 2686968428 7.00000000
-3.44266629 -1.63543451 -0.46797827 3 8 24459 3.84000000 2686968430 2686968430 -7.00000000
-14.19690514 -6.74118614 2.48918509 3 9 24460 15.91200000 2686968433 2686968433 9.00000000
-4.54808378 -2.15958881 -0.44048512 9 10 24460 5.05400000 2686968435 2686968435 -5.00000000
-12.40295219 -5.88670206 2.66865468 52 11 24461 13.98600000 2686968437 2686968437 11.00000000
-6.61346865 -3.13747740 -0.38362256 3 12 24462 7.33000000 2686968440 2686968440 -3.00000000
-9.88162708 -4.68580246 2.52485061 44 13 24463 11.22400000 2686968442 2686968442 13.00000000
-12.30924129 -5.83433008 -0.23777159 4 14 24464 13.62400000 2686968444 2686968444 -1.00000000
-9.43971539 -4.47221518 2.79886913 42 15 24465 10.81400000 2686968447 2686968447 15.00000000
-1.73621726 -0.82033545 -0.51453227 5 0 24471 1.98800000 2686968467 2686968467 -15.00000000
-26.45740509 -12.49506092 0.51072723 5 1 24472 29.26400000 2686968470 2686968470 1.00000000
-2.00016260 -0.94419152 -0.51063889 4 2 24473 2.27000000 2686968472 2686968472 -13.00000000
-26.46384430 -12.48680592 1.53354824 27 3 24474 29.30200000 2686968474 2686968474 3.00000000
-2.32416797 -1.09664464 -0.49953794 3 4 24474 2.61800000 2686968477 2686968477 -11.00000000
-26.47898293 -12.48829842 2.56133294 37 5 24475 29.38800000 2686968479 2686968479 5.00000000
-2.80346823 -1.32160342 -0.49089134 2 6 24476 3.13800000 2686968481 2686968481 -9.00000000
-20.64721680 -9.72905064 2.80250740 24 7 24477 22.99600000 2686968483 2686968483 7.00000000
-3.45704985 -1.62823844 -0.46919698 3 8 24478 3.85000000 2686968486 2686968486 -7.00000000
-14.28056049 -6.72601128 2.50013566 8 9 24478 15.98200000 2686968488 2686968488 9.00000000
-4.55161476 -2.14279771 -0.44013649 9 10 24479 5.05000000 2686968490 2686968490 -5.00000000
-12.39753532 -5.83383703 2.66331196 53 11 24480 13.95800000 2686968493 2686968493 11.00000000
-6.63648796 -3.12147951 -0.38435528 3 12 24481 7.34400000 2686968495 2686968495 -3.00000000
-9.89358425 -4.65135002 2.52395082 44 13 24482 11.22000000 2686968497 2686968497 13.00000000
-25.64339638 -12.05047035 -0.49456629 20 14 24483 28.33800000 2686968500 2686968500 -1.00000000
-9.49567986 -4.46225643 2.81129241 42 15 24483 10.86200000 2686968502 2686968502 15.00000000
-1.73907018 -0.81426990 -0.51453227 5 0 24491 1.98800000 2686968523 2686968523 -15.00000000
-26.66567612 -12.47976685 0.51390356 5 1 24492 29.44600000 2686968525 2686968525 1.00000000
-2.01227188 -0.94133258 -0.51288843 4 2 24493 2.28000000 2686968527 2686968527 -13.00000000
-26.69543266 -12.48233509 1.54443407 28 3 24494 29.51000000 2686968530 2686968530 3.00000000
-2.33153868 -1.09018826 -0.50030118 3 4 24494 2.62200000 2686968532 2686968532 -11.00000000
-26.70652199 -12.48184109 2.57911277 37 5 24495 29.59200000 2686968534 2686968534 5.00000000
-2.80090547 -1.30846512 -0.48963988 2 6 24496 3.13000000 2686968536 2686968536 -9.00000000
-20.65407181 -9.64432049 2.79885125 30 7 24497 22.96600000 2686968539 2686968539 7.00000000
-3.48789573 -1.62791502 -0.47260931 3 8 24498 3.87800000 2686968541 2686968541 -7.00000000
-14.37197208 -6.70786953 2.51202464 8 9 24498 16.05800000 2686968543 2686968543 9.00000000
-4.55365038 -2.12436962 -0.43961358 9 10 24499 5.04400000 2686968546 2686968546 -5.00000000
-12.39291286 -5.77891016 2.65796924 53 11 24500 13.93000000 2686968548 2686968548 11.00000000
-6.64010239 -3.09491992 -0.38393658 3 12 24501 7.33600000 2686968550 2686968550 -3.00000000
-9.90976048 -4.61678648 2.52395082 47 13 24502 11.22000000 2686968553 2686968553 13.00000000
-9.50944710 -4.42826796 2.81077480 40 15 24503 10.86000000 2686968557 2686968557 15.00000000
-1.74190187 -0.80819446 -0.51453227 5 0 24511 1.98800000 2686968578 2686968578 -15.00000000
-2.00316954 -0.92856574 -0.50973910 4 2 24513 2.26600000 2686968583 2686968583 -13.00000000
-26.91824913 -12.47220039 1.55479658 28 3 24514 29.70800000 2686968585 2686968585 3.00000000
-2.34245515 -1.08534443 -0.50182766 3 4 24514 2.63000000 2686968587 2686968587 -11.00000000
-26.92891312 -12.47143269 2.59636950 37 5 24515 29.79000000 2686968589 2686968589 5.00000000
-2.79470015 -1.29370117 -0.48776266 2 6 24516 3.11800000 2686968592 2686968592 -9.00000000
-20.65878487 -9.55882835 2.79495144 33 7 24517 22.93400000 2686968594 2686968594 7.00000000
-3.46833277 -1.60406411 -0.46919698 5 8 24518 3.85000000 2686968596 2686968596 -7.00000000
-14.51480293 -6.70985508 2.53267407 8 9 24519 16.19000000 2686968599 2686968599 9.00000000
-4.56103802 -2.10846138 -0.43961358 6 10 24519 5.04400000 2686968601 2686968601 -5.00000000
-12.38449478 -5.72243977 2.65186334 56 11 24520 13.89800000 2686968603 2686968603 11.00000000
-6.65811825 -3.07507253 -0.38435528 3 12 24521 7.34400000 2686968606 2686968606 -3.00000000
-9.93643188 -4.58706760 2.52665019 47 13 24522 11.23200000 2686968608 2686968608 13.00000000
-9.53186321 -4.39828444 2.81284547 33 15 24523 10.86800000 2686968612 2686968612 15.00000000
-1.75173342 -0.80533695 -0.51660281 5 0 24531 1.99600000 2686968633 2686968633 -15.00000000
-25.64012718 -11.78229904 0.49254182 5 1 24532 28.22200000 2686968636 2686968636 1.00000000
-1.99931502 -0.91831416 -0.50793946 4 2 24533 2.25800000 2686968638 2686968638 -13.00000000
-2.34266114 -1.07552290 -0.50106442 3 4 24534 2.62600000 2686968642 2686968642 -11.00000000
-27.17328453 -12.46959591 2.61571813 38 5 24535 30.01200000 2686968645 2686968645 5.00000000
-2.80278993 -1.28558505 -0.48838839 2 6 24536 3.12200000 2686968647 2686968647 -9.00000000
-20.64871788 -9.46680260 2.78910184 38 7 24537 22.88600000 2686968649 2686968649 7.00000000
-3.47571564 -1.59277463 -0.46944070 5 8 24538 3.85200000 2686968652 2686968652 -7.00000000
-14.61715794 -6.69534349 2.54644012 8 9 24539 16.27800000 2686968654 2686968654 9.00000000
-4.57742691 -2.09667611 -0.44048512 3 10 24539 5.05400000 2686968656 2686968656 -5.00000000
-12.39011383 -5.67263699 2.64881039 53 11 24540 13.88200000 2686968659 2686968659 11.00000000
-6.64338589 -3.04017711 -0.38288987 3 12 24541 7.31600000 2686968661 2686968661 -3.00000000
-9.94883823 -4.55073404 2.52575040 47 13 24542 11.22800000 2686968663 2686968663 13.00000000
-12.41942978 -5.67819500 -0.23836496 2 14 24543 13.65800000 2686968665 2686968665 -1.00000000
-1.75657105 -0.79940510 -0.51712048 5 0 24553 1.99800000 2686968689 2686968689 -15.00000000
-25.62329102 -11.65561008 0.49135506 5 1 24554 28.15400000 2686968691 2686968691 1.00000000
-2.00637436 -0.91224378 -0.50883931 4 2 24555 2.26200000 2686968693 2686968693 -13.00000000
-2.34677362 -1.06651974 -0.50106442 3 4 24556 2.62600000 2686968698 2686968698 -11.00000000
-27.40962029 -12.45086384 2.63384652 38 5 24557 30.22000000 2686968700 2686968700 5.00000000
-2.80410838 -1.27318037 -0.48776266 2 6 24558 3.11800000 2686968702 2686968702 -9.00000000
-20.67045403 -9.38088417 2.78715181 38 7 24559 22.87000000 2686968705 2686968705 7.00000000
-3.47819018 -1.57777703 -0.46895322 5 8 24560 3.84800000 2686968707 2686968707 -7.00000000
-14.77409172 -6.69871616 2.56927967 12 9 24561 16.42400000 2686968709 2686968709 9.00000000
-4.59814596 -2.08484387 -0.44170532 3 10 24561 5.06800000 2686968712 2686968712 -5.00000000
-12.39749813 -5.61853743 2.64575744 18 11 24562 13.86600000 2686968714 2686968714 11.00000000
-6.67502260 -3.02371120 -0.38404125 3 12 24563 7.33800000 2686968716 2686968716 -3.00000000
-9.95913792 -4.50928450 2.52395082 47 13 24564 11.22000000 2686968718 2686968718 13.00000000
-12.44114113 -5.63046598 -0.23836496 2 14 24565 13.65800000 2686968721 2686968721 -1.00000000
-8.00448704 -3.62257695 2.35421801 9 15 24565 9.09600000 2686968723 2686968723 15.00000000
-1.75582862 -0.79168051 -0.51608515 5 0 24573 1.99400000 2686968744 2686968744 -15.00000000
-25.59818840 -11.53651810 0.49009848 5 1 24574 28.08200000 2686968746 2686968746 1.00000000
-2.02020717 -0.91003698 -0.51153868 4 2 24575 2.27400000 2686968748 2686968748 -13.00000000
-2.35406232 -1.05993354 -0.50182766 3 4 24576 2.63000000 2686968753 2686968753 -11.00000000
-27.65822029 -12.44750786 2.65354371 38 5 24577 30.44600000 2686968755 2686968755 5.00000000
-2.82655048 -1.27148819 -0.49089134 2 6 24578 3.13800000 2686968758 2686968758 -9.00000000
-20.69402122 -9.30460358 2.78593326 41 7 24579 22.86000000 2686968760 2686968760 7.00000000
-3.50178289 -1.57376361 -0.47139063 5 8 24580 3.86800000 2686968762 2686968762 -7.00000000
-14.92712307 -6.70538378 2.59180617 16 9 24581 16.56800000 2686968765 2686968765 9.00000000
-4.61811733 -2.07449555 -0.44292548 3 10 24581 5.08200000 2686968767 2686968767 -5.00000000
-6.67642593 -2.99630380 -0.38351789 3 12 24583 7.32800000 2686968771 2686968771 -3.00000000
-9.99971008 -4.48565960 2.53024936 47 13 24584 11.24800000 2686968774 2686968774 13.00000000
-12.44794655 -5.58127737 -0.23812063 4 14 24585 13.64400000 2686968776 2686968776 -1.00000000
-8.04705048 -3.60805035 2.36301780 9 15 24585 9.13000000 2686968778 2686968778 15.00000000
-1.75328982 -0.78318298 -0.51453227 5 0 24593 1.98800000 2686968799 2686968799 -15.00000000
-25.53604889 -11.40143871 0.48814380 5 1 24594 27.97000000 2686968801 2686968801 1.00000000
-2.02515101 -0.90377373 -0.51198858 4 2 24595 2.27600000 2686968804 2686968804 -13.00000000
-2.35057616 -1.04851079 -0.50030118 3 4 24596 2.62200000 2686968808 2686968808 -11.00000000
-27.87983322 -12.43039703 2.67062616 38 5 24597 30.64200000 2686968811 2686968811 5.00000000
-2.81653690 -1.25518131 -0.48838839 2 6 24598 3.12200000 2686968813 2686968813 -9.00000000
-20.71368217 -9.22665691 2.78422713 41 7 24599 22.84600000 2686968815 2686968815 7.00000000
-3.48549318 -1.55184162 -0.46846575 3 8 24600 3.84400000 2686968817 2686968817 -7.00000000
-17.29886055 -7.70194912 2.99916148 51 9 24600 19.17200000 2686968820 2686968820 9.00000000
-4.59074545 -2.04297161 -0.43961358 6 10 24601 5.04400000 2686968822 2686968822 -5.00000000
-6.69596910 -2.97703767 -0.38404125 3 12 24603 7.33800000 2686968827 2686968827 -3.00000000
-10.05804634 -4.46971989 2.54104710 50 13 24604 11.29600000 2686968829 2686968829 13.00000000
-12.45821571 -5.53373289 -0.23794611 6 14 24605 13.63400000 2686968831 2686968831 -1.00000000
-8.11962318 -3.60660219 2.38061762 9 15 24605 9.19800000 2686968834 2686968834 15.00000000
-1.75424623 -0.77627629 -0.51401460 5 0 24613 1.98600000 2686968854 2686968854 -15.00000000
-25.54277420 -11.29767227 0.48751551 5 1 24614 27.93400000 2686968857 2686968857 1.00000000
-2.01581717 -0.89118344 -0.50883931 4 2 24615 2.26200000 2686968859 2686968859 -13.00000000
-2.36140466 -1.04347348 -0.50182766 3 4 24616 2.63000000 2686968864 2686968864 -11.00000000
-28.13082314 -12.42477036 2.69049788 38 5 24617 30.87000000 2686968866 2686968866 5.00000000
-2.81728697 -1.24374652 -0.48776266 2 6 24618 3.11800000 2686968868 2686968868 -9.00000000
-3.51631689 -1.55088055 -0.47187811 3 8 24620 3.87200000 2686968873 2686968873 -7.00000000
-17.31612778 -7.63371277 2.99728441 46 9 24621 19.16000000 2686968875 2686968875 9.00000000
-4.60331821 -2.02934551 -0.44013649 3 10 24621 5.05000000 2686968877 2686968877 -5.00000000
-12.36582565 -5.44882345 2.62667656 50 11 24622 13.76600000 2686968880 2686968880 11.00000000
-6.71180391 -2.95606112 -0.38435528 3 12 24623 7.34400000 2686968882 2686968882 -3.00000000
-10.13779640 -4.46284914 2.55724359 48 13 24624 11.36800000 2686968884 2686968884 13.00000000
-12.51406288 -5.50631952 -0.23864421 6 14 24625 13.67400000 2686968887 2686968887 -1.00000000
-9.55810356 -4.20367527 2.79783392 30 15 24626 10.81000000 2686968889 2686968889 15.00000000
-1.76579201 -0.77402604 -0.51660281 4 0 24633 1.99600000 2686968910 2686968910 -15.00000000
-25.55274963 -11.19560242 0.48695704 5 1 24634 27.90200000 2686968912 2686968912 1.00000000
-2.00820518 -0.87945110 -0.50613987 4 2 24635 2.25000000 2686968914 2686968914 -13.00000000
-2.36143565 -1.03364980 -0.50106442 3 4 24636 2.62600000 2686968919 2686968919 -11.00000000
-28.40036392 -12.42552662 2.71211243 38 5 24637 31.11800000 2686968921 2686968921 5.00000000
-2.82161140 -1.23390484 -0.48776266 2 6 24638 3.11800000 2686968923 2686968923 -9.00000000
-19.87722206 -8.68827629 2.66357636 7 7 24639 21.85600000 2686968926 2686968926 7.00000000
-3.50533748 -1.53144431 -0.46968445 3 8 24640 3.85400000 2686968928 2686968928 -7.00000000
-17.36077309 -7.58112717 3.00041294 42 9 24641 19.18000000 2686968930 2686968930 9.00000000
-4.62498093 -2.01964331 -0.44153100 6 10 24641 5.06600000 2686968933 2686968933 -5.00000000
-12.13286495 -5.29567528 2.57325006 37 11 24642 13.48600000 2686968935 2686968935 11.00000000
-6.71475887 -2.92941999 -0.38393658 3 12 24643 7.33600000 2686968937 2686968937 -3.00000000
-10.21404648 -4.45391798 2.57254028 48 13 24644 11.43600000 2686968940 2686968940 13.00000000
-9.86598206 -4.30009270 -0.18785770 4 14 24645 10.76400000 2686968942 2686968942 -1.00000000
-9.57199097 -4.17195606 2.79783392 35 15 24645 10.81000000 2686968944 2686968944 15.00000000
-1.77734315 -0.77170449 -0.51919103 5 0 24653 2.00600000 2686968965 2686968965 -15.00000000
-25.56232262 -11.09360123 0.48639858 5 1 24654 27.87000000 2686968967 2686968967 1.00000000
-2.03092861 -0.88096625 -0.51108879 4 2 24655 2.27200000 2686968969 2686968969 -13.00000000
-2.36142707 -1.02383864 -0.50030118 3 4 24656 2.62200000 2686968974 2686968974 -11.00000000
-28.65928078 -12.41979790 2.73268127 38 5 24657 31.35400000 2686968976 2686968976 5.00000000
-2.82952666 -1.22561836 -0.48838839 2 6 24658 3.12200000 2686968979 2686968979 -9.00000000
-16.96722031 -7.34588814 2.27018213 8 7 24659 18.62800000 2686968981 2686968981 7.00000000
-3.52341461 -1.52471769 -0.47139063 3 8 24660 3.86800000 2686968983 2686968983 -7.00000000
-17.37987709 -7.51734352 2.99916148 42 9 24661 19.17200000 2686968986 2686968986 9.00000000
-4.62834501 -2.00190473 -0.44118237 3 10 24661 5.06200000 2686968988 2686968988 -5.00000000
-12.14767170 -5.25173330 2.57248688 34 11 24662 13.48200000 2686968990 2686968990 11.00000000
-6.72677708 -2.90675569 -0.38404125 3 12 24663 7.33800000 2686968993 2686968993 -3.00000000
-10.30288029 -4.44991732 2.59098625 51 13 24664 11.51800000 2686968995 2686968995 13.00000000
-9.86440945 -4.25849438 -0.18754356 6 14 24665 10.74600000 2686968997 2686968997 -1.00000000
-9.58826923 -4.13928413 2.79835153 38 15 24665 10.81200000 2686968999 2686968999 15.00000000
-1.77115262 -0.76167971 -0.51660281 4 0 24673 1.99600000 2686969020 2686969020 -15.00000000
-25.54761314 -10.98140335 0.48538634 5 1 24674 27.81200000 2686969022 2686969022 1.00000000
-2.02682924 -0.87079459 -0.50928921 4 2 24675 2.26400000 2686969025 2686969025 -13.00000000
-2.35777068 -1.01249075 -0.49877471 3 4 24676 2.61400000 2686969029 2686969029 -11.00000000
-28.81048012 -12.36604786 2.74296546 96 5 24677 31.47200000 2686969032 2686969032 5.00000000
-2.82289529 -1.21106100 -0.48651120 2 6 24678 3.11000000 2686969034 2686969034 -9.00000000
-20.89886856 -8.96158409 2.79202676 13 7 24679 22.91000000 2686969036 2686969036 7.00000000
-3.51776814 -1.50771725 -0.46992818 3 8 24680 3.85600000 2686969039 2686969039 -7.00000000
-17.41560555 -7.46433783 3.00103879 42 9 24680 19.18400000 2686969041 2686969041 9.00000000
-4.63713646 -1.98652124 -0.44135669 3 10 24681 5.06400000 2686969043 2686969043 -5.00000000
-10.12654400 -4.33605862 2.14125848 12 11 24682 11.22200000 2686969046 2686969046 11.00000000
-6.74055481 -2.88482881 -0.38425058 3 12 24683 7.34200000 2686969048 2686969048 -3.00000000
-10.41331100 -4.45454788 2.61483097 53 13 24684 11.62400000 2686969050 2686969050 13.00000000
-12.67951965 -5.42135620 -0.24070358 2 14 24685 13.79200000 2686969052 2686969052 -1.00000000
-9.59626961 -4.10107660 2.79628086 38 15 24686 10.80400000 2686969055 2686969055 15.00000000
-1.76491380 -0.75170755 -0.51401460 4 0 24693 1.98600000 2686969075 2686969075 -15.00000000
-12.45987129 -5.30430746 0.23637539 3 1 24694 13.54400000 2686969078 2686969078 1.00000000
-2.03523612 -0.86600333 -0.51063889 4 2 24695 2.27000000 2686969080 2686969080 -13.00000000
