# .PCD v0.7 - Point Cloud Data file format
VERSION 0.7
FIELDS x y z intensity laser_id azimuth distance_m adjustedtime timestamp vertical_angle
SIZE 4 4 4 1 1 2 8 8 4 8
TYPE F F F U U U F U U F
COUNT 1 1 1 1 1 1 1 1 1 1
WIDTH 515
HEIGHT 1
VIEWPOINT 0 0 0 1 0 0 0
POINTS 515
DATA ascii
-4.99308157 -12.78022099 2.17318749 28 9 20134 13.89200000 2686456446 2686456446 9.00000000
-1.92423928 -4.92525625 -0.46262267 3 10 20134 5.30800000 2686456449 2686456449 -5.00000000
-4.71949768 -12.07374287 2.51982355 53 11 20135 13.20600000 2686456451 2686456451 11.00000000
-5.01725769 -12.82888889 -0.72192216 4 12 20136 13.79400000 2686456453 2686456453 -3.00000000
-4.37066507 -11.16983509 2.76914740 60 13 20137 12.31000000 2686456455 2686456455 13.00000000
-5.01182318 -12.80181789 -0.23997059 18 14 20138 13.75000000 2686456458 2686456458 -1.00000000
-3.77976298 -9.65473747 2.77816367 71 15 20138 10.73400000 2686456460 2686456460 15.00000000
-0.70606422 -1.79612470 -0.51712048 6 0 20146 1.99800000 2686456481 2686456481 -15.00000000
-5.03704977 -12.80695629 0.24021493 31 1 20147 13.76400000 2686456483 2686456483 1.00000000
-0.82347441 -2.09265351 -0.51918703 4 2 20148 2.30800000 2686456485 2686456485 -13.00000000
-5.04123068 -12.80446339 0.72118950 12 3 20149 13.78000000 2686456488 2686456488 3.00000000
-0.95296162 -2.42047286 -0.50564384 3 4 20149 2.65000000 2686456490 2686456490 -11.00000000
-5.04066133 -12.79646492 1.20327222 43 5 20150 13.80600000 2686456492 2686456492 5.00000000
-1.15091074 -2.92026234 -0.49714872 3 6 20151 3.17800000 2686456495 2686456495 -9.00000000
-5.04703951 -12.79955196 1.68935287 16 7 20152 13.86200000 2686456497 2686456497 7.00000000
-1.43952727 -3.64884901 -0.48162764 1 8 20153 3.95200000 2686456499 2686456499 -7.00000000
-5.04636526 -12.78476334 2.17694211 28 9 20154 13.91600000 2686456502 2686456502 9.00000000
-1.94141996 -4.91850901 -0.46262267 3 10 20154 5.30800000 2686456504 2686456504 -5.00000000
-4.75728750 -12.04623890 2.51753378 56 11 20155 13.19400000 2686456506 2686456506 11.00000000
-5.06861353 -12.82801533 -0.72286421 4 12 20156 13.81200000 2686456508 2686456508 -3.00000000
-4.37523985 -11.06752110 2.74755216 56 13 20157 12.21400000 2686456511 2686456511 13.00000000
-5.06383419 -12.80284023 -0.24031964 18 14 20158 13.77000000 2686456513 2686456513 -1.00000000
-3.81202030 -9.63789177 2.77712846 73 15 20158 10.73000000 2686456515 2686456515 15.00000000
-0.71843106 -1.80993354 -0.52177918 6 0 20165 2.01600000 2686456536 2686456536 -15.00000000
-5.08465767 -12.80319214 0.24045926 28 1 20166 13.77800000 2686456538 2686456538 1.00000000
-0.82393306 -2.07361221 -0.51513791 4 2 20167 2.29000000 2686456541 2686456541 -13.00000000
-5.09028244 -12.81083584 0.72244555 12 3 20167 13.80400000 2686456543 2686456543 3.00000000
-0.96098298 -2.41729927 -0.50564384 3 4 20168 2.65000000 2686456545 2686456545 -11.00000000
-5.09190464 -12.80189419 1.20536387 74 5 20169 13.83000000 2686456548 2686456548 5.00000000
-1.15182364 -2.89440513 -0.49339432 3 6 20170 3.15400000 2686456550 2686456550 -9.00000000
-5.09606504 -12.79934311 1.69154644 16 7 20171 13.88000000 2686456552 2686456552 7.00000000
-1.44794631 -3.63483453 -0.48040897 1 8 20172 3.94200000 2686456554 2686456554 -7.00000000
-5.09381533 -12.78719807 2.18007064 24 9 20172 13.93600000 2686456557 2686456557 9.00000000
-1.95771968 -4.91204405 -0.46262267 3 10 20173 5.30800000 2686456559 2686456559 -5.00000000
-4.79720783 -12.03039742 2.51753378 53 11 20174 13.19400000 2686456561 2686456561 11.00000000
-5.12222672 -12.83896255 -0.72443432 4 12 20175 13.84200000 2686456564 2686456564 -3.00000000
-4.37001562 -10.94797897 2.72145796 68 13 20176 12.09800000 2686456566 2686456566 13.00000000
-5.11516190 -12.80826283 -0.24073850 18 14 20177 13.79400000 2686456568 2686456568 -1.00000000
-3.84467626 -9.62699223 2.77764606 68 15 20177 10.73200000 2686456571 2686456571 15.00000000
-0.72402555 -1.80562162 -0.52126157 6 0 20185 2.01400000 2686456591 2686456591 -15.00000000
-5.13750839 -12.80578041 0.24084321 21 1 20186 13.80000000 2686456594 2686456594 1.00000000
-0.82753676 -2.06168103 -0.51288843 4 2 20187 2.28000000 2686456596 2686456596 -13.00000000
-5.14464521 -12.81062698 0.72349226 12 3 20188 13.82400000 2686456598 2686456598 3.00000000
-0.97087830 -2.41757393 -0.50640708 3 4 20188 2.65400000 2686456601 2686456601 -11.00000000
-5.14101744 -12.79513454 1.20640981 17 5 20189 13.84200000 2686456603 2686456603 5.00000000
-1.17076147 -2.91236067 -0.49714872 3 6 20190 3.17800000 2686456605 2686456605 -9.00000000
-5.14219379 -12.78516006 1.69203401 16 7 20191 13.88400000 2686456607 2686456607 7.00000000
-1.46136653 -3.63159966 -0.48065269 1 8 20192 3.94400000 2686456610 2686456610 -7.00000000
-5.14950132 -12.79043198 2.18382502 24 9 20193 13.96000000 2686456612 2686456612 9.00000000
-5.18343353 -12.87471294 -1.21425378 4 10 20193 13.93200000 2686456614 2686456614 -5.00000000
-4.83917284 -12.01357841 2.51753378 56 11 20194 13.19400000 2686456617 2686456617 11.00000000
-5.19538116 -12.89139843 -0.72841185 4 12 20195 13.91800000 2686456619 2686456619 -3.00000000
-4.37176704 -10.84228992 2.69896269 62 13 20196 11.99800000 2686456621 2686456621 13.00000000
-5.17181015 -12.82000160 -0.24129698 18 14 20197 13.82600000 2686456624 2686456624 -1.00000000
-3.88282728 -9.62000179 2.77971649 66 15 20198 10.74000000 2686456626 2686456626 15.00000000
-0.73208970 -1.80653667 -0.52229685 5 0 20206 2.01800000 2686456647 2686456647 -15.00000000
-5.19342613 -12.80910206 0.24126206 17 1 20207 13.82400000 2686456649 2686456649 1.00000000
-0.83801776 -2.06585741 -0.51468801 4 2 20208 2.28800000 2686456651 2686456651 -13.00000000
-5.19308519 -12.80184460 0.72401559 15 3 20208 13.83400000 2686456654 2686456654 3.00000000
-0.97677940 -2.40672255 -0.50488061 3 4 20209 2.64600000 2686456656 2686456656 -11.00000000
-5.19612503 -12.79651260 1.20832717 17 5 20210 13.86400000 2686456658 2686456658 5.00000000
-1.17994094 -2.90438986 -0.49652299 3 6 20211 3.17400000 2686456660 2686456660 -9.00000000
-5.19499874 -12.78093910 1.69398391 16 7 20212 13.90000000 2686456663 2686456663 7.00000000
-1.47391939 -3.62438035 -0.48040897 1 8 20213 3.94200000 2686456665 2686456665 -7.00000000
-5.20081282 -12.78245068 2.18570232 24 9 20214 13.97200000 2686456667 2686456667 9.00000000
-5.24410248 -12.88884640 -1.21739137 4 10 20214 13.96800000 2686456670 2686456670 -5.00000000
-4.89057446 -12.01394463 2.52135015 53 11 20215 13.21400000 2686456672 2686456672 11.00000000
-5.24259567 -12.87226963 -0.72841185 4 12 20216 13.91800000 2686456674 2686456674 -3.00000000
-4.36588383 -10.71430492 2.67106891 62 13 20217 11.87400000 2686456677 2686456677 13.00000000
-5.22027302 -12.80466270 -0.24136677 18 14 20218 13.83000000 2686456679 2686456679 -1.00000000
-3.91857171 -9.61175632 2.78126955 71 15 20218 10.74600000 2686456681 2686456681 15.00000000
-0.73400044 -1.79324293 -0.51919103 6 0 20226 2.00600000 2686456702 2686456702 -15.00000000
-5.24416924 -12.80570030 0.24154131 17 1 20227 13.84000000 2686456704 2686456704 1.00000000
-0.84817916 -2.07013249 -0.51648760 4 2 20228 2.29600000 2686456706 2686456706 -13.00000000
-5.24455547 -12.80027294 0.72495764 17 3 20228 13.85200000 2686456709 2686456709 3.00000000
-0.98219591 -2.39603209 -0.50335413 3 4 20229 2.63800000 2686456711 2686456711 -11.00000000
-5.24605370 -12.79120064 1.20954740 17 5 20230 13.87800000 2686456713 2686456713 5.00000000
-1.19007194 -2.90025330 -0.49652299 3 6 20231 3.17400000 2686456716 2686456716 -9.00000000
-5.25013542 -12.78843594 1.69739616 16 7 20232 13.92800000 2686456718 2686456718 7.00000000
-1.49184132 -3.63206697 -0.48211512 1 8 20233 3.95600000 2686456720 2686456720 -7.00000000
-5.24840355 -12.77152634 2.18695378 24 9 20234 13.98000000 2686456723 2686456723 9.00000000
-5.28148794 -12.85203457 -1.21564829 4 10 20234 13.94800000 2686456725 2686456725 -5.00000000
-4.93696022 -12.00769520 2.52363968 56 11 20235 13.22600000 2686456727 2686456727 11.00000000
-5.28749657 -12.85389137 -0.72841185 4 12 20236 13.91800000 2686456730 2686456730 -3.00000000
-4.37210751 -10.62331200 2.65217304 64 13 20237 11.79000000 2686456732 2686456732 13.00000000
-5.26950598 -12.79745770 -0.24157621 18 14 20238 13.84200000 2686456734 2686456734 -1.00000000
-3.95283461 -9.59980583 2.78178716 61 15 20238 10.74800000 2686456736 2686456736 15.00000000
-0.73772979 -1.78544271 -0.51763809 5 0 20245 2.00000000 2686456757 2686456757 -15.00000000
-5.28966141 -12.79563141 0.24168092 17 1 20246 13.84800000 2686456759 2686456759 1.00000000
-0.85354972 -2.06370687 -0.51558781 4 2 20247 2.29200000 2686456762 2686456762 -13.00000000
-5.29684162 -12.80034256 0.72600436 15 3 20248 13.87200000 2686456764 2686456764 3.00000000
-0.99313873 -2.40001822 -0.50488061 3 4 20248 2.64600000 2686456766 2686456766 -11.00000000
-5.29377651 -12.78661919 1.21076763 17 5 20249 13.89200000 2686456769 2686456769 5.00000000
-1.20346272 -2.90541601 -0.49808735 3 6 20250 3.18400000 2686456771 2686456771 -9.00000000
-5.30315447 -12.79662991 1.70080853 16 7 20251 13.95600000 2686456773 2686456773 7.00000000
-1.51452172 -3.65277195 -0.48552746 1 8 20252 3.98400000 2686456776 2686456776 -7.00000000
-5.29606628 -12.77322292 2.19008255 29 9 20252 14.00000000 2686456778 2686456778 9.00000000
-5.33629274 -12.86389446 -1.21843731 4 10 20253 13.98000000 2686456780 2686456780 -5.00000000
-4.97976255 -11.99851036 2.52516627 56 11 20254 13.23400000 2686456783 2686456783 11.00000000
-5.34694290 -12.87686729 -0.73071462 4 12 20255 13.96200000 2686456785 2686456785 -3.00000000
-4.36544371 -10.50797653 2.62697840 70 13 20256 11.67800000 2686456787 2686456787 13.00000000
-5.31882238 -12.79653168 -0.24189036 18 14 20257 13.86000000 2686456789 2686456789 -1.00000000
-3.98038578 -9.57167912 2.77764606 61 15 20258 10.73200000 2686456792 2686456792 15.00000000
-0.74618953 -1.78820527 -0.51919103 6 0 20265 2.00600000 2686456812 2686456812 -15.00000000
-5.33814621 -12.78631592 0.24185544 28 1 20266 13.85800000 2686456815 2686456815 1.00000000
-0.85774386 -2.05352211 -0.51378822 4 2 20267 2.28400000 2686456817 2686456817 -13.00000000
-5.34849739 -12.80482292 0.72726047 15 3 20267 13.89600000 2686456819 2686456819 3.00000000
-0.99999630 -2.39291406 -0.50411737 3 4 20268 2.64200000 2686456822 2686456822 -11.00000000
-5.34452677 -12.78276825 1.21216202 17 5 20269 13.90800000 2686456824 2686456824 5.00000000
-1.20521176 -2.88115144 -0.49464577 3 6 20270 3.16200000 2686456826 2686456826 -9.00000000
-5.35009003 -12.78353405 1.70153975 5 7 20271 13.96200000 2686456829 2686456829 7.00000000
-1.52036273 -3.63098359 -0.48333383 1 8 20272 3.96600000 2686456831 2686456831 -7.00000000
-7.19834185 -17.18291283 2.95066690 59 9 20273 18.86200000 2686456833 2686456833 9.00000000
-5.39656019 -12.88194275 -1.22192347 4 10 20273 14.02000000 2686456836 2686456836 -5.00000000
-5.01857901 -11.97381210 2.52363968 56 11 20274 13.22600000 2686456838 2686456838 11.00000000
-5.38568020 -12.84338951 -0.72987723 4 12 20275 13.94600000 2686456840 2686456840 -3.00000000
-4.37194061 -10.42079449 2.60898232 62 13 20276 11.59800000 2686456842 2686456842 13.00000000
-5.37119770 -12.79632568 -0.24223940 15 14 20277 13.88000000 2686456845 2686456845 -1.00000000
-4.02274895 -9.57910061 2.78385758 64 15 20278 10.75600000 2686456847 2686456847 15.00000000
-0.75605345 -1.79244685 -0.52126157 5 0 20287 2.01400000 2686456868 2686456868 -15.00000000
-11.31320286 -26.80820465 0.50789994 22 1 20288 29.10200000 2686456870 2686456870 1.00000000
-0.86410648 -2.04662299 -0.51288843 4 2 20289 2.28000000 2686456872 2686456872 -13.00000000
-1.01070487 -2.39267373 -0.50488061 3 4 20290 2.64600000 2686456877 2686456877 -11.00000000
-10.87478256 -25.73168564 2.44402122 8 5 20291 28.04200000 2686456879 2686456879 5.00000000
-1.21857357 -2.88196087 -0.49558440 3 6 20292 3.16800000 2686456882 2686456882 -9.00000000
-1.53738844 -3.63243151 -0.48430878 1 8 20294 3.97400000 2686456886 2686456886 -7.00000000
-7.25588226 -17.14368057 2.94847679 59 9 20294 18.84800000 2686456889 2686456889 9.00000000
-2.06186008 -4.86924791 -0.46262267 3 10 20295 5.30800000 2686456891 2686456891 -5.00000000
-5.06758165 -11.96168518 2.52516627 56 11 20296 13.23400000 2686456893 2686456893 11.00000000
-3.05769825 -7.21398497 -0.41062790 4 12 20297 7.84600000 2686456895 2686456895 -3.00000000
-4.36931610 -10.30346107 2.58378792 68 13 20298 11.48600000 2686456898 2686456898 13.00000000
-4.06251955 -9.57069683 2.78592825 66 15 20300 10.76400000 2686456902 2686456902 15.00000000
-0.76230562 -1.78979683 -0.52126157 5 0 20307 2.01400000 2686456923 2686456923 -15.00000000
-11.42082310 -26.80166435 0.50852823 100 1 20308 29.13800000 2686456925 2686456925 1.00000000
-0.87430227 -2.05076480 -0.51468801 4 2 20309 2.28800000 2686456928 2686456928 -13.00000000
-20.43807793 -47.93958664 2.73120427 12 3 20309 52.18600000 2686456930 2686456930 3.00000000
-1.01442921 -2.37829590 -0.50259089 3 4 20310 2.63400000 2686456932 2686456932 -11.00000000
-13.27458858 -31.10679245 2.95893741 40 5 20311 33.95000000 2686456935 2686456935 5.00000000
-1.22474790 -2.86860609 -0.49402004 3 6 20312 3.15800000 2686456937 2686456937 -9.00000000
-1.54615808 -3.61791587 -0.48309007 1 8 20314 3.96400000 2686456942 2686456942 -7.00000000
-7.31878567 -17.12551308 2.94972825 38 9 20314 18.85600000 2686456944 2686456944 9.00000000
-2.07884455 -4.86202097 -0.46262267 3 10 20315 5.30800000 2686456946 2686456946 -5.00000000
-5.11084890 -11.94753265 2.52592945 53 11 20316 13.23800000 2686456948 2686456948 11.00000000
-3.09229112 -7.22530174 -0.41188398 4 12 20317 7.87000000 2686456951 2686456951 -3.00000000
-4.37150431 -10.20932388 2.56399202 64 13 20318 11.39800000 2686456953 2686456953 13.00000000
-6.00110340 -14.00837517 -0.26600957 9 14 20319 15.24200000 2686456955 2686456955 -1.00000000
-4.04567432 -9.43926525 2.75176406 54 15 20320 10.63200000 2686456958 2686456958 15.00000000
-0.76563692 -1.78206813 -0.51970863 5 0 20325 2.00800000 2686456978 2686456978 -15.00000000
-11.52312946 -26.80790710 0.50933105 100 1 20326 29.18400000 2686456981 2686456981 1.00000000
-0.88228035 -2.05158830 -0.51558781 4 2 20327 2.29200000 2686456983 2686456983 -13.00000000
-20.44339943 -47.53754044 2.71194458 12 3 20327 51.81800000 2686456985 2686456985 3.00000000
-1.02344763 -2.37870407 -0.50335413 3 4 20328 2.63800000 2686456988 2686456988 -11.00000000
-13.33994961 -30.98990250 2.95179081 100 5 20329 33.86800000 2686456990 2686456990 5.00000000
-1.23219109 -2.86111569 -0.49339432 1 6 20330 3.15400000 2686456992 2686456992 -9.00000000
-8.93913269 -20.74646568 2.77374625 46 7 20331 22.76000000 2686456994 2686456994 7.00000000
-1.54808652 -3.59116554 -0.48016521 1 8 20332 3.94000000 2686456997 2686456997 -7.00000000
-6.23398113 -14.46124554 2.49419117 15 9 20332 15.94400000 2686456999 2686456999 9.00000000
-2.09410858 -4.85546637 -0.46262267 3 10 20333 5.30800000 2686457001 2686457001 -5.00000000
-5.15613604 -11.94944382 2.52974558 53 11 20334 13.25800000 2686457004 2686457004 11.00000000
-4.36028528 -10.09535599 2.53879762 64 13 20336 11.28600000 2686457008 2686457008 13.00000000
-6.02525187 -13.94356155 -0.26513696 7 14 20337 15.19200000 2686457011 2686457011 -1.00000000
-4.12423944 -9.54426289 2.78592825 66 15 20337 10.76400000 2686457013 2686457013 15.00000000
-0.76954651 -1.77406788 -0.51815575 6 0 20345 2.00200000 2686457034 2686457034 -15.00000000
-11.62459660 -26.78586578 0.50968009 100 1 20346 29.20400000 2686457036 2686457036 1.00000000
-0.88943636 -2.04849601 -0.51558781 4 2 20347 2.29200000 2686457038 2686457038 -13.00000000
-12.81702232 -29.51939201 1.68657851 23 3 20347 32.22600000 2686457041 2686457041 3.00000000
-1.03330910 -2.37871861 -0.50411737 3 4 20348 2.64200000 2686457043 2686457043 -11.00000000
-12.77699089 -29.39909744 2.80449748 78 5 20349 32.17800000 2686457045 2686457045 5.00000000
-1.24768448 -2.86947799 -0.49558440 1 6 20350 3.16800000 2686457047 2686457047 -9.00000000
-9.02733421 -20.75154305 2.77862096 60 7 20351 22.80000000 2686457050 2686457050 7.00000000
-1.56695008 -3.60030127 -0.48211512 1 8 20352 3.95600000 2686457052 2686457052 -7.00000000
-6.28757572 -14.44664192 2.49544263 27 9 20352 15.95200000 2686457054 2686457054 9.00000000
-2.11104465 -4.84812689 -0.46262267 3 10 20353 5.30800000 2686457057 2686457057 -5.00000000
-5.19938421 -11.93497276 2.53050900 56 11 20354 13.26200000 2686457059 2686457059 11.00000000
-4.37057257 -10.02291298 2.52440071 64 13 20356 11.22200000 2686457064 2686457064 13.00000000
-6.07388735 -13.92244434 -0.26513696 9 14 20357 15.19200000 2686457066 2686457066 -1.00000000
-4.15764761 -9.52554131 2.78489304 64 15 20358 10.76000000 2686457068 2686457068 15.00000000
-0.77635276 -1.77109993 -0.51815575 6 0 20367 2.00200000 2686457089 2686457089 -15.00000000
-11.74181747 -26.77399635 0.51030838 100 1 20368 29.24000000 2686457091 2686457091 1.00000000
-0.89416355 -2.03792763 -0.51378822 4 2 20369 2.28400000 2686457094 2686457094 -13.00000000
-12.83908176 -29.24824524 1.67401791 16 3 20370 31.98600000 2686457096 2686457096 3.00000000
-1.04401338 -2.37832880 -0.50488061 3 4 20370 2.64600000 2686457098 2686457098 -11.00000000
-12.78402805 -29.10902405 2.78148842 87 5 20371 31.91400000 2686457100 2686457100 5.00000000
-1.25154161 -2.84838939 -0.49276856 3 6 20372 3.15000000 2686457103 2686457103 -9.00000000
-9.10934448 -20.72217941 2.77935219 52 7 20373 22.80600000 2686457105 2686457105 7.00000000
-1.57516849 -3.58153820 -0.48040897 1 8 20374 3.94200000 2686457107 2686457107 -7.00000000
-6.35731506 -14.45494080 2.50107431 32 9 20374 15.98800000 2686457110 2686457110 9.00000000
-12.95279694 -29.43746948 -2.81373596 9 10 20375 32.28400000 2686457112 2686457112 -5.00000000
-5.24754572 -11.92031097 2.53165364 59 11 20376 13.26800000 2686457114 2686457114 11.00000000
-3.14041257 -7.13037777 -0.40832514 4 12 20377 7.80200000 2686457117 2686457117 -3.00000000
-4.38702345 -9.95612526 2.51180339 68 13 20378 11.16600000 2686457119 2686457119 13.00000000
-6.11600780 -13.87340260 -0.26464829 9 14 20379 15.16400000 2686457121 2686457121 -1.00000000
-4.19954586 -9.52614784 2.78955173 71 15 20379 10.77800000 2686457124 2686457124 15.00000000
-0.78722078 -1.77897882 -0.52126157 5 0 20387 2.01400000 2686457144 2686457144 -15.00000000
-11.85301399 -26.77307510 0.51107627 100 1 20388 29.28400000 2686457147 2686457147 1.00000000
-0.89811498 -2.02766705 -0.51198858 4 2 20389 2.27600000 2686457149 2686457149 -13.00000000
-12.82619667 -28.94395828 1.65915453 22 3 20390 31.70200000 2686457151 2686457151 3.00000000
-1.05389965 -2.37825990 -0.50564384 3 4 20390 2.65000000 2686457153 2686457153 -11.00000000
-12.79592609 -28.86204720 2.76213980 38 5 20391 31.69200000 2686457156 2686457156 5.00000000
-1.26548147 -2.85303211 -0.49433291 3 6 20392 3.16000000 2686457158 2686457158 -9.00000000
-9.19450569 -20.71928596 2.78325200 55 7 20393 22.83800000 2686457160 2686457160 7.00000000
-1.58685529 -3.57420373 -0.48016521 1 8 20394 3.94000000 2686457163 2686457163 -7.00000000
-6.42147875 -14.45681763 2.50545430 36 9 20395 16.01600000 2686457165 2686457165 9.00000000
-2.14652634 -4.83252192 -0.46262267 3 10 20395 5.30800000 2686457167 2686457167 -5.00000000
-5.29151535 -11.90730286 2.53279853 37 11 20396 13.27400000 2686457170 2686457170 11.00000000
-3.15879178 -7.10477209 -0.40748775 4 12 20397 7.78600000 2686457172 2686457172 -3.00000000
-4.39957428 -9.89089584 2.49920630 62 13 20398 11.11000000 2686457174 2686457174 13.00000000
-6.15626717 -13.83370018 -0.26429924 7 14 20399 15.14400000 2686457177 2686457177 -1.00000000
-4.23521852 -9.51245689 2.79006934 68 15 20400 10.78000000 2686457179 2686457179 15.00000000
-0.79516762 -1.78178942 -0.52281445 5 0 20405 2.02000000 2686457200 2686457200 -15.00000000
-11.95337105 -26.77222443 0.51177436 100 1 20406 29.32400000 2686457202 2686457202 1.00000000
-0.90607023 -2.02839398 -0.51288843 4 2 20407 2.28000000 2686457204 2686457204 -13.00000000
-12.88039207 -28.82146454 1.65444422 11 3 20408 31.61200000 2686457206 2686457206 3.00000000
-1.05495775 -2.36059785 -0.50259089 3 4 20408 2.63400000 2686457209 2686457209 -11.00000000
-12.88572216 -28.81988525 2.76196551 28 5 20409 31.69000000 2686457211 2686457211 5.00000000
-1.27040517 -2.84002638 -0.49276856 3 6 20410 3.15000000 2686457213 2686457213 -9.00000000
-9.27252579 -20.71928978 2.78715181 55 7 20411 22.87000000 2686457216 2686457216 7.00000000
-1.59969854 -3.57282424 -0.48065269 1 8 20412 3.94400000 2686457218 2686457218 -7.00000000
-6.47080278 -14.45212364 2.50795746 40 9 20412 16.03200000 2686457220 2686457220 9.00000000
-2.30260682 -5.14031982 -0.49277857 3 10 20413 5.65400000 2686457223 2686457223 -5.00000000
-5.68378210 -12.68249321 2.70147371 61 11 20414 14.15800000 2686457225 2686457225 11.00000000
-3.18763351 -7.10939264 -0.40832514 4 12 20415 7.80200000 2686457227 2686457227 -3.00000000
-4.42424488 -9.86280060 2.49560690 62 13 20416 11.09400000 2686457230 2686457230 13.00000000
-6.18250275 -13.77597904 -0.26356626 9 14 20417 15.10200000 2686457232 2686457232 -1.00000000
-4.26579714 -9.50513649 2.79162216 71 15 20417 10.78600000 2686457234 2686457234 15.00000000
-0.79424137 -1.76315045 -0.51815575 5 0 20425 2.00200000 2686457255 2686457255 -15.00000000
-12.06811333 -26.77773666 0.51268190 100 1 20426 29.37600000 2686457257 2686457257 1.00000000
-0.91634911 -2.03232479 -0.51468801 4 2 20427 2.28800000 2686457259 2686457259 -13.00000000
-13.00391483 -28.82730484 1.65737510 11 3 20428 31.66800000 2686457262 2686457262 3.00000000
-1.06157672 -2.35332179 -0.50182766 3 4 20428 2.63000000 2686457264 2686457264 -11.00000000
-13.00017643 -28.80560303 2.76492882 28 5 20429 31.72400000 2686457266 2686457266 5.00000000
-1.28762710 -2.85177779 -0.49558440 3 6 20430 3.16800000 2686457269 2686457269 -9.00000000
-9.36032009 -20.72116852 2.79178286 52 7 20431 22.90800000 2686457271 2686457271 7.00000000
-1.60398495 -3.54912925 -0.47821531 1 8 20432 3.92400000 2686457273 2686457273 -7.00000000
-6.53186703 -14.44631004 2.51108599 40 9 20433 16.05200000 2686457276 2686457276 9.00000000
-2.33202791 -5.15766716 -0.49521893 7 10 20433 5.68200000 2686457278 2686457278 -5.00000000
-5.74662828 -12.70371628 2.71025085 71 11 20434 14.20400000 2686457280 2686457280 11.00000000
-2.37741280 -5.25315762 -0.30218780 9 12 20435 5.77400000 2686457282 2686457282 -3.00000000
-4.46186066 -9.85439777 2.49740672 62 13 20436 11.10200000 2686457285 2686457285 13.00000000
-6.21487474 -13.71970558 -0.26290306 9 14 20437 15.06400000 2686457287 2686457287 -1.00000000
-4.29980898 -9.48767757 2.79110456 68 15 20438 10.78400000 2686457289 2686457289 15.00000000
-0.79799229 -1.75509143 -0.51660281 5 0 20445 1.99600000 2686457310 2686457310 -15.00000000
-12.17889881 -26.77367210 0.51341492 100 1 20446 29.41800000 2686457312 2686457312 1.00000000
-0.92343765 -2.02911377 -0.51468801 4 2 20447 2.28800000 2686457315 2686457315 -13.00000000
-13.12184238 -28.81991005 1.65957320 11 3 20448 31.71000000 2686457317 2686457317 3.00000000
-1.06978500 -2.34960198 -0.50182766 3 4 20448 2.63000000 2686457319 2686457319 -11.00000000
-13.11468792 -28.79087257 2.76789212 28 5 20449 31.75800000 2686457322 2686457322 5.00000000
-1.29347789 -2.83827829 -0.49402004 3 6 20450 3.15800000 2686457324 2686457324 -9.00000000
-9.45071125 -20.72810555 2.79714513 46 7 20451 22.95200000 2686457326 2686457326 7.00000000
-1.62295461 -3.55795717 -0.48016521 1 8 20452 3.94000000 2686457329 2686457329 -7.00000000
-6.58629560 -14.43894768 2.51358891 40 9 20452 16.06800000 2686457331 2686457331 9.00000000
-2.33595514 -5.11868143 -0.49225563 7 10 20453 5.64800000 2686457333 2686457333 -5.00000000
-5.79827595 -12.69965267 2.71368551 65 11 20454 14.22200000 2686457335 2686457335 11.00000000
-2.40237379 -5.25936079 -0.30302519 15 12 20455 5.79000000 2686457338 2686457338 -3.00000000
-4.49785185 -9.84230804 2.49830651 66 13 20456 11.10600000 2686457340 2686457340 13.00000000
-2.40381646 -5.25766182 -0.10090981 2 14 20457 5.78200000 2686457342 2686457342 -1.00000000
-4.32401800 -9.45755482 2.78644586 73 15 20457 10.76600000 2686457345 2686457345 15.00000000
-0.80814242 -1.76107419 -0.51919103 5 0 20465 2.00600000 2686457365 2686457365 -15.00000000
-12.28563213 -26.76007462 0.51397336 100 1 20466 29.45000000 2686457368 2686457368 1.00000000
-0.93051499 -2.02587819 -0.51468801 4 2 20467 2.28800000 2686457370 2686457370 -13.00000000
-13.24070930 -28.81385612 1.66187596 11 3 20468 31.75400000 2686457372 2686457372 3.00000000
-1.08289862 -2.35655689 -0.50411737 3 4 20468 2.64200000 2686457375 2686457375 -11.00000000
-13.24340343 -28.80646515 2.77381873 9 5 20469 31.82600000 2686457377 2686457377 5.00000000
-1.30502832 -2.83733511 -0.49464577 3 6 20470 3.16200000 2686457379 2686457379 -9.00000000
-1.64366567 -3.57030225 -0.48260260 1 8 20472 3.96000000 2686457384 2686457384 -7.00000000
-6.65239477 -14.44341850 2.51859498 40 9 20473 16.10000000 2686457386 2686457386 9.00000000
-2.36381054 -5.13221264 -0.49434736 7 10 20473 5.67200000 2686457388 2686457388 -5.00000000
-5.84750080 -12.69003391 2.71597528 65 11 20474 14.23400000 2686457391 2686457391 11.00000000
-2.41319227 -5.23461866 -0.30208313 15 12 20475 5.77200000 2686457393 2686457393 -3.00000000
-4.53218031 -9.82654762 2.49830651 64 13 20476 11.10600000 2686457395 2686457395 13.00000000
-2.41712737 -5.23834467 -0.10070039 20 14 20477 5.77000000 2686457398 2686457398 -1.00000000
-4.34002972 -9.40130138 2.77454019 83 15 20478 10.72000000 2686457400 2686457400 15.00000000
-0.81753224 -1.76525450 -0.52126157 6 0 20485 2.01400000 2686457421 2686457421 -15.00000000
-0.92856574 -2.00316954 -0.50973910 4 2 20487 2.26600000 2686457425 2686457425 -13.00000000
-13.36557579 -28.82000732 1.66491139 11 3 20488 31.81200000 2686457428 2686457428 3.00000000
-1.09442186 -2.35988665 -0.50564384 3 4 20488 2.65000000 2686457430 2686457430 -11.00000000
-11.59549522 -24.99177742 2.41037917 25 5 20489 27.65600000 2686457432 2686457432 5.00000000
-2.42691326 -5.22833681 -0.91295153 27 6 20490 5.83600000 2686457435 2686457435 -9.00000000
-9.62110901 -20.71743584 2.80470109 52 7 20491 23.01400000 2686457437 2686457437 7.00000000
-1.64524484 -3.54113936 -0.47943398 1 8 20492 3.93400000 2686457439 2686457439 -7.00000000
-6.71357155 -14.44994164 2.52360082 40 9 20492 16.13200000 2686457441 2686457441 9.00000000
-2.39010906 -5.14199734 -0.49609050 7 10 20493 5.69200000 2686457444 2686457444 -5.00000000
-5.89755630 -12.68200684 2.71864653 74 11 20494 14.24800000 2686457446 2686457446 11.00000000
-2.42049742 -5.20262194 -0.30072239 24 12 20495 5.74600000 2686457448 2686457448 -3.00000000
-4.56645393 -9.81066799 2.49830651 66 13 20496 11.10600000 2686457451 2686457451 13.00000000
-2.44046283 -5.24075222 -0.10090981 22 14 20497 5.78200000 2686457453 2686457453 -1.00000000
-4.34182262 -9.32381153 2.75590515 68 15 20497 10.64800000 2686457455 2686457455 15.00000000
-0.82614303 -1.76764047 -0.52281445 5 0 20505 2.02000000 2686457476 2686457476 -15.00000000
-2.45546818 -5.25140381 0.10118905 11 1 20506 5.79800000 2686457478 2686457478 1.00000000
-0.94133258 -2.01227188 -0.51288843 4 2 20507 2.28000000 2686457481 2686457481 -13.00000000
-13.48895359 -28.82201767 1.66773760 5 3 20508 31.86600000 2686457483 2686457483 3.00000000
-1.09932399 -2.34893942 -0.50411737 3 4 20508 2.64200000 2686457485 2686457485 -11.00000000
-11.62943649 -24.83747101 2.39939761 8 5 20509 27.53000000 2686457488 2686457488 5.00000000
-9.71526909 -20.73045921 2.81103826 57 7 20511 23.06600000 2686457492 2686457492 7.00000000
-2.44130898 -5.20690441 -0.70611095 4 8 20512 5.79400000 2686457494 2686457494 -7.00000000
-6.77319908 -14.43954563 2.52610373 40 9 20513 16.14800000 2686457497 2686457497 9.00000000
-2.41819668 -5.15526867 -0.49818224 10 10 20513 5.71600000 2686457499 2686457499 -5.00000000
-5.95346546 -12.68622494 2.72398925 74 11 20514 14.27600000 2686457501 2686457501 11.00000000
-2.43779421 -5.19233322 -0.30061772 27 12 20515 5.74400000 2686457504 2686457504 -3.00000000
-4.59404373 -9.78055763 2.49470711 64 13 20516 11.09000000 2686457506 2686457506 13.00000000
-2.45619035 -5.22677183 -0.10080510 24 14 20517 5.77600000 2686457508 2686457508 -1.00000000
-4.34226799 -9.23615646 2.73468208 78 15 20518 10.56600000 2686457511 2686457511 15.00000000
-0.82324344 -1.74552584 -0.51712048 5 0 20525 1.99800000 2686457531 2686457531 -15.00000000
-2.48829055 -5.27354479 0.10178243 30 1 20526 5.83200000 2686457534 2686457534 1.00000000
-0.95084661 -2.01426053 -0.51423812 4 2 20527 2.28600000 2686457536 2686457536 -13.00000000
-13.60312557 -28.80365372 1.66941237 5 3 20528 31.89800000 2686457538 2686457538 3.00000000
-1.10416305 -2.33798695 -0.50259089 3 4 20528 2.63400000 2686457541 2686457541 -11.00000000
-13.60050774 -28.78509903 2.78532314 29 5 20529 31.95800000 2686457543 2686457543 5.00000000
-2.45237994 -5.18804979 -0.90888423 126 6 20530 5.81000000 2686457545 2686457545 -9.00000000
-9.79775715 -20.71795464 2.81396317 52 7 20531 23.09000000 2686457547 2686457547 7.00000000
-2.46116757 -5.20193958 -0.70659846 4 8 20532 5.79800000 2686457550 2686457550 -7.00000000
-6.82949352 -14.43486118 2.52923250 40 9 20532 16.16800000 2686457552 2686457552 9.00000000
-2.43447232 -5.14319468 -0.49783361 10 10 20533 5.71200000 2686457554 2686457554 -5.00000000
-6.01115656 -12.69375610 2.73009515 74 11 20534 14.30800000 2686457557 2686457557 11.00000000
-2.44478750 -5.16032791 -0.29925701 33 12 20535 5.71800000 2686457559 2686457559 -3.00000000
-4.63149452 -9.77150536 2.49650669 64 13 20536 11.09800000 2686457561 2686457561 13.00000000
-2.45985460 -5.18744993 -0.10021172 36 14 20537 5.74200000 2686457564 2686457564 -1.00000000
-4.33810759 -9.14839268 2.71294117 76 15 20537 10.48200000 2686457566 2686457566 15.00000000
-0.82850128 -1.74089718 -0.51660281 5 0 20545 1.99600000 2686457587 2686457587 -15.00000000
-2.49292922 -5.23593903 0.10122396 35 1 20546 5.80000000 2686457589 2686457589 1.00000000
-0.95870996 -2.01268864 -0.51468801 4 2 20547 2.28800000 2686457591 2686457591 -13.00000000
-13.72420692 -28.79926682 1.67192447 11 3 20548 31.94600000 2686457594 2686457594 3.00000000
-1.11231732 -2.33411837 -0.50259089 3 4 20548 2.63400000 2686457596 2686457596 -11.00000000
-13.72148228 -28.78061104 2.78950667 29 5 20549 32.00600000 2686457598 2686457598 5.00000000
-2.46877384 -5.17589188 -0.90825850 124 6 20550 5.80600000 2686457600 2686457600 -9.00000000
-9.88455009 -20.71408463 2.81810665 52 7 20551 23.12400000 2686457603 2686457603 7.00000000
-2.49556017 -5.22735405 -0.71122950 2 8 20552 5.83600000 2686457605 2686457605 -7.00000000
-6.89430666 -14.44123936 2.53455114 36 9 20552 16.20200000 2686457607 2686457607 9.00000000
-2.45069337 -5.13106966 -0.49748498 10 10 20553 5.70800000 2686457610 2686457610 -5.00000000
-6.06727982 -12.69749546 2.73543787 78 11 20554 14.33600000 2686457612 2686457612 11.00000000
-2.46278548 -5.15176249 -0.29925701 39 12 20555 5.71800000 2686457614 2686457614 -3.00000000
-4.67061996 -9.76582718 2.49920630 68 13 20556 11.11000000 2686457617 2686457617 13.00000000
-2.49003053 -5.20408583 -0.10070039 24 14 20557 5.77000000 2686457619 2686457619 -1.00000000
-4.33499479 -9.06000328 2.69120049 73 15 20557 10.39800000 2686457621 2686457621 15.00000000
-0.83624560 -1.74147761 -0.51763809 5 0 20565 2.00000000 2686457642 2686457642 -15.00000000
-2.50686121 -5.21819258 0.10104943 22 1 20566 5.79000000 2686457644 2686457644 1.00000000
-0.96319717 -2.00406051 -0.51333833 4 2 20567 2.28200000 2686457647 2686457647 -13.00000000
-13.84888554 -28.80158424 1.67485523 5 3 20568 32.00200000 2686457649 2686457649 3.00000000
-1.12386131 -2.33729887 -0.50411737 3 4 20568 2.64200000 2686457651 2686457651 -11.00000000
-16.62371826 -34.55696869 3.35497308 31 5 20569 38.49400000 2686457653 2686457653 5.00000000
-9.97229671 -20.71164894 2.82249403 49 7 20571 23.16000000 2686457658 2686457658 7.00000000
-1.69797242 -3.52497673 -0.48040897 1 8 20572 3.94200000 2686457660 2686457660 -7.00000000
-6.96091127 -14.44434547 2.53955722 36 9 20573 16.23400000 2686457663 2686457663 9.00000000
-2.45993948 -5.10453558 -0.49574187 10 10 20573 5.68800000 2686457665 2686457665 -5.00000000
-6.11668110 -12.68685055 2.73772740 78 11 20574 14.34800000 2686457667 2686457667 11.00000000
-2.50157833 -5.18630886 -0.30176914 21 12 20575 5.76600000 2686457670 2686457670 -3.00000000
-4.70806837 -9.75648403 2.50100589 62 13 20576 11.11800000 2686457672 2686457672 13.00000000
-2.50991988 -5.19896364 -0.10077020 22 14 20577 5.77400000 2686457674 2686457674 -1.00000000
-4.33467817 -8.97870731 2.67153025 76 15 20577 10.32200000 2686457676 2686457676 15.00000000
-0.84568870 -1.74550211 -0.51970863 5 0 20585 2.00800000 2686457697 2686457697 -15.00000000
-2.52244425 -5.20401192 0.10094472 11 1 20586 5.78400000 2686457700 2686457700 1.00000000
-0.96848619 -1.99717927 -0.51243848 4 2 20587 2.27800000 2686457702 2686457702 -13.00000000
-21.74478722 -44.82143402 2.61083150 45 3 20588 49.88600000 2686457704 2686457704 3.00000000
-1.13372695 -2.33689427 -0.50488061 3 4 20588 2.64600000 2686457706 2686457706 -11.00000000
-16.72945404 -34.46826172 3.35200977 31 5 20589 38.46000000 2686457709 2686457709 5.00000000
-2.50225949 -5.15319967 -0.90731990 24 6 20590 5.80000000 2686457711 2686457711 -9.00000000
-10.05407429 -20.69635391 2.82517505 44 7 20591 23.18200000 2686457713 2686457713 7.00000000
-1.70419252 -3.50653028 -0.47870278 1 8 20592 3.92800000 2686457716 2686457716 -7.00000000
-7.02165413 -14.44127750 2.54331160 36 9 20593 16.25800000 2686457718 2686457718 9.00000000
-2.47425795 -5.08875036 -0.49504462 7 10 20593 5.68000000 2686457720 2686457720 -5.00000000
-6.16951704 -12.68307590 2.74154353 68 11 20594 14.36800000 2686457723 2686457723 11.00000000
-2.51617074 -5.17036152 -0.30135044 15 12 20595 5.75800000 2686457725 2686457725 -3.00000000
-4.74380255 -9.74349499 2.50190568 62 13 20596 11.12200000 2686457727 2686457727 13.00000000
-2.52454972 -5.18297958 -0.10063057 18 14 20597 5.76600000 2686457729 2686457729 -1.00000000
-4.33793831 -8.90197659 2.65341282 64 15 20598 10.25200000 2686457732 2686457732 15.00000000
-0.85432160 -1.74774623 -0.52126157 5 0 20605 2.01400000 2686457753 2686457753 -15.00000000
-13.08072281 -26.74832726 0.51973265 100 1 20606 29.78000000 2686457755 2686457755 1.00000000
-0.97630817 -1.99553692 -0.51288843 4 2 20607 2.28000000 2686457757 2686457757 -13.00000000
-21.92306137 -44.79010391 2.61344838 45 3 20608 49.93600000 2686457759 2686457759 3.00000000
-1.14187741 -2.33292246 -0.50488061 3 4 20608 2.64600000 2686457762 2686457762 -11.00000000
-16.88296509 -34.47764969 3.35863376 100 5 20609 38.53600000 2686457764 2686457764 5.00000000
-2.52457738 -5.15330362 -0.90888423 22 6 20610 5.81000000 2686457766 2686457766 -9.00000000
-10.14547634 -20.70034790 2.83053732 55 7 20611 23.22600000 2686457769 2686457769 7.00000000
-1.71467435 -3.49699545 -0.47821531 1 8 20612 3.92400000 2686457771 2686457771 -7.00000000
-7.08594084 -14.44505501 2.54831743 32 9 20613 16.29000000 2686457773 2686457773 9.00000000
-2.49551582 -5.08723736 -0.49574187 7 10 20613 5.68800000 2686457776 2686457776 -5.00000000
-6.23105049 -12.69671249 2.74917603 68 11 20614 14.40800000 2686457778 2686457778 11.00000000
-2.53068233 -5.15437555 -0.30093175 15 12 20615 5.75000000 2686457780 2686457780 -3.00000000
-4.77262974 -9.71638203 2.49920630 60 13 20616 11.11000000 2686457782 2686457782 13.00000000
-2.53468871 -5.15798330 -0.10031644 9 14 20617 5.74800000 2686457785 2686457785 -1.00000000
-4.33931780 -8.83032703 2.63633084 71 15 20617 10.18600000 2686457787 2686457787 15.00000000
-0.85870832 -1.74128819 -0.52022630 5 0 20625 2.01000000 2686457808 2686457808 -15.00000000
-13.19613075 -26.74733734 0.52060527 100 1 20626 29.83000000 2686457810 2686457810 1.00000000
-0.98585552 -1.99735928 -0.51423812 4 2 20627 2.28600000 2686457812 2686457812 -13.00000000
-22.12172127 -44.79926300 2.61847258 46 3 20628 50.03200000 2686457815 2686457815 3.00000000
-1.14653683 -2.32188106 -0.50335413 3 4 20628 2.63800000 2686457817 2686457817 -11.00000000
-16.98821068 -34.38814163 3.35567045 63 5 20629 38.50200000 2686457819 2686457819 5.00000000
-10.23438931 -20.69861794 2.83516836 52 7 20631 23.26400000 2686457824 2686457824 7.00000000
-1.72687066 -3.49098897 -0.47821531 3 8 20632 3.92400000 2686457826 2686457826 -7.00000000
-7.14595795 -14.43970776 2.55175900 20 9 20633 16.31200000 2686457829 2686457829 9.00000000
-2.51149082 -5.07492399 -0.49539325 10 10 20633 5.68400000 2686457831 2686457831 -5.00000000
-6.28317213 -12.69071960 2.75261068 65 11 20634 14.42600000 2686457833 2686457833 11.00000000
-2.54511309 -5.13835144 -0.30051306 12 12 20635 5.74200000 2686457835 2686457835 -3.00000000
-4.80997801 -9.70664787 2.50100589 60 13 20636 11.11800000 2686457838 2686457838 13.00000000
-6.59930325 -13.31170654 -0.25934276 7 14 20637 14.86000000 2686457840 2686457840 -1.00000000
-4.33321857 -8.74070072 2.61407232 68 15 20637 10.10000000 2686457842 2686457842 15.00000000
-0.85961843 -1.72790241 -0.51712048 5 0 20645 1.99800000 2686457863 2686457863 -15.00000000
-0.99108434 -1.99041688 -0.51333833 4 2 20647 2.28200000 2686457868 2686457868 -13.00000000
-1.15463471 -2.31786489 -0.50335413 3 4 20648 2.63800000 2686457872 2686457872 -11.00000000
-17.11169815 -34.33576202 3.35636759 85 5 20649 38.51000000 2686457875 2686457875 5.00000000
-1.38293028 -2.77372909 -0.49089134 2 6 20650 3.13800000 2686457877 2686457877 -9.00000000
-10.32873058 -20.70717621 2.84126186 52 7 20651 23.31400000 2686457879 2686457879 7.00000000
-1.74347782 -3.49382091 -0.47943398 3 8 20652 3.93400000 2686457881 2686457881 -7.00000000
-8.32720566 -16.68720055 2.95379567 42 9 20652 18.88200000 2686457884 2686457884 9.00000000
-2.52029109 -5.04830074 -0.49365014 7 10 20653 5.66400000 2686457886 2686457886 -5.00000000
-6.33620501 -12.68627357 2.75642681 65 11 20654 14.44600000 2686457888 2686457888 11.00000000
-2.58892322 -5.18124866 -0.30354854 6 12 20655 5.80000000 2686457891 2686457891 -3.00000000
-4.84731674 -9.69677067 2.50280547 62 13 20656 11.12600000 2686457893 2686457893 13.00000000
-6.64036322 -13.27785873 -0.25913334 9 14 20657 14.84800000 2686457895 2686457895 -1.00000000
-4.33173132 -8.66159153 2.59491968 68 15 20657 10.02600000 2686457898 2686457898 15.00000000
-0.86824423 -1.73007107 -0.51867336 5 0 20665 2.00400000 2686457918 2686457918 -15.00000000
-13.44175816 -26.77250671 0.52290899 11 1 20666 29.96200000 2686457921 2686457921 1.00000000
-0.99715149 -1.98520386 -0.51288843 4 2 20667 2.28000000 2686457923 2686457923 -13.00000000
-1.16624463 -2.32083726 -0.50488061 3 4 20668 2.64600000 2686457928 2686457928 -11.00000000
-17.21981430 -34.25268173 3.35410166 74 5 20669 38.48400000 2686457930 2686457930 5.00000000
-1.39615428 -2.77594399 -0.49214283 3 6 20670 3.14600000 2686457932 2686457932 -9.00000000
-10.41254807 -20.69404793 2.84443045 49 7 20671 23.34000000 2686457934 2686457934 7.00000000
-1.74762988 -3.47175574 -0.47724035 3 8 20672 3.91600000 2686457937 2686457937 -7.00000000
-8.39897346 -16.67774010 2.95755005 59 9 20673 18.90600000 2686457939 2686457939 9.00000000
-2.37838268 -4.72272587 -0.46262267 3 10 20673 5.30800000 2686457941 2686457941 -5.00000000
-6.38663292 -12.67635155 2.75909805 74 11 20674 14.46000000 2686457944 2686457944 11.00000000
-3.46550322 -6.87543201 -0.40351021 4 12 20675 7.71000000 2686457946 2686457946 -3.00000000
-4.88815451 -9.69371128 2.50640464 64 13 20676 11.14200000 2686457948 2686457948 13.00000000
-6.68216753 -13.24567223 -0.25895882 9 14 20677 14.83800000 2686457951 2686457951 -1.00000000
-4.33124256 -8.58184528 2.57576704 72 15 20678 9.95200000 2686457953 2686457953 15.00000000
-0.87166041 -1.72185898 -0.51712048 5 0 20685 1.99800000 2686457974 2686457974 -15.00000000
-13.54326057 -26.74147987 0.52322316 11 1 20686 29.98000000 2686457976 2686457976 1.00000000
-1.00583661 -1.98518777 -0.51378822 4 2 20687 2.28400000 2686457978 2686457978 -13.00000000
-1.17433870 -2.31675196 -0.50488061 3 4 20688 2.64600000 2686457983 2686457983 -11.00000000
-17.32665825 -34.16748810 3.35166121 63 5 20689 38.45600000 2686457985 2686457985 5.00000000
-1.40404820 -2.76753020 -0.49151710 2 6 20690 3.14200000 2686457987 2686457987 -9.00000000
-10.49909496 -20.68589783 2.84833026 49 7 20691 23.37200000 2686457990 2686457990 7.00000000
-1.76513040 -3.47625399 -0.47870278 3 8 20692 3.92800000 2686457992 2686457992 -7.00000000
-8.45892715 -16.65184212 2.95817566 80 9 20693 18.91000000 2686457994 2686457994 9.00000000
-2.39485359 -4.71439505 -0.46262267 3 10 20693 5.30800000 2686457997 2686457997 -5.00000000
-6.43973732 -12.67148304 2.76291418 74 11 20694 14.48000000 2686457999 2686457999 11.00000000
-3.49129200 -6.86685419 -0.40371957 4 12 20695 7.71400000 2686458001 2686458001 -3.00000000
-4.92019510 -9.67311573 2.50550485 64 13 20696 11.13800000 2686458004 2686458004 13.00000000
-6.71747971 -13.20087910 -0.25853994 9 14 20697 14.81400000 2686458006 2686458006 -1.00000000
-4.32638359 -8.50200844 2.55609679 72 15 20697 9.87600000 2686458008 2686458008 15.00000000
-0.87942261 -1.72224689 -0.51815575 5 0 20705 2.00200000 2686458029 2686458029 -15.00000000
-13.65653706 -26.73321915 0.52399105 11 1 20706 30.02400000 2686458031 2686458031 1.00000000
-1.01187325 -1.97992933 -0.51333833 4 2 20707 2.28200000 2686458033 2686458033 -13.00000000
-1.18063104 -2.30914259 -0.50411737 3 4 20708 2.64200000 2686458038 2686458038 -11.00000000
-17.46850204 -34.15114212 3.35601902 74 5 20709 38.50600000 2686458040 2686458040 5.00000000
-1.42629838 -2.78723145 -0.49589726 3 6 20710 3.17000000 2686458043 2686458043 -9.00000000
-10.59113979 -20.68799782 2.85369253 49 7 20711 23.41600000 2686458045 2686458045 7.00000000
-1.78087366 -3.47713876 -0.47967774 3 8 20712 3.93600000 2686458047 2686458047 -7.00000000
-8.50078773 -16.59056854 2.95254421 59 9 20713 18.87400000 2686458050 2686458050 9.00000000
-2.41129541 -4.70600653 -0.46262267 3 10 20713 5.30800000 2686458052 2686458052 -5.00000000
-6.49646807 -12.67338657 2.76825690 68 11 20714 14.50800000 2686458054 2686458054 11.00000000
-3.51341796 -6.85107088 -0.40351021 4 12 20715 7.71000000 2686458057 2686458057 -3.00000000
-4.95037270 -9.64894676 2.50370526 60 13 20716 11.13000000 2686458059 2686458059 13.00000000
-6.75530052 -13.16133881 -0.25822580 9 14 20717 14.79600000 2686458061 2686458061 -1.00000000
-4.33574581 -8.44732475 2.54419112 63 15 20717 9.83000000 2686458063 2686458063 15.00000000
-0.88542902 -1.71916664 -0.51815575 5 0 20725 2.00200000 2686458084 2686458084 -15.00000000
-13.78823853 -26.76004601 0.52545702 5 1 20726 30.10800000 2686458086 2686458086 1.00000000
-1.01967120 -1.97811735 -0.51378822 4 2 20727 2.28400000 2686458089 2686458089 -13.00000000
-24.79970932 -48.08973312 2.83566689 13 3 20728 54.18200000 2686458091 2686458091 3.00000000
-1.18508494 -2.29802775 -0.50259089 3 4 20728 2.63400000 2686458093 2686458093 -11.00000000
-1.42695892 -2.76468205 -0.49276856 3 6 20730 3.15000000 2686458098 2686458098 -9.00000000
-10.68150520 -20.68617821 2.85856724 52 7 20731 23.45600000 2686458100 2686458100 7.00000000
-1.78662276 -3.45855546 -0.47797155 3 8 20732 3.92200000 2686458103 2686458103 -7.00000000
-8.56935596 -16.58861351 2.95723724 80 9 20732 18.90400000 2686458105 2686458105 9.00000000
-2.42770767 -4.69756079 -0.46262267 3 10 20733 5.30800000 2686458107 2686458107 -5.00000000
-6.55328989 -12.67504787 2.77359962 74 11 20734 14.53600000 2686458110 2686458110 11.00000000
-3.53180552 -6.82812119 -0.40288219 4 12 20735 7.69800000 2686458112 2686458112 -3.00000000
-4.98581457 -9.63506889 2.50460505 62 13 20736 11.13400000 2686458114 2686458114 13.00000000
-6.78281450 -13.10216141 -0.25752771 9 14 20737 14.75600000 2686458116 2686458116 -1.00000000
-4.33202839 -8.36447525 2.52400327 67 15 20738 9.75200000 2686458119 2686458119 15.00000000
-0.89142466 -1.71606553 -0.51815575 5 0 20745 2.00200000 2686458139 2686458139 -15.00000000
-13.89355278 -26.73481941 0.52591079 5 1 20746 30.13400000 2686458142 2686458142 1.00000000
-1.02836776 -1.97800410 -0.51468801 4 2 20747 2.28800000 2686458144 2686458144 -13.00000000
-24.77478218 -47.65281677 2.81473231 12 3 20747 53.78200000 2686458146 2686458146 3.00000000
-1.19309938 -2.29387712 -0.50259089 3 4 20748 2.63400000 2686458149 2686458149 -11.00000000
-17.71845055 -34.05133438 3.35828519 100 5 20749 38.53200000 2686458151 2686458151 5.00000000
-1.43477643 -2.75618005 -0.49214283 3 6 20750 3.14600000 2686458153 2686458153 -9.00000000
-10.77657127 -20.69278336 2.86466074 52 7 20751 23.50600000 2686458156 2686458156 7.00000000
-1.80327058 -3.46110034 -0.47919026 1 8 20752 3.93200000 2686458158 2686458158 -7.00000000
-8.63283825 -16.56234932 2.95817566 89 9 20753 18.91000000 2686458160 2686458160 9.00000000
-2.42014694 -4.64312172 -0.45809057 3 10 20753 5.25600000 2686458163 2686458163 -5.00000000
-6.61383390 -12.68342972 2.78046870 68 11 20754 14.57200000 2686458165 2686458165 11.00000000
-3.56300879 -6.82991743 -0.40371957 4 12 20755 7.71400000 2686458167 2686458167 -3.00000000
-5.02122021 -9.62106228 2.50550485 60 13 20756 11.13800000 2686458169 2686458169 13.00000000
-6.82295513 -13.06777000 -0.25731829 14 14 20757 14.74400000 2686458172 2686458172 -1.00000000
-4.32810593 -8.28594589 2.50485063 54 15 20758 9.67800000 2686458174 2686458174 15.00000000
-0.89471984 -1.70780969 -0.51660281 5 0 20765 1.99600000 2686458195 2686458195 -15.00000000
-14.00349903 -26.71804047 0.52653909 78 1 20766 30.17000000 2686458197 2686458197 1.00000000
-1.03345609 -1.97095060 -0.51378822 4 2 20767 2.28400000 2686458199 2686458199 -13.00000000
-24.89459610 -47.47760391 2.80949879 12 3 20767 53.68200000 2686458202 2686458202 3.00000000
-1.20292318 -2.29317570 -0.50335413 3 4 20768 2.63800000 2686458204 2686458204 -11.00000000
-17.86312675 -34.03867722 3.36316586 53 5 20769 38.58800000 2686458206 2686458206 5.00000000
-1.44806159 -2.75815082 -0.49339432 3 6 20770 3.15400000 2686458209 2686458209 -9.00000000
-10.86442947 -20.68491554 2.86880445 24 7 20771 23.54000000 2686458211 2686458211 7.00000000
-1.82180476 -3.46708560 -0.48089644 1 8 20772 3.94600000 2686458213 2686458213 -7.00000000
-8.68587589 -16.53013229 2.95755005 89 9 20772 18.90600000 2686458216 2686458216 9.00000000
-2.46044350 -4.68049812 -0.46262267 3 10 20773 5.30800000 2686458218 2686458218 -5.00000000
-6.66537762 -12.67416668 2.78352165 68 11 20774 14.58800000 2686458220 2686458220 11.00000000
-3.57566857 -6.79622793 -0.40246350 4 12 20775 7.69000000 2686458222 2686458222 -3.00000000
-5.05840397 -9.61037350 2.50730443 62 13 20776 11.14600000 2686458225 2686458225 13.00000000
-6.85455275 -13.01733303 -0.25679472 19 14 20777 14.71400000 2686458227 2686458227 -1.00000000
-4.33899498 -8.23660374 2.49449801 60 15 20778 9.63800000 2686458229 2686458229 15.00000000
-0.90338320 -1.70980036 -0.51815575 5 0 20785 2.00200000 2686458250 2686458250 -15.00000000
-14.14153290 -26.75385666 0.52821451 50 1 20786 30.26600000 2686458252 2686458252 1.00000000
-1.03486383 -1.95699489 -0.51108879 4 2 20787 2.27200000 2686458255 2686458255 -13.00000000
-24.93506432 -47.15382767 2.79547286 12 3 20787 53.41400000 2686458257 2686458257 3.00000000
-1.21642888 -2.29937482 -0.50564384 3 4 20788 2.65000000 2686458259 2686458259 -11.00000000
-17.97997093 -33.97259521 3.36281729 63 5 20789 38.58400000 2686458262 2686458262 5.00000000
-1.44658840 -2.73213005 -0.48963988 2 6 20790 3.13000000 2686458264 2686458264 -9.00000000
-10.13002968 -19.12422562 2.65723920 17 7 20791 21.80400000 2686458266 2686458266 7.00000000
-1.81530607 -3.42562461 -0.47602165 1 8 20792 3.90600000 2686458269 2686458269 -7.00000000
-8.75092316 -16.51367569 2.96005297 89 9 20792 18.92200000 2686458271 2686458271 9.00000000
-2.47676659 -4.67188120 -0.46262267 3 10 20793 5.30800000 2686458273 2686458273 -5.00000000
-6.71969652 -12.66990089 2.78771949 65 11 20794 14.61000000 2686458275 2686458275 11.00000000
-3.57222271 -6.73254108 -0.39942801 4 12 20795 7.63200000 2686458278 2686458278 -3.00000000
