# .PCD v0.7 - Point Cloud Data file format
VERSION 0.7
FIELDS x y z intensity laser_id azimuth distance_m adjustedtime timestamp vertical_angle
SIZE 4 4 4 1 1 2 8 8 4 8
TYPE F F F U U U F U U F
COUNT 1 1 1 1 1 1 1 1 1 1
WIDTH 534
HEIGHT 1
VIEWPOINT 0 0 0 1 0 0 0
POINTS 534
DATA ascii
1.20052004 3.02137756 -0.63195938 4 4 2167 3.31200000 2211707701 2211707701 -11.00000000
7.65253830 19.24953461 1.81231654 25 5 2168 20.79400000 2211707703 2211707703 5.00000000
1.50978220 3.79584360 -0.64701295 2 6 2169 4.13600000 2211707706 2211707706 -9.00000000
5.86451149 14.73686695 1.94747210 19 7 2170 15.98000000 2211707708 2211707708 7.00000000
2.03108311 5.10129452 -0.67418122 2 8 2171 5.53200000 2211707710 2211707710 -7.00000000
5.26999331 13.22946453 2.25547218 36 9 2172 14.41800000 2211707713 2211707713 9.00000000
3.03778172 7.62585878 -0.71816331 4 10 2172 8.24000000 2211707715 2211707715 -5.00000000
3.86545181 9.69866657 2.02944446 46 11 2173 10.63600000 2211707717 2211707717 11.00000000
6.75119066 16.93057823 -0.95523590 5 12 2174 18.25200000 2211707719 2211707719 -3.00000000
3.31814218 8.31698895 2.06730008 59 13 2175 9.19000000 2211707722 2211707722 13.00000000
8.65424156 21.68103218 -0.40747878 3 14 2176 23.34800000 2211707724 2211707724 -1.00000000
2.75131512 6.88923740 1.98773026 11 15 2177 7.68000000 2211707726 2211707726 15.00000000
0.84660459 2.11238432 -0.60977769 4 0 2184 2.35600000 2211707747 2211707747 -15.00000000
8.65330791 21.58017731 0.40583825 47 1 2185 23.25400000 2211707749 2211707749 1.00000000
1.00349617 2.50131965 -0.62221462 3 2 2186 2.76600000 2211707752 2211707752 -13.00000000
8.76486206 21.83630943 1.23313975 3 3 2187 23.56200000 2211707754 2211707754 3.00000000
1.21105933 3.01716876 -0.63195938 2 4 2187 3.31200000 2211707756 2211707756 -11.00000000
7.72710991 19.24119377 1.81405962 25 5 2188 20.81400000 2211707759 2211707759 5.00000000
1.52891481 3.80521393 -0.64951593 2 6 2189 4.15200000 2211707761 2211707761 -9.00000000
6.62893724 16.48999977 2.18219256 42 7 2190 17.90600000 2211707763 2211707763 7.00000000
2.04591465 5.08680677 -0.67320627 2 8 2191 5.52400000 2211707766 2211707766 -7.00000000
5.31383514 13.21191597 2.25547218 36 9 2191 14.41800000 2211707768 2211707768 9.00000000
3.06512618 7.61705685 -0.71833766 4 10 2192 8.24200000 2211707770 2211707770 -5.00000000
3.90734839 9.70514774 2.03364229 50 11 2193 10.65800000 2211707772 2211707772 11.00000000
6.80577040 16.89579201 -0.95460784 5 12 2194 18.24000000 2211707775 2211707775 -3.00000000
3.34569669 8.30174065 2.06640029 60 13 2195 9.18600000 2211707777 2211707777 13.00000000
8.63714218 21.42071915 -0.40315059 3 14 2196 23.10000000 2211707779 2211707779 -1.00000000
2.77992487 6.89440966 1.99187136 9 15 2196 7.69600000 2211707782 2211707782 15.00000000
0.85542291 2.11299777 -0.61081296 4 0 2204 2.36000000 2211707802 2211707802 -15.00000000
8.64900780 21.35337639 0.40213835 42 1 2205 23.04200000 2211707805 2211707805 1.00000000
1.01368511 2.50141382 -0.62311441 3 2 2206 2.77000000 2211707807 2211707807 -13.00000000
1.21420717 2.99472880 -0.62814319 4 4 2207 3.29200000 2211707812 2211707812 -11.00000000
7.49315262 18.47190475 1.74398637 6 5 2208 20.01000000 2211707814 2211707814 5.00000000
1.54441667 3.80534482 -0.65045452 4 6 2209 4.15800000 2211707816 2211707816 -9.00000000
6.68720436 16.46859932 2.18243623 44 7 2210 17.90800000 2211707819 2211707819 7.00000000
2.06739426 5.08882999 -0.67442495 2 8 2211 5.53400000 2211707821 2211707821 -7.00000000
5.36222315 13.19235134 2.25547218 36 9 2212 14.41800000 2211707823 2211707823 9.00000000
3.08794498 7.59708261 -0.71746606 4 10 2212 8.23200000 2211707825 2211707825 -5.00000000
3.93824363 9.68417454 2.03211570 46 11 2213 10.65000000 2211707828 2211707828 11.00000000
6.90836382 16.97923279 -0.96067882 5 12 2214 18.35600000 2211707830 2211707830 -3.00000000
3.37612438 8.29362106 2.06730008 59 13 2215 9.19000000 2211707832 2211707832 13.00000000
8.62964535 21.18857384 -0.39934596 3 14 2216 22.88200000 2211707835 2211707835 -1.00000000
3.02824831 7.43161631 2.15026855 27 15 2217 8.30800000 2211707837 2211707837 15.00000000
0.85694396 2.09569383 -0.60667187 4 0 2224 2.34400000 2211707858 2211707858 -15.00000000
8.64020252 21.11946869 0.39829883 46 1 2225 22.82200000 2211707860 2211707860 1.00000000
1.02683973 2.50868106 -0.62581384 3 2 2226 2.78200000 2211707862 2211707862 -13.00000000
1.22762930 2.99773955 -0.62966967 4 4 2227 3.30000000 2211707867 2211707867 -11.00000000
7.52132797 18.35714149 1.73561943 5 5 2228 19.91400000 2211707869 2211707869 5.00000000
1.55918896 3.80358624 -0.65108025 2 6 2229 4.16200000 2211707872 2211707872 -9.00000000
6.74314308 16.44148254 2.18194866 42 7 2230 17.90400000 2211707874 2211707874 7.00000000
2.08891273 5.09076452 -0.67564362 2 8 2231 5.54400000 2211707876 2211707876 -7.00000000
5.40594149 13.17449665 2.25547218 39 9 2231 14.41800000 2211707878 2211707878 9.00000000
3.12579489 7.61390400 -0.72008073 4 10 2232 8.26200000 2211707881 2211707881 -5.00000000
3.97053194 9.66673660 2.03135252 43 11 2233 10.64600000 2211707883 2211707883 11.00000000
6.95544338 16.92545700 -0.95900404 5 12 2234 18.32400000 2211707885 2211707885 -3.00000000
3.40653586 8.28539085 2.06820011 60 13 2235 9.19400000 2211707888 2211707888 13.00000000
8.62215614 20.96044159 -0.39561114 2 14 2236 22.66800000 2211707890 2211707890 -1.00000000
3.06463456 7.45011902 2.15855074 36 15 2236 8.34000000 2211707892 2211707892 15.00000000
0.86720377 2.09983206 -0.60874242 4 0 2244 2.35200000 2211707913 2211707913 -15.00000000
8.63445187 20.89697266 0.39466873 46 1 2245 22.61400000 2211707915 2211707915 1.00000000
1.03261244 2.49787784 -0.62401420 3 2 2246 2.77400000 2211707918 2211707918 -13.00000000
8.76098728 21.18225861 1.20131958 3 3 2247 22.95400000 2211707920 2211707920 3.00000000
1.23958659 2.99706435 -0.63043290 4 4 2247 3.30400000 2211707922 2211707922 -11.00000000
7.59145498 18.34550285 1.73701394 5 5 2248 19.93000000 2211707925 2211707925 5.00000000
1.56338894 3.77621889 -0.64732581 2 6 2249 4.13800000 2211707927 2211707927 -9.00000000
6.79745483 16.41050720 2.18097377 40 7 2250 17.89600000 2211707929 2211707929 7.00000000
2.11275005 5.09811306 -0.67759353 2 8 2251 5.56000000 2211707931 2211707931 -7.00000000
5.45419216 13.15459442 2.25547218 36 9 2252 14.41800000 2211707934 2211707934 9.00000000
3.15006399 7.59742498 -0.71955782 4 10 2252 8.25600000 2211707936 2211707936 -5.00000000
4.00425100 9.65281773 2.03135252 43 11 2253 10.64600000 2211707938 2211707938 11.00000000
7.03821564 16.95825958 -0.96224886 5 12 2254 18.38600000 2211707941 2211707941 -3.00000000
3.43394184 8.26984978 2.06730008 57 13 2255 9.19000000 2211707943 2211707943 13.00000000
8.62545586 20.76217079 -0.39243481 2 14 2256 22.48600000 2211707945 2211707945 -1.00000000
2.98069978 7.17125273 2.08090520 6 15 2257 8.04000000 2211707948 2211707948 15.00000000
0.87862229 2.10764337 -0.61184824 4 0 2263 2.36400000 2211707968 2211707968 -15.00000000
8.62595558 20.68181992 0.39114332 46 1 2264 22.41200000 2211707971 2211707971 1.00000000
1.03938913 2.49084306 -0.62311441 3 2 2265 2.77000000 2211707973 2211707973 -13.00000000
8.78039742 21.03144455 1.19441116 3 3 2266 22.82200000 2211707975 2211707975 3.00000000
1.25254393 3.00018406 -0.63195938 4 4 2266 3.31200000 2211707978 2211707978 -11.00000000
7.66453552 18.34964371 1.73980296 5 5 2267 19.96200000 2211707980 2211707980 5.00000000
1.58047283 3.78194928 -0.64920300 2 6 2268 4.15000000 2211707982 2211707982 -9.00000000
6.85030556 16.38421440 2.18048620 38 7 2269 17.89200000 2211707984 2211707984 7.00000000
2.12658000 5.08375359 -0.67661858 2 8 2270 5.55200000 2211707987 2211707987 -7.00000000
5.49244213 13.13010502 2.25422072 36 9 2270 14.41000000 2211707989 2211707989 9.00000000
3.18524027 7.61083031 -0.72182387 4 10 2271 8.28200000 2211707991 2211707991 -5.00000000
7.00103474 16.71192741 -0.94958359 5 12 2273 18.14400000 2211707996 2211707996 -3.00000000
3.45833373 8.25122738 2.06550050 59 13 2274 9.18200000 2211707998 2211707998 13.00000000
8.61692810 20.54903984 -0.38894433 5 14 2275 22.28600000 2211708001 2211708001 -1.00000000
2.98005509 7.10662460 2.06485844 9 15 2275 7.97800000 2211708003 2211708003 15.00000000
0.88597399 2.10456347 -0.61184824 4 0 2283 2.36400000 2211708024 2211708024 -15.00000000
8.62513351 20.47834969 0.38786229 46 1 2284 22.22400000 2211708026 2211708026 1.00000000
1.04656398 2.48360801 -0.62221462 3 2 2285 2.76600000 2211708028 2211708028 -13.00000000
14.61168671 34.65818787 1.97118151 24 3 2286 37.66400000 2211708031 2211708031 3.00000000
1.26300883 2.99579358 -0.63195938 4 4 2286 3.31200000 2211708033 2211708033 -11.00000000
7.74635077 18.36499977 1.74381208 6 5 2287 20.00800000 2211708035 2211708035 5.00000000
1.59520066 3.78004932 -0.64982879 2 6 2288 4.15400000 2211708037 2211708037 -9.00000000
6.91054392 16.36751747 2.18146133 40 7 2289 17.90000000 2211708040 2211708040 7.00000000
2.14431286 5.07629919 -0.67661858 2 8 2290 5.55200000 2211708042 2211708042 -7.00000000
5.53824139 13.11085320 2.25422072 39 9 2290 14.41000000 2211708044 2211708044 9.00000000
3.21178746 7.59966564 -0.72182387 4 10 2291 8.28200000 2211708047 2211708047 -5.00000000
6.99629784 16.53839302 -0.94110519 10 12 2293 17.98200000 2211708051 2211708051 -3.00000000
3.48255754 8.22833824 2.06280112 55 13 2294 9.17000000 2211708054 2211708054 13.00000000
8.60907173 20.33101273 -0.38538405 2 14 2295 22.08200000 2211708056 2211708056 -1.00000000
3.04552102 7.19224167 2.09281087 13 15 2295 8.08600000 2211708058 2211708058 15.00000000
0.89029187 2.09434652 -0.60977769 4 0 2303 2.35600000 2211708079 2211708079 -15.00000000
8.62456226 20.27882004 0.38465104 46 1 2304 22.04000000 2211708081 2211708081 1.00000000
1.05980504 2.49069858 -0.62491405 3 2 2305 2.77800000 2211708084 2211708084 -13.00000000
8.71891308 20.48081398 1.16656852 3 3 2306 22.29000000 2211708086 2211708086 3.00000000
1.26576853 2.97330284 -0.62814319 2 4 2306 3.29200000 2211708088 2211708088 -11.00000000
7.91190386 18.57614517 1.76647258 6 5 2307 20.26800000 2211708090 2211708090 5.00000000
1.61458087 3.78899622 -0.65233171 2 6 2308 4.17000000 2211708093 2211708093 -9.00000000
6.97386312 16.35790443 2.18341112 40 7 2309 17.91600000 2211708095 2211708095 7.00000000
2.16824985 5.08339071 -0.67856848 2 8 2310 5.56800000 2211708097 2211708097 -7.00000000
5.58625793 13.09046650 2.25422072 36 9 2311 14.41000000 2211708100 2211708100 9.00000000
3.23516774 7.58107805 -0.72112662 4 10 2311 8.27400000 2211708102 2211708102 -5.00000000
4.46806622 10.46511078 2.21185780 56 11 2312 11.59200000 2211708104 2211708104 11.00000000
7.00769615 16.40550613 -0.93492955 15 12 2313 17.86400000 2211708107 2211708107 -3.00000000
3.51279020 8.21971512 2.06370091 57 13 2314 9.17400000 2211708109 2211708109 13.00000000
8.60294437 20.12064743 -0.38196337 2 14 2315 21.88600000 2211708111 2211708111 -1.00000000
3.04934239 7.13183069 2.07831693 15 15 2315 8.03000000 2211708113 2211708113 15.00000000
0.89302528 2.08057475 -0.60667187 4 0 2323 2.34400000 2211708134 2211708134 -15.00000000
8.61481285 20.06117249 0.38109076 49 1 2324 21.83600000 2211708137 2211708137 1.00000000
1.06387722 2.47624111 -0.62221462 3 2 2325 2.76600000 2211708139 2211708139 -13.00000000
8.73277473 20.31630516 1.15892744 3 3 2326 22.14400000 2211708141 2211708141 3.00000000
1.27769017 2.97247386 -0.62890643 4 4 2326 3.29600000 2211708143 2211708143 -11.00000000
8.10972214 18.85773849 1.79593122 18 5 2327 20.60600000 2211708146 2211708146 5.00000000
1.61842847 3.76156259 -0.64857727 2 6 2328 4.14600000 2211708148 2211708148 -9.00000000
7.02935028 16.32981300 2.18292379 42 7 2329 17.91200000 2211708150 2211708150 7.00000000
2.18284035 5.06849813 -0.67759353 2 8 2330 5.56000000 2211708153 2211708153 -7.00000000
5.63504457 13.07814407 2.25547218 36 9 2331 14.41800000 2211708155 2211708155 9.00000000
3.25688052 7.55876017 -0.72008073 4 10 2331 8.26200000 2211708157 2211708157 -5.00000000
4.50767756 10.45666122 2.21338439 56 11 2332 11.60000000 2211708160 2211708160 11.00000000
7.00164175 16.23422623 -0.92655575 5 12 2333 17.70400000 2211708162 2211708162 -3.00000000
3.54146099 8.20740318 2.06370091 60 13 2334 9.17400000 2211708164 2211708164 13.00000000
8.60179424 19.92526245 -0.37882194 5 14 2335 21.70600000 2211708166 2211708166 -1.00000000
3.07699323 7.12415361 2.07935214 31 15 2336 8.03400000 2211708169 2211708169 15.00000000
0.90181869 2.08098984 -0.60770714 4 0 2343 2.34800000 2211708190 2211708190 -15.00000000
8.60921860 19.85668564 0.37777478 45 1 2344 21.64600000 2211708192 2211708192 1.00000000
1.07251441 2.47251248 -0.62221462 3 2 2345 2.76600000 2211708194 2211708194 -13.00000000
8.72730637 20.10981178 1.14887893 3 3 2346 21.95200000 2211708196 2211708196 3.00000000
1.29274774 2.97880149 -0.63119614 4 4 2346 3.30800000 2211708199 2211708199 -11.00000000
8.14613914 18.76169586 1.78948176 18 5 2347 20.53200000 2211708201 2211708201 5.00000000
1.63469708 3.76313758 -0.64982879 2 6 2348 4.15400000 2211708203 2211708203 -9.00000000
7.08630943 16.30517769 2.18292379 40 7 2349 17.91200000 2211708206 2211708206 7.00000000
2.19735312 5.05356598 -0.67661858 2 8 2350 5.55200000 2211708208 2211708208 -7.00000000
5.68066168 13.05839443 2.25547218 36 9 2351 14.41800000 2211708210 2211708210 9.00000000
3.28642488 7.55465364 -0.72077799 4 10 2351 8.27000000 2211708213 2211708213 -5.00000000
4.54258394 10.43726254 2.21262121 56 11 2352 11.59600000 2211708215 2211708215 11.00000000
7.01202011 16.10347939 -0.92048478 5 12 2353 17.58800000 2211708217 2211708217 -3.00000000
3.57320166 8.20213795 2.06550050 60 13 2354 9.18200000 2211708219 2211708219 13.00000000
8.59459209 19.71913338 -0.37547109 5 14 2355 21.51400000 2211708222 2211708222 -1.00000000
3.09751344 7.10682678 2.07728171 38 15 2355 8.02600000 2211708224 2211708224 15.00000000
0.91217458 2.08490872 -0.60977769 4 0 2363 2.35600000 2211708245 2211708245 -15.00000000
8.60871792 19.66713905 0.37473807 45 1 2364 21.47200000 2211708247 2211708247 1.00000000
1.07644808 2.45804310 -0.61951518 3 2 2365 2.75400000 2211708249 2211708249 -13.00000000
8.76458740 20.00422096 1.14458740 3 3 2366 21.87000000 2211708252 2211708252 3.00000000
1.30313778 2.97427082 -0.63119614 4 4 2366 3.30800000 2211708254 2211708254 -11.00000000
8.26757145 18.86087990 1.80168355 24 5 2367 20.67200000 2211708256 2211708256 5.00000000
1.64940965 3.76102662 -0.65045452 2 6 2368 4.15800000 2211708259 2211708259 -9.00000000
7.13839626 16.26943588 2.18146133 40 7 2369 17.90000000 2211708261 2211708261 7.00000000
2.21019244 5.03495932 -0.67515618 2 8 2370 5.54000000 2211708263 2211708263 -7.00000000
5.72779799 13.04210281 2.25609779 36 9 2371 14.42200000 2211708266 2211708266 9.00000000
3.31918478 7.55772972 -0.72217250 4 10 2371 8.28600000 2211708268 2211708268 -5.00000000
4.58846617 10.44291115 2.21720052 53 11 2372 11.62000000 2211708270 2211708270 11.00000000
7.02639389 15.98382759 -0.91504186 5 12 2373 17.48400000 2211708272 2211708272 -3.00000000
3.59553456 8.17534447 2.06190133 59 13 2374 9.16600000 2211708275 2211708275 13.00000000
8.59894276 19.54258537 -0.37267870 5 14 2375 21.35400000 2211708277 2211708277 -1.00000000
3.12541413 7.10304403 2.07935214 38 15 2375 8.03400000 2211708279 2211708279 15.00000000
0.92027980 2.08556771 -0.61081296 4 0 2381 2.36000000 2211708300 2211708300 -15.00000000
8.59858418 19.47718430 0.37163153 45 1 2382 21.29400000 2211708302 2211708302 1.00000000
1.08573961 2.45821452 -0.62041503 3 2 2383 2.75800000 2211708305 2211708305 -13.00000000
19.20923615 43.49147797 2.49171495 10 3 2383 47.61000000 2211708307 2211708307 3.00000000
1.31564939 2.97734523 -0.63272262 4 4 2384 3.31600000 2211708309 2211708309 -11.00000000
8.33161736 18.84574699 1.80272937 36 5 2385 20.68400000 2211708312 2211708312 5.00000000
1.65961897 3.75221324 -0.64982879 2 6 2386 4.15400000 2211708314 2211708314 -9.00000000
7.19589949 16.26145172 2.18341112 42 7 2387 17.91600000 2211708316 2211708316 7.00000000
2.23082113 5.03888178 -0.67661858 2 8 2388 5.55200000 2211708318 2211708318 -7.00000000
5.76486969 13.02143764 2.25547218 36 9 2388 14.41800000 2211708321 2211708321 9.00000000
3.34613919 7.55455160 -0.72286975 4 10 2389 8.29400000 2211708323 2211708323 -5.00000000
4.62920475 10.44639397 2.22101665 53 11 2390 11.64000000 2211708325 2211708325 11.00000000
6.99967194 15.78821754 -0.90509802 30 12 2391 17.29400000 2211708328 2211708328 -3.00000000
3.61645937 8.15331936 2.05920196 57 13 2392 9.15400000 2211708330 2211708330 13.00000000
8.58405018 19.34366035 -0.36939764 5 14 2393 21.16600000 2211708332 2211708332 -1.00000000
3.14928079 7.09672213 2.08038759 42 15 2393 8.03800000 2211708335 2211708335 15.00000000
0.92598206 2.07881331 -0.60977769 4 0 2401 2.35600000 2211708355 2211708355 -15.00000000
8.59081936 19.27718353 0.36838540 49 1 2402 21.10800000 2211708358 2211708358 1.00000000
1.10224938 2.47220802 -0.62491405 3 2 2403 2.77800000 2211708360 2211708360 -13.00000000
19.39291954 43.47550201 2.49485493 10 3 2404 47.67000000 2211708362 2211708362 3.00000000
1.31963599 2.95839095 -0.62966967 4 4 2404 3.30000000 2211708365 2211708365 -11.00000000
8.39572716 18.81291008 1.80238080 36 5 2405 20.68000000 2211708367 2211708367 5.00000000
1.67592800 3.75361204 -0.65108025 2 6 2406 4.16200000 2211708369 2211708369 -9.00000000
7.25585699 16.24348450 2.18438601 40 7 2407 17.92400000 2211708371 2211708371 7.00000000
8.56269741 19.16008949 -2.57680535 3 8 2408 21.14400000 2211708374 2211708374 -7.00000000
5.80610704 12.98579407 2.25296926 36 9 2409 14.40200000 2211708376 2211708376 9.00000000
3.37086248 7.53918743 -0.72252113 8 10 2409 8.29000000 2211708378 2211708378 -5.00000000
4.67526102 10.45167732 2.22559619 59 11 2410 11.66400000 2211708381 2211708381 11.00000000
6.97804976 15.59232426 -0.89525884 45 12 2411 17.10600000 2211708383 2211708383 -3.00000000
3.64808321 8.14776039 2.06100154 60 13 2412 9.16200000 2211708385 2211708385 13.00000000
8.56077862 19.11100769 -0.36552319 8 14 2413 20.94400000 2211708388 2211708388 -1.00000000
3.17606044 7.08689451 2.08090520 40 15 2414 8.04000000 2211708390 2211708390 15.00000000
0.93006396 2.06852055 -0.60770714 4 0 2421 2.34800000 2211708411 2211708411 -15.00000000
8.57766151 19.06835747 0.36496472 43 1 2422 20.91200000 2211708413 2211708413 1.00000000
1.11087227 2.46834540 -0.62491405 3 2 2423 2.77800000 2211708415 2211708415 -13.00000000
8.59758377 19.10373306 1.09790373 43 3 2423 20.97800000 2211708418 2211708418 3.00000000
1.32914865 2.95197630 -0.62928808 4 4 2424 3.29800000 2211708420 2211708420 -11.00000000
8.45643520 18.77258873 1.80133486 36 5 2425 20.66800000 2211708422 2211708422 5.00000000
8.48730659 18.83234406 -3.27167034 4 6 2426 20.91400000 2211708424 2211708424 -9.00000000
7.31740904 16.22891617 2.18584847 40 7 2427 17.93600000 2211708427 2211708427 7.00000000
2.27329087 5.03947067 -0.67881227 2 8 2428 5.57000000 2211708429 2211708429 -7.00000000
5.85465050 12.97265053 2.25422072 36 9 2429 14.41000000 2211708431 2211708431 9.00000000
3.39060211 7.51284695 -0.72112662 4 10 2429 8.27400000 2211708434 2211708434 -5.00000000
4.71494722 10.44245052 2.22712255 59 11 2430 11.67200000 2211708436 2211708436 11.00000000
6.99296808 15.48050308 -0.89023459 15 12 2431 17.01000000 2211708438 2211708438 -3.00000000
3.67971230 8.14208031 2.06280112 62 13 2432 9.17000000 2211708441 2211708441 13.00000000
8.56647015 18.94617271 -0.36294025 8 14 2433 20.79600000 2211708443 2211708443 -1.00000000
3.19795227 7.07280254 2.07986975 40 15 2433 8.03600000 2211708445 2211708445 15.00000000
0.93887550 2.06877971 -0.60874242 4 0 2441 2.35200000 2211708466 2211708466 -15.00000000
8.56811237 18.87078667 0.36175349 43 1 2442 20.72800000 2211708468 2211708468 1.00000000
1.11948168 2.46445274 -0.62491405 3 2 2443 2.77800000 2211708470 2211708470 -13.00000000
8.59565544 18.92267609 1.08921587 43 3 2443 20.81200000 2211708473 2211708473 3.00000000
1.34594309 2.96161747 -0.63234103 4 4 2444 3.31400000 2211708475 2211708475 -11.00000000
8.51613998 18.73026085 1.80011475 42 5 2445 20.65400000 2211708477 2211708477 5.00000000
1.70372784 3.74541664 -0.65170598 2 6 2446 4.16600000 2211708480 2211708480 -9.00000000
7.37072468 16.19604683 2.18487358 40 7 2447 17.92800000 2211708482 2211708482 7.00000000
2.28675508 5.02247143 -0.67759353 2 8 2448 5.56000000 2211708484 2211708484 -7.00000000
5.90317345 12.95932579 2.25547218 39 9 2449 14.41800000 2211708487 2211708487 9.00000000
3.42010975 7.50821829 -0.72182387 4 10 2449 8.28200000 2211708489 2211708489 -5.00000000
4.75788260 10.44022083 2.23017550 59 11 2450 11.68800000 2211708491 2211708491 11.00000000
6.99062014 15.33242321 -0.88311690 10 12 2451 16.87400000 2211708494 2211708494 -3.00000000
3.71134591 8.13627815 2.06460071 59 13 2452 9.17800000 2211708496 2211708496 13.00000000
8.56115437 18.75970268 -0.35993844 8 14 2453 20.62400000 2211708498 2211708498 -1.00000000
3.22342348 7.06335402 2.08038759 40 15 2453 8.03800000 2211708500 2211708500 15.00000000
0.94930917 2.07251525 -0.61081296 4 0 2461 2.36000000 2211708521 2211708521 -15.00000000
8.56228733 18.68442345 0.35875165 48 1 2462 20.55600000 2211708523 2211708523 1.00000000
1.12482870 2.45344424 -0.62311441 3 2 2463 2.77000000 2211708526 2211708526 -13.00000000
8.58418274 18.71495056 1.07906270 42 3 2464 20.61800000 2211708528 2211708528 3.00000000
1.35381734 2.95154762 -0.63119614 4 4 2464 3.30800000 2211708530 2211708530 -11.00000000
8.57814503 18.69317627 1.79941750 49 5 2465 20.64600000 2211708533 2211708533 5.00000000
1.71679151 3.73944688 -0.65170598 2 6 2466 4.16600000 2211708535 2211708535 -9.00000000
7.42224312 16.15939522 2.18341112 40 7 2467 17.91600000 2211708537 2211708537 7.00000000
2.30344391 5.01265478 -0.67734981 2 8 2468 5.55800000 2211708540 2211708540 -7.00000000
5.95106459 12.95044804 2.25734925 36 9 2468 14.43000000 2211708542 2211708542 9.00000000
3.45794892 7.52157784 -0.72426420 4 10 2469 8.31000000 2211708544 2211708544 -5.00000000
4.79921913 10.43425083 2.23246527 56 11 2470 11.70000000 2211708547 2211708547 11.00000000
7.00903177 15.23172474 -0.87872070 9 12 2471 16.79000000 2211708549 2211708549 -3.00000000
3.73320484 8.10911179 2.06100154 60 13 2472 9.16200000 2211708551 2211708551 13.00000000
8.56049824 18.58621597 -0.35718095 8 14 2473 20.46600000 2211708553 2211708553 -1.00000000
3.25171590 7.05675602 2.08194041 42 15 2474 8.04400000 2211708556 2211708556 15.00000000
0.95491654 2.06568193 -0.60977769 4 0 2481 2.35600000 2211708576 2211708576 -15.00000000
8.58464622 18.56185722 0.35697153 52 1 2482 20.45400000 2211708579 2211708579 1.00000000
1.13338602 2.44950294 -0.62311441 3 2 2483 2.77000000 2211708581 2211708581 -13.00000000
8.60845470 18.60481262 1.07435250 32 3 2483 20.52800000 2211708583 2211708583 3.00000000
1.36081302 2.93967748 -0.62966967 4 4 2484 3.30000000 2211708586 2211708586 -11.00000000
8.62241173 18.61792183 1.79505968 30 5 2485 20.59600000 2211708588 2211708588 5.00000000
1.72319043 3.71909261 -0.64920300 2 6 2486 4.15000000 2211708590 2211708590 -9.00000000
7.48027468 16.13699150 2.18389869 40 7 2487 17.92000000 2211708593 2211708593 7.00000000
2.31675148 4.99557924 -0.67613113 2 8 2488 5.54800000 2211708595 2211708595 -7.00000000
5.99516487 12.92138195 2.25609779 36 9 2489 14.42200000 2211708597 2211708597 9.00000000
3.48082876 7.50223207 -0.72356695 4 10 2489 8.30200000 2211708600 2211708600 -5.00000000
7.07477617 15.23433685 -0.88029081 10 12 2491 16.82000000 2211708604 2211708604 -3.00000000
3.75820374 8.08896255 2.05920196 60 13 2492 9.15400000 2211708606 2211708606 13.00000000
8.55957794 18.41477966 -0.35445836 8 14 2493 20.31000000 2211708609 2211708609 -1.00000000
3.27958703 7.05236912 2.08401084 40 15 2494 8.05200000 2211708611 2211708611 15.00000000
0.96084714 2.05866694 -0.60874242 4 0 2502 2.35200000 2211708632 2211708632 -15.00000000
8.57816792 18.37082100 0.35389990 43 1 2503 20.27800000 2211708634 2211708634 1.00000000
1.14235628 2.44533229 -0.62311441 3 2 2504 2.77000000 2211708636 2211708636 -13.00000000
8.66982365 18.55866051 1.07351518 9 3 2504 20.51200000 2211708639 2211708639 3.00000000
1.37490332 2.94178462 -0.63119614 2 4 2505 3.30800000 2211708641 2211708641 -11.00000000
8.69903088 18.60424232 1.79680276 30 5 2506 20.61600000 2211708643 2211708643 5.00000000
1.74183214 3.72348762 -0.65108025 2 6 2507 4.16200000 2211708646 2211708646 -9.00000000
7.54189348 16.11486053 2.18462992 38 7 2508 17.92600000 2211708648 2211708648 7.00000000
2.33504581 4.98705435 -0.67613113 2 8 2509 5.54800000 2211708650 2211708650 -7.00000000
6.04023218 12.90037632 2.25609779 39 9 2509 14.42200000 2211708653 2211708653 9.00000000
3.50830245 7.48942375 -0.72356695 4 10 2510 8.30200000 2211708655 2211708655 -5.00000000
8.16157150 17.40727043 -1.00757182 5 12 2512 19.25200000 2211708659 2211708659 -3.00000000
3.78782606 8.07513332 2.05920196 62 13 2513 9.15400000 2211708662 2211708662 13.00000000
8.55395412 18.22760010 -0.35145655 8 14 2514 20.13800000 2211708664 2211708664 -1.00000000
3.30048704 7.02980947 2.08090520 42 15 2515 8.04000000 2211708666 2211708666 15.00000000
0.96802741 2.05530047 -0.60874242 4 0 2522 2.35200000 2211708687 2211708687 -15.00000000
8.57149506 18.19062424 0.35100281 52 1 2523 20.11200000 2211708689 2211708689 1.00000000
1.15254700 2.44485521 -0.62401420 3 2 2524 2.77400000 2211708692 2211708692 -13.00000000
8.75754738 18.57706070 1.07634127 13 3 2524 20.56600000 2211708694 2211708694 3.00000000
1.38181388 2.92986465 -0.62966967 2 4 2525 3.30000000 2211708696 2211708696 -11.00000000
8.77752209 18.60259438 1.79959178 36 5 2526 20.64800000 2211708699 2211708699 5.00000000
1.75650549 3.72095728 -0.65170598 2 6 2527 4.16600000 2211708701 2211708701 -9.00000000
7.60233784 16.09741020 2.18584847 38 7 2528 17.93600000 2211708703 2211708703 7.00000000
2.36091995 4.99682140 -0.67856848 2 8 2529 5.56800000 2211708706 2211708706 -7.00000000
6.08353853 12.87564087 2.25547218 39 9 2529 14.41800000 2211708708 2211708708 9.00000000
3.52931523 7.46632433 -0.72252113 8 10 2530 8.29000000 2211708710 2211708710 -5.00000000
4.93605232 10.43758392 2.24429536 59 11 2531 11.76200000 2211708712 2211708712 11.00000000
8.18982601 17.31007004 -1.00359428 5 12 2532 19.17600000 2211708715 2211708715 -3.00000000
3.81932545 8.06890774 2.06100154 59 13 2533 9.16200000 2211708717 2211708717 13.00000000
8.55933094 18.07473373 -0.34908304 8 14 2534 20.00200000 2211708719 2211708719 -1.00000000
3.32169724 7.01126242 2.07883453 42 15 2535 8.03200000 2211708722 2211708722 15.00000000
0.97530818 2.05399418 -0.60926002 4 0 2540 2.35400000 2211708742 2211708742 -15.00000000
8.56252956 18.02452660 0.34831512 42 1 2541 19.95800000 2211708745 2211708745 1.00000000
1.15854907 2.43770218 -0.62311441 3 2 2542 2.77000000 2211708747 2211708747 -13.00000000
8.84415722 18.60898590 1.07979548 35 3 2542 20.63200000 2211708749 2211708749 3.00000000
1.39438355 2.93260121 -0.63119614 2 4 2543 3.30800000 2211708752 2211708752 -11.00000000
8.84276676 18.58931923 1.80098629 49 5 2544 20.66400000 2211708754 2211708754 5.00000000
1.76479101 3.70828605 -0.65045452 2 6 2545 4.15800000 2211708756 2211708756 -9.00000000
7.64945793 16.06627846 2.18487358 40 7 2546 17.92800000 2211708758 2211708758 7.00000000
2.37660623 4.98937988 -0.67856848 2 8 2547 5.56800000 2211708761 2211708761 -7.00000000
6.12480783 12.85824871 2.25578499 39 9 2547 14.42000000 2211708763 2211708763 9.00000000
3.55961084 7.46958828 -0.72391558 8 10 2548 8.30600000 2211708765 2211708765 -5.00000000
4.97642279 10.43797493 2.24773002 59 11 2549 11.78000000 2211708768 2211708768 11.00000000
8.22009182 17.23377991 -1.00066352 5 12 2550 19.12000000 2211708770 2211708770 -3.00000000
3.84633422 8.06038666 2.06190133 62 13 2551 9.16600000 2211708772 2211708772 13.00000000
8.53767300 17.88353729 -0.34590670 7 14 2552 19.82000000 2211708775 2211708775 -1.00000000
3.34415007 7.00486231 2.07986975 42 15 2552 8.03600000 2211708777 2211708777 15.00000000
0.98914981 2.06451488 -0.61340111 4 0 2560 2.37000000 2211708798 2211708798 -15.00000000
8.56056786 17.85928345 0.34569725 51 1 2561 19.80800000 2211708800 2211708800 1.00000000
1.16705120 2.43364334 -0.62311441 3 2 2562 2.77000000 2211708802 2211708802 -13.00000000
8.91769695 18.59600830 1.08084214 39 3 2562 20.65200000 2211708805 2211708805 3.00000000
1.41140556 2.94187665 -0.63424909 4 4 2563 3.32400000 2211708807 2211708807 -11.00000000
8.90329170 18.54935837 1.80011475 49 5 2564 20.65400000 2211708809 2211708809 5.00000000
1.78114498 3.70922613 -0.65170598 2 6 2565 4.16600000 2211708811 2211708811 -9.00000000
7.70205498 16.03232193 2.18389869 40 7 2566 17.92000000 2211708814 2211708814 7.00000000
2.40002728 4.99357796 -0.68027467 2 8 2567 5.58200000 2211708816 2211708816 -7.00000000
6.17136574 12.84035206 2.25641084 39 9 2567 14.42400000 2211708818 2211708818 9.00000000
3.58738971 7.46070862 -0.72426420 8 10 2568 8.31000000 2211708821 2211708821 -5.00000000
5.02133846 10.43823242 2.25154614 62 11 2569 11.80000000 2211708823 2211708823 11.00000000
6.95675230 14.45506382 -0.84072483 4 12 2570 16.06400000 2211708825 2211708825 -3.00000000
3.86599278 8.02935314 2.05740237 57 13 2571 9.14600000 2211708828 2211708828 13.00000000
8.54016781 17.72931671 -0.34349826 7 14 2572 19.68200000 2211708830 2211708830 -1.00000000
3.37483358 7.00300026 2.08297563 40 15 2573 8.04800000 2211708832 2211708832 15.00000000
0.99755108 2.06261468 -0.61391878 4 0 2581 2.37200000 2211708853 2211708853 -15.00000000
8.56064606 17.69278336 0.34307942 51 1 2582 19.65800000 2211708855 2211708855 1.00000000
1.17596316 2.42934942 -0.62311441 3 2 2583 2.77000000 2211708858 2211708858 -13.00000000
8.98381233 18.55084610 1.08021414 13 3 2584 20.64000000 2211708860 2211708860 3.00000000
1.41875577 2.92961597 -0.63272262 2 4 2584 3.31600000 2211708862 2211708862 -11.00000000
8.95297527 18.47894859 1.79645419 42 5 2585 20.61200000 2211708864 2211708864 5.00000000
1.79300475 3.69911766 -0.65108025 2 6 2586 4.16200000 2211708867 2211708867 -9.00000000
2.40531659 4.95795774 -0.67661858 2 8 2588 5.55200000 2211708871 2211708871 -7.00000000
6.21752405 12.81586933 2.25609779 36 9 2588 14.42200000 2211708874 2211708874 9.00000000
3.61732030 7.45288754 -0.72478718 8 10 2589 8.31600000 2211708876 2211708876 -5.00000000
5.06985331 10.44095135 2.25612545 59 11 2590 11.82400000 2211708878 2211708878 11.00000000
6.96866846 14.34503365 -0.83580524 4 12 2591 15.97000000 2211708881 2211708881 -3.00000000
3.88858128 8.00110817 2.05380321 62 13 2592 9.13000000 2211708883 2211708883 13.00000000
8.54038429 17.56481552 -0.34091529 7 14 2593 19.53400000 2211708885 2211708885 -1.00000000
3.39587927 6.98422766 2.08090520 45 15 2593 8.04000000 2211708888 2211708888 15.00000000
1.00050902 2.05043912 -0.61133057 4 0 2601 2.36200000 2211708908 2211708908 -15.00000000
8.56094742 17.53700256 0.34063607 42 1 2602 19.51800000 2211708911 2211708911 1.00000000
1.18785667 2.43223405 -0.62491405 4 2 2603 2.77800000 2211708913 2211708913 -13.00000000
8.65307808 17.71004677 1.03300714 3 3 2604 19.73800000 2211708915 2211708915 3.00000000
1.42897344 2.92464590 -0.63272262 2 4 2604 3.31600000 2211708917 2211708917 -11.00000000
9.01479912 18.44221306 1.79593122 36 5 2605 20.60600000 2211708920 2211708920 5.00000000
1.80937743 3.69993472 -0.65233171 2 6 2606 4.17000000 2211708922 2211708922 -9.00000000
2.42697191 4.95844603 -0.67783731 2 8 2608 5.56200000 2211708927 2211708927 -7.00000000
5.54427290 11.32227039 1.99672949 10 9 2609 12.76400000 2211708929 2211708929 9.00000000
3.63542795 7.42411089 -0.72321838 8 10 2609 8.29800000 2211708931 2211708931 -5.00000000
5.11317778 10.43729496 2.25917840 59 11 2610 11.84000000 2211708934 2211708934 11.00000000
6.96156549 14.20404720 -0.82900155 13 12 2611 15.84000000 2211708936 2211708936 -3.00000000
3.91477084 7.98398590 2.05290341 59 13 2612 9.12600000 2211708938 2211708938 13.00000000
8.53383255 17.39665794 -0.33822763 7 14 2613 19.38000000 2211708941 2211708941 -1.00000000
3.42145491 6.97173452 2.08090520 42 15 2614 8.04000000 2211708943 2211708943 15.00000000
1.00424743 2.04000139 -0.60926002 4 0 2621 2.35400000 2211708964 2211708964 -15.00000000
8.55319691 17.36708641 0.33791348 41 1 2622 19.36200000 2211708966 2211708966 1.00000000
1.19806218 2.43156910 -0.62581384 3 2 2623 2.78200000 2211708968 2211708968 -13.00000000
8.66539383 17.57941437 1.02714550 3 3 2624 19.62600000 2211708970 2211708970 3.00000000
1.43917358 2.91963983 -0.63272262 4 4 2624 3.31600000 2211708973 2211708973 -11.00000000
9.14344883 18.54107857 1.80865598 25 5 2625 20.75200000 2211708975 2211708975 5.00000000
1.82053363 3.69005322 -0.65170598 2 6 2626 4.16600000 2211708977 2211708977 -9.00000000
7.88987541 15.98501587 2.18877339 38 7 2627 17.96000000 2211708980 2211708980 7.00000000
2.43635511 4.93392515 -0.67564362 2 8 2628 5.54400000 2211708982 2211708982 -7.00000000
5.58353758 11.30736542 1.99735522 27 9 2628 12.76800000 2211708984 2211708984 9.00000000
3.66838026 7.42566633 -0.72461283 8 10 2629 8.31400000 2211708987 2211708987 -5.00000000
5.15479898 10.42994308 2.26146817 59 11 2630 11.85200000 2211708989 2211708989 11.00000000
6.96772766 14.09193325 -0.82387263 13 12 2631 15.74200000 2211708991 2211708991 -3.00000000
3.94780040 7.98075247 2.05560279 56 13 2632 9.13800000 2211708994 2211708994 13.00000000
8.53242016 17.24130630 -0.33578429 7 14 2633 19.24000000 2211708996 2211708996 -1.00000000
3.44112778 6.95342445 2.07883453 45 15 2633 8.03200000 2211708998 2211708998 15.00000000
1.01651788 2.04686475 -0.61236584 4 0 2641 2.36600000 2211709019 2211709019 -15.00000000
8.54614544 17.20101929 0.33526072 45 1 2642 19.21000000 2211709021 2211709021 1.00000000
1.20480788 2.42388201 -0.62491405 3 2 2643 2.77800000 2211709023 2211709023 -13.00000000
8.66089630 17.41672134 1.01939976 3 3 2644 19.47800000 2211709026 2211709026 3.00000000
1.45285296 2.92163014 -0.63424909 4 4 2644 3.32400000 2211709028 2211709028 -11.00000000
9.23651123 18.56613159 1.81423390 18 5 2645 20.81600000 2211709030 2211709030 5.00000000
1.82812214 3.67306519 -0.64982879 2 6 2646 4.15400000 2211709033 2211709033 -9.00000000
7.94208622 15.95026970 2.18779850 38 7 2647 17.95200000 2211709035 2211709035 7.00000000
2.45887351 4.93605137 -0.67710608 2 8 2648 5.55600000 2211709037 2211709037 -7.00000000
5.63287354 11.30273628 2.00017118 43 9 2649 12.78600000 2211709040 2211709040 9.00000000
3.70494270 7.43421459 -0.72670460 8 10 2649 8.33800000 2211709042 2211709042 -5.00000000
5.19643068 10.42242813 2.26375794 56 11 2650 11.86400000 2211709044 2211709044 11.00000000
6.97497511 13.98352337 -0.81895304 4 12 2651 15.64800000 2211709046 2211709046 -3.00000000
3.97389412 7.96343613 2.05470300 39 13 2652 9.13400000 2211709049 2211709049 13.00000000
8.52913475 17.08439064 -0.33330604 7 14 2653 19.09800000 2211709051 2211709051 -1.00000000
3.46831656 6.94422197 2.07986975 45 15 2654 8.03600000 2211709053 2211709053 15.00000000
1.02156985 2.04002786 -0.61133057 4 0 2660 2.36200000 2211709074 2211709074 -15.00000000
8.53864956 17.04385757 0.33274758 53 1 2661 19.06600000 2211709076 2211709076 1.00000000
1.21109271 2.41638923 -0.62401420 3 2 2662 2.77400000 2211709079 2211709079 -13.00000000
25.30266380 50.46223831 2.95844698 41 3 2663 56.52800000 2211709081 2211709081 3.00000000
1.45901346 2.90977621 -0.63272262 2 4 2663 3.31600000 2211709083 2211709083 -11.00000000
1.84383655 3.67404485 -0.65108025 2 6 2665 4.16200000 2211709088 2211709088 -9.00000000
7.99315405 15.92029667 2.18731093 40 7 2666 17.94800000 2211709090 2211709090 7.00000000
2.48502970 4.94738340 -0.67978722 4 8 2667 5.57800000 2211709093 2211709093 -7.00000000
5.67456102 11.29734039 2.00236106 40 9 2667 12.80000000 2211709095 2211709095 9.00000000
3.72689128 7.41654682 -0.72618163 8 10 2668 8.33200000 2211709097 2211709097 -5.00000000
5.24066448 10.42443371 2.26795578 59 11 2669 11.88600000 2211709099 2211709099 11.00000000
6.94951534 13.81757355 -0.81057930 4 12 2670 15.48800000 2211709102 2211709102 -3.00000000
4.55823469 9.05910110 2.34129047 48 13 2671 10.40800000 2211709104 2211709104 13.00000000
8.52550030 16.93634033 -0.33096743 7 14 2672 18.96400000 2211709106 2211709106 -1.00000000
3.49532700 6.94364500 2.08297563 42 15 2672 8.04800000 2211709109 2211709109 15.00000000
1.03391087 2.04679561 -0.61443639 4 0 2680 2.37400000 2211709129 2211709129 -15.00000000
8.53946590 16.89794159 0.33047876 45 1 2681 18.93600000 2211709132 2211709132 1.00000000
1.21600318 2.40519047 -0.62221462 3 2 2682 2.76600000 2211709134 2211709134 -13.00000000
25.48135948 50.37895584 2.95876098 41 3 2683 56.53400000 2211709136 2211709136 3.00000000
1.47270608 2.91167331 -0.63424909 4 4 2683 3.32400000 2211709139 2211709139 -11.00000000
15.64613342 30.92042160 3.03179955 10 5 2684 34.78600000 2211709141 2211709141 5.00000000
1.86289549 3.67992306 -0.65327030 2 6 2685 4.17600000 2211709143 2211709143 -9.00000000
8.05047131 15.89584064 2.18779850 38 7 2686 17.95200000 2211709146 2211709146 7.00000000
2.49779820 4.92982483 -0.67856848 4 8 2687 5.56800000 2211709148 2211709148 -7.00000000
5.70878458 11.26237106 1.99985826 37 9 2688 12.78400000 2211709150 2211709150 9.00000000
3.75275707 7.40349245 -0.72618163 8 10 2688 8.33200000 2211709152 2211709152 -5.00000000
5.28856373 10.42883968 2.27291679 65 11 2689 11.91200000 2211709155 2211709155 11.00000000
6.99318743 13.78432560 -0.81005591 4 12 2690 15.47800000 2211709157 2211709157 -3.00000000
4.58894682 9.04139709 2.34084058 51 13 2691 10.40600000 2211709159 2211709159 13.00000000
8.51938152 16.77810097 -0.32845429 7 14 2692 18.82000000 2211709162 2211709162 -1.00000000
3.51900339 6.92734241 2.08194041 42 15 2693 8.04400000 2211709164 2211709164 15.00000000
1.03578699 2.03284645 -0.61133057 4 0 2700 2.36200000 2211709185 2211709185 -15.00000000
8.53482819 16.74331856 0.32803544 44 1 2701 18.79600000 2211709187 2211709187 1.00000000
1.23147392 2.41481948 -0.62581384 3 2 2702 2.78200000 2211709189 2211709189 -13.00000000
13.84466457 27.13654900 1.59656072 5 3 2703 30.50600000 2211709192 2211709192 3.00000000
1.47929180 2.89951968 -0.63272262 4 4 2703 3.31600000 2211709194 2211709194 -11.00000000
13.84190083 27.11943817 2.66382813 38 5 2704 30.56400000 2211709196 2211709196 5.00000000
1.87033939 3.66284227 -0.65139312 2 6 2705 4.16400000 2211709199 2211709199 -9.00000000
8.10590935 15.86764240 2.18779850 40 7 2706 17.95200000 2211709201 2211709201 7.00000000
2.51318455 4.91754055 -0.67808104 4 8 2707 5.56400000 2211709203 2211709203 -7.00000000
5.73890924 11.22930622 1.99735522 37 9 2707 12.76800000 2211709205 2211709205 9.00000000
3.77132130 7.37615585 -0.72478718 13 10 2708 8.31600000 2211709208 2211709208 -5.00000000
5.33923960 10.43828106 2.27902269 62 11 2709 11.94400000 2211709210 2211709210 11.00000000
6.98394108 13.64781761 -0.80346161 4 12 2710 15.35200000 2211709212 2211709212 -3.00000000
4.62047958 9.02532387 2.34084058 51 13 2711 10.40600000 2211709215 2211709215 13.00000000
8.50952816 16.61477280 -0.32583642 7 14 2712 18.67000000 2211709217 2211709217 -1.00000000
3.53843331 6.90875721 2.07986975 42 15 2712 8.03600000 2211709219 2211709219 15.00000000
1.03757834 2.01890898 -0.60822475 4 0 2720 2.35000000 2211709240 2211709240 -15.00000000
8.53104401 16.59249306 0.32566190 56 1 2721 18.66000000 2211709242 2211709242 1.00000000
1.24167848 2.41397190 -0.62671363 3 2 2722 2.78600000 2211709245 2211709245 -13.00000000
8.53283215 16.58173370 0.97732162 21 3 2723 18.67400000 2211709247 2211709247 3.00000000
1.48581076 2.88735557 -0.63119614 4 4 2723 3.30800000 2211709249 2211709249 -11.00000000
13.89361858 26.98769760 2.65563560 9 5 2724 30.47000000 2211709252 2211709252 5.00000000
1.87859142 3.64751053 -0.64982879 2 6 2725 4.15400000 2211709254 2211709254 -9.00000000
8.16488552 15.84630966 2.18877339 40 7 2726 17.96000000 2211709256 2211709256 7.00000000
2.54124904 4.92991161 -0.68100590 4 8 2727 5.58800000 2211709258 2211709258 -7.00000000
5.78183889 11.21170807 1.99798095 40 9 2728 12.77200000 2211709261 2211709261 9.00000000
3.79795909 7.36471748 -0.72496146 17 10 2728 8.31800000 2211709263 2211709263 -5.00000000
5.38104439 10.43004894 2.28131247 65 11 2729 11.95600000 2211709265 2211709265 11.00000000
6.98023987 13.52396679 -0.79759997 4 12 2730 15.24000000 2211709268 2211709268 -3.00000000
4.66089630 9.02645588 2.34533978 56 13 2731 10.42600000 2211709270 2211709270 13.00000000
8.51791286 16.48902893 -0.32395157 7 14 2732 18.56200000 2211709272 2211709272 -1.00000000
3.55663586 6.88201237 2.07572865 45 15 2733 8.02000000 2211709275 2211709275 15.00000000
1.05137742 2.02917957 -0.61236584 4 0 2739 2.36600000 2211709295 2211709295 -15.00000000
8.51700020 16.43095970 0.32304403 48 1 2740 18.51000000 2211709298 2211709298 1.00000000
1.24788249 2.40638113 -0.62581384 3 2 2741 2.78200000 2211709300 2211709300 -13.00000000
8.53994465 16.46115685 0.97187871 43 3 2742 18.57000000 2211709302 2211709302 3.00000000
1.50441837 2.89983940 -0.63501233 2 4 2742 3.32800000 2211709305 2211709305 -11.00000000
8.66884041 16.70247841 1.64637196 5 5 2743 18.89000000 2211709307 2211709307 5.00000000
1.89522803 3.65002656 -0.65139312 2 6 2744 4.16400000 2211709309 2211709309 -9.00000000
8.20640755 15.79800701 2.18584847 40 7 2745 17.93600000 2211709311 2211709311 7.00000000
2.54659867 4.90032005 -0.67808104 2 8 2746 5.56400000 2211709314 2211709314 -7.00000000
5.81885433 11.19699383 1.99860668 40 9 2746 12.77600000 2211709316 2211709316 9.00000000
3.83338904 7.37329531 -0.72705323 8 10 2747 8.34200000 2211709318 2211709318 -5.00000000
5.42466116 10.42956448 2.28512859 62 11 2748 11.97600000 2211709321 2211709321 11.00000000
6.97157717 13.39798355 -0.79152900 4 12 2749 15.12400000 2211709323 2211709323 -3.00000000
4.69260311 9.01440716 2.34623957 55 13 2750 10.43000000 2211709325 2211709325 13.00000000
8.50419426 16.32944489 -0.32136860 7 14 2751 18.41400000 2211709328 2211709328 -1.00000000
3.58448505 6.88279867 2.07935214 45 15 2751 8.03400000 2211709330 2211709330 15.00000000
1.05666482 2.02207279 -0.61133057 4 0 2759 2.36200000 2211709351 2211709351 -15.00000000
8.51408386 16.28594017 0.32077524 48 1 2760 18.38000000 2211709353 2211709353 1.00000000
1.25085580 2.39164972 -0.62311441 3 2 2761 2.77000000 2211709355 2211709355 -13.00000000
8.53346252 16.30914116 0.96465635 46 3 2762 18.43200000 2211709358 2211709358 3.00000000
1.52090275 2.90674710 -0.63768369 4 4 2762 3.34200000 2211709360 2211709360 -11.00000000
13.91529655 26.58359718 2.62513089 38 5 2763 30.12000000 2211709362 2211709362 5.00000000
1.90520823 3.63813877 -0.65045452 2 6 2764 4.15800000 2211709364 2211709364 -9.00000000
8.24860573 15.74464798 2.18243623 44 7 2765 17.90800000 2211709367 2211709367 7.00000000
2.57382512 4.91074133 -0.68076217 4 8 2766 5.58600000 2211709369 2211709369 -7.00000000
5.85790396 11.17661476 1.99860668 40 9 2766 12.77600000 2211709371 2211709371 9.00000000
3.85817814 7.35810471 -0.72687888 8 10 2767 8.34000000 2211709374 2211709374 -5.00000000
5.47288990 10.43316650 2.29008961 65 11 2768 12.00200000 2211709376 2211709376 11.00000000
8.51254559 16.22088814 -0.96005076 5 12 2769 18.34400000 2211709378 2211709378 -3.00000000
4.72041750 8.99107075 2.34443998 57 13 2770 10.42200000 2211709381 2211709381 13.00000000
8.50256252 16.18812943 -0.31916961 7 14 2771 18.28800000 2211709383 2211709383 -1.00000000
3.60759044 6.86853409 2.07883453 45 15 2771 8.03200000 2211709385 2211709385 15.00000000
1.06516516 2.02197599 -0.61236584 4 0 2778 2.36600000 2211709406 2211709406 -15.00000000
8.51490116 16.15678215 0.31878567 50 1 2779 18.26600000 2211709408 2211709408 1.00000000
1.25877988 2.38748860 -0.62311441 3 2 2780 2.77000000 2211709411 2211709411 -13.00000000
8.51668167 16.14649391 0.95670128 46 3 2781 18.28000000 2211709413 2211709413 3.00000000
1.51496255 2.87216711 -0.63119614 4 4 2781 3.30800000 2211709415 2211709415 -11.00000000
14.03312969 26.59369278 2.63070893 38 5 2782 30.18400000 2211709417 2211709417 5.00000000
1.92648435 3.64926982 -0.65358317 2 6 2783 4.17800000 2211709420 2211709420 -9.00000000
8.29891777 15.71369743 2.18194866 44 7 2784 17.90400000 2211709422 2211709422 7.00000000
2.58174944 4.88638306 -0.67856848 4 8 2785 5.56800000 2211709424 2211709424 -7.00000000
5.89134312 11.14562035 1.99672949 43 9 2786 12.76400000 2211709427 2211709427 9.00000000
3.89186811 7.36288500 -0.72862202 8 10 2786 8.36000000 2211709429 2211709429 -5.00000000
5.51571751 10.43058014 2.29352403 65 11 2787 12.02000000 2211709431 2211709431 11.00000000
8.50838375 16.08311272 -0.95356113 5 12 2788 18.22000000 2211709434 2211709434 -3.00000000
4.74291420 8.96158791 2.34084058 55 13 2789 10.40600000 2211709436 2211709436 13.00000000
8.50192547 16.05734253 -0.31714514 7 14 2790 18.17200000 2211709438 2211709438 -1.00000000
3.63215542 6.85994768 2.07986975 45 15 2790 8.03600000 2211709440 2211709440 15.00000000
1.07221675 2.01824570 -0.61236584 4 0 2798 2.36600000 2211709461 2211709461 -15.00000000
8.51493740 16.02101326 0.31669137 38 1 2799 18.14600000 2211709464 2211709464 1.00000000
1.27625489 2.40028644 -0.62761343 3 2 2800 2.79000000 2211709466 2211709466 -13.00000000
8.51483822 16.00734138 0.95021164 46 3 2801 18.15600000 2211709468 2211709468 3.00000000
1.52866709 2.87379456 -0.63272262 4 4 2801 3.31600000 2211709470 2211709470 -11.00000000
14.15488911 26.59906960 2.63611269 38 5 2802 30.24600000 2211709473 2211709473 5.00000000
1.93178463 3.62857366 -0.65108025 2 6 2803 4.16200000 2211709475 2211709475 -9.00000000
8.35185146 15.68112850 2.18146133 42 7 2804 17.90000000 2211709477 2211709477 7.00000000
2.60905862 4.89661217 -0.68124962 4 8 2805 5.59000000 2211709480 2211709480 -7.00000000
5.92835426 11.12150097 1.99610376 43 9 2806 12.76000000 2211709482 2211709482 9.00000000
3.91567111 7.34573841 -0.72827339 4 10 2806 8.35600000 2211709484 2211709484 -5.00000000
5.56502676 10.43551636 2.29886675 62 11 2807 12.04800000 2211709487 2211709487 11.00000000
8.50430489 15.94053650 -0.94686210 5 12 2808 18.09200000 2211709489 2211709489 -3.00000000
4.77783775 8.95185471 2.34264016 57 13 2809 10.41400000 2211709491 2211709491 13.00000000
8.49105072 15.90232468 -0.31466690 7 14 2810 18.03000000 2211709493 2211709493 -1.00000000
3.65727401 6.84658909 2.07986975 45 15 2811 8.03600000 2211709496 2211709496 15.00000000
1.07595634 2.00749135 -0.61029530 4 0 2819 2.35800000 2211709517 2211709517 -15.00000000
8.50839806 15.86809540 0.31428292 34 1 2820 18.00800000 2211709519 2211709519 1.00000000
1.28320146 2.39215803 -0.62671363 3 2 2821 2.78600000 2211709521 2211709521 -13.00000000
8.51867485 15.87395287 0.94414067 46 3 2822 18.04000000 2211709523 2211709523 3.00000000
1.53733313 2.86471248 -0.63195938 4 4 2822 3.31200000 2211709526 2211709526 -11.00000000
14.27772999 26.59440804 2.64081907 38 5 2823 30.30000000 2211709528 2211709528 5.00000000
1.94880974 3.62842989 -0.65233171 2 6 2824 4.17000000 2211709530 2211709530 -9.00000000
8.40551186 15.64341736 2.18048620 42 7 2825 17.89200000 2211709533 2211709533 7.00000000
2.61852908 4.87128019 -0.67905599 4 8 2826 5.57200000 2211709535 2211709535 -7.00000000
5.97469044 11.11013603 1.99798095 43 9 2827 12.77200000 2211709537 2211709537 9.00000000
3.93973732 7.32607317 -0.72775048 8 10 2827 8.35000000 2211709540 2211709540 -5.00000000
5.60695791 10.42196465 2.30039334 62 11 2828 12.05600000 2211709542 2211709542 11.00000000
8.49073315 15.77559853 -0.93890703 5 12 2829 17.94000000 2211709544 2211709544 -3.00000000
4.81246328 8.93771458 2.34354019 60 13 2830 10.41800000 2211709546 2211709546 13.00000000
8.49522305 15.77074718 -0.31267732 7 14 2831 17.91600000 2211709549 2211709549 -1.00000000
3.67290521 6.81847429 2.07521105 45 15 2831 8.01800000 2211709551 2211709551 15.00000000
1.08479428 2.00712228 -0.61133057 4 0 2839 2.36200000 2211709572 2211709572 -15.00000000
8.50667000 15.73275757 0.31218866 27 1 2840 17.88800000 2211709574 2211709574 1.00000000
1.28968954 2.38423610 -0.62581384 3 2 2841 2.78200000 2211709576 2211709576 -13.00000000
