# .PCD v0.7 - Point Cloud Data file format
VERSION 0.7
FIELDS x y z intensity laser_id azimuth distance_m adjustedtime timestamp vertical_angle
SIZE 4 4 4 1 1 2 8 8 4 8
TYPE F F F U U U F U U F
COUNT 1 1 1 1 1 1 1 1 1 1
WIDTH 526
HEIGHT 1
VIEWPOINT 0 0 0 1 0 0 0
POINTS 526
DATA ascii
-5.19153881 0.52550644 -0.45652178 6 10 27578 5.23800000 2211878193 2211878193 -5.00000000
-12.70972252 1.28876543 2.48318815 43 11 27579 13.01400000 2211878195 2211878195 11.00000000
-7.28446865 0.73992932 -0.38372722 3 12 27580 7.33200000 2211878198 2211878198 -3.00000000
-11.95032883 1.21597743 2.77319670 23 13 27581 12.32800000 2211878200 2211878200 13.00000000
-6.25264549 0.63732576 -0.10970583 4 14 27582 6.28600000 2211878202 2211878202 -1.00000000
-10.07841015 1.02728200 2.71449423 45 15 27582 10.48800000 2211878205 2211878205 15.00000000
-1.93314803 0.19977140 -0.52074391 4 0 27590 2.01200000 2211878225 2211878225 -15.00000000
-5.51568222 0.57096326 0.09679104 2 1 27591 5.54600000 2211878228 2211878228 1.00000000
-2.24072933 0.23234740 -0.52008682 4 2 27592 2.31200000 2211878230 2211878230 -13.00000000
-5.79880190 0.60231674 0.30553731 4 3 27593 5.83800000 2211878232 2211878232 3.00000000
-2.62644696 0.27280685 -0.51327622 3 4 27593 2.69000000 2211878235 2211878235 -11.00000000
-5.52693844 0.57505357 0.48615474 14 5 27594 5.57800000 2211878237 2211878237 5.00000000
-3.15929365 0.32926792 -0.50309324 3 6 27595 3.21600000 2211878239 2211878239 -9.00000000
-21.12962341 2.20589972 2.60849142 15 7 27596 21.40400000 2211878241 2211878241 7.00000000
-3.96247244 0.41437510 -0.48918355 6 8 27597 4.01400000 2211878244 2211878244 -7.00000000
-18.05099487 1.89086580 2.87463975 45 9 27598 18.37600000 2211878246 2211878246 9.00000000
-4.94990540 0.51850915 -0.43543008 3 10 27598 4.99600000 2211878248 2211878248 -5.00000000
-12.68952656 1.33148384 2.48013544 43 11 27599 12.99800000 2211878251 2211878251 11.00000000
-5.11675501 0.53779262 -0.26963484 2 12 27600 5.15200000 2211878253 2211878253 -3.00000000
-11.95182610 1.25829661 2.77454638 51 13 27601 12.33400000 2211878255 2211878255 13.00000000
-5.11485338 0.53939795 -0.08977518 2 14 27602 5.14400000 2211878258 2211878258 -1.00000000
-10.06689262 1.06340265 2.71242356 42 15 27603 10.48000000 2211878260 2211878260 15.00000000
-1.94972706 0.20836572 -0.52540267 4 0 27610 2.03000000 2211878281 2211878281 -15.00000000
-5.15376663 0.55168855 0.09047327 9 1 27611 5.18400000 2211878283 2211878283 1.00000000
-2.22827888 0.23892105 -0.51738745 4 2 27612 2.30000000 2211878285 2211878285 -13.00000000
-5.42541409 0.58172500 0.28596365 4 3 27612 5.46400000 2211878288 2211878288 3.00000000
-2.63719082 0.28323108 -0.51556593 3 4 27613 2.70200000 2211878290 2211878290 -11.00000000
-5.52489758 0.59434271 0.48615474 25 5 27614 5.57800000 2211878292 2211878292 5.00000000
-3.16598105 0.34114042 -0.50434470 3 6 27615 3.22400000 2211878294 2211878294 -9.00000000
-21.10008430 2.27729940 2.60581040 47 7 27616 21.38200000 2211878297 2211878297 7.00000000
-3.93929243 0.42585728 -0.48650241 3 8 27617 3.99200000 2211878299 2211878299 -7.00000000
-18.04821396 1.95428932 2.87526536 45 9 27618 18.38000000 2211878301 2211878301 9.00000000
-4.78960037 0.51862556 -0.42148519 2 10 27618 4.83600000 2211878304 2211878304 -5.00000000
-12.68480110 1.37577045 2.48013544 46 11 27619 12.99800000 2211878306 2211878306 11.00000000
-4.89643288 0.53192282 -0.25812092 2 12 27620 4.93200000 2211878308 2211878308 -3.00000000
-11.93379974 1.29853296 2.77139688 53 13 27621 12.32000000 2211878311 2211878311 13.00000000
-4.95390558 0.53991610 -0.08698279 2 14 27622 4.98400000 2211878313 2211878313 -1.00000000
-10.09019756 1.09971011 2.71967053 45 15 27622 10.50800000 2211878315 2211878315 15.00000000
-1.94706774 0.21495828 -0.52488500 4 0 27630 2.02800000 2211878336 2211878336 -15.00000000
-4.74038029 0.52418029 0.08324798 2 1 27631 4.77000000 2211878338 2211878338 1.00000000
-2.23905277 0.24798486 -0.52008682 4 2 27632 2.31200000 2211878340 2211878340 -13.00000000
-4.88339758 0.54085755 0.25749290 6 3 27632 4.92000000 2211878343 2211878343 3.00000000
-2.62057590 0.29070321 -0.51251298 3 4 27633 2.68600000 2211878345 2211878345 -11.00000000
-5.49902678 0.61098439 0.48406300 11 5 27634 5.55400000 2211878347 2211878347 5.00000000
-3.16477084 0.35218969 -0.50434470 3 6 27635 3.22400000 2211878350 2211878350 -9.00000000
-21.11173630 2.35313749 2.60824776 32 7 27636 21.40200000 2211878352 2211878352 7.00000000
-3.94764614 0.44070658 -0.48772112 4 8 27637 4.00200000 2211878354 2211878354 -7.00000000
-18.03342819 2.01639938 2.87401390 49 9 27638 18.37200000 2211878357 2211878357 9.00000000
-4.75014019 0.53113467 -0.41817325 5 10 27638 4.79800000 2211878359 2211878359 -5.00000000
-12.69162846 1.42135131 2.48242497 46 11 27639 13.01000000 2211878361 2211878361 11.00000000
-4.63652086 0.52006912 -0.24451359 2 12 27640 4.67200000 2211878364 2211878364 -3.00000000
-11.92338467 1.33952904 2.77004719 54 13 27641 12.31400000 2211878366 2211878366 13.00000000
-4.64795589 0.52299470 -0.08164236 1 14 27642 4.67800000 2211878368 2211878368 -1.00000000
-10.08821774 1.13514078 2.72018814 47 15 27642 10.51000000 2211878370 2211878370 15.00000000
-1.94050860 0.22143611 -0.52333212 4 0 27651 2.02200000 2211878391 2211878391 -15.00000000
-4.58743334 0.52429420 0.08059521 6 1 27652 4.61800000 2211878393 2211878393 1.00000000
-2.23425651 0.25574648 -0.51918703 4 2 27653 2.30800000 2211878396 2211878396 -13.00000000
-4.79397726 0.54959524 0.25288734 6 3 27654 4.83200000 2211878398 2211878398 3.00000000
-2.60388899 0.29851729 -0.50946003 3 4 27654 2.67000000 2211878400 2211878400 -11.00000000
-3.17523336 0.36514083 -0.50622195 3 6 27656 3.23600000 2211878405 2211878405 -9.00000000
-21.11282921 2.43163586 2.60946631 42 7 27657 21.41200000 2211878407 2211878407 7.00000000
-3.96178055 0.45699227 -0.48967102 4 8 27658 4.01800000 2211878410 2211878410 -7.00000000
-18.01058197 2.07752466 2.87151098 45 9 27658 18.35600000 2211878412 2211878412 9.00000000
-4.74024439 0.54762661 -0.41747600 5 10 27659 4.79000000 2211878414 2211878414 -5.00000000
-12.68633366 1.46785891 2.48242497 43 11 27660 13.01000000 2211878417 2211878417 11.00000000
-4.62069559 0.53544998 -0.24378088 2 12 27661 4.65800000 2211878419 2211878419 -3.00000000
-11.93000889 1.38456941 2.77274680 53 13 27662 12.32600000 2211878421 2211878421 13.00000000
-4.57251406 0.53148431 -0.08035088 1 14 27663 4.60400000 2211878423 2211878423 -1.00000000
-10.07035255 1.17230463 2.71656466 45 15 27664 10.49600000 2211878426 2211878426 15.00000000
-1.93972385 0.22820841 -0.52333212 4 0 27671 2.02200000 2211878446 2211878446 -15.00000000
-4.56174374 0.53749609 0.08017635 8 1 27672 4.59400000 2211878449 2211878449 1.00000000
-2.23335028 0.26354396 -0.51918703 4 2 27673 2.30800000 2211878451 2211878451 -13.00000000
-4.72667265 0.55776566 0.24943317 4 3 27673 4.76600000 2211878453 2211878453 3.00000000
-2.62232804 0.30990890 -0.51327622 3 4 27674 2.69000000 2211878456 2211878456 -11.00000000
-5.49451399 0.65031862 0.48406300 2 5 27675 5.55400000 2211878458 2211878458 5.00000000
-3.15824628 0.37436205 -0.50371897 3 6 27676 3.22000000 2211878460 2211878460 -9.00000000
-21.09238625 2.50391436 2.60800385 37 7 27677 21.40000000 2211878463 2211878463 7.00000000
-3.94242024 0.46870947 -0.48747736 4 8 27678 4.00000000 2211878465 2211878465 -7.00000000
-17.97930717 2.14072013 2.86775661 49 9 27679 18.33200000 2211878467 2211878467 9.00000000
-4.71852016 0.56181419 -0.41573289 8 10 27679 4.77000000 2211878470 2211878470 -5.00000000
-12.67723370 1.51166856 2.48166180 43 11 27680 13.00600000 2211878472 2211878472 11.00000000
-4.62276459 0.55204964 -0.24399023 4 12 27681 4.66200000 2211878474 2211878474 -3.00000000
-11.93671322 1.42759299 2.77544618 53 13 27682 12.33800000 2211878476 2211878476 13.00000000
-4.50510931 0.53959429 -0.07919902 5 14 27683 4.53800000 2211878479 2211878479 -1.00000000
-10.06236267 1.20698941 2.71552944 45 15 27684 10.49200000 2211878481 2211878481 15.00000000
-1.93895638 0.23463950 -0.52333212 4 0 27690 2.02200000 2211878502 2211878502 -15.00000000
-4.54206991 0.55045521 0.07986221 6 1 27691 4.57600000 2211878504 2211878504 1.00000000
-2.23246408 0.27094856 -0.51918703 4 2 27692 2.30800000 2211878506 2211878506 -13.00000000
-4.69505644 0.56982726 0.24786308 4 3 27692 4.73600000 2211878509 2211878509 3.00000000
-2.62518358 0.31907690 -0.51403946 3 4 27693 2.69400000 2211878511 2211878511 -11.00000000
-5.33014822 0.64879477 0.46976945 5 5 27694 5.39000000 2211878513 2211878513 5.00000000
-3.14522243 0.38339895 -0.50184178 3 6 27695 3.20800000 2211878516 2211878516 -9.00000000
-21.05637932 2.57047796 2.60459161 37 7 27696 21.37200000 2211878518 2211878518 7.00000000
-3.96448922 0.48467112 -0.49040225 4 8 27697 4.02400000 2211878520 2211878520 -7.00000000
-17.98621941 2.19887114 2.86994672 37 9 27697 18.34600000 2211878523 2211878523 9.00000000
-4.72058630 0.57794255 -0.41608152 5 10 27698 4.77400000 2211878525 2211878525 -5.00000000
-12.65266418 1.55131030 2.47784567 46 11 27699 12.98600000 2211878527 2211878527 11.00000000
-4.59117317 0.56372517 -0.24242015 4 12 27700 4.63200000 2211878529 2211878529 -3.00000000
-11.93191338 1.46716869 2.77544618 52 13 27701 12.33800000 2211878532 2211878532 13.00000000
-4.48344803 0.55208689 -0.07884997 5 14 27702 4.51800000 2211878534 2211878534 -1.00000000
-10.06213951 1.24082363 2.71656466 45 15 27703 10.49600000 2211878536 2211878536 15.00000000
-1.93620849 0.24116752 -0.52281445 4 0 27710 2.02000000 2211878557 2211878557 -15.00000000
-4.49646568 0.56086135 0.07909431 4 1 27711 4.53200000 2211878559 2211878559 1.00000000
-2.22376990 0.27777350 -0.51738745 4 2 27712 2.30000000 2211878562 2211878562 -13.00000000
-4.64151049 0.57977611 0.24514163 2 3 27712 4.68400000 2211878564 2211878564 3.00000000
-2.60652137 0.32604542 -0.51060486 3 4 27713 2.67600000 2211878566 2211878566 -11.00000000
-5.25668144 0.65848142 0.46349424 5 5 27714 5.31800000 2211878569 2211878569 5.00000000
-3.16346502 0.39683419 -0.50497043 3 6 27715 3.22800000 2211878571 2211878571 -9.00000000
-3.94898629 0.49677244 -0.48869607 4 8 27717 4.01000000 2211878576 2211878576 -7.00000000
-17.96471405 2.25991535 2.86775661 20 9 27717 18.33200000 2211878578 2211878578 9.00000000
-4.72249365 0.59491497 -0.41643015 8 10 27718 4.77800000 2211878580 2211878580 -5.00000000
-12.63938046 1.59448397 2.47631907 46 11 27719 12.97800000 2211878582 2211878582 11.00000000
-11.92091942 1.50807619 2.77409649 51 13 27721 12.33200000 2211878587 2211878587 13.00000000
-4.43983316 0.56245595 -0.07811697 1 14 27722 4.47600000 2211878589 2211878589 -1.00000000
-10.05774689 1.27593946 2.71656466 42 15 27723 10.49600000 2211878592 2211878592 15.00000000
-1.94497931 0.24881257 -0.52540267 4 0 27729 2.03000000 2211878612 2211878612 -15.00000000
-4.44301033 0.56916273 0.07818678 4 1 27730 4.48000000 2211878615 2211878615 1.00000000
-2.22670221 0.28564215 -0.51828724 4 2 27731 2.30400000 2211878617 2211878617 -13.00000000
-4.56230259 0.58525378 0.24105941 1 3 27731 4.60600000 2211878619 2211878619 3.00000000
-2.60737300 0.33493730 -0.51098651 3 4 27732 2.67800000 2211878622 2211878622 -11.00000000
-5.21494675 0.67082560 0.46000800 7 5 27733 5.27800000 2211878624 2211878624 5.00000000
-3.15821338 0.40681770 -0.50434470 3 6 27734 3.22400000 2211878626 2211878626 -9.00000000
-6.35916328 0.82026869 0.78727597 2 7 27735 6.46000000 2211878628 2211878628 7.00000000
-3.95519233 0.51088220 -0.48967102 4 8 27736 4.01800000 2211878631 2211878631 -7.00000000
-17.97867203 2.32225966 2.87119818 8 9 27736 18.35400000 2211878633 2211878633 9.00000000
-4.72444677 0.61108321 -0.41677877 5 10 27737 4.78200000 2211878635 2211878635 -5.00000000
-12.63791752 1.63689327 2.47708249 46 11 27738 12.98200000 2211878638 2211878638 11.00000000
-11.91392040 1.54734814 2.77364659 53 13 27740 12.33000000 2211878642 2211878642 13.00000000
-4.38638544 0.57047051 -0.07720944 1 14 27741 4.42400000 2211878645 2211878645 -1.00000000
-10.06518269 1.30902541 2.71967053 45 15 27741 10.50800000 2211878647 2211878647 15.00000000
-1.94792962 0.25610393 -0.52643794 5 0 27749 2.03400000 2211878668 2211878668 -15.00000000
-4.39341450 0.57840395 0.07734907 3 1 27750 4.43200000 2211878670 2211878670 1.00000000
-2.24114776 0.29545066 -0.52188647 4 2 27751 2.32000000 2211878672 2211878672 -13.00000000
-4.50676823 0.59412754 0.23823327 3 3 27751 4.55200000 2211878675 2211878675 3.00000000
-2.61786604 0.34557831 -0.51327622 3 4 27752 2.69000000 2211878677 2211878677 -11.00000000
-5.14541626 0.68014795 0.45408142 7 5 27753 5.21000000 2211878679 2211878679 5.00000000
-3.17244053 0.41991308 -0.50684768 3 6 27754 3.24000000 2211878681 2211878681 -9.00000000
-5.67143774 0.75169462 0.70245492 2 7 27755 5.76400000 2211878684 2211878684 7.00000000
-3.95732045 0.52520764 -0.49015850 4 8 27756 4.02200000 2211878686 2211878686 -7.00000000
-16.69958115 2.21633482 2.66814613 4 9 27756 17.05600000 2211878688 2211878688 9.00000000
-4.71833467 0.62704593 -0.41643015 5 10 27757 4.77800000 2211878691 2211878691 -5.00000000
-12.64380360 1.68255174 2.47937202 46 11 27758 12.99400000 2211878693 2211878693 11.00000000
-11.91230965 1.58944142 2.77454638 51 13 27760 12.33400000 2211878698 2211878698 13.00000000
-4.32094097 0.57730418 -0.07609249 1 14 27761 4.36000000 2211878700 2211878700 -1.00000000
-10.04882908 1.34437037 2.71656466 42 15 27762 10.49600000 2211878702 2211878702 15.00000000
-1.92970240 0.26124898 -0.52177918 4 0 27771 2.01600000 2211878723 2211878723 -15.00000000
-4.35549259 0.59043396 0.07672078 3 1 27772 4.39600000 2211878725 2211878725 1.00000000
-2.23999691 0.30405384 -0.52188647 4 2 27773 2.32000000 2211878728 2211878728 -13.00000000
-4.44893312 0.60468239 0.23530246 3 3 27774 4.49600000 2211878730 2211878730 3.00000000
-2.61262918 0.35509881 -0.51251298 3 4 27774 2.68600000 2211878732 2211878732 -11.00000000
-5.10130882 0.69425768 0.45042089 10 5 27775 5.16800000 2211878734 2211878734 5.00000000
-3.15123177 0.42942402 -0.50371897 3 6 27776 3.22000000 2211878737 2211878737 -9.00000000
-5.58786821 0.76246226 0.69246161 2 7 27777 5.68200000 2211878739 2211878739 7.00000000
-3.95527458 0.54039872 -0.49015850 4 8 27778 4.02200000 2211878741 2211878741 -7.00000000
-17.92789459 2.44944072 2.86587930 41 9 27778 18.32000000 2211878744 2211878744 9.00000000
-4.70010042 0.64299798 -0.41503564 8 10 27779 4.76200000 2211878746 2211878746 -5.00000000
-12.62557888 1.72948921 2.47708249 46 11 27780 12.98200000 2211878748 2211878748 11.00000000
-11.91191101 1.63596511 2.77589607 51 13 27782 12.34000000 2211878753 2211878753 13.00000000
-4.26520395 0.58653557 -0.07515007 3 14 27783 4.30600000 2211878755 2211878755 -1.00000000
-10.03426456 1.37987614 2.71397662 42 15 27783 10.48600000 2211878758 2211878758 15.00000000
-1.94025958 0.26957843 -0.52488500 4 0 27791 2.02800000 2211878778 2211878778 -15.00000000
-4.29794788 0.59791881 0.07574344 5 1 27792 4.34000000 2211878781 2211878781 1.00000000
-2.23313141 0.31106448 -0.52053672 4 2 27793 2.31400000 2211878783 2211878783 -13.00000000
-4.38943005 0.61220747 0.23226698 5 3 27794 4.43800000 2211878785 2211878785 3.00000000
-2.61915159 0.36530119 -0.51403946 3 4 27794 2.69400000 2211878787 2211878787 -11.00000000
-5.06728268 0.70765126 0.44763190 10 5 27795 5.13600000 2211878790 2211878790 5.00000000
-3.14971375 0.44042125 -0.50371897 3 6 27796 3.22000000 2211878792 2211878792 -9.00000000
-5.60286617 0.78444010 0.69465524 2 7 27797 5.70000000 2211878794 2211878794 7.00000000
-3.95533013 0.55447751 -0.49040225 6 8 27798 4.02400000 2211878797 2211878797 -7.00000000
-17.92270851 2.51568246 2.86650515 45 9 27799 18.32400000 2211878799 2211878799 9.00000000
-4.70177317 0.65995437 -0.41538426 5 10 27799 4.76600000 2211878801 2211878801 -5.00000000
-12.59807968 1.77054465 2.47288465 50 11 27800 12.96000000 2211878804 2211878804 11.00000000
-4.34714556 0.61172521 -0.23006886 2 12 27801 4.39600000 2211878806 2211878806 -3.00000000
-11.91384602 1.67862296 2.77769566 51 13 27802 12.34800000 2211878808 2211878808 13.00000000
-4.23738956 0.59778893 -0.07469630 5 14 27803 4.28000000 2211878811 2211878811 -1.00000000
-10.03105259 1.41691458 2.71449423 47 15 27804 10.48800000 2211878813 2211878813 15.00000000
-1.94514096 0.27648818 -0.52643794 4 0 27809 2.03400000 2211878834 2211878834 -15.00000000
-4.26635218 0.60719180 0.07521987 5 1 27810 4.31000000 2211878836 2211878836 1.00000000
-2.21670938 0.31587920 -0.51693749 4 2 27811 2.29800000 2211878838 2211878838 -13.00000000
-4.34794044 0.62035209 0.23017353 5 3 27812 4.39800000 2211878840 2211878840 3.00000000
-2.62965226 0.37519151 -0.51632917 3 4 27812 2.70600000 2211878843 2211878843 -11.00000000
-5.04925537 0.72131300 0.44623742 10 5 27813 5.12000000 2211878845 2211878845 5.00000000
-3.14831448 0.45031419 -0.50371897 3 6 27814 3.22000000 2211878847 2211878847 -9.00000000
-5.58465385 0.79978681 0.69270533 2 7 27815 5.68400000 2211878850 2211878850 7.00000000
-3.95749855 0.56746435 -0.49088973 6 8 27816 4.02800000 2211878852 2211878852 -7.00000000
-17.92494202 2.57025099 2.86806941 49 9 27816 18.33400000 2211878854 2211878854 9.00000000
-4.71545410 0.67698723 -0.41677877 5 10 27817 4.78200000 2211878857 2211878857 -5.00000000
-12.60411453 1.81178987 2.47517419 50 11 27818 12.97200000 2211878859 2211878859 11.00000000
-4.33334112 0.62367201 -0.22944084 2 12 27819 4.38400000 2211878861 2211878861 -3.00000000
-11.90465641 1.71548724 2.77679586 51 13 27820 12.34400000 2211878864 2211878864 13.00000000
-4.22361517 0.60938472 -0.07448687 5 14 27821 4.26800000 2211878866 2211878866 -1.00000000
-10.03062820 1.44722271 2.71552944 45 15 27821 10.49200000 2211878868 2211878868 15.00000000
-1.95181060 0.28439048 -0.52850848 5 0 27829 2.04200000 2211878889 2211878889 -15.00000000
-4.23254681 0.61746180 0.07466140 5 1 27830 4.27800000 2211878891 2211878891 1.00000000
-2.23101926 0.32586822 -0.52053672 4 2 27831 2.31400000 2211878893 2211878893 -13.00000000
-4.30820036 0.63003439 0.22818477 5 3 27832 4.36000000 2211878896 2211878896 3.00000000
-2.60695815 0.38124347 -0.51213133 3 4 27832 2.68400000 2211878898 2211878898 -11.00000000
-5.02699327 0.73604733 0.44449428 10 5 27833 5.10000000 2211878900 2211878900 5.00000000
-3.14672351 0.46130112 -0.50371897 3 6 27834 3.22000000 2211878903 2211878903 -9.00000000
-5.56218719 0.81639326 0.69026798 2 7 27835 5.66400000 2211878905 2211878905 7.00000000
-3.93978167 0.57896620 -0.48893979 6 8 27836 4.01200000 2211878907 2211878907 -7.00000000
-17.91735458 2.63621950 2.86838245 45 9 27837 18.33600000 2211878910 2211878910 9.00000000
-4.72094679 0.69460320 -0.41747600 5 10 27837 4.79000000 2211878912 2211878912 -5.00000000
-12.60936737 1.85749221 2.47746396 50 11 27838 12.98400000 2211878914 2211878914 11.00000000
-4.29162025 0.63296598 -0.22734739 4 12 27839 4.34400000 2211878916 2211878916 -3.00000000
-11.87546158 1.75361562 2.77139688 51 13 27840 12.32000000 2211878919 2211878919 13.00000000
-4.19574594 0.62032211 -0.07403311 5 14 27841 4.24200000 2211878921 2211878921 -1.00000000
-10.02907848 1.48454285 2.71656466 45 15 27842 10.49600000 2211878923 2211878923 15.00000000
-1.93934202 0.28949058 -0.52540267 5 0 27849 2.03000000 2211878944 2211878944 -15.00000000
-4.22245455 0.63105005 0.07452177 7 1 27850 4.27000000 2211878946 2211878946 1.00000000
-2.22986817 0.33365393 -0.52053672 4 2 27851 2.31400000 2211878949 2211878949 -13.00000000
-4.29214811 0.64299762 0.22745207 5 3 27852 4.34600000 2211878951 2211878951 3.00000000
-2.61143637 0.39121374 -0.51327622 3 4 27852 2.69000000 2211878953 2211878953 -11.00000000
-5.00468969 0.75063509 0.44275117 10 5 27853 5.08000000 2211878956 2211878956 5.00000000
-3.15290785 0.47345579 -0.50497043 3 6 27854 3.22800000 2211878958 2211878958 -9.00000000
-5.61034250 0.84347725 0.69660515 2 7 27855 5.71600000 2211878960 2211878960 7.00000000
-3.95736647 0.59566975 -0.49137720 6 8 27856 4.03200000 2211878963 2211878963 -7.00000000
-17.88507462 2.69209290 2.86462784 53 9 27856 18.31200000 2211878965 2211878965 9.00000000
-4.76577711 0.71820378 -0.42165947 5 10 27857 4.83800000 2211878967 2211878967 -5.00000000
-12.60474777 1.90178859 2.47784567 43 11 27858 12.98600000 2211878969 2211878969 11.00000000
-4.25976181 0.64346790 -0.22577731 4 12 27859 4.31400000 2211878972 2211878972 -3.00000000
-11.86156082 1.79389238 2.76959729 53 13 27860 12.31200000 2211878974 2211878974 13.00000000
-4.18366909 0.63346738 -0.07385858 7 14 27861 4.23200000 2211878976 2211878976 -1.00000000
-10.02410126 1.51779234 2.71656466 42 15 27861 10.49600000 2211878979 2211878979 15.00000000
-1.93259060 0.29538274 -0.52384973 4 0 27869 2.02400000 2211878999 2211878999 -15.00000000
-4.20638943 0.64366800 0.07427744 7 1 27870 4.25600000 2211879002 2211879002 1.00000000
-2.23639512 0.34261602 -0.52233636 4 2 27871 2.32200000 2211879004 2211879004 -13.00000000
-4.28395510 0.65706772 0.22713806 7 3 27872 4.34000000 2211879006 2211879006 3.00000000
-2.60811424 0.40002933 -0.51289457 3 4 27872 2.68800000 2211879009 2211879009 -11.00000000
-4.96462202 0.76235449 0.43943927 9 5 27873 5.04200000 2211879011 2211879011 5.00000000
-3.15318847 0.48475876 -0.50528330 3 6 27874 3.23000000 2211879013 2211879013 -9.00000000
-5.60736418 0.86305588 0.69660515 2 7 27875 5.71600000 2211879016 2211879016 7.00000000
-3.95133924 0.60887527 -0.49088973 6 8 27876 4.02800000 2211879018 2211879018 -7.00000000
-17.86727905 2.75642204 2.86337638 57 9 27877 18.30400000 2211879020 2211879020 9.00000000
-5.22991657 0.80683005 -0.46297130 9 10 27877 5.31200000 2211879022 2211879022 -5.00000000
-4.25748968 0.65833336 -0.22577731 6 12 27879 4.31400000 2211879027 2211879027 -3.00000000
-11.86485577 1.83677673 2.77184701 52 13 27880 12.32200000 2211879029 2211879029 13.00000000
-4.16562366 0.64561713 -0.07357935 10 14 27881 4.21600000 2211879032 2211879032 -1.00000000
-10.01083469 1.55333745 2.71449423 47 15 27882 10.48800000 2211879034 2211879034 15.00000000
-1.93912935 0.30365956 -0.52592027 5 0 27890 2.03200000 2211879055 2211879055 -15.00000000
-4.19609976 0.65784198 0.07413782 7 1 27891 4.24800000 2211879057 2211879057 1.00000000
-2.22742367 0.34960186 -0.52053672 4 2 27892 2.31400000 2211879059 2211879059 -13.00000000
-4.29532909 0.67493498 0.22787075 18 3 27893 4.35400000 2211879062 2211879062 3.00000000
-2.61826730 0.41141436 -0.51518428 3 4 27893 2.70000000 2211879064 2211879064 -11.00000000
-4.94408083 0.77775908 0.43787044 9 5 27894 5.02400000 2211879066 2211879066 5.00000000
-3.14748788 0.49569789 -0.50465757 3 6 27895 3.22600000 2211879069 2211879069 -9.00000000
-5.60416317 0.88360208 0.69660515 2 7 27896 5.71600000 2211879071 2211879071 7.00000000
-3.94712019 0.62304407 -0.49064597 4 8 27897 4.02600000 2211879073 2211879073 -7.00000000
-17.85754776 2.81877375 2.86337638 57 9 27897 18.30400000 2211879075 2211879075 9.00000000
-5.22102022 0.82506031 -0.46244836 9 10 27898 5.30600000 2211879078 2211879078 -5.00000000
-4.21756744 0.66799706 -0.22378854 8 12 27900 4.27600000 2211879082 2211879082 -3.00000000
-11.85419464 1.87964082 2.77094698 55 13 27901 12.31800000 2211879085 2211879085 13.00000000
-4.15335464 0.65931296 -0.07340482 14 14 27902 4.20600000 2211879087 2211879087 -1.00000000
-10.01107502 1.58918095 2.71604705 42 15 27902 10.49400000 2211879089 2211879089 15.00000000
-1.94568777 0.31164870 -0.52799088 5 0 27910 2.04000000 2211879110 2211879110 -15.00000000
-4.17995644 0.67026883 0.07389349 7 1 27911 4.23400000 2211879112 2211879112 1.00000000
-2.21464515 0.35552162 -0.51783735 4 2 27912 2.30200000 2211879115 2211879115 -13.00000000
-4.27914333 0.68770599 0.22713806 15 3 27913 4.34000000 2211879117 2211879117 3.00000000
-2.61681509 0.42055133 -0.51518428 3 4 27913 2.70000000 2211879119 2211879119 -11.00000000
-4.93936872 0.79469591 0.43769613 9 5 27914 5.02200000 2211879122 2211879122 5.00000000
-3.14573836 0.50668168 -0.50465757 3 6 27915 3.22600000 2211879124 2211879124 -9.00000000
-5.60104465 0.90315890 0.69660515 2 7 27916 5.71600000 2211879126 2211879126 7.00000000
-3.94100189 0.63618559 -0.49015850 4 8 27917 4.02200000 2211879128 2211879128 -7.00000000
-17.84319687 2.88357568 2.86275077 53 9 27918 18.30000000 2211879131 2211879131 9.00000000
-5.21614170 0.84296215 -0.46227404 9 10 27918 5.30400000 2211879133 2211879133 -5.00000000
-12.54115009 2.02897692 2.46945000 50 11 27919 12.94200000 2211879135 2211879135 11.00000000
-4.20535231 0.68111843 -0.22326519 8 12 27920 4.26600000 2211879138 2211879138 -3.00000000
-11.83601952 1.91913688 2.76824760 52 13 27921 12.30600000 2211879140 2211879140 13.00000000
-4.14905405 0.67348647 -0.07336992 19 14 27922 4.20400000 2211879142 2211879142 -1.00000000
-10.00327682 1.62555277 2.71552944 42 15 27923 10.49200000 2211879145 2211879145 15.00000000
-1.94458807 0.31843850 -0.52799088 4 0 27930 2.04000000 2211879165 2211879165 -15.00000000
-4.19337797 0.68744355 0.07417273 7 1 27931 4.25000000 2211879168 2211879168 1.00000000
-2.22108269 0.36451238 -0.51963693 4 2 27932 2.31000000 2211879170 2211879170 -13.00000000
-4.26883364 0.70134360 0.22671936 7 3 27933 4.33200000 2211879172 2211879172 3.00000000
-2.60564494 0.42809173 -0.51327622 3 4 27933 2.69000000 2211879175 2211879175 -11.00000000
-4.92673492 0.81031591 0.43682459 9 5 27934 5.01200000 2211879177 2211879177 5.00000000
-3.14005232 0.51701736 -0.50403184 3 6 27935 3.22200000 2211879179 2211879179 -9.00000000
-5.59785795 0.92270470 0.69660515 2 7 27936 5.71600000 2211879181 2211879181 7.00000000
-3.93679857 0.64961517 -0.48991477 6 8 27937 4.02000000 2211879184 2211879184 -7.00000000
-17.72828865 2.92536306 2.84585571 49 9 27937 18.19200000 2211879186 2211879186 9.00000000
-5.23872232 0.86538613 -0.46454009 9 10 27938 5.33000000 2211879188 2211879188 -5.00000000
-12.54173851 2.07402253 2.47097659 50 11 27939 12.95000000 2211879191 2211879191 11.00000000
-4.20294905 0.69579369 -0.22326519 10 12 27940 4.26600000 2211879193 2211879193 -3.00000000
-11.82155800 1.95916617 2.76644802 53 13 27941 12.29800000 2211879195 2211879195 13.00000000
-4.13286877 0.68567425 -0.07312559 26 14 27942 4.19000000 2211879198 2211879198 -1.00000000
-10.00545406 1.65998065 2.71759987 45 15 27942 10.50000000 2211879200 2211879200 15.00000000
-1.94155931 0.32490560 -0.52747321 4 0 27950 2.03800000 2211879221 2211879221 -15.00000000
-4.19884157 0.70339853 0.07431234 5 1 27951 4.25800000 2211879223 2211879223 1.00000000
-2.22748446 0.37355241 -0.52143657 4 2 27952 2.31800000 2211879225 2211879225 -13.00000000
-4.27817774 0.71822435 0.22734739 7 3 27953 4.34400000 2211879228 2211879228 3.00000000
-2.60413456 0.43718451 -0.51327622 3 4 27953 2.69000000 2211879230 2211879230 -11.00000000
-4.90226316 0.82387620 0.43490717 9 5 27954 4.99000000 2211879232 2211879232 5.00000000
-3.15381241 0.53059691 -0.50653481 3 6 27955 3.23800000 2211879234 2211879234 -9.00000000
-3.95016670 0.66599345 -0.49186468 6 8 27957 4.03600000 2211879239 2211879239 -7.00000000
-17.28748703 2.91464972 2.77671170 41 9 27957 17.75000000 2211879241 2211879241 9.00000000
-5.22977543 0.88267267 -0.46401718 9 10 27958 5.32400000 2211879244 2211879244 -5.00000000
-12.54022980 2.11876988 2.47212124 50 11 27959 12.95600000 2211879246 2211879246 11.00000000
-4.19458675 0.70946121 -0.22295117 14 12 27960 4.26000000 2211879248 2211879248 -3.00000000
-11.81849003 2.00106978 2.76734781 54 13 27961 12.30200000 2211879251 2211879251 13.00000000
-4.12256384 0.69875979 -0.07298596 29 14 27962 4.18200000 2211879253 2211879253 -1.00000000
-9.98626614 1.69263625 2.71397662 40 15 27962 10.48600000 2211879255 2211879255 15.00000000
-1.93475831 0.33036676 -0.52592027 4 0 27969 2.03200000 2211879276 2211879276 -15.00000000
-4.20437050 0.71866620 0.07445197 5 1 27970 4.26600000 2211879278 2211879278 1.00000000
-2.23007512 0.38159430 -0.52233636 4 2 27971 2.32200000 2211879281 2211879281 -13.00000000
-4.28561544 0.73409337 0.22787075 13 3 27972 4.35400000 2211879283 2211879283 3.00000000
-2.60654068 0.44648066 -0.51403946 3 4 27972 2.69400000 2211879285 2211879285 -11.00000000
-4.88772154 0.83810776 0.43386129 9 5 27973 4.97800000 2211879287 2211879287 5.00000000
-3.13451362 0.53804469 -0.50371897 1 6 27974 3.22000000 2211879290 2211879290 -9.00000000
-7.15658331 1.22972596 0.89159614 2 7 27975 7.31600000 2211879292 2211879292 7.00000000
-3.94989300 0.67942548 -0.49210840 6 8 27976 4.03800000 2211879294 2211879294 -7.00000000
-16.86644745 2.90424752 2.71069646 49 9 27977 17.32800000 2211879297 2211879297 9.00000000
-5.22878313 0.90034848 -0.46419150 9 10 27977 5.32600000 2211879299 2211879299 -5.00000000
-12.52152634 2.15834212 2.46983171 50 11 27978 12.94400000 2211879301 2211879301 11.00000000
-4.20402002 0.72540474 -0.22357920 26 12 27979 4.27200000 2211879304 2211879304 -3.00000000
-11.80026722 2.03826022 2.76464844 53 13 27980 12.29000000 2211879306 2211879306 13.00000000
-4.11234188 0.71106398 -0.07284635 35 14 27981 4.17400000 2211879308 2211879308 -1.00000000
-9.96917629 1.72376776 2.71087074 45 15 27981 10.47400000 2211879310 2211879310 15.00000000
-1.93169022 0.33678651 -0.52540267 4 0 27989 2.03000000 2211879331 2211879331 -15.00000000
-4.20183611 0.73333782 0.07445197 5 1 27990 4.26600000 2211879334 2211879334 1.00000000
-2.23256874 0.39004716 -0.52323616 4 2 27991 2.32600000 2211879336 2211879336 -13.00000000
-4.28105927 0.74870443 0.22776608 7 3 27992 4.35200000 2211879338 2211879338 3.00000000
-2.61270189 0.45692933 -0.51556593 3 4 27992 2.70200000 2211879340 2211879340 -11.00000000
-4.87495375 0.85344613 0.43298972 9 5 27993 4.96800000 2211879343 2211879343 5.00000000
-3.13845348 0.55000591 -0.50465757 3 6 27994 3.22600000 2211879345 2211879345 -9.00000000
-3.92794561 0.68977565 -0.48967102 4 8 27996 4.01800000 2211879350 2211879350 -7.00000000
-16.45542526 2.89265227 2.64624548 48 9 27997 16.91600000 2211879352 2211879352 9.00000000
-5.23345804 0.91997463 -0.46488872 9 10 27997 5.33400000 2211879354 2211879354 -5.00000000
-12.48104572 2.19625330 2.46334410 46 11 27998 12.91000000 2211879357 2211879357 11.00000000
-4.17392445 0.73522443 -0.22211380 22 12 27999 4.24400000 2211879359 2211879359 -3.00000000
-11.79500008 2.07977676 2.76509833 50 13 28000 12.29200000 2211879361 2211879361 13.00000000
-4.11574268 0.72645718 -0.07295106 42 14 28001 4.18000000 2211879363 2211879363 -1.00000000
-9.96279144 1.76029503 2.71087074 42 15 28002 10.47400000 2211879366 2211879366 15.00000000
-1.94185424 0.34589693 -0.52850848 4 0 28010 2.04200000 2211879387 2211879387 -15.00000000
-4.19124556 0.74732929 0.07431234 5 1 28011 4.25800000 2211879389 2211879389 1.00000000
-4.10734034 0.73310804 -0.96324039 5 2 28012 4.28200000 2211879391 2211879391 -13.00000000
-4.27042198 0.76298511 0.22734739 9 3 28013 4.34400000 2211879393 2211879393 3.00000000
-2.61100960 0.46650228 -0.51556593 3 4 28013 2.70200000 2211879396 2211879396 -11.00000000
-4.86983156 0.87095726 0.43281543 9 5 28014 4.96600000 2211879398 2211879398 5.00000000
-3.14419436 0.56289762 -0.50590909 3 6 28015 3.23400000 2211879400 2211879400 -9.00000000
-3.93711448 0.70627069 -0.49113345 4 8 28017 4.03000000 2211879405 2211879405 -7.00000000
-16.06752205 2.88521361 2.58554888 48 9 28018 16.52800000 2211879407 2211879407 9.00000000
-5.23201180 0.93950218 -0.46506304 9 10 28018 5.33600000 2211879410 2211879410 -5.00000000
-12.47291279 2.24198389 2.46334410 46 11 28019 12.91000000 2211879412 2211879412 11.00000000
-4.16137314 0.74874926 -0.22159044 26 12 28020 4.23400000 2211879414 2211879414 -3.00000000
-4.11305237 0.74153727 -0.07295106 56 14 28022 4.18000000 2211879419 2211879419 -1.00000000
-9.95848751 1.79540372 2.71138835 42 15 28022 10.47600000 2211879421 2211879421 15.00000000
-1.93683362 0.35198233 -0.52747321 4 0 28030 2.03800000 2211879442 2211879442 -15.00000000
-4.20041609 0.76410228 0.07452177 5 1 28031 4.27000000 2211879444 2211879444 1.00000000
-4.10283899 0.74709177 -0.96279049 5 2 28032 4.28000000 2211879446 2211879446 -13.00000000
-4.25201321 0.77502191 0.22651002 8 3 28033 4.32800000 2211879449 2211879449 3.00000000
-2.61322832 0.47631767 -0.51632917 3 4 28033 2.70600000 2211879451 2211879451 -11.00000000
-4.87656212 0.88973886 0.43368697 9 5 28034 4.97600000 2211879453 2211879453 5.00000000
-3.14804006 0.57493418 -0.50684768 1 6 28035 3.24000000 2211879456 2211879456 -9.00000000
-3.93853045 0.72072411 -0.49162093 4 8 28037 4.03400000 2211879460 2211879460 -7.00000000
-15.80281353 2.89465737 2.54456306 60 9 28038 16.26600000 2211879463 2211879463 9.00000000
-5.23849964 0.95955449 -0.46593460 9 10 28038 5.34600000 2211879465 2211879465 -5.00000000
-12.46501064 2.28550887 2.46334410 43 11 28039 12.91000000 2211879467 2211879467 11.00000000
-4.16659212 0.76471275 -0.22200912 28 12 28040 4.24200000 2211879469 2211879469 -3.00000000
-9.76540184 1.79404855 2.29225135 6 13 28041 10.19000000 2211879472 2211879472 13.00000000
-4.10453892 0.75480497 -0.07284635 68 14 28042 4.17400000 2211879474 2211879474 -1.00000000
-9.95975971 1.83155191 2.71345878 42 15 28042 10.48400000 2211879476 2211879476 15.00000000
-1.92989469 0.35768482 -0.52592027 4 0 28050 2.03200000 2211879497 2211879497 -15.00000000
-4.18985844 0.77730078 0.07438216 5 1 28051 4.26200000 2211879499 2211879499 1.00000000
-4.10978603 0.76318783 -0.96504003 5 2 28052 4.29000000 2211879502 2211879502 -13.00000000
-4.25531101 0.79021180 0.22682403 5 3 28052 4.33400000 2211879504 2211879504 3.00000000
-2.58452702 0.48041365 -0.51098651 3 4 28053 2.67800000 2211879506 2211879506 -11.00000000
-4.85775614 0.90384018 0.43229249 9 5 28054 4.96000000 2211879509 2211879509 5.00000000
-3.14018798 0.58483440 -0.50590909 3 6 28055 3.23400000 2211879511 2211879511 -9.00000000
-3.93989348 0.73519605 -0.49210840 4 8 28057 4.03800000 2211879515 2211879515 -7.00000000
-15.72904587 2.93508768 2.53423834 48 9 28057 16.20000000 2211879518 2211879518 9.00000000
-5.23315954 0.97746861 -0.46576029 9 10 28058 5.34400000 2211879520 2211879520 -5.00000000
-12.44151783 2.32611942 2.46029115 50 11 28059 12.89400000 2211879522 2211879522 11.00000000
-4.15997124 0.77851743 -0.22179978 24 12 28060 4.23800000 2211879525 2211879525 -3.00000000
-9.73417950 1.82346070 2.28640246 4 13 28061 10.16400000 2211879527 2211879527 13.00000000
-4.09205198 0.76728523 -0.07267182 75 14 28062 4.16400000 2211879529 2211879529 -1.00000000
-9.94191360 1.86417067 2.71035314 42 15 28062 10.47200000 2211879532 2211879532 15.00000000
-1.92483783 0.36370188 -0.52488500 4 0 28070 2.02800000 2211879552 2211879552 -15.00000000
-4.17336559 0.78932005 0.07413782 5 1 28071 4.24800000 2211879555 2211879555 1.00000000
-4.11284113 0.77861643 -0.96638972 5 2 28072 4.29600000 2211879557 2211879557 -13.00000000
-4.25827312 0.80691856 0.22713806 5 3 28073 4.34000000 2211879559 2211879559 3.00000000
-2.59826565 0.49235657 -0.51403946 3 4 28073 2.69400000 2211879562 2211879562 -11.00000000
-4.84086943 0.91819245 0.43107229 9 5 28074 4.94600000 2211879564 2211879564 5.00000000
-3.13424611 0.59505522 -0.50528330 3 6 28075 3.23000000 2211879566 2211879566 -9.00000000
-3.93925333 0.74931532 -0.49235216 6 8 28077 4.04000000 2211879571 2211879571 -7.00000000
-15.70654011 2.99050093 2.53236103 52 9 28078 16.18800000 2211879573 2211879573 9.00000000
-5.22188663 0.99423915 -0.46506304 9 10 28078 5.33600000 2211879575 2211879575 -5.00000000
-12.44682217 2.37210703 2.46296263 50 11 28079 12.90800000 2211879578 2211879578 11.00000000
-4.15722799 0.79303372 -0.22179978 28 12 28080 4.23800000 2211879580 2211879580 -3.00000000
-4.08934879 0.78156447 -0.07267182 75 14 28082 4.16400000 2211879585 2211879585 -1.00000000
-9.92742443 1.89914513 2.70828247 45 15 28083 10.46400000 2211879587 2211879587 15.00000000
-1.92362118 0.37008289 -0.52488500 4 0 28089 2.02800000 2211879608 2211879608 -15.00000000
-4.17465258 0.80391139 0.07420763 5 1 28090 4.25200000 2211879610 2211879610 1.00000000
-4.09684181 0.78966898 -0.96324039 5 2 28091 4.28200000 2211879612 2211879612 -13.00000000
-4.24002790 0.81726819 0.22630067 5 3 28091 4.32400000 2211879615 2211879615 3.00000000
-2.59276319 0.50022620 -0.51327622 3 4 28092 2.69000000 2211879617 2211879617 -11.00000000
-4.83584166 0.93386251 0.43089798 9 5 28093 4.94400000 2211879619 2211879619 5.00000000
-3.12255812 0.60357100 -0.50371897 3 6 28094 3.22000000 2211879621 2211879621 -9.00000000
-3.95233774 0.76539356 -0.49430206 6 8 28096 4.05600000 2211879626 2211879626 -7.00000000
-15.69653702 3.04256940 2.53236103 48 9 28097 16.18800000 2211879628 2211879628 9.00000000
-5.24203300 1.01609981 -0.46715477 9 10 28097 5.36000000 2211879631 2211879631 -5.00000000
-12.42732430 2.41112542 2.46067286 50 11 28098 12.89600000 2211879633 2211879633 11.00000000
-4.15457535 0.80681521 -0.22179978 36 12 28099 4.23800000 2211879635 2211879635 -3.00000000
-11.75881958 2.28568292 2.76554823 46 13 28100 12.29400000 2211879638 2211879638 13.00000000
-4.09458590 0.79664856 -0.07281144 82 14 28101 4.17200000 2211879640 2211879640 -1.00000000
-9.91192722 1.92847884 2.70569420 40 15 28101 10.45400000 2211879642 2211879642 15.00000000
-1.92800498 0.37791008 -0.52643794 4 0 28109 2.03400000 2211879663 2211879663 -15.00000000
-4.16985846 0.81809372 0.07417273 5 1 28110 4.25000000 2211879665 2211879665 1.00000000
-4.08832407 0.80283833 -0.96189070 5 2 28111 4.27600000 2211879667 2211879667 -13.00000000
-4.20775175 0.82629079 0.22473060 8 3 28111 4.29400000 2211879670 2211879670 3.00000000
-2.60641241 0.51230270 -0.51632917 3 4 28112 2.70600000 2211879672 2211879672 -11.00000000
-4.83841705 0.95189089 0.43142092 9 5 28113 4.95000000 2211879674 2211879674 5.00000000
-3.12237048 0.61484873 -0.50403184 3 6 28114 3.22200000 2211879677 2211879677 -9.00000000
-3.94185185 0.77764827 -0.49332711 6 8 28116 4.04800000 2211879681 2211879681 -7.00000000
-15.68582058 3.09734201 2.53236103 48 9 28117 16.18800000 2211879684 2211879684 9.00000000
-5.24431801 1.03554964 -0.46767771 9 10 28117 5.36600000 2211879686 2211879686 -5.00000000
-12.41112804 2.45296764 2.45914626 50 11 28118 12.88800000 2211879688 2211879688 11.00000000
-4.13997841 0.81898689 -0.22117175 34 12 28119 4.22600000 2211879691 2211879691 -3.00000000
-11.74121094 2.32482243 2.76329875 55 13 28120 12.28400000 2211879693 2211879693 13.00000000
-4.09962606 0.81249148 -0.07295106 87 14 28121 4.18000000 2211879695 2211879695 -1.00000000
-1.93986773 0.38762382 -0.53006142 4 0 28130 2.04800000 2211879718 2211879718 -15.00000000
-4.17467546 0.83494025 0.07431234 5 1 28131 4.25800000 2211879720 2211879720 1.00000000
-4.08153248 0.81705236 -0.96099091 8 2 28132 4.27200000 2211879723 2211879723 -13.00000000
-4.19279814 0.84008700 0.22410257 14 3 28133 4.28200000 2211879725 2211879725 3.00000000
-2.59296727 0.51953804 -0.51403946 3 4 28133 2.69400000 2211879727 2211879727 -11.00000000
-4.85638428 0.97392756 0.43333834 9 5 28134 4.97200000 2211879730 2211879730 5.00000000
-3.13558984 0.62939876 -0.50653481 3 6 28135 3.23800000 2211879732 2211879732 -9.00000000
-3.92340612 0.78895986 -0.49137720 6 8 28137 4.03200000 2211879737 2211879737 -7.00000000
-15.65554714 3.14818239 2.52923250 48 9 28137 16.16800000 2211879739 2211879739 9.00000000
-5.24830008 1.05633652 -0.46837497 9 10 28138 5.37400000 2211879741 2211879741 -5.00000000
-12.40782738 2.49960327 2.46029115 50 11 28139 12.89400000 2211879744 2211879744 11.00000000
-4.14086437 0.83494473 -0.22138110 30 12 28140 4.23000000 2211879746 2211879746 -3.00000000
-11.72497082 2.36629844 2.76149917 52 13 28141 12.27600000 2211879748 2211879748 13.00000000
-4.08093977 0.82434440 -0.07267182 89 14 28142 4.16400000 2211879750 2211879750 -1.00000000
-9.91077900 2.00376439 2.70931768 42 15 28143 10.46800000 2211879753 2211879753 15.00000000
-1.92146516 0.39092651 -0.52540267 4 0 28150 2.03000000 2211879773 2211879773 -15.00000000
-4.18349266 0.85190159 0.07452177 5 1 28151 4.27000000 2211879776 2211879776 1.00000000
-4.09584093 0.83479720 -0.96504003 6 2 28152 4.29000000 2211879778 2211879778 -13.00000000
-4.19194603 0.85438502 0.22420724 15 3 28152 4.28400000 2211879780 2211879780 3.00000000
-2.58921432 0.52819359 -0.51365781 3 4 28153 2.69200000 2211879783 2211879783 -11.00000000
-4.87052393 0.99446082 0.43490717 9 5 28154 4.99000000 2211879785 2211879785 5.00000000
-3.12950301 0.63954914 -0.50590909 3 6 28155 3.23400000 2211879787 2211879787 -9.00000000
-3.93618608 0.80583537 -0.49332711 6 8 28157 4.04800000 2211879792 2211879792 -7.00000000
-15.62842178 3.20236945 2.52672958 52 9 28158 16.15200000 2211879794 2211879794 9.00000000
-5.23677349 1.07305038 -0.46767771 9 10 28158 5.36600000 2211879797 2211879797 -5.00000000
-12.40287304 2.54368830 2.46105433 43 11 28159 12.89800000 2211879799 2211879799 11.00000000
-4.14379406 0.85059875 -0.22169511 20 12 28160 4.23600000 2211879801 2211879801 -3.00000000
-11.72427464 2.40878057 2.76329875 51 13 28161 12.28400000 2211879803 2211879803 13.00000000
-4.06628513 0.83616781 -0.07246239 94 14 28162 4.15200000 2211879806 2211879806 -1.00000000
-8.62649632 1.77547300 2.35991216 13 15 28163 9.11800000 2211879808 2211879808 15.00000000
-1.91259110 0.39573047 -0.52333212 4 0 28169 2.02200000 2211879829 2211879829 -15.00000000
-4.16106319 0.86171472 0.07417273 5 1 28170 4.25000000 2211879831 2211879831 1.00000000
-4.08541727 0.84679288 -0.96324039 6 2 28171 4.28200000 2211879833 2211879833 -13.00000000
-4.19104576 0.86868668 0.22431190 15 3 28171 4.28600000 2211879836 2211879836 3.00000000
-2.60282731 0.53996718 -0.51671076 3 4 28172 2.70800000 2211879838 2211879838 -11.00000000
-4.85354376 1.00777125 0.43368697 9 5 28173 4.97600000 2211879840 2211879840 5.00000000
-3.12349677 0.64911956 -0.50528330 3 6 28174 3.23000000 2211879843 2211879843 -9.00000000
-3.93349218 0.81888384 -0.49332711 6 8 28176 4.04800000 2211879847 2211879847 -7.00000000
-15.62021828 3.25185442 2.52704239 40 9 28176 16.15400000 2211879850 2211879850 9.00000000
-5.23708725 1.09122300 -0.46802634 6 10 28177 5.37000000 2211879852 2211879852 -5.00000000
-12.40013599 2.58600616 2.46219921 50 11 28178 12.90400000 2211879854 2211879854 11.00000000
-4.14290571 0.86474347 -0.22179978 16 12 28179 4.23800000 2211879856 2211879856 -3.00000000
-11.72003746 2.44844341 2.76419854 55 13 28180 12.28800000 2211879859 2211879859 13.00000000
-4.06544733 0.85005677 -0.07249729 100 14 28181 4.15400000 2211879861 2211879861 -1.00000000
-8.36907291 1.75143945 2.29106617 6 15 28182 8.85200000 2211879863 2211879863 15.00000000
-1.91686940 0.40359834 -0.52488500 4 0 28189 2.02800000 2211879884 2211879884 -15.00000000
-4.15411615 0.87540960 0.07410292 5 1 28190 4.24600000 2211879886 2211879886 1.00000000
-4.08052969 0.86064631 -0.96279049 5 2 28191 4.28000000 2211879889 2211879889 -13.00000000
-4.18212509 0.88207436 0.22399789 14 3 28191 4.28000000 2211879891 2211879891 3.00000000
-2.59900570 0.54864395 -0.51632917 3 4 28192 2.70600000 2211879893 2211879893 -11.00000000
-4.84999657 1.02470708 0.43368697 9 5 28193 4.97600000 2211879896 2211879896 5.00000000
-3.12507725 0.66083598 -0.50590909 3 6 28194 3.23400000 2211879898 2211879898 -9.00000000
-3.93837786 0.83425474 -0.49430206 6 8 28196 4.05600000 2211879903 2211879903 -7.00000000
-15.59910965 3.30431247 2.52547789 48 9 28196 16.14400000 2211879905 2211879905 9.00000000
-5.22545004 1.10784435 -0.46732908 9 10 28197 5.36200000 2211879907 2211879907 -5.00000000
-12.38719177 2.62845993 2.46143603 50 11 28198 12.90000000 2211879909 2211879909 11.00000000
-4.13595438 0.87836981 -0.22159044 12 12 28199 4.23400000 2211879912 2211879912 -3.00000000
-11.71141911 2.48933911 2.76419854 53 13 28200 12.28800000 2211879914 2211879914 13.00000000
-4.06049967 0.86382657 -0.07246239 99 14 28201 4.15200000 2211879916 2211879916 -1.00000000
-8.28354931 1.76374519 2.26932549 9 15 28202 8.76800000 2211879919 2211879919 15.00000000
-1.92111588 0.41150087 -0.52643794 4 0 28209 2.03400000 2211879939 2211879939 -15.00000000
-4.15885639 0.89158154 0.07424254 5 1 28210 4.25400000 2211879942 2211879942 1.00000000
-4.06606817 0.87243181 -0.96009111 5 2 28211 4.26800000 2211879944 2211879944 -13.00000000
-4.18097353 0.89708632 0.22410257 14 3 28211 4.28200000 2211879946 2211879946 3.00000000
-2.60859156 0.56018609 -0.51861882 3 4 28212 2.71800000 2211879949 2211879949 -11.00000000
-4.85807753 1.04414248 0.43473285 9 5 28213 4.98800000 2211879951 2211879951 5.00000000
-3.12661386 0.67257136 -0.50653481 3 6 28214 3.23800000 2211879953 2211879953 -9.00000000
-3.92379856 0.84548831 -0.49283963 6 8 28216 4.04400000 2211879958 2211879958 -7.00000000
-15.58748055 3.35874343 2.52547789 52 9 28216 16.14400000 2211879960 2211879960 9.00000000
-5.24102736 1.13027811 -0.46907219 6 10 28217 5.38200000 2211879962 2211879962 -5.00000000
-12.39329433 2.67499709 2.46448898 50 11 28218 12.91600000 2211879965 2211879965 11.00000000
-4.12505436 0.89111471 -0.22117175 8 12 28219 4.22600000 2211879967 2211879967 -3.00000000
-11.69313526 2.52814531 2.76194906 50 13 28220 12.27800000 2211879969 2211879969 13.00000000
-4.06332302 0.87926388 -0.07256711 100 14 28221 4.15800000 2211879972 2211879972 -1.00000000
-8.27199078 1.78997898 2.26777244 4 15 28221 8.76200000 2211879974 2211879974 15.00000000
-1.92910564 0.42026037 -0.52902615 4 0 28229 2.04400000 2211879995 2211879995 -15.00000000
-4.14790344 0.90438926 0.07410292 7 1 28230 4.24600000 2211879997 2211879997 1.00000000
-4.06299829 0.88661975 -0.96009111 5 2 28231 4.26800000 2211879999 2211879999 -13.00000000
-4.17001104 0.90997189 0.22368388 14 3 28231 4.27400000 2211880002 2211880002 3.00000000
-2.60662031 0.56928831 -0.51861882 3 4 28232 2.71800000 2211880004 2211880004 -11.00000000
-4.85829592 1.06194484 0.43508148 9 5 28233 4.99200000 2211880006 2211880006 5.00000000
-3.12038755 0.68263686 -0.50590909 3 6 28234 3.23400000 2211880008 2211880008 -9.00000000
-3.92857957 0.86087942 -0.49381459 6 8 28236 4.05200000 2211880013 2211880013 -7.00000000
-5.24483442 1.15027308 -0.46976945 10 10 28237 5.39000000 2211880018 2211880018 -5.00000000
-12.38963413 2.71950412 2.46563387 50 11 28238 12.92200000 2211880020 2211880020 11.00000000
-4.12191868 0.90550846 -0.22117175 8 12 28239 4.22600000 2211880022 2211880022 -3.00000000
-11.66901207 2.56559873 2.75834990 53 13 28240 12.26200000 2211880025 2211880025 13.00000000
-4.05827618 0.89301240 -0.07253220 100 14 28241 4.15600000 2211880027 2211880027 -1.00000000
-9.87279224 2.17428732 2.70880008 45 15 28242 10.46600000 2211880029 2211880029 15.00000000
-1.92762685 0.42699164 -0.52902615 4 0 28249 2.04400000 2211880050 2211880050 -15.00000000
-4.14667368 0.91929543 0.07413782 20 1 28250 4.24800000 2211880052 2211880052 1.00000000
-2.22208905 0.49303222 -0.52548563 4 2 28251 2.33600000 2211880055 2211880055 -13.00000000
-4.16859770 0.92568260 0.22378854 12 3 28252 4.27600000 2211880057 2211880057 3.00000000
-2.59695101 0.57668132 -0.51709241 3 4 28252 2.71000000 2211880059 2211880059 -11.00000000
-4.85066986 1.07803249 0.43473285 9 5 28253 4.98800000 2211880061 2211880061 5.00000000
-3.12569880 0.69524050 -0.50716054 3 6 28254 3.24200000 2211880064 2211880064 -9.00000000
-3.92942572 0.87545085 -0.49430206 6 8 28256 4.05600000 2211880068 2211880068 -7.00000000
-12.77368641 2.84589529 2.07275677 6 9 28256 13.25000000 2211880071 2211880071 9.00000000
-5.22911930 1.16597223 -0.46872360 9 10 28257 5.37800000 2211880073 2211880073 -5.00000000
-12.39347839 2.76572871 2.46830511 53 11 28258 12.93600000 2211880075 2211880075 11.00000000
-4.12847900 0.92206782 -0.22169511 8 12 28259 4.23600000 2211880078 2211880078 -3.00000000
-11.65998554 2.60631561 2.75834990 50 13 28260 12.26200000 2211880080 2211880080 13.00000000
-4.04732800 0.90542674 -0.07239258 100 14 28261 4.14800000 2211880082 2211880082 -1.00000000
-9.84667587 2.20279717 2.70362377 45 15 28261 10.44600000 2211880085 2211880085 15.00000000
-1.91481674 0.43117142 -0.52592027 4 0 28269 2.03200000 2211880105 2211880105 -15.00000000
-4.11612892 0.92760968 0.07364915 5 1 28270 4.22000000 2211880108 2211880108 1.00000000
-4.06431341 0.91667801 -0.96189070 11 2 28271 4.27600000 2211880110 2211880110 -13.00000000
