# .PCD v0.7 - Point Cloud Data file format
VERSION 0.7
FIELDS x y z intensity laser_id azimuth distance_m adjustedtime timestamp vertical_angle
SIZE 4 4 4 1 1 2 8 8 4 8
TYPE F F F U U U F U U F
COUNT 1 1 1 1 1 1 1 1 1 1
WIDTH 531
HEIGHT 1
VIEWPOINT 0 0 0 1 0 0 0
POINTS 531
DATA ascii
8.08363247 -0.55817425 -0.42465395 17 12 9395 8.11400000 2212527761 2212527761 -3.00000000
16.90967369 -1.17057717 3.91324854 38 13 9396 17.39600000 2212527763 2212527763 13.00000000
8.09728718 -0.56195718 -0.14167863 20 14 9397 8.11800000 2212527766 2212527766 -1.00000000
8.15973377 -0.56772202 2.19167972 47 15 9398 8.46800000 2212527768 2212527768 15.00000000
2.22186255 -0.15731631 -0.59683675 4 0 9405 2.30600000 2212527789 2212527789 -15.00000000
8.10237789 -0.57510036 0.14178336 15 1 9406 8.12400000 2212527791 2212527791 1.00000000
2.59889483 -0.18492338 -0.60151911 7 2 9407 2.67400000 2212527793 2212527793 -13.00000000
8.10226631 -0.57793504 0.42570066 23 3 9408 8.13400000 2212527795 2212527795 3.00000000
3.10778856 -0.22167869 -0.60562778 4 4 9408 3.17400000 2212527798 2212527798 -11.00000000
8.11619568 -0.58035231 0.71188813 79 5 9409 8.16800000 2212527800 2212527800 5.00000000
3.90123606 -0.27964407 -0.61948049 4 6 9410 3.96000000 2212527802 2212527802 -9.00000000
8.11200809 -0.58289903 0.99859738 90 7 9411 8.19400000 2212527805 2212527805 7.00000000
5.19740105 -0.37437797 -0.63981408 4 8 9412 5.25000000 2212527807 2212527807 -7.00000000
8.21997452 -0.59209919 1.30528915 7 9 9412 8.34400000 2212527809 2212527809 9.00000000
6.59358120 -0.47610405 -0.57836550 24 10 9413 6.63600000 2212527812 2212527812 -5.00000000
19.61656189 -1.41989863 3.82304907 38 11 9414 20.03600000 2212527814 2212527814 11.00000000
8.08761024 -0.58682162 -0.42496797 17 12 9415 8.12000000 2212527816 2212527816 -3.00000000
16.88993454 -1.22846496 3.90964937 40 13 9416 17.38000000 2212527819 2212527819 13.00000000
8.08929253 -0.58978230 -0.14157392 20 14 9417 8.11200000 2212527821 2212527821 -1.00000000
8.16936684 -0.59562039 2.19478559 47 15 9417 8.48000000 2212527823 2212527823 15.00000000
2.20588756 -0.16392577 -0.59269559 4 0 9425 2.29000000 2212527844 2212527844 -15.00000000
8.10431004 -0.60367656 0.14185315 12 1 9426 8.12800000 2212527846 2212527846 1.00000000
2.60600686 -0.19457448 -0.60331875 7 2 9427 2.68200000 2212527848 2212527848 -13.00000000
8.10219193 -0.60636276 0.42580533 23 3 9428 8.13600000 2212527851 2212527851 3.00000000
3.11482692 -0.23311162 -0.60715425 5 4 9428 3.18200000 2212527853 2212527853 -11.00000000
8.10021305 -0.60763633 0.71066791 76 5 9429 8.15400000 2212527855 2212527855 5.00000000
3.90417576 -0.29355645 -0.62010622 6 6 9430 3.96400000 2212527858 2212527858 -9.00000000
8.11388206 -0.61151004 0.99908489 90 7 9431 8.19800000 2212527860 2212527860 7.00000000
5.19012451 -0.39206940 -0.63908285 4 8 9432 5.24400000 2212527862 2212527862 -7.00000000
8.19017220 -0.62013495 1.30090904 7 9 9433 8.31600000 2212527865 2212527865 9.00000000
6.58989239 -0.49896660 -0.57819122 24 10 9433 6.63400000 2212527867 2212527867 -5.00000000
19.61931610 -1.48895884 3.82457542 15 11 9434 20.04400000 2212527869 2212527869 11.00000000
8.09547043 -0.61580652 -0.42549133 17 12 9435 8.13000000 2212527871 2212527871 -3.00000000
16.89720345 -1.28830326 3.91234875 41 13 9436 17.39200000 2212527874 2212527874 13.00000000
8.07721519 -0.61725378 -0.14139940 16 14 9437 8.10200000 2212527876 2212527876 -1.00000000
8.15942383 -0.62496847 2.19271493 49 15 9438 8.47200000 2212527878 2212527878 15.00000000
2.20144987 -0.17132497 -0.59166032 4 0 9445 2.28600000 2212527899 2212527899 -15.00000000
8.09417820 -0.63134021 0.14171354 12 1 9446 8.12000000 2212527901 2212527901 1.00000000
2.60336900 -0.20351806 -0.60286885 6 2 9447 2.68000000 2212527904 2212527904 -13.00000000
8.11197281 -0.63557702 0.42643338 23 3 9448 8.14800000 2212527906 2212527906 3.00000000
3.11399412 -0.24398297 -0.60715425 4 4 9448 3.18200000 2212527908 2212527908 -11.00000000
8.09208298 -0.63543969 0.71014500 72 5 9449 8.14800000 2212527911 2212527911 5.00000000
3.89918876 -0.30687281 -0.61948049 6 6 9450 3.96000000 2212527913 2212527913 -9.00000000
8.11763573 -0.64029735 0.99981612 92 7 9451 8.20400000 2212527915 2212527915 7.00000000
5.20257664 -0.41127899 -0.64078903 4 8 9452 5.25800000 2212527918 2212527918 -7.00000000
8.19594765 -0.64791381 1.30216050 7 9 9452 8.32400000 2212527920 2212527920 9.00000000
6.59406900 -0.52243865 -0.57871413 56 10 9453 6.64000000 2212527922 2212527922 -5.00000000
8.20218182 -0.65128773 1.59936094 9 11 9454 8.38200000 2212527924 2212527924 11.00000000
8.09924412 -0.64453655 -0.42580533 17 12 9455 8.13600000 2212527927 2212527927 -3.00000000
16.90037346 -1.34789729 3.91414833 38 13 9456 17.40000000 2212527929 2212527929 13.00000000
8.08697128 -0.64640075 -0.14160882 16 14 9457 8.11400000 2212527931 2212527931 -1.00000000
8.14960384 -0.65140700 2.19064450 47 15 9457 8.46400000 2212527934 2212527934 15.00000000
2.20083857 -0.17900842 -0.59166032 4 0 9465 2.28600000 2212527954 2212527954 -15.00000000
8.08594608 -0.65910292 0.14160882 15 1 9466 8.11400000 2212527957 2212527957 1.00000000
2.59875798 -0.21228696 -0.60196900 6 2 9467 2.67600000 2212527959 2212527959 -13.00000000
8.10970497 -0.66388923 0.42643338 21 3 9468 8.14800000 2212527961 2212527961 3.00000000
3.10921025 -0.25453100 -0.60639101 4 4 9468 3.17800000 2212527964 2212527964 -11.00000000
8.09577274 -0.66417122 0.71066791 76 5 9469 8.15400000 2212527966 2212527966 5.00000000
3.88234401 -0.31918678 -0.61697751 6 6 9470 3.94400000 2212527968 2212527968 -9.00000000
8.11535072 -0.66862929 0.99981612 90 7 9471 8.20400000 2212527971 2212527971 7.00000000
5.17539072 -0.42731339 -0.63762039 4 8 9472 5.23200000 2212527973 2212527973 -7.00000000
8.20532990 -0.67892647 1.30403769 7 9 9473 8.33600000 2212527975 2212527975 9.00000000
6.58823395 -0.54512447 -0.57836550 64 10 9473 6.63600000 2212527977 2212527977 -5.00000000
19.63192177 -1.62783682 3.82915497 27 11 9474 20.06800000 2212527980 2212527980 11.00000000
8.09296417 -0.67247349 -0.42559600 17 12 9475 8.13200000 2212527982 2212527982 -3.00000000
16.91110229 -1.40817618 3.91774750 36 13 9476 17.41600000 2212527984 2212527984 13.00000000
8.09463024 -0.67545700 -0.14178336 16 14 9477 8.12400000 2212527987 2212527987 -1.00000000
8.14716148 -0.68127239 2.19064450 49 15 9478 8.46400000 2212527989 2212527989 15.00000000
2.21559978 -0.18799636 -0.59580141 4 0 9485 2.30200000 2212528010 2212528010 -15.00000000
8.09156609 -0.68800175 0.14174844 15 1 9486 8.12200000 2212528012 2212528012 1.00000000
2.58440924 -0.22019896 -0.59881973 7 2 9487 2.66200000 2212528014 2212528014 -13.00000000
8.11131763 -0.69253314 0.42664272 18 3 9488 8.15200000 2212528017 2212528017 3.00000000
3.11025882 -0.26554963 -0.60677260 5 4 9488 3.18000000 2212528019 2212528019 -11.00000000
8.10928631 -0.69378537 0.71206242 83 5 9489 8.17000000 2212528021 2212528021 5.00000000
3.88711071 -0.33324292 -0.61791611 6 6 9490 3.95000000 2212528024 2212528024 -9.00000000
8.10505581 -0.69627345 0.99884117 90 7 9491 8.19600000 2212528026 2212528026 7.00000000
5.16397858 -0.44452500 -0.63640171 4 8 9492 5.22200000 2212528028 2212528028 -7.00000000
8.21090603 -0.70681024 1.30528915 7 9 9492 8.34400000 2212528030 2212528030 9.00000000
6.60415649 -0.56965941 -0.57993430 100 10 9493 6.65400000 2212528033 2212528033 -5.00000000
19.61634064 -1.69550979 3.82724690 38 11 9494 20.05800000 2212528035 2212528035 11.00000000
8.09056759 -0.70071912 -0.42559600 17 12 9495 8.13200000 2212528037 2212528037 -3.00000000
16.90220070 -1.46686137 3.91684771 38 13 9496 17.41200000 2212528040 2212528040 13.00000000
8.09620667 -0.70405489 -0.14185315 16 14 9497 8.12800000 2212528042 2212528042 -1.00000000
8.16410351 -0.70995927 2.19582081 49 15 9497 8.48400000 2212528044 2212528044 15.00000000
2.21493006 -0.19572909 -0.59580141 4 0 9505 2.30200000 2212528065 2212528065 -15.00000000
8.09309959 -0.71659517 0.14181826 15 1 9506 8.12600000 2212528067 2212528067 1.00000000
2.58750725 -0.22956331 -0.59971952 7 2 9507 2.66600000 2212528070 2212528070 -13.00000000
8.10089302 -0.72013527 0.42622402 21 3 9508 8.14400000 2212528072 2212528072 3.00000000
3.10735750 -0.27623099 -0.60639101 4 4 9508 3.17800000 2212528074 2212528074 -11.00000000
8.10879993 -0.72226459 0.71223670 79 5 9509 8.17200000 2212528077 2212528077 5.00000000
3.87018323 -0.34540465 -0.61541319 6 6 9510 3.93400000 2212528079 2212528079 -9.00000000
8.10455322 -0.72473794 0.99908489 85 7 9511 8.19800000 2212528081 2212528081 7.00000000
5.16437244 -0.46272510 -0.63664544 6 8 9512 5.22400000 2212528083 2212528083 -7.00000000
8.20432568 -0.73654670 1.30466342 7 9 9513 8.34000000 2212528086 2212528086 9.00000000
19.62203407 -1.76502860 3.82953644 34 11 9514 20.07000000 2212528090 2212528090 11.00000000
8.08807278 -0.72895616 -0.42559600 17 12 9515 8.13200000 2212528093 2212528093 -3.00000000
8.08971691 -0.73195130 -0.14178336 16 14 9517 8.12400000 2212528097 2212528097 -1.00000000
8.16144657 -0.73987740 2.19582081 49 15 9518 8.48400000 2212528100 2212528100 15.00000000
2.20269084 -0.20239885 -0.59269559 4 0 9525 2.29000000 2212528120 2212528120 -15.00000000
8.09851360 -0.74557430 0.14195788 12 1 9526 8.13400000 2212528123 2212528123 1.00000000
2.59833312 -0.23966795 -0.60241890 7 2 9527 2.67800000 2212528125 2212528125 -13.00000000
8.10628510 -0.74914348 0.42664272 18 3 9528 8.15200000 2212528127 2212528127 3.00000000
3.11028409 -0.28743735 -0.60715425 4 4 9528 3.18200000 2212528130 2212528130 -11.00000000
8.11019707 -0.75093257 0.71258533 90 5 9529 8.17600000 2212528132 2212528132 5.00000000
3.88862324 -0.36073667 -0.61854190 6 6 9530 3.95400000 2212528134 2212528134 -9.00000000
8.11581039 -0.75430965 1.00079107 90 7 9531 8.21200000 2212528136 2212528136 7.00000000
5.17853832 -0.48222172 -0.63859534 8 8 9532 5.24000000 2212528139 2212528139 -7.00000000
8.19790363 -0.76338285 1.30403769 7 9 9532 8.33600000 2212528141 2212528141 9.00000000
6.57026196 -0.61297470 -0.57731962 121 10 9533 6.62400000 2212528143 2212528143 -5.00000000
19.62552643 -1.83442509 3.83144474 42 11 9534 20.08000000 2212528146 2212528146 11.00000000
8.10138702 -0.75867414 -0.42643338 17 12 9535 8.14800000 2212528148 2212528148 -3.00000000
8.08313084 -0.75981092 -0.14171354 16 14 9537 8.12000000 2212528153 2212528153 -1.00000000
8.15894794 -0.76693767 2.19582081 47 15 9537 8.48400000 2212528155 2212528155 15.00000000
2.20197082 -0.21008644 -0.59269559 4 0 9545 2.29000000 2212528176 2212528176 -15.00000000
8.09188080 -0.77345830 0.14188807 12 1 9546 8.13000000 2212528178 2212528178 1.00000000
2.59554076 -0.24855059 -0.60196900 6 2 9547 2.67600000 2212528180 2212528180 -13.00000000
8.10759735 -0.77781659 0.42685205 18 3 9548 8.15600000 2212528183 2212528183 3.00000000
3.10535336 -0.29791752 -0.60639101 4 4 9548 3.17800000 2212528185 2212528185 -11.00000000
8.09562683 -0.77809417 0.71153951 76 5 9549 8.16400000 2212528187 2212528187 5.00000000
3.87357640 -0.37298298 -0.61635178 6 6 9550 3.94000000 2212528189 2212528189 -9.00000000
8.11905575 -0.78320634 1.00152230 87 7 9551 8.21800000 2212528192 2212528192 7.00000000
5.17089558 -0.49972242 -0.63786417 8 8 9552 5.23400000 2212528194 2212528194 -7.00000000
8.19518948 -0.79199427 1.30403769 7 9 9552 8.33600000 2212528196 2212528196 9.00000000
19.61509705 -1.90254080 3.83068132 38 11 9554 20.07600000 2212528201 2212528201 11.00000000
8.09868908 -0.78694868 -0.42643338 17 12 9555 8.14800000 2212528203 2212528203 -3.00000000
16.89755058 -1.64490998 3.91954708 36 13 9556 17.42400000 2212528206 2212528206 13.00000000
8.08440971 -0.78840983 -0.14178336 16 14 9557 8.12400000 2212528208 2212528208 -1.00000000
8.14468479 -0.79428798 2.19271493 49 15 9557 8.47200000 2212528210 2212528210 15.00000000
2.20122409 -0.21777147 -0.59269559 4 0 9565 2.29000000 2212528231 2212528231 -15.00000000
8.07918167 -0.80071342 0.14171354 12 1 9566 8.12000000 2212528233 2212528233 1.00000000
2.58496141 -0.25664654 -0.59971952 5 2 9567 2.66600000 2212528236 2212528236 -13.00000000
8.11675739 -0.80729872 0.42748010 15 3 9568 8.16800000 2212528238 2212528238 3.00000000
3.11601615 -0.30992126 -0.60868067 4 4 9568 3.19000000 2212528240 2212528240 -11.00000000
8.10079193 -0.80713862 0.71223670 79 5 9569 8.17200000 2212528242 2212528242 5.00000000
3.86438847 -0.38571724 -0.61510032 6 6 9570 3.93200000 2212528245 2212528245 -9.00000000
8.10639572 -0.81055486 1.00030363 90 7 9571 8.20800000 2212528247 2212528247 7.00000000
5.17109489 -0.51796699 -0.63810790 8 8 9572 5.23600000 2212528249 2212528249 -7.00000000
8.21974850 -0.82478690 1.30841792 7 9 9573 8.36400000 2212528252 2212528252 9.00000000
6.57375193 -0.65962416 -0.57801688 40 10 9573 6.63200000 2212528254 2212528254 -5.00000000
19.61419487 -1.97158766 3.83182621 42 11 9574 20.08200000 2212528256 2212528256 11.00000000
8.09986782 -0.81561375 -0.42664272 17 12 9575 8.15200000 2212528259 2212528259 -3.00000000
16.89752197 -1.70447016 3.92089677 36 13 9576 17.43000000 2212528261 2212528261 13.00000000
8.07961941 -0.81642389 -0.14174844 14 14 9577 8.12200000 2212528263 2212528263 -1.00000000
8.14570713 -0.82310188 2.19375014 49 15 9577 8.47600000 2212528265 2212528265 15.00000000
2.21198130 -0.22663528 -0.59580141 4 0 9585 2.30200000 2212528286 2212528286 -15.00000000
8.08827305 -0.83013511 0.14192297 12 1 9586 8.13200000 2212528289 2212528289 1.00000000
2.58017278 -0.26526958 -0.59881973 5 2 9587 2.66200000 2212528291 2212528291 -13.00000000
8.10196972 -0.83439887 0.42685205 15 3 9588 8.15600000 2212528293 2212528293 3.00000000
3.10319781 -0.31958956 -0.60639101 4 4 9588 3.17800000 2212528295 2212528295 -11.00000000
8.10585308 -0.83622855 0.71293396 79 5 9589 8.18000000 2212528298 2212528298 5.00000000
3.86694837 -0.39961022 -0.61572605 4 6 9590 3.93600000 2212528300 2212528300 -9.00000000
8.09956837 -0.83843774 0.99981612 92 7 9591 8.20400000 2212528302 2212528302 7.00000000
5.16530657 -0.53560483 -0.63762039 6 8 9592 5.23200000 2212528305 2212528305 -7.00000000
8.21288967 -0.85306603 1.30779219 7 9 9593 8.36000000 2212528307 2212528307 9.00000000
6.57933664 -0.68339020 -0.57871413 40 10 9593 6.64000000 2212528309 2212528309 -5.00000000
19.60914612 -2.04024506 3.83220792 38 11 9594 20.08400000 2212528312 2212528312 11.00000000
8.08703899 -0.84284741 -0.42611936 17 12 9595 8.14200000 2212528314 2212528314 -3.00000000
16.88953018 -1.76324069 3.92044687 38 13 9596 17.42800000 2212528316 2212528316 13.00000000
8.09064198 -0.84607792 -0.14199278 16 14 9597 8.13600000 2212528318 2212528318 -1.00000000
8.15800571 -0.85456192 2.19789124 49 15 9598 8.49200000 2212528321 2212528321 15.00000000
2.19584846 -0.23234302 -0.59166032 4 0 9604 2.28600000 2212528342 2212528342 -15.00000000
8.09541798 -0.85800606 0.14209749 12 1 9605 8.14200000 2212528344 2212528344 1.00000000
2.57927871 -0.27382427 -0.59881973 4 2 9606 2.66200000 2212528346 2212528346 -13.00000000
8.09717178 -0.86105019 0.42674738 15 3 9607 8.15400000 2212528348 2212528348 3.00000000
3.10016870 -0.32967076 -0.60600936 5 4 9607 3.17600000 2212528351 2212528351 -11.00000000
8.10501575 -0.86331499 0.71310830 83 5 9608 8.18200000 2212528353 2212528353 5.00000000
3.87738729 -0.41368872 -0.61760324 4 6 9609 3.94800000 2212528355 2212528355 -9.00000000
8.10661221 -0.86634696 1.00103474 90 7 9610 8.21400000 2212528358 2212528358 7.00000000
5.15165901 -0.55146295 -0.63615799 6 8 9611 5.22000000 2212528360 2212528360 -7.00000000
8.19430256 -0.87861145 1.30528915 7 9 9612 8.34400000 2212528362 2212528362 9.00000000
6.58892012 -0.70647877 -0.57976002 16 10 9612 6.65200000 2212528365 2212528365 -5.00000000
19.61593819 -2.10672784 3.83487916 42 11 9613 20.09800000 2212528367 2212528367 11.00000000
8.08618546 -0.86987400 -0.42622402 17 12 9614 8.14400000 2212528369 2212528369 -3.00000000
16.87584114 -1.81840372 3.91864729 38 13 9615 17.42000000 2212528371 2212528371 13.00000000
8.08779144 -0.87290281 -0.14199278 16 14 9616 8.13600000 2212528374 2212528374 -1.00000000
8.15528107 -0.88018680 2.19789124 47 15 9616 8.49200000 2212528376 2212528376 15.00000000
2.19502401 -0.24000655 -0.59166032 4 0 9624 2.28600000 2212528397 2212528397 -15.00000000
8.09833717 -0.88691217 0.14220221 12 1 9625 8.14800000 2212528399 2212528399 1.00000000
2.58218145 -0.28325096 -0.59971952 4 2 9626 2.66600000 2212528401 2212528401 -13.00000000
8.09610271 -0.88952750 0.42685205 13 3 9627 8.15600000 2212528404 2212528404 3.00000000
3.09314442 -0.33984712 -0.60486454 5 4 9627 3.17000000 2212528406 2212528406 -11.00000000
8.10789490 -0.89225531 0.71363121 90 5 9628 8.18800000 2212528408 2212528408 5.00000000
3.87984657 -0.42765364 -0.61822903 4 6 9629 3.95200000 2212528411 2212528411 -9.00000000
8.10945797 -0.89529252 1.00176597 90 7 9630 8.22000000 2212528413 2212528413 7.00000000
5.14970255 -0.56944227 -0.63615799 6 8 9631 5.22000000 2212528415 2212528415 -7.00000000
8.20296574 -0.90851426 1.30716634 7 9 9632 8.35600000 2212528418 2212528418 9.00000000
6.58047342 -0.72881609 -0.57923704 16 10 9632 6.64600000 2212528420 2212528420 -5.00000000
19.62407494 -2.17691898 3.83793211 42 11 9633 20.11400000 2212528422 2212528422 11.00000000
8.09699440 -0.89963865 -0.42695674 17 12 9634 8.15800000 2212528424 2212528424 -3.00000000
16.87907410 -1.87837791 3.92089677 36 13 9635 17.43000000 2212528427 2212528427 13.00000000
8.07277107 -0.89980006 -0.14178336 16 14 9636 8.12400000 2212528429 2212528429 -1.00000000
8.15215874 -0.90864867 2.19789124 47 15 9636 8.49200000 2212528431 2212528431 15.00000000
2.18845701 -0.24663515 -0.59010744 4 0 9643 2.28000000 2212528452 2212528452 -15.00000000
8.08740330 -0.91286522 0.14206259 12 1 9644 8.14000000 2212528454 2212528454 1.00000000
2.58897376 -0.29268789 -0.60151911 4 2 9645 2.67400000 2212528457 2212528457 -13.00000000
8.10319138 -0.91607952 0.42737541 10 3 9645 8.16600000 2212528459 2212528459 3.00000000
3.09395123 -0.35032338 -0.60524613 5 4 9646 3.17200000 2212528461 2212528461 -11.00000000
8.09103298 -0.91756558 0.71241105 83 5 9647 8.17400000 2212528464 2212528464 5.00000000
3.87448144 -0.44007146 -0.61760324 4 6 9648 3.94800000 2212528466 2212528466 -9.00000000
8.10447216 -0.92195517 1.00152230 90 7 9649 8.21800000 2212528468 2212528468 7.00000000
5.14778614 -0.58651614 -0.63615799 6 8 9650 5.22000000 2212528470 2212528470 -7.00000000
8.19418335 -0.93360931 1.30622780 5 9 9650 8.35000000 2212528473 2212528473 9.00000000
6.59187698 -0.75221497 -0.58045727 52 10 9651 6.66000000 2212528475 2212528475 -5.00000000
19.60309410 -2.24042225 3.83526087 38 11 9652 20.10000000 2212528477 2212528477 11.00000000
8.10388851 -0.92761999 -0.42748010 17 12 9653 8.16800000 2212528480 2212528480 -3.00000000
16.87856102 -1.93500650 3.92224669 36 13 9654 17.43600000 2212528482 2212528482 13.00000000
8.07570267 -0.92724967 -0.14188807 14 14 9655 8.13000000 2212528484 2212528484 -1.00000000
8.14142418 -0.93479580 2.19582081 47 15 9655 8.48400000 2212528487 2212528487 15.00000000
2.18566394 -0.25404975 -0.58958977 4 0 9663 2.27800000 2212528507 2212528507 -15.00000000
8.07820892 -0.94039625 0.14195788 12 1 9664 8.13400000 2212528510 2212528510 1.00000000
2.57632232 -0.30036926 -0.59881973 5 2 9665 2.66200000 2212528512 2212528512 -13.00000000
8.10771370 -0.94669962 0.42779410 10 3 9666 8.17400000 2212528514 2212528514 3.00000000
3.09465957 -0.36134884 -0.60562778 5 4 9666 3.17400000 2212528517 2212528517 -11.00000000
8.10559082 -0.94788575 0.71397984 94 5 9667 8.19200000 2212528519 2212528519 5.00000000
3.86507392 -0.45267412 -0.61635178 4 6 9668 3.94000000 2212528521 2212528521 -9.00000000
8.09726143 -0.94977695 1.00103474 90 7 9669 8.21400000 2212528523 2212528523 7.00000000
5.15162182 -0.60517651 -0.63688916 4 8 9670 5.22600000 2212528526 2212528526 -7.00000000
8.21621037 -0.96663672 1.31029510 7 9 9671 8.37600000 2212528528 2212528528 9.00000000
19.59320450 -2.30860639 3.83487916 34 11 9672 20.09800000 2212528533 2212528533 11.00000000
8.08870029 -0.95449781 -0.42685205 21 12 9673 8.15600000 2212528535 2212528535 -3.00000000
16.86783409 -1.99345446 3.92134666 36 13 9674 17.43200000 2212528537 2212528537 13.00000000
8.09227562 -0.95778388 -0.14223711 14 14 9675 8.15000000 2212528540 2212528540 -1.00000000
8.15329075 -0.96644849 2.19996190 47 15 9676 8.50000000 2212528542 2212528542 15.00000000
2.20394516 -0.26397502 -0.59476614 4 0 9683 2.29800000 2212528563 2212528563 -15.00000000
8.08281898 -0.96954137 0.14209749 12 1 9684 8.14200000 2212528565 2212528565 1.00000000
2.56751895 -0.30843076 -0.59702009 6 2 9685 2.65400000 2212528567 2212528567 -13.00000000
8.10651302 -0.97381878 0.42789876 13 3 9685 8.17600000 2212528570 2212528570 3.00000000
3.10117626 -0.37308702 -0.60715425 5 4 9686 3.18200000 2212528572 2212528572 -11.00000000
8.10421085 -0.97641212 0.71415418 83 5 9687 8.19400000 2212528574 2212528574 5.00000000
3.84778094 -0.46426994 -0.61384887 4 6 9688 3.92400000 2212528576 2212528576 -9.00000000
8.09783840 -0.97851217 1.00152230 87 7 9689 8.21800000 2212528579 2212528579 7.00000000
5.12977123 -0.62077051 -0.63445181 4 8 9690 5.20600000 2212528581 2212528581 -7.00000000
8.21278667 -0.99531078 1.31029510 7 9 9691 8.37600000 2212528583 2212528583 9.00000000
6.58250904 -0.79773682 -0.58010864 132 10 9691 6.65600000 2212528586 2212528586 -5.00000000
19.59282112 -2.37793159 3.83640575 42 11 9692 20.10600000 2212528588 2212528588 11.00000000
8.09523201 -0.98393172 -0.42737541 17 12 9693 8.16600000 2212528590 2212528590 -3.00000000
16.86077309 -2.05232215 3.92134666 36 13 9694 17.43200000 2212528593 2212528593 13.00000000
8.08888245 -0.98602539 -0.14223711 14 14 9695 8.15000000 2212528595 2212528595 -1.00000000
8.15004063 -0.99348044 2.19996190 47 15 9695 8.50000000 2212528597 2212528597 15.00000000
2.20301032 -0.27166662 -0.59476614 4 0 9703 2.29800000 2212528618 2212528618 -15.00000000
8.08533955 -0.99848503 0.14220221 12 1 9704 8.14800000 2212528620 2212528620 1.00000000
2.57029462 -0.31786957 -0.59791988 4 2 9705 2.65800000 2212528622 2212528622 -13.00000000
8.09513569 -1.00112927 0.42748010 13 3 9705 8.16800000 2212528625 2212528625 3.00000000
3.09011316 -0.38270336 -0.60524613 5 4 9706 3.17200000 2212528627 2212528627 -11.00000000
8.10273075 -1.00494039 0.71432847 79 5 9707 8.19600000 2212528629 2212528629 5.00000000
3.86574006 -0.48013312 -0.61697751 4 6 9708 3.94400000 2212528632 2212528632 -9.00000000
8.10028362 -1.00750792 1.00225353 90 7 9709 8.22400000 2212528634 2212528634 7.00000000
5.12166309 -0.63793689 -0.63372058 4 8 9710 5.20000000 2212528636 2212528636 -7.00000000
8.20338154 -1.02323914 1.30935645 7 9 9711 8.37000000 2212528639 2212528639 9.00000000
19.59024620 -2.44703889 3.83755040 38 11 9712 20.11200000 2212528643 2212528643 11.00000000
8.09372997 -1.01243126 -0.42748010 17 12 9713 8.16800000 2212528646 2212528646 -3.00000000
16.84577179 -2.11019588 3.91954708 36 13 9714 17.42400000 2212528648 2212528648 13.00000000
8.07745457 -1.01325929 -0.14209749 16 14 9715 8.14200000 2212528650 2212528650 -1.00000000
8.15802383 -1.02336609 2.20306778 49 15 9715 8.51200000 2212528652 2212528652 15.00000000
2.19438267 -0.27838239 -0.59269559 4 0 9723 2.29000000 2212528673 2212528673 -15.00000000
8.08775616 -1.02745807 0.14230692 12 1 9724 8.15400000 2212528675 2212528675 1.00000000
2.58076835 -0.32831520 -0.60061932 5 2 9725 2.67000000 2212528678 2212528678 -13.00000000
8.09537506 -1.03129756 0.42768943 13 3 9726 8.17200000 2212528680 2212528680 3.00000000
3.08291578 -0.39274323 -0.60410130 5 4 9726 3.16600000 2212528682 2212528682 -11.00000000
8.10905552 -1.03447866 0.71520001 83 5 9727 8.20600000 2212528685 2212528685 5.00000000
3.85620284 -0.49262288 -0.61572605 4 6 9728 3.93600000 2212528687 2212528687 -9.00000000
8.10459328 -1.03678465 1.00322843 90 7 9729 8.23200000 2212528689 2212528689 7.00000000
5.12728119 -0.65681988 -0.63469553 4 8 9730 5.20800000 2212528692 2212528692 -7.00000000
8.18622780 -1.04867995 1.30716634 7 9 9730 8.35600000 2212528694 2212528694 9.00000000
6.57677937 -0.84367162 -0.58010864 12 10 9731 6.65600000 2212528696 2212528696 -5.00000000
19.60884666 -2.51890850 3.84289312 38 11 9732 20.14000000 2212528699 2212528699 11.00000000
8.09212780 -1.04093230 -0.42758477 17 12 9733 8.17000000 2212528701 2212528701 -3.00000000
16.83637047 -2.16873670 3.91909719 36 13 9734 17.42200000 2212528703 2212528703 13.00000000
8.07783508 -1.04196024 -0.14216730 14 14 9735 8.14600000 2212528705 2212528705 -1.00000000
8.14272308 -1.05177498 2.19996190 49 15 9736 8.50000000 2212528708 2212528708 15.00000000
2.18956637 -0.28554088 -0.59166032 4 0 9743 2.28600000 2212528728 2212528728 -15.00000000
8.08411980 -1.05568337 0.14230692 12 1 9744 8.15400000 2212528731 2212528731 1.00000000
2.57960653 -0.33732176 -0.60061932 6 2 9745 2.67000000 2212528733 2212528733 -13.00000000
8.11171436 -1.06072676 0.42873615 13 3 9745 8.19200000 2212528735 2212528735 3.00000000
3.08152628 -0.40350223 -0.60410130 5 4 9746 3.16600000 2212528738 2212528738 -11.00000000
8.09946823 -1.06200123 0.71467710 79 5 9747 8.20000000 2212528740 2212528740 5.00000000
3.84270835 -0.50453758 -0.61384887 6 6 9748 3.92400000 2212528742 2212528742 -9.00000000
8.10879803 -1.06610370 1.00420344 92 7 9749 8.24000000 2212528745 2212528745 7.00000000
5.12298918 -0.67445433 -0.63445181 4 8 9750 5.20600000 2212528747 2212528747 -7.00000000
8.19212151 -1.07996786 1.30873072 5 9 9751 8.36600000 2212528749 2212528749 9.00000000
6.56391811 -0.86532170 -0.57923704 16 10 9751 6.64600000 2212528752 2212528752 -5.00000000
19.62912941 -2.59119487 3.84861755 42 11 9752 20.17000000 2212528754 2212528754 11.00000000
8.11220551 -1.07231355 -0.42884082 17 12 9753 8.19400000 2212528756 2212528756 -3.00000000
16.84222031 -2.22928333 3.92224669 36 13 9754 17.43600000 2212528758 2212528758 13.00000000
8.08009624 -1.07093906 -0.14227201 16 14 9755 8.15200000 2212528761 2212528761 -1.00000000
8.14283180 -1.08070028 2.20099711 47 15 9756 8.50400000 2212528763 2212528763 15.00000000
2.18089724 -0.29215613 -0.58958977 4 0 9763 2.27800000 2212528784 2212528784 -15.00000000
8.07642174 -1.08336413 0.14223711 15 1 9764 8.15000000 2212528786 2212528786 1.00000000
2.57068777 -0.34528655 -0.59881973 4 2 9765 2.66200000 2212528788 2212528788 -13.00000000
8.10796261 -1.08903551 0.42873615 13 3 9765 8.19200000 2212528791 2212528791 3.00000000
3.08982754 -0.41556475 -0.60600936 5 4 9766 3.17600000 2212528793 2212528793 -11.00000000
8.09571171 -1.09026718 0.71467710 79 5 9767 8.20000000 2212528795 2212528795 5.00000000
3.83309317 -0.51689214 -0.61259735 6 6 9768 3.91600000 2212528798 2212528798 -9.00000000
8.10502720 -1.09440219 1.00420344 92 7 9769 8.24000000 2212528800 2212528800 7.00000000
5.12453794 -0.69286472 -0.63493925 4 8 9770 5.21000000 2212528802 2212528802 -7.00000000
8.19828224 -1.10845125 1.31029510 7 9 9770 8.37600000 2212528805 2212528805 9.00000000
6.57072926 -0.88956523 -0.58010864 16 10 9771 6.65600000 2212528807 2212528807 -5.00000000
19.61607552 -2.65917015 3.84785414 42 11 9772 20.16600000 2212528809 2212528809 11.00000000
8.08862209 -1.09793746 -0.42779410 17 12 9773 8.17400000 2212528811 2212528811 -3.00000000
16.84785271 -2.28989720 3.92539597 36 13 9774 17.45000000 2212528814 2212528814 13.00000000
8.08423424 -1.10021603 -0.14241163 18 14 9775 8.16000000 2212528816 2212528816 -1.00000000
8.14283848 -1.10963917 2.20203233 49 15 9776 8.50800000 2212528818 2212528818 15.00000000
2.19517493 -0.30187258 -0.59373087 4 0 9783 2.29400000 2212528839 2212528839 -15.00000000
8.07853413 -1.11236775 0.14234182 12 1 9784 8.15600000 2212528841 2212528841 1.00000000
2.56174493 -0.35319319 -0.59702009 5 2 9785 2.65400000 2212528844 2212528844 -13.00000000
8.10213280 -1.11705816 0.42863148 13 3 9785 8.19000000 2212528846 2212528846 3.00000000
3.08057904 -0.42527381 -0.60448289 5 4 9786 3.16800000 2212528848 2212528848 -11.00000000
8.10369873 -1.12015665 0.71572298 94 5 9787 8.21200000 2212528851 2212528851 5.00000000
3.84691930 -0.53243554 -0.61510032 4 6 9788 3.93200000 2212528853 2212528853 -9.00000000
8.09329224 -1.12159741 1.00322843 92 7 9789 8.23200000 2212528855 2212528855 7.00000000
5.12995338 -0.71183985 -0.63591421 2 8 9790 5.21800000 2212528858 2212528858 -7.00000000
8.19045067 -1.13651884 1.30966938 7 9 9790 8.37200000 2212528860 2212528860 9.00000000
6.57547808 -0.91359270 -0.58080590 16 10 9791 6.66400000 2212528862 2212528862 -5.00000000
19.61639595 -2.72897935 3.84976220 38 11 9792 20.17600000 2212528864 2212528864 11.00000000
8.08869648 -1.12671649 -0.42800346 17 12 9793 8.17800000 2212528867 2212528867 -3.00000000
16.82817650 -2.34707808 3.92269659 36 13 9794 17.43800000 2212528869 2212528869 13.00000000
8.08826637 -1.12953484 -0.14255126 16 14 9795 8.16800000 2212528871 2212528871 -1.00000000
8.14656830 -1.13912642 2.20410299 47 15 9796 8.51600000 2212528874 2212528874 15.00000000
2.19033575 -0.30861133 -0.59269559 4 0 9802 2.29000000 2212528894 2212528894 -15.00000000
8.08272171 -1.14026845 0.14248145 12 1 9803 8.16400000 2212528897 2212528897 1.00000000
2.55670047 -0.36114118 -0.59612030 5 2 9804 2.65000000 2212528899 2212528899 -13.00000000
8.09442902 -1.14336097 0.42842212 13 3 9804 8.18600000 2212528901 2212528901 3.00000000
3.07915163 -0.43548703 -0.60448289 5 4 9805 3.16800000 2212528904 2212528904 -11.00000000
8.11572170 -1.14925814 0.71711743 90 5 9806 8.22800000 2212528906 2212528906 5.00000000
3.82557440 -0.54241639 -0.61197162 4 6 9807 3.91200000 2212528908 2212528908 -9.00000000
8.10132027 -1.15010357 1.00469089 95 7 9808 8.24400000 2212528910 2212528910 7.00000000
5.11970329 -0.72773004 -0.63493925 4 8 9809 5.21000000 2212528913 2212528913 -7.00000000
8.19445896 -1.16478515 1.31092083 7 9 9809 8.38000000 2212528915 2212528915 9.00000000
6.57241201 -0.93539274 -0.58080590 16 10 9810 6.66400000 2212528917 2212528917 -5.00000000
19.63056183 -2.79733825 3.85434175 38 11 9811 20.20000000 2212528920 2212528920 11.00000000
8.08887005 -1.15409756 -0.42821279 21 12 9812 8.18200000 2212528922 2212528922 -3.00000000
16.82030106 -2.40286946 3.92269659 34 13 9813 17.43800000 2212528924 2212528924 13.00000000
8.07457829 -1.15493453 -0.14237674 18 14 9814 8.15800000 2212528927 2212528927 -1.00000000
8.15059948 -1.16580808 2.20617366 47 15 9814 8.52400000 2212528929 2212528929 15.00000000
2.18159723 -0.31515032 -0.59062505 4 0 9822 2.28200000 2212528950 2212528950 -15.00000000
8.09254551 -1.17047918 0.14272578 12 1 9823 8.17800000 2212528952 2212528952 1.00000000
2.55928159 -0.37062210 -0.59702009 6 2 9824 2.65400000 2212528954 2212528954 -13.00000000
8.11015511 -1.17447126 0.42946887 15 3 9824 8.20600000 2212528957 2212528957 3.00000000
3.06206942 -0.44397894 -0.60142994 5 4 9825 3.15200000 2212528959 2212528959 -11.00000000
8.10180187 -1.17614913 0.71624589 83 5 9826 8.21800000 2212528961 2212528961 5.00000000
3.83734155 -0.55775577 -0.61416173 6 6 9827 3.92600000 2212528963 2212528963 -9.00000000
8.10118580 -1.17894721 1.00517833 90 7 9828 8.24800000 2212528966 2212528966 7.00000000
5.10534573 -0.74387938 -0.63347685 4 8 9829 5.19800000 2212528968 2212528968 -7.00000000
8.18643379 -1.19281244 1.31029510 7 9 9829 8.37600000 2212528970 2212528970 9.00000000
8.05760479 -1.17547750 -0.71241105 13 10 9830 8.17400000 2212528973 2212528973 -5.00000000
19.63039017 -2.86726356 3.85624981 38 11 9831 20.21000000 2212528975 2212528975 11.00000000
8.08874416 -1.18290401 -0.42842212 17 12 9832 8.18600000 2212528977 2212528977 -3.00000000
16.82723618 -2.46382713 3.92629576 34 13 9833 17.45400000 2212528980 2212528980 13.00000000
8.07445526 -1.18369317 -0.14244655 16 14 9834 8.16200000 2212528982 2212528982 -1.00000000
8.15009403 -1.19623470 2.20720887 47 15 9835 8.52800000 2212528984 2212528984 15.00000000
2.18054008 -0.32238305 -0.59062505 4 0 9841 2.28200000 2212529005 2212529005 -15.00000000
8.07872868 -1.19584453 0.14255126 12 1 9842 8.16800000 2212529007 2212529007 1.00000000
2.56960464 -0.38082108 -0.59971952 5 2 9843 2.66600000 2212529010 2212529010 -13.00000000
8.10402966 -1.20248067 0.42936417 13 3 9844 8.20400000 2212529012 2212529012 3.00000000
3.06446433 -0.45470697 -0.60219318 5 4 9844 3.15600000 2212529014 2212529014 -11.00000000
8.09785652 -1.20300925 0.71624589 83 5 9845 8.21800000 2212529016 2212529016 5.00000000
3.82765532 -0.56931531 -0.61291021 6 6 9846 3.91800000 2212529019 2212529019 -9.00000000
8.10901165 -1.20755959 1.00664079 90 7 9847 8.26000000 2212529021 2212529021 7.00000000
5.11463118 -0.76256162 -0.63493925 6 8 9848 5.21000000 2212529023 2212529023 -7.00000000
8.18634129 -1.22053564 1.31092083 10 9 9848 8.38000000 2212529026 2212529026 9.00000000
8.05957413 -1.20307338 -0.71293396 17 10 9849 8.18000000 2212529028 2212529028 -5.00000000
19.61689186 -2.93176413 3.85548663 15 11 9850 20.20600000 2212529030 2212529030 11.00000000
8.09662914 -1.21149409 -0.42905018 17 12 9851 8.19800000 2212529033 2212529033 -3.00000000
16.81704521 -2.51932597 3.92584586 13 13 9852 17.45200000 2212529035 2212529035 13.00000000
8.07839584 -1.21164894 -0.14258616 14 14 9853 8.17000000 2212529037 2212529037 -1.00000000
8.13865376 -1.22068691 2.20513821 49 15 9853 8.52000000 2212529040 2212529040 15.00000000
2.17558146 -0.32941416 -0.58958977 4 0 9861 2.27800000 2212529060 2212529060 -15.00000000
8.07845974 -1.22463667 0.14262107 12 1 9862 8.17200000 2212529063 2212529063 1.00000000
2.56440639 -0.38920352 -0.59881973 5 2 9863 2.66200000 2212529065 2212529065 -13.00000000
8.10965633 -1.23226190 0.42988753 15 3 9864 8.21400000 2212529067 2212529067 3.00000000
3.06674027 -0.46599105 -0.60295641 5 4 9864 3.16000000 2212529069 2212529069 -11.00000000
8.09754753 -1.23186791 0.71659452 83 5 9865 8.22200000 2212529072 2212529072 5.00000000
3.81392765 -0.58088827 -0.61103302 6 6 9866 3.90600000 2212529074 2212529074 -9.00000000
8.09689808 -1.23466098 1.00566578 90 7 9867 8.25200000 2212529076 2212529076 7.00000000
5.10997581 -0.78011078 -0.63469553 6 8 9868 5.20800000 2212529079 2212529079 -7.00000000
8.19548130 -1.25262105 1.31311095 10 9 9869 8.39400000 2212529081 2212529081 9.00000000
8.04941750 -1.23029613 -0.71241105 17 10 9869 8.17400000 2212529083 2212529083 -5.00000000
8.18766499 -1.25288892 1.61004627 3 11 9870 8.43800000 2212529086 2212529086 11.00000000
8.08642769 -1.23884177 -0.42873615 17 12 9871 8.19200000 2212529088 2212529088 -3.00000000
8.18448639 -1.25532639 1.91163409 2 13 9872 8.49800000 2212529090 2212529090 13.00000000
8.08004665 -1.24075103 -0.14269088 16 14 9873 8.17600000 2212529093 2212529093 -1.00000000
8.14176273 -1.25168252 2.20720887 49 15 9874 8.52800000 2212529095 2212529095 15.00000000
2.17829514 -0.33721793 -0.59062505 4 0 9880 2.28200000 2212529116 2212529116 -15.00000000
8.08621025 -1.25325668 0.14283049 12 1 9881 8.18400000 2212529118 2212529118 1.00000000
2.54769588 -0.39531484 -0.59522051 6 2 9882 2.64600000 2212529120 2212529120 -13.00000000
8.09960461 -1.25822794 0.42957354 15 3 9883 8.20800000 2212529122 2212529122 3.00000000
3.06711817 -0.47645953 -0.60333806 5 4 9883 3.16200000 2212529125 2212529125 -11.00000000
8.09932423 -1.25963223 0.71711743 79 5 9884 8.22800000 2212529127 2212529127 5.00000000
3.81002855 -0.59322858 -0.61072016 6 6 9885 3.90400000 2212529129 2212529129 -9.00000000
8.08883572 -1.26089299 1.00517833 95 7 9886 8.24800000 2212529132 2212529132 7.00000000
5.09363127 -0.79490918 -0.63298935 8 8 9887 5.19400000 2212529134 2212529134 -7.00000000
8.19345760 -1.27866626 1.31342375 10 9 9887 8.39600000 2212529136 2212529136 9.00000000
7.99804878 -1.24960089 -0.70822757 17 10 9888 8.12600000 2212529139 2212529139 -5.00000000
19.58872223 -3.06400943 3.85396004 27 11 9889 20.19800000 2212529141 2212529141 11.00000000
8.07832909 -1.26503253 -0.42852682 17 12 9890 8.18800000 2212529143 2212529143 -3.00000000
8.09366703 -1.27032912 -0.14300501 14 14 9892 8.19400000 2212529148 2212529148 -1.00000000
8.14160728 -1.27785349 2.20824409 49 15 9892 8.53200000 2212529150 2212529150 15.00000000
2.18473721 -0.34602836 -0.59269559 4 0 9900 2.29000000 2212529171 2212529171 -15.00000000
8.08178711 -1.28147519 0.14283049 12 1 9901 8.18400000 2212529173 2212529173 1.00000000
2.54630065 -0.40420556 -0.59522051 7 2 9902 2.64600000 2212529175 2212529175 -13.00000000
8.09319019 -1.28617966 0.42946887 13 3 9903 8.20600000 2212529178 2212529178 3.00000000
3.06737518 -0.48747101 -0.60371965 5 4 9903 3.16400000 2212529180 2212529180 -11.00000000
8.11061954 -1.29040086 0.71851194 90 5 9904 8.24400000 2212529182 2212529182 5.00000000
3.81573772 -0.60776734 -0.61197162 6 6 9905 3.91200000 2212529185 2212529185 -9.00000000
8.09222698 -1.29037094 1.00615335 90 7 9906 8.25600000 2212529187 2212529187 7.00000000
5.07122278 -0.80955511 -0.63055199 8 8 9907 5.17400000 2212529189 2212529189 -7.00000000
8.19261742 -1.30931175 1.31404948 10 9 9908 8.40000000 2212529192 2212529192 9.00000000
8.03298664 -1.28380024 -0.71171379 17 10 9908 8.16600000 2212529194 2212529194 -5.00000000
19.59535408 -3.13515973 3.85739470 34 11 9909 20.21600000 2212529196 2212529196 11.00000000
8.08766937 -1.29543471 -0.42925951 17 12 9910 8.20200000 2212529198 2212529198 -3.00000000
16.79790878 -2.69359612 3.92764544 25 13 9911 17.46000000 2212529201 2212529201 13.00000000
8.08128643 -1.29730570 -0.14286540 14 14 9912 8.18600000 2212529203 2212529203 -1.00000000
8.15594292 -1.31075084 2.21342039 49 15 9913 8.55200000 2212529205 2212529205 15.00000000
2.17957854 -0.35379553 -0.59166032 4 0 9922 2.28600000 2212529226 2212529226 -15.00000000
8.09457111 -1.31538427 0.14314464 15 1 9923 8.20200000 2212529228 2212529228 1.00000000
2.54665327 -0.41429254 -0.59567040 6 2 9924 2.64800000 2212529231 2212529231 -13.00000000
8.08819199 -1.31724572 0.42946887 13 3 9925 8.20600000 2212529233 2212529233 3.00000000
3.05385447 -0.49735180 -0.60142994 5 4 9925 3.15200000 2212529235 2212529235 -11.00000000
8.09773922 -1.32025135 0.71781468 76 5 9926 8.23600000 2212529238 2212529238 5.00000000
3.82117414 -0.62368703 -0.61322308 6 6 9927 3.92000000 2212529240 2212529240 -9.00000000
8.10288525 -1.32399428 1.00810325 90 7 9928 8.27200000 2212529242 2212529242 7.00000000
5.07787228 -0.83062345 -0.63177067 8 8 9929 5.18400000 2212529245 2212529245 -7.00000000
8.18386459 -1.33869255 1.31342375 10 9 9929 8.39600000 2212529247 2212529247 9.00000000
8.01620102 -1.31270325 -0.71066791 17 10 9930 8.15400000 2212529249 2212529249 -5.00000000
8.08854771 -1.32744980 -0.42957354 17 12 9932 8.20800000 2212529254 2212529254 -3.00000000
8.06835270 -1.32702792 -0.14272578 16 14 9934 8.17800000 2212529258 2212529258 -1.00000000
8.14345932 -1.33938086 2.21134996 47 15 9934 8.54400000 2212529261 2212529261 15.00000000
2.16689563 -0.35950440 -0.58855450 4 0 9942 2.27400000 2212529281 2212529281 -15.00000000
8.08598423 -1.34297633 0.14307483 12 1 9943 8.19800000 2212529284 2212529284 1.00000000
2.55288100 -0.42445800 -0.59746999 6 2 9944 2.65600000 2212529286 2212529286 -13.00000000
8.09930611 -1.34809422 0.43030623 13 3 9945 8.22200000 2212529288 2212529288 3.00000000
3.05209970 -0.50800872 -0.60142994 5 4 9945 3.15200000 2212529291 2212529291 -11.00000000
8.09111595 -1.34818220 0.71764040 76 5 9946 8.23400000 2212529293 2212529293 5.00000000
3.80338621 -0.63442153 -0.61072016 6 6 9947 3.90400000 2212529295 2212529295 -9.00000000
8.10604668 -1.35357833 1.00907815 90 7 9948 8.28000000 2212529298 2212529298 7.00000000
5.08277369 -0.84965265 -0.63274562 8 8 9949 5.19200000 2212529300 2212529300 -7.00000000
8.18669605 -1.36998308 1.31467521 7 9 9950 8.40400000 2212529302 2212529302 9.00000000
7.99584961 -1.33804631 -0.70927346 17 10 9950 8.13800000 2212529304 2212529304 -5.00000000
19.59120941 -3.28195930 3.86121082 15 11 9951 20.23600000 2212529307 2212529307 11.00000000
8.08780479 -1.35633671 -0.42978287 17 12 9952 8.21200000 2212529309 2212529309 -3.00000000
8.07944775 -1.35783494 -0.14300501 14 14 9954 8.19400000 2212529314 2212529314 -1.00000000
8.13087463 -1.36793709 2.20927930 47 15 9955 8.53600000 2212529316 2212529316 15.00000000
2.16575551 -0.36631012 -0.58855450 4 0 9960 2.27400000 2212529337 2212529337 -15.00000000
8.07581043 -1.36737096 0.14297011 12 1 9961 8.19200000 2212529339 2212529339 1.00000000
2.55153489 -0.43247601 -0.59746999 6 2 9962 2.65600000 2212529341 2212529341 -13.00000000
8.09896946 -1.37420046 0.43051559 15 3 9963 8.22600000 2212529344 2212529344 3.00000000
3.04274654 -0.51628095 -0.59990346 5 4 9963 3.14400000 2212529346 2212529346 -11.00000000
8.09469700 -1.37492907 0.71833766 76 5 9964 8.24200000 2212529348 2212529348 5.00000000
3.80526924 -0.64702934 -0.61134589 6 6 9965 3.90800000 2212529351 2212529351 -9.00000000
8.10175419 -1.37903750 1.00907815 90 7 9966 8.28000000 2212529353 2212529353 7.00000000
5.07420874 -0.86461610 -0.63201439 8 8 9967 5.18600000 2212529355 2212529355 -7.00000000
8.20012093 -1.39725375 1.31749105 5 9 9967 8.42200000 2212529357 2212529357 9.00000000
7.87769318 -1.34372878 -0.69916338 13 10 9968 8.02200000 2212529360 2212529360 -5.00000000
19.55951500 -3.33985567 3.85701299 34 11 9969 20.21400000 2212529362 2212529362 11.00000000
8.08547211 -1.38207507 -0.42988753 17 12 9970 8.21400000 2212529364 2212529364 -3.00000000
16.78990936 -2.87296796 3.93259430 38 13 9971 17.48200000 2212529367 2212529367 13.00000000
8.08105469 -1.38422334 -0.14310974 12 14 9972 8.20000000 2212529369 2212529369 -1.00000000
8.13820553 -1.39401281 2.21238518 49 15 9972 8.54800000 2212529371 2212529371 15.00000000
2.16827083 -0.37452543 -0.58958977 4 0 9980 2.27800000 2212529392 2212529392 -15.00000000
8.07295895 -1.39589322 0.14300501 12 1 9981 8.19400000 2212529394 2212529394 1.00000000
2.53464818 -0.43872097 -0.59387076 6 2 9982 2.64000000 2212529397 2212529397 -13.00000000
8.09805870 -1.40314472 0.43072492 15 3 9983 8.23000000 2212529399 2212529399 3.00000000
3.05640125 -0.52958035 -0.60295641 5 4 9983 3.16000000 2212529401 2212529401 -11.00000000
8.09966373 -1.40487897 0.71920919 76 5 9984 8.25200000 2212529404 2212529404 5.00000000
3.79909492 -0.65963238 -0.61072016 6 6 9985 3.90400000 2212529406 2212529406 -9.00000000
8.09297943 -1.40662968 1.00859070 92 7 9986 8.27600000 2212529408 2212529408 7.00000000
5.06724834 -0.88164258 -0.63152695 8 8 9987 5.18200000 2212529410 2212529410 -7.00000000
8.19689083 -1.42763817 1.31780398 7 9 9988 8.42400000 2212529413 2212529413 9.00000000
7.81014347 -1.36027920 -0.69358540 17 10 9988 7.95800000 2212529415 2212529415 -5.00000000
19.56127548 -3.41047120 3.85968447 34 11 9989 20.22800000 2212529417 2212529417 11.00000000
8.07863140 -1.40994680 -0.42978287 17 12 9990 8.21200000 2212529420 2212529420 -3.00000000
16.77210045 -2.93021679 3.93079472 33 13 9991 17.47400000 2212529422 2212529422 13.00000000
8.08602238 -1.41414559 -0.14328426 16 14 9992 8.21000000 2212529424 2212529424 -1.00000000
8.14445877 -1.42583036 2.21549106 47 15 9993 8.56000000 2212529427 2212529427 15.00000000
2.17082214 -0.38238385 -0.59062505 4 0 9999 2.28200000 2212529447 2212529447 -15.00000000
8.08797932 -1.42612886 0.14335407 15 1 10000 8.21400000 2212529450 2212529450 1.00000000
2.53893661 -0.44813994 -0.59522051 7 2 10001 2.64600000 2212529452 2212529452 -13.00000000
8.08549404 -1.42860115 0.43030623 13 3 10002 8.22200000 2212529454 2212529454 3.00000000
3.04302835 -0.53766334 -0.60066670 5 4 10002 3.14800000 2212529457 2212529457 -11.00000000
8.10084629 -1.43277168 0.71973211 76 5 10003 8.25800000 2212529459 2212529459 5.00000000
3.78521585 -0.67016077 -0.60884291 6 6 10004 3.89200000 2212529461 2212529461 -9.00000000
8.09999847 -1.43553770 1.01005316 92 7 10005 8.28800000 2212529463 2212529463 7.00000000
5.05256939 -0.89636081 -0.63006449 8 8 10006 5.17000000 2212529466 2212529466 -7.00000000
8.19236565 -1.45338237 1.31780398 7 9 10006 8.42400000 2212529468 2212529468 9.00000000
7.78597307 -1.38268733 -0.69184226 12 10 10007 7.93800000 2212529470 2212529470 -5.00000000
19.54792595 -3.47497630 3.85930276 38 11 10008 20.22600000 2212529473 2212529473 11.00000000
8.08570957 -1.43882823 -0.43041089 17 12 10009 8.22400000 2212529475 2212529475 -3.00000000
16.75845528 -2.98513532 3.92989492 32 13 10010 17.47000000 2212529477 2212529477 13.00000000
8.06947708 -1.43884587 -0.14307483 20 14 10011 8.19800000 2212529480 2212529480 -1.00000000
8.15135002 -1.45344448 2.21859694 49 15 10011 8.57200000 2212529482 2212529482 15.00000000
2.16186857 -0.38859203 -0.58855450 4 0 10019 2.27400000 2212529503 2212529503 -15.00000000
8.08885574 -1.45541489 0.14345878 15 1 10020 8.22000000 2212529505 2212529505 1.00000000
2.54311061 -0.45803604 -0.59657019 6 2 10021 2.65200000 2212529507 2212529507 -13.00000000
8.09618282 -1.45965099 0.43114361 21 3 10022 8.23800000 2212529510 2212529510 3.00000000
3.03147244 -0.54654050 -0.59875864 5 4 10022 3.13800000 2212529512 2212529512 -11.00000000
8.09187412 -1.46033251 0.71938348 76 5 10023 8.25400000 2212529514 2212529514 5.00000000
3.79062915 -0.68477422 -0.61009443 4 6 10024 3.90000000 2212529516 2212529516 -9.00000000
8.10275173 -1.46521616 1.01102805 90 7 10025 8.29600000 2212529519 2212529519 7.00000000
5.04550266 -0.91328496 -0.62957704 8 8 10026 5.16600000 2212529521 2212529521 -7.00000000
8.17557907 -1.47985923 1.31592667 7 9 10026 8.41200000 2212529523 2212529523 9.00000000
7.77325726 -1.40843618 -0.69114506 12 10 10027 7.93000000 2212529526 2212529526 -5.00000000
19.55499458 -3.54669380 3.86311889 34 11 10028 20.24600000 2212529528 2212529528 11.00000000
8.08063793 -1.46704388 -0.43041089 17 12 10029 8.22400000 2212529530 2212529530 -3.00000000
16.75176620 -3.04431200 3.93079472 36 13 10030 17.47400000 2212529533 2212529533 13.00000000
8.06834030 -1.46772063 -0.14314464 16 14 10031 8.20200000 2212529535 2212529535 -1.00000000
8.14622688 -1.48188913 2.21859694 49 15 10031 8.57200000 2212529537 2212529537 15.00000000
2.15669870 -0.39543918 -0.58751923 4 0 10039 2.27000000 2212529558 2212529558 -15.00000000
8.08569336 -1.48400235 0.14349368 18 1 10040 8.22200000 2212529560 2212529560 1.00000000
2.54724622 -0.46796674 -0.59791988 7 2 10041 2.65800000 2212529563 2212529563 -13.00000000
8.09889603 -1.48934793 0.43156230 18 3 10042 8.24600000 2212529565 2212529565 3.00000000
3.04692411 -0.56031471 -0.60219318 5 4 10042 3.15600000 2212529567 2212529567 -11.00000000
8.08280849 -1.48784816 0.71903485 76 5 10043 8.25000000 2212529569 2212529569 5.00000000
3.79210114 -0.69871771 -0.61072016 4 6 10044 3.90400000 2212529572 2212529572 -9.00000000
8.10539627 -1.49493134 1.01200306 90 7 10045 8.30400000 2212529574 2212529574 7.00000000
5.04618835 -0.93161231 -0.63006449 8 8 10046 5.17000000 2212529576 2212529576 -7.00000000
8.16815758 -1.50945532 1.31561387 5 9 10047 8.41000000 2212529579 2212529579 9.00000000
7.75261974 -1.43266487 -0.68975055 12 10 10047 7.91400000 2212529581 2212529581 -5.00000000
19.55407715 -3.61707449 3.86540866 34 11 10048 20.25800000 2212529583 2212529583 11.00000000
8.08725071 -1.49742341 -0.43103895 17 12 10049 8.23600000 2212529586 2212529586 -3.00000000
16.74870300 -3.10418844 3.93259430 36 13 10050 17.48200000 2212529588 2212529588 13.00000000
8.07103252 -1.49733448 -0.14328426 14 14 10051 8.21000000 2212529590 2212529590 -1.00000000
8.13910484 -1.50996339 2.21807933 56 15 10051 8.57000000 2212529592 2212529592 15.00000000
2.15150738 -0.40225500 -0.58648396 4 0 10059 2.26600000 2212529613 2212529613 -15.00000000
8.07063580 -1.51037836 0.14331916 15 1 10060 8.21200000 2212529616 2212529616 1.00000000
2.53602004 -0.47506139 -0.59567040 6 2 10061 2.64800000 2212529618 2212529618 -13.00000000
8.09953690 -1.51871359 0.43187630 18 3 10062 8.25200000 2212529620 2212529620 3.00000000
3.03144240 -0.56841433 -0.59952188 4 4 10062 3.14200000 2212529622 2212529622 -11.00000000
8.08539867 -1.51752341 0.71973211 76 5 10063 8.25800000 2212529625 2212529625 5.00000000
3.76634192 -0.70757359 -0.60696572 6 6 10064 3.88000000 2212529627 2212529627 -9.00000000
8.10207939 -1.52358222 1.01224673 90 7 10065 8.30600000 2212529629 2212529629 7.00000000
5.03900385 -0.94848669 -0.62957704 8 8 10066 5.16600000 2212529632 2212529632 -7.00000000
