# .PCD v0.7 - Point Cloud Data file format
VERSION 0.7
FIELDS x y z intensity laser_id azimuth distance_m adjustedtime timestamp vertical_angle
SIZE 4 4 4 1 1 2 8 8 4 8
TYPE F F F U U U F U U F
COUNT 1 1 1 1 1 1 1 1 1 1
WIDTH 516
HEIGHT 1
VIEWPOINT 0 0 0 1 0 0 0
POINTS 516
DATA ascii
-10.37707233 -2.98538041 2.49290752 27 13 25395 11.08200000 2212072068 2212072068 13.00000000
-13.49135399 -3.87877870 -0.24503179 2 14 25396 14.04000000 2212072070 2212072070 -1.00000000
-9.93860912 -2.85736060 2.77091670 40 15 25396 10.70600000 2212072072 2212072072 15.00000000
-1.85738635 -0.53119391 -0.51763809 5 0 25404 2.00000000 2212072093 2212072093 -15.00000000
-2.11927986 -0.60529268 -0.50883931 4 2 25406 2.26200000 2212072097 2212072097 -13.00000000
-56.37330246 -16.10091591 3.07253933 29 3 25406 58.70800000 2212072100 2212072100 3.00000000
-2.48253703 -0.70857483 -0.50182766 3 4 25407 2.63000000 2212072102 2212072102 -11.00000000
-36.86906052 -10.51634312 3.35427594 42 5 25408 38.48600000 2212072104 2212072104 5.00000000
-2.96924186 -0.84637111 -0.48901415 2 6 25409 3.12600000 2212072107 2212072107 -9.00000000
-24.35305786 -6.93715096 3.10913062 37 7 25410 25.51200000 2212072109 2212072109 7.00000000
-3.71156287 -1.05656612 -0.47382802 7 8 25411 3.88800000 2212072111 2212072111 -7.00000000
-16.02071762 -4.55757570 2.63811088 48 9 25412 16.86400000 2212072114 2212072114 9.00000000
-4.88670158 -1.39016962 -0.44449428 3 10 25412 5.10000000 2212072116 2212072116 -5.00000000
-10.36556053 -2.94684052 2.09470105 12 11 25413 10.97800000 2212072118 2212072118 11.00000000
-7.11622858 -2.02174091 -0.38770476 3 12 25414 7.40800000 2212072121 2212072121 -3.00000000
-10.38368130 -2.94807506 2.49200773 30 13 25415 11.07800000 2212072123 2212072123 13.00000000
-13.51827812 -3.83548236 -0.24527612 2 14 25416 14.05400000 2212072125 2212072125 -1.00000000
-9.94852257 -2.82265115 2.77091670 45 15 25416 10.70600000 2212072127 2212072127 15.00000000
-1.86480689 -0.52628130 -0.51919103 5 0 25424 2.00600000 2212072148 2212072148 -15.00000000
-57.31702805 -16.16507339 1.03950024 14 1 25425 59.56200000 2212072150 2212072150 1.00000000
-2.13450956 -0.60159183 -0.51198858 4 2 25426 2.27600000 2212072153 2212072153 -13.00000000
-57.02213287 -16.06041908 3.10467362 14 3 25427 59.32200000 2212072155 2212072155 3.00000000
-2.48499537 -0.69990486 -0.50182766 3 4 25427 2.63000000 2212072157 2212072157 -11.00000000
-36.86334991 -10.37570667 3.35044098 42 5 25428 38.44200000 2212072160 2212072160 5.00000000
-2.97978449 -0.83814085 -0.49026561 2 6 25429 3.13400000 2212072162 2212072162 -9.00000000
-3.69611716 -1.03823566 -0.47139063 7 8 25431 3.86800000 2212072167 2212072167 -7.00000000
-16.02623367 -4.50175333 2.63654637 44 9 25431 16.85400000 2212072169 2212072169 9.00000000
-4.92029810 -1.38118041 -0.44710895 3 10 25432 5.13000000 2212072171 2212072171 -5.00000000
-10.40224743 -2.91806388 2.10004377 21 11 25433 11.00600000 2212072174 2212072174 11.00000000
-7.13862753 -2.00120139 -0.38854215 3 12 25434 7.42400000 2212072176 2212072176 -3.00000000
-10.37889671 -2.90760565 2.48840857 19 13 25435 11.06200000 2212072178 2212072178 13.00000000
-13.56239414 -3.79689693 -0.24583460 4 14 25436 14.08600000 2212072180 2212072180 -1.00000000
-9.96066189 -2.78668952 2.77143431 38 15 25437 10.70800000 2212072183 2212072183 15.00000000
-1.85546625 -0.51665944 -0.51608515 5 0 25444 1.99400000 2212072203 2212072203 -15.00000000
-45.03964996 -12.53293800 0.81603962 11 1 25445 46.75800000 2212072206 2212072206 1.00000000
-2.12720895 -0.59152687 -0.50973910 4 2 25446 2.26600000 2212072208 2212072208 -13.00000000
-45.01967239 -12.51891327 2.44890404 42 3 25446 46.79200000 2212072210 2212072210 3.00000000
-2.47985721 -0.68912375 -0.50030118 3 4 25447 2.62200000 2212072213 2212072213 -11.00000000
-36.83983231 -10.23043919 3.34503746 53 5 25448 38.38000000 2212072215 2212072215 5.00000000
-2.97888517 -0.82667786 -0.48963988 2 6 25449 3.13000000 2212072217 2212072217 -9.00000000
-24.43341255 -6.77598524 3.11327434 53 7 25450 25.54600000 2212072220 2212072220 7.00000000
-3.69589281 -1.02426708 -0.47090313 5 8 25451 3.86400000 2212072222 2212072222 -7.00000000
-16.05214500 -4.44562006 2.63811088 48 9 25452 16.86400000 2212072224 2212072224 9.00000000
-4.90204811 -1.35761571 -0.44501722 3 10 25452 5.10600000 2212072227 2212072227 -5.00000000
-12.62426567 -3.49390125 2.54615521 37 11 25453 13.34400000 2212072229 2212072229 11.00000000
-7.10899496 -1.96615505 -0.38655338 3 12 25454 7.38600000 2212072231 2212072231 -3.00000000
-11.79020882 -3.25863671 2.82403564 39 13 25455 12.55400000 2212072233 2212072233 13.00000000
-13.57171059 -3.74846745 -0.24576479 4 14 25456 14.08200000 2212072236 2212072236 -1.00000000
-9.95915508 -2.74881935 2.76832843 40 15 25457 10.69600000 2212072238 2212072238 15.00000000
-1.85539556 -0.50966775 -0.51556754 5 0 25464 1.99200000 2212072259 2212072259 -15.00000000
-45.06191254 -12.36982155 0.81565565 22 1 25465 46.73600000 2212072261 2212072261 1.00000000
-2.14805388 -0.58925325 -0.51423812 4 2 25466 2.28600000 2212072263 2212072263 -13.00000000
-45.04383850 -12.35640526 2.44785738 85 3 25466 46.77200000 2212072266 2212072266 3.00000000
-2.48982096 -0.68253940 -0.50182766 3 4 25467 2.63000000 2212072268 2212072268 -11.00000000
-36.83688736 -10.09125423 3.34155107 53 5 25468 38.34000000 2212072270 2212072270 5.00000000
-2.98175263 -0.81627458 -0.48963988 2 6 25469 3.13000000 2212072273 2212072273 -9.00000000
-24.44734383 -6.68803644 3.11205554 40 7 25470 25.53600000 2212072275 2212072275 7.00000000
-3.71859384 -1.01659465 -0.47334054 7 8 25471 3.88400000 2212072277 2212072277 -7.00000000
-16.08204079 -4.39653206 2.64061379 48 9 25471 16.88000000 2212072280 2212072280 9.00000000
-4.88753748 -1.33524537 -0.44327411 3 10 25472 5.08600000 2212072282 2212072282 -5.00000000
-12.60986996 -3.44257426 2.54081249 43 11 25473 13.31600000 2212072284 2212072284 11.00000000
-7.13315630 -1.94605911 -0.38749543 3 12 25474 7.40400000 2212072286 2212072286 -3.00000000
-11.81279278 -3.22053695 2.82673502 48 13 25475 12.56600000 2212072289 2212072289 13.00000000
-13.60786438 -3.70737815 -0.24618365 4 14 25476 14.10600000 2212072291 2212072291 -1.00000000
-9.96123314 -2.71200871 2.76625800 35 15 25477 10.68800000 2212072293 2212072293 15.00000000
-1.85529876 -0.50268292 -0.51504987 5 0 25484 1.99000000 2212072314 2212072314 -15.00000000
-45.06814194 -12.20252037 0.81499249 11 1 25485 46.69800000 2212072316 2212072316 1.00000000
-2.13881111 -0.57869774 -0.51153868 4 2 25486 2.27400000 2212072319 2212072319 -13.00000000
-45.03078461 -12.18397045 2.44482183 42 3 25486 46.71400000 2212072321 2212072321 3.00000000
-2.49597883 -0.67486900 -0.50259089 3 4 25487 2.63400000 2212072323 2212072323 -11.00000000
-36.83918762 -9.95377254 3.33858800 31 5 25488 38.30600000 2212072326 2212072326 5.00000000
-2.98839784 -0.80689120 -0.49026561 2 6 25489 3.13400000 2212072328 2212072328 -9.00000000
-24.48970604 -6.60782957 3.11449289 31 7 25490 25.55600000 2212072330 2212072330 7.00000000
-3.71828651 -1.00257456 -0.47285306 5 8 25491 3.88000000 2212072333 2212072333 -7.00000000
-16.10873413 -4.34345388 2.64249110 56 9 25491 16.89200000 2212072335 2212072335 9.00000000
-4.91910172 -1.32543349 -0.44571447 3 10 25492 5.11400000 2212072337 2212072337 -5.00000000
-12.60474777 -3.39394259 2.53737807 40 11 25493 13.29800000 2212072339 2212072339 11.00000000
-7.12447643 -1.91699636 -0.38665804 3 12 25494 7.38800000 2212072342 2212072342 -3.00000000
-11.82772636 -3.18029499 2.82763481 46 13 25495 12.57000000 2212072344 2212072344 13.00000000
-13.66320896 -3.67127132 -0.24695155 4 14 25496 14.15000000 2212072346 2212072346 -1.00000000
-9.97623634 -2.67872381 2.76781082 26 15 25497 10.69400000 2212072349 2212072349 15.00000000
-1.87019396 -0.49936813 -0.51867336 5 0 25505 2.00400000 2212072369 2212072369 -15.00000000
-45.04494095 -12.01921177 0.81377083 22 1 25506 46.62800000 2212072372 2212072372 1.00000000
-2.13338590 -0.56884640 -0.50973910 4 2 25507 2.26600000 2212072374 2212072374 -13.00000000
-45.03461075 -12.00803661 2.44262385 42 3 25507 46.67200000 2212072376 2212072376 3.00000000
-2.50602388 -0.66773814 -0.50411737 3 4 25508 2.64200000 2212072379 2212072379 -11.00000000
-36.81959152 -9.80381680 3.33353281 10 5 25509 38.24800000 2212072381 2212072381 5.00000000
-2.97606349 -0.79186928 -0.48776266 2 6 25510 3.11800000 2212072383 2212072383 -9.00000000
-24.50224876 -6.51496553 3.11303043 37 7 25511 25.54400000 2212072385 2212072385 7.00000000
-3.70658803 -0.98486149 -0.47090313 5 8 25512 3.86400000 2212072388 2212072388 -7.00000000
-16.21809387 -4.30923939 2.65782166 40 9 25512 16.99000000 2212072390 2212072390 9.00000000
-4.91814947 -1.30586135 -0.44519153 3 10 25513 5.10800000 2212072392 2212072392 -5.00000000
-12.61330795 -3.34671426 2.53661489 43 11 25514 13.29400000 2212072395 2212072395 11.00000000
-7.12952423 -1.89035904 -0.38655338 3 12 25515 7.38600000 2212072397 2212072397 -3.00000000
-11.81669807 -3.13093352 2.82223582 48 13 25516 12.54600000 2212072399 2212072399 13.00000000
-13.68817139 -3.62423944 -0.24716099 4 14 25517 14.16200000 2212072402 2212072402 -1.00000000
-9.98739338 -2.64437842 2.76832843 28 15 25517 10.69600000 2212072404 2212072404 15.00000000
-1.87566209 -0.49382061 -0.51970863 4 0 25525 2.00800000 2212072425 2212072425 -15.00000000
-45.04214096 -11.85020065 0.81296802 11 1 25526 46.58200000 2212072427 2212072427 1.00000000
-2.13158917 -0.56040508 -0.50883931 4 2 25527 2.26200000 2212072429 2212072429 -13.00000000
-45.03375626 -11.83959103 2.44032097 74 3 25527 46.62800000 2212072432 2212072432 3.00000000
-2.50074410 -0.65699100 -0.50259089 3 4 25528 2.63400000 2212072434 2212072434 -11.00000000
-36.84395218 -9.67270374 3.33266139 52 5 25529 38.23800000 2212072436 2212072436 5.00000000
-3.00555968 -0.78849381 -0.49214283 3 6 25530 3.14600000 2212072438 2212072438 -9.00000000
-24.52484131 -6.42939663 3.11303043 37 7 25531 25.54400000 2212072441 2212072441 7.00000000
-3.71576405 -0.97342628 -0.47163436 5 8 25532 3.87000000 2212072443 2212072443 -7.00000000
-16.37826347 -4.29064703 2.68159962 44 9 25532 17.14200000 2212072445 2212072445 9.00000000
-4.93038750 -1.29070413 -0.44588879 3 10 25533 5.11600000 2212072448 2212072448 -5.00000000
-12.62491322 -3.30266523 2.53661489 43 11 25534 13.29400000 2212072450 2212072450 11.00000000
-7.16119957 -1.87202764 -0.38791412 3 12 25535 7.41200000 2212072452 2212072452 -3.00000000
-11.82378387 -3.08868146 2.82133603 50 13 25536 12.54200000 2212072455 2212072455 13.00000000
-13.71041393 -3.57896209 -0.24733551 7 14 25537 14.17200000 2212072457 2212072457 -1.00000000
-9.99888802 -2.60824275 2.76884604 33 15 25538 10.69800000 2212072459 2212072459 15.00000000
-1.86802495 -0.48484367 -0.51712048 5 0 25545 1.99800000 2212072480 2212072480 -15.00000000
-2.14107800 -0.55491668 -0.51063889 4 2 25547 2.27000000 2212072485 2212072485 -13.00000000
-2.50302219 -0.64825779 -0.50259089 3 4 25548 2.63400000 2212072489 2212072489 -11.00000000
-36.83312988 -9.53255367 3.32865214 52 5 25549 38.19200000 2212072491 2212072491 5.00000000
-3.01594353 -0.77997601 -0.49339432 3 6 25550 3.15400000 2212072494 2212072494 -9.00000000
-24.55097771 -6.34474325 3.11351800 37 7 25551 25.54800000 2212072496 2212072496 7.00000000
-3.72874951 -0.96293169 -0.47285306 5 8 25552 3.88000000 2212072498 2212072498 -7.00000000
-16.57866669 -4.28136110 2.71194792 49 9 25552 17.33600000 2212072501 2212072501 9.00000000
-4.94257975 -1.27547741 -0.44658601 6 10 25553 5.12400000 2212072503 2212072503 -5.00000000
-12.64016628 -3.25955629 2.53737807 40 11 25554 13.29800000 2212072505 2212072505 11.00000000
-7.14448166 -1.84103835 -0.38665804 3 12 25555 7.38800000 2212072508 2212072508 -3.00000000
-11.83826828 -3.04836178 2.82223582 46 13 25556 12.54600000 2212072510 2212072510 13.00000000
-13.72282314 -3.53108191 -0.24733551 7 14 25557 14.17200000 2212072512 2212072512 -1.00000000
-10.00187016 -2.57362652 2.76729321 35 15 25557 10.69200000 2212072515 2212072515 15.00000000
-1.86596274 -0.47736248 -0.51608515 5 0 25565 1.99400000 2212072535 2212072535 -15.00000000
-2.14866638 -0.54888648 -0.51198858 4 2 25567 2.27600000 2212072540 2212072540 -13.00000000
-58.80308151 -15.01057911 3.18056083 15 3 25568 60.77200000 2212072542 2212072542 3.00000000
-2.50526977 -0.63951665 -0.50259089 3 4 25568 2.63400000 2212072544 2212072544 -11.00000000
-36.82949829 -9.39456749 3.32534027 63 5 25569 38.15400000 2212072547 2212072547 5.00000000
-3.00333452 -0.76554036 -0.49089134 2 6 25570 3.13800000 2212072549 2212072549 -9.00000000
-24.56335831 -6.25655603 3.11229920 43 7 25571 25.53800000 2212072551 2212072551 7.00000000
-3.73208809 -0.94991004 -0.47285306 5 8 25572 3.88000000 2212072554 2212072554 -7.00000000
-16.82014847 -4.27802420 2.74886632 49 9 25573 17.57200000 2212072556 2212072556 9.00000000
-4.91996908 -1.25134134 -0.44414568 6 10 25573 5.09600000 2212072558 2212072558 -5.00000000
-12.64575958 -3.21396327 2.53623319 40 11 25574 13.29200000 2212072561 2212072561 11.00000000
-7.16635084 -1.82002127 -0.38749543 3 12 25575 7.40400000 2212072563 2212072563 -3.00000000
-11.84505939 -3.00606108 2.82133603 47 13 25576 12.54200000 2212072565 2212072565 13.00000000
-13.73894215 -3.48414207 -0.24740532 7 14 25577 14.17600000 2212072568 2212072568 -1.00000000
-9.98876381 -2.53125596 2.76108146 30 15 25578 10.66800000 2212072570 2212072570 15.00000000
-1.87119937 -0.47244388 -0.51712048 5 0 25583 1.99800000 2212072591 2212072591 -15.00000000
-58.85256577 -14.84827900 1.05946577 15 1 25584 60.70600000 2212072593 2212072593 1.00000000
-2.14660096 -0.54118079 -0.51108879 4 2 25585 2.27200000 2212072595 2212072595 -13.00000000
-58.81508636 -14.81698799 3.17867661 61 3 25586 60.73600000 2212072597 2212072597 3.00000000
-2.50726652 -0.63164300 -0.50259089 3 4 25586 2.63400000 2212072600 2212072600 -11.00000000
-36.81825638 -9.26860332 3.32167959 42 5 25587 38.11200000 2212072602 2212072602 5.00000000
-3.00189328 -0.75513750 -0.49026561 2 6 25588 3.13400000 2212072604 2212072604 -9.00000000
-24.58674240 -6.18032503 3.11278677 40 7 25589 25.54200000 2212072607 2212072607 7.00000000
-3.75815725 -0.94398385 -0.47577792 5 8 25590 3.90400000 2212072609 2212072609 -7.00000000
-17.02818680 -4.27718496 2.78077912 49 9 25590 17.77600000 2212072611 2212072611 9.00000000
-4.92194366 -1.23539352 -0.44397137 6 10 25591 5.09400000 2212072614 2212072614 -5.00000000
-12.63294220 -3.16848826 2.53165364 37 11 25592 13.26800000 2212072616 2212072616 11.00000000
-7.19915628 -1.80429626 -0.38896084 3 12 25593 7.43200000 2212072618 2212072618 -3.00000000
-11.86200619 -2.97072768 2.82313561 47 13 25594 12.55000000 2212072621 2212072621 13.00000000
-13.77697754 -3.44775915 -0.24789397 7 14 25595 14.20400000 2212072623 2212072623 -1.00000000
-9.99623013 -2.50160766 2.76108146 28 15 25595 10.66800000 2212072625 2212072625 15.00000000
-1.87658656 -0.46684206 -0.51815575 5 0 25603 2.00200000 2212072646 2212072646 -15.00000000
-2.14091182 -0.53180528 -0.50928921 4 2 25605 2.26400000 2212072650 2212072650 -13.00000000
-58.81411362 -14.59860325 3.17585039 45 3 25606 60.68200000 2212072653 2212072653 3.00000000
-2.51707792 -0.62477899 -0.50411737 3 4 25606 2.64200000 2212072655 2212072655 -11.00000000
-36.82137680 -9.13283253 3.31906509 31 5 25607 38.08200000 2212072657 2212072657 5.00000000
-2.99684143 -0.74275351 -0.48901415 2 6 25608 3.12600000 2212072660 2212072660 -9.00000000
-24.61394691 -6.09589529 3.11351800 37 7 25609 25.54800000 2212072662 2212072662 7.00000000
-3.75372171 -0.92895216 -0.47480297 5 8 25610 3.89600000 2212072664 2212072664 -7.00000000
-17.28536797 -4.27449465 2.82020044 49 9 25611 18.02800000 2212072667 2212072667 9.00000000
-4.94750118 -1.22346640 -0.44588879 6 10 25611 5.11600000 2212072669 2212072669 -5.00000000
-12.64583111 -3.12484264 2.53203535 46 11 25612 13.27000000 2212072671 2212072671 11.00000000
-7.64750767 -1.88831794 -0.41282603 16 12 25613 7.88800000 2212072673 2212072673 -3.00000000
-11.86851883 -2.92836976 2.82223582 48 13 25614 12.54600000 2212072676 2212072676 13.00000000
-13.78892899 -3.39964771 -0.24789397 7 14 25615 14.20400000 2212072678 2212072678 -1.00000000
-10.01283455 -2.46680140 2.76315212 28 15 25616 10.67600000 2212072680 2212072680 15.00000000
-1.88203788 -0.46087989 -0.51919103 4 0 25624 2.00600000 2212072701 2212072701 -15.00000000
-20.56406403 -5.03199434 0.36953726 13 1 25625 21.17400000 2212072703 2212072703 1.00000000
-2.14284658 -0.52395487 -0.50928921 5 2 25626 2.26400000 2212072706 2212072706 -13.00000000
-20.54270363 -5.01916790 1.10826623 43 3 25627 21.17600000 2212072708 2212072708 3.00000000
-2.51172233 -0.61368537 -0.50259089 3 4 25627 2.63400000 2212072710 2212072710 -11.00000000
-20.53220177 -5.01280499 1.84909618 76 5 25628 21.21600000 2212072713 2212072713 5.00000000
-3.01489639 -0.73550999 -0.49151710 2 6 25629 3.14200000 2212072715 2212072715 -9.00000000
-20.52046013 -5.00234890 2.59337974 85 7 25630 21.28000000 2212072717 2212072717 7.00000000
-3.74552894 -0.91236901 -0.47334054 5 8 25631 3.88400000 2212072720 2212072720 -7.00000000
-17.52281761 -4.26836252 2.85649323 53 9 25631 18.26000000 2212072722 2212072722 9.00000000
-4.96356773 -1.20815194 -0.44693464 3 10 25632 5.12800000 2212072724 2212072724 -5.00000000
-12.65719986 -3.07847238 2.53203535 40 11 25633 13.27000000 2212072726 2212072726 11.00000000
-11.86781025 -2.88209057 2.81953645 46 13 25635 12.53400000 2212072731 2212072731 13.00000000
-13.80518341 -3.35002899 -0.24796379 7 14 25636 14.20800000 2212072733 2212072733 -1.00000000
-10.01199722 -2.42955709 2.76056385 33 15 25636 10.66600000 2212072736 2212072736 15.00000000
-1.87236714 -0.45158985 -0.51608515 5 0 25644 1.99400000 2212072756 2212072756 -15.00000000
-20.57761574 -4.95924473 0.36946744 18 1 25645 21.17000000 2212072759 2212072759 1.00000000
-2.14845181 -0.51738423 -0.51018900 5 2 25646 2.26800000 2212072761 2212072761 -13.00000000
-20.56398201 -4.94836473 1.10847557 64 3 25647 21.18000000 2212072763 2212072763 3.00000000
-2.51766658 -0.60583270 -0.50335413 3 4 25647 2.63800000 2212072766 2212072766 -11.00000000
-20.53795052 -4.93830872 1.84805036 95 5 25648 21.20400000 2212072768 2212072768 5.00000000
-3.01360393 -0.72405863 -0.49089134 2 6 25649 3.13800000 2212072770 2212072770 -9.00000000
-20.51463318 -4.92512798 2.59045482 92 7 25650 21.25600000 2212072773 2212072773 7.00000000
-3.74869084 -0.89928913 -0.47334054 5 8 25651 3.88400000 2212072775 2212072775 -7.00000000
-17.76117516 -4.25752449 2.89278603 53 9 25652 18.49200000 2212072777 2212072777 9.00000000
-4.95225430 -1.18710291 -0.44554016 3 10 25652 5.11200000 2212072779 2212072779 -5.00000000
-12.67359638 -3.03564382 2.53318024 46 11 25653 13.27600000 2212072782 2212072782 11.00000000
-11.87021732 -2.83883357 2.81773686 48 13 25655 12.52600000 2212072786 2212072786 13.00000000
-13.83624268 -3.30646729 -0.24831285 7 14 25656 14.22800000 2212072789 2212072789 -1.00000000
-10.00768185 -2.38970423 2.75694036 30 15 25657 10.65200000 2212072791 2212072791 15.00000000
-1.87205255 -0.44460493 -0.51556754 5 0 25664 1.99200000 2212072812 2212072812 -15.00000000
-20.57534599 -4.88276815 0.36911839 18 1 25665 21.15000000 2212072814 2212072814 1.00000000
-2.15403700 -0.51078087 -0.51108879 5 2 25666 2.27200000 2212072816 2212072816 -13.00000000
-20.55003548 -4.86918497 1.10680079 60 3 25667 21.14800000 2212072819 2212072819 3.00000000
-2.51594543 -0.59613544 -0.50259089 3 4 25667 2.63400000 2212072821 2212072821 -11.00000000
-20.52792168 -4.86016130 1.84561002 100 5 25668 21.17600000 2212072823 2212072823 5.00000000
-3.01226830 -0.71262521 -0.49026561 2 6 25669 3.13400000 2212072826 2212072826 -9.00000000
-20.50079155 -4.84618187 2.58655500 82 7 25670 21.22400000 2212072828 2212072828 7.00000000
-3.75567102 -0.88711095 -0.47382802 5 8 25671 3.88800000 2212072830 2212072830 -7.00000000
-18.01742744 -4.25581932 2.93220758 55 9 25671 18.74400000 2212072832 2212072832 9.00000000
-4.96024609 -1.17072451 -0.44588879 6 10 25672 5.11600000 2212072835 2212072835 -5.00000000
-12.67838287 -2.99003434 2.53203535 43 11 25673 13.27000000 2212072837 2212072837 11.00000000
-11.88764191 -2.79916811 2.81953645 48 13 25675 12.53400000 2212072842 2212072842 13.00000000
-13.86132526 -3.26135564 -0.24855717 4 14 25676 14.24200000 2212072844 2212072844 -1.00000000
-10.00802898 -2.35473466 2.75486994 28 15 25676 10.64400000 2212072846 2212072846 15.00000000
-1.87547421 -0.43850738 -0.51608515 5 0 25684 1.99400000 2212072867 2212072867 -15.00000000
-20.54942322 -4.80090857 0.36835048 18 1 25685 21.10600000 2212072869 2212072869 1.00000000
-2.15580678 -0.50325876 -0.51108879 4 2 25686 2.27200000 2212072872 2212072872 -13.00000000
-20.54745674 -4.79288530 1.10575414 54 3 25687 21.12800000 2212072874 2212072874 3.00000000
-2.51418710 -0.58645755 -0.50182766 3 4 25687 2.63000000 2212072876 2212072876 -11.00000000
-20.50983429 -4.78033543 1.84247243 38 5 25688 21.14000000 2212072879 2212072879 5.00000000
-2.99934649 -0.69852161 -0.48776266 2 6 25689 3.11800000 2212072881 2212072881 -9.00000000
-20.49438095 -4.76919174 2.58363008 85 7 25690 21.20000000 2212072883 2212072883 7.00000000
-3.76261187 -0.87489498 -0.47431549 7 8 25691 3.89200000 2212072885 2212072885 -7.00000000
-18.23301315 -4.23624659 2.96474600 55 9 25692 18.95200000 2212072888 2212072888 9.00000000
-4.94683647 -1.14934480 -0.44431996 6 10 25692 5.09800000 2212072890 2212072890 -5.00000000
-12.67726803 -2.94309640 2.52974558 40 11 25693 13.25800000 2212072892 2212072892 11.00000000
-11.90113735 -2.75853539 2.82043624 50 13 25695 12.53800000 2212072897 2212072897 13.00000000
-13.89600277 -3.21836495 -0.24897604 4 14 25696 14.26600000 2212072899 2212072899 -1.00000000
-10.02223873 -2.31934428 2.75642276 30 15 25697 10.65000000 2212072902 2212072902 15.00000000
-1.88640666 -0.43412435 -0.51867336 5 0 25704 2.00400000 2212072922 2212072922 -15.00000000
-20.56605721 -4.72914839 0.36835048 18 1 25705 21.10600000 2212072925 2212072925 1.00000000
-2.14045715 -0.49180308 -0.50703967 4 2 25706 2.25400000 2212072927 2212072927 -13.00000000
-20.54264832 -4.71621609 1.10460269 50 3 25707 21.10600000 2212072929 2212072929 3.00000000
-2.52004576 -0.57855642 -0.50259089 3 4 25707 2.63400000 2212072932 2212072932 -11.00000000
-20.52445412 -4.70826817 1.84229803 51 5 25708 21.13800000 2212072934 2212072934 5.00000000
-3.01716995 -0.69157845 -0.49026561 2 6 25709 3.13400000 2212072936 2212072936 -9.00000000
-20.49542427 -4.69407892 2.58168006 85 7 25710 21.18400000 2212072938 2212072938 7.00000000
-3.75983763 -0.86042714 -0.47358426 7 8 25711 3.88600000 2212072941 2212072941 -7.00000000
-18.29895210 -4.18765831 2.97319341 42 9 25711 19.00600000 2212072943 2212072943 9.00000000
-4.97024059 -1.13651133 -0.44606310 6 10 25712 5.11800000 2212072945 2212072945 -5.00000000
-12.68937874 -2.89926386 2.53012729 43 11 25713 13.26000000 2212072948 2212072948 11.00000000
-7.44789267 -1.70032358 -0.40037006 8 12 25714 7.65000000 2212072950 2212072950 -3.00000000
-11.89549446 -2.71350884 2.81683707 50 13 25715 12.52200000 2212072952 2212072952 13.00000000
-13.90325260 -3.16895056 -0.24890622 4 14 25716 14.26200000 2212072955 2212072955 -1.00000000
-10.02799129 -2.28566718 2.75590515 30 15 25716 10.64800000 2212072957 2212072957 15.00000000
-1.88791049 -0.42753693 -0.51867336 5 0 25724 2.00400000 2212072978 2212072978 -15.00000000
-20.55513382 -4.65115213 0.36786184 18 1 25725 21.07800000 2212072980 2212072980 1.00000000
-2.15356541 -0.48690698 -0.50973910 4 2 25726 2.26600000 2212072982 2212072982 -13.00000000
-20.53950310 -4.64007902 1.10355592 47 3 25727 21.08600000 2212072985 2212072985 3.00000000
-2.52204990 -0.56975627 -0.50259089 3 4 25727 2.63400000 2212072987 2212072987 -11.00000000
-20.53104591 -4.63440228 1.84142649 70 5 25728 21.12800000 2212072989 2212072989 5.00000000
-3.01956558 -0.68104231 -0.49026561 2 6 25729 3.13400000 2212072991 2212072991 -9.00000000
-20.50006485 -4.61988926 2.58021784 82 7 25730 21.17200000 2212072994 2212072994 7.00000000
-3.75507188 -0.84555334 -0.47260931 7 8 25731 3.87800000 2212072996 2212072996 -7.00000000
-18.30767822 -4.12245607 2.97225475 12 9 25731 19.00000000 2212072998 2212072998 9.00000000
-4.98195267 -1.12090433 -0.44676033 6 10 25732 5.12600000 2212073001 2212073001 -5.00000000
-12.69559097 -2.85409069 2.52936411 40 11 25733 13.25600000 2212073003 2212073003 11.00000000
-7.55316639 -1.69663942 -0.40570834 12 12 25734 7.75200000 2212073005 2212073005 -3.00000000
-11.89538670 -2.66983533 2.81458759 51 13 25735 12.51200000 2212073008 2212073008 13.00000000
-13.92984009 -3.12390041 -0.24918546 4 14 25736 14.27800000 2212073010 2212073010 -1.00000000
-10.04721928 -2.25318551 2.75901103 28 15 25736 10.66000000 2212073012 2212073012 15.00000000
-1.88743234 -0.42085361 -0.51815575 5 0 25743 2.00200000 2212073033 2212073033 -15.00000000
-20.56654167 -4.58209324 0.36779201 18 1 25744 21.07400000 2212073035 2212073035 1.00000000
-2.16467905 -0.48188004 -0.51198858 4 2 25745 2.27600000 2212073038 2212073038 -13.00000000
-20.54503059 -4.56977415 1.10303259 43 3 25746 21.07600000 2212073040 2212073040 3.00000000
-2.52009273 -0.56053722 -0.50182766 3 4 25746 2.63000000 2212073042 2212073042 -11.00000000
-20.50934792 -4.55808067 1.83811462 25 5 25747 21.09000000 2212073044 2212073044 5.00000000
-3.02180743 -0.67102534 -0.49026561 2 6 25748 3.13400000 2212073047 2212073047 -9.00000000
-20.51139641 -4.55102301 2.57973027 82 7 25749 21.16800000 2212073049 2212073049 7.00000000
-3.76560712 -0.83481503 -0.47358426 7 8 25750 3.88600000 2212073051 2212073051 -7.00000000
-15.50037479 -3.43351221 2.51452756 8 9 25751 16.07400000 2212073054 2212073054 9.00000000
-4.97786140 -1.10265386 -0.44606310 6 10 25751 5.11800000 2212073056 2212073056 -5.00000000
-12.70498562 -2.81197500 2.52936411 40 11 25752 13.25600000 2212073058 2212073058 11.00000000
-7.69136047 -1.70090902 -0.41282603 33 12 25753 7.88800000 2212073061 2212073061 -3.00000000
-11.91178608 -2.63205600 2.81638718 51 13 25754 12.52000000 2212073063 2212073063 13.00000000
-13.92645359 -3.07467246 -0.24894112 7 14 25755 14.26400000 2212073065 2212073065 -1.00000000
-10.04520321 -2.21777296 2.75642276 30 15 25755 10.65000000 2212073067 2212073067 15.00000000
-1.88322890 -0.41302112 -0.51660281 4 0 25763 1.99600000 2212073088 2212073088 -15.00000000
-20.55506325 -4.50428247 0.36730334 18 1 25764 21.04600000 2212073091 2212073091 1.00000000
-2.18157697 -0.47765538 -0.51558781 4 2 25765 2.29200000 2212073093 2212073093 -13.00000000
-20.53549194 -4.49248171 1.10167193 43 3 25766 21.05000000 2212073095 2212073095 3.00000000
-2.51819825 -0.55089790 -0.50106442 3 4 25766 2.62600000 2212073097 2212073097 -11.00000000
-20.50956154 -4.48305845 1.83672011 93 5 25767 21.07400000 2212073100 2212073100 5.00000000
-3.03957057 -0.66384506 -0.49276856 3 6 25768 3.15000000 2212073102 2212073102 -9.00000000
-20.50776291 -4.47516489 2.57729292 85 7 25769 21.14800000 2212073104 2212073104 7.00000000
-3.77431703 -0.82293415 -0.47431549 7 8 25770 3.89200000 2212073107 2212073107 -7.00000000
-18.33601189 -3.99454474 2.97225475 34 9 25771 19.00000000 2212073109 2212073109 9.00000000
-4.97778702 -1.08442295 -0.44571447 6 10 25771 5.11400000 2212073111 2212073111 -5.00000000
-12.70705032 -2.76593876 2.52783751 37 11 25772 13.24800000 2212073114 2212073114 11.00000000
-11.92280483 -2.59087396 2.81683707 50 13 25774 12.52200000 2212073118 2212073118 13.00000000
-13.95468903 -3.02986002 -0.24925527 7 14 25775 14.28200000 2212073120 2212073120 -1.00000000
-10.04571342 -2.17930222 2.75435233 30 15 25776 10.64200000 2212073123 2212073123 15.00000000
-1.87899387 -0.40522313 -0.51504987 5 0 25783 1.99000000 2212073144 2212073144 -15.00000000
-20.54329300 -4.42660713 0.36681467 18 1 25784 21.01800000 2212073146 2212073146 1.00000000
-2.16037011 -0.46511552 -0.51018900 4 2 25785 2.26800000 2212073148 2212073148 -13.00000000
-20.54909515 -4.42035198 1.10156715 43 3 25786 21.04800000 2212073150 2212073150 3.00000000
-2.53162193 -0.54458159 -0.50335413 4 4 25786 2.63800000 2212073153 2212073153 -11.00000000
-20.51534653 -4.40934610 1.83584857 87 5 25787 21.06400000 2212073155 2212073155 5.00000000
-3.03414392 -0.65157193 -0.49151710 2 6 25788 3.14200000 2212073157 2212073157 -9.00000000
-20.50579071 -4.39980412 2.57509923 90 7 25789 21.13000000 2212073160 2212073160 7.00000000
-3.78493047 -0.81141877 -0.47529045 7 8 25790 3.90000000 2212073162 2212073162 -7.00000000
-18.33825302 -3.92803335 2.97037768 46 9 25791 18.98800000 2212073164 2212073164 9.00000000
-4.98543835 -1.06787527 -0.44606310 6 10 25791 5.11800000 2212073167 2212073167 -5.00000000
-12.70318890 -2.71869016 2.52516627 37 11 25792 13.23400000 2212073169 2212073169 11.00000000
-7.73429728 -1.65385437 -0.41450077 117 12 25793 7.92000000 2212073171 2212073171 -3.00000000
-11.93368244 -2.54964685 2.81728697 51 13 25794 12.52400000 2212073173 2212073173 13.00000000
-13.99255943 -2.98697519 -0.24974394 4 14 25795 14.31000000 2212073176 2212073176 -1.00000000
-10.05855274 -2.14718723 2.75590515 30 15 25795 10.64800000 2212073178 2212073178 15.00000000
-1.89173591 -0.40106574 -0.51815575 5 0 25803 2.00200000 2212073199 2212073199 -15.00000000
-20.55275154 -4.35362768 0.36670998 13 1 25804 21.01200000 2212073201 2212073201 1.00000000
-2.16579342 -0.45837858 -0.51108879 4 2 25805 2.27200000 2212073203 2212073203 -13.00000000
-20.54486084 -4.34446335 1.10052049 50 3 25806 21.02800000 2212073206 2212073206 3.00000000
-2.54119062 -0.53736597 -0.50488061 3 4 25806 2.64600000 2212073208 2212073208 -11.00000000
-20.51891708 -4.33523607 1.83480275 81 5 25807 21.05200000 2212073210 2212073210 5.00000000
-3.03253412 -0.64016086 -0.49089134 2 6 25808 3.13800000 2212073213 2212073213 -9.00000000
-20.49383163 -4.32246351 2.57168698 90 7 25809 21.10200000 2212073215 2212073215 7.00000000
-3.77802753 -0.79615527 -0.47407174 7 8 25810 3.89000000 2212073217 2212073217 -7.00000000
-18.35378647 -3.86440396 2.97069049 42 9 25811 18.99000000 2212073220 2212073220 9.00000000
-5.00083303 -1.05292928 -0.44710895 6 10 25811 5.13000000 2212073222 2212073222 -5.00000000
-12.71260166 -2.67433119 2.52516627 43 11 25812 13.23400000 2212073224 2212073224 11.00000000
-11.92725277 -2.50477099 2.81368780 47 13 25814 12.50800000 2212073229 2212073229 13.00000000
-14.01072884 -2.93975639 -0.24988356 4 14 25815 14.31800000 2212073231 2212073231 -1.00000000
-10.06787682 -2.11246014 2.75642276 30 15 25815 10.65000000 2212073233 2212073233 15.00000000
-1.90454102 -0.39649191 -0.52126157 5 0 25824 2.01400000 2212073255 2212073255 -15.00000000
-20.54116058 -4.27256775 0.36622131 17 1 25825 20.98400000 2212073257 2212073257 1.00000000
-2.17127490 -0.45123050 -0.51198858 4 2 25826 2.27600000 2212073260 2212073260 -13.00000000
-20.54230118 -4.26906443 1.09957850 10 3 25826 21.01000000 2212073262 2212073262 3.00000000
-2.52392054 -0.52405715 -0.50106442 3 4 25827 2.62600000 2212073264 2212073264 -11.00000000
-20.51515961 -4.25595427 1.83305955 12 5 25828 21.03200000 2212073267 2212073267 5.00000000
-3.03486013 -0.62904173 -0.49089134 2 6 25829 3.13800000 2212073269 2212073269 -9.00000000
-3.77508855 -0.78109616 -0.47334054 7 8 25831 3.88400000 2212073273 2212073273 -7.00000000
-18.36329460 -3.79951334 2.97006464 38 9 25831 18.98600000 2212073276 2212073276 9.00000000
-5.00856113 -1.03540003 -0.44745758 6 10 25832 5.13400000 2212073278 2212073278 -5.00000000
-12.72616386 -2.62851334 2.52592945 40 11 25833 13.23800000 2212073280 2212073280 11.00000000
-11.92299271 -2.45828390 2.81053853 47 13 25835 12.49400000 2212073285 2212073285 13.00000000
-14.01357460 -2.88677073 -0.24974394 4 14 25836 14.31000000 2212073287 2212073287 -1.00000000
-10.07933617 -2.07632470 2.75745821 38 15 25836 10.65400000 2212073290 2212073290 15.00000000
-1.89455748 -0.38751861 -0.51815575 5 0 25844 2.00200000 2212073310 2212073310 -15.00000000
-20.81652451 -4.25409079 0.37086365 4 1 25845 21.25000000 2212073313 2212073313 1.00000000
-2.18429279 -0.44598767 -0.51468801 4 2 25846 2.28800000 2212073315 2212073315 -13.00000000
-20.86505127 -4.25642109 1.11601198 3 3 25847 21.32400000 2212073317 2212073317 3.00000000
-2.53342891 -0.51681352 -0.50259089 3 4 25847 2.63400000 2212073320 2212073320 -11.00000000
-20.85982132 -4.25156212 1.86251819 6 5 25848 21.37000000 2212073322 2212073322 5.00000000
-3.04478002 -0.62002093 -0.49214283 3 6 25849 3.14600000 2212073324 2212073324 -9.00000000
-3.77973747 -0.76830930 -0.47358426 7 8 25851 3.88600000 2212073329 2212073329 -7.00000000
-18.36548233 -3.72982407 2.96818757 42 9 25852 18.97400000 2212073331 2212073331 9.00000000
-5.01019239 -1.01751399 -0.44728327 6 10 25852 5.13200000 2212073333 2212073333 -5.00000000
-12.74103355 -2.58524609 2.52707434 43 11 25853 13.24400000 2212073336 2212073336 11.00000000
-7.39129734 -1.49840355 -0.39524114 8 12 25854 7.55200000 2212073338 2212073338 -3.00000000
-11.93532085 -2.41742373 2.81143832 48 13 25855 12.49800000 2212073340 2212073340 13.00000000
-14.05100536 -2.84338951 -0.25023261 4 14 25856 14.33800000 2212073343 2212073343 -1.00000000
-10.07930470 -2.03783703 2.75538754 40 15 25857 10.64600000 2212073345 2212073345 15.00000000
-1.89204419 -0.38047218 -0.51712048 4 0 25863 1.99800000 2212073366 2212073366 -15.00000000
-21.19125175 -4.25751257 0.37728614 4 1 25864 21.61800000 2212073368 2212073368 1.00000000
-2.19722366 -0.44104293 -0.51738745 4 2 25865 2.30000000 2212073370 2212073370 -13.00000000
-21.19554901 -4.25452709 1.13296878 3 3 25865 21.64800000 2212073373 2212073373 3.00000000
-2.53897858 -0.50918156 -0.50335413 3 4 25866 2.63800000 2212073375 2212073375 -11.00000000
-21.19809723 -4.24734116 1.89145398 6 5 25867 21.70200000 2212073377 2212073377 5.00000000
-3.03519773 -0.60759419 -0.49026561 2 6 25868 3.13400000 2212073379 2212073379 -9.00000000
-21.20368958 -4.24076366 2.65504551 5 7 25869 21.78600000 2212073382 2212073382 7.00000000
-3.78615761 -0.75654894 -0.47407174 7 8 25870 3.89000000 2212073384 2212073384 -7.00000000
-18.36225319 -3.66580749 2.96568465 42 9 25871 18.95800000 2212073386 2212073386 9.00000000
-4.99595451 -0.99738348 -0.44571447 6 10 25871 5.11400000 2212073389 2212073389 -5.00000000
-12.74376011 -2.54182887 2.52592945 40 11 25872 13.23800000 2212073391 2212073391 11.00000000
-7.32375193 -1.45944262 -0.39136827 7 12 25873 7.47800000 2212073393 2212073393 -3.00000000
-11.94709396 -2.37859249 2.81233811 50 13 25874 12.50200000 2212073396 2212073396 13.00000000
-14.07408619 -2.79950976 -0.25047693 7 14 25875 14.35200000 2212073398 2212073398 -1.00000000
-10.08186722 -2.00540805 2.75435233 40 15 25875 10.64200000 2212073400 2212073400 15.00000000
-1.89715135 -0.37461388 -0.51815575 5 0 25883 2.00200000 2212073421 2212073421 -15.00000000
-22.64208221 -4.46682835 0.40283644 4 1 25884 23.08200000 2212073423 2212073423 1.00000000
-2.18154216 -0.42997891 -0.51333833 4 2 25885 2.28200000 2212073425 2212073425 -13.00000000
-22.65250587 -4.46477747 1.21000731 3 3 25885 23.12000000 2212073428 2212073428 3.00000000
-2.54459310 -0.50107443 -0.50411737 3 4 25886 2.64200000 2212073430 2212073430 -11.00000000
-22.68093491 -4.46215677 2.02236176 28 5 25887 23.20400000 2212073432 2212073432 5.00000000
-3.03342342 -0.59623373 -0.48963988 2 6 25888 3.13000000 2212073435 2212073435 -9.00000000
-22.44163895 -4.40694189 2.80811334 46 7 25889 23.04200000 2212073437 2212073437 7.00000000
-3.79851532 -0.74523908 -0.47529045 7 8 25890 3.90000000 2212073439 2212073439 -7.00000000
-18.38269043 -3.60320878 2.96693611 42 9 25891 18.96600000 2212073442 2212073442 9.00000000
-4.99549532 -0.97917175 -0.44536585 6 10 25891 5.11000000 2212073444 2212073444 -5.00000000
-12.73714256 -2.49431109 2.52287650 43 11 25892 13.22200000 2212073446 2212073446 11.00000000
-7.58361435 -1.48372281 -0.40497562 16 12 25893 7.73800000 2212073449 2212073449 -3.00000000
-11.95532417 -2.33687496 2.81233811 50 13 25894 12.50200000 2212073451 2212073451 13.00000000
-14.08966064 -2.75151491 -0.25058165 4 14 25895 14.35800000 2212073453 2212073453 -1.00000000
-10.09449387 -1.97131443 2.75590515 40 15 25895 10.64800000 2212073455 2212073455 15.00000000
-1.89844739 -0.36798930 -0.51815575 5 0 25903 2.00200000 2212073476 2212073476 -15.00000000
-22.97950554 -4.45011663 0.40856084 4 1 25904 23.41000000 2212073478 2212073478 1.00000000
-2.16772366 -0.41939995 -0.50973910 4 2 25905 2.26600000 2212073481 2212073481 -13.00000000
-22.98051071 -4.44198942 1.22665012 3 3 25906 23.43800000 2212073483 2212073483 3.00000000
-2.54632664 -0.49218908 -0.50411737 3 4 25906 2.64200000 2212073485 2212073485 -11.00000000
-23.04458427 -4.45020247 2.05338931 28 5 25907 23.56000000 2212073488 2212073488 5.00000000
-3.05100322 -0.58863515 -0.49214283 3 6 25908 3.14600000 2212073490 2212073490 -9.00000000
-22.78045464 -4.39094734 2.84857392 60 7 25909 23.37400000 2212073492 2212073492 7.00000000
-3.79719496 -0.73122448 -0.47480297 7 8 25910 3.89600000 2212073495 2212073495 -7.00000000
-18.40229797 -3.54372406 2.96818757 42 9 25910 18.97400000 2212073497 2212073497 9.00000000
-5.01062155 -0.96398675 -0.44641173 6 10 25911 5.12200000 2212073499 2212073499 -5.00000000
-12.75348282 -2.45131707 2.52440310 43 11 25912 13.23000000 2212073502 2212073502 11.00000000
-11.94809818 -2.29219151 2.80873895 46 13 25914 12.48600000 2212073506 2212073506 13.00000000
-14.13453007 -2.70909166 -0.25120994 4 14 25915 14.39400000 2212073508 2212073508 -1.00000000
-10.10354900 -1.93466628 2.75642276 42 15 25916 10.65000000 2212073511 2212073511 15.00000000
-1.90731168 -0.36280426 -0.52022630 5 0 25923 2.01000000 2212073531 2212073531 -15.00000000
-23.37994766 -4.44304943 0.41540217 4 1 25924 23.80200000 2212073534 2212073534 1.00000000
-2.18257618 -0.41437504 -0.51288843 4 2 25925 2.28000000 2212073536 2212073536 -13.00000000
-23.38559532 -4.43989372 1.24747980 11 3 25925 23.83600000 2212073538 2212073538 3.00000000
-2.54802918 -0.48329774 -0.50411737 3 4 25926 2.64200000 2212073541 2212073541 -11.00000000
-23.42995644 -4.43984318 2.08633423 29 5 25927 23.93800000 2212073543 2212073543 5.00000000
-3.04527569 -0.57651186 -0.49089134 2 6 25928 3.13800000 2212073545 2212073545 -9.00000000
-23.15843773 -4.38001871 2.89390945 40 7 25929 23.74600000 2212073548 2212073548 7.00000000
-3.80362535 -0.71870250 -0.47529045 7 8 25930 3.90000000 2212073550 2212073550 -7.00000000
-18.41127968 -3.47551942 2.96756172 42 9 25931 18.97000000 2212073552 2212073552 9.00000000
-5.01004076 -0.94575137 -0.44606310 6 10 25931 5.11800000 2212073555 2212073555 -5.00000000
-12.76003265 -2.40642047 2.52402139 40 11 25932 13.22800000 2212073557 2212073557 11.00000000
-7.70762587 -1.45219159 -0.41104659 53 12 25933 7.85400000 2212073559 2212073559 -3.00000000
-11.94453526 -2.24830794 2.80603933 44 13 25934 12.47400000 2212073561 2212073561 13.00000000
-14.14586639 -2.66010594 -0.25124484 7 14 25935 14.39600000 2212073564 2212073564 -1.00000000
-10.11593628 -1.90045655 2.75797582 40 15 25936 10.65600000 2212073566 2212073566 15.00000000
-1.89907110 -0.35437241 -0.51763809 4 0 25943 2.00000000 2212073587 2212073587 -15.00000000
-23.80420685 -4.43763781 0.42266238 4 1 25944 24.21800000 2212073589 2212073589 1.00000000
-2.19167256 -0.40818110 -0.51468801 4 2 25945 2.28800000 2212073591 2212073591 -13.00000000
-23.80150414 -4.43283558 1.26883292 19 3 25945 24.24400000 2212073594 2212073594 3.00000000
-2.54198027 -0.47296402 -0.50259089 3 4 25946 2.63400000 2212073596 2212073596 -11.00000000
-23.82336617 -4.42830372 2.11997628 30 5 25947 24.32400000 2212073598 2212073598 5.00000000
-3.06280684 -0.56876361 -0.49339432 3 6 25948 3.15400000 2212073601 2212073601 -9.00000000
-23.55028152 -4.36903811 2.94095111 48 7 25949 24.13200000 2212073603 2212073603 7.00000000
-3.79439974 -0.70325041 -0.47382802 7 8 25950 3.88800000 2212073605 2212073605 -7.00000000
-18.41105080 -3.41228652 2.96568465 42 9 25950 18.95800000 2212073608 2212073608 9.00000000
-5.01331139 -0.92825729 -0.44606310 6 10 25951 5.11800000 2212073610 2212073610 -5.00000000
-12.76835537 -2.36186504 2.52402139 43 11 25952 13.22800000 2212073612 2212073612 11.00000000
-11.95231056 -2.20660019 2.80603933 47 13 25954 12.47400000 2212073617 2212073617 13.00000000
-14.16489792 -2.61252499 -0.25141937 4 14 25955 14.40600000 2212073619 2212073619 -1.00000000
-10.10161018 -1.86128318 2.75228167 38 15 25956 10.63400000 2212073621 2212073621 15.00000000
-1.89269531 -0.34635031 -0.51556754 5 0 25963 1.99200000 2212073642 2212073642 -15.00000000
-24.19133186 -4.42248487 0.42925939 4 1 25964 24.59600000 2212073644 2212073644 1.00000000
-2.19691801 -0.40122849 -0.51558781 4 2 25965 2.29200000 2212073647 2212073647 -13.00000000
-24.20388985 -4.42041540 1.28945327 27 3 25965 24.63800000 2212073649 2212073649 3.00000000
-2.54361558 -0.46408796 -0.50259089 3 4 25966 2.63400000 2212073651 2212073651 -11.00000000
-24.22285843 -4.41514254 2.15414143 30 5 25967 24.71600000 2212073654 2212073654 5.00000000
-3.06088662 -0.55736119 -0.49276856 3 6 25968 3.15000000 2212073656 2212073656 -9.00000000
-23.97357368 -4.36105919 2.99189234 40 7 25969 24.55000000 2212073658 2212073658 7.00000000
-3.80464387 -0.69142097 -0.47480297 7 8 25970 3.89600000 2212073661 2212073661 -7.00000000
-18.42284966 -3.34799910 2.96568465 42 9 25970 18.95800000 2212073663 2212073663 9.00000000
-5.00867939 -0.90932834 -0.44536585 6 10 25971 5.11000000 2212073665 2212073665 -5.00000000
-12.77072620 -2.31622958 2.52287650 46 11 25972 13.22200000 2212073667 2212073667 11.00000000
-7.36186409 -1.33389580 -0.39210099 7 12 25973 7.49200000 2212073670 2212073670 -3.00000000
-11.95610523 -2.16417098 2.80513954 50 13 25974 12.47000000 2212073672 2212073672 13.00000000
-14.18180275 -2.56448770 -0.25155899 4 14 25975 14.41400000 2212073674 2212073674 -1.00000000
-10.10804558 -1.82601058 2.75228167 38 15 25976 10.63400000 2212073677 2212073677 15.00000000
-1.89959729 -0.34076476 -0.51712048 5 0 25983 1.99800000 2212073697 2212073697 -15.00000000
-24.60029030 -4.40856266 0.43624035 4 1 25984 24.99600000 2212073700 2212073700 1.00000000
-2.19063234 -0.39218369 -0.51378822 4 2 25985 2.28400000 2212073702 2212073702 -13.00000000
-24.63596535 -4.41051817 1.31164372 20 3 25985 25.06200000 2212073704 2212073704 3.00000000
-2.55295062 -0.45658883 -0.50411737 3 4 25986 2.64200000 2212073707 2212073707 -11.00000000
-24.63038826 -4.40064716 2.18900371 23 5 25987 25.11600000 2212073709 2212073709 5.00000000
-3.03947783 -0.54250818 -0.48901415 2 6 25988 3.12600000 2212073711 2212073711 -9.00000000
-24.37950516 -4.34704113 3.04064012 45 7 25989 24.95000000 2212073713 2212073713 7.00000000
-3.82853174 -0.68196541 -0.47748408 7 8 25990 3.91800000 2212073716 2212073716 -7.00000000
-18.41886520 -3.28089976 2.96318173 42 9 25990 18.94200000 2212073718 2212073718 9.00000000
-5.01182318 -0.89183921 -0.44536585 6 10 25991 5.11000000 2212073720 2212073720 -5.00000000
-12.77100182 -2.27026296 2.52135015 43 11 25992 13.21400000 2212073723 2212073723 11.00000000
-7.35664272 -1.30644393 -0.39157763 7 12 25993 7.48200000 2212073725 2212073725 -3.00000000
-11.96742439 -2.12310410 2.80603933 46 13 25994 12.47400000 2212073727 2212073727 13.00000000
-14.20641994 -2.51776004 -0.25183824 4 14 25995 14.43000000 2212073730 2212073730 -1.00000000
-10.11024094 -1.79180682 2.75124645 38 15 25995 10.63000000 2212073732 2212073732 15.00000000
-1.91599667 -0.33680758 -0.52126157 5 0 26003 2.01400000 2212073753 2212073753 -15.00000000
-25.01338005 -4.39253044 0.44329113 5 1 26004 25.40000000 2212073755 2212073755 1.00000000
-2.18431020 -0.38318768 -0.51198858 4 2 26005 2.27600000 2212073757 2212073757 -13.00000000
-25.05842400 -4.39593220 1.33331084 16 3 26005 25.47600000 2212073760 2212073760 3.00000000
-2.55839634 -0.44835237 -0.50488061 3 4 26006 2.64600000 2212073762 2212073762 -11.00000000
-25.07932091 -4.39057493 2.22752643 31 5 26007 25.55800000 2212073764 2212073764 5.00000000
-3.06470323 -0.53597879 -0.49276856 3 6 26008 3.15000000 2212073766 2212073766 -9.00000000
-24.80713463 -4.33399963 3.09206891 42 7 26009 25.37200000 2212073769 2212073769 7.00000000
-3.80546713 -0.66416031 -0.47431549 7 8 26010 3.89200000 2212073771 2212073771 -7.00000000
-18.41463852 -3.21386886 2.96067858 42 9 26010 18.92600000 2212073773 2212073773 9.00000000
-5.03060818 -0.87707692 -0.44676033 6 10 26011 5.12600000 2212073776 2212073776 -5.00000000
-12.77498055 -2.22499609 2.52058673 43 11 26012 13.21000000 2212073778 2212073778 11.00000000
-7.36509371 -1.28144121 -0.39178696 7 12 26013 7.48600000 2212073780 2212073780 -3.00000000
-11.96324253 -2.07931495 2.80333996 47 13 26014 12.46200000 2212073783 2212073783 13.00000000
-14.21906185 -2.46883917 -0.25190803 4 14 26015 14.43400000 2212073785 2212073785 -1.00000000
-10.12435436 -1.75605953 2.75331712 40 15 26016 10.63800000 2212073787 2212073787 15.00000000
-1.92096829 -0.33077312 -0.52229685 5 0 26023 2.01800000 2212073808 2212073808 -15.00000000
-25.47592163 -4.38214159 0.45121452 5 1 26024 25.85400000 2212073810 2212073810 1.00000000
-2.19715810 -0.37754080 -0.51468801 4 2 26025 2.28800000 2212073813 2212073813 -13.00000000
-25.49955750 -4.37704372 1.35591996 16 3 26026 25.90800000 2212073815 2212073815 3.00000000
-2.55220604 -0.43809062 -0.50335413 3 4 26026 2.63800000 2212073817 2212073817 -11.00000000
-25.56186104 -4.38314533 2.26901269 32 5 26027 26.03400000 2212073819 2212073819 5.00000000
-3.05876732 -0.52394366 -0.49151710 2 6 26028 3.14200000 2212073822 2212073822 -9.00000000
-24.91211891 -4.26278162 3.10328102 45 7 26029 25.46400000 2212073824 2212073824 7.00000000
-3.82145929 -0.65321398 -0.47602165 7 8 26030 3.90600000 2212073826 2212073826 -7.00000000
-5.04935074 -0.86219430 -0.44815484 6 10 26031 5.14200000 2212073831 2212073831 -5.00000000
-12.79041100 -2.18171000 2.52211332 43 11 26032 13.21800000 2212073833 2212073833 11.00000000
-7.34983301 -1.25236952 -0.39074025 7 12 26033 7.46600000 2212073836 2212073836 -3.00000000
-11.96274376 -2.03623462 2.80154037 46 13 26034 12.45400000 2212073838 2212073838 13.00000000
-14.25913620 -2.42455363 -0.25246650 4 14 26035 14.46600000 2212073840 2212073840 -1.00000000
-10.13393116 -1.72312391 2.75435233 38 15 26035 10.64200000 2212073843 2212073843 15.00000000
-1.90877640 -0.32181743 -0.51867336 5 0 26043 2.00400000 2212073863 2212073863 -15.00000000
-25.96038055 -4.37222958 0.45952186 5 1 26044 26.33000000 2212073866 2212073866 1.00000000
-2.20230603 -0.37051561 -0.51558781 4 2 26045 2.29200000 2212073868 2212073868 -13.00000000
-25.96966743 -4.36447191 1.38009918 21 3 26046 26.37000000 2212073870 2212073870 3.00000000
-2.54984736 -0.42852831 -0.50259089 3 4 26046 2.63400000 2212073872 2212073872 -11.00000000
-26.01714134 -4.36778164 2.30805826 24 5 26047 26.48200000 2212073875 2212073875 5.00000000
-3.06057763 -0.51326340 -0.49151710 2 6 26048 3.14200000 2212073877 2212073877 -9.00000000
-24.88573265 -4.16890860 3.09816241 39 7 26049 25.42200000 2212073879 2212073879 7.00000000
-3.81392670 -0.63823247 -0.47480297 7 8 26050 3.89600000 2212073882 2212073882 -7.00000000
-18.39040375 -3.07419872 2.95316982 42 9 26051 18.87800000 2212073884 2212073884 9.00000000
-5.03857374 -0.84226406 -0.44693464 3 10 26051 5.12800000 2212073886 2212073886 -5.00000000
-12.80182171 -2.13769674 2.52287650 43 11 26052 13.22200000 2212073889 2212073889 11.00000000
-7.36401033 -1.22834933 -0.39126360 3 12 26053 7.47600000 2212073891 2212073891 -3.00000000
-11.95824528 -1.99254274 2.79884100 46 13 26054 12.44200000 2212073893 2212073893 13.00000000
-14.25567722 -2.37279534 -0.25225708 4 14 26055 14.45400000 2212073896 2212073896 -1.00000000
-10.12874413 -1.68406856 2.75124645 40 15 26056 10.63000000 2212073898 2212073898 15.00000000
-1.90226388 -0.31389451 -0.51660281 5 0 26063 1.99600000 2212073919 2212073919 -15.00000000
-26.41745186 -4.35443449 0.46734053 5 1 26064 26.77800000 2212073921 2212073921 1.00000000
-2.21512294 -0.36472547 -0.51828724 4 2 26065 2.30400000 2212073923 2212073923 -13.00000000
