# .PCD v0.7 - Point Cloud Data file format
VERSION 0.7
FIELDS x y z intensity laser_id azimuth distance_m adjustedtime timestamp vertical_angle
SIZE 4 4 4 1 1 2 8 8 4 8
TYPE F F F U U U F U U F
COUNT 1 1 1 1 1 1 1 1 1 1
WIDTH 525
HEIGHT 1
VIEWPOINT 0 0 0 1 0 0 0
POINTS 525
DATA ascii
-5.27112198 2.12753153 0.49731067 3 5 29198 5.70600000 2212282672 2212282672 5.00000000
-3.05338812 1.23302901 -0.52155250 3 6 29199 3.33400000 2212282674 2212282674 -9.00000000
-20.14293098 8.13827229 2.66747618 73 7 29200 21.88800000 2212282677 2212282677 7.00000000
-3.82990503 1.54815972 -0.50722021 4 8 29201 4.16200000 2212282679 2212282679 -7.00000000
-16.20796204 6.55173254 2.76889014 66 9 29201 17.70000000 2212282681 2212282681 9.00000000
-5.11263609 2.06771541 -0.48249421 6 10 29202 5.53600000 2212282684 2212282684 -5.00000000
-9.87484455 3.99571204 2.07065916 28 11 29203 10.85200000 2212282686 2212282686 11.00000000
-4.09693480 1.65859711 -0.23163894 6 12 29204 4.42600000 2212282688 2212282688 -3.00000000
-10.91488266 4.42098236 2.71875834 55 13 29205 12.08600000 2212282691 2212282691 13.00000000
-3.97162151 1.60947931 -0.07480101 21 14 29206 4.28600000 2212282693 2212282693 -1.00000000
-8.17686081 3.31363106 2.36405325 45 15 29206 9.13400000 2212282695 2212282695 15.00000000
-1.85919499 0.75645316 -0.53782600 4 0 29214 2.07800000 2212282716 2212282716 -15.00000000
-4.07280684 1.65793717 0.07675568 5 1 29215 4.39800000 2212282718 2212282718 1.00000000
-2.16033936 0.87985927 -0.53853285 3 2 29216 2.39400000 2212282721 2212282721 -13.00000000
-4.14125061 1.68748415 0.23436041 5 3 29217 4.47800000 2212282723 2212282723 3.00000000
-2.52171516 1.02755296 -0.52930415 3 4 29217 2.77400000 2212282725 2212282725 -11.00000000
-5.27104330 2.14892697 0.49800792 3 5 29218 5.71400000 2212282727 2212282727 5.00000000
-3.04906535 1.24367976 -0.52155250 3 6 29219 3.33400000 2212282730 2212282730 -9.00000000
-20.14380646 8.22053528 2.67137599 39 7 29220 21.92000000 2212282732 2212282732 7.00000000
-3.82815337 1.56301987 -0.50770766 4 8 29221 4.16600000 2212282734 2212282734 -7.00000000
-16.17103958 6.60586452 2.76670003 57 9 29222 17.68600000 2212282737 2212282737 9.00000000
-5.11276484 2.08856297 -0.48319143 7 10 29222 5.54400000 2212282739 2212282739 -5.00000000
-9.86447144 4.03164291 2.07142234 31 11 29223 10.85600000 2212282741 2212282741 11.00000000
-4.06523895 1.66230488 -0.23017353 4 12 29224 4.39800000 2212282744 2212282744 -3.00000000
-10.89938354 4.45905590 2.71875834 56 13 29225 12.08600000 2212282746 2212282746 13.00000000
-3.98078442 1.62939310 -0.07508025 19 14 29226 4.30200000 2212282748 2212282748 -1.00000000
-8.17239571 3.34508061 2.36612368 45 15 29226 9.14200000 2212282750 2212282750 15.00000000
-1.85654306 0.76293838 -0.53782600 4 0 29234 2.07800000 2212282771 2212282771 -15.00000000
-4.08179092 1.67822707 0.07703492 7 1 29235 4.41400000 2212282774 2212282774 1.00000000
-2.14644170 0.88294679 -0.53583342 3 2 29236 2.38200000 2212282776 2212282776 -13.00000000
-4.14087582 1.70420992 0.23467442 7 3 29237 4.48400000 2212282778 2212282778 3.00000000
-2.54716134 1.04830420 -0.53541005 3 4 29237 2.80600000 2212282780 2212282780 -11.00000000
-3.04835844 1.25582027 -0.52217823 3 6 29239 3.33800000 2212282785 2212282785 -9.00000000
-18.04109001 7.43600035 2.39595127 6 7 29240 19.66000000 2212282787 2212282787 7.00000000
-3.82083893 1.57561636 -0.50746393 6 8 29241 4.16400000 2212282790 2212282790 -7.00000000
-16.13875198 6.65850496 2.76513553 53 9 29242 17.67600000 2212282792 2212282792 9.00000000
-5.11281061 2.10943675 -0.48388869 7 10 29242 5.55200000 2212282794 2212282794 -5.00000000
-9.86667061 4.07279348 2.07485700 31 11 29243 10.87400000 2212282797 2212282797 11.00000000
-4.03356695 1.66581166 -0.22870813 12 12 29244 4.37000000 2212282799 2212282799 -3.00000000
-10.86754322 4.49037695 2.71470928 53 13 29245 12.06800000 2212282801 2212282801 13.00000000
-3.98616076 1.64786243 -0.07528968 19 14 29246 4.31400000 2212282803 2212282803 -1.00000000
-8.16722202 3.37796497 2.36819434 45 15 29247 9.15000000 2212282806 2212282806 15.00000000
-1.86100578 0.77237642 -0.53989655 4 0 29254 2.08600000 2212282827 2212282827 -15.00000000
-4.08144808 1.69476557 0.07713964 7 1 29255 4.42000000 2212282829 2212282829 1.00000000
-2.15414405 0.89491975 -0.53853285 3 2 29256 2.39400000 2212282831 2212282831 -13.00000000
-4.14043474 1.72095358 0.23498844 5 3 29257 4.49000000 2212282833 2212282833 3.00000000
-2.51629305 1.04588628 -0.52968580 3 4 29257 2.77600000 2212282836 2212282836 -11.00000000
-5.42884064 2.25758529 0.51439321 9 5 29258 5.90200000 2212282838 2212282838 5.00000000
-3.05125141 1.26948869 -0.52342969 3 6 29259 3.34600000 2212282840 2212282840 -9.00000000
-17.86108017 7.43485022 2.37547731 6 7 29260 19.49200000 2212282843 2212282843 7.00000000
-3.80065536 1.58283854 -0.50551403 6 8 29261 4.14800000 2212282845 2212282845 -7.00000000
-16.08259010 6.70112324 2.75950408 49 9 29262 17.64000000 2212282847 2212282847 9.00000000
-4.91966438 2.04987383 -0.46628323 6 10 29262 5.35000000 2212282850 2212282850 -5.00000000
-9.86145496 4.11098671 2.07676506 28 11 29263 10.88400000 2212282852 2212282852 11.00000000
-4.04063129 1.68526316 -0.22944084 8 12 29264 4.38400000 2212282854 2212282854 -3.00000000
-10.84101200 4.52378178 2.71200991 54 13 29265 12.05600000 2212282856 2212282856 13.00000000
-3.98038435 1.66176665 -0.07528968 19 14 29266 4.31400000 2212282859 2212282859 -1.00000000
-8.15597534 3.40502977 2.36819434 45 15 29266 9.15000000 2212282861 2212282861 15.00000000
-1.85117161 0.77588081 -0.53782600 4 0 29274 2.07800000 2212282882 2212282882 -15.00000000
-4.08288383 1.71209538 0.07727925 20 1 29275 4.42800000 2212282884 2212282884 1.00000000
-2.15100718 0.90243363 -0.53853285 3 2 29276 2.39400000 2212282886 2212282886 -13.00000000
-4.14545202 1.74003398 0.23561648 5 3 29277 4.50200000 2212282889 2212282889 3.00000000
-2.52167821 1.05846262 -0.53159386 3 4 29277 2.78600000 2212282891 2212282891 -11.00000000
-5.41357946 2.27343583 0.51369596 12 5 29278 5.89400000 2212282893 2212282893 5.00000000
-3.05772853 1.28472281 -0.52530694 3 6 29279 3.35800000 2212282896 2212282896 -9.00000000
-20.14994812 8.47025776 2.68380666 44 7 29280 22.02200000 2212282898 2212282898 7.00000000
-3.81340575 1.60379136 -0.50795144 6 8 29281 4.16800000 2212282900 2212282900 -7.00000000
-16.04089165 6.74955988 2.75637531 49 9 29282 17.62000000 2212282903 2212282903 9.00000000
-4.80229235 2.02067065 -0.45582452 9 10 29282 5.23000000 2212282905 2212282905 -5.00000000
-9.87237740 4.15604925 2.08210778 28 11 29283 10.91200000 2212282907 2212282907 11.00000000
-4.05313063 1.70710981 -0.23048756 8 12 29284 4.40400000 2212282909 2212282909 -3.00000000
-10.82156372 4.56008291 2.71111012 54 13 29285 12.05200000 2212282912 2212282912 13.00000000
-3.97640204 1.67642748 -0.07532459 19 14 29286 4.31600000 2212282914 2212282914 -1.00000000
-8.12089825 3.42372251 2.36146498 42 15 29286 9.12400000 2212282916 2212282916 15.00000000
-1.84858847 0.78201520 -0.53782600 4 0 29293 2.07800000 2212282937 2212282937 -15.00000000
-4.05692720 1.71705174 0.07689530 54 1 29294 4.40600000 2212282939 2212282939 1.00000000
-2.16415310 0.91640049 -0.54258192 4 2 29295 2.41200000 2212282942 2212282942 -13.00000000
-4.15100002 1.75772142 0.23624450 5 3 29295 4.51400000 2212282944 2212282944 3.00000000
-2.52538514 1.06988227 -0.53312033 3 4 29296 2.79400000 2212282946 2212282946 -11.00000000
-5.40784502 2.29215312 0.51387024 9 5 29297 5.89600000 2212282949 2212282949 5.00000000
-3.06436324 1.29948282 -0.52718413 3 6 29298 3.37000000 2212282951 2212282951 -9.00000000
-20.14916039 8.54866123 2.68746281 63 7 29299 22.05200000 2212282953 2212282953 7.00000000
-3.81903005 1.62108207 -0.50941384 6 8 29300 4.18000000 2212282955 2212282955 -7.00000000
-16.01233482 6.79683304 2.75512385 53 9 29300 17.61200000 2212282958 2212282958 9.00000000
-4.76622343 2.02412367 -0.45303556 6 10 29301 5.19800000 2212282960 2212282960 -5.00000000
-9.86576843 4.19183493 2.08363414 28 11 29302 10.92000000 2212282962 2212282962 11.00000000
-4.08604717 1.73694956 -0.23268566 6 12 29303 4.44600000 2212282965 2212282965 -3.00000000
-10.80279541 4.59441805 2.71021032 51 13 29304 12.04800000 2212282967 2212282967 13.00000000
-3.98186111 1.69430220 -0.07553402 19 14 29305 4.32800000 2212282969 2212282969 -1.00000000
-8.10061169 3.44685149 2.35887671 31 15 29305 9.11400000 2212282972 2212282972 15.00000000
-1.85295367 0.79149872 -0.53989655 4 0 29313 2.08600000 2212282992 2212282992 -15.00000000
-4.05458641 1.73277426 0.07696512 13 1 29314 4.41000000 2212282995 2212282995 1.00000000
-2.14839840 0.91858631 -0.53943264 3 2 29315 2.39800000 2212282997 2212282997 -13.00000000
-4.15922022 1.77920794 0.23708189 5 3 29316 4.53000000 2212282999 2212282999 3.00000000
-2.51802516 1.07714677 -0.53235710 3 4 29316 2.79000000 2212283002 2212283002 -11.00000000
-5.41629601 2.31807137 0.51543903 9 5 29317 5.91400000 2212283004 2212283004 5.00000000
-3.04891300 1.30550623 -0.52530694 3 6 29318 3.35800000 2212283006 2212283006 -9.00000000
-20.13744354 8.62675953 2.68990016 76 7 29319 22.07200000 2212283008 2212283008 7.00000000
-3.82247090 1.63831317 -0.51063257 6 8 29320 4.19000000 2212283011 2212283011 -7.00000000
-15.97642326 6.85080481 2.75324655 45 9 29321 17.60000000 2212283013 2212283013 9.00000000
-4.74081755 2.03289652 -0.45129243 6 10 29321 5.17800000 2212283015 2212283015 -5.00000000
-9.85829258 4.22934389 2.08516073 28 11 29322 10.92800000 2212283018 2212283018 11.00000000
-4.09464169 1.75750399 -0.23352304 6 12 29323 4.46200000 2212283020 2212283020 -3.00000000
-10.78132057 4.62979174 2.70886064 51 13 29324 12.04200000 2212283022 2212283022 13.00000000
-3.98510933 1.71213806 -0.07570854 17 14 29325 4.33800000 2212283025 2212283025 -1.00000000
-8.09502316 3.47957015 2.36094737 9 15 29326 9.12200000 2212283027 2212283027 15.00000000
-1.84663177 0.79643178 -0.53886127 4 0 29333 2.08200000 2212283048 2212283048 -15.00000000
-4.16785717 1.79841328 0.07923392 6 1 29334 4.54000000 2212283050 2212283050 1.00000000
-2.14160061 0.92453527 -0.53853285 3 2 29335 2.39400000 2212283052 2212283052 -13.00000000
-4.15329695 1.79299057 0.23708189 5 3 29335 4.53000000 2212283055 2212283055 3.00000000
-2.51244760 1.08515131 -0.53197551 5 4 29336 2.78800000 2212283057 2212283057 -11.00000000
-5.43377686 2.34802794 0.51787943 9 5 29337 5.94200000 2212283059 2212283059 5.00000000
-3.02983189 1.30986989 -0.52280396 3 6 29338 3.34200000 2212283061 2212283061 -9.00000000
-20.12907219 8.70645618 2.69282508 68 7 29339 22.09600000 2212283064 2212283064 7.00000000
-3.80944157 1.64849257 -0.50965762 6 8 29340 4.18200000 2212283066 2212283066 -7.00000000
-15.94516087 6.90339184 2.75199509 45 9 29341 17.59200000 2212283068 2212283068 9.00000000
-4.68249750 2.02726817 -0.44641173 6 10 29341 5.12200000 2212283071 2212283071 -5.00000000
-9.85427856 4.26841164 2.08745050 31 11 29342 10.94000000 2212283073 2212283073 11.00000000
-4.07565403 1.76622713 -0.23279034 6 12 29343 4.44800000 2212283075 2212283075 -3.00000000
-10.76330566 4.66662216 2.70841074 53 13 29344 12.04000000 2212283078 2212283078 13.00000000
-3.98828125 1.73001707 -0.07588306 17 14 29345 4.34800000 2212283080 2212283080 -1.00000000
-8.01077557 3.47487521 2.33972406 2 15 29345 9.04000000 2212283082 2212283082 15.00000000
-1.84738290 0.80441540 -0.53989655 4 0 29353 2.08600000 2212283103 2212283103 -15.00000000
-4.16705370 1.81534672 0.07933864 6 1 29354 4.54600000 2212283105 2212283105 1.00000000
-2.14193320 0.93356246 -0.53943264 3 2 29355 2.39800000 2212283107 2212283107 -13.00000000
-4.13968945 1.80428541 0.23666319 5 3 29355 4.52200000 2212283110 2212283110 3.00000000
-2.50324559 1.09156060 -0.53083062 3 4 29356 2.78200000 2212283112 2212283112 -11.00000000
-5.43467808 2.37096453 0.51875097 9 5 29357 5.95200000 2212283114 2212283114 5.00000000
-3.03248286 1.32359874 -0.52405548 3 6 29358 3.35000000 2212283117 2212283117 -9.00000000
-20.12584496 8.78858280 2.69648099 63 7 29359 22.12600000 2212283119 2212283119 7.00000000
-3.79456878 1.65780628 -0.50843889 6 8 29360 4.17200000 2212283121 2212283121 -7.00000000
-15.90286636 6.95109701 2.74886632 45 9 29361 17.57200000 2212283124 2212283124 9.00000000
-4.67174149 2.04200482 -0.44606310 6 10 29361 5.11800000 2212283126 2212283126 -5.00000000
-9.86090469 4.31222296 2.09202981 28 11 29362 10.96400000 2212283128 2212283128 11.00000000
-4.08959150 1.78924918 -0.23394172 6 12 29363 4.47000000 2212283131 2212283131 -3.00000000
-10.73445415 4.69869471 2.70526147 57 13 29364 12.02600000 2212283133 2212283133 13.00000000
-3.98771310 1.74633479 -0.07598778 14 14 29365 4.35400000 2212283135 2212283135 -1.00000000
-8.00213718 3.50436687 2.34075952 2 15 29365 9.04400000 2212283137 2212283137 15.00000000
-1.84102666 0.80930418 -0.53886127 4 0 29373 2.08200000 2212283158 2212283158 -15.00000000
-4.22658920 1.85886323 0.08059521 28 1 29374 4.61800000 2212283160 2212283160 1.00000000
-2.14579606 0.94417292 -0.54123223 3 2 29375 2.40600000 2212283163 2212283163 -13.00000000
-4.15498447 1.82910252 0.23791926 5 3 29376 4.54600000 2212283165 2212283165 3.00000000
-2.51020122 1.10503793 -0.53312033 3 4 29376 2.79400000 2212283167 2212283167 -11.00000000
-5.44095612 2.39634514 0.52014548 3 5 29377 5.96800000 2212283170 2212283170 5.00000000
-3.04230547 1.34054828 -0.52655840 3 6 29378 3.36600000 2212283172 2212283172 -9.00000000
-20.12955666 8.87399673 2.70111203 57 7 29379 22.16400000 2212283174 2212283174 7.00000000
-3.79602385 1.67424607 -0.50941384 6 8 29380 4.18000000 2212283177 2212283177 -7.00000000
-15.87611389 7.00220060 2.74824071 53 9 29380 17.56800000 2212283179 2212283179 9.00000000
-4.64271116 2.04864764 -0.44397137 3 10 29381 5.09400000 2212283181 2212283181 -5.00000000
-9.87093639 4.35771799 2.09737253 21 11 29382 10.99200000 2212283184 2212283184 11.00000000
-4.09793663 1.80996919 -0.23477910 6 12 29383 4.48600000 2212283186 2212283186 -3.00000000
-10.71085739 4.73298597 2.70346189 57 13 29384 12.01800000 2212283188 2212283188 13.00000000
-3.99439573 1.76590383 -0.07623211 14 14 29385 4.36800000 2212283190 2212283190 -1.00000000
-7.99277258 3.53523540 2.34179473 2 15 29386 9.04800000 2212283193 2212283193 15.00000000
-1.83819044 0.81572562 -0.53886127 4 0 29393 2.08200000 2212283213 2212283213 -15.00000000
-2.14604926 0.95323950 -0.54213202 3 2 29395 2.41000000 2212283218 2212283218 -13.00000000
-4.16349840 1.84935701 0.23875663 5 3 29395 4.56200000 2212283220 2212283220 3.00000000
-2.51350498 1.11698258 -0.53464681 3 4 29396 2.80200000 2212283223 2212283223 -11.00000000
-26.70582962 11.87345028 2.55697513 82 5 29397 29.33800000 2212283225 2212283225 5.00000000
-3.03760767 1.35115969 -0.52655840 3 6 29398 3.36600000 2212283227 2212283227 -9.00000000
-20.12203598 8.95469952 2.70428061 60 7 29399 22.19000000 2212283230 2212283230 7.00000000
-3.80466437 1.69394577 -0.51136374 6 8 29400 4.19600000 2212283232 2212283232 -7.00000000
-15.85756016 7.06355715 2.74949217 57 9 29401 17.57600000 2212283234 2212283234 9.00000000
-4.60641193 2.05187011 -0.44118237 6 10 29401 5.06200000 2212283237 2212283237 -5.00000000
-9.87539101 4.40093851 2.10157037 25 11 29402 11.01400000 2212283239 2212283239 11.00000000
-4.09889078 1.82751584 -0.23519778 4 12 29403 4.49400000 2212283241 2212283241 -3.00000000
-10.69071102 4.76875734 2.70256186 57 13 29404 12.01400000 2212283243 2212283243 13.00000000
-3.99551153 1.78309584 -0.07637173 14 14 29405 4.37600000 2212283246 2212283246 -1.00000000
-7.95215940 3.55051231 2.33351254 2 15 29406 9.01600000 2212283248 2212283248 15.00000000
-1.83900166 0.82339573 -0.53989655 4 0 29412 2.08600000 2212283269 2212283269 -15.00000000
-2.13931966 0.95875692 -0.54123223 3 2 29414 2.40600000 2212283273 2212283273 -13.00000000
-4.16463327 1.86642075 0.23917532 5 3 29414 4.57000000 2212283276 2212283276 3.00000000
-2.49903846 1.12049210 -0.53235710 3 4 29415 2.79000000 2212283278 2212283278 -11.00000000
-26.60450172 11.93421936 2.55104852 54 5 29416 29.27000000 2212283280 2212283280 5.00000000
-3.02229691 1.35637248 -0.52468121 3 6 29417 3.35400000 2212283283 2212283283 -9.00000000
-20.11758232 9.03276062 2.70769310 63 7 29418 22.21800000 2212283285 2212283285 7.00000000
-3.79540467 1.70492625 -0.51087630 6 8 29419 4.19200000 2212283287 2212283287 -7.00000000
-15.83348942 7.11253119 2.74917936 57 9 29419 17.57400000 2212283290 2212283290 9.00000000
-4.61412096 2.07366800 -0.44257686 6 10 29420 5.07800000 2212283292 2212283292 -5.00000000
-9.87327671 4.43929768 2.10424161 21 11 29421 11.02800000 2212283294 2212283294 11.00000000
-4.09827232 1.84355628 -0.23551181 4 12 29422 4.50000000 2212283296 2212283296 -3.00000000
-10.66773033 4.80098343 2.70076227 59 13 29423 12.00600000 2212283299 2212283299 13.00000000
-4.00234032 1.80208266 -0.07661606 12 14 29424 4.39000000 2212283301 2212283301 -1.00000000
-7.94034147 3.57686305 2.33351254 2 15 29425 9.01600000 2212283303 2212283303 15.00000000
-1.83963716 0.83140123 -0.54093182 4 0 29432 2.09000000 2212283324 2212283324 -15.00000000
-4.21451235 1.90558243 0.08073483 82 1 29433 4.62600000 2212283326 2212283326 1.00000000
-2.13418436 0.96541548 -0.54078233 4 2 29434 2.40400000 2212283329 2212283329 -13.00000000
-4.15809250 1.88094664 0.23917532 5 3 29434 4.57000000 2212283331 2212283331 3.00000000
-2.50226641 1.13244653 -0.53388357 3 4 29435 2.79800000 2212283333 2212283333 -11.00000000
-26.52819633 12.01139927 2.54773664 73 5 29436 29.23200000 2212283336 2212283336 5.00000000
-3.02474141 1.37017441 -0.52593267 3 6 29437 3.36200000 2212283338 2212283338 -9.00000000
-20.10762787 9.11276245 2.71061802 63 7 29438 22.24200000 2212283340 2212283340 7.00000000
-3.79666185 1.72144330 -0.51185125 6 8 29439 4.20000000 2212283343 2212283343 -7.00000000
-15.81935978 7.17265129 2.75105643 57 9 29439 17.58600000 2212283345 2212283345 9.00000000
-4.60685396 2.08976173 -0.44257686 6 10 29440 5.07800000 2212283347 2212283347 -5.00000000
-9.86487103 4.47698021 2.10576797 21 11 29441 11.03600000 2212283349 2212283349 11.00000000
-4.09363031 1.85867643 -0.23561648 4 12 29442 4.50200000 2212283352 2212283352 -3.00000000
-10.63671303 4.83174372 2.69716311 60 13 29443 11.99000000 2212283354 2212283354 13.00000000
-4.01058960 1.82266128 -0.07689530 13 14 29444 4.40600000 2212283356 2212283356 -1.00000000
-7.95770407 3.61815143 2.34231234 2 15 29445 9.05000000 2212283359 2212283359 15.00000000
-1.84009254 0.83974230 -0.54196709 4 0 29453 2.09400000 2212283379 2212283379 -15.00000000
-4.22387123 1.92849135 0.08104897 108 1 29454 4.64400000 2212283382 2212283382 1.00000000
-2.12531400 0.97080219 -0.53943264 3 2 29455 2.39800000 2212283384 2212283384 -13.00000000
-4.16207075 1.90115321 0.23980336 5 3 29455 4.58200000 2212283386 2212283386 3.00000000
-2.50167036 1.14324212 -0.53464681 3 4 29456 2.80200000 2212283389 2212283389 -11.00000000
-26.45318985 12.09446526 2.54477334 54 5 29457 29.19800000 2212283391 2212283391 5.00000000
-3.02688479 1.38453817 -0.52718413 3 6 29458 3.37000000 2212283393 2212283393 -9.00000000
-20.10838890 9.20209408 2.71524906 70 7 29459 22.28000000 2212283395 2212283395 7.00000000
-3.79032707 1.73534715 -0.51185125 8 8 29460 4.20000000 2212283398 2212283398 -7.00000000
-15.77141190 7.22071600 2.74730206 61 9 29460 17.56200000 2212283400 2212283400 9.00000000
-4.61365509 2.11327028 -0.44397137 6 10 29461 5.09400000 2212283402 2212283402 -5.00000000
-9.86624336 4.52128553 2.10958433 28 11 29462 11.05600000 2212283405 2212283405 11.00000000
-4.09405279 1.87699735 -0.23603517 4 12 29463 4.51000000 2212283407 2212283407 -3.00000000
-10.61184692 4.86744738 2.69536352 62 13 29464 11.98200000 2212283409 2212283409 13.00000000
-4.01115227 1.84068465 -0.07703492 13 14 29465 4.41400000 2212283412 2212283412 -1.00000000
-7.95731640 3.65154696 2.34593582 2 15 29465 9.06400000 2212283414 2212283414 15.00000000
-1.83364069 0.84454399 -0.54093182 4 0 29473 2.09000000 2212283435 2212283435 -15.00000000
-2.11837292 0.97658324 -0.53853285 3 2 29475 2.39400000 2212283439 2212283439 -13.00000000
-4.16266441 1.91901469 0.24022204 5 3 29475 4.59000000 2212283442 2212283442 3.00000000
-2.48340225 1.14538968 -0.53159386 3 4 29476 2.78600000 2212283444 2212283444 -11.00000000
-28.13667679 12.98309612 2.71106648 38 5 29477 31.10600000 2212283446 2212283446 5.00000000
-3.02562022 1.39675140 -0.52780986 3 6 29478 3.37400000 2212283448 2212283448 -9.00000000
-20.11038589 9.28804398 2.71988010 63 7 29479 22.31800000 2212283451 2212283451 7.00000000
-3.78424644 1.74856734 -0.51185125 8 8 29480 4.20000000 2212283453 2212283453 -7.00000000
-15.73893833 7.27241039 2.74605060 61 9 29480 17.55400000 2212283455 2212283455 9.00000000
-4.59901619 2.12601805 -0.44327411 9 10 29481 5.08600000 2212283458 2212283458 -5.00000000
-9.87178421 4.56558704 2.11416364 15 11 29482 11.08000000 2212283460 2212283460 11.00000000
-4.09472656 1.89463162 -0.23645385 4 12 29483 4.51800000 2212283462 2212283462 -3.00000000
-10.58771801 4.90118504 2.69356394 59 13 29484 11.97400000 2212283465 2212283465 13.00000000
-4.00470257 1.85467494 -0.07703492 9 14 29485 4.41400000 2212283467 2212283467 -1.00000000
-9.04817009 4.19234514 2.67204785 30 15 29486 10.32400000 2212283469 2212283469 15.00000000
-1.82017040 0.84605366 -0.53782600 4 0 29493 2.07800000 2212283490 2212283490 -15.00000000
-4.25744867 1.97985578 0.08195650 59 1 29494 4.69600000 2212283492 2212283492 1.00000000
-2.12908602 0.99054807 -0.54213202 3 2 29495 2.41000000 2212283495 2212283495 -13.00000000
-4.17914248 1.94521523 0.24158278 5 3 29496 4.61600000 2212283497 2212283497 3.00000000
-2.48472857 1.15653682 -0.53273869 3 4 29496 2.79200000 2212283499 2212283499 -11.00000000
-28.13092041 13.09973621 2.71490145 96 5 29497 31.15000000 2212283501 2212283501 5.00000000
-3.02251697 1.40813851 -0.52812278 3 6 29498 3.37600000 2212283504 2212283504 -9.00000000
-20.11202812 9.37411976 2.72451115 55 7 29499 22.35600000 2212283506 2212283506 7.00000000
-3.78531599 1.76512194 -0.51282620 6 8 29500 4.20800000 2212283508 2212283508 -7.00000000
-15.69913387 7.32062674 2.74354768 61 9 29500 17.53800000 2212283511 2212283511 9.00000000
-4.59878922 2.14542794 -0.44397137 6 10 29501 5.09400000 2212283513 2212283513 -5.00000000
-12.07422924 5.63543749 2.59004140 31 11 29502 13.57400000 2212283515 2212283515 11.00000000
-4.12428188 1.92581379 -0.23854730 6 12 29503 4.55800000 2212283518 2212283518 -3.00000000
-10.57054520 4.93811321 2.69356394 59 13 29504 11.97400000 2212283520 2212283520 13.00000000
-4.01632023 1.87710953 -0.07738397 9 14 29505 4.43400000 2212283522 2212283522 -1.00000000
-9.03596783 4.22314501 2.67256546 45 15 29505 10.32600000 2212283525 2212283525 15.00000000
-1.82070410 0.85404289 -0.53886127 4 0 29513 2.08200000 2212283545 2212283545 -15.00000000
-2.12208748 0.99631757 -0.54123223 3 2 29515 2.40600000 2212283550 2212283550 -13.00000000
-4.19763565 1.97167921 0.24304818 5 3 29516 4.64400000 2212283552 2212283552 3.00000000
-2.49666929 1.17271507 -0.53617328 3 4 29516 2.81000000 2212283554 2212283554 -11.00000000
-28.12469292 13.21649361 2.71873617 100 5 29517 31.19400000 2212283557 2212283557 5.00000000
-3.02115846 1.42036140 -0.52874851 1 6 29518 3.38000000 2212283559 2212283559 -9.00000000
-20.09894371 9.45355988 2.72719216 63 7 29519 22.37800000 2212283561 2212283561 7.00000000
-3.78272390 1.78001475 -0.51331365 6 8 29520 4.21200000 2212283564 2212283564 -7.00000000
-15.67577171 7.37980032 2.74417329 61 9 29521 17.54200000 2212283566 2212283566 9.00000000
-4.59668016 2.16401362 -0.44449428 6 10 29521 5.10000000 2212283568 2212283568 -5.00000000
-12.06869316 5.68424225 2.59309435 56 11 29522 13.59000000 2212283571 2212283571 11.00000000
-4.11392069 1.93849587 -0.23833795 6 12 29523 4.55400000 2212283573 2212283573 -3.00000000
-10.55676937 4.97664309 2.69446373 59 13 29524 11.97800000 2212283575 2212283575 13.00000000
-4.02782965 1.89964783 -0.07773302 9 14 29525 4.45400000 2212283578 2212283578 -1.00000000
-9.01693439 4.25458622 2.67153025 47 15 29526 10.32200000 2212283580 2212283580 15.00000000
-1.83168077 0.86700517 -0.54300237 4 0 29533 2.09800000 2212283601 2212283601 -15.00000000
-4.25978899 2.01723242 0.08227064 70 1 29534 4.71400000 2212283603 2212283603 1.00000000
-2.11155224 1.00038159 -0.53943264 3 2 29535 2.39800000 2212283605 2212283605 -13.00000000
-4.20877552 1.99487400 0.24409489 5 3 29536 4.66400000 2212283607 2212283607 3.00000000
-2.48901248 1.17974126 -0.53541005 3 4 29536 2.80600000 2212283610 2212283610 -11.00000000
-28.12159348 13.33507442 2.72291970 96 5 29537 31.24200000 2212283612 2212283612 5.00000000
-3.01082802 1.42835844 -0.52780986 3 6 29538 3.37400000 2212283614 2212283614 -9.00000000
-20.08734131 9.53387547 2.73011708 63 7 29539 22.40200000 2212283617 2212283617 7.00000000
-3.77290106 1.79150510 -0.51282620 6 8 29540 4.20800000 2212283619 2212283619 -7.00000000
-15.62979984 7.42157459 2.74041891 61 9 29540 17.51800000 2212283621 2212283621 9.00000000
-4.61969233 2.19457936 -0.44745758 6 10 29541 5.13400000 2212283624 2212283624 -5.00000000
-12.07892227 5.74066162 2.59958172 59 11 29542 13.62400000 2212283626 2212283626 11.00000000
-4.10532522 1.95198667 -0.23823327 6 12 29543 4.55200000 2212283628 2212283628 -3.00000000
-10.52877426 5.00844049 2.69176435 59 13 29544 11.96600000 2212283631 2212283631 13.00000000
-4.02839661 1.91713321 -0.07787263 9 14 29545 4.46200000 2212283633 2212283633 -1.00000000
-9.00452042 4.28529453 2.67204785 47 15 29545 10.32400000 2212283635 2212283635 15.00000000
-1.83038640 0.87422627 -0.54351997 4 0 29553 2.10000000 2212283656 2212283656 -15.00000000
-2.12211275 1.01447010 -0.54303187 3 2 29555 2.41400000 2212283660 2212283660 -13.00000000
-4.21079540 2.01386189 0.24461827 4 3 29556 4.67400000 2212283663 2212283663 3.00000000
-2.48310804 1.18757522 -0.53502840 3 4 29556 2.80400000 2212283665 2212283665 -11.00000000
-28.11441422 13.45207500 2.72675467 86 5 29557 31.28600000 2212283667 2212283667 5.00000000
-3.01295066 1.44227111 -0.52906138 3 6 29558 3.38200000 2212283670 2212283670 -9.00000000
-20.09511757 9.62365532 2.73572302 70 7 29559 22.44800000 2212283672 2212283672 7.00000000
-3.75588322 1.79951775 -0.51136374 8 8 29560 4.19600000 2212283674 2212283674 -7.00000000
-15.58824348 7.47198009 2.73791599 61 9 29561 17.50200000 2212283677 2212283677 9.00000000
-4.78807545 2.29508901 -0.46454009 6 10 29561 5.33000000 2212283679 2212283679 -5.00000000
-12.08005238 5.79297686 2.60416126 62 11 29562 13.64800000 2212283681 2212283681 11.00000000
-4.10929108 1.97148860 -0.23886131 9 12 29563 4.56400000 2212283683 2212283683 -3.00000000
-10.49717236 5.03841591 2.68816519 56 13 29564 11.95000000 2212283686 2212283686 13.00000000
-4.03429842 1.93724263 -0.07811697 9 14 29565 4.47600000 2212283688 2212283688 -1.00000000
-8.99397755 4.32077837 2.67360067 47 15 29566 10.33000000 2212283690 2212283690 15.00000000
-1.82240915 0.87745804 -0.54196709 4 0 29571 2.09400000 2212283711 2212283711 -15.00000000
-2.11540437 1.01943982 -0.54213202 3 2 29573 2.41000000 2212283716 2212283716 -13.00000000
-4.25302315 2.05049992 0.24744441 4 3 29574 4.72800000 2212283718 2212283718 3.00000000
-2.47582793 1.19366503 -0.53426516 3 4 29574 2.80000000 2212283720 2212283720 -11.00000000
-28.11149406 13.55937576 2.73058939 96 5 29575 31.33000000 2212283723 2212283723 5.00000000
-3.00840473 1.45172954 -0.52906138 3 6 29576 3.38200000 2212283725 2212283725 -9.00000000
-20.10768890 9.70745182 2.74157286 73 7 29577 22.49600000 2212283727 2212283727 7.00000000
-3.75378633 1.81303501 -0.51185125 8 8 29578 4.20000000 2212283730 2212283730 -7.00000000
-15.56244755 7.51648045 2.73729038 66 9 29578 17.49800000 2212283732 2212283732 9.00000000
-5.03737497 2.43407750 -0.48946664 10 10 29579 5.61600000 2212283734 2212283734 -5.00000000
-12.08300400 5.84115267 2.60874057 62 11 29580 13.67200000 2212283736 2212283736 11.00000000
-4.11566353 1.99047565 -0.23959401 11 12 29581 4.57800000 2212283739 2212283739 -3.00000000
-10.48480034 5.07306671 2.68906498 56 13 29582 11.95400000 2212283741 2212283741 13.00000000
-4.02999258 1.95077837 -0.07815187 7 14 29583 4.47800000 2212283743 2212283743 -1.00000000
-8.97416306 4.34407806 2.67153025 47 15 29583 10.32200000 2212283746 2212283746 15.00000000
-1.80890918 0.87874925 -0.53886127 4 0 29591 2.08200000 2212283766 2212283766 -15.00000000
-2.11709046 1.02937412 -0.54348177 4 2 29593 2.41600000 2212283771 2212283771 -13.00000000
-41.82619095 20.34580421 2.43759942 21 3 29594 46.57600000 2212283773 2212283773 3.00000000
-2.47517729 1.20401764 -0.53502840 3 4 29594 2.80400000 2212283776 2212283776 -11.00000000
-28.10698891 13.67834473 2.73477292 96 5 29595 31.37800000 2212283778 2212283778 5.00000000
-2.99976683 1.46049249 -0.52843565 3 6 29596 3.37800000 2212283780 2212283780 -9.00000000
-20.11115837 9.79583645 2.74669123 60 7 29597 22.53800000 2212283783 2212283783 7.00000000
-3.75814176 1.83134460 -0.51331365 8 8 29598 4.21200000 2212283785 2212283785 -7.00000000
-15.54367161 7.57779741 2.73885465 57 9 29599 17.50800000 2212283787 2212283787 9.00000000
-5.02526569 2.44990015 -0.48911804 10 10 29599 5.61200000 2212283789 2212283789 -5.00000000
-12.07665825 5.89017963 2.61179352 62 11 29600 13.68800000 2212283792 2212283792 11.00000000
-4.14099979 2.02059531 -0.24147810 4 12 29601 4.61400000 2212283794 2212283794 -3.00000000
-10.47403336 5.11305380 2.69086456 60 13 29602 11.96200000 2212283796 2212283796 13.00000000
-4.03753328 1.97185421 -0.07843111 7 14 29603 4.49400000 2212283799 2212283799 -1.00000000
-8.95123768 4.37354851 2.66945958 47 15 29604 10.31400000 2212283801 2212283801 15.00000000
-1.81623900 0.89015937 -0.54196709 4 0 29611 2.09400000 2212283822 2212283822 -15.00000000
-4.15472794 2.03717875 0.08076974 4 1 29612 4.62800000 2212283824 2212283824 1.00000000
-2.10823584 1.03418314 -0.54213202 3 2 29613 2.41000000 2212283826 2212283826 -13.00000000
-41.82484055 20.52599716 2.44168162 21 3 29614 46.65400000 2212283829 2212283829 3.00000000
-2.47448421 1.21438015 -0.53579164 3 4 29614 2.80800000 2212283831 2212283831 -11.00000000
-28.10556984 13.79920292 2.73930502 96 5 29615 31.43000000 2212283833 2212283833 5.00000000
-2.98401237 1.46572936 -0.52655840 3 6 29616 3.36600000 2212283836 2212283836 -9.00000000
-20.09287643 9.87385654 2.74888492 57 7 29617 22.55600000 2212283838 2212283838 7.00000000
-3.75172639 1.84445179 -0.51331365 8 8 29618 4.21200000 2212283840 2212283840 -7.00000000
-15.52023029 7.63017178 2.73916745 61 9 29618 17.51000000 2212283842 2212283842 9.00000000
-5.01847124 2.46830606 -0.48929235 10 10 29619 5.61400000 2212283845 2212283845 -5.00000000
-12.06659317 5.93750000 2.61408329 62 11 29620 13.70000000 2212283847 2212283847 11.00000000
-4.23964357 2.08708239 -0.24765374 2 12 29621 4.73200000 2212283849 2212283849 -3.00000000
-10.45961761 5.15130615 2.69176435 60 13 29622 11.96600000 2212283852 2212283852 13.00000000
-4.04856348 1.99477398 -0.07878016 5 14 29623 4.51400000 2212283854 2212283854 -1.00000000
-8.93495178 4.40235424 2.66894197 47 15 29623 10.31200000 2212283856 2212283856 15.00000000
-1.81831586 0.89906257 -0.54351997 4 0 29631 2.10000000 2212283877 2212283877 -15.00000000
-4.14221430 2.04900908 0.08066502 6 1 29632 4.62200000 2212283879 2212283879 1.00000000
-2.10286641 1.04067171 -0.54168212 4 2 29633 2.40800000 2212283882 2212283882 -13.00000000
-41.80842209 20.69934082 2.44492650 21 3 29634 46.71600000 2212283884 2212283884 3.00000000
-2.47023010 1.22301030 -0.53579164 3 4 29634 2.80800000 2212283886 2212283886 -11.00000000
-28.09829521 13.91756535 2.74331427 86 5 29635 31.47600000 2212283889 2212283889 5.00000000
-2.99126768 1.48227620 -0.52874851 3 6 29636 3.38000000 2212283891 2212283891 -9.00000000
-20.08318901 9.95627785 2.75229716 68 7 29637 22.58400000 2212283893 2212283893 7.00000000
-3.75593543 1.86282873 -0.51477611 8 8 29638 4.22400000 2212283895 2212283895 -7.00000000
-15.49923801 7.69051695 2.74041891 66 9 29639 17.51800000 2212283898 2212283898 9.00000000
-5.02410269 2.49289346 -0.49068683 10 10 29639 5.63000000 2212283900 2212283900 -5.00000000
-12.07217121 5.99267769 2.61980748 65 11 29640 13.73000000 2212283902 2212283902 11.00000000
-7.56846952 3.75866747 -0.44286686 4 12 29641 8.46200000 2212283905 2212283905 -3.00000000
-9.08031178 4.51145697 2.34084058 15 13 29642 10.40600000 2212283907 2212283907 13.00000000
-4.08276176 2.02936554 -0.07958297 5 14 29643 4.56000000 2212283909 2212283909 -1.00000000
-8.92048645 4.43593311 2.66945958 47 15 29644 10.31400000 2212283912 2212283912 15.00000000
-1.81862390 0.90712881 -0.54455525 4 0 29651 2.10400000 2212283932 2212283932 -15.00000000
-4.15650797 2.07417035 0.08108388 2 1 29652 4.64600000 2212283935 2212283935 1.00000000
-2.11316919 1.05496919 -0.54528135 4 2 29653 2.42400000 2212283937 2212283937 -13.00000000
-41.78952026 20.87192535 2.44806671 31 3 29654 46.77600000 2212283939 2212283939 3.00000000
-2.45892048 1.22811663 -0.53426516 3 4 29654 2.80000000 2212283942 2212283942 -11.00000000
-28.11548615 14.04851246 2.74976373 100 5 29655 31.55000000 2212283944 2212283944 5.00000000
-2.99314308 1.49624169 -0.52999997 1 6 29656 3.38800000 2212283946 2212283946 -9.00000000
-20.08027077 10.04230309 2.75668454 68 7 29657 22.62000000 2212283948 2212283948 7.00000000
-3.74230886 1.87237513 -0.51380116 6 8 29658 4.21600000 2212283951 2212283951 -7.00000000
-15.46658325 7.73833656 2.73916745 66 9 29658 17.51000000 2212283953 2212283953 9.00000000
-5.01893377 2.51219916 -0.49103546 10 10 29659 5.63400000 2212283955 2212283955 -5.00000000
-12.07048893 6.04445076 2.62400532 43 11 29660 13.75200000 2212283958 2212283958 11.00000000
-7.54816055 3.78148508 -0.44244817 8 12 29661 8.45400000 2212283960 2212283960 -3.00000000
-10.38681507 5.20586491 2.68231630 45 13 29662 11.92400000 2212283962 2212283962 13.00000000
-4.09531593 2.05346417 -0.07996693 3 14 29663 4.58200000 2212283965 2212283965 -1.00000000
-8.91436195 4.46981955 2.67204785 47 15 29663 10.32400000 2212283967 2212283967 15.00000000
-1.81544638 0.91347146 -0.54455525 4 0 29671 2.10400000 2212283988 2212283988 -15.00000000
-19.66022873 9.89666557 0.38419726 4 1 29672 22.01400000 2212283990 2212283990 1.00000000
-2.10947394 1.06233907 -0.54528135 4 2 29673 2.42400000 2212283992 2212283992 -13.00000000
-41.80380630 21.06170464 2.45319557 21 3 29674 46.87400000 2212283995 2212283995 3.00000000
-2.45987844 1.23934245 -0.53541005 3 4 29674 2.80600000 2212283997 2212283997 -11.00000000
-28.10363960 14.16540051 2.75342417 96 5 29675 31.59200000 2212283999 2212283999 5.00000000
-2.99319339 1.50934887 -0.53093857 3 6 29676 3.39400000 2212284001 2212284001 -9.00000000
-20.08408546 10.13200569 2.76204681 70 7 29677 22.66400000 2212284004 2212284004 7.00000000
-3.74283910 1.88900447 -0.51477611 6 8 29678 4.22400000 2212284006 2212284006 -7.00000000
-15.42184258 7.78337765 2.73603868 66 9 29678 17.49000000 2212284008 2212284008 9.00000000
-5.01013374 2.52970338 -0.49103546 10 10 29679 5.63400000 2212284011 2212284011 -5.00000000
-10.19004917 5.14736414 2.21910858 21 11 29680 11.63000000 2212284013 2212284013 11.00000000
-7.56343555 3.82222342 -0.44412291 8 12 29681 8.48600000 2212284015 2212284015 -3.00000000
-17.36961555 8.78544331 -0.33976346 2 14 29683 19.46800000 2212284020 2212284020 -1.00000000
-8.88319016 4.49306202 2.66738915 47 15 29683 10.30600000 2212284022 2212284022 15.00000000
-1.79830599 0.91312212 -0.54041415 4 0 29692 2.08800000 2212284043 2212284043 -15.00000000
-19.64878464 9.98133659 0.38468593 4 1 29693 22.04200000 2212284045 2212284045 1.00000000
-2.09861684 1.06653202 -0.54348177 4 2 29694 2.41600000 2212284048 2212284048 -13.00000000
-41.78686523 21.24555779 2.45675445 32 3 29695 46.94200000 2212284050 2212284050 3.00000000
-2.45356941 1.24746025 -0.53502840 3 4 29695 2.80400000 2212284052 2212284052 -11.00000000
-28.08882523 14.28727913 2.75708485 96 5 29696 31.63400000 2212284054 2212284054 5.00000000
-2.98412013 1.51851749 -0.53031284 3 6 29697 3.39000000 2212284057 2212284057 -9.00000000
-20.08573341 10.22536278 2.76740909 68 7 29698 22.70800000 2212284059 2212284059 7.00000000
-3.74296594 1.90631354 -0.51575106 6 8 29699 4.23200000 2212284061 2212284061 -7.00000000
-15.38832283 7.84074211 2.73541307 61 9 29700 17.48600000 2212284064 2212284064 9.00000000
-5.00437880 2.54985833 -0.49138409 10 10 29700 5.63800000 2212284066 2212284066 -5.00000000
-10.16411781 5.18111134 2.21758223 28 11 29701 11.62200000 2212284068 2212284068 11.00000000
-7.57072687 3.86080742 -0.44537899 8 12 29702 8.51000000 2212284071 2212284071 -3.00000000
-8.77485657 4.47680187 2.27425528 15 13 29703 10.11000000 2212284073 2212284073 13.00000000
-17.43704224 8.89995575 -0.34171811 2 14 29704 19.58000000 2212284075 2212284075 -1.00000000
-8.85978031 4.52207708 2.66531849 47 15 29704 10.29800000 2212284077 2212284077 15.00000000
-1.80886328 0.92643899 -0.54455525 4 0 29712 2.10400000 2212284098 2212284098 -15.00000000
-2.09834957 1.07562900 -0.54438156 4 2 29714 2.42000000 2212284103 2212284103 -13.00000000
-41.79242325 21.43230438 2.46146464 32 3 29715 47.03200000 2212284105 2212284105 3.00000000
-2.46317554 1.26318431 -0.53808135 3 4 29715 2.82000000 2212284107 2212284107 -11.00000000
-28.08487129 14.40888691 2.76161695 96 5 29716 31.68600000 2212284110 2212284110 5.00000000
-2.97528648 1.52712071 -0.52968711 3 6 29717 3.38600000 2212284112 2212284112 -9.00000000
-20.07110786 10.30629349 2.77033401 68 7 29718 22.73200000 2212284114 2212284114 7.00000000
-3.73805451 1.92027438 -0.51599479 6 8 29719 4.23400000 2212284117 2212284117 -7.00000000
-15.34680462 7.88718605 2.73291016 61 9 29720 17.47000000 2212284119 2212284119 9.00000000
-4.99899197 2.56913280 -0.49173269 14 10 29720 5.64200000 2212284121 2212284121 -5.00000000
-12.06656361 6.20403385 2.63736200 31 11 29721 13.82200000 2212284124 2212284124 11.00000000
-7.56430817 3.89086485 -0.44579768 8 12 29722 8.51800000 2212284126 2212284126 -3.00000000
-8.70719337 4.48065424 2.26075816 15 13 29723 10.05000000 2212284128 2212284128 13.00000000
-17.38809013 8.95161533 -0.34136906 2 14 29724 19.56000000 2212284130 2212284130 -1.00000000
-8.83971119 4.55275059 2.66428328 47 15 29725 10.29400000 2212284133 2212284133 15.00000000
-1.79907715 0.92857295 -0.54248470 4 0 29730 2.09600000 2212284154 2212284154 -15.00000000
-2.08803463 1.07863820 -0.54258192 4 2 29732 2.41200000 2212284158 2212284158 -13.00000000
-41.79053497 21.59742165 2.46533751 10 3 29733 47.10600000 2212284160 2212284160 3.00000000
-2.46617150 1.27452171 -0.53960782 3 4 29733 2.82800000 2212284163 2212284163 -11.00000000
-28.08725166 14.52175331 2.76632333 96 5 29734 31.74000000 2212284165 2212284165 5.00000000
-2.98275614 1.54281306 -0.53187716 1 6 29735 3.40000000 2212284167 2212284167 -9.00000000
-20.05978775 10.38024521 2.77325869 57 7 29736 22.75600000 2212284170 2212284170 7.00000000
-3.73729205 1.93474627 -0.51672602 6 8 29737 4.24000000 2212284172 2212284172 -7.00000000
-15.32194996 7.93536043 2.73291016 57 9 29738 17.47000000 2212284174 2212284174 9.00000000
-4.99974203 2.58940625 -0.49260426 14 10 29738 5.65200000 2212284177 2212284177 -5.00000000
-12.06618881 6.25184679 2.64155984 62 11 29739 13.84400000 2212284179 2212284179 11.00000000
-7.55559397 3.91644788 -0.44600701 4 12 29740 8.52200000 2212284181 2212284181 -3.00000000
-8.63079453 4.47569036 2.24456167 13 13 29741 9.97800000 2212284183 2212284183 13.00000000
-8.83645248 4.58429623 2.66738915 47 15 29742 10.30600000 2212284188 2212284188 15.00000000
-1.81467414 0.94465959 -0.54817873 4 0 29750 2.11800000 2212284209 2212284209 -15.00000000
-2.08598495 1.08682072 -0.54303187 3 2 29752 2.41400000 2212284213 2212284213 -13.00000000
-2.45822573 1.28130758 -0.53884459 3 4 29753 2.82400000 2212284218 2212284218 -11.00000000
-28.06642342 14.63536835 2.76928663 28 5 29754 31.77400000 2212284220 2212284220 5.00000000
-2.98786092 1.55869746 -0.53375441 3 6 29755 3.41200000 2212284223 2212284223 -9.00000000
-20.05158806 10.46489906 2.77715850 38 7 29756 22.78800000 2212284225 2212284225 7.00000000
-3.73403502 1.94961751 -0.51721346 6 8 29757 4.24400000 2212284227 2212284227 -7.00000000
-15.27314663 7.97782087 2.72915578 57 9 29758 17.44600000 2212284230 2212284230 9.00000000
-5.00656652 2.61514497 -0.49417305 14 10 29758 5.67000000 2212284232 2212284232 -5.00000000
-12.07213211 6.30847549 2.64766550 62 11 29759 13.87600000 2212284234 2212284234 11.00000000
-5.04089785 2.63531756 -0.29810560 6 12 29760 5.69600000 2212284236 2212284236 -3.00000000
-8.56158829 4.47779274 2.23061466 14 13 29761 9.91600000 2212284239 2212284239 13.00000000
-5.03017902 2.63195014 -0.09909476 6 14 29762 5.67800000 2212284241 2212284241 -1.00000000
-8.82382011 4.61690426 2.66842437 47 15 29762 10.31000000 2212284243 2212284243 15.00000000
-1.79906261 0.94533020 -0.54455525 4 0 29772 2.10400000 2212284264 2212284264 -15.00000000
-5.03219700 2.64532447 0.09923438 7 1 29773 5.68600000 2212284266 2212284266 1.00000000
-2.08697081 1.09754348 -0.54438156 4 2 29774 2.42000000 2212284269 2212284269 -13.00000000
-5.02206945 2.64111948 0.29737291 7 3 29774 5.68200000 2212284271 2212284271 3.00000000
-2.44112539 1.28433824 -0.53617328 3 4 29775 2.81000000 2212284273 2212284273 -11.00000000
-5.09000635 2.67911625 0.50323725 3 5 29776 5.77400000 2212284276 2212284276 5.00000000
-2.98360181 1.57107878 -0.53406727 1 6 29777 3.41400000 2212284278 2212284278 -9.00000000
-3.72300935 1.96208978 -0.51672602 6 8 29779 4.24000000 2212284282 2212284282 -7.00000000
-4.98767614 2.62970328 -0.49330151 17 10 29780 5.66000000 2212284287 2212284287 -5.00000000
-5.01661062 2.64719701 -0.29726824 9 12 29782 5.68000000 2212284292 2212284292 -3.00000000
-10.25905704 5.41585398 2.67826724 3 13 29783 11.90600000 2212284294 2212284294 13.00000000
-4.98467112 2.63256788 -0.09839667 6 14 29784 5.63800000 2212284296 2212284296 -1.00000000
-8.78723717 4.64082718 2.66273022 35 15 29784 10.28800000 2212284299 2212284299 15.00000000
-1.79233789 0.94979525 -0.54351997 4 0 29792 2.10000000 2212284319 2212284319 -15.00000000
-4.98406363 2.64226794 0.09846648 10 1 29793 5.64200000 2212284322 2212284322 1.00000000
-2.08312702 1.10482168 -0.54438156 4 2 29794 2.42000000 2212284324 2212284324 -13.00000000
-4.98412704 2.64453077 0.29569817 6 3 29795 5.65000000 2212284326 2212284326 3.00000000
-2.43836164 1.29377174 -0.53655487 3 4 29795 2.81200000 2212284329 2212284329 -11.00000000
-4.98559284 2.64642382 0.49382445 8 5 29796 5.66600000 2212284331 2212284331 5.00000000
-2.95018530 1.56666040 -0.52906138 1 6 29797 3.38200000 2212284333 2212284333 -9.00000000
-4.99796724 2.65522909 0.69489902 7 7 29798 5.70200000 2212284335 2212284335 7.00000000
-3.73016071 1.98252666 -0.51867592 6 8 29799 4.25600000 2212284338 2212284338 -7.00000000
-4.98130417 2.64860630 0.89355367 9 9 29800 5.71200000 2212284340 2212284340 9.00000000
-4.95207882 2.63306689 -0.49068683 14 10 29800 5.63000000 2212284342 2212284342 -5.00000000
-4.98494148 2.65165663 1.09753335 5 11 29801 5.75200000 2212284345 2212284345 11.00000000
-4.96855021 2.64405012 -0.29496545 8 12 29802 5.63600000 2212284347 2212284347 -3.00000000
-4.96953106 2.64568520 1.29976714 7 13 29803 5.77800000 2212284349 2212284349 13.00000000
-4.95250702 2.63773131 -0.09794290 6 14 29804 5.61200000 2212284352 2212284352 -1.00000000
-1.79241920 0.95786691 -0.54455525 4 0 29812 2.10400000 2212284375 2212284375 -15.00000000
-4.93248606 2.63702226 0.09762876 7 1 29813 5.59400000 2212284377 2212284377 1.00000000
-2.07410264 1.10932910 -0.54303187 3 2 29814 2.41400000 2212284379 2212284379 -13.00000000
-4.94362879 2.64408875 0.29381406 6 3 29814 5.61400000 2212284382 2212284382 3.00000000
-2.44075489 1.30598021 -0.53808135 3 4 29815 2.82000000 2212284384 2212284384 -11.00000000
-4.92362785 2.63560224 0.48859510 8 5 29816 5.60600000 2212284386 2212284386 5.00000000
-2.95862985 1.58440936 -0.53156430 1 6 29817 3.39800000 2212284388 2212284388 -9.00000000
-4.94667339 2.65016031 0.68904924 7 7 29818 5.65400000 2212284391 2212284391 7.00000000
-3.73021626 1.99928629 -0.51965088 6 8 29819 4.26400000 2212284393 2212284393 -7.00000000
-4.93721008 2.64730883 0.88729626 9 9 29820 5.67200000 2212284395 2212284395 9.00000000
-4.92529869 2.64092183 -0.48894373 10 10 29820 5.61000000 2212284398 2212284398 -5.00000000
-4.92721367 2.64305592 1.08684802 8 11 29821 5.69600000 2212284400 2212284400 11.00000000
-4.93289232 2.64721107 -0.29339537 8 12 29822 5.60600000 2212284402 2212284402 -3.00000000
-4.93794537 2.65103292 1.29391849 7 13 29823 5.75200000 2212284405 2212284405 13.00000000
-4.90275097 2.63324046 -0.09714010 6 14 29824 5.56600000 2212284407 2212284407 -1.00000000
-4.92532682 2.64536595 1.49804461 6 15 29824 5.78800000 2212284409 2212284409 15.00000000
-1.78906465 0.96411777 -0.54455525 4 0 29832 2.10400000 2212284430 2212284430 -15.00000000
-4.89156771 2.63714242 0.09700047 7 1 29833 5.55800000 2212284432 2212284432 1.00000000
-2.06678724 1.11471224 -0.54213202 3 2 29834 2.41000000 2212284434 2212284434 -13.00000000
-4.89217997 2.63857460 0.29130194 6 3 29834 5.56600000 2212284437 2212284437 3.00000000
-2.43618131 1.31449211 -0.53808135 3 4 29835 2.82000000 2212284439 2212284439 -11.00000000
-4.88634586 2.63763022 0.48580611 8 5 29836 5.57400000 2212284441 2212284441 5.00000000
-2.96003366 1.59848177 -0.53281581 3 6 29837 3.40600000 2212284444 2212284444 -9.00000000
-4.91119480 2.65325809 0.68539321 7 7 29838 5.62400000 2212284446 2212284446 7.00000000
-3.71622944 2.00851965 -0.51867592 8 8 29839 4.25600000 2212284448 2212284448 -7.00000000
-4.91056299 2.65513158 0.88416761 9 9 29840 5.65200000 2212284451 2212284451 9.00000000
-4.88800812 2.64293623 -0.48615474 10 10 29840 5.57800000 2212284453 2212284453 -5.00000000
-4.89378214 2.64716196 1.08150542 8 11 29841 5.66800000 2212284455 2212284455 11.00000000
-4.87443829 2.63779831 -0.29046455 11 12 29842 5.55000000 2212284458 2212284458 -3.00000000
-4.88410473 2.64413142 1.28222096 7 13 29843 5.70000000 2212284460 2212284460 13.00000000
-4.86363697 2.63414860 -0.09654671 6 14 29844 5.53200000 2212284462 2212284462 -1.00000000
-4.88039017 2.64322186 1.48717427 6 15 29844 5.74600000 2212284464 2212284464 15.00000000
-1.79281795 0.97342074 -0.54662585 4 0 29850 2.11200000 2212284485 2212284485 -15.00000000
-4.85162926 2.63531613 0.09637219 7 1 29851 5.52200000 2212284487 2212284487 1.00000000
-2.06669950 1.12306058 -0.54303187 3 2 29852 2.41400000 2212284490 2212284490 -13.00000000
-4.84830856 2.63570452 0.28920850 6 3 29853 5.52600000 2212284492 2212284492 3.00000000
-2.43893909 1.32588983 -0.53960782 3 4 29853 2.82800000 2212284494 2212284494 -11.00000000
-4.85528183 2.64059329 0.48354006 11 5 29854 5.54800000 2212284497 2212284497 5.00000000
-2.95673251 1.60871720 -0.53312868 1 6 29855 3.40800000 2212284499 2212284499 -9.00000000
-4.86099005 2.64589715 0.67954344 7 7 29856 5.57600000 2212284501 2212284501 7.00000000
-3.70990109 2.02018452 -0.51867592 8 8 29857 4.25600000 2212284504 2212284504 -7.00000000
-4.85929251 2.64607239 0.87634587 9 9 29857 5.60200000 2212284506 2212284506 9.00000000
-4.84468889 2.63921666 -0.48266849 10 10 29858 5.53800000 2212284508 2212284508 -5.00000000
-4.86130762 2.64937043 1.07616270 8 11 29859 5.64000000 2212284511 2212284511 11.00000000
-4.83807039 2.63780165 -0.28878981 11 12 29860 5.51800000 2212284513 2212284513 -3.00000000
-4.83813620 2.63893294 1.27232313 8 13 29861 5.65600000 2212284515 2212284515 13.00000000
-4.81847477 2.62930012 -0.09581371 12 14 29862 5.49000000 2212284517 2212284517 -1.00000000
-4.84955454 2.64735794 1.48044491 6 15 29863 5.72000000 2212284520 2212284520 15.00000000
-1.78940916 0.97967291 -0.54662585 4 0 29870 2.11200000 2212284540 2212284540 -15.00000000
-4.80732346 2.63302326 0.09567409 7 1 29871 5.48200000 2212284543 2212284543 1.00000000
-2.06960273 1.13401365 -0.54483145 3 2 29872 2.42200000 2212284545 2212284545 -13.00000000
-4.80801344 2.63449240 0.28732440 6 3 29872 5.49000000 2212284547 2212284547 3.00000000
