# .PCD v0.7 - Point Cloud Data file format
VERSION 0.7
FIELDS x y z intensity laser_id azimuth distance_m adjustedtime timestamp vertical_angle
SIZE 4 4 4 1 1 2 8 8 4 8
TYPE F F F U U U F U U F
COUNT 1 1 1 1 1 1 1 1 1 1
WIDTH 529
HEIGHT 1
VIEWPOINT 0 0 0 1 0 0 0
POINTS 529
DATA ascii
1.60108018 -2.31570601 -0.54724020 3 4 14534 2.86800000 2212141997 2212141997 -11.00000000
3.43010807 -4.96295309 0.52781516 9 5 14535 6.05600000 2212141999 2212141999 5.00000000
1.96946168 -2.85063744 -0.54877210 3 6 14536 3.50800000 2212142001 2212142001 -9.00000000
3.43048406 -4.96720362 0.74120933 10 7 14537 6.08200000 2212142004 2212142004 7.00000000
2.54204440 -3.68215275 -0.54938698 6 8 14538 4.50800000 2212142006 2212142006 -7.00000000
3.42966580 -4.96787262 0.95612746 10 9 14538 6.11200000 2212142008 2212142008 9.00000000
3.43682742 -4.98010492 -0.52938396 11 10 14539 6.07400000 2212142011 2212142011 -5.00000000
3.41023970 -4.94342375 1.16736948 12 11 14540 6.11800000 2212142013 2212142013 11.00000000
3.43101239 -4.97539330 -0.31673720 9 12 14541 6.05200000 2212142015 2212142015 -3.00000000
3.40875340 -4.94496107 1.38659835 9 13 14542 6.16400000 2212142018 2212142018 13.00000000
3.42778516 -4.97442770 -0.10544744 9 14 14543 6.04200000 2212142020 2212142020 -1.00000000
3.40027928 -4.93451118 1.60571337 9 15 14543 6.20400000 2212142022 2212142022 15.00000000
1.16861928 -1.70035160 -0.55283749 4 0 14550 2.13600000 2212142043 2212142043 -15.00000000
3.41290975 -4.96767187 0.10520311 11 1 14551 6.02800000 2212142045 2212142045 1.00000000
1.35585475 -1.97425699 -0.55292970 3 2 14552 2.45800000 2212142048 2212142048 -13.00000000
3.41380191 -4.97268867 0.31610918 7 3 14553 6.04000000 2212142050 2212142050 3.00000000
1.60450375 -2.33718824 -0.55105639 3 4 14553 2.88800000 2212142052 2212142052 -11.00000000
3.40574002 -4.96280146 0.52659500 13 5 14554 6.04200000 2212142054 2212142054 5.00000000
1.96111524 -2.85878158 -0.54908496 1 6 14555 3.51000000 2212142057 2212142057 -9.00000000
3.40725756 -4.96872950 0.73974693 10 7 14556 6.07000000 2212142059 2212142059 7.00000000
2.52084112 -3.67746353 -0.54743707 6 8 14557 4.49200000 2212142061 2212142061 -7.00000000
3.39778805 -4.95863008 0.95206016 10 9 14558 6.08600000 2212142064 2212142064 9.00000000
3.40790558 -4.97339535 -0.52746654 11 10 14558 6.05200000 2212142066 2212142066 -5.00000000
3.38717103 -4.94498682 1.16507971 12 11 14559 6.10600000 2212142068 2212142068 11.00000000
3.40998101 -4.98015165 -0.31631851 9 12 14560 6.04400000 2212142071 2212142071 -3.00000000
3.38353086 -4.94337273 1.38299906 9 13 14561 6.14800000 2212142073 2212142073 13.00000000
3.40449548 -4.97586536 -0.10523801 6 14 14562 6.03000000 2212142075 2212142075 -1.00000000
3.37844276 -4.93778801 1.60312521 9 15 14562 6.19400000 2212142077 2212142077 15.00000000
1.16485417 -1.70761228 -0.55387276 4 0 14570 2.14000000 2212142098 2212142098 -15.00000000
3.39442205 -4.97790289 0.10516820 11 1 14571 6.02600000 2212142101 2212142101 1.00000000
1.34675992 -1.97575724 -0.55202991 3 2 14572 2.45400000 2212142103 2212142103 -13.00000000
3.38180280 -4.96311808 0.31474844 10 3 14573 6.01400000 2212142105 2212142105 3.00000000
1.59633565 -2.34277463 -0.55105639 3 4 14573 2.88800000 2212142107 2212142107 -11.00000000
3.38503098 -4.96971941 0.52607208 9 5 14574 6.03600000 2212142110 2212142110 5.00000000
1.95112431 -2.86560988 -0.54908496 3 6 14575 3.51000000 2212142112 2212142112 -9.00000000
3.37648940 -4.96089983 0.73682207 10 7 14576 6.04600000 2212142114 2212142114 7.00000000
2.51468873 -3.69608784 -0.54889953 6 8 14577 4.50400000 2212142117 2212142117 -7.00000000
3.39164495 -4.98690844 -0.52764088 11 10 14578 6.05400000 2212142121 2212142121 -5.00000000
3.36326647 -4.94703913 1.16279006 12 11 14579 6.09400000 2212142124 2212142124 11.00000000
3.38359523 -4.97880888 -0.31548116 9 12 14580 6.02800000 2212142126 2212142126 -3.00000000
3.35311389 -4.93581009 1.37760031 10 13 14581 6.12400000 2212142128 2212142128 13.00000000
3.37362480 -4.96786737 -0.10481916 6 14 14582 6.00600000 2212142130 2212142130 -1.00000000
3.35272717 -4.93894863 1.59950173 9 15 14583 6.18000000 2212142133 2212142133 15.00000000
1.16135180 -1.71466470 -0.55490804 4 0 14589 2.14400000 2212142154 2212142154 -15.00000000
3.36668491 -4.97257280 0.10481916 11 1 14590 6.00600000 2212142156 2212142156 1.00000000
1.34675419 -1.98989558 -0.55472928 3 2 14591 2.46600000 2212142158 2212142158 -13.00000000
3.36532593 -4.97430515 0.31474844 10 3 14592 6.01400000 2212142160 2212142160 3.00000000
1.57975709 -2.33504677 -0.54800344 3 4 14592 2.87200000 2212142163 2212142163 -11.00000000
3.35290623 -4.95781136 0.52363169 9 5 14593 6.00800000 2212142165 2212142165 5.00000000
1.93276024 -2.85897231 -0.54658204 1 6 14594 3.49400000 2212142167 2212142167 -9.00000000
3.35557413 -4.96549034 0.73584712 10 7 14595 6.03800000 2212142170 2212142170 7.00000000
2.49463987 -3.69289207 -0.54719335 6 8 14596 4.49000000 2212142172 2212142172 -7.00000000
3.34958601 -4.96036100 0.94799286 75 9 14597 6.06000000 2212142174 2212142174 9.00000000
3.36393905 -4.98161650 -0.52589774 11 10 14597 6.03400000 2212142177 2212142177 -5.00000000
3.34684300 -4.95816469 1.16279006 12 11 14598 6.09400000 2212142179 2212142179 11.00000000
3.36259770 -4.98337984 -0.31506246 9 12 14599 6.02000000 2212142181 2212142181 -3.00000000
3.32909966 -4.93559313 1.37445092 9 13 14600 6.11000000 2212142183 2212142183 13.00000000
3.35154247 -4.97073746 -0.10464463 9 14 14601 5.99600000 2212142186 2212142186 -1.00000000
3.32855439 -4.93664312 1.59536064 9 15 14601 6.16400000 2212142188 2212142188 15.00000000
1.15320385 -1.71550155 -0.55387276 4 0 14609 2.14000000 2212142209 2212142209 -15.00000000
3.34261513 -4.97433567 0.10460973 11 1 14610 5.99400000 2212142211 2212142211 1.00000000
1.33762670 -1.99134922 -0.55382949 3 2 14611 2.46200000 2212142213 2212142213 -13.00000000
3.34126163 -4.97607327 0.31412041 10 3 14612 6.00200000 2212142216 2212142216 3.00000000
1.54970813 -2.30794883 -0.54037106 3 4 14612 2.83200000 2212142218 2212142218 -11.00000000
3.32225513 -4.94963360 0.52153999 9 5 14613 5.98400000 2212142220 2212142220 5.00000000
1.92386937 -2.86734176 -0.54689491 3 6 14614 3.49600000 2212142223 2212142223 -9.00000000
3.33158636 -4.96728182 0.73438466 10 7 14615 6.02600000 2212142225 2212142225 7.00000000
2.48726130 -3.70982146 -0.54841202 6 8 14616 4.50000000 2212142227 2212142227 -7.00000000
3.32015347 -4.95397282 0.94455129 55 9 14617 6.03800000 2212142230 2212142230 9.00000000
3.33321881 -4.97346735 -0.52380604 15 10 14617 6.01000000 2212142232 2212142232 -5.00000000
3.31858826 -4.95350647 1.15897381 12 11 14618 6.07400000 2212142234 2212142234 11.00000000
3.33962512 -4.98678923 -0.31453910 13 12 14619 6.01000000 2212142236 2212142236 -3.00000000
3.30534649 -4.93746758 1.37175155 9 13 14620 6.09800000 2212142239 2212142239 13.00000000
3.32304955 -4.96578693 -0.10429558 9 14 14621 5.97600000 2212142241 2212142241 -1.00000000
3.30055809 -4.93217659 1.59018421 9 15 14621 6.14400000 2212142243 2212142243 15.00000000
1.16298664 -1.74382496 -0.56163734 5 0 14630 2.17000000 2212142264 2212142264 -15.00000000
3.30994081 -4.96492386 0.10415597 11 1 14631 5.96800000 2212142266 2212142266 1.00000000
1.32599628 -1.98975194 -0.55202991 3 2 14632 2.45400000 2212142269 2212142269 -13.00000000
3.31722593 -4.97773361 0.31349239 9 3 14632 5.99000000 2212142271 2212142271 3.00000000
1.36055672 -2.04238462 -0.47702250 4 4 14633 2.50000000 2212142273 2212142273 -11.00000000
3.29304838 -4.94519329 0.51979685 9 5 14634 5.96400000 2212142276 2212142276 5.00000000
1.91553628 -2.87766266 -0.54752064 3 6 14635 3.50000000 2212142278 2212142278 -9.00000000
3.30346084 -4.96458530 0.73219103 10 7 14636 6.00800000 2212142280 2212142280 7.00000000
2.47804499 -3.72552419 -0.54938698 6 8 14637 4.50800000 2212142282 2212142282 -7.00000000
3.29627657 -4.95566368 0.94267410 55 9 14637 6.02600000 2212142285 2212142285 9.00000000
3.30834889 -4.97569609 -0.52276015 15 10 14638 5.99800000 2212142287 2212142287 -5.00000000
3.28736973 -4.94601583 1.15439439 12 11 14639 6.05000000 2212142289 2212142289 11.00000000
3.30806208 -4.97903347 -0.31328303 12 12 14640 5.98600000 2212142292 2212142292 -3.00000000
3.28507137 -4.94630241 1.37085176 9 13 14641 6.09400000 2212142294 2212142294 13.00000000
3.30593276 -4.97959900 -0.10433049 9 14 14642 5.97800000 2212142296 2212142296 -1.00000000
3.27391052 -4.93136501 1.58604312 9 15 14642 6.12800000 2212142299 2212142299 15.00000000
1.17395270 -1.77364898 -0.56991953 6 0 14650 2.20200000 2212142319 2212142319 -15.00000000
3.28817606 -4.96977663 0.10401634 11 1 14651 5.96000000 2212142322 2212142322 1.00000000
1.31689274 -1.99111760 -0.55113006 3 2 14652 2.45000000 2212142324 2212142324 -13.00000000
3.29014754 -4.97653008 0.31265500 9 3 14653 5.97400000 2212142326 2212142326 3.00000000
1.32959902 -2.01109219 -0.46862689 12 4 14653 2.45600000 2212142329 2212142329 -11.00000000
3.27796340 -4.95998287 0.52014548 9 5 14654 5.96800000 2212142331 2212142331 5.00000000
1.89676893 -2.87114596 -0.54501766 1 6 14655 3.48400000 2212142333 2212142333 -9.00000000
3.27735972 -4.96283436 0.73024112 10 7 14656 5.99200000 2212142335 2212142335 7.00000000
2.46283817 -3.73083806 -0.54889953 6 8 14657 4.50400000 2212142338 2212142338 -7.00000000
3.27265120 -4.95946789 0.94110972 52 9 14658 6.01600000 2212142340 2212142340 9.00000000
3.29534960 -4.99386597 -0.52345741 15 10 14658 6.00600000 2212142342 2212142342 -5.00000000
3.26359868 -4.94762802 1.15210474 12 11 14659 6.03800000 2212142345 2212142345 11.00000000
3.28186607 -4.97721148 -0.31244567 12 12 14660 5.97000000 2212142347 2212142347 -3.00000000
3.25384355 -4.93658733 1.36500299 9 13 14661 6.06800000 2212142349 2212142349 13.00000000
3.27642822 -4.97274065 -0.10394653 9 14 14662 5.95600000 2212142352 2212142352 -1.00000000
3.24837589 -4.93203783 1.58241963 9 15 14663 6.11400000 2212142354 2212142354 15.00000000
1.14684629 -1.74524283 -0.55956680 4 0 14669 2.16200000 2212142375 2212142375 -15.00000000
3.26618814 -4.97229624 0.10384182 11 1 14670 5.95000000 2212142377 2212142377 1.00000000
1.30814338 -1.99221575 -0.55023026 3 2 14671 2.44600000 2212142379 2212142379 -13.00000000
3.25805330 -4.96179914 0.31108493 9 3 14671 5.94400000 2212142382 2212142382 3.00000000
1.30568588 -1.98922968 -0.46252102 15 4 14672 2.42400000 2212142384 2212142384 -11.00000000
3.25712562 -4.96416235 0.51944822 9 5 14673 5.96000000 2212142386 2212142386 5.00000000
1.90023792 -2.89724159 -0.54877210 1 6 14674 3.50800000 2212142388 2212142388 -9.00000000
3.25870752 -4.97035503 0.72975361 10 7 14675 5.98800000 2212142391 2212142391 7.00000000
2.45262909 -3.74230528 -0.54938698 6 8 14676 4.50800000 2212142393 2212142393 -7.00000000
3.25618696 -4.97029305 0.94110972 12 9 14677 6.01600000 2212142395 2212142395 9.00000000
3.27440405 -4.99810028 -0.52276015 15 10 14677 5.99800000 2212142398 2212142398 -5.00000000
3.24287152 -4.95185375 1.15057826 12 11 14678 6.03000000 2212142400 2212142400 11.00000000
3.25877953 -4.97804070 -0.31181762 12 12 14679 5.95800000 2212142402 2212142402 -3.00000000
3.22998595 -4.93593597 1.36185372 9 13 14680 6.05400000 2212142405 2212142405 13.00000000
3.24787879 -4.96516991 -0.10356258 9 14 14681 5.93400000 2212142407 2212142407 -1.00000000
3.22757769 -4.93413496 1.57983148 9 15 14681 6.10400000 2212142409 2212142409 15.00000000
1.13124990 -1.73467195 -0.55490804 4 0 14689 2.14400000 2212142430 2212142430 -15.00000000
3.24553561 -4.97864151 0.10373710 11 1 14690 5.94400000 2212142432 2212142432 1.00000000
1.30969274 -2.00983119 -0.55382949 3 2 14691 2.46200000 2212142434 2212142434 -13.00000000
3.23744226 -4.96812153 0.31077090 9 3 14691 5.93800000 2212142437 2212142437 3.00000000
1.29230487 -1.98390508 -0.46023130 9 4 14692 2.41200000 2212142439 2212142439 -11.00000000
3.22673154 -4.95546579 0.51735651 9 5 14693 5.93600000 2212142441 2212142441 5.00000000
1.88364744 -2.89392376 -0.54689491 1 6 14694 3.49600000 2212142444 2212142444 -9.00000000
3.23484230 -4.97171640 0.72829121 10 7 14695 5.97600000 2212142446 2212142446 7.00000000
2.44063330 -3.75250793 -0.54963076 6 8 14696 4.51000000 2212142448 2212142448 -7.00000000
3.22589660 -4.96175575 0.93735534 9 9 14697 5.99200000 2212142451 2212142451 9.00000000
3.24390531 -4.98945475 -0.52066839 15 10 14697 5.97400000 2212142453 2212142453 -5.00000000
3.22449660 -4.96149683 1.15019667 12 11 14698 6.02800000 2212142455 2212142455 11.00000000
3.23050237 -4.97263718 -0.31077090 12 12 14699 5.93800000 2212142458 2212142458 -3.00000000
3.20849109 -4.94064283 1.36005402 9 13 14700 6.04600000 2212142460 2212142460 13.00000000
3.21528387 -4.95299530 -0.10307391 9 14 14701 5.90600000 2212142462 2212142462 -1.00000000
3.20402360 -4.93564939 1.57672560 9 15 14701 6.09200000 2212142464 2212142464 15.00000000
1.12098944 -1.73212278 -0.55283749 4 0 14709 2.13600000 2212142485 2212142485 -15.00000000
3.21075821 -4.96307659 0.10317863 11 1 14710 5.91200000 2212142487 2212142487 1.00000000
1.30478561 -2.01766348 -0.55472928 3 2 14711 2.46600000 2212142490 2212142490 -13.00000000
3.21487451 -4.97324467 0.31035221 9 3 14712 5.93000000 2212142492 2212142492 3.00000000
1.45696795 -2.25385427 -0.52167177 3 4 14712 2.73400000 2212142494 2212142494 -11.00000000
3.19643807 -4.94661808 0.51526475 12 5 14713 5.91200000 2212142497 2212142497 5.00000000
1.87889338 -2.90877771 -0.54845923 1 6 14714 3.50600000 2212142499 2212142499 -9.00000000
3.21100712 -4.97297192 0.72682875 10 7 14715 5.96400000 2212142501 2212142501 7.00000000
2.42751980 -3.76100445 -0.54963076 4 8 14716 4.51000000 2212142504 2212142504 -7.00000000
3.19764161 -4.95416927 0.93391377 9 9 14716 5.97000000 2212142506 2212142506 9.00000000
3.20918632 -4.97396088 -0.51787943 15 10 14717 5.94200000 2212142508 2212142508 -5.00000000
3.19438910 -4.95292377 1.14561725 12 11 14718 6.00400000 2212142511 2212142511 11.00000000
3.21420717 -4.98556185 -0.31087559 12 12 14719 5.94000000 2212142513 2212142513 -3.00000000
3.18594718 -4.94362259 1.35780454 9 13 14720 6.03600000 2212142515 2212142515 13.00000000
3.19905806 -4.96586943 -0.10310882 9 14 14721 5.90800000 2212142517 2212142517 -1.00000000
3.17754459 -4.93436575 1.57258451 9 15 14722 6.07600000 2212142520 2212142520 15.00000000
1.12955165 -1.75878215 -0.56008440 5 0 14729 2.16400000 2212142540 2212142540 -15.00000000
3.18261123 -4.95742655 0.10282958 11 1 14730 5.89200000 2212142543 2212142543 1.00000000
1.29983974 -2.02548599 -0.55562907 3 2 14731 2.47000000 2212142545 2212142545 -13.00000000
3.19081378 -4.97211218 0.30961952 9 3 14731 5.91600000 2212142547 2212142547 3.00000000
1.51163471 -2.35642195 -0.54418725 2 4 14732 2.85200000 2212142550 2212142550 -11.00000000
3.17700052 -4.95439100 0.51491612 12 5 14733 5.90800000 2212142552 2212142552 5.00000000
1.85700226 -2.89702511 -0.54501766 3 6 14734 3.48400000 2212142554 2212142554 -9.00000000
3.18291903 -4.96743584 0.72439140 10 7 14735 5.94400000 2212142557 2212142557 7.00000000
2.41009402 -3.76276875 -0.54865581 4 8 14736 4.50200000 2212142559 2212142559 -7.00000000
3.17946219 -4.96585608 0.93391377 9 9 14737 5.97000000 2212142561 2212142561 9.00000000
3.18535852 -4.97506523 -0.51683354 15 10 14737 5.93000000 2212142564 2212142564 -5.00000000
3.15485597 -4.92931890 1.13760328 21 11 14738 5.96200000 2212142566 2212142566 11.00000000
3.18279195 -4.97488022 -0.30951485 12 12 14739 5.91400000 2212142568 2212142568 -3.00000000
3.16237187 -4.94486284 1.35510516 9 13 14740 6.02400000 2212142570 2212142570 13.00000000
3.17093349 -4.96015787 -0.10275977 9 14 14741 5.88800000 2212142573 2212142573 -1.00000000
3.15405941 -4.93566036 1.56947863 9 15 14742 6.06400000 2212142575 2212142575 15.00000000
1.15319932 -1.81016028 -0.57509589 8 0 14750 2.22200000 2212142596 2212142596 -15.00000000
3.15582681 -4.95556402 0.10255034 11 1 14751 5.87600000 2212142598 2212142598 1.00000000
1.27984941 -2.01050949 -0.55023026 4 2 14752 2.44600000 2212142600 2212142600 -13.00000000
3.16184330 -4.96692514 0.30857280 9 3 14752 5.89600000 2212142603 2212142603 3.00000000
1.50614989 -2.36691570 -0.54533213 3 4 14753 2.85800000 2212142605 2212142605 -11.00000000
3.15775108 -4.96432114 0.51474184 12 5 14754 5.90600000 2212142607 2212142607 5.00000000
1.85909069 -2.92381525 -0.54877210 3 6 14755 3.50800000 2212142610 2212142610 -9.00000000
3.14978337 -4.95561409 0.72097903 10 7 14756 5.91600000 2212142612 2212142612 7.00000000
2.39096379 -3.76319933 -0.54743707 4 8 14757 4.49200000 2212142614 2212142614 -7.00000000
3.14939666 -4.95691633 0.93015933 14 9 14757 5.94600000 2212142617 2212142617 9.00000000
3.16496634 -4.98334312 -0.51648492 15 10 14758 5.92600000 2212142619 2212142619 -5.00000000
3.13045454 -4.93090439 1.13531351 45 11 14759 5.95000000 2212142621 2212142621 11.00000000
3.14955425 -4.96290350 -0.30804944 12 12 14760 5.88600000 2212142623 2212142623 -3.00000000
3.13274384 -4.93831921 1.35015619 10 13 14761 6.00200000 2212142626 2212142626 13.00000000
3.15059066 -4.96836901 -0.10268996 9 14 14762 5.88400000 2212142628 2212142628 -1.00000000
3.13491392 -4.94555569 1.56896102 9 15 14763 6.06200000 2212142630 2212142630 15.00000000
1.10867894 -1.75375664 -0.55594331 4 0 14770 2.14800000 2212142651 2212142651 -15.00000000
3.13637280 -4.96316910 0.10248053 11 1 14771 5.87200000 2212142653 2212142653 1.00000000
1.28843462 -2.03967810 -0.55697882 4 2 14772 2.47600000 2212142656 2212142656 -13.00000000
3.12741995 -4.95091438 0.30689806 9 3 14772 5.86400000 2212142658 2212142658 3.00000000
1.45909512 -2.31073809 -0.53121227 12 4 14773 2.78400000 2212142660 2212142660 -11.00000000
3.13295889 -4.96351957 0.51352161 12 5 14774 5.89200000 2212142663 2212142663 5.00000000
1.84887326 -2.93028688 -0.54877210 1 6 14775 3.50800000 2212142665 2212142665 -9.00000000
3.12823009 -4.95986223 0.72000408 10 7 14776 5.90800000 2212142667 2212142667 7.00000000
2.37251973 -3.76312637 -0.54621840 4 8 14777 4.48200000 2212142670 2212142670 -7.00000000
3.12364650 -4.95451164 0.92765635 21 9 14777 5.93000000 2212142672 2212142672 9.00000000
3.13905358 -4.98087597 -0.51509047 15 10 14778 5.91000000 2212142674 2212142674 -5.00000000
3.11636257 -4.94678497 1.13645840 60 11 14779 5.95600000 2212142676 2212142676 11.00000000
3.13433981 -4.97724724 -0.30825877 12 12 14780 5.89000000 2212142679 2212142679 -3.00000000
3.10718155 -4.93603086 1.34655702 9 13 14781 5.98600000 2212142681 2212142681 13.00000000
3.12470865 -4.96579647 -0.10241072 9 14 14782 5.86800000 2212142683 2212142683 -1.00000000
3.10734582 -4.94011593 1.56378472 9 15 14783 6.04200000 2212142686 2212142686 15.00000000
1.09464216 -1.74433279 -0.55180222 4 0 14789 2.13200000 2212142706 2212142706 -15.00000000
3.11883450 -4.97184849 0.10244562 11 1 14790 5.87000000 2212142709 2212142709 1.00000000
1.28062844 -2.04228854 -0.55652893 4 2 14791 2.47400000 2212142711 2212142711 -13.00000000
3.10780168 -4.95618200 0.30658403 9 3 14791 5.85800000 2212142713 2212142713 3.00000000
1.44829643 -2.31057358 -0.53006738 10 4 14792 2.77800000 2212142716 2212142716 -11.00000000
3.10907698 -4.96206331 0.51230145 12 5 14793 5.87800000 2212142718 2212142718 5.00000000
1.83600032 -2.93137932 -0.54783350 1 6 14794 3.50200000 2212142720 2212142720 -9.00000000
3.10333800 -4.95674849 0.71805418 10 7 14795 5.89200000 2212142722 2212142722 7.00000000
2.36845255 -3.78443480 -0.54816830 4 8 14796 4.49800000 2212142725 2212142725 -7.00000000
3.10300779 -4.95814466 0.92640489 9 9 14796 5.92200000 2212142727 2212142727 9.00000000
3.10561204 -4.96423244 -0.51230145 15 10 14797 5.87800000 2212142729 2212142729 -5.00000000
3.09161377 -4.94377565 1.13340545 60 11 14798 5.94000000 2212142732 2212142732 11.00000000
3.10828924 -4.97237158 -0.30731672 12 12 14799 5.87200000 2212142734 2212142734 -3.00000000
3.08046937 -4.92978144 1.34205794 9 13 14800 5.96600000 2212142736 2212142736 13.00000000
3.10186791 -4.96595478 -0.10220129 9 14 14801 5.85600000 2212142739 2212142739 -1.00000000
3.08362317 -4.93674564 1.55964351 9 15 14801 6.02600000 2212142741 2212142741 15.00000000
1.08241975 -1.73830366 -0.54869640 4 0 14809 2.12000000 2212142762 2212142762 -15.00000000
3.09195018 -4.96742582 0.10213149 11 1 14810 5.85200000 2212142764 2212142764 1.00000000
1.27658033 -2.05171013 -0.55787861 6 2 14811 2.48000000 2212142766 2212142766 -13.00000000
3.08626199 -4.96021652 0.30616534 7 3 14811 5.85000000 2212142769 2212142769 3.00000000
1.49725044 -2.40730596 -0.55105639 3 4 14812 2.88800000 2212142771 2212142771 -11.00000000
3.07700968 -4.94919729 0.50986111 12 5 14813 5.85000000 2212142773 2212142773 5.00000000
1.81845784 -2.92602611 -0.54564339 1 6 14814 3.48800000 2212142775 2212142775 -9.00000000
3.08601689 -4.96755075 0.71805418 10 7 14815 5.89200000 2212142778 2212142778 7.00000000
2.35418081 -3.79099298 -0.54792458 4 8 14816 4.49600000 2212142780 2212142780 -7.00000000
3.07630277 -4.95384312 0.92358911 9 9 14816 5.90400000 2212142782 2212142782 9.00000000
3.07985854 -4.96150064 -0.51090693 15 10 14817 5.86200000 2212142785 2212142785 -5.00000000
3.08670259 -4.97640181 -0.30689806 9 12 14819 5.86400000 2212142789 2212142789 -3.00000000
3.06221557 -4.93884802 1.34160805 8 13 14820 5.96400000 2212142792 2212142792 13.00000000
3.07924724 -4.96825361 -0.10202677 9 14 14821 5.84600000 2212142794 2212142794 -1.00000000
3.05533409 -4.93159199 1.55446720 9 15 14822 6.00600000 2212142796 2212142796 15.00000000
1.08040702 -1.74864531 -0.55076694 4 0 14829 2.12800000 2212142817 2212142817 -15.00000000
3.05777931 -4.95096636 0.10157301 11 1 14830 5.82000000 2212142819 2212142819 1.00000000
1.27964783 -2.07273555 -0.56237763 6 2 14831 2.50000000 2212142822 2212142822 -13.00000000
3.05862093 -4.95619822 0.30522329 9 3 14832 5.83200000 2212142824 2212142824 3.00000000
1.50430393 -2.43757844 -0.55678064 8 4 14832 2.91800000 2212142826 2212142826 -11.00000000
3.05343866 -4.94973373 0.50881523 12 5 14833 5.83800000 2212142828 2212142828 5.00000000
1.80408573 -2.92563033 -0.54439193 1 6 14834 3.48000000 2212142831 2212142831 -9.00000000
3.05407524 -4.95463514 0.71464181 10 7 14835 5.86400000 2212142833 2212142833 7.00000000
2.34926414 -3.81270766 -0.54987448 4 8 14836 4.51200000 2212142835 2212142835 -7.00000000
3.05070210 -4.95109701 0.92108613 9 9 14836 5.88800000 2212142838 2212142838 9.00000000
3.06043100 -4.96882820 -0.51055837 15 10 14837 5.85800000 2212142840 2212142840 -5.00000000
3.03849721 -4.93514585 1.12653625 9 11 14838 5.90400000 2212142842 2212142842 11.00000000
3.06093812 -4.97353888 -0.30606067 9 12 14839 5.84800000 2212142845 2212142845 -3.00000000
3.04087257 -4.94286776 1.33980846 8 13 14840 5.95600000 2212142847 2212142847 13.00000000
3.05455351 -4.96704817 -0.10178243 9 14 14841 5.83200000 2212142849 2212142849 -1.00000000
3.03086758 -4.92853212 1.55032611 8 15 14841 5.99000000 2212142852 2212142852 15.00000000
1.07833529 -1.75899398 -0.55283749 4 0 14849 2.13600000 2212142872 2212142872 -15.00000000
3.03838873 -4.95819998 0.10150319 11 1 14850 5.81600000 2212142875 2212142875 1.00000000
1.24492097 -2.03232241 -0.55023026 3 2 14851 2.44600000 2212142877 2212142877 -13.00000000
3.03921604 -4.96343803 0.30501395 9 3 14852 5.82800000 2212142879 2212142879 3.00000000
1.49271047 -2.43779182 -0.55563581 11 4 14852 2.91200000 2212142881 2212142881 -11.00000000
3.02990150 -4.95016575 0.50776935 12 5 14853 5.82600000 2212142884 2212142884 5.00000000
1.75056219 -2.86113954 -0.53125143 4 6 14854 3.39600000 2212142886 2212142886 -9.00000000
3.02744007 -4.95002413 0.71244818 10 7 14855 5.84600000 2212142888 2212142888 7.00000000
2.32558680 -3.80394840 -0.54743707 4 8 14856 4.49200000 2212142891 2212142891 -7.00000000
3.02841449 -4.95550299 0.91983467 9 9 14857 5.88000000 2212142893 2212142893 9.00000000
3.04306793 -4.97948122 -0.51055837 15 10 14857 5.85800000 2212142895 2212142895 -5.00000000
3.01204085 -4.93064404 1.12310171 12 11 14858 5.88600000 2212142898 2212142898 11.00000000
3.03106809 -4.96373844 -0.30480462 9 12 14859 5.82400000 2212142900 2212142900 -3.00000000
3.01344705 -4.93681908 1.33530951 8 13 14860 5.93600000 2212142902 2212142902 13.00000000
3.03407192 -4.97255898 -0.10167772 9 14 14861 5.82600000 2212142905 2212142905 -1.00000000
3.00674772 -4.92971230 1.54722023 8 15 14862 5.97800000 2212142907 2212142907 15.00000000
1.07018077 -1.75944638 -0.55180222 4 0 14869 2.13200000 2212142928 2212142928 -15.00000000
3.01067424 -4.95168924 0.10115415 11 1 14870 5.79600000 2212142930 2212142930 1.00000000
1.23579502 -2.03332496 -0.54933047 3 2 14871 2.44200000 2212142932 2212142932 -13.00000000
3.00631666 -4.94841242 0.30344388 7 3 14872 5.79800000 2212142934 2212142934 3.00000000
1.47501755 -2.42788649 -0.55220121 5 4 14872 2.89400000 2212142937 2212142937 -11.00000000
3.01156950 -4.95900917 0.50759506 12 5 14873 5.82400000 2212142939 2212142939 5.00000000
1.72211313 -2.83683801 -0.52561980 13 6 14874 3.36000000 2212142941 2212142941 -9.00000000
3.01117253 -4.96225882 0.71269190 10 7 14875 5.84800000 2212142944 2212142944 7.00000000
2.30508757 -3.80016208 -0.54573095 4 8 14876 4.47800000 2212142946 2212142946 -7.00000000
3.00479341 -4.95369577 0.91764456 9 9 14876 5.86600000 2212142948 2212142948 9.00000000
3.01223874 -4.96792507 -0.50829232 14 10 14877 5.83200000 2212142951 2212142951 -5.00000000
2.99379373 -4.93944883 1.12272012 12 11 14878 5.88400000 2212142953 2212142953 11.00000000
3.00751328 -4.96403933 -0.30417657 9 12 14879 5.81200000 2212142955 2212142955 -3.00000000
2.97802496 -4.91730404 1.32721126 8 13 14880 5.90000000 2212142958 2212142958 13.00000000
3.00323319 -4.96088123 -0.10122396 9 14 14881 5.80000000 2212142960 2212142960 -1.00000000
2.98538136 -4.93139267 1.54463208 8 15 14881 5.96800000 2212142962 2212142962 15.00000000
1.06203640 -1.75986326 -0.55076694 4 0 14889 2.12800000 2212142983 2212142983 -15.00000000
2.99750280 -4.96901703 0.10129377 11 1 14890 5.80400000 2212142985 2212142985 1.00000000
1.23271501 -2.04430175 -0.55113006 3 2 14891 2.45000000 2212142987 2212142987 -13.00000000
2.99211836 -4.96400785 0.30375788 9 3 14892 5.80400000 2212142990 2212142990 3.00000000
1.45133126 -2.40779924 -0.54647696 3 4 14892 2.86400000 2212142992 2212142992 -11.00000000
2.97984576 -4.94559956 0.50515467 12 5 14893 5.79600000 2212142994 2212142994 5.00000000
1.74481356 -2.89698124 -0.53563160 6 6 14894 3.42400000 2212142997 2212142997 -9.00000000
2.98768950 -4.96253586 0.71122950 10 7 14895 5.83600000 2212142999 2212142999 7.00000000
2.29590297 -3.81498861 -0.54670590 2 8 14896 4.48600000 2212143001 2212143001 -7.00000000
2.97134280 -4.93928528 0.91295153 9 9 14897 5.83600000 2212143004 2212143004 9.00000000
2.98768973 -4.96645880 -0.50707209 14 10 14897 5.81800000 2212143006 2212143006 -5.00000000
2.97552180 -4.94818640 1.12233853 12 11 14898 5.88200000 2212143008 2212143008 11.00000000
2.99119616 -4.97621870 -0.30428123 12 12 14899 5.81400000 2212143010 2212143010 -3.00000000
2.95983863 -4.92599869 1.32676136 8 13 14900 5.89800000 2212143013 2212143013 13.00000000
2.98177981 -4.96447754 -0.10108434 9 14 14901 5.79200000 2212143015 2212143015 -1.00000000
2.95833731 -4.92739534 1.53997326 8 15 14902 5.95000000 2212143017 2212143017 15.00000000
1.04993260 -1.75361478 -0.54766113 4 0 14909 2.11600000 2212143038 2212143038 -15.00000000
2.97089720 -4.96400738 0.10097963 11 1 14910 5.78600000 2212143040 2212143040 1.00000000
1.22557151 -2.04859209 -0.55113006 4 2 14911 2.45000000 2212143043 2212143043 -13.00000000
2.96964693 -4.96585131 0.30323452 9 3 14912 5.79400000 2212143045 2212143045 3.00000000
1.43687189 -2.40274096 -0.54418725 3 4 14912 2.85200000 2212143047 2212143047 -11.00000000
2.95234132 -4.93886948 0.50341159 9 5 14913 5.77600000 2212143050 2212143050 5.00000000
1.75900865 -2.94375110 -0.54314047 3 6 14914 3.47200000 2212143052 2212143052 -9.00000000
2.96831298 -4.96952581 0.71074200 10 7 14915 5.83200000 2212143054 2212143054 7.00000000
2.28562498 -3.82809281 -0.54743707 2 8 14916 4.49200000 2212143057 2212143057 -7.00000000
2.95089674 -4.94232702 0.91170007 9 9 14916 5.82800000 2212143059 2212143059 9.00000000
2.96216679 -4.96317053 -0.50567764 14 10 14917 5.80200000 2212143061 2212143061 -5.00000000
2.95219612 -4.94842672 1.12004876 12 11 14918 5.87000000 2212143063 2212143063 11.00000000
2.97073865 -4.98148346 -0.30396724 9 12 14919 5.80800000 2212143066 2212143066 -3.00000000
2.94062996 -4.93295288 1.32586157 8 13 14920 5.89400000 2212143068 2212143068 13.00000000
2.95317245 -4.95595932 -0.10070039 9 14 14921 5.77000000 2212143070 2212143070 -1.00000000
2.93308091 -4.92224216 1.53531456 8 15 14921 5.93200000 2212143073 2212143073 15.00000000
1.04873776 -1.76557374 -0.55024928 4 0 14929 2.12600000 2212143093 2212143093 -15.00000000
2.94538403 -4.96059179 0.10070039 10 1 14930 5.77000000 2212143096 2212143096 1.00000000
1.21841323 -2.05285764 -0.55113006 3 2 14931 2.45000000 2212143098 2212143098 -13.00000000
2.94719934 -4.96759892 0.30271116 9 3 14932 5.78400000 2212143100 2212143100 3.00000000
1.43248284 -2.41449571 -0.54571372 2 4 14932 2.86000000 2212143103 2212143103 -11.00000000
2.93406725 -4.94743156 0.50323725 12 5 14933 5.77400000 2212143105 2212143105 5.00000000
1.75879562 -2.96686578 -0.54626918 3 6 14934 3.49200000 2212143107 2212143107 -9.00000000
2.93981600 -4.96107149 0.70806086 10 7 14935 5.81000000 2212143110 2212143110 7.00000000
2.27528358 -3.84117174 -0.54816830 2 8 14936 4.49800000 2212143112 2212143112 -7.00000000
2.92974305 -4.94800997 0.91076148 9 9 14937 5.82200000 2212143114 2212143114 9.00000000
2.94177866 -4.96833706 -0.50515467 14 10 14937 5.79600000 2212143116 2212143116 -5.00000000
2.92390513 -4.94011736 1.11585104 12 11 14938 5.84800000 2212143119 2212143119 11.00000000
2.94417906 -4.97635269 -0.30302519 12 12 14939 5.79000000 2212143121 2212143121 -3.00000000
2.92140889 -4.93983269 1.32496166 8 13 14940 5.89000000 2212143123 2212143123 13.00000000
2.93280196 -4.96107340 -0.10059567 9 14 14941 5.76400000 2212143126 2212143126 -1.00000000
2.90715790 -4.91965389 1.53117347 8 15 14942 5.91600000 2212143128 2212143128 15.00000000
1.04354918 -1.77088821 -0.55076694 4 0 14949 2.12800000 2212143149 2212143149 -15.00000000
2.92297578 -4.96222830 0.10052586 10 1 14950 5.76000000 2212143151 2212143151 1.00000000
1.20728493 -2.05038118 -0.54933047 3 2 14951 2.44200000 2212143153 2212143153 -13.00000000
2.92072368 -4.96236467 0.30176914 9 3 14952 5.76600000 2212143156 2212143156 3.00000000
1.42603767 -2.42286515 -0.54647696 2 4 14952 2.86400000 2212143158 2212143158 -11.00000000
2.91374850 -4.95249128 0.50271434 12 5 14953 5.76800000 2212143160 2212143160 5.00000000
1.75143278 -2.97809529 -0.54720777 7 6 14954 3.49800000 2212143163 2212143163 -9.00000000
2.91342664 -4.95590162 0.70586723 10 7 14955 5.79200000 2212143165 2212143165 7.00000000
2.24878716 -3.82684135 -0.54499972 2 8 14956 4.47200000 2212143167 2212143167 -7.00000000
2.90931559 -4.95088577 0.90950996 9 9 14956 5.81400000 2212143169 2212143169 9.00000000
2.91937256 -4.96998596 -0.50428313 14 10 14957 5.78600000 2212143172 2212143172 -5.00000000
2.89869070 -4.93674946 1.11279809 12 11 14958 5.83200000 2212143174 2212143174 11.00000000
2.91769171 -4.97109699 -0.30208313 12 12 14959 5.77200000 2212143176 2212143176 -3.00000000
2.89231420 -4.92983055 1.31956291 8 13 14960 5.86600000 2212143179 2212143179 13.00000000
2.91344357 -4.96783066 -0.10052586 9 14 14961 5.76000000 2212143181 2212143181 -1.00000000
2.88887310 -4.92593479 1.53013825 8 15 14961 5.91200000 2212143183 2212143183 15.00000000
1.04028618 -1.77952337 -0.55231982 4 0 14969 2.13400000 2212143204 2212143204 -15.00000000
2.90059209 -4.96376848 0.10035133 10 1 14970 5.75000000 2212143206 2212143206 1.00000000
1.20405197 -2.06131387 -0.55113006 3 2 14971 2.45000000 2212143209 2212143209 -13.00000000
2.89734149 -4.96218109 0.30114108 9 3 14972 5.75400000 2212143211 2212143211 3.00000000
1.41559172 -2.42443728 -0.54571372 3 4 14972 2.86000000 2212143213 2212143213 -11.00000000
2.89142179 -4.95402861 0.50184274 12 5 14973 5.75800000 2212143216 2212143216 5.00000000
1.73804033 -2.97907209 -0.54626918 3 6 14974 3.49200000 2212143218 2212143218 -9.00000000
2.89110947 -4.95746708 0.70464855 10 7 14975 5.78200000 2212143220 2212143220 7.00000000
2.23541546 -3.83466792 -0.54499972 2 8 14976 4.47200000 2212143222 2212143222 -7.00000000
2.89015555 -4.95980883 0.90919709 9 9 14977 5.81200000 2212143225 2212143225 9.00000000
2.90300918 -4.98186731 -0.50445741 14 10 14977 5.78800000 2212143227 2212143227 -5.00000000
2.88242865 -4.94853449 1.11317968 12 11 14978 5.83400000 2212143229 2212143229 11.00000000
2.88926697 -4.96226549 -0.30093175 12 12 14979 5.75000000 2212143232 2212143232 -3.00000000
2.86724639 -4.92642260 1.31596363 8 13 14980 5.85000000 2212143234 2212143234 13.00000000
2.88804007 -4.96414232 -0.10024662 9 14 14981 5.74400000 2212143236 2212143236 -1.00000000
2.86691451 -4.92981005 1.52806759 8 15 14982 5.90400000 2212143239 2212143239 15.00000000
1.03019166 -1.77645910 -0.55024928 4 0 14989 2.12600000 2212143259 2212143259 -15.00000000
2.88124180 -4.97040272 0.10028153 7 1 14990 5.74600000 2212143262 2212143262 1.00000000
1.19391823 -2.06044579 -0.54978037 4 2 14991 2.44400000 2212143264 2212143264 -13.00000000
2.86999202 -4.95498180 0.30009437 4 3 14992 5.73400000 2212143266 2212143266 3.00000000
1.40712023 -2.42936397 -0.54571372 3 4 14992 2.86000000 2212143269 2212143269 -11.00000000
2.85614204 -4.93305492 0.49870515 9 5 14993 5.72200000 2212143271 2212143271 5.00000000
1.72565186 -2.98170137 -0.54564339 1 6 14994 3.48800000 2212143273 2212143273 -9.00000000
2.87676907 -4.97268343 0.70537978 10 7 14995 5.78800000 2212143275 2212143275 7.00000000
2.23195362 -3.85963202 -0.54743707 2 8 14996 4.49200000 2212143278 2212143278 -7.00000000
2.85688138 -4.94029522 0.90387833 9 9 14996 5.77800000 2212143280 2212143280 9.00000000
2.87363648 -4.97127151 -0.50236571 14 10 14997 5.76400000 2212143282 2212143282 -5.00000000
2.86317301 -4.95516586 1.11241639 12 11 14998 5.83000000 2212143285 2212143285 11.00000000
2.87991929 -4.98615646 -0.30176914 12 12 14999 5.76600000 2212143287 2212143287 -3.00000000
2.84808373 -4.93302584 1.31506383 8 13 15000 5.84600000 2212143289 2212143289 13.00000000
2.85670090 -4.94994593 -0.09975795 6 14 15001 5.71600000 2212143292 2212143292 -1.00000000
2.84186029 -4.92423105 1.52340889 8 15 15001 5.88600000 2212143294 2212143294 15.00000000
1.01916790 -1.77167153 -0.54766113 4 0 15009 2.11600000 2212143315 2212143315 -15.00000000
2.84194422 -4.94229221 0.09951362 21 1 15010 5.70200000 2212143317 2212143317 1.00000000
1.19060314 -2.07135892 -0.55158001 3 2 15011 2.45200000 2212143319 2212143319 -13.00000000
2.84372354 -4.94938374 0.29915231 28 3 15012 5.71600000 2212143322 2212143322 3.00000000
1.39863169 -2.43426085 -0.54571372 3 4 15012 2.86000000 2212143324 2212143324 -11.00000000
2.83890510 -4.94299459 0.49870515 30 5 15013 5.72200000 2212143326 2212143326 5.00000000
1.71818376 -2.99284625 -0.54658204 1 6 15014 3.49400000 2212143328 2212143328 -9.00000000
2.85346556 -4.97236490 0.70391732 10 7 15015 5.77600000 2212143331 2212143331 7.00000000
2.20266366 -3.83984900 -0.54353726 4 8 15016 4.46000000 2212143333 2212143333 -7.00000000
2.83961892 -4.95023775 0.90387833 9 9 15016 5.77800000 2212143335 2212143335 9.00000000
2.84635520 -4.96398783 -0.50062257 14 10 15017 5.74400000 2212143338 2212143338 -5.00000000
2.83609605 -4.94809723 1.10860026 12 11 15018 5.81000000 2212143340 2212143340 11.00000000
2.83668160 -4.95112133 -0.29904765 15 12 15019 5.71400000 2212143342 2212143342 -3.00000000
2.83443737 -4.95121050 -0.09958343 24 14 15021 5.70600000 2212143347 2212143347 -1.00000000
2.83041286 -4.94418049 1.52651477 40 15 15021 5.89800000 2212143349 2212143349 15.00000000
1.01393485 -1.77689624 -0.54817873 4 0 15029 2.11800000 2212143370 2212143370 -15.00000000
2.82071209 -4.94523478 0.09937400 15 1 15030 5.69400000 2212143372 2212143372 1.00000000
1.17757416 -2.06534481 -0.54888058 3 2 15031 2.44000000 2212143375 2212143375 -13.00000000
2.83566260 -4.97548056 -1.11317968 3 4 15032 5.83400000 2212143379 2212143379 -11.00000000
2.82698607 -4.96428347 -0.90481693 4 6 15034 5.78400000 2212143384 2212143384 -9.00000000
2.81841493 -4.95124197 0.69953001 10 7 15035 5.74000000 2212143386 2212143386 7.00000000
2.19513702 -3.85786629 -0.54499972 4 8 15036 4.47200000 2212143388 2212143388 -7.00000000
2.81754994 -4.95374393 0.90262687 23 9 15037 5.77000000 2212143391 2212143391 9.00000000
2.82704043 -4.97042942 -0.50027394 14 10 15037 5.74000000 2212143393 2212143393 -5.00000000
2.81642127 -4.95578384 -0.29873365 24 12 15039 5.70800000 2212143398 2212143398 -3.00000000
2.82608891 -4.97481632 1.32091260 39 13 15040 5.87200000 2212143400 2212143400 13.00000000
2.82649231 -4.97754908 1.53376162 36 15 15041 5.92600000 2212143404 2212143404 15.00000000
1.00582290 -1.77706230 -0.54714346 4 0 15049 2.11400000 2212143425 2212143425 -15.00000000
1.16843903 -2.06605029 -0.54798079 3 2 15051 2.43600000 2212143430 2212143430 -13.00000000
2.79337502 -4.94129753 0.29747757 7 3 15052 5.68400000 2212143432 2212143432 3.00000000
1.38160336 -2.44396567 -0.54571372 3 4 15052 2.86000000 2212143434 2212143434 -11.00000000
2.79452562 -4.94534731 0.49696204 9 5 15053 5.70200000 2212143437 2212143437 5.00000000
1.69044745 -2.99272871 -0.54439193 1 6 15054 3.48000000 2212143439 2212143439 -9.00000000
2.80989861 -4.97660685 0.70172369 7 7 15055 5.75800000 2212143441 2212143441 7.00000000
2.18165708 -3.86550522 -0.54499972 2 8 15056 4.47200000 2212143444 2212143444 -7.00000000
2.81868267 -4.99623775 0.90857136 42 9 15057 5.80800000 2212143446 2212143446 9.00000000
2.80379915 -4.96985579 -0.49922809 14 10 15057 5.72800000 2212143448 2212143448 -5.00000000
2.81691289 -4.99513721 1.11470616 45 11 15058 5.84200000 2212143451 2212143451 11.00000000
2.81827283 -5.00162840 1.32541156 45 13 15060 5.89200000 2212143455 2212143455 13.00000000
2.78900766 -4.95171213 -0.09919948 6 14 15061 5.68400000 2212143457 2212143457 -1.00000000
2.82528949 -5.01817608 1.54307914 38 15 15062 5.96200000 2212143460 2212143460 15.00000000
1.00907075 -1.79740787 -0.55231982 4 0 15069 2.13400000 2212143481 2212143481 -15.00000000
2.77339721 -4.94213581 0.09892024 5 1 15070 5.66800000 2212143483 2212143483 1.00000000
1.16121995 -2.07011628 -0.54798079 3 2 15071 2.43600000 2212143485 2212143485 -13.00000000
2.80248356 -4.99805450 0.30030373 2 3 15072 5.73800000 2212143487 2212143487 3.00000000
1.36922312 -2.44192386 -0.54418725 3 4 15072 2.85200000 2212143490 2212143490 -11.00000000
2.79088402 -4.97940397 0.49940240 3 5 15073 5.73000000 2212143492 2212143492 5.00000000
1.68095601 -3.00033450 -0.54470479 1 6 15074 3.48200000 2212143494 2212143494 -9.00000000
2.80802917 -5.01409674 0.70562351 7 7 15075 5.79000000 2212143497 2212143497 7.00000000
2.17202926 -3.88002586 -0.54597467 2 8 15076 4.48000000 2212143499 2212143499 -7.00000000
2.81087160 -5.02328444 0.91170007 42 9 15077 5.82800000 2212143501 2212143501 9.00000000
2.78837991 -4.98308992 -0.49957672 14 10 15077 5.73200000 2212143504 2212143504 -5.00000000
2.81096005 -5.02550077 1.11928558 42 11 15078 5.86600000 2212143506 2212143506 11.00000000
2.77103353 -4.95614910 -0.29758224 6 12 15079 5.68600000 2212143508 2212143508 -3.00000000
2.81600809 -5.03865290 1.33261001 43 13 15080 5.92400000 2212143510 2212143510 13.00000000
2.80096412 -5.01378965 -0.10024662 2 14 15081 5.74400000 2212143513 2212143513 -1.00000000
2.82747674 -5.06124783 1.55343187 38 15 15081 6.00200000 2212143515 2212143515 15.00000000
0.99339229 -1.78404081 -0.54714346 4 0 15089 2.11400000 2212143536 2212143536 -15.00000000
2.77849722 -4.99197388 0.09972305 10 1 15090 5.71400000 2212143538 2212143538 1.00000000
1.15777671 -2.08096862 -0.54978037 3 2 15091 2.44400000 2212143540 2212143540 -13.00000000
2.77725434 -4.99384260 0.29946634 9 3 15092 5.72200000 2212143543 2212143543 3.00000000
1.36641610 -2.45698309 -0.54647696 2 4 15092 2.86400000 2212143545 2212143545 -11.00000000
2.78800654 -5.01523685 0.50201708 9 5 15093 5.76000000 2212143547 2212143547 5.00000000
1.67718911 -3.01827073 -0.54689491 1 6 15094 3.49600000 2212143550 2212143550 -9.00000000
2.80978775 -5.05857563 0.71049827 7 7 15095 5.83000000 2212143552 2212143552 7.00000000
2.17196274 -3.91188145 -0.54938698 2 8 15096 4.50800000 2212143554 2212143554 -7.00000000
2.80674005 -5.05724669 0.91608024 42 9 15097 5.85600000 2212143557 2212143557 9.00000000
2.77193546 -4.99453497 -0.49975103 10 10 15097 5.73400000 2212143559 2212143559 -5.00000000
2.81625843 -5.07648468 1.12844443 42 11 15098 5.91400000 2212143561 2212143561 11.00000000
2.77211976 -4.99897861 -0.29957101 9 12 15099 5.72400000 2212143563 2212143563 -3.00000000
2.82107711 -5.08935785 1.34340775 43 13 15100 5.97200000 2212143566 2212143566 13.00000000
2.76793885 -4.99555016 -0.09968814 13 14 15101 5.71200000 2212143568 2212143568 -1.00000000
2.82477283 -5.09812355 1.56171417 36 15 15101 6.03400000 2212143570 2212143570 15.00000000
0.98529094 -1.78411531 -0.54610819 4 0 15109 2.11000000 2212143591 2212143591 -15.00000000
2.78618193 -5.04715967 0.10063057 7 1 15110 5.76600000 2212143593 2212143593 1.00000000
1.15238869 -2.08840990 -0.55068016 3 2 15111 2.44800000 2212143596 2212143596 -13.00000000
2.79638147 -5.06772661 0.30333921 7 3 15111 5.79600000 2212143598 2212143598 3.00000000
1.35024571 -2.44798517 -0.54342401 3 4 15112 2.84800000 2212143600 2212143600 -11.00000000
2.79453230 -5.06855726 0.50637484 9 5 15113 5.81000000 2212143603 2212143603 5.00000000
1.66187584 -3.01545668 -0.54533052 1 6 15114 3.48600000 2212143605 2212143605 -9.00000000
2.80743837 -5.09617186 0.71439809 7 7 15115 5.86200000 2212143607 2212143607 7.00000000
2.12956834 -3.86727262 -0.54207486 2 8 15116 4.44800000 2212143609 2212143609 -7.00000000
2.80901122 -5.10113382 0.92233759 42 9 15116 5.89600000 2212143612 2212143612 9.00000000
2.77562118 -5.04258013 -0.50358588 10 10 15117 5.77800000 2212143614 2212143614 -5.00000000
2.81366348 -5.11380577 1.13455033 48 11 15118 5.94600000 2212143616 2212143616 11.00000000
2.77101541 -5.03837538 -0.30135044 9 12 15119 5.75800000 2212143619 2212143619 -3.00000000
2.81643820 -5.12308216 1.34970629 18 13 15120 6.00000000 2212143621 2212143621 13.00000000
2.78804350 -5.07352972 -0.10104943 6 14 15121 5.79000000 2212143623 2212143623 -1.00000000
2.81812453 -5.12826920 1.56792581 36 15 15121 6.05800000 2212143626 2212143626 15.00000000
0.98276925 -1.79432118 -0.54817873 4 0 15129 2.11800000 2212143646 2212143646 -15.00000000
2.78583241 -5.08842707 0.10125886 8 1 15130 5.80200000 2212143649 2212143649 1.00000000
1.13947856 -2.08216286 -0.54798079 3 2 15131 2.43600000 2212143651 2212143651 -13.00000000
2.79695892 -5.11298609 0.30543265 7 3 15132 5.83600000 2212143653 2212143653 3.00000000
1.34922993 -2.46646261 -0.54647696 3 4 15132 2.86400000 2212143656 2212143656 -11.00000000
2.79594040 -5.11324358 0.50986111 9 5 15133 5.85000000 2212143658 2212143658 5.00000000
1.64660275 -3.01257253 -0.54376620 1 6 15134 3.47600000 2212143660 2212143660 -9.00000000
2.80676413 -5.13729763 0.71878541 7 7 15135 5.89800000 2212143662 2212143662 7.00000000
2.07228875 -3.79454088 -0.53086287 8 8 15136 4.35600000 2212143665 2212143665 -7.00000000
2.80733299 -5.14260435 0.92796922 30 9 15137 5.93200000 2212143667 2212143667 9.00000000
2.77804995 -5.08896255 -0.50724643 10 10 15137 5.82000000 2212143669 2212143669 -5.00000000
2.81272292 -5.15461683 1.14141941 42 11 15138 5.98200000 2212143672 2212143672 11.00000000
2.78018999 -5.09711218 -0.30428123 9 12 15139 5.81400000 2212143674 2212143674 -3.00000000
2.82559061 -5.18249989 1.36275351 9 13 15140 6.05800000 2212143676 2212143676 13.00000000
2.79232597 -5.12361574 -0.10185225 6 14 15141 5.83600000 2212143679 2212143679 -1.00000000
2.81871700 -5.17418957 1.57879615 40 15 15142 6.10000000 2212143681 2212143681 15.00000000
0.97404647 -1.79247808 -0.54662585 4 0 15148 2.11200000 2212143702 2212143702 -15.00000000
2.78612375 -5.12926674 0.10188715 8 1 15149 5.83800000 2212143704 2212143704 1.00000000
1.13070786 -2.08250475 -0.54708099 3 2 15150 2.43200000 2212143706 2212143706 -13.00000000
2.79613042 -5.14983130 0.30710739 7 3 15150 5.86800000 2212143709 2212143709 3.00000000
1.33729756 -2.46402121 -0.54495049 2 4 15151 2.85600000 2212143711 2212143711 -11.00000000
2.80082059 -5.16276646 0.51387024 9 5 15152 5.89600000 2212143713 2212143713 5.00000000
1.63095367 -3.00759745 -0.54188901 1 6 15153 3.46400000 2212143715 2212143715 -9.00000000
2.80674052 -5.17799044 0.72317266 7 7 15154 5.93400000 2212143718 2212143718 7.00000000
2.07955337 -3.83804440 -0.53598136 10 8 15155 4.39800000 2212143720 2212143720 -7.00000000
2.81566429 -5.19878387 0.93641669 7 9 15156 5.98600000 2212143722 2212143722 9.00000000
2.77159643 -5.11741829 -0.50916386 10 10 15156 5.84200000 2212143725 2212143725 -5.00000000
2.81617713 -5.20189857 1.14981496 43 11 15157 6.02600000 2212143727 2212143727 11.00000000
2.78038216 -5.13792181 -0.30616534 9 12 15158 5.85000000 2212143729 2212143729 -3.00000000
2.79148889 -5.16275072 -0.10244562 9 14 15160 5.87000000 2212143734 2212143734 -1.00000000
2.81898713 -5.21360731 1.58811367 36 15 15160 6.13600000 2212143736 2212143736 15.00000000
0.97328240 -1.80607104 -0.54973167 4 0 15168 2.12400000 2212143757 2212143757 -15.00000000
2.78906584 -5.17769241 0.10265505 8 1 15169 5.88200000 2212143759 2212143759 1.00000000
1.12527943 -2.08987069 -0.54798079 3 2 15170 2.43600000 2212143761 2212143761 -13.00000000
2.78760576 -5.17714596 0.30815411 7 3 15170 5.88800000 2212143764 2212143764 3.00000000
1.32310569 -2.45830154 -0.54266077 3 4 15171 2.84400000 2212143766 2212143766 -11.00000000
2.79788542 -5.20058489 0.51665926 9 5 15172 5.92800000 2212143768 2212143768 5.00000000
1.62699449 -3.02545047 -0.54407907 1 6 15173 3.47800000 2212143771 2212143771 -9.00000000
2.80744672 -5.22272587 0.72804743 7 7 15174 5.97400000 2212143773 2212143773 7.00000000
2.08587480 -3.88200164 -0.54109991 8 8 15175 4.44000000 2212143775 2212143775 -7.00000000
2.81058550 -5.23294449 0.94079685 10 9 15176 6.01400000 2212143778 2212143778 9.00000000
2.77257109 -5.16216660 -0.51265007 11 10 15176 5.88200000 2212143780 2212143780 -5.00000000
2.81750345 -5.24802160 1.15782893 37 11 15177 6.06800000 2212143782 2212143782 11.00000000
2.78037453 -5.18103313 -0.30815411 21 12 15178 5.88800000 2212143785 2212143785 -3.00000000
2.81143641 -5.24110985 1.37310123 43 13 15179 6.10400000 2212143787 2212143787 13.00000000
2.78573489 -5.19537354 -0.10289939 9 14 15180 5.89600000 2212143789 2212143789 -1.00000000
2.82633209 -5.27108717 1.60260749 38 15 15180 6.19200000 2212143791 2212143791 15.00000000
0.96333003 -1.80264211 -0.54766113 4 0 15188 2.11600000 2212143812 2212143812 -15.00000000
2.79170346 -5.22620058 0.10342296 8 1 15189 5.92600000 2212143814 2212143814 1.00000000
1.11981332 -2.09722400 -0.54888058 3 2 15190 2.44000000 2212143817 2212143817 -13.00000000
2.78836083 -5.22432995 0.31035221 7 3 15191 5.93000000 2212143819 2212143819 3.00000000
1.31266773 -2.45944118 -0.54189754 2 4 15191 2.84000000 2212143821 2212143821 -11.00000000
2.79753351 -5.24371910 0.51997113 9 5 15192 5.96600000 2212143824 2212143824 5.00000000
1.61642373 -3.03111148 -0.54407907 1 6 15193 3.47800000 2212143826 2212143826 -9.00000000
2.81160951 -5.27453613 0.73389721 7 7 15194 6.02200000 2212143828 2212143828 7.00000000
2.12085199 -3.98035884 -0.55377430 6 8 15195 4.54400000 2212143831 2212143831 -7.00000000
2.80715060 -5.26838589 0.94548988 22 9 15195 6.04400000 2212143833 2212143833 9.00000000
2.77794981 -5.21577597 -0.51700789 11 10 15196 5.93200000 2212143835 2212143835 -5.00000000
2.81761909 -5.29248381 1.16546130 34 11 15197 6.10800000 2212143838 2212143838 11.00000000
2.76884031 -5.20304871 -0.30888683 25 12 15198 5.90200000 2212143840 2212143840 -3.00000000
2.81691909 -5.29562426 1.38479865 39 13 15199 6.15600000 2212143842 2212143842 13.00000000
2.76382756 -5.19800377 -0.10275977 24 14 15200 5.88800000 2212143844 2212143844 -1.00000000
