# .PCD v0.7 - Point Cloud Data file format
VERSION 0.7
FIELDS x y z intensity laser_id azimuth distance_m adjustedtime timestamp vertical_angle
SIZE 4 4 4 1 1 2 8 8 4 8
TYPE F F F U U U F U U F
COUNT 1 1 1 1 1 1 1 1 1 1
WIDTH 528
HEIGHT 1
VIEWPOINT 0 0 0 1 0 0 0
POINTS 528
DATA ascii
19.62501907 -2.69527245 3.85052562 42 11 9782 20.18000000 2212328858 2212328858 11.00000000
8.10647964 -1.11477411 -0.42884082 17 12 9783 8.19400000 2212328861 2212328861 -3.00000000
16.83803940 -2.31850123 3.92404628 36 13 9784 17.44400000 2212328863 2212328863 13.00000000
8.08626366 -1.11487019 -0.14248145 16 14 9785 8.16400000 2212328865 2212328865 -1.00000000
8.13534451 -1.12163699 2.20047951 47 15 9785 8.50200000 2212328868 2212328868 15.00000000
2.18316436 -0.30410430 -0.59062505 4 0 9793 2.28200000 2212328888 2212328888 -15.00000000
8.07658005 -1.12646580 0.14234182 12 1 9794 8.15600000 2212328891 2212328891 1.00000000
2.56884480 -0.35874185 -0.59881973 5 2 9795 2.66200000 2212328893 2212328893 -13.00000000
8.11184120 -1.13427055 0.42925951 13 3 9796 8.20200000 2212328895 2212328895 3.00000000
3.08372068 -0.43119353 -0.60524613 5 4 9796 3.17200000 2212328898 2212328898 -11.00000000
8.09186554 -1.13291728 0.71485138 83 5 9797 8.20200000 2212328900 2212328900 5.00000000
3.84402800 -0.53887463 -0.61478746 4 6 9798 3.93000000 2212328902 2212328902 -9.00000000
8.09918499 -1.13682485 1.00420344 90 7 9799 8.24000000 2212328905 2212328905 7.00000000
5.12673712 -0.72051597 -0.63567048 4 8 9800 5.21600000 2212328907 2212328907 -7.00000000
8.20390224 -1.15444338 1.31217229 7 9 9801 8.38800000 2212328909 2212328909 9.00000000
6.56598139 -0.92395717 -0.58010864 16 10 9801 6.65600000 2212328911 2212328911 -5.00000000
19.62326622 -2.76485586 3.85205197 38 11 9802 20.18800000 2212328914 2212328914 11.00000000
8.09265041 -1.14166915 -0.42831746 17 12 9803 8.18400000 2212328916 2212328916 -3.00000000
16.83563232 -2.37808061 3.92539597 34 13 9804 17.45000000 2212328918 2212328918 13.00000000
8.07638264 -1.14224958 -0.14237674 20 14 9805 8.15800000 2212328921 2212328921 -1.00000000
8.14456749 -1.15334308 2.20410299 47 15 9806 8.51600000 2212328923 2212328923 15.00000000
2.18973923 -0.31281590 -0.59269559 4 0 9813 2.29000000 2212328944 2212328944 -15.00000000
8.08051682 -1.15578401 0.14248145 12 1 9814 8.16400000 2212328946 2212328946 1.00000000
2.55986071 -0.36660156 -0.59702009 5 2 9815 2.65400000 2212328948 2212328948 -13.00000000
8.10387897 -1.16201222 0.42905018 13 3 9816 8.19800000 2212328951 2212328951 3.00000000
3.07247996 -0.44056180 -0.60333806 5 4 9816 3.16200000 2212328953 2212328953 -11.00000000
8.09772301 -1.16257203 0.71572298 90 5 9817 8.21200000 2212328955 2212328955 5.00000000
3.83430243 -0.55116528 -0.61353600 6 6 9818 3.92200000 2212328958 2212328958 -9.00000000
8.09320259 -1.16480649 1.00395966 90 7 9819 8.23800000 2212328960 2212328960 7.00000000
5.10257816 -0.73529273 -0.63298935 4 8 9820 5.19400000 2212328962 2212328962 -7.00000000
8.19611835 -1.18107867 1.31154656 7 9 9820 8.38400000 2212328964 2212328964 9.00000000
6.57651997 -0.94886273 -0.58132881 8 10 9821 6.67000000 2212328967 2212328967 -5.00000000
19.61932564 -2.83417892 3.85319686 38 11 9822 20.19400000 2212328969 2212328969 11.00000000
8.08466244 -1.16933906 -0.42810813 21 12 9823 8.18000000 2212328971 2212328971 -3.00000000
16.82722855 -2.43683338 3.92539597 36 13 9824 17.45000000 2212328974 2212328974 13.00000000
8.09411526 -1.17359090 -0.14276068 16 14 9825 8.18000000 2212328976 2212328976 -1.00000000
8.14834595 -1.18145394 2.20617366 47 15 9825 8.52400000 2212328978 2212328978 15.00000000
2.19245696 -0.32101735 -0.59373087 4 0 9833 2.29400000 2212328999 2212328999 -15.00000000
8.09226227 -1.18630362 0.14276068 12 1 9834 8.18000000 2212329001 2212329001 1.00000000
2.55856538 -0.37553489 -0.59702009 4 2 9835 2.65400000 2212329004 2212329004 -13.00000000
8.10372543 -1.19087374 0.42925951 15 3 9836 8.20200000 2212329006 2212329006 3.00000000
3.07286572 -0.45156950 -0.60371965 5 4 9836 3.16400000 2212329008 2212329008 -11.00000000
8.10149956 -1.19199133 0.71642023 76 5 9837 8.22000000 2212329011 2212329011 5.00000000
3.83430934 -0.56483400 -0.61384887 6 6 9838 3.92400000 2212329013 2212329013 -9.00000000
8.09105206 -1.19333959 1.00420344 90 7 9839 8.24000000 2212329015 2212329015 7.00000000
5.10390806 -0.75367957 -0.63347685 4 8 9840 5.19800000 2212329017 2212329017 -7.00000000
8.19564247 -1.21168888 1.31217229 7 9 9841 8.38800000 2212329020 2212329020 9.00000000
8.06715965 -1.19269311 -0.71345693 17 10 9841 8.18600000 2212329022 2212329022 -5.00000000
19.61902428 -2.90408325 3.85510492 34 11 9842 20.20400000 2212329024 2212329024 11.00000000
8.08843422 -1.19872379 -0.42852682 17 12 9843 8.18800000 2212329027 2212329027 -3.00000000
16.81476402 -2.49498439 3.92449617 31 13 9844 17.44600000 2212329029 2212329029 13.00000000
8.07810116 -1.20007443 -0.14255126 16 14 9845 8.16800000 2212329031 2212329031 -1.00000000
8.15160465 -1.21244800 2.20824409 47 15 9846 8.53200000 2212329034 2212329034 15.00000000
2.18379521 -0.32676005 -0.59166032 4 0 9851 2.28600000 2212329054 2212329054 -15.00000000
8.09640598 -1.21290541 0.14290030 12 1 9852 8.18800000 2212329057 2212329057 1.00000000
2.55737305 -0.38357100 -0.59702009 5 2 9853 2.65400000 2212329059 2212329059 -13.00000000
8.09401894 -1.21543670 0.42894551 13 3 9854 8.19600000 2212329061 2212329061 3.00000000
3.05978298 -0.45947170 -0.60142994 5 4 9854 3.15200000 2212329064 2212329064 -11.00000000
8.09771538 -1.21743703 0.71642023 79 5 9855 8.22000000 2212329066 2212329066 5.00000000
3.82665586 -0.57599497 -0.61291021 6 6 9856 3.91800000 2212329068 2212329068 -9.00000000
8.10100365 -1.22082317 1.00590956 85 7 9857 8.25400000 2212329070 2212329070 7.00000000
5.11132956 -0.77119100 -0.63469553 6 8 9858 5.20800000 2212329073 2212329073 -7.00000000
8.18810463 -1.23541105 1.31154656 10 9 9858 8.38400000 2212329075 2212329075 9.00000000
8.05155182 -1.21624541 -0.71241105 17 10 9859 8.17400000 2212329077 2212329077 -5.00000000
8.09647655 -1.22592247 -0.42915484 17 12 9861 8.20000000 2212329082 2212329082 -3.00000000
8.08220005 -1.22664678 -0.14269088 16 14 9863 8.17600000 2212329087 2212329087 -1.00000000
8.14415073 -1.23604918 2.20720887 47 15 9863 8.52800000 2212329089 2212329089 15.00000000
2.18264151 -0.33438092 -0.59166032 4 0 9871 2.28600000 2212329110 2212329110 -15.00000000
8.08816910 -1.24055338 0.14283049 12 1 9872 8.18400000 2212329112 2212329112 1.00000000
2.56950164 -0.39456600 -0.60016942 6 2 9873 2.66800000 2212329114 2212329114 -13.00000000
8.09367466 -1.24428964 0.42915484 15 3 9874 8.20000000 2212329117 2212329117 3.00000000
3.05427957 -0.46955290 -0.60066670 5 4 9874 3.14800000 2212329119 2212329119 -11.00000000
8.08947754 -1.24508965 0.71607161 79 5 9875 8.21600000 2212329121 2212329121 5.00000000
3.82266951 -0.58904815 -0.61259735 6 6 9876 3.91600000 2212329123 2212329123 -9.00000000
8.10257816 -1.25000155 1.00664079 92 7 9877 8.26000000 2212329126 2212329126 7.00000000
5.10075903 -0.78781617 -0.63372058 8 8 9878 5.20000000 2212329128 2212329128 -7.00000000
8.19155121 -1.26519144 1.31279802 10 9 9878 8.39200000 2212329130 2212329130 9.00000000
8.00787830 -1.23825395 -0.70892483 17 10 9879 8.13400000 2212329133 2212329133 -5.00000000
19.60127258 -3.03443718 3.85548663 15 11 9880 20.20600000 2212329135 2212329135 11.00000000
8.09806919 -1.25509465 -0.42946887 17 12 9881 8.20600000 2212329137 2212329137 -3.00000000
16.84598923 -2.61391854 3.93574357 22 13 9882 17.49600000 2212329140 2212329140 13.00000000
8.07786846 -1.25485146 -0.14269088 16 14 9883 8.17600000 2212329142 2212329142 -1.00000000
8.13978672 -1.26447010 2.20720887 47 15 9883 8.52800000 2212329144 2212329144 15.00000000
2.17000961 -0.34020248 -0.58855450 4 0 9891 2.27400000 2212329165 2212329165 -15.00000000
8.07983875 -1.26815867 0.14276068 12 1 9892 8.18000000 2212329167 2212329167 1.00000000
2.56040812 -0.40232283 -0.59836978 6 2 9893 2.66000000 2212329170 2212329170 -13.00000000
8.10112000 -1.27439654 0.42978287 13 3 9894 8.21200000 2212329172 2212329172 3.00000000
3.06037951 -0.48143181 -0.60219318 5 4 9894 3.15600000 2212329174 2212329174 -11.00000000
8.09492302 -1.27486944 0.71694314 76 5 9895 8.22600000 2212329176 2212329176 5.00000000
3.81668758 -0.60177284 -0.61197162 6 6 9896 3.91200000 2212329179 2212329179 -9.00000000
8.09816551 -1.27827716 1.00664079 90 7 9897 8.26000000 2212329181 2212329181 7.00000000
5.10189962 -0.80623603 -0.63420808 8 8 9898 5.20400000 2212329183 2212329183 -7.00000000
8.18490791 -1.29489779 1.31248522 10 9 9899 8.39000000 2212329186 2212329186 9.00000000
7.99957085 -1.26557636 -0.70857620 17 10 9899 8.13000000 2212329188 2212329188 -5.00000000
19.57892609 -3.10099721 3.85319686 27 11 9900 20.19400000 2212329190 2212329190 11.00000000
8.09561157 -1.28366733 -0.42957354 17 12 9901 8.20800000 2212329193 2212329193 -3.00000000
16.82328987 -2.67056751 3.93259430 33 13 9902 17.48200000 2212329195 2212329195 13.00000000
8.08331394 -1.28461003 -0.14286540 14 14 9903 8.18600000 2212329197 2212329197 -1.00000000
8.14295483 -1.29408836 2.20927930 47 15 9903 8.53600000 2212329199 2212329199 15.00000000
2.18025374 -0.34961039 -0.59166032 4 0 9911 2.28600000 2212329220 2212329220 -15.00000000
8.07733727 -1.29667187 0.14279559 12 1 9912 8.18200000 2212329223 2212329223 1.00000000
2.54936790 -0.40971178 -0.59612030 7 2 9913 2.65000000 2212329225 2212329225 -13.00000000
8.09859371 -1.30298424 0.42988753 13 3 9914 8.21400000 2212329227 2212329227 3.00000000
3.06643367 -0.49335903 -0.60371965 5 4 9914 3.16400000 2212329229 2212329229 -11.00000000
8.10419273 -1.30533600 0.71816331 76 5 9915 8.24000000 2212329232 2212329232 5.00000000
3.82041430 -0.61603528 -0.61291021 4 6 9916 3.91800000 2212329234 2212329234 -9.00000000
8.08973408 -1.30590451 1.00615335 92 7 9917 8.25600000 2212329236 2212329236 7.00000000
5.07749796 -0.82055646 -0.63152695 8 8 9918 5.18200000 2212329239 2212329239 -7.00000000
8.19203854 -1.32535350 1.31436241 10 9 9919 8.40200000 2212329241 2212329241 9.00000000
8.03444099 -1.29985642 -0.71206242 17 10 9919 8.17000000 2212329243 2212329243 -5.00000000
19.57960892 -3.17120481 3.85548663 15 11 9920 20.20600000 2212329246 2212329246 11.00000000
8.07925224 -1.31000054 -0.42894551 17 12 9921 8.19600000 2212329248 2212329248 -3.00000000
8.08667564 -1.31410122 -0.14300501 14 14 9923 8.19400000 2212329252 2212329252 -1.00000000
8.14197063 -1.32454550 2.21031475 47 15 9924 8.54000000 2212329255 2212329255 15.00000000
2.18289542 -0.35746282 -0.59269559 4 0 9930 2.29000000 2212329276 2212329276 -15.00000000
8.08483315 -1.32539117 0.14300501 12 1 9931 8.19400000 2212329278 2212329278 1.00000000
2.55184126 -0.41879475 -0.59702009 7 2 9932 2.65400000 2212329280 2212329280 -13.00000000
8.09619904 -1.33015668 0.42999223 13 3 9933 8.21600000 2212329282 2212329282 3.00000000
3.05703163 -0.50225186 -0.60219318 5 4 9933 3.15600000 2212329285 2212329285 -11.00000000
8.10178566 -1.33252668 0.71833766 76 5 9934 8.24200000 2212329287 2212329287 5.00000000
3.81055403 -0.62741715 -0.61165875 6 6 9935 3.91000000 2212329289 2212329289 -9.00000000
8.08927727 -1.33336961 1.00664079 90 7 9936 8.26000000 2212329292 2212329292 7.00000000
5.07083178 -0.83674312 -0.63103944 8 8 9937 5.17800000 2212329294 2212329294 -7.00000000
8.17395592 -1.35025835 1.31217229 10 9 9938 8.38800000 2212329296 2212329296 9.00000000
8.02615452 -1.32584298 -0.71171379 17 10 9938 8.16600000 2212329299 2212329299 -5.00000000
8.18554211 -1.35363996 1.61271763 3 11 9939 8.45200000 2212329301 2212329301 11.00000000
8.08668613 -1.33874226 -0.42957354 17 12 9940 8.20800000 2212329303 2212329303 -3.00000000
16.79703331 -2.78374290 3.93079472 11 13 9941 17.47400000 2212329305 2212329305 13.00000000
8.08621883 -1.34156501 -0.14307483 14 14 9942 8.19800000 2212329308 2212329308 -1.00000000
8.15301609 -1.35264719 2.21445584 47 15 9942 8.55600000 2212329310 2212329310 15.00000000
2.17020226 -0.36316729 -0.58958977 4 0 9950 2.27800000 2212329331 2212329331 -15.00000000
8.09593487 -1.35624754 0.14328426 12 1 9951 8.21000000 2212329333 2212329333 1.00000000
2.55997348 -0.42931131 -0.59926963 6 2 9952 2.66400000 2212329335 2212329335 -13.00000000
8.07968903 -1.35642552 0.42936417 13 3 9953 8.20400000 2212329338 2212329338 3.00000000
3.04751515 -0.51161963 -0.60066670 5 4 9953 3.14800000 2212329340 2212329340 -11.00000000
8.09315491 -1.36013865 0.71798903 76 5 9954 8.23800000 2212329342 2212329342 5.00000000
3.80834055 -0.64071465 -0.61165875 4 6 9955 3.91000000 2212329345 2212329345 -9.00000000
8.10219097 -1.36456549 1.00883448 85 7 9956 8.27800000 2212329347 2212329347 7.00000000
5.06396532 -0.85377848 -0.63055199 8 8 9957 5.17400000 2212329349 2212329349 -7.00000000
8.16724491 -1.37845373 1.31185937 5 9 9958 8.38600000 2212329352 2212329352 9.00000000
7.93896437 -1.33992493 -0.70439273 13 10 9958 8.08200000 2212329354 2212329354 -5.00000000
19.58660889 -3.30931067 3.86121082 31 11 9959 20.23600000 2212329356 2212329356 11.00000000
8.08787251 -1.36796117 -0.42988753 17 12 9960 8.21400000 2212329358 2212329358 -3.00000000
16.77952766 -2.84105706 3.92899513 38 13 9961 17.46600000 2212329361 2212329361 13.00000000
8.07754326 -1.36911464 -0.14300501 14 14 9962 8.19400000 2212329363 2212329363 -1.00000000
8.14443493 -1.38045251 2.21342039 47 15 9962 8.55200000 2212329365 2212329365 15.00000000
2.16511273 -0.37008950 -0.58855450 4 0 9970 2.27400000 2212329386 2212329386 -15.00000000
8.08129597 -1.38281298 0.14310974 12 1 9971 8.20000000 2212329388 2212329388 1.00000000
2.55845928 -0.43824467 -0.59926963 6 2 9972 2.66400000 2212329391 2212329391 -13.00000000
8.10073757 -1.38759494 0.43072492 15 3 9972 8.23000000 2212329393 2212329393 3.00000000
3.05345082 -0.52358156 -0.60219318 5 4 9973 3.15600000 2212329395 2212329395 -11.00000000
8.09032154 -1.38871789 0.71816331 76 5 9974 8.24000000 2212329398 2212329398 5.00000000
3.79050612 -0.65132809 -0.60915583 6 6 9975 3.89400000 2212329400 2212329400 -9.00000000
8.09933472 -1.39317560 1.00907815 92 7 9976 8.28000000 2212329402 2212329402 7.00000000
5.06486654 -0.87212354 -0.63103944 8 8 9977 5.17800000 2212329404 2212329404 -7.00000000
8.18014908 -1.40854657 1.31467521 7 9 9977 8.40400000 2212329407 2212329407 9.00000000
7.83606720 -1.35070705 -0.69567716 12 10 9978 7.98200000 2212329409 2212329409 -5.00000000
19.56719780 -3.37632513 3.85968447 34 11 9979 20.22800000 2212329411 2212329411 11.00000000
8.08895206 -1.39720464 -0.43020156 17 12 9980 8.22000000 2212329414 2212329414 -3.00000000
16.77718925 -2.90093946 3.93079472 37 13 9981 17.47400000 2212329416 2212329416 13.00000000
8.08059692 -1.39866638 -0.14314464 14 14 9982 8.20200000 2212329418 2212329418 -1.00000000
8.13956642 -1.40887356 2.21342039 47 15 9982 8.55200000 2212329421 2212329421 15.00000000
2.17142010 -0.37897348 -0.59062505 4 0 9990 2.28200000 2212329441 2212329441 -15.00000000
8.07641983 -1.41101348 0.14310974 12 1 9991 8.20000000 2212329444 2212329444 1.00000000
2.55115509 -0.44616553 -0.59791988 7 2 9992 2.65800000 2212329446 2212329446 -13.00000000
8.10346699 -1.41865408 0.43114361 18 3 9993 8.23800000 2212329448 2212329448 3.00000000
3.05353832 -0.53457546 -0.60257483 5 4 9993 3.15800000 2212329451 2212329451 -11.00000000
8.09131241 -1.41798162 0.71868628 76 5 9994 8.24600000 2212329453 2212329453 5.00000000
3.78237247 -0.66353148 -0.60821718 6 6 9995 3.88800000 2212329455 2212329455 -9.00000000
8.09833241 -1.42212582 1.00956559 92 7 9996 8.28400000 2212329457 2212329457 7.00000000
5.06570148 -0.89048529 -0.63152695 8 8 9997 5.18200000 2212329460 2212329460 -7.00000000
8.19049549 -1.44125760 1.31717825 7 9 9998 8.42000000 2212329462 2212329462 9.00000000
7.79990864 -1.37252724 -0.69288814 17 10 9998 7.95000000 2212329464 2212329464 -5.00000000
19.55142593 -3.44392562 3.85892105 34 11 9999 20.22400000 2212329467 2212329467 11.00000000
8.08795929 -1.42612553 -0.43041089 17 12 10000 8.22400000 2212329469 2212329469 -3.00000000
16.77079964 -2.96016240 3.93169451 34 13 10001 17.47800000 2212329471 2212329471 13.00000000
8.07369614 -1.42651653 -0.14310974 20 14 10002 8.20000000 2212329474 2212329474 -1.00000000
8.13434887 -1.43869710 2.21342039 49 15 10003 8.55200000 2212329476 2212329476 15.00000000
2.17015147 -0.38617209 -0.59062505 4 0 10009 2.28200000 2212329497 2212329497 -15.00000000
8.07366562 -1.43813884 0.14314464 15 1 10010 8.20200000 2212329499 2212329499 1.00000000
2.53623223 -0.45222846 -0.59477061 6 2 10011 2.64400000 2212329501 2212329501 -13.00000000
8.09307194 -1.44305301 0.43082958 15 3 10011 8.23200000 2212329504 2212329504 3.00000000
3.05368161 -0.54504335 -0.60295641 5 4 10012 3.16000000 2212329506 2212329506 -11.00000000
8.10421753 -1.44795942 0.72025508 79 5 10013 8.26400000 2212329508 2212329508 5.00000000
3.78987408 -0.67780948 -0.60978156 4 6 10014 3.89800000 2212329510 2212329510 -9.00000000
8.08966446 -1.44827330 1.00907815 95 7 10015 8.28000000 2212329513 2212329513 7.00000000
5.05881310 -0.90657854 -0.63103944 8 8 10016 5.17800000 2212329515 2212329515 -7.00000000
8.20511436 -1.47189832 1.32030690 7 9 10017 8.44000000 2212329517 2212329517 9.00000000
7.78354788 -1.39627433 -0.69184226 17 10 10017 7.93800000 2212329520 2212329520 -5.00000000
19.54569626 -3.50978255 3.86006594 34 11 10018 20.23000000 2212329522 2212329522 11.00000000
8.07728863 -1.45187831 -0.43009689 17 12 10019 8.21800000 2212329524 2212329524 -3.00000000
16.76089096 -3.01576018 3.93169451 33 13 10020 17.47800000 2212329527 2212329527 13.00000000
8.08466530 -1.45611775 -0.14338897 16 14 10021 8.21600000 2212329529 2212329529 -1.00000000
8.14499855 -1.46698415 2.21756148 47 15 10021 8.56800000 2212329531 2212329531 15.00000000
2.16879010 -0.39374498 -0.59062505 4 0 10029 2.28200000 2212329552 2212329552 -15.00000000
8.09023857 -1.47024548 0.14352860 15 1 10030 8.22400000 2212329554 2212329554 1.00000000
2.53463817 -0.46107882 -0.59477061 6 2 10031 2.64400000 2212329556 2212329556 -13.00000000
8.08798504 -1.47129428 0.43082958 18 3 10031 8.23200000 2212329559 2212329559 3.00000000
3.04789734 -0.55499595 -0.60219318 5 4 10032 3.15600000 2212329561 2212329561 -11.00000000
8.10499382 -1.47731137 0.72077799 76 5 10033 8.27000000 2212329563 2212329563 5.00000000
3.77971172 -0.68961626 -0.60853004 4 6 10034 3.89000000 2212329566 2212329566 -9.00000000
8.09237099 -1.47792923 1.01005316 90 7 10035 8.28800000 2212329568 2212329568 7.00000000
5.03999567 -0.92137569 -0.62908953 8 8 10036 5.16200000 2212329570 2212329570 -7.00000000
8.19215393 -1.49910820 1.31905544 7 9 10037 8.43200000 2212329573 2212329573 9.00000000
7.77470684 -1.42271817 -0.69149369 12 10 10037 7.93400000 2212329575 2212329575 -5.00000000
19.54684258 -3.58046460 3.86273742 38 11 10038 20.24400000 2212329577 2212329577 11.00000000
8.07806492 -1.48114502 -0.43041089 17 12 10039 8.22400000 2212329580 2212329580 -3.00000000
16.74642754 -3.07354474 3.93079472 36 13 10040 17.47400000 2212329582 2212329582 13.00000000
8.07756710 -1.48396826 -0.14335407 14 14 10041 8.21400000 2212329584 2212329584 -1.00000000
8.14742851 -1.49680293 2.21963215 47 15 10041 8.57600000 2212329586 2212329586 15.00000000
2.16360354 -0.40060961 -0.58958977 4 0 10049 2.27800000 2212329607 2212329607 -15.00000000
8.08112431 -1.49774790 0.14345878 18 1 10050 8.22000000 2212329609 2212329609 1.00000000
2.54642558 -0.47241178 -0.59791988 7 2 10051 2.65800000 2212329612 2212329612 -13.00000000
8.08646584 -1.50165772 0.43103895 18 3 10052 8.23600000 2212329614 2212329614 3.00000000
3.03242970 -0.56312257 -0.59952188 4 4 10052 3.14200000 2212329616 2212329616 -11.00000000
8.09195232 -1.50413764 0.72008073 76 5 10053 8.26200000 2212329619 2212329619 5.00000000
3.80058599 -0.70714182 -0.61228448 4 6 10054 3.91400000 2212329621 2212329621 -9.00000000
8.09692001 -1.50798523 1.01127183 90 7 10055 8.29800000 2212329623 2212329623 7.00000000
5.03674889 -0.93896294 -0.62908953 8 8 10056 5.16200000 2212329626 2212329626 -7.00000000
8.17936993 -1.52481806 1.31780398 7 9 10056 8.42400000 2212329628 2212329628 9.00000000
7.76773453 -1.44948280 -0.69131935 17 10 10057 7.93200000 2212329630 2212329630 -5.00000000
19.54966545 -3.65155768 3.86579013 34 11 10058 20.26000000 2212329633 2212329633 11.00000000
8.08069801 -1.51080191 -0.43082958 17 12 10059 8.23200000 2212329635 2212329635 -3.00000000
16.73942757 -3.13269877 3.93169451 33 13 10060 17.47800000 2212329637 2212329637 13.00000000
8.07626820 -1.51289153 -0.14342387 14 14 10061 8.21800000 2212329639 2212329639 -1.00000000
8.13809013 -1.52594256 2.21859694 47 15 10062 8.57200000 2212329642 2212329642 15.00000000
2.15839529 -0.40744287 -0.58855450 4 0 10069 2.27400000 2212329662 2212329662 -15.00000000
8.08370686 -1.52743220 0.14359841 18 1 10070 8.22800000 2212329665 2212329665 1.00000000
2.53710175 -0.47984898 -0.59612030 6 2 10071 2.65000000 2212329667 2212329667 -13.00000000
8.09714127 -1.53143442 0.43187630 15 3 10071 8.25200000 2212329669 2212329669 3.00000000
3.03044558 -0.57370430 -0.59952188 4 4 10072 3.14200000 2212329672 2212329672 -11.00000000
8.09252548 -1.53348756 0.72060370 76 5 10073 8.26800000 2212329674 2212329674 5.00000000
3.77868676 -0.71672285 -0.60915583 6 6 10074 3.89400000 2212329676 2212329676 -9.00000000
8.10720921 -1.53920174 1.01322174 90 7 10075 8.31400000 2212329679 2212329679 7.00000000
5.03734112 -0.95727998 -0.62957704 8 8 10076 5.16600000 2212329681 2212329681 -7.00000000
8.17954826 -1.55589414 1.31874251 7 9 10077 8.43000000 2212329683 2212329683 9.00000000
7.69999409 -1.46467447 -0.68574136 17 10 10077 7.86800000 2212329686 2212329686 -5.00000000
19.53872871 -3.72014380 3.86617184 38 11 10078 20.26200000 2212329688 2212329688 11.00000000
8.08518505 -1.54086912 -0.43135294 17 12 10079 8.24200000 2212329690 2212329690 -3.00000000
16.73221970 -3.19184160 3.93259430 36 13 10080 17.48200000 2212329692 2212329692 13.00000000
8.07093811 -1.54107380 -0.14342387 14 14 10081 8.21800000 2212329695 2212329695 -1.00000000
8.13271427 -1.55434048 2.21859694 47 15 10082 8.57200000 2212329697 2212329697 15.00000000
2.14178324 -0.41205481 -0.58441341 4 0 10089 2.25800000 2212329718 2212329718 -15.00000000
8.07047081 -1.55412781 0.14345878 15 1 10090 8.22000000 2212329720 2212329720 1.00000000
2.53732491 -0.48907104 -0.59657019 6 2 10091 2.65200000 2212329722 2212329722 -13.00000000
8.10351276 -1.56195748 0.43250436 15 3 10091 8.26400000 2212329725 2212329725 3.00000000
3.02456927 -0.58353519 -0.59875864 5 4 10092 3.13800000 2212329727 2212329727 -11.00000000
8.08712387 -1.56172633 0.72060370 72 5 10093 8.26800000 2212329729 2212329729 5.00000000
3.76064610 -0.72690946 -0.60665286 4 6 10094 3.87800000 2212329732 2212329732 -9.00000000
8.10178661 -1.56749177 1.01322174 90 7 10095 8.31400000 2212329734 2212329734 7.00000000
5.04176426 -0.97636741 -0.63055199 8 8 10096 5.17400000 2212329736 2212329736 -7.00000000
8.18016148 -1.58413661 1.31968117 7 9 10096 8.43600000 2212329739 2212329739 9.00000000
7.71048260 -1.49457669 -0.68713588 17 10 10097 7.88400000 2212329741 2212329741 -5.00000000
19.52176857 -3.78757596 3.86540866 38 11 10098 20.25800000 2212329743 2212329743 11.00000000
8.06995392 -1.56717861 -0.43082958 17 12 10099 8.23200000 2212329745 2212329745 -3.00000000
16.73436737 -3.25283146 3.93574357 36 13 10100 17.49600000 2212329748 2212329748 13.00000000
8.06747246 -1.56961918 -0.14345878 12 14 10101 8.22000000 2212329750 2212329750 -1.00000000
8.13861656 -1.58493519 2.22170258 49 15 10102 8.58400000 2212329752 2212329752 15.00000000
2.15928960 -0.42324445 -0.58958977 4 0 10109 2.27800000 2212329773 2212329773 -15.00000000
8.07677078 -1.58459949 0.14366820 15 1 10110 8.23200000 2212329775 2212329775 1.00000000
2.52604103 -0.49604744 -0.59432071 6 2 10111 2.64200000 2212329778 2212329778 -13.00000000
8.08233261 -1.58715570 0.43166697 15 3 10111 8.24800000 2212329780 2212329780 3.00000000
3.04177785 -0.59787577 -0.60257483 4 4 10112 3.15800000 2212329782 2212329782 -11.00000000
8.09530735 -1.59263837 0.72182387 76 5 10113 8.28200000 2212329785 2212329785 5.00000000
3.75808573 -0.74003214 -0.60665286 6 6 10114 3.87800000 2212329787 2212329787 -9.00000000
8.09431839 -1.59537888 1.01297796 90 7 10115 8.31200000 2212329789 2212329789 7.00000000
5.02274513 -0.99088675 -0.62860209 8 8 10116 5.15800000 2212329792 2212329792 -7.00000000
8.18621063 -1.61497509 1.32155836 7 9 10116 8.44800000 2212329794 2212329794 9.00000000
7.73453808 -1.52727163 -0.68975055 12 10 10117 7.91400000 2212329796 2212329796 -5.00000000
19.51998520 -3.85798049 3.86769843 34 11 10118 20.27000000 2212329798 2212329798 11.00000000
8.07227135 -1.59688878 -0.43124828 12 12 10119 8.24000000 2212329801 2212329801 -3.00000000
16.71526337 -3.30971122 3.93394399 36 13 10120 17.48800000 2212329803 2212329803 13.00000000
8.08156013 -1.60165787 -0.14380783 12 14 10121 8.24000000 2212329805 2212329805 -1.00000000
8.14061356 -1.61483812 2.22377324 47 15 10122 8.59200000 2212329808 2212329808 15.00000000
2.17106032 -0.43342665 -0.59321326 4 0 10129 2.29200000 2212329828 2212329828 -15.00000000
8.07903385 -1.61435032 0.14380783 12 1 10130 8.24000000 2212329831 2212329831 1.00000000
2.52811599 -0.50562632 -0.59522051 7 2 10131 2.64600000 2212329833 2212329833 -13.00000000
8.08457756 -1.61692536 0.43208566 13 3 10131 8.25600000 2212329835 2212329835 3.00000000
3.03197193 -0.60694849 -0.60104835 4 4 10132 3.15000000 2212329838 2212329838 -11.00000000
8.09555912 -1.62206089 0.72234678 72 5 10133 8.28800000 2212329840 2212329840 5.00000000
3.77484775 -0.75702995 -0.60978156 4 6 10134 3.89800000 2212329842 2212329842 -9.00000000
8.09064579 -1.62401426 1.01322174 90 7 10135 8.31400000 2212329844 2212329844 7.00000000
5.01536322 -1.00763142 -0.62811458 8 8 10136 5.15400000 2212329847 2212329847 -7.00000000
8.18052292 -1.64354038 1.32155836 7 9 10136 8.44800000 2212329849 2212329849 9.00000000
7.72915983 -1.55426097 -0.68975055 12 10 10137 7.91400000 2212329851 2212329851 -5.00000000
19.51409721 -3.92764401 3.86922479 34 11 10138 20.27800000 2212329854 2212329854 11.00000000
8.06273270 -1.62426770 -0.43103895 12 12 10139 8.23600000 2212329856 2212329856 -3.00000000
16.69787788 -3.36688280 3.93259430 36 13 10140 17.48200000 2212329858 2212329858 13.00000000
8.07199955 -1.62906682 -0.14373802 12 14 10141 8.23600000 2212329861 2212329861 -1.00000000
8.14278889 -1.64335322 2.22584391 47 15 10141 8.60000000 2212329863 2212329863 15.00000000
2.15817547 -0.43869349 -0.59010744 4 0 10149 2.28000000 2212329884 2212329884 -15.00000000
8.08118820 -1.64413631 0.14394745 12 1 10150 8.24800000 2212329886 2212329886 1.00000000
2.53015471 -0.51522571 -0.59612030 5 2 10151 2.65000000 2212329888 2212329888 -13.00000000
8.08279800 -1.64593303 0.43229499 13 3 10151 8.26000000 2212329891 2212329891 3.00000000
3.01444530 -0.61439168 -0.59799540 4 4 10152 3.13400000 2212329893 2212329893 -11.00000000
8.08789539 -1.64991152 0.72217250 72 5 10153 8.28600000 2212329895 2212329895 5.00000000
3.77024674 -0.76980686 -0.60946870 6 6 10154 3.89600000 2212329897 2212329897 -9.00000000
8.09659767 -1.65463078 1.01468420 90 7 10155 8.32600000 2212329900 2212329900 7.00000000
5.00792551 -1.02433646 -0.62762713 8 8 10156 5.15000000 2212329902 2212329902 -7.00000000
8.16699505 -1.67050231 1.32030690 7 9 10156 8.44000000 2212329904 2212329904 9.00000000
7.71978378 -1.58043206 -0.68940192 12 10 10157 7.91000000 2212329907 2212329907 -5.00000000
19.51373100 -3.99849582 3.87189603 38 11 10158 20.29200000 2212329909 2212329909 11.00000000
8.06679630 -1.65440834 -0.43156230 17 12 10159 8.24600000 2212329911 2212329911 -3.00000000
16.70129585 -3.42828345 3.93619347 36 13 10160 17.49800000 2212329914 2212329914 13.00000000
8.06038761 -1.65602612 -0.14363331 14 14 10161 8.23000000 2212329916 2212329916 -1.00000000
8.14049530 -1.67396522 2.22687912 47 15 10162 8.60400000 2212329918 2212329918 15.00000000
2.14149666 -0.44309288 -0.58596629 4 0 10169 2.26400000 2212329939 2212329939 -15.00000000
8.07344151 -1.67192936 0.14391254 15 1 10170 8.24600000 2212329941 2212329941 1.00000000
2.53215718 -0.52484548 -0.59702009 5 2 10171 2.65400000 2212329944 2212329944 -13.00000000
8.08844471 -1.67798114 0.43292302 13 3 10172 8.27200000 2212329946 2212329946 3.00000000
3.02766085 -0.62810069 -0.60104835 4 4 10172 3.15000000 2212329948 2212329948 -11.00000000
8.07623482 -1.67691839 0.72164953 72 5 10173 8.28000000 2212329950 2212329950 5.00000000
3.74239397 -0.77773768 -0.60540140 4 6 10174 3.87000000 2212329953 2212329953 -9.00000000
8.11020756 -1.68692553 1.01712155 90 7 10175 8.34600000 2212329955 2212329955 7.00000000
5.00043249 -1.04100204 -0.62713963 8 8 10176 5.14600000 2212329957 2212329957 -7.00000000
8.17078400 -1.70101333 1.32187128 5 9 10176 8.45000000 2212329960 2212329960 9.00000000
7.70251703 -1.60493100 -0.68835604 12 10 10177 7.89800000 2212329962 2212329962 -5.00000000
19.49965477 -4.06658697 3.87189603 38 11 10178 20.29200000 2212329964 2212329964 11.00000000
8.07465839 -1.68541324 -0.43229499 12 12 10179 8.26000000 2212329967 2212329967 -3.00000000
16.69304085 -3.48735809 3.93709326 36 13 10180 17.50200000 2212329969 2212329969 13.00000000
8.06238747 -1.68578911 -0.14377293 14 14 10181 8.23800000 2212329971 2212329971 -1.00000000
8.13300896 -1.70055556 2.22636151 47 15 10181 8.60200000 2212329974 2212329974 15.00000000
2.14749861 -0.45215750 -0.58803689 4 0 10189 2.27200000 2212329994 2212329994 -15.00000000
8.07342625 -1.70133781 0.14401726 12 1 10190 8.25200000 2212329997 2212329997 1.00000000
2.51886892 -0.53126812 -0.59432071 5 2 10191 2.64200000 2212329999 2212329999 -13.00000000
8.09817219 -1.70950508 0.43376040 15 3 10192 8.28800000 2212330001 2212330001 3.00000000
3.01968718 -0.63744885 -0.59990346 5 4 10192 3.14400000 2212330003 2212330003 -11.00000000
8.08397770 -1.70798242 0.72286975 72 5 10193 8.29400000 2212330006 2212330006 5.00000000
3.74352169 -0.79161370 -0.60602713 4 6 10194 3.87400000 2212330008 2212330008 -9.00000000
8.10038567 -1.71440315 1.01663411 87 7 10195 8.34200000 2212330010 2212330010 7.00000000
5.01230431 -1.06174135 -0.62908953 8 8 10196 5.16200000 2212330013 2212330013 -7.00000000
8.17029190 -1.73217845 1.32280982 7 9 10197 8.45600000 2212330015 2212330015 9.00000000
7.66178465 -1.62437010 -0.68521845 12 10 10197 7.86200000 2212330017 2212330017 -5.00000000
19.47957993 -4.13340616 3.87075138 34 11 10198 20.28600000 2212330020 2212330020 11.00000000
8.06872559 -1.71358871 -0.43229499 12 12 10199 8.26000000 2212330022 2212330022 -3.00000000
16.70173454 -3.55006313 3.94204235 36 13 10200 17.52400000 2212330024 2212330024 13.00000000
8.07601261 -1.71808279 -0.14412197 14 14 10201 8.25800000 2212330027 2212330027 -1.00000000
8.13427925 -1.73196232 2.22843194 47 15 10202 8.61000000 2212330029 2212330029 15.00000000
2.14779615 -0.46005553 -0.58855450 4 0 10209 2.27400000 2212330050 2212330050 -15.00000000
8.07525921 -1.73118567 0.14415687 12 1 10210 8.26000000 2212330052 2212330052 1.00000000
2.50937772 -0.53842211 -0.59252107 4 2 10211 2.63400000 2212330054 2212330054 -13.00000000
8.09215546 -1.73776257 0.43376040 13 3 10212 8.28800000 2212330056 2212330056 3.00000000
3.01552415 -0.64757347 -0.59952188 4 4 10212 3.14200000 2212330059 2212330059 -11.00000000
8.09744549 -1.74037707 0.72461283 90 5 10213 8.31400000 2212330061 2212330061 5.00000000
3.72142363 -0.80052197 -0.60289842 4 6 10214 3.85400000 2212330063 2212330063 -9.00000000
8.09435177 -1.74266827 1.01663411 87 7 10215 8.34200000 2212330066 2212330066 7.00000000
4.99304342 -1.07588601 -0.62713963 8 8 10216 5.14600000 2212330068 2212330068 -7.00000000
8.17029572 -1.76051080 1.32374847 5 9 10216 8.46200000 2212330070 2212330070 9.00000000
7.67554379 -1.65530503 -0.68696159 12 10 10217 7.88200000 2212330073 2212330073 -5.00000000
19.47079086 -4.20262003 3.87189603 38 11 10218 20.29200000 2212330075 2212330075 11.00000000
8.04707718 -1.73836958 -0.43145761 12 12 10219 8.24400000 2212330077 2212330077 -3.00000000
16.68924141 -3.60834146 3.94204235 37 13 10220 17.52400000 2212330080 2212330080 13.00000000
8.07192135 -1.74668586 -0.14415687 12 14 10221 8.26000000 2212330082 2212330082 -1.00000000
8.13604355 -1.76056135 2.23050261 47 15 10221 8.61800000 2212330084 2212330084 15.00000000
2.14995241 -0.46837237 -0.58958977 4 0 10229 2.27800000 2212330105 2212330105 -15.00000000
8.06525993 -1.75851095 0.14408706 12 1 10230 8.25600000 2212330107 2212330107 1.00000000
2.51129079 -0.54800910 -0.59342086 4 2 10231 2.63800000 2212330109 2212330109 -13.00000000
8.07823467 -1.76429415 0.43334171 13 3 10232 8.28000000 2212330112 2212330112 3.00000000
3.01516342 -0.65851456 -0.59990346 5 4 10232 3.14400000 2212330114 2212330114 -11.00000000
8.08742809 -1.76778090 0.72426420 72 5 10233 8.31000000 2212330116 2212330116 5.00000000
3.73983383 -0.81815106 -0.60633999 6 6 10234 3.87600000 2212330119 2212330119 -9.00000000
8.09209728 -1.77176142 1.01712155 87 7 10235 8.34600000 2212330121 2212330121 7.00000000
4.99507475 -1.09458315 -0.62787086 8 8 10236 5.15200000 2212330123 2212330123 -7.00000000
8.16378880 -1.79044461 1.32374847 5 9 10237 8.46200000 2212330126 2212330126 9.00000000
7.63858080 -1.67525852 -0.68417257 12 10 10237 7.85000000 2212330128 2212330128 -5.00000000
17.74550056 -3.89510775 3.53149295 29 11 10238 18.50800000 2212330130 2212330130 11.00000000
8.06046772 -1.77073395 -0.43250436 12 12 10239 8.26400000 2212330132 2212330132 -3.00000000
16.66893005 -3.66490197 3.94024277 38 13 10240 17.51600000 2212330135 2212330135 13.00000000
8.06577492 -1.77485144 -0.14415687 12 14 10241 8.26000000 2212330137 2212330137 -1.00000000
8.13708305 -1.79203165 2.23257303 45 15 10242 8.62600000 2212330139 2212330139 15.00000000
2.14084244 -0.47382942 -0.58751923 4 0 10248 2.27000000 2212330160 2212330160 -15.00000000
8.08281231 -1.79043639 0.14450592 12 1 10249 8.28000000 2212330162 2212330162 1.00000000
2.51516747 -0.55759919 -0.59477061 4 2 10250 2.64400000 2212330165 2212330165 -13.00000000
8.08598900 -1.79410124 0.43407443 13 3 10251 8.29400000 2212330167 2212330167 3.00000000
2.99187994 -0.66383171 -0.59570569 4 4 10251 3.12200000 2212330169 2212330169 -11.00000000
8.09708118 -1.79804528 0.72565871 79 5 10252 8.32600000 2212330172 2212330172 5.00000000
3.73902845 -0.83097684 -0.60665286 6 6 10253 3.87800000 2212330174 2212330174 -9.00000000
8.09780407 -1.80117202 1.01858401 85 7 10254 8.35800000 2212330176 2212330176 7.00000000
4.98366690 -1.10941601 -0.62689590 6 8 10255 5.14400000 2212330179 2212330179 -7.00000000
8.16197968 -1.81694150 1.32437420 5 9 10255 8.46600000 2212330181 2212330181 9.00000000
7.61742592 -1.69711363 -0.68277806 12 10 10256 7.83400000 2212330183 2212330183 -5.00000000
19.46472740 -4.34018230 3.87647557 38 11 10257 20.31600000 2212330185 2212330185 11.00000000
8.07209492 -1.80136883 -0.43344638 17 12 10258 8.28200000 2212330188 2212330188 -3.00000000
16.66809654 -3.72270656 3.94294214 37 13 10259 17.52800000 2212330190 2212330190 13.00000000
8.06179619 -1.80202496 -0.14419179 14 14 10260 8.26200000 2212330192 2212330192 -1.00000000
8.13518333 -1.81842899 2.23360825 45 15 10260 8.63000000 2212330195 2212330195 15.00000000
2.12786722 -0.47875515 -0.58441341 4 0 10268 2.25800000 2212330215 2212330215 -15.00000000
8.06871033 -1.81688261 0.14436631 12 1 10269 8.27200000 2212330218 2212330218 1.00000000
2.51700783 -0.56723219 -0.59567040 4 2 10270 2.64800000 2212330220 2212330220 -13.00000000
8.09136677 -1.82495224 0.43470246 13 3 10271 8.30600000 2212330222 2212330222 3.00000000
2.98954463 -0.67427129 -0.59570569 4 4 10271 3.12200000 2212330225 2212330225 -11.00000000
8.08686924 -1.82542109 0.72531009 90 5 10272 8.32200000 2212330227 2212330227 5.00000000
3.72647095 -0.84184700 -0.60508853 6 6 10273 3.86800000 2212330229 2212330229 -9.00000000
8.09533978 -1.83030319 1.01907146 83 7 10274 8.36200000 2212330232 2212330232 7.00000000
4.98169994 -1.12724364 -0.62713963 4 8 10275 5.14600000 2212330234 2212330234 -7.00000000
8.17260456 -1.85077119 1.32719004 7 9 10276 8.48400000 2212330236 2212330236 9.00000000
7.60368252 -1.72193277 -0.68208086 17 10 10276 7.82600000 2212330238 2212330238 -5.00000000
19.45137405 -4.40853453 3.87685728 34 11 10277 20.31800000 2212330241 2212330241 11.00000000
8.06381035 -1.82909286 -0.43334171 12 12 10278 8.28000000 2212330243 2212330243 -3.00000000
16.65500069 -3.78086638 3.94294214 37 13 10279 17.52800000 2212330245 2212330245 13.00000000
8.07105732 -1.83369911 -0.14447102 14 14 10280 8.27800000 2212330248 2212330248 -1.00000000
8.12846375 -1.84823370 2.23360825 45 15 10281 8.63000000 2212330250 2212330250 15.00000000
2.12618303 -0.48617986 -0.58441341 4 0 10288 2.25800000 2212330271 2212330271 -15.00000000
8.06036949 -1.84459054 0.14433140 12 1 10289 8.27000000 2212330273 2212330273 1.00000000
2.51501250 -0.57601476 -0.59567040 4 2 10290 2.64800000 2212330275 2212330275 -13.00000000
8.09468079 -1.85541642 0.43522581 13 3 10291 8.31600000 2212330278 2212330278 3.00000000
2.99865460 -0.68733442 -0.59799540 4 4 10291 3.13400000 2212330280 2212330280 -11.00000000
8.07850552 -1.85319293 0.72513580 72 5 10292 8.32000000 2212330282 2212330282 5.00000000
3.71773386 -0.85352367 -0.60414988 6 6 10293 3.86200000 2212330285 2212330285 -9.00000000
8.08890152 -1.85855007 1.01907146 85 7 10294 8.36200000 2212330287 2212330287 7.00000000
5.00094986 -1.14996445 -0.63006449 2 8 10295 5.17000000 2212330289 2212330289 -7.00000000
8.16642284 -1.87786233 1.32719004 7 9 10295 8.48400000 2212330291 2212330291 9.00000000
7.60150909 -1.74935782 -0.68242949 12 10 10296 7.83000000 2212330294 2212330294 -5.00000000
19.41290855 -4.47111797 3.87227774 27 11 10297 20.29400000 2212330296 2212330296 11.00000000
8.05737591 -1.85722971 -0.43334171 12 12 10298 8.28000000 2212330298 2212330298 -3.00000000
16.65309525 -3.84160852 3.94564152 37 13 10299 17.54000000 2212330301 2212330301 13.00000000
8.07240105 -1.86366057 -0.14461064 14 14 10300 8.28600000 2212330303 2212330303 -1.00000000
8.13358402 -1.87778592 2.23671412 45 15 10300 8.64200000 2212330305 2212330305 15.00000000
2.14329028 -0.49797067 -0.58958977 4 0 10308 2.27800000 2212330326 2212330326 -15.00000000
8.07141113 -1.87679124 0.14464554 12 1 10309 8.28800000 2212330328 2212330328 1.00000000
2.49780226 -0.58125681 -0.59207118 4 2 10310 2.63200000 2212330331 2212330331 -13.00000000
8.08621025 -1.88320780 0.43512115 10 3 10311 8.31400000 2212330333 2212330333 3.00000000
3.00388527 -0.69957870 -0.59952188 4 4 10311 3.14200000 2212330335 2212330335 -11.00000000
8.07392788 -1.88183308 0.72531009 72 5 10312 8.32200000 2212330338 2212330338 5.00000000
3.70896053 -0.86514956 -0.60321128 6 6 10313 3.85600000 2212330340 2212330340 -9.00000000
8.08623123 -1.88767684 1.01955891 83 7 10314 8.36600000 2212330342 2212330342 7.00000000
4.97177601 -1.16154301 -0.62689590 2 8 10315 5.14400000 2212330344 2212330344 -7.00000000
8.18449020 -1.91362774 1.33125734 5 9 10316 8.51000000 2212330347 2212330347 9.00000000
7.57983541 -1.77225244 -0.68103498 12 10 10316 7.81400000 2212330349 2212330349 -5.00000000
17.55247116 -4.10720015 3.50401640 14 11 10317 18.36400000 2212330351 2212330351 11.00000000
8.05084419 -1.88534379 -0.43334171 12 12 10318 8.28000000 2212330354 2212330354 -3.00000000
16.63578796 -3.89882588 3.94474173 38 13 10319 17.53600000 2212330356 2212330356 13.00000000
8.07168674 -1.89319706 -0.14471535 14 14 10320 8.29200000 2212330358 2212330358 -1.00000000
8.13417053 -1.90935028 2.23878479 45 15 10321 8.65000000 2212330361 2212330361 15.00000000
2.13025784 -0.50278652 -0.58648396 4 0 10328 2.26600000 2212330381 2212330381 -15.00000000
8.06870270 -1.90587366 0.14471535 12 1 10329 8.29200000 2212330384 2212330384 1.00000000
2.49765468 -0.59042054 -0.59252107 4 2 10330 2.63400000 2212330386 2212330386 -13.00000000
8.07375622 -1.91004312 0.43480712 10 3 10331 8.30800000 2212330388 2212330388 3.00000000
2.99378300 -0.70825207 -0.59799540 4 4 10331 3.13400000 2212330391 2212330391 -11.00000000
8.10220814 -1.91826737 0.72844768 90 5 10332 8.35800000 2212330393 2212330393 5.00000000
3.72321749 -0.88218999 -0.60602713 4 6 10333 3.87400000 2212330395 2212330395 -9.00000000
8.07959270 -1.91589153 1.01955891 85 7 10334 8.36600000 2212330397 2212330397 7.00000000
4.95223951 -1.17522383 -0.62494600 2 8 10335 5.12800000 2212330400 2212330400 -7.00000000
8.14734745 -1.93346012 1.32625139 5 9 10335 8.47800000 2212330402 2212330402 9.00000000
7.57554150 -1.79916060 -0.68120927 12 10 10336 7.81600000 2212330404 2212330404 -5.00000000
8.05975819 -1.91713250 -0.43417910 12 12 10338 8.29600000 2212330409 2212330409 -3.00000000
16.61070251 -3.95416427 3.94204235 37 13 10339 17.52400000 2212330411 2212330411 13.00000000
8.06308365 -1.92089748 -0.14468046 14 14 10340 8.29000000 2212330414 2212330414 -1.00000000
8.12967300 -1.93676126 2.23930240 45 15 10340 8.65200000 2212330416 2212330416 15.00000000
2.12848973 -0.51021945 -0.58648396 4 0 10348 2.26600000 2212330437 2212330437 -15.00000000
8.07366848 -1.93682599 0.14492479 12 1 10349 8.30400000 2212330439 2212330439 1.00000000
2.50315809 -0.60095507 -0.59432071 4 2 10350 2.64200000 2212330441 2212330441 -13.00000000
8.08451748 -1.94241345 0.43574917 13 3 10351 8.32600000 2212330444 2212330444 3.00000000
2.97983885 -0.71594608 -0.59570569 4 4 10351 3.12200000 2212330446 2212330446 -11.00000000
8.07609081 -1.94187975 0.72670460 72 5 10352 8.33800000 2212330448 2212330448 5.00000000
3.70859194 -0.89240813 -0.60414988 4 6 10353 3.86200000 2212330450 2212330450 -9.00000000
8.09022522 -1.94826567 1.02175260 78 7 10354 8.38400000 2212330453 2212330453 7.00000000
4.97126484 -1.19808435 -0.62787086 2 8 10355 5.15200000 2212330455 2212330455 -7.00000000
8.17511559 -1.97021866 1.33188307 5 9 10355 8.51400000 2212330457 2212330457 9.00000000
7.57502556 -1.82699466 -0.68173224 12 10 10356 7.82200000 2212330460 2212330460 -5.00000000
19.40700912 -4.68429470 3.88067341 15 11 10357 20.33800000 2212330462 2212330462 11.00000000
8.06854916 -1.94900632 -0.43501648 12 12 10358 8.31200000 2212330464 2212330464 -3.00000000
16.59679985 -4.01212215 3.94204235 37 13 10359 17.52400000 2212330467 2212330467 13.00000000
8.06216049 -1.95044184 -0.14478517 16 14 10360 8.29600000 2212330469 2212330469 -1.00000000
8.13225174 -1.96739864 2.24189067 45 15 10360 8.66200000 2212330471 2212330471 15.00000000
2.11749029 -0.51462263 -0.58389574 4 0 10366 2.25600000 2212330492 2212330492 -15.00000000
8.07337284 -1.96359825 0.14502950 18 1 10367 8.31000000 2212330494 2212330494 1.00000000
2.49747086 -0.60789424 -0.59342086 4 2 10368 2.63800000 2212330497 2212330497 -13.00000000
8.08807850 -1.97016549 0.43627253 10 3 10369 8.33600000 2212330499 2212330499 3.00000000
2.96613002 -0.72251618 -0.59341598 4 4 10369 3.11000000 2212330501 2212330501 -11.00000000
8.08737183 -1.97148883 0.72827339 83 5 10370 8.35600000 2212330503 2212330503 5.00000000
3.71344638 -0.90592736 -0.60540140 4 6 10371 3.87000000 2212330506 2212330506 -9.00000000
8.08792114 -1.97461390 1.02224004 80 7 10372 8.38800000 2212330508 2212330508 7.00000000
4.97519016 -1.21558082 -0.62884581 2 8 10373 5.16000000 2212330510 2212330510 -7.00000000
8.15702438 -1.99450231 1.33000576 5 9 10374 8.50200000 2212330513 2212330513 9.00000000
7.55570126 -1.84747064 -0.68051201 12 10 10374 7.80800000 2212330515 2212330515 -5.00000000
19.38838387 -4.74430704 3.87991023 27 11 10375 20.33400000 2212330517 2212330517 11.00000000
8.07402515 -1.97719514 -0.43564451 12 12 10376 8.32400000 2212330520 2212330520 -3.00000000
16.60304070 -4.06888103 3.94654131 39 13 10377 17.54400000 2212330522 2212330522 13.00000000
8.05987740 -1.97671282 -0.14485498 12 14 10378 8.30000000 2212330524 2212330524 -1.00000000
8.11852551 -1.99109650 2.23982000 45 15 10378 8.65400000 2212330526 2212330526 15.00000000
2.13256145 -0.52617592 -0.58855450 4 0 10386 2.27400000 2212330547 2212330547 -15.00000000
8.06452751 -1.99128830 0.14499459 12 1 10387 8.30800000 2212330550 2212330550 1.00000000
2.49154997 -0.61567336 -0.59252107 4 2 10388 2.63400000 2212330552 2212330552 -13.00000000
8.09084606 -2.00078344 0.43679589 10 3 10389 8.34600000 2212330554 2212330554 3.00000000
2.97121334 -0.73475069 -0.59494245 4 4 10389 3.11800000 2212330556 2212330556 -11.00000000
8.06690216 -1.99635661 0.72705323 72 5 10390 8.34200000 2212330559 2212330559 5.00000000
3.70259190 -0.91698468 -0.60414988 4 6 10391 3.86200000 2212330561 2212330561 -9.00000000
8.08290577 -2.00331163 1.02248383 83 7 10392 8.39000000 2212330563 2212330563 7.00000000
4.96320963 -1.23102844 -0.62787086 2 8 10393 5.15200000 2212330566 2212330566 -7.00000000
8.17301941 -2.02867413 1.33376026 5 9 10394 8.52600000 2212330568 2212330568 9.00000000
7.53953743 -1.87143385 -0.67964047 12 10 10394 7.79800000 2212330570 2212330570 -5.00000000
19.37551498 -4.81290293 3.88067341 38 11 10395 20.33800000 2212330573 2212330573 11.00000000
8.06126022 -2.00392127 -0.43533048 12 12 10396 8.31800000 2212330575 2212330575 -3.00000000
16.59251785 -4.12775278 3.94744110 38 13 10397 17.54800000 2212330577 2212330577 13.00000000
8.06651115 -2.00821662 -0.14509931 12 14 10398 8.31400000 2212330579 2212330579 -1.00000000
8.12242031 -2.02364111 2.24292588 47 15 10399 8.66600000 2212330582 2212330582 15.00000000
2.11946797 -0.53080082 -0.58544868 4 0 10406 2.26200000 2212330603 2212330603 -15.00000000
8.06722641 -2.02185726 0.14516912 12 1 10407 8.31800000 2212330605 2212330605 1.00000000
2.47804451 -0.62152225 -0.58982164 4 2 10408 2.62200000 2212330607 2212330607 -13.00000000
8.08187580 -2.02852726 0.43669122 13 3 10409 8.34400000 2212330609 2212330609 3.00000000
2.98386407 -0.74894124 -0.59799540 4 4 10409 3.13400000 2212330612 2212330612 -11.00000000
8.09080315 -2.03226924 0.72984219 76 5 10410 8.37400000 2212330614 2212330614 5.00000000
3.68021059 -0.92508787 -0.60102123 4 6 10411 3.84200000 2212330616 2212330616 -9.00000000
8.07971382 -2.03248239 1.02297127 83 7 10412 8.39400000 2212330619 2212330619 7.00000000
4.94733238 -1.24543822 -0.62640840 6 8 10413 5.14000000 2212330621 2212330621 -7.00000000
8.18887424 -2.06298161 1.33751464 5 9 10414 8.55000000 2212330623 2212330623 9.00000000
6.63650036 -1.67190003 -0.59875995 16 10 10414 6.87000000 2212330626 2212330626 -5.00000000
19.36811447 -4.88290644 3.88258147 11 11 10415 20.34800000 2212330628 2212330628 11.00000000
8.05227947 -2.03155947 -0.43522581 17 12 10416 8.31600000 2212330630 2212330630 -3.00000000
16.57423019 -4.18469238 3.94654131 39 13 10417 17.54400000 2212330632 2212330632 13.00000000
8.07302380 -2.03979087 -0.14534365 12 14 10418 8.32800000 2212330635 2212330635 -1.00000000
8.12877655 -2.05387759 2.24654937 47 15 10418 8.68000000 2212330637 2212330637 15.00000000
2.12883615 -0.54105103 -0.58855450 4 0 10426 2.27400000 2212330658 2212330658 -15.00000000
8.07174778 -2.05296230 0.14537854 12 1 10427 8.33000000 2212330660 2212330660 1.00000000
2.48152542 -0.63161051 -0.59117138 4 2 10428 2.62800000 2212330662 2212330662 -13.00000000
8.07474518 -2.05672598 0.43669122 10 3 10429 8.34400000 2212330665 2212330665 3.00000000
2.96601152 -0.75547558 -0.59494245 4 4 10429 3.11800000 2212330667 2212330667 -11.00000000
8.09910488 -2.06443596 0.73123670 90 5 10430 8.39000000 2212330669 2212330669 5.00000000
3.69992805 -0.94378757 -0.60477567 4 6 10431 3.86600000 2212330672 2212330672 -9.00000000
8.08411026 -2.06361938 1.02443373 85 7 10432 8.40600000 2212330674 2212330674 7.00000000
4.90064144 -1.25189090 -0.62104619 8 8 10433 5.09600000 2212330676 2212330676 -7.00000000
8.17396832 -2.08959675 1.33626318 5 9 10434 8.54200000 2212330679 2212330679 9.00000000
6.57850552 -1.68173194 -0.59405357 12 10 10434 6.81600000 2212330681 2212330681 -5.00000000
8.17669964 -2.09181547 1.64057577 6 11 10435 8.59800000 2212330683 2212330683 11.00000000
8.06448746 -2.06460834 -0.43627253 17 12 10436 8.33600000 2212330685 2212330685 -3.00000000
16.56707191 -4.24445629 3.94834089 38 13 10437 17.55200000 2212330688 2212330688 13.00000000
8.06585407 -2.06795859 -0.14534365 12 14 10438 8.32800000 2212330690 2212330690 -1.00000000
