# .PCD v0.7 - Point Cloud Data file format
VERSION 0.7
FIELDS x y z intensity laser_id azimuth distance_m adjustedtime timestamp vertical_angle
SIZE 4 4 4 1 1 2 8 8 4 8
TYPE F F F U U U F U U F
COUNT 1 1 1 1 1 1 1 1 1 1
WIDTH 528
HEIGHT 1
VIEWPOINT 0 0 0 1 0 0 0
POINTS 528
DATA ascii
2.99289417 -3.67357635 0.58180422 6 7 14083 4.77400000 2211940781 2211940781 7.00000000
2.85060048 -3.50016785 -0.55426174 8 8 14084 4.54800000 2211940784 2211940784 -7.00000000
4.30362272 -5.28429079 1.07939780 60 9 14084 6.90000000 2211940786 2211940786 9.00000000
3.92087626 -4.81604385 -0.54332888 11 10 14085 6.23400000 2211940788 2211940788 -5.00000000
4.28777170 -5.26858234 1.32039821 59 11 14086 6.92000000 2211940791 2211940791 11.00000000
4.31572723 -5.30482388 -0.35839662 10 12 14087 6.84800000 2211940793 2211940793 -3.00000000
4.28006744 -5.26286697 1.56610930 70 13 14088 6.96200000 2211940795 2211940795 13.00000000
3.06275296 -3.76737285 -0.08474889 2 14 14089 4.85600000 2211940797 2211940797 -1.00000000
4.26430225 -5.24722290 1.81173337 47 15 14090 7.00000000 2211940800 2211940800 15.00000000
1.31751239 -1.62525153 -0.56060207 5 0 14097 2.16600000 2211940820 2211940820 -15.00000000
3.03416944 -3.74421406 0.08412060 4 1 14098 4.82000000 2211940823 2211940823 1.00000000
1.47565544 -1.82163250 -0.54123223 2 2 14099 2.40600000 2211940825 2211940825 -13.00000000
3.02353406 -3.73242164 0.25173596 2 3 14099 4.81000000 2211940827 2211940827 3.00000000
1.78408515 -2.20316172 -0.55105639 3 4 14100 2.88800000 2211940830 2211940830 -11.00000000
3.02739811 -3.73985982 0.42096224 6 5 14101 4.83000000 2211940832 2211940832 5.00000000
2.19568992 -2.71338725 -0.55283940 1 6 14102 3.53400000 2211940834 2211940834 -9.00000000
4.27719355 -5.28755283 0.83504874 28 7 14103 6.85200000 2211940837 2211940837 7.00000000
2.83337259 -3.50392270 -0.55328679 8 8 14104 4.54000000 2211940839 2211940839 -7.00000000
4.26932430 -5.28159428 1.07564342 60 9 14105 6.87600000 2211940841 2211940841 9.00000000
3.88650632 -4.80800867 -0.54088855 11 10 14105 6.20600000 2211940844 2211940844 -5.00000000
4.25701571 -5.26824713 1.31658208 62 11 14106 6.90000000 2211940846 2211940846 11.00000000
4.28463364 -5.30431890 -0.35734990 10 12 14107 6.82800000 2211940848 2211940848 -3.00000000
4.23963356 -5.25048447 1.55801105 70 13 14108 6.92600000 2211940850 2211940850 13.00000000
3.04079151 -3.76714873 -0.08450455 6 14 14109 4.84200000 2211940853 2211940853 -1.00000000
4.23868132 -5.25305557 1.80862749 49 15 14110 6.98800000 2211940855 2211940855 15.00000000
1.30577469 -1.62231600 -0.55801386 4 0 14117 2.15600000 2211940876 2211940876 -15.00000000
3.03612399 -3.77347851 0.08453946 8 1 14118 4.84400000 2211940878 2211940878 1.00000000
1.48272264 -1.84347606 -0.54618114 3 2 14119 2.42800000 2211940880 2211940880 -13.00000000
3.03301883 -3.77096677 0.25362006 8 3 14119 4.84600000 2211940883 2211940883 3.00000000
1.77146304 -2.20325565 -0.54952991 3 4 14120 2.88000000 2211940885 2211940885 -11.00000000
3.01682138 -3.75351048 0.42131087 9 5 14121 4.83400000 2211940887 2211940887 5.00000000
2.19486570 -2.73181462 -0.55502951 1 6 14122 3.54800000 2211940890 2211940890 -9.00000000
4.25125217 -5.29316425 0.83358634 63 7 14123 6.84000000 2211940892 2211940892 7.00000000
2.82112432 -3.51379156 -0.55328679 8 8 14124 4.54000000 2211940894 2211940894 -7.00000000
4.23447275 -5.27415752 1.07126319 57 9 14124 6.84800000 2211940897 2211940897 9.00000000
3.83103991 -4.77337694 -0.53548491 11 10 14125 6.14400000 2211940899 2211940899 -5.00000000
4.22877169 -5.27082443 1.31352913 62 11 14126 6.88400000 2211940901 2211940901 11.00000000
4.26359272 -5.31612682 -0.35714057 10 12 14127 6.82400000 2211940903 2211940903 -3.00000000
4.21152830 -5.25308800 1.55441177 72 13 14128 6.91000000 2211940906 2211940906 13.00000000
3.01136589 -3.75745487 -0.08405079 6 14 14129 4.81600000 2211940908 2211940908 -1.00000000
4.20703220 -5.25123453 1.80293345 51 15 14130 6.96600000 2211940910 2211940910 15.00000000
1.29045546 -1.61479092 -0.55387276 4 0 14137 2.14000000 2211940931 2211940931 -15.00000000
3.00670815 -3.76374292 0.08408570 6 1 14138 4.81800000 2211940933 2211940933 1.00000000
1.51519203 -1.89736903 -0.56057805 4 2 14139 2.49200000 2211940936 2211940936 -13.00000000
3.00737405 -3.76592422 0.25257331 6 3 14139 4.82600000 2211940938 2211940938 3.00000000
1.77356017 -2.22170043 -0.55258286 3 4 14140 2.89600000 2211940940 2211940940 -11.00000000
2.99127340 -3.74844527 0.41956773 6 5 14141 4.81400000 2211940943 2211940943 5.00000000
2.18162084 -2.73482680 -0.55409086 1 6 14142 3.54200000 2211940945 2211940945 -9.00000000
4.22161102 -5.29400349 0.83139265 68 7 14143 6.82200000 2211940947 2211940947 7.00000000
2.81626606 -3.53293133 -0.55474925 8 8 14144 4.55200000 2211940950 2211940950 -7.00000000
4.20618629 -5.27654934 1.06876028 60 9 14144 6.83200000 2211940952 2211940952 9.00000000
3.83297920 -4.81009293 -0.53809953 11 10 14145 6.17400000 2211940954 2211940954 -5.00000000
4.19811487 -5.27019739 1.30971289 59 11 14146 6.86400000 2211940956 2211940956 11.00000000
4.22510386 -5.30597830 -0.35546583 10 12 14147 6.79200000 2211940959 2211940959 -3.00000000
4.18345690 -5.25555944 1.55081260 68 13 14148 6.89400000 2211940961 2211940961 13.00000000
4.21221638 -5.29358530 -0.11808299 8 14 14149 6.76600000 2211940963 2211940963 -1.00000000
4.16702938 -5.23867416 1.79361594 56 15 14150 6.93000000 2211940966 2211940966 15.00000000
1.28841329 -1.62382567 -0.55542564 4 0 14157 2.14600000 2211940986 2211940986 -15.00000000
4.19644022 -5.29079485 0.11787355 11 1 14158 6.75400000 2211940989 2211940989 1.00000000
1.51703489 -1.91333556 -0.56372732 10 2 14159 2.50600000 2211940991 2211940991 -13.00000000
4.20157290 -5.29916573 0.35441908 10 3 14159 6.77200000 2211940993 2211940993 3.00000000
1.77311099 -2.23710918 -0.55487257 3 4 14160 2.90800000 2211940996 2211940996 -11.00000000
4.18205929 -5.27833796 0.58917284 10 5 14161 6.76000000 2211940998 2211940998 5.00000000
2.17451429 -2.74552250 -0.55471659 1 6 14162 3.54600000 2211941000 2211941000 -9.00000000
4.18462229 -5.28536224 0.82773656 55 7 14163 6.79200000 2211941002 2211941002 7.00000000
2.79406095 -3.53028774 -0.55279934 8 8 14164 4.53600000 2211941005 2211941005 -7.00000000
4.17670870 -5.27725887 1.06594443 52 9 14164 6.81400000 2211941007 2211941007 9.00000000
3.86066890 -4.87969351 -0.54437476 11 10 14165 6.24600000 2211941009 2211941009 -5.00000000
4.16020727 -5.26018143 1.30360711 59 11 14166 6.83200000 2211941012 2211941012 11.00000000
4.19169235 -5.30189323 -0.35420975 10 12 14167 6.76800000 2211941014 2211941014 -3.00000000
4.15541935 -5.25789928 1.54721332 68 13 14168 6.87800000 2211941016 2211941016 13.00000000
4.18255615 -5.29413462 -0.11776884 8 14 14169 6.74800000 2211941019 2211941019 -1.00000000
4.14005375 -5.24033689 1.78947484 60 15 14169 6.91400000 2211941021 2211941021 15.00000000
1.28393269 -1.62983060 -0.55594331 4 0 14177 2.14800000 2211941042 2211941042 -15.00000000
4.16681194 -5.29127169 0.11755941 11 1 14178 6.73600000 2211941044 2211941044 1.00000000
1.50070369 -1.90636957 -0.56012815 12 2 14179 2.49000000 2211941046 2211941046 -13.00000000
4.17069578 -5.29810619 0.35337237 7 3 14179 6.75200000 2211941049 2211941049 3.00000000
1.76286304 -2.24019933 -0.55410933 3 4 14180 2.90400000 2211941051 2211941051 -11.00000000
4.15621805 -5.28350830 0.58812696 10 5 14181 6.74800000 2211941053 2211941053 5.00000000
2.15759110 -2.74377942 -0.55283940 1 6 14182 3.53400000 2211941055 2211941055 -9.00000000
4.14651918 -5.27496672 0.82383674 57 7 14183 6.76000000 2211941058 2211941058 7.00000000
2.78417397 -3.54314113 -0.55328679 8 8 14184 4.54000000 2211941060 2211941060 -7.00000000
4.14849806 -5.27938080 1.06344151 55 9 14184 6.79800000 2211941062 2211941062 9.00000000
3.85099649 -4.90254068 -0.54542065 11 10 14185 6.25800000 2211941065 2211941065 -5.00000000
4.13212061 -5.26231861 1.30055416 56 11 14186 6.81600000 2211941067 2211941067 11.00000000
4.15589523 -5.29449797 -0.35274434 10 12 14187 6.74000000 2211941069 2211941069 -3.00000000
4.12260485 -5.25397491 1.54181457 64 13 14188 6.85400000 2211941072 2211941072 13.00000000
4.15787983 -5.30083513 -0.11759432 8 14 14189 6.73800000 2211941074 2211941074 -1.00000000
4.11128330 -5.24331379 1.78533375 54 15 14190 6.89800000 2211941076 2211941076 15.00000000
1.28299630 -1.64038932 -0.55801386 4 0 14197 2.15600000 2211941097 2211941097 -15.00000000
4.14092636 -5.29633236 0.11734998 11 1 14198 6.72400000 2211941099 2211941099 1.00000000
1.49284005 -1.91006088 -0.55967820 17 2 14199 2.48800000 2211941102 2211941102 -13.00000000
4.13034534 -5.28660107 0.35159296 10 3 14200 6.71800000 2211941104 2211941104 3.00000000
1.73811066 -2.22468019 -0.54876667 3 4 14200 2.87600000 2211941106 2211941106 -11.00000000
4.12793922 -5.28542233 0.58673245 10 5 14201 6.73200000 2211941108 2211941108 5.00000000
2.15043163 -2.75440812 -0.55346513 1 6 14202 3.53800000 2211941111 2211941111 -9.00000000
4.12319517 -5.28314877 0.82286179 55 7 14203 6.75200000 2211941113 2211941113 7.00000000
2.76690483 -3.54657769 -0.55231184 8 8 14204 4.53200000 2211941115 2211941115 -7.00000000
4.11546326 -5.27513981 1.05968702 52 9 14204 6.77400000 2211941118 2211941118 9.00000000
3.83876085 -4.92223787 -0.54611790 15 10 14205 6.26600000 2211941120 2211941120 -5.00000000
4.10648394 -5.26742029 1.29826438 56 11 14206 6.80400000 2211941122 2211941122 11.00000000
4.13493299 -5.30582190 -0.35253501 10 12 14207 6.73600000 2211941125 2211941125 -3.00000000
4.08986855 -5.24988604 1.53641570 62 13 14208 6.83000000 2211941127 2211941127 13.00000000
4.11846399 -5.28849506 -0.11700093 8 14 14209 6.70400000 2211941129 2211941129 -1.00000000
4.08556414 -5.24624920 1.78171027 47 15 14209 6.88400000 2211941132 2211941132 15.00000000
1.27015340 -1.63570273 -0.55490804 4 0 14217 2.14400000 2211941152 2211941152 -15.00000000
4.11015177 -5.29495811 0.11700093 11 1 14218 6.70400000 2211941155 2211941155 1.00000000
1.48855293 -1.91833949 -0.56057805 30 2 14219 2.49200000 2211941157 2211941157 -13.00000000
4.10574579 -5.29309607 0.35106960 10 3 14220 6.70800000 2211941159 2211941159 3.00000000
1.73033452 -2.23073387 -0.54876667 3 4 14220 2.87600000 2211941161 2211941161 -11.00000000
4.09237194 -5.27775621 0.58429211 10 5 14221 6.70400000 2211941164 2211941164 5.00000000
2.14201403 -2.76345897 -0.55377799 1 6 14222 3.54000000 2211941166 2211941166 -9.00000000
4.09256983 -5.28181791 0.82042444 57 7 14223 6.73200000 2211941168 2211941168 7.00000000
2.75450826 -3.55621433 -0.55231184 6 8 14224 4.53200000 2211941171 2211941171 -7.00000000
4.08158922 -5.27144527 1.05593264 55 9 14225 6.75000000 2211941173 2211941173 9.00000000
3.81423712 -4.92615557 -0.54507202 15 10 14225 6.25400000 2211941175 2211941175 -5.00000000
4.07845879 -5.26930237 1.29521143 53 11 14226 6.78800000 2211941178 2211941178 11.00000000
4.10172081 -5.30126715 -0.35127893 10 12 14227 6.71200000 2211941180 2211941180 -3.00000000
4.08530092 -5.28385544 -0.11658207 8 14 14229 6.68000000 2211941185 2211941185 -1.00000000
1.25735891 -1.63094664 -0.55180222 4 0 14237 2.13200000 2211941208 2211941208 -15.00000000
4.07699585 -5.29026604 0.11658207 11 1 14238 6.68000000 2211941210 2211941210 1.00000000
1.47590125 -1.91580498 -0.55832851 38 2 14239 2.48200000 2211941212 2211941212 -13.00000000
4.08237028 -5.30106592 0.35065091 10 3 14240 6.70000000 2211941214 2211941214 3.00000000
1.72972453 -2.24609303 -0.55105639 3 4 14240 2.88800000 2211941217 2211941217 -11.00000000
4.06906271 -5.28569412 0.58359486 10 5 14241 6.69600000 2211941219 2211941219 5.00000000
2.12271690 -2.75839543 -0.55127507 3 6 14242 3.52400000 2211941221 2211941221 -9.00000000
4.06684589 -5.28663063 0.81896198 55 7 14243 6.72000000 2211941224 2211941224 7.00000000
2.74207783 -3.56580758 -0.55231184 6 8 14244 4.53200000 2211941226 2211941226 -7.00000000
3.79216123 -4.93312120 -0.54437476 11 10 14245 6.24600000 2211941231 2211941231 -5.00000000
4.06372404 -5.29021025 -0.34960419 10 12 14247 6.68000000 2211941235 2211941235 -3.00000000
3.96647739 -5.16547966 1.50357282 40 13 14248 6.68400000 2211941238 2211941238 13.00000000
4.05709076 -5.28539324 -0.11630283 9 14 14249 6.66400000 2211941240 2211941240 -1.00000000
3.95120597 -5.14745140 1.73874629 9 15 14249 6.71800000 2211941242 2211941242 15.00000000
1.25283241 -1.63685977 -0.55231982 4 0 14257 2.13400000 2211941263 2211941263 -15.00000000
4.04635334 -5.28858328 0.11623303 11 1 14258 6.66000000 2211941265 2211941265 1.00000000
1.46565318 -1.91630149 -0.55697882 39 2 14259 2.47600000 2211941267 2211941267 -13.00000000
4.04807091 -5.29465723 0.34929016 10 3 14260 6.67400000 2211941270 2211941270 3.00000000
1.71948874 -2.24899793 -0.55029315 2 4 14260 2.88400000 2211941272 2211941272 -11.00000000
4.04211855 -5.28878450 0.58237469 10 5 14261 6.68200000 2211941274 2211941274 5.00000000
2.10947752 -2.76107907 -0.55033642 3 6 14262 3.51800000 2211941277 2211941277 -9.00000000
4.03149891 -5.27870798 0.81554967 57 7 14263 6.69200000 2211941279 2211941279 7.00000000
2.73443270 -3.58166885 -0.55328679 6 8 14264 4.54000000 2211941281 2211941281 -7.00000000
3.95840168 -5.18674898 1.03340602 10 9 14265 6.60600000 2211941284 2211941284 9.00000000
3.76645708 -4.93524122 -0.54315460 15 10 14265 6.23200000 2211941286 2211941286 -5.00000000
3.94869065 -5.17589760 1.26544523 12 11 14266 6.63200000 2211941288 2211941288 11.00000000
4.03796577 -5.29483461 -0.34897617 10 12 14267 6.66800000 2211941290 2211941290 -3.00000000
3.93660784 -5.16379642 1.49907386 22 13 14268 6.66400000 2211941293 2211941293 13.00000000
4.03376818 -5.29316092 -0.11616322 9 14 14269 6.65600000 2211941295 2211941295 -1.00000000
3.92294765 -5.14960480 1.73460519 9 15 14270 6.70200000 2211941297 2211941297 15.00000000
1.24711108 -1.64122295 -0.55231982 2 0 14277 2.13400000 2211941318 2211941318 -15.00000000
4.01577234 -5.28675175 0.11588398 11 1 14278 6.64000000 2211941320 2211941320 1.00000000
1.45188427 -1.91209376 -0.55427939 29 2 14279 2.46400000 2211941323 2211941323 -13.00000000
4.01024389 -5.28330135 0.34761542 10 3 14280 6.64200000 2211941325 2211941325 3.00000000
1.72112370 -2.26749682 -0.55334610 2 4 14280 2.90000000 2211941327 2211941327 -11.00000000
4.01038504 -5.28540277 0.58045727 9 5 14281 6.66000000 2211941330 2211941330 5.00000000
2.10698938 -2.77786899 -0.55221367 1 6 14282 3.53000000 2211941332 2211941332 -9.00000000
3.99985552 -5.27534819 0.81286854 60 7 14283 6.67000000 2211941334 2211941334 7.00000000
2.71471906 -3.58169985 -0.55182439 6 8 14284 4.52800000 2211941337 2211941337 -7.00000000
3.93521404 -5.19197559 1.03184175 10 9 14284 6.59600000 2211941339 2211941339 9.00000000
3.75642633 -4.95788717 -0.54420048 15 10 14285 6.24400000 2211941341 2211941341 -5.00000000
3.91874599 -5.17399883 1.26162910 12 11 14286 6.61200000 2211941343 2211941343 11.00000000
4.00258064 -5.28660440 -0.34751076 10 12 14287 6.64000000 2211941346 2211941346 -3.00000000
3.89856625 -5.15109015 1.49142551 23 13 14288 6.63000000 2211941348 2211941348 13.00000000
4.00802803 -5.29764128 -0.11595379 9 14 14289 6.64400000 2211941350 2211941350 -1.00000000
3.90351820 -5.15950441 1.73356998 9 15 14289 6.69800000 2211941353 2211941353 15.00000000
1.24835503 -1.65481961 -0.55542564 4 0 14297 2.14600000 2211941373 2211941373 -15.00000000
3.99006963 -5.29115725 0.11567455 11 1 14298 6.62800000 2211941376 2211941376 1.00000000
1.45341229 -1.92804301 -0.55742872 13 2 14299 2.47800000 2211941378 2211941378 -13.00000000
3.97735357 -5.27812624 0.34635937 10 3 14300 6.61800000 2211941380 2211941380 3.00000000
1.70138299 -2.25781155 -0.54952991 3 4 14300 2.88000000 2211941383 2211941383 -11.00000000
3.98471856 -5.28982067 0.57941139 9 5 14301 6.64800000 2211941385 2211941385 5.00000000
2.10322118 -2.79309678 -0.55377799 1 6 14302 3.54000000 2211941387 2211941387 -9.00000000
3.96828461 -5.27183247 0.81018740 55 7 14303 6.64800000 2211941390 2211941390 7.00000000
2.69742584 -3.58480930 -0.55084944 6 8 14304 4.52000000 2211941392 2211941392 -7.00000000
3.89715910 -5.18110561 1.02683580 10 9 14305 6.56400000 2211941394 2211941394 9.00000000
3.73670173 -4.96778488 -0.54385185 15 10 14305 6.24000000 2211941396 2211941396 -5.00000000
3.89240241 -5.17666245 1.25895774 12 11 14306 6.59800000 2211941399 2211941399 11.00000000
3.98170233 -5.29735088 -0.34730139 10 12 14307 6.63600000 2211941401 2211941401 -3.00000000
3.87353826 -5.15531969 1.48872602 23 13 14308 6.61800000 2211941403 2211941403 13.00000000
3.97870302 -5.29720926 -0.11563964 9 14 14309 6.62600000 2211941406 2211941406 -1.00000000
3.87762189 -5.16450739 1.73046410 9 15 14310 6.68600000 2211941408 2211941408 15.00000000
1.24170232 -1.65740418 -0.55490804 4 0 14316 2.14400000 2211941429 2211941429 -15.00000000
3.96530938 -5.29475641 0.11546512 11 1 14317 6.61600000 2211941431 2211941431 1.00000000
1.44701064 -1.93285215 -0.55742872 6 2 14318 2.47800000 2211941433 2211941433 -13.00000000
3.95504212 -5.28489065 0.34594068 10 3 14319 6.61000000 2211941436 2211941436 3.00000000
1.69388652 -2.26344109 -0.54952991 3 4 14319 2.88000000 2211941438 2211941438 -11.00000000
3.94686580 -5.27588415 0.57644808 9 5 14320 6.61400000 2211941440 2211941440 5.00000000
2.08211732 -2.78423643 -0.55064934 1 6 14321 3.52000000 2211941443 2211941443 -9.00000000
3.94483805 -5.27701330 0.80896872 60 7 14322 6.63800000 2211941445 2211941445 7.00000000
2.68314695 -3.59055448 -0.55036193 6 8 14323 4.51600000 2211941447 2211941447 -7.00000000
3.86430836 -5.17117023 1.02245569 10 9 14323 6.53600000 2211941449 2211941449 9.00000000
3.71424556 -4.97216749 -0.54298025 15 10 14324 6.23000000 2211941452 2211941452 -5.00000000
3.86699176 -5.17853022 1.25628638 12 11 14325 6.58400000 2211941454 2211941454 11.00000000
3.95933485 -5.30412340 -0.34688273 10 12 14326 6.62800000 2211941456 2211941456 -3.00000000
3.84826326 -5.15720367 1.48557675 30 13 14327 6.60400000 2211941459 2211941459 13.00000000
3.94437623 -5.28793335 -0.11515098 9 14 14328 6.59800000 2211941461 2211941461 -1.00000000
3.84982753 -5.16117907 1.72528780 9 15 14328 6.66600000 2211941463 2211941463 15.00000000
1.23245060 -1.65707803 -0.55335510 4 0 14336 2.13800000 2211941484 2211941484 -15.00000000
3.93129277 -5.28770351 0.11501136 11 1 14337 6.59000000 2211941486 2211941486 1.00000000
1.43560517 -1.93163502 -0.55562907 5 2 14338 2.47000000 2211941489 2211941489 -13.00000000
3.93180585 -5.29225111 0.34552199 10 3 14339 6.60200000 2211941491 2211941491 3.00000000
1.68597531 -2.26934004 -0.54952991 3 4 14339 2.88000000 2211941493 2211941493 -11.00000000
3.91060662 -5.26563644 0.57383341 9 5 14340 6.58400000 2211941496 2211941496 5.00000000
2.07120824 -2.78990149 -0.55033642 1 6 14341 3.51800000 2211941498 2211941498 -9.00000000
3.91811275 -5.27959251 0.80726254 55 7 14342 6.62400000 2211941500 2211941500 7.00000000
2.67296267 -3.60308695 -0.55084944 6 8 14343 4.52000000 2211941502 2211941502 -7.00000000
3.84768248 -5.18847227 1.02308142 15 9 14344 6.54000000 2211941505 2211941505 9.00000000
3.68974614 -4.97550058 -0.54193443 15 10 14344 6.21800000 2211941507 2211941507 -5.00000000
3.83486199 -5.17307091 1.25170696 15 11 14345 6.56000000 2211941509 2211941509 11.00000000
3.93366122 -5.30828333 -0.34625468 14 12 14346 6.61600000 2211941512 2211941512 -3.00000000
3.74555969 -5.05629444 1.45273387 14 13 14347 6.45800000 2211941514 2211941514 13.00000000
3.91399360 -5.28559923 -0.11480193 9 14 14348 6.57800000 2211941516 2211941516 -1.00000000
3.65732837 -4.94079208 1.64712441 9 15 14349 6.36400000 2211941519 2211941519 15.00000000
1.22321641 -1.65670764 -0.55180222 4 0 14356 2.13200000 2211941539 2211941539 -15.00000000
3.90568614 -5.29174089 0.11480193 11 1 14357 6.57800000 2211941542 2211941542 1.00000000
1.42075503 -1.92565763 -0.55247980 14 2 14358 2.45600000 2211941544 2211941544 -13.00000000
3.89789701 -5.28504753 0.34416124 10 3 14359 6.57600000 2211941546 2211941546 3.00000000
1.67571294 -2.27205133 -0.54876667 3 4 14359 2.87600000 2211941549 2211941549 -11.00000000
3.87564993 -5.25680351 0.57139307 9 5 14360 6.55600000 2211941551 2211941551 5.00000000
2.05559731 -2.78916335 -0.54877210 1 6 14361 3.50800000 2211941553 2211941553 -9.00000000
3.88788533 -5.27725506 0.80482513 34 7 14362 6.60400000 2211941555 2211941555 7.00000000
2.66507769 -3.61878896 -0.55182439 6 8 14363 4.52800000 2211941558 2211941558 -7.00000000
3.69691682 -5.01987696 0.98741436 10 9 14363 6.31200000 2211941560 2211941560 9.00000000
3.66763115 -4.98193169 -0.54123718 15 10 14364 6.21000000 2211941562 2211941562 -5.00000000
3.64688778 -4.95556641 1.19599080 9 11 14365 6.26800000 2211941565 2211941565 11.00000000
3.89853835 -5.29945850 -0.34478927 14 12 14366 6.58800000 2211941567 2211941567 -3.00000000
3.64245391 -4.95316219 1.41944110 9 13 14367 6.31000000 2211941569 2211941569 13.00000000
3.88959765 -5.29117346 -0.11462741 9 14 14368 6.56800000 2211941572 2211941572 -1.00000000
3.62833762 -4.93577099 1.64143038 9 15 14368 6.34200000 2211941574 2211941574 15.00000000
1.22085214 -1.66564167 -0.55335510 4 0 14376 2.13800000 2211941595 2211941595 -15.00000000
3.85646200 -5.26340246 0.11389440 8 1 14377 6.52600000 2211941597 2211941597 1.00000000
1.41172159 -1.92746091 -0.55158001 9 2 14378 2.45200000 2211941599 2211941599 -13.00000000
3.71424270 -5.07301092 0.32950717 7 3 14379 6.29600000 2211941602 2211941602 3.00000000
1.67241085 -2.28422308 -0.55029315 3 4 14379 2.88400000 2211941604 2211941604 -11.00000000
3.63723063 -4.96964550 0.53879678 9 5 14380 6.18200000 2211941606 2211941606 5.00000000
2.05517983 -2.80907583 -0.55127507 1 6 14381 3.52400000 2211941608 2211941608 -9.00000000
3.62921190 -4.96232271 0.75485873 7 7 14382 6.19400000 2211941611 2211941611 7.00000000
2.65242958 -3.62806988 -0.55182439 6 8 14383 4.52800000 2211941613 2211941613 -7.00000000
3.62924075 -4.96418047 0.97396100 10 9 14383 6.22600000 2211941615 2211941615 9.00000000
3.64316511 -4.98505211 -0.54019129 15 10 14384 6.19800000 2211941618 2211941618 -5.00000000
3.61914420 -4.95399857 1.19255626 12 11 14385 6.25000000 2211941620 2211941620 11.00000000
3.86352539 -5.29045343 -0.34332389 10 12 14386 6.56000000 2211941622 2211941622 -3.00000000
3.61250281 -4.94853306 1.41449225 9 13 14387 6.28800000 2211941625 2211941625 13.00000000
3.67542720 -5.03657484 -0.10883321 6 14 14388 6.23600000 2211941627 2211941627 -1.00000000
3.59855986 -4.93124056 1.63573635 9 15 14388 6.32000000 2211941629 2211941629 15.00000000
1.21701169 -1.67322981 -0.55439037 4 0 14397 2.14200000 2211941650 2211941650 -15.00000000
3.62782454 -4.98960876 0.10768135 11 1 14398 6.17000000 2211941652 2211941652 1.00000000
1.41266763 -1.94365668 -0.55472928 4 2 14399 2.46600000 2211941655 2211941655 -13.00000000
3.61344719 -4.97348309 0.32218015 10 3 14400 6.15600000 2211941657 2211941657 3.00000000
1.65710378 -2.28080773 -0.54800344 3 4 14400 2.87200000 2211941659 2211941659 -11.00000000
3.60962510 -4.97004652 0.53740233 9 5 14401 6.16600000 2211941661 2211941661 5.00000000
2.04022813 -2.81019545 -0.55002356 1 6 14402 3.51600000 2211941664 2211941664 -9.00000000
3.61099958 -4.97559118 0.75485873 10 7 14403 6.19400000 2211941666 2211941666 7.00000000
2.63095450 -3.62651968 -0.55011821 6 8 14404 4.51400000 2211941668 2211941668 -7.00000000
3.59855604 -4.96208763 0.97083229 10 9 14405 6.20600000 2211941671 2211941671 9.00000000
3.62136030 -4.99353313 -0.53966838 15 10 14405 6.19200000 2211941673 2211941673 -5.00000000
3.59865808 -4.96405125 1.19179296 12 11 14406 6.24600000 2211941675 2211941675 11.00000000
3.61674404 -4.99083233 -0.32301751 9 12 14407 6.17200000 2211941678 2211941678 -3.00000000
3.58290887 -4.94595861 1.40999317 9 13 14408 6.26800000 2211941680 2211941680 13.00000000
3.60768294 -4.98198748 -0.10736720 9 14 14409 6.15200000 2211941682 2211941682 -1.00000000
3.57932878 -4.94283199 1.63521874 9 15 14409 6.31800000 2211941684 2211941684 15.00000000
1.21229446 -1.67903399 -0.55490804 4 0 14417 2.14400000 2211941705 2211941705 -15.00000000
3.59868240 -4.98602676 0.10733230 11 1 14418 6.15000000 2211941708 2211941708 1.00000000
1.41841674 -1.96595991 -0.55967820 4 2 14419 2.48800000 2211941710 2211941710 -13.00000000
3.58554959 -4.97148705 0.32123810 10 3 14420 6.13800000 2211941712 2211941712 3.00000000
1.65372586 -2.29294729 -0.54952991 3 4 14420 2.88000000 2211941714 2211941714 -11.00000000
3.57827210 -4.96322203 0.53531057 9 5 14421 6.14200000 2211941717 2211941717 5.00000000
2.03733611 -2.82691550 -0.55190080 1 6 14422 3.52800000 2211941719 2211941719 -9.00000000
3.58896804 -4.98172283 0.75388378 10 7 14423 6.18600000 2211941721 2211941721 7.00000000
2.61943960 -3.63729215 -0.55036193 6 8 14424 4.51600000 2211941724 2211941724 -7.00000000
3.57198024 -4.96179342 0.96832931 10 9 14425 6.19000000 2211941726 2211941726 9.00000000
3.59110308 -4.98835659 -0.53775096 15 10 14425 6.17000000 2211941728 2211941728 -5.00000000
3.57672143 -4.97020864 1.19026649 12 11 14426 6.23800000 2211941731 2211941731 11.00000000
3.58763742 -4.98721313 -0.32197079 9 12 14427 6.15200000 2211941733 2211941733 -3.00000000
3.55538297 -4.94419575 1.40594411 9 13 14428 6.25000000 2211941735 2211941735 13.00000000
3.56926107 -4.96532345 -0.10673892 9 14 14429 6.11600000 2211941737 2211941737 -1.00000000
3.55216980 -4.94336748 1.63107765 9 15 14430 6.30200000 2211941740 2211941740 15.00000000
1.20305002 -1.67854488 -0.55335510 4 0 14437 2.13800000 2211941761 2211941761 -15.00000000
3.56960964 -4.98230267 0.10698325 11 1 14438 6.13000000 2211941763 2211941763 1.00000000
1.41494966 -1.97565210 -0.56102794 5 2 14439 2.49400000 2211941765 2211941765 -13.00000000
3.56468606 -4.97910070 0.32092407 7 3 14440 6.13200000 2211941767 2211941767 3.00000000
1.64114046 -2.29232073 -0.54800344 3 4 14440 2.87200000 2211941770 2211941770 -11.00000000
3.54817057 -4.95785999 0.53339314 9 5 14441 6.12000000 2211941772 2211941772 5.00000000
2.02630663 -2.83240342 -0.55158794 1 6 14442 3.52600000 2211941774 2211941774 -9.00000000
3.56231904 -4.98130274 0.75193387 10 7 14443 6.17000000 2211941777 2211941777 7.00000000
2.61134481 -3.65287304 -0.55133688 6 8 14444 4.52400000 2211941779 2211941779 -7.00000000
3.54774761 -4.96458864 0.96645212 10 9 14445 6.17800000 2211941781 2211941781 9.00000000
3.56440139 -4.98789358 -0.53635645 11 10 14445 6.15400000 2211941784 2211941784 -5.00000000
3.54793859 -4.96668816 1.18645036 12 11 14446 6.21800000 2211941786 2211941786 11.00000000
3.56556439 -4.99320459 -0.32155213 13 12 14447 6.14400000 2211941788 2211941788 -3.00000000
3.53357387 -4.95023203 1.40414453 9 13 14448 6.24200000 2211941790 2211941790 13.00000000
3.54609966 -4.96961355 -0.10656440 9 14 14449 6.10600000 2211941793 2211941793 -1.00000000
3.52229214 -4.93624878 1.62486601 9 15 14449 6.27800000 2211941795 2211941795 15.00000000
1.19494355 -1.67958581 -0.55231982 4 0 14457 2.13400000 2211941816 2211941816 -15.00000000
3.53249431 -4.96702957 0.10638987 11 1 14458 6.09600000 2211941818 2211941818 1.00000000
1.39223659 -1.95834327 -0.55472928 3 2 14459 2.46600000 2211941820 2211941820 -13.00000000
3.54728413 -4.99151373 0.32092407 7 3 14460 6.13200000 2211941823 2211941823 3.00000000
1.63995242 -2.30763721 -0.55029315 3 4 14460 2.88400000 2211941825 2211941825 -11.00000000
3.52968884 -4.96859121 0.53321886 13 5 14461 6.11800000 2211941827 2211941827 5.00000000
2.00268245 -2.82013226 -0.54783350 1 6 14462 3.50200000 2211941830 2211941830 -9.00000000
3.52307677 -4.96295214 0.74730283 10 7 14463 6.13200000 2211941832 2211941832 7.00000000
2.58938766 -3.64901495 -0.54938698 6 8 14464 4.50800000 2211941834 2211941834 -7.00000000
3.52239609 -4.96566439 0.96426207 10 9 14465 6.16400000 2211941837 2211941837 9.00000000
3.54120493 -4.99217987 -0.53548491 11 10 14465 6.14400000 2211941839 2211941839 -5.00000000
3.50786781 -4.94701290 1.17881799 12 11 14466 6.17800000 2211941841 2211941841 11.00000000
3.52732325 -4.97629023 -0.31966802 9 12 14467 6.10800000 2211941843 2211941843 -3.00000000
3.50951290 -4.95299625 1.40144503 9 13 14468 6.23000000 2211941846 2211941846 13.00000000
3.52295160 -4.97380209 -0.10638987 9 14 14469 6.09600000 2211941848 2211941848 -1.00000000
3.49722362 -4.93747854 1.62124252 9 15 14469 6.26400000 2211941850 2211941850 15.00000000
1.19130230 -1.68690276 -0.55335510 4 0 14477 2.13800000 2211941871 2211941871 -15.00000000
3.50590849 -4.96626091 0.10611063 11 1 14478 6.08000000 2211941873 2211941873 1.00000000
1.38089788 -1.95682240 -0.55292970 3 2 14479 2.45800000 2211941876 2211941876 -13.00000000
3.51689315 -4.98366737 0.31966802 10 3 14479 6.10800000 2211941878 2211941878 3.00000000
1.62962389 -2.31013918 -0.54952991 3 4 14480 2.88000000 2211941880 2211941880 -11.00000000
3.49969363 -4.96297073 0.53130138 13 5 14481 6.09600000 2211941883 2211941883 5.00000000
1.99396420 -2.82872033 -0.54814637 1 6 14482 3.50400000 2211941885 2211941885 -9.00000000
3.50230122 -4.97035122 0.74657160 10 7 14483 6.12600000 2211941887 2211941887 7.00000000
2.57206202 -3.65153956 -0.54841202 6 8 14484 4.50000000 2211941889 2211941889 -7.00000000
3.50363493 -4.97408772 0.96363628 10 9 14484 6.16000000 2211941892 2211941892 9.00000000
3.51802206 -4.99636507 -0.53461331 11 10 14485 6.13400000 2211941894 2211941894 -5.00000000
3.48718810 -4.95441103 1.17767310 12 11 14486 6.17200000 2211941896 2211941896 11.00000000
3.49154258 -4.96243763 -0.31799328 9 12 14487 6.07600000 2211941899 2211941899 -3.00000000
3.48099160 -4.94927692 1.39694607 9 13 14488 6.21000000 2211941901 2211941901 13.00000000
3.50096798 -4.97952604 -0.10625025 9 14 14489 6.08800000 2211941903 2211941903 -1.00000000
3.47996736 -4.94965601 1.62124252 9 15 14489 6.26400000 2211941906 2211941906 15.00000000
1.18873334 -1.69579661 -0.55490804 4 0 14497 2.14400000 2211941926 2211941926 -15.00000000
3.49084663 -4.98174381 0.10618044 11 1 14498 6.08400000 2211941929 2211941929 1.00000000
1.36958671 -1.95524621 -0.55113006 3 2 14499 2.45000000 2211941931 2211941931 -13.00000000
3.48256540 -4.97361898 0.31820261 7 3 14500 6.08000000 2211941933 2211941933 3.00000000
1.61929798 -2.31259704 -0.54876667 3 4 14500 2.87600000 2211941936 2211941936 -11.00000000
3.48234844 -4.97515678 0.53130138 9 5 14501 6.09600000 2211941938 2211941938 5.00000000
1.99427021 -2.85022998 -0.55096221 3 6 14502 3.52200000 2211941940 2211941940 -9.00000000
3.47582817 -4.96953297 0.74462169 10 7 14503 6.11000000 2211941942 2211941942 7.00000000
2.55929995 -3.66049552 -0.54841202 6 8 14504 4.50000000 2211941945 2211941945 -7.00000000
3.46501136 -4.95775175 0.95800465 10 9 14505 6.12400000 2211941947 2211941947 9.00000000
3.49599457 -5.00208282 -0.53391606 15 10 14505 6.12600000 2211941949 2211941949 -5.00000000
3.46087766 -4.95367813 1.17462015 12 11 14506 6.15600000 2211941952 2211941952 11.00000000
3.46733785 -4.96477032 -0.31736523 9 12 14507 6.06400000 2211941954 2211941954 -3.00000000
3.44473028 -4.93423367 1.38929772 10 13 14508 6.17600000 2211941956 2211941956 13.00000000
3.46868753 -4.97039795 -0.10579649 9 14 14509 6.06200000 2211941959 2211941959 -1.00000000
3.45074964 -4.94653368 1.61606610 9 15 14510 6.24400000 2211941961 2211941961 15.00000000
1.17728984 -1.69200695 -0.55231982 4 0 14517 2.13400000 2211941982 2211941982 -15.00000000
3.46430135 -4.98076534 0.10590120 11 1 14518 6.06800000 2211941984 2211941984 1.00000000
1.36942804 -1.96961510 -0.55382949 3 2 14519 2.46200000 2211941986 2211941986 -13.00000000
3.45807219 -4.97366142 0.31746992 10 3 14519 6.06600000 2211941989 2211941989 3.00000000
1.60897470 -2.31501126 -0.54800344 3 4 14520 2.87200000 2211941991 2211941991 -11.00000000
3.45586634 -4.97419214 0.52990693 9 5 14521 6.08000000 2211941993 2211941993 5.00000000
1.98205531 -2.85392904 -0.55033642 3 6 14522 3.51800000 2211941995 2211941995 -9.00000000
3.44940352 -4.96859026 0.74267179 10 7 14523 6.09400000 2211941998 2211941998 7.00000000
2.55556107 -3.68245363 -0.55036193 6 8 14524 4.51600000 2211942000 2211942000 -7.00000000
3.43642473 -4.95358562 0.95487595 10 9 14525 6.10400000 2211942002 2211942002 9.00000000
3.45807099 -4.98478889 -0.53077847 11 10 14525 6.09000000 2211942005 2211942005 -5.00000000
3.43349624 -4.95120907 1.17118561 12 11 14526 6.13800000 2211942007 2211942007 11.00000000
3.45226216 -4.98012638 -0.31757459 13 12 14527 6.06800000 2211942009 2211942009 -3.00000000
3.42415571 -4.94142246 1.38794804 9 13 14528 6.17000000 2211942012 2211942012 13.00000000
3.44220710 -4.96932507 -0.10551725 9 14 14529 6.04600000 2211942014 2211942014 -1.00000000
3.42002678 -4.93730450 1.60933685 9 15 14529 6.21800000 2211942016 2211942016 15.00000000
1.16918075 -1.69292688 -0.55128455 4 0 14537 2.13000000 2211942037 2211942037 -15.00000000
3.43098879 -4.96978903 0.10541254 11 1 14538 6.04000000 2211942039 2211942039 1.00000000
1.36254442 -1.97438335 -0.55382949 3 2 14539 2.46200000 2211942041 2211942041 -13.00000000
3.43274879 -4.97419500 0.31673720 7 3 14539 6.05200000 2211942044 2211942044 3.00000000
1.60311365 -2.32384539 -0.54876667 3 4 14540 2.87600000 2211942046 2211942046 -11.00000000
3.41812253 -4.95670128 0.52676928 13 5 14541 6.04400000 2211942048 2211942048 5.00000000
1.96423316 -2.84944558 -0.54814637 3 6 14542 3.50400000 2211942051 2211942051 -9.00000000
3.42753339 -4.97406244 0.74169683 10 7 14543 6.08600000 2211942053 2211942053 7.00000000
2.53818703 -3.68481255 -0.54938698 6 8 14544 4.50800000 2211942055 2211942055 -7.00000000
3.41351128 -4.95741606 0.95331162 10 9 14545 6.09400000 2211942058 2211942058 9.00000000
3.42935038 -4.98041916 -0.52903533 11 10 14545 6.07000000 2211942060 2211942060 -5.00000000
3.41173983 -4.95669556 1.16965914 12 11 14546 6.13000000 2211942062 2211942062 11.00000000
3.42580009 -4.97898340 -0.31673720 9 12 14547 6.05200000 2211942065 2211942065 -3.00000000
3.39805150 -4.94050026 1.38434875 9 13 14548 6.15400000 2211942067 2211942067 13.00000000
3.41917539 -4.97307158 -0.10534272 9 14 14549 6.03600000 2211942069 2211942069 -1.00000000
3.39292121 -4.93488550 1.60467803 9 15 14549 6.20000000 2211942071 2211942071 15.00000000
1.16763330 -1.70337152 -0.55335510 4 0 14557 2.13800000 2211942092 2211942092 -15.00000000
3.39666510 -4.95699167 0.10488896 11 1 14558 6.01000000 2211942094 2211942094 1.00000000
1.35344172 -1.97591197 -0.55292970 3 2 14559 2.45800000 2211942097 2211942097 -13.00000000
3.40546727 -4.97355986 0.31589982 7 3 14560 6.03600000 2211942099 2211942099 3.00000000
1.59055543 -2.32294750 -0.54724020 3 4 14560 2.86800000 2211942101 2211942101 -11.00000000
3.40079951 -4.96860266 0.52676928 9 5 14561 6.04400000 2211942104 2211942104 5.00000000
1.95650566 -2.85954523 -0.54877210 1 6 14562 3.50800000 2211942106 2211942106 -9.00000000
3.39670181 -4.96633434 0.73877198 10 7 14563 6.06200000 2211942108 2211942108 7.00000000
2.52979064 -3.70020485 -0.55036193 6 8 14564 4.51600000 2211942111 2211942111 -7.00000000
3.39036369 -4.95892429 0.95143443 12 9 14564 6.08200000 2211942113 2211942113 9.00000000
3.40744781 -4.98577976 -0.52833813 11 10 14565 6.06200000 2211942115 2211942115 -5.00000000
3.37891221 -4.94587946 1.16431653 12 11 14566 6.10200000 2211942118 2211942118 11.00000000
3.39375663 -4.96946955 -0.31537646 9 12 14567 6.02600000 2211942120 2211942120 -3.00000000
3.37858772 -4.94911242 1.38344896 10 13 14568 6.15000000 2211942122 2211942122 13.00000000
3.39615941 -4.97671747 -0.10516820 9 14 14569 6.02600000 2211942124 2211942124 -1.00000000
3.36610198 -4.93452072 1.60053694 9 15 14570 6.18400000 2211942127 2211942127 15.00000000
1.16059363 -1.70583975 -0.55283749 4 0 14577 2.13600000 2211942147 2211942147 -15.00000000
3.37934136 -4.96881771 0.10488896 11 1 14578 6.01000000 2211942150 2211942150 1.00000000
1.34434509 -1.97740114 -0.55202991 3 2 14579 2.45400000 2211942152 2211942152 -13.00000000
3.38221812 -4.97491503 0.31527179 10 3 14579 6.02400000 2211942154 2211942154 3.00000000
1.58243716 -2.32848549 -0.54724020 3 4 14580 2.86800000 2211942157 2211942157 -11.00000000
3.37000012 -4.96066666 0.52467757 9 5 14581 6.02000000 2211942159 2211942159 5.00000000
1.94207311 -2.85982060 -0.54752064 1 6 14582 3.50000000 2211942161 2211942161 -9.00000000
3.36373639 -4.95516682 0.73535961 10 7 14583 6.03400000 2211942164 2211942164 7.00000000
2.50794196 -3.69587207 -0.54841202 6 8 14584 4.50000000 2211942166 2211942166 -7.00000000
3.36551213 -4.96150875 0.94955719 52 9 14585 6.07000000 2211942168 2211942168 9.00000000
3.38107586 -4.98445320 -0.52694362 11 10 14585 6.04600000 2211942171 2211942171 -5.00000000
3.35171103 -4.94301939 1.16088188 12 11 14586 6.08400000 2211942173 2211942173 11.00000000
3.37414813 -4.97797918 -0.31516713 9 12 14587 6.02200000 2211942175 2211942175 -3.00000000
3.34817433 -4.94151640 1.37805021 9 13 14588 6.12600000 2211942177 2211942177 13.00000000
3.37315989 -4.98026371 -0.10499368 9 14 14589 6.01600000 2211942180 2211942180 -1.00000000
3.34452438 -4.93984175 1.59846640 9 15 14590 6.17600000 2211942182 2211942182 15.00000000
1.15817463 -1.71448147 -0.55439037 4 0 14596 2.14200000 2211942203 2211942203 -15.00000000
3.36060739 -4.97668219 0.10481916 11 1 14597 6.00600000 2211942205 2211942205 1.00000000
1.33996093 -1.98507869 -0.55292970 3 2 14598 2.45800000 2211942207 2211942207 -13.00000000
3.35005808 -4.96292782 0.31380638 9 3 14598 5.99600000 2211942210 2211942210 3.00000000
1.56811821 -2.32395577 -0.54495049 3 4 14599 2.85600000 2211942212 2211942212 -11.00000000
3.34796071 -4.96355581 0.52380604 13 5 14600 6.01000000 2211942214 2211942214 5.00000000
1.93699622 -2.87279630 -0.54877210 1 6 14601 3.50800000 2211942217 2211942217 -9.00000000
3.34617662 -4.96464825 0.73511589 10 7 14602 6.03200000 2211942219 2211942219 7.00000000
2.50010896 -3.71075368 -0.54938698 6 8 14603 4.50800000 2211942221 2211942221 -7.00000000
3.34880471 -4.97041893 0.94924432 57 9 14603 6.06800000 2211942224 2211942224 9.00000000
3.35785031 -4.98572254 -0.52589774 11 10 14604 6.03400000 2211942226 2211942226 -5.00000000
3.33310819 -4.95085001 1.16011870 12 11 14605 6.08000000 2211942228 2211942228 11.00000000
3.35316133 -4.98251343 -0.31474844 9 12 14606 6.01400000 2211942230 2211942230 -3.00000000
3.32089162 -4.93642282 1.37355113 9 13 14607 6.10600000 2211942233 2211942233 13.00000000
3.34546709 -4.97482824 -0.10464463 9 14 14608 5.99600000 2211942235 2211942235 -1.00000000
3.31303620 -4.92845964 1.59121954 9 15 14609 6.14800000 2211942237 2211942237 15.00000000
1.15433455 -1.72172296 -0.55542564 4 0 14616 2.14600000 2211942258 2211942258 -15.00000000
3.33764839 -4.98007727 0.10464463 11 1 14617 5.99600000 2211942260 2211942260 1.00000000
1.33302355 -1.98974395 -0.55292970 3 2 14618 2.45800000 2211942263 2211942263 -13.00000000
3.33160233 -4.97293186 0.31370172 9 3 14618 5.99400000 2211942265 2211942265 3.00000000
1.50318992 -2.24459076 -0.52510637 3 4 14619 2.75200000 2211942267 2211942267 -11.00000000
3.32063913 -4.96031141 0.52223718 9 5 14620 5.99200000 2211942270 2211942270 5.00000000
1.92805505 -2.88118196 -0.54908496 3 6 14621 3.51000000 2211942272 2211942272 -9.00000000
3.32882643 -4.97629833 0.73511589 10 7 14622 6.03200000 2211942274 2211942274 7.00000000
2.48934770 -3.72275829 -0.54987448 6 8 14623 4.51200000 2211942277 2211942277 -7.00000000
3.30837560 -4.94759464 0.94267410 55 9 14623 6.02600000 2211942279 2211942279 9.00000000
3.32714009 -4.97753620 -0.52380604 15 10 14624 6.01000000 2211942281 2211942281 -5.00000000
3.31035256 -4.95429277 1.15821064 12 11 14625 6.07000000 2211942283 2211942283 11.00000000
3.33242083 -4.98920488 -0.31443444 13 12 14626 6.00800000 2211942286 2211942286 -3.00000000
3.29714751 -4.93826056 1.37085176 9 13 14627 6.09400000 2211942288 2211942288 13.00000000
3.31476021 -4.96651649 -0.10422577 9 14 14628 5.97200000 2211942290 2211942290 -1.00000000
3.29152393 -4.93356609 1.58914888 9 15 14629 6.14000000 2211942293 2211942293 15.00000000
1.16330028 -1.74825859 -0.56267262 6 0 14636 2.17400000 2211942313 2211942313 -15.00000000
3.30695462 -4.97171736 0.10422577 11 1 14637 5.97200000 2211942316 2211942316 1.00000000
1.33038580 -2.00087595 -0.55472928 3 2 14638 2.46600000 2211942318 2211942318 -13.00000000
3.30427051 -4.96956253 0.31275967 9 3 14638 5.97600000 2211942320 2211942320 3.00000000
1.34320295 -2.02091765 -0.47167984 7 4 14639 2.47200000 2211942323 2211942323 -11.00000000
3.28786802 -4.94863939 0.51979685 9 5 14640 5.96400000 2211942325 2211942325 5.00000000
1.91798615 -2.88789463 -0.54908496 1 6 14641 3.51000000 2211942327 2211942327 -9.00000000
3.29716206 -4.96638823 0.73194730 10 7 14642 6.00600000 2211942329 2211942329 7.00000000
2.47853303 -3.73473310 -0.55036193 6 8 14643 4.51600000 2211942332 2211942332 -7.00000000
3.28453135 -4.94923735 0.94079685 55 9 14643 6.01400000 2211942334 2211942334 9.00000000
3.30093360 -4.97583771 -0.52241153 15 10 14644 5.99400000 2211942336 2211942336 -5.00000000
3.28435850 -4.95272827 1.15515769 12 11 14645 6.05400000 2211942339 2211942339 11.00000000
3.30615664 -4.98748922 -0.31359705 12 12 14646 5.99200000 2211942341 2211942341 -3.00000000
3.27343106 -4.93999290 1.36815226 9 13 14647 6.08200000 2211942343 2211942343 13.00000000
3.28746486 -4.96305275 -0.10391163 9 14 14648 5.95400000 2211942346 2211942346 -1.00000000
3.26127672 -4.92351675 1.58241963 9 15 14648 6.11400000 2211942348 2211942348 15.00000000
1.16251349 -1.76036882 -0.56526077 5 0 14656 2.18400000 2211942369 2211942369 -15.00000000
3.28076649 -4.96987963 0.10394653 11 1 14657 5.95600000 2211942371 2211942371 1.00000000
1.31910014 -1.99900162 -0.55292970 3 2 14658 2.45800000 2211942373 2211942373 -13.00000000
3.28250337 -4.97439814 0.31234097 9 3 14658 5.96800000 2211942376 2211942376 3.00000000
1.31776309 -1.99773383 -0.46519232 13 4 14659 2.43800000 2211942378 2211942378 -11.00000000
3.26618695 -4.95343256 0.51909959 12 5 14660 5.95600000 2211942380 2211942380 5.00000000
1.89810967 -2.87972808 -0.54626918 1 6 14661 3.49200000 2211942382 2211942382 -9.00000000
3.27543736 -4.97123671 0.73097235 10 7 14662 5.99800000 2211942385 2211942385 7.00000000
2.46766496 -3.74667764 -0.55084944 6 8 14663 4.52000000 2211942387 2211942387 -7.00000000
3.26940846 -4.96397161 0.94142258 40 9 14663 6.01800000 2211942389 2211942389 9.00000000
3.27916217 -4.98067331 -0.52171427 15 10 14664 5.98600000 2211942392 2211942392 -5.00000000
3.25733638 -4.94940281 1.15172315 12 11 14665 6.03600000 2211942394 2211942394 11.00000000
3.27994537 -4.98565102 -0.31275967 12 12 14666 5.97600000 2211942396 2211942396 -3.00000000
3.25188446 -4.94487667 1.36635268 9 13 14667 6.07400000 2211942399 2211942399 13.00000000
3.26792359 -4.97115612 -0.10384182 9 14 14668 5.95000000 2211942401 2211942401 -1.00000000
3.24002647 -4.93059349 1.58086669 9 15 14669 6.10800000 2211942403 2211942403 15.00000000
1.14017379 -1.74037862 -0.55749625 4 0 14677 2.15400000 2211942424 2211942424 -15.00000000
3.25376463 -4.96848774 0.10366730 11 1 14678 5.94000000 2211942426 2211942426 1.00000000
1.30962992 -2.00056195 -0.55202991 3 2 14679 2.45400000 2211942429 2211942429 -13.00000000
3.25681710 -4.97693825 0.31171295 9 3 14680 5.95600000 2211942431 2211942431 3.00000000
1.30398214 -1.99269354 -0.46290264 12 4 14680 2.42600000 2211942433 2211942433 -11.00000000
3.24691916 -4.96370316 0.51892531 12 5 14681 5.95400000 2211942435 2211942435 5.00000000
1.89186656 -2.89327884 -0.54752064 1 6 14682 3.50000000 2211942438 2211942438 -9.00000000
3.24524784 -4.96493053 0.72829121 10 7 14683 5.97600000 2211942440 2211942440 7.00000000
2.44957304 -3.74904966 -0.54987448 6 8 14684 4.51200000 2211942442 2211942442 -7.00000000
3.24038768 -4.95938444 0.93829393 7 9 14684 5.99800000 2211942445 2211942445 9.00000000
3.25870609 -4.98932219 -0.52136564 15 10 14685 5.98200000 2211942447 2211942447 -5.00000000
3.23058772 -4.94815731 1.14867020 12 11 14686 6.02000000 2211942449 2211942449 11.00000000
3.24636793 -4.97422314 -0.31129426 12 12 14687 5.94800000 2211942452 2211942452 -3.00000000
3.22415566 -4.94207287 1.36230361 9 13 14688 6.05600000 2211942454 2211942454 13.00000000
3.24421978 -4.97472525 -0.10366730 9 14 14689 5.94000000 2211942456 2211942456 -1.00000000
3.21751952 -4.93378258 1.57827854 9 15 14689 6.09800000 2211942459 2211942459 15.00000000
1.12987971 -1.73786938 -0.55542564 4 0 14697 2.14600000 2211942479 2211942479 -15.00000000
3.23204279 -4.97310829 0.10352767 11 1 14698 5.93200000 2211942482 2211942482 1.00000000
1.29839206 -1.99858463 -0.55023026 3 2 14699 2.44600000 2211942484 2211942484 -13.00000000
3.22854662 -4.97152567 0.31066623 9 3 14700 5.93600000 2211942486 2211942486 3.00000000
1.30450320 -2.00875878 -0.46557394 5 4 14700 2.44000000 2211942488 2211942488 -11.00000000
3.22523355 -4.96832228 0.51822805 12 5 14701 5.94600000 2211942491 2211942491 5.00000000
1.87530386 -2.88992262 -0.54564339 1 6 14702 3.48800000 2211942493 2211942493 -9.00000000
3.21709442 -4.95957422 0.72585380 10 7 14703 5.95600000 2211942495 2211942495 7.00000000
2.43107152 -3.74924946 -0.54865581 6 8 14704 4.50200000 2211942498 2211942498 -7.00000000
3.21144462 -4.95465183 0.93516523 9 9 14705 5.97800000 2211942500 2211942500 9.00000000
3.23043346 -4.98394775 -0.51962256 15 10 14705 5.96200000 2211942502 2211942502 -5.00000000
3.20902562 -4.95281315 1.14714372 12 11 14706 6.01200000 2211942505 2211942505 11.00000000
3.22247028 -4.97546673 -0.31066623 12 12 14707 5.93600000 2211942507 2211942507 -3.00000000
3.19523501 -4.93530321 1.35735464 9 13 14708 6.03400000 2211942509 2211942509 13.00000000
3.20945144 -4.95915842 -0.10310882 9 14 14709 5.90800000 2211942512 2211942512 -1.00000000
3.19416809 -4.93743181 1.57569039 9 15 14710 6.08800000 2211942514 2211942514 15.00000000
1.12694860 -1.74667275 -0.55697858 4 0 14717 2.15200000 2211942535 2211942535 -15.00000000
3.20707679 -4.97259617 0.10328334 11 1 14718 5.91800000 2211942537 2211942537 1.00000000
1.29563153 -2.00965619 -0.55202991 4 2 14719 2.45400000 2211942539 2211942539 -13.00000000
3.20468140 -4.97269249 0.31003821 9 3 14720 5.92400000 2211942541 2211942541 3.00000000
1.52082074 -2.35985184 -0.54571372 3 4 14720 2.86000000 2211942544 2211942544 -11.00000000
3.19600201 -4.96112585 0.51631063 12 5 14721 5.92400000 2211942546 2211942546 5.00000000
1.87696922 -2.91472006 -0.54908496 1 6 14722 3.51000000 2211942548 2211942548 -9.00000000
3.19761372 -4.96743536 0.72536635 10 7 14723 5.95200000 2211942551 2211942551 7.00000000
2.42011762 -3.76105142 -0.54914325 4 8 14724 4.50600000 2211942553 2211942553 -7.00000000
3.18430758 -4.94866228 0.93203652 9 9 14724 5.95800000 2211942555 2211942555 9.00000000
3.20870519 -4.98849106 -0.51892531 15 10 14725 5.95400000 2211942558 2211942558 -5.00000000
3.18640876 -4.95572805 1.14523554 12 11 14726 6.00200000 2211942560 2211942560 11.00000000
3.19428420 -4.96988344 -0.30961952 12 12 14727 5.91600000 2211942562 2211942562 -3.00000000
3.17061472 -4.93494987 1.35420537 9 13 14728 6.02000000 2211942565 2211942565 13.00000000
3.18347645 -4.95687103 -0.10282958 9 14 14729 5.89200000 2211942567 2211942567 -1.00000000
3.16942573 -4.93499327 1.57154930 9 15 14729 6.07200000 2211942569 2211942569 15.00000000
1.13959491 -1.77988100 -0.56629604 6 0 14737 2.18800000 2211942590 2211942590 -15.00000000
3.17999816 -4.96860218 0.10296920 11 1 14738 5.90000000 2211942592 2211942592 1.00000000
1.29385972 -2.02237415 -0.55427939 4 2 14739 2.46400000 2211942594 2211942594 -13.00000000
3.17761946 -4.96870518 0.30909616 9 3 14740 5.90600000 2211942597 2211942597 3.00000000
1.51892054 -2.37506986 -0.54800344 3 4 14740 2.87200000 2211942599 2211942599 -11.00000000
3.16793346 -4.95546484 0.51456749 12 5 14741 5.90400000 2211942601 2211942601 5.00000000
1.86252868 -2.91459584 -0.54783350 3 6 14742 3.50200000 2211942604 2211942604 -9.00000000
3.17384291 -4.96852922 0.72390389 10 7 14743 5.94000000 2211942606 2211942606 7.00000000
2.40697455 -3.76947641 -0.54914325 4 8 14744 4.50600000 2211942608 2211942608 -7.00000000
3.16296005 -4.95530462 0.93109792 9 9 14745 5.95200000 2211942611 2211942611 9.00000000
3.17197704 -4.96943140 -0.51578766 15 10 14745 5.91800000 2211942613 2211942613 -5.00000000
