# .PCD v0.7 - Point Cloud Data file format
VERSION 0.7
FIELDS x y z intensity laser_id azimuth distance_m adjustedtime timestamp vertical_angle
SIZE 4 4 4 1 1 2 8 8 4 8
TYPE F F F U U U F U U F
COUNT 1 1 1 1 1 1 1 1 1 1
WIDTH 539
HEIGHT 1
VIEWPOINT 0 0 0 1 0 0 0
POINTS 539
DATA ascii
8.19390106 3.31387830 0.15427928 12 1 6798 8.84000000 2211620603 2211620603 1.00000000
2.48784375 1.00565922 -0.61951518 4 2 6799 2.75400000 2211620605 2211620605 -13.00000000
8.19988728 3.31296945 0.46348724 13 3 6800 8.85600000 2211620607 2211620607 3.00000000
2.98528838 1.20613480 -0.62585348 5 4 6800 3.28000000 2211620610 2211620610 -11.00000000
8.19525051 3.30943251 0.77324575 78 5 6801 8.87200000 2211620612 2211620612 5.00000000
3.75518084 1.51566696 -0.64138132 6 6 6802 4.10000000 2211620614 2211620614 -9.00000000
8.20136356 3.30857182 1.08585584 99 7 6803 8.91000000 2211620617 2211620617 7.00000000
5.07397318 2.04589891 -0.67174381 6 8 6804 5.51200000 2211620619 2211620619 -7.00000000
21.36324692 8.60963345 3.64805174 73 9 6805 23.32000000 2211620621 2211620621 9.00000000
7.77067995 3.13167310 -0.73297977 13 10 6805 8.41000000 2211620624 2211620624 -5.00000000
17.76632881 7.15643024 3.72306514 37 11 6806 19.51200000 2211620626 2211620626 11.00000000
8.17798996 3.29250598 -0.46202183 17 12 6807 8.82800000 2211620628 2211620628 -3.00000000
8.26371861 3.32534480 2.05650258 62 13 6808 9.14200000 2211620630 2211620630 13.00000000
8.19468212 3.29590249 -0.15417455 18 14 6809 8.83400000 2211620633 2211620633 -1.00000000
7.22303438 2.90510559 2.08608150 40 15 6809 8.06000000 2211620635 2211620635 15.00000000
2.10356545 0.84264410 -0.60718948 4 0 6817 2.34600000 2211620656 2211620656 -15.00000000
8.18685436 3.27782345 0.15393023 12 1 6818 8.82000000 2211620658 2211620658 1.00000000
2.49676681 0.99914098 -0.62086493 4 2 6819 2.76000000 2211620660 2211620660 -13.00000000
8.20398426 3.28135943 0.46306854 10 3 6820 8.84800000 2211620663 2211620663 3.00000000
2.98401165 1.19351959 -0.62470865 5 4 6820 3.27400000 2211620665 2211620665 -11.00000000
8.20120239 3.27858686 0.77272284 78 5 6821 8.86600000 2211620667 2211620667 5.00000000
3.76044869 1.50254977 -0.64138132 6 6 6822 4.10000000 2211620670 2211620670 -9.00000000
8.20364571 3.27624249 1.08463717 95 7 6823 8.90000000 2211620672 2211620672 7.00000000
5.07370901 2.02523112 -0.67076886 6 8 6824 5.50400000 2211620674 2211620674 -7.00000000
21.35280609 8.51890564 3.64116859 73 9 6825 23.27600000 2211620677 2211620677 9.00000000
7.79451799 3.10969734 -0.73420000 13 10 6825 8.42400000 2211620679 2211620679 -5.00000000
17.78755379 7.09291601 3.72230196 41 11 6826 19.50800000 2211620681 2211620681 11.00000000
8.18201160 3.26098156 -0.46160313 17 12 6827 8.82000000 2211620683 2211620683 -3.00000000
8.26441383 3.29215169 2.05380321 62 13 6828 9.13000000 2211620686 2211620686 13.00000000
8.18384266 3.25840116 -0.15375569 16 14 6829 8.81000000 2211620688 2211620688 -1.00000000
7.23672056 2.88130403 2.08711672 42 15 6829 8.06400000 2211620690 2211620690 15.00000000
2.10634828 0.83566380 -0.60718948 4 0 6836 2.34600000 2211620711 2211620711 -15.00000000
8.18838406 3.24697113 0.15375569 12 1 6837 8.81000000 2211620713 2211620713 1.00000000
2.49644303 0.98941988 -0.61996508 4 2 6838 2.75600000 2211620716 2211620716 -13.00000000
8.19568443 3.24821091 0.46202183 13 3 6838 8.82800000 2211620718 2211620718 3.00000000
2.99160361 1.18506372 -0.62547189 5 4 6839 3.27800000 2211620720 2211620720 -11.00000000
8.19721031 3.24550509 0.77132833 82 5 6840 8.85000000 2211620723 2211620723 5.00000000
3.77459455 1.49370575 -0.64294565 6 6 6841 4.11000000 2211620725 2211620725 -9.00000000
8.20523453 3.24536967 1.08341849 99 7 6842 8.89000000 2211620727 2211620727 7.00000000
5.08778143 2.01131415 -0.67174381 6 8 6843 5.51200000 2211620729 2211620729 -7.00000000
21.34272194 8.43725777 3.63491130 71 9 6843 23.23600000 2211620732 2211620732 9.00000000
7.79181623 3.07870770 -0.73297977 13 10 6844 8.41000000 2211620734 2211620734 -5.00000000
17.81097794 7.03389120 3.72230196 45 11 6845 19.50800000 2211620736 2211620736 11.00000000
8.18534946 3.23089790 -0.46118444 17 12 6846 8.81200000 2211620739 2211620739 -3.00000000
8.27165985 3.26329756 2.05290341 62 13 6847 9.12600000 2211620741 2211620741 13.00000000
8.17413998 3.22317576 -0.15337175 16 14 6848 8.78800000 2211620743 2211620743 -1.00000000
7.23904705 2.85445571 2.08504629 42 15 6848 8.05600000 2211620746 2211620746 15.00000000
2.10565615 0.82689387 -0.60615420 4 0 6856 2.34200000 2211620766 2211620766 -15.00000000
8.18477726 3.21252370 0.15347646 15 1 6857 8.79400000 2211620769 2211620769 1.00000000
2.51076627 0.98496974 -0.62266451 4 2 6858 2.76800000 2211620771 2211620771 -13.00000000
8.20381641 3.21669221 0.46181247 10 3 6859 8.82400000 2211620773 2211620773 3.00000000
2.98841095 1.17174721 -0.62394542 5 4 6859 3.27000000 2211620776 2211620776 -11.00000000
8.18993855 3.20960188 0.76958519 93 5 6860 8.83000000 2211620778 2211620778 5.00000000
3.76507115 1.47475719 -0.64044273 6 6 6861 4.09400000 2211620780 2211620780 -9.00000000
8.21096802 3.21453714 1.08268726 97 7 6862 8.88400000 2211620782 2211620782 7.00000000
5.10956001 1.99932909 -0.67369372 6 8 6863 5.52800000 2211620785 2211620785 -7.00000000
21.34406853 8.34746361 3.62990522 60 9 6864 23.20400000 2211620787 2211620787 9.00000000
7.80251551 3.05149031 -0.73297977 13 10 6864 8.41000000 2211620789 2211620789 -5.00000000
17.83542061 6.97167683 3.72230196 41 11 6865 19.50800000 2211620792 2211620792 11.00000000
8.19657803 3.20230603 -0.46118444 17 12 6866 8.81200000 2211620794 2211620794 -3.00000000
8.27936935 3.23298645 2.05200362 66 13 6867 9.12200000 2211620796 2211620796 13.00000000
8.18720341 3.19535017 -0.15340665 14 14 6868 8.79000000 2211620799 2211620799 -1.00000000
7.24226141 2.82509589 2.08297563 42 15 6869 8.04800000 2211620801 2211620801 15.00000000
2.11573219 0.82233816 -0.60822475 4 0 6876 2.35000000 2211620822 2211620822 -15.00000000
8.17730141 3.17669272 0.15312742 15 1 6877 8.77400000 2211620824 2211620824 1.00000000
2.50692272 0.97337812 -0.62086493 4 2 6878 2.76000000 2211620826 2211620826 -13.00000000
8.19954300 3.18368649 0.46097511 13 3 6878 8.80800000 2211620829 2211620829 3.00000000
2.99980402 1.16414964 -0.62547189 6 4 6879 3.27800000 2211620831 2211620831 -11.00000000
8.17508698 3.17090702 0.76714486 75 5 6880 8.80200000 2211620833 2211620833 5.00000000
3.75730324 1.45660758 -0.63825262 6 6 6881 4.08000000 2211620835 2211620835 -9.00000000
8.19992638 3.17724943 1.07976234 97 7 6882 8.86000000 2211620838 2211620838 7.00000000
5.11280584 1.98004746 -0.67320627 9 8 6883 5.52400000 2211620840 2211620840 -7.00000000
7.83170033 3.03142786 -0.73472291 13 10 6884 8.43000000 2211620845 2211620845 -5.00000000
8.18348885 3.16431117 -0.45982370 17 12 6886 8.78600000 2211620849 2211620849 -3.00000000
8.30514622 3.20968628 2.05560279 56 13 6887 9.13800000 2211620852 2211620852 13.00000000
8.19084644 3.16386986 -0.15326703 14 14 6888 8.78200000 2211620854 2211620854 -1.00000000
7.24798584 2.79967213 2.08194041 45 15 6888 8.04400000 2211620856 2211620856 15.00000000
2.11137748 0.81217360 -0.60615420 4 0 6896 2.34200000 2211620877 2211620877 -15.00000000
8.17527390 3.14310598 0.15288308 15 1 6897 8.76000000 2211620879 2211620879 1.00000000
2.49575281 0.95902938 -0.61726570 4 2 6898 2.74400000 2211620881 2211620881 -13.00000000
8.19569111 3.14931393 0.46013772 10 3 6898 8.79200000 2211620884 2211620884 3.00000000
3.00751495 1.15507913 -0.62623513 5 4 6899 3.28200000 2211620886 2211620886 -11.00000000
8.18238544 3.14092350 0.76679623 78 5 6900 8.79800000 2211620888 2211620888 5.00000000
3.77711940 1.44914389 -0.64075559 4 6 6901 4.09600000 2211620891 2211620891 -9.00000000
8.18872547 3.14007807 1.07683754 95 7 6902 8.83600000 2211620893 2211620893 7.00000000
5.10115004 1.95508409 -0.67076886 6 8 6903 5.50400000 2211620895 2211620895 -7.00000000
8.26964092 3.16779566 1.40259147 2 9 6904 8.96600000 2211620898 2211620898 9.00000000
7.84409475 3.00478435 -0.73489720 13 10 6904 8.43200000 2211620900 2211620900 -5.00000000
17.88365746 6.84699297 3.72230196 3 11 6905 19.50800000 2211620902 2211620902 11.00000000
8.17956161 3.13001585 -0.45898634 17 12 6906 8.77000000 2211620905 2211620905 -3.00000000
8.30901909 3.17789173 2.05380321 55 13 6907 9.13000000 2211620907 2211620907 13.00000000
8.18502903 3.12883306 -0.15295289 16 14 6908 8.76400000 2211620909 2211620909 -1.00000000
7.26493216 2.77711391 2.08401084 40 15 6908 8.05200000 2211620911 2211620911 15.00000000
2.12113953 0.80828810 -0.60822475 4 0 6914 2.35000000 2211620932 2211620932 -15.00000000
8.17763329 3.11456037 0.15274346 15 1 6915 8.75200000 2211620934 2211620934 1.00000000
2.50421715 0.95326388 -0.61861539 4 2 6916 2.75000000 2211620937 2211620937 -13.00000000
8.19302273 3.11714721 0.45940503 10 3 6917 8.77800000 2211620939 2211620939 3.00000000
3.00745893 1.14422882 -0.62547189 5 4 6917 3.27800000 2211620941 2211620941 -11.00000000
8.18290043 3.11166143 0.76592469 78 5 6918 8.78800000 2211620944 2211620944 5.00000000
3.79642534 1.44288492 -0.64325851 4 6 6919 4.11200000 2211620946 2211620946 -9.00000000
8.19483852 3.11292720 1.07635009 95 7 6920 8.83200000 2211620948 2211620948 7.00000000
5.09613180 1.93482113 -0.66930646 6 8 6921 5.49200000 2211620951 2211620951 -7.00000000
21.33371735 8.09965801 3.61426187 44 9 6921 23.10400000 2211620953 2211620953 9.00000000
7.86280966 2.98366094 -0.73576880 13 10 6922 8.44200000 2211620955 2211620955 -5.00000000
17.90508080 6.79077625 3.72230196 33 11 6923 19.50800000 2211620958 2211620958 11.00000000
8.18561935 3.10288763 -0.45877698 17 12 6924 8.76600000 2211620960 2211620960 -3.00000000
8.31896114 3.15177250 2.05380321 55 13 6925 9.13000000 2211620962 2211620962 13.00000000
8.17798710 3.09673023 -0.15263875 14 14 6926 8.74600000 2211620964 2211620964 -1.00000000
7.27229452 2.75232363 2.08349323 40 15 6927 8.05000000 2211620967 2211620967 15.00000000
2.12214041 0.80019742 -0.60770714 4 0 6934 2.34800000 2211620987 2211620987 -15.00000000
8.18284130 3.08388042 0.15263875 21 1 6935 8.74600000 2211620990 2211620990 1.00000000
2.51482391 0.94726443 -0.62041503 4 2 6936 2.75800000 2211620992 2211620992 -13.00000000
8.19396973 3.08644104 0.45888168 13 3 6936 8.76800000 2211620994 2211620994 3.00000000
3.00592256 1.13164866 -0.62432700 5 4 6937 3.27200000 2211620997 2211620997 -11.00000000
8.18065929 3.07816720 0.76470447 78 5 6938 8.77400000 2211620999 2211620999 5.00000000
3.79404306 1.42684281 -0.64200705 4 6 6939 4.10400000 2211621001 2211621001 -9.00000000
8.20007992 3.08220744 1.07561886 100 7 6940 8.82600000 2211621004 2211621004 7.00000000
5.10657120 1.91841674 -0.66979390 9 8 6941 5.49600000 2211621006 2211621006 -7.00000000
21.34106827 8.01307964 3.61050749 16 9 6942 23.08000000 2211621008 2211621008 9.00000000
7.84519815 2.94569111 -0.73315412 13 10 6942 8.41200000 2211621011 2211621011 -5.00000000
8.19266033 3.07289290 -0.45856765 17 12 6944 8.76200000 2211621015 2211621015 -3.00000000
8.34451008 3.12818718 2.05740237 55 13 6945 9.14600000 2211621017 2211621017 13.00000000
8.16627598 3.05974555 -0.15221989 14 14 6946 8.72200000 2211621020 2211621020 -1.00000000
7.27281189 2.72353411 2.08090520 42 15 6947 8.04000000 2211621022 2211621022 15.00000000
2.11252570 0.78732055 -0.60408366 4 0 6956 2.33400000 2211621043 2211621043 -15.00000000
8.18337917 3.04824972 0.15242931 12 1 6957 8.73400000 2211621045 2211621045 1.00000000
2.52574778 0.94032091 -0.62221462 4 2 6958 2.76600000 2211621047 2211621047 -13.00000000
8.19452953 3.05077457 0.45825362 10 3 6958 8.75600000 2211621050 2211621050 3.00000000
3.00840569 1.11941373 -0.62394542 5 4 6959 3.27000000 2211621052 2211621052 -11.00000000
8.17934608 3.04187179 0.76348430 78 5 6960 8.76000000 2211621054 2211621054 5.00000000
3.79208732 1.40951133 -0.64075559 6 6 6961 4.09600000 2211621057 2211621057 -9.00000000
8.20627213 3.04862499 1.07488763 95 7 6962 8.82000000 2211621059 2211621059 7.00000000
5.12506533 1.90294075 -0.67125636 6 8 6963 5.50800000 2211621061 2211621061 -7.00000000
8.26848888 3.07009625 1.39695978 2 9 6963 8.93000000 2211621064 2211621064 9.00000000
7.85084724 2.91346645 -0.73263115 13 10 6964 8.40600000 2211621066 2211621066 -5.00000000
8.22249413 3.04975271 1.70468760 9 11 6965 8.93400000 2211621068 2211621068 11.00000000
8.19128990 3.03655314 -0.45783496 17 12 6966 8.74800000 2211621070 2211621070 -3.00000000
8.28336620 3.06904197 2.03940630 40 13 6967 9.06600000 2211621073 2211621073 13.00000000
8.17421436 3.02697778 -0.15215008 14 14 6968 8.71800000 2211621075 2211621075 -1.00000000
7.27959251 2.69424748 2.07986975 45 15 6969 8.03600000 2211621077 2211621077 15.00000000
2.11163616 0.77860498 -0.60304838 4 0 6976 2.33000000 2211621098 2211621098 -15.00000000
8.16957760 3.01067686 0.15197556 12 1 6977 8.70800000 2211621100 2211621100 1.00000000
2.52718592 0.93082511 -0.62176472 10 2 6978 2.76400000 2211621103 2211621103 -13.00000000
8.19950581 3.02008104 0.45793962 10 3 6978 8.75000000 2211621105 2211621105 3.00000000
3.02334905 1.11297500 -0.62623513 5 4 6979 3.28200000 2211621107 2211621107 -11.00000000
8.18243504 3.01055002 0.76278704 78 5 6980 8.75200000 2211621110 2211621110 5.00000000
3.79327631 1.39490235 -0.64012980 6 6 6981 4.09200000 2211621112 2211621112 -9.00000000
8.19823170 3.01311326 1.07245028 90 7 6982 8.80000000 2211621114 2211621114 7.00000000
5.13913012 1.88777721 -0.67223132 9 8 6983 5.51600000 2211621117 2211621117 -7.00000000
7.88154268 2.89359760 -0.73454863 13 10 6984 8.42800000 2211621121 2211621121 -5.00000000
8.18871403 3.00312781 -0.45710224 12 12 6986 8.73400000 2211621126 2211621126 -3.00000000
8.20254421 3.00657582 2.01691127 75 13 6987 8.96600000 2211621128 2211621128 13.00000000
8.18097496 2.99705029 -0.15208027 10 14 6988 8.71400000 2211621130 2211621130 -1.00000000
7.28895283 2.66882062 2.07986975 42 15 6989 8.03600000 2211621133 2211621133 15.00000000
2.13584757 0.77991885 -0.60926002 4 0 6994 2.35400000 2211621153 2211621153 -15.00000000
8.17899513 2.98499656 0.15197556 12 1 6995 8.70800000 2211621156 2211621156 1.00000000
2.50812888 0.91486770 -0.61636591 11 2 6996 2.74000000 2211621158 2211621158 -13.00000000
8.18080902 2.98404026 0.45636955 13 3 6996 8.72000000 2211621160 2211621160 3.00000000
3.02498627 1.10279894 -0.62585348 5 4 6997 3.28000000 2211621163 2211621163 -11.00000000
8.17500496 2.97869062 0.76121825 75 5 6998 8.73400000 2211621165 2211621165 5.00000000
3.79392767 1.38162661 -0.63950408 4 6 6999 4.08800000 2211621167 2211621167 -9.00000000
8.19273376 2.98191142 1.07050025 92 7 7000 8.78400000 2211621169 2211621169 7.00000000
5.14876652 1.87298012 -0.67271876 6 8 7001 5.52000000 2211621172 2211621172 -7.00000000
8.22369576 2.99155521 1.38600934 94 9 7001 8.86000000 2211621174 2211621174 9.00000000
7.89246702 2.86950350 -0.73472291 13 10 7002 8.43000000 2211621176 2211621176 -5.00000000
8.21301651 2.98442435 1.69858170 84 11 7003 8.90200000 2211621179 2211621179 11.00000000
8.16056252 2.96375155 -0.45500880 12 12 7004 8.69400000 2211621181 2211621181 -3.00000000
8.21194935 2.98079181 2.01691127 104 13 7005 8.96600000 2211621183 2211621183 13.00000000
8.17531204 2.96587849 -0.15180103 14 14 7006 8.69800000 2211621186 2211621186 -1.00000000
7.30047131 2.64849973 2.08090520 45 15 7006 8.04000000 2211621188 2211621188 15.00000000
2.14400792 0.77442747 -0.61081296 4 0 7014 2.36000000 2211621209 2211621209 -15.00000000
8.17431831 2.95099616 0.15169631 12 1 7015 8.69200000 2211621211 2211621211 1.00000000
2.50764084 0.90478432 -0.61546606 7 2 7016 2.73600000 2211621213 2211621213 -13.00000000
8.16863060 2.94733143 0.45511347 10 3 7016 8.69600000 2211621216 2211621216 3.00000000
3.02512360 1.09090114 -0.62509024 5 4 7017 3.27600000 2211621218 2211621218 -11.00000000
8.18722725 2.95081186 0.76139259 75 5 7018 8.73600000 2211621220 2211621220 5.00000000
3.79872727 1.36837494 -0.63950408 4 6 7019 4.08800000 2211621222 2211621222 -9.00000000
8.19935703 2.95195031 1.07001281 90 7 7020 8.78000000 2211621225 2211621225 7.00000000
5.13285875 1.84693098 -0.66979390 6 8 7021 5.49600000 2211621227 2211621227 -7.00000000
8.20248985 2.95146108 1.38069057 89 9 7021 8.82600000 2211621229 2211621229 9.00000000
7.94180679 2.85609531 -0.73838347 13 10 7022 8.47200000 2211621232 2211621232 -5.00000000
8.21045113 2.95108891 1.69591033 90 11 7023 8.88800000 2211621234 2211621234 11.00000000
8.15958023 2.93119645 -0.45438078 12 12 7024 8.68200000 2211621236 2211621236 -3.00000000
8.20396233 2.94552350 2.01241207 106 13 7025 8.94600000 2211621239 2211621239 13.00000000
8.16302872 2.92921853 -0.15138218 14 14 7026 8.67400000 2211621241 2211621241 -1.00000000
7.31012964 2.62172437 2.08090520 45 15 7027 8.04000000 2211621243 2211621243 15.00000000
2.13591576 0.76266634 -0.60770714 4 0 7035 2.34800000 2211621264 2211621264 -15.00000000
8.17942905 2.91899967 0.15159160 12 1 7036 8.68600000 2211621266 2211621266 1.00000000
2.51644659 0.89755130 -0.61681581 4 2 7037 2.74200000 2211621269 2211621269 -13.00000000
8.17988682 2.91594458 0.45511347 10 3 7038 8.69600000 2211621271 2211621271 3.00000000
3.01430750 1.07453239 -0.62203735 5 4 7038 3.26000000 2211621273 2211621273 -11.00000000
8.17921925 2.91409755 0.75964946 78 5 7039 8.71600000 2211621275 2211621275 5.00000000
3.81116080 1.35709333 -0.64075559 4 6 7040 4.09600000 2211621278 2211621278 -9.00000000
8.19703007 2.91721940 1.06830668 87 7 7041 8.76600000 2211621280 2211621280 7.00000000
5.14707470 1.83076668 -0.67076886 6 8 7042 5.50400000 2211621282 2211621282 -7.00000000
8.19091892 2.91343379 1.37693620 84 9 7042 8.80200000 2211621285 2211621285 9.00000000
7.93908024 2.82229638 -0.73716325 13 10 7043 8.45800000 2211621287 2211621287 -5.00000000
8.20826244 2.91637540 1.69323897 81 11 7044 8.87400000 2211621289 2211621289 11.00000000
8.15144730 2.89458704 -0.45333406 12 12 7045 8.66200000 2211621292 2211621292 -3.00000000
8.20001125 2.91022038 2.00881290 106 13 7046 8.93000000 2211621294 2211621294 13.00000000
8.16240215 2.89526892 -0.15117274 14 14 7047 8.66200000 2211621296 2211621296 -1.00000000
7.31195354 2.59360814 2.07883453 42 15 7047 8.03200000 2211621299 2211621299 15.00000000
2.12763524 0.75134629 -0.60460126 4 0 7055 2.33600000 2211621319 2211621319 -15.00000000
8.17259693 2.88444042 0.15127745 12 1 7056 8.66800000 2211621322 2211621322 1.00000000
2.53242874 0.89329964 -0.61996508 4 2 7057 2.75600000 2211621324 2211621324 -13.00000000
8.18248177 2.88471746 0.45469478 13 3 7058 8.68800000 2211621326 2211621326 3.00000000
3.02544618 1.06661499 -0.62356383 5 4 7058 3.26800000 2211621328 2211621328 -11.00000000
8.17054939 2.87890768 0.75790632 75 5 7059 8.69600000 2211621331 2211621331 5.00000000
3.83450675 1.35034299 -0.64388424 4 6 7060 4.11600000 2211621333 2211621333 -9.00000000
8.20716381 2.88858867 1.06830668 90 7 7061 8.76600000 2211621335 2211621335 7.00000000
5.14219809 1.80883658 -0.66930646 6 8 7062 5.49200000 2211621338 2211621338 -7.00000000
8.20154190 2.88339305 1.37693620 86 9 7063 8.80200000 2211621340 2211621340 9.00000000
7.94700432 2.79390574 -0.73698896 13 10 7063 8.45600000 2211621342 2211621342 -5.00000000
8.20913124 2.88445139 1.69133091 90 11 7064 8.86400000 2211621345 2211621345 11.00000000
8.16527081 2.86743903 -0.45354339 12 12 7065 8.66600000 2211621347 2211621347 -3.00000000
8.20644283 2.88028860 2.00791311 108 13 7066 8.92600000 2211621349 2211621349 13.00000000
8.16868496 2.86543536 -0.15110293 14 14 7067 8.65800000 2211621352 2211621352 -1.00000000
7.31594133 2.56487346 2.07728171 45 15 7068 8.02600000 2211621354 2211621354 15.00000000
2.13741016 0.74683559 -0.60667187 4 0 7074 2.34400000 2211621375 2211621375 -15.00000000
8.16890240 2.85270834 0.15103312 12 1 7075 8.65400000 2211621377 2211621377 1.00000000
2.51513815 0.87783313 -0.61501616 4 2 7076 2.73400000 2211621379 2211621379 -13.00000000
8.18823051 2.85625172 0.45448545 10 3 7077 8.68400000 2211621381 2211621381 3.00000000
3.02896667 1.05657637 -0.62356383 5 4 7077 3.26800000 2211621384 2211621384 -11.00000000
8.17064476 2.84851789 0.75703478 75 5 7078 8.68600000 2211621386 2211621386 5.00000000
3.80165601 1.32462072 -0.63762689 4 6 7079 4.07600000 2211621388 2211621388 -9.00000000
8.19982529 2.85548115 1.06611300 92 7 7080 8.74800000 2211621391 2211621391 7.00000000
5.16691637 1.79829955 -0.67174381 6 8 7081 5.51200000 2211621393 2211621393 -7.00000000
8.20123196 2.85436630 1.37537181 81 9 7081 8.79200000 2211621395 2211621395 9.00000000
8.00327015 2.78390145 -0.74134678 13 10 7082 8.50600000 2211621398 2211621398 -5.00000000
8.20010757 2.85076618 1.68751478 90 11 7083 8.84400000 2211621400 2211621400 11.00000000
8.15964127 2.83510208 -0.45270601 12 12 7084 8.65000000 2211621402 2211621402 -3.00000000
8.20490360 2.84922361 2.00521374 106 13 7085 8.91400000 2211621405 2211621405 13.00000000
8.16869640 2.83505297 -0.15092841 12 14 7086 8.64800000 2211621407 2211621407 -1.00000000
7.31666279 2.53934360 2.07521105 45 15 7086 8.01800000 2211621409 2211621409 15.00000000
2.14365578 0.74063182 -0.60770714 4 0 7094 2.34800000 2211621430 2211621430 -15.00000000
8.16557884 2.81960726 0.15078880 12 1 7095 8.64000000 2211621432 2211621432 1.00000000
2.51081848 0.86650532 -0.61321658 3 2 7096 2.72600000 2211621434 2211621434 -13.00000000
8.18304634 2.82244229 0.45364806 13 3 7097 8.66800000 2211621437 2211621437 3.00000000
3.04006004 1.04855740 -0.62509024 5 4 7097 3.27600000 2211621439 2211621439 -11.00000000
8.18053818 2.81997967 0.75703478 78 5 7098 8.68600000 2211621441 2211621441 5.00000000
3.81372714 1.31391621 -0.63887835 4 6 7099 4.08400000 2211621444 2211621444 -9.00000000
8.19097328 2.82037830 1.06367564 92 7 7100 8.72800000 2211621446 2211621446 7.00000000
5.15063715 1.77250123 -0.66881895 6 8 7101 5.48800000 2211621448 2211621448 -7.00000000
8.20603466 2.82236075 1.37443316 84 9 7102 8.78600000 2211621451 2211621451 9.00000000
8.02047539 2.75853992 -0.74204397 13 10 7102 8.51400000 2211621453 2211621453 -5.00000000
8.19701195 2.81765771 1.68484342 75 11 7103 8.83000000 2211621455 2211621455 11.00000000
8.15248871 2.80076218 -0.45176399 12 12 7104 8.63200000 2211621457 2211621457 -3.00000000
8.20005417 2.81550312 2.00161457 104 13 7105 8.89800000 2211621460 2211621460 13.00000000
8.17097664 2.80392528 -0.15078880 12 14 7106 8.64000000 2211621462 2211621462 -1.00000000
7.32957554 2.51376295 2.07624626 45 15 7107 8.02200000 2211621464 2211621464 15.00000000
2.14805627 0.73376900 -0.60822475 4 0 7114 2.35000000 2211621485 2211621485 -15.00000000
8.16969395 2.78914881 0.15068407 12 1 7115 8.63400000 2211621487 2211621487 1.00000000
2.53595996 0.86528724 -0.61861539 3 2 7116 2.75000000 2211621490 2211621490 -13.00000000
8.17961597 2.78934836 0.45291537 13 3 7117 8.65400000 2211621492 2211621492 3.00000000
3.03626895 1.03540468 -0.62356383 5 4 7117 3.26800000 2211621494 2211621494 -11.00000000
8.18656063 2.79012179 0.75668615 78 5 7118 8.68200000 2211621497 2211621497 5.00000000
3.83698916 1.30696499 -0.64200705 4 6 7119 4.10400000 2211621499 2211621499 -9.00000000
8.18949318 2.78793097 1.06221318 95 7 7120 8.71600000 2211621501 2211621501 7.00000000
5.14927578 1.75195372 -0.66784400 6 8 7121 5.48000000 2211621504 2211621504 -7.00000000
8.20412827 2.79131532 1.37255597 84 9 7121 8.77400000 2211621506 2211621506 9.00000000
8.04137325 2.73437500 -0.74308985 13 10 7122 8.52600000 2211621508 2211621508 -5.00000000
8.19936180 2.78650069 1.68331695 81 11 7123 8.82200000 2211621510 2211621510 11.00000000
8.16410637 2.77292991 -0.45186865 12 12 7124 8.63400000 2211621513 2211621513 -3.00000000
8.19137859 2.78059840 1.99711549 104 13 7125 8.87800000 2211621515 2211621515 13.00000000
8.16935253 2.77153158 -0.15057936 14 14 7126 8.62800000 2211621517 2211621517 -1.00000000
7.34153032 2.49068475 2.07728171 45 15 7126 8.02600000 2211621520 2211621520 15.00000000
2.14877415 0.72564834 -0.60770714 4 0 7134 2.34800000 2211621540 2211621540 -15.00000000
8.17748547 2.75997472 0.15064918 12 1 7135 8.63200000 2211621543 2211621543 1.00000000
2.52788591 0.85269272 -0.61591601 3 2 7136 2.73800000 2211621545 2211621545 -13.00000000
8.18173218 2.75822711 0.45249668 13 3 7137 8.64600000 2211621547 2211621547 3.00000000
3.02684212 1.02040958 -0.62089247 4 4 7137 3.25400000 2211621550 2211621550 -11.00000000
8.18114471 2.75643897 0.75529164 78 5 7138 8.66600000 2211621552 2211621552 5.00000000
3.83403945 1.29104185 -0.64075559 4 6 7139 4.09600000 2211621554 2211621554 -9.00000000
8.19541264 2.75806093 1.06172574 95 7 7140 8.71200000 2211621557 2211621557 7.00000000
5.16288614 1.73650002 -0.66881895 6 8 7141 5.48800000 2211621559 2211621559 -7.00000000
8.19183540 2.75367403 1.36880159 91 9 7142 8.75000000 2211621561 2211621561 9.00000000
8.03953838 2.70247960 -0.74204397 13 10 7142 8.51400000 2211621563 2211621563 -5.00000000
8.20903873 2.75786257 1.68331695 75 11 7143 8.82200000 2211621566 2211621566 11.00000000
8.16805553 2.74250770 -0.45155463 12 12 7144 8.62800000 2211621568 2211621568 -3.00000000
8.19364452 2.74950838 1.99531591 92 13 7145 8.87000000 2211621570 2211621570 13.00000000
8.16191387 2.73727584 -0.15026522 10 14 7146 8.61000000 2211621573 2211621573 -1.00000000
7.33961964 2.46007633 2.07417583 47 15 7147 8.01400000 2211621575 2211621575 15.00000000
2.13480210 0.71263796 -0.60304838 4 0 7154 2.33000000 2211621596 2211621596 -15.00000000
8.16430664 2.72381878 0.15023032 12 1 7155 8.60800000 2211621598 2211621598 1.00000000
2.54933357 0.85002762 -0.62041503 4 2 7156 2.75800000 2211621600 2211621600 -13.00000000
8.18752098 2.72838783 0.45228735 13 3 7157 8.64200000 2211621603 2211621603 3.00000000
3.04714847 1.01542377 -0.62432700 5 4 7157 3.27200000 2211621605 2211621605 -11.00000000
8.17559433 2.72282839 0.75389719 76 5 7158 8.65000000 2211621607 2211621607 5.00000000
3.82727718 1.27390754 -0.63887835 4 6 7159 4.08400000 2211621610 2211621610 -9.00000000
8.18992138 2.72442412 1.05977583 95 7 7160 8.69600000 2211621612 2211621612 7.00000000
5.17268372 1.71972013 -0.66930646 6 8 7161 5.49200000 2211621614 2211621614 -7.00000000
8.19717216 2.72524738 1.36817586 91 9 7161 8.74600000 2211621616 2211621616 9.00000000
8.08295631 2.68570828 -0.74518162 13 10 7162 8.55000000 2211621619 2211621619 -5.00000000
8.20743656 2.72547865 1.68102729 75 11 7163 8.81000000 2211621621 2211621621 11.00000000
8.17947483 2.71460819 -0.45165929 12 12 7164 8.63000000 2211621623 2211621623 -3.00000000
8.19579411 2.71843648 1.99351621 101 13 7165 8.86200000 2211621626 2211621626 13.00000000
8.16192818 2.70562267 -0.15009069 12 14 7166 8.60000000 2211621628 2211621628 -1.00000000
7.34040213 2.43329239 2.07210517 45 15 7166 8.00600000 2211621630 2211621630 15.00000000
2.14461493 0.70760298 -0.60511893 4 0 7174 2.33800000 2211621651 2211621651 -15.00000000
8.16237068 2.69154620 0.15002088 12 1 7175 8.59600000 2211621653 2211621653 1.00000000
2.54118037 0.83746392 -0.61771560 4 2 7176 2.74600000 2211621656 2211621656 -13.00000000
8.19509792 2.69916677 0.45218265 13 3 7177 8.64000000 2211621658 2211621658 3.00000000
3.05253911 1.00539517 -0.62470865 5 4 7177 3.27400000 2211621660 2211621660 -11.00000000
8.16990948 2.68929005 0.75250268 76 5 7178 8.63400000 2211621663 2211621663 5.00000000
3.81668901 1.25560164 -0.63637543 4 6 7179 4.06800000 2211621665 2211621665 -9.00000000
8.18052292 2.68961906 1.05733848 97 7 7180 8.67600000 2211621667 2211621667 7.00000000
5.18997049 1.70537174 -0.67076886 9 8 7181 5.50400000 2211621669 2211621669 -7.00000000
8.19772243 2.69210339 1.36661148 94 9 7182 8.73600000 2211621672 2211621672 9.00000000
8.08471012 2.65499043 -0.74448436 17 10 7182 8.54200000 2211621674 2211621674 -5.00000000
8.19824696 2.69069052 1.67721105 81 11 7183 8.79000000 2211621676 2211621676 11.00000000
8.17371845 2.68106008 -0.45082194 12 12 7184 8.61400000 2211621679 2211621679 -3.00000000
8.19782639 2.68738317 1.99171662 92 13 7185 8.85400000 2211621681 2211621681 13.00000000
8.16562271 2.67524791 -0.14998598 14 14 7186 8.59400000 2211621683 2211621683 -1.00000000
7.35661507 2.40877652 2.07417583 45 15 7187 8.01400000 2211621686 2211621686 15.00000000
2.15613246 0.70348340 -0.60770714 4 0 7193 2.34800000 2211621706 2211621706 -15.00000000
8.17125130 2.66446400 0.15002088 12 1 7194 8.59600000 2211621709 2211621709 1.00000000
2.53282642 0.82540959 -0.61501616 4 2 7195 2.73400000 2211621711 2211621711 -13.00000000
8.18311405 2.66517234 0.45103127 13 3 7196 8.61800000 2211621713 2211621713 3.00000000
3.05958986 0.99648309 -0.62547189 5 4 7196 3.27800000 2211621716 2211621716 -11.00000000
8.17120361 2.65971613 0.75180542 76 5 7197 8.62600000 2211621718 2211621718 5.00000000
3.82083178 1.24293816 -0.63637543 6 6 7198 4.06800000 2211621720 2211621720 -9.00000000
8.17618275 2.65818048 1.05563223 100 7 7199 8.66200000 2211621722 2211621722 7.00000000
5.17671776 1.68201756 -0.66833150 9 8 7200 5.48400000 2211621725 2211621725 -7.00000000
8.20613956 2.66633630 1.36661148 94 9 7200 8.73600000 2211621727 2211621727 9.00000000
8.11241913 2.63431954 -0.74622744 13 10 7201 8.56200000 2211621729 2211621729 -5.00000000
8.19218540 2.65864110 1.67415810 84 11 7202 8.77400000 2211621732 2211621732 11.00000000
8.17116547 2.65024328 -0.45019388 12 12 7203 8.60200000 2211621734 2211621734 -3.00000000
8.19556999 2.65657783 1.98901725 92 13 7204 8.84200000 2211621736 2211621736 13.00000000
8.17064381 2.64692259 -0.14991617 12 14 7205 8.59000000 2211621739 2211621739 -1.00000000
7.35679483 2.38327169 2.07210517 47 15 7205 8.00600000 2211621741 2211621741 15.00000000
2.16041350 0.69654560 -0.60822475 4 0 7213 2.35000000 2211621762 2211621762 -15.00000000
8.17288876 2.63347149 0.14988127 12 1 7214 8.58800000 2211621764 2211621764 1.00000000
2.53754711 0.81716067 -0.61546606 4 2 7215 2.73600000 2211621766 2211621766 -13.00000000
8.17715740 2.63169670 0.45019388 13 3 7216 8.60200000 2211621769 2211621769 3.00000000
3.04996777 0.98158681 -0.62280059 5 4 7216 3.26400000 2211621771 2211621771 -11.00000000
8.18043804 2.63117695 0.75180542 76 5 7217 8.62600000 2211621773 2211621773 5.00000000
3.82890821 1.23080242 -0.63700116 6 6 7218 4.07200000 2211621775 2211621775 -9.00000000
8.17974186 2.62780261 1.05490100 97 7 7219 8.65600000 2211621778 2211621778 7.00000000
5.17499733 1.66150987 -0.66735655 6 8 7220 5.47600000 2211621780 2211621780 -7.00000000
8.19282627 2.63042879 1.36285710 97 9 7220 8.71200000 2211621782 2211621782 9.00000000
8.12535954 2.60720348 -0.74657607 17 10 7221 8.56600000 2211621785 2211621785 -5.00000000
8.19954586 2.62942934 1.67377651 90 11 7222 8.77200000 2211621787 2211621787 11.00000000
8.17275906 2.61926603 -0.44977522 12 12 7223 8.59400000 2211621789 2211621789 -3.00000000
8.18994617 2.62319851 1.98541796 90 13 7224 8.82600000 2211621792 2211621792 13.00000000
8.16650200 2.61411810 -0.14967184 12 14 7225 8.57600000 2211621794 2211621794 -1.00000000
7.37610865 2.36111093 2.07521105 45 15 7225 8.01800000 2211621796 2211621796 15.00000000
2.15546894 0.68665457 -0.60615420 4 0 7233 2.34200000 2211621817 2211621817 -15.00000000
8.17059898 2.60128689 0.14967184 12 1 7234 8.57600000 2211621819 2211621819 1.00000000
2.54781222 0.81066144 -0.61726570 4 2 7235 2.74400000 2211621822 2211621822 -13.00000000
8.17868042 2.60071611 0.44977522 13 3 7236 8.59400000 2211621824 2211621824 3.00000000
3.05337548 0.97093445 -0.62280059 5 4 7236 3.26400000 2211621826 2211621826 -11.00000000
8.17058468 2.59657168 0.75006235 76 5 7237 8.60600000 2211621828 2211621828 5.00000000
3.84447742 1.22101724 -0.63887835 6 6 7238 4.08400000 2211621831 2211621831 -9.00000000
8.18129635 2.59683180 1.05392611 97 7 7239 8.64800000 2211621833 2211621833 7.00000000
5.18833399 1.64583659 -0.66833150 9 8 7240 5.48400000 2211621835 2211621835 -7.00000000
8.18358231 2.59441328 1.35972834 94 9 7241 8.69200000 2211621838 2211621838 9.00000000
8.10022449 2.56798673 -0.74343848 17 10 7241 8.53000000 2211621840 2211621840 -5.00000000
8.19931698 2.59782672 1.67186844 87 11 7242 8.76200000 2211621842 2211621842 11.00000000
8.17804337 2.58951616 -0.44956586 12 12 7243 8.59000000 2211621845 2211621845 -3.00000000
8.19533730 2.59341836 1.98451817 101 13 7244 8.82200000 2211621847 2211621847 13.00000000
8.16032505 2.58077192 -0.14939260 12 14 7245 8.56000000 2211621849 2211621849 -1.00000000
7.37325382 2.33185410 2.07210517 45 15 7245 8.00600000 2211621851 2211621851 15.00000000
2.15416718 0.67796648 -0.60511893 4 0 7253 2.33800000 2211621872 2211621872 -15.00000000
8.16436863 2.56795049 0.14939260 12 1 7254 8.56000000 2211621875 2211621875 1.00000000
2.55806255 0.80410045 -0.61906528 4 2 7255 2.75200000 2211621877 2211621877 -13.00000000
8.18389797 2.57095408 0.44956586 13 3 7256 8.59000000 2211621879 2211621879 3.00000000
3.05674601 0.96027023 -0.62280059 5 4 7256 3.26400000 2211621881 2211621881 -11.00000000
8.15678787 2.56087351 0.74797058 76 5 7257 8.58200000 2211621884 2211621884 5.00000000
3.84871626 1.20759010 -0.63887835 6 6 7258 4.08400000 2211621886 2211621886 -9.00000000
8.19220543 2.56885171 1.05416977 99 7 7259 8.65000000 2211621888 2211621888 7.00000000
5.18268204 1.62415409 -0.66686904 6 8 7260 5.47200000 2211621891 2211621891 -7.00000000
8.18881893 2.56465077 1.35910261 94 9 7261 8.68800000 2211621893 2211621893 9.00000000
6.64892387 2.08237219 -0.60956728 8 10 7261 6.99400000 2211621895 2211621895 -5.00000000
8.19147205 2.56391191 1.66843390 90 11 7262 8.74400000 2211621898 2211621898 11.00000000
8.17750168 2.55797243 -0.44904250 12 12 7263 8.58000000 2211621900 2211621900 -3.00000000
8.20433998 2.56479549 1.98451817 101 13 7264 8.82200000 2211621902 2211621902 13.00000000
8.15783119 2.54869318 -0.14918317 12 14 7265 8.54800000 2211621904 2211621904 -1.00000000
7.39281511 2.30826855 2.07521105 45 15 7266 8.01800000 2211621907 2211621907 15.00000000
2.15997553 0.67234397 -0.60615420 4 0 7271 2.34200000 2211621928 2211621928 -15.00000000
8.15330124 2.53634882 0.14904355 12 1 7272 8.54000000 2211621930 2211621930 1.00000000
2.54941082 0.79258895 -0.61636591 4 2 7273 2.74000000 2211621932 2211621932 -13.00000000
8.18430519 2.54286051 0.44914716 13 3 7274 8.58200000 2211621934 2211621934 3.00000000
3.05974770 0.95066249 -0.62280059 5 4 7274 3.26400000 2211621937 2211621937 -11.00000000
8.17240429 2.53759885 0.74866784 83 5 7275 8.59000000 2211621939 2211621939 5.00000000
3.82985139 1.18846762 -0.63512391 6 6 7276 4.06000000 2211621941 2211621941 -9.00000000
8.17748260 2.53604650 1.05124497 99 7 7277 8.62600000 2211621944 2211621944 7.00000000
5.21051216 1.61491632 -0.66979390 9 8 7278 5.49600000 2211621946 2211621946 -7.00000000
8.19306183 2.53774333 1.35847688 100 9 7279 8.68400000 2211621948 2211621948 9.00000000
6.65923929 2.06265259 -0.60991591 12 10 7279 6.99800000 2211621951 2211621951 -5.00000000
8.18823433 2.53468180 1.66614413 90 11 7280 8.73200000 2211621953 2211621953 11.00000000
8.16450882 2.52577639 -0.44789112 17 12 7281 8.55800000 2211621955 2211621955 -3.00000000
8.20491028 2.53670573 1.98271859 92 13 7282 8.81400000 2211621957 2211621957 13.00000000
8.16197681 2.52187157 -0.14911336 14 14 7283 8.54400000 2211621960 2211621960 -1.00000000
7.43100929 2.29601860 2.08401084 42 15 7283 8.05200000 2211621962 2211621962 15.00000000
2.15861630 0.66366470 -0.60511893 4 0 7291 2.33800000 2211621983 2211621983 -15.00000000
8.15828228 2.50669837 0.14897375 12 1 7292 8.53600000 2211621985 2211621985 1.00000000
2.53912187 0.77968079 -0.61321658 5 2 7293 2.72600000 2211621987 2211621987 -13.00000000
8.17594719 2.50900292 0.44820514 10 3 7294 8.56400000 2211621990 2211621990 3.00000000
3.07055497 0.94228005 -0.62432700 5 4 7294 3.27200000 2211621992 2211621992 -11.00000000
8.16978359 2.50555134 0.74762195 76 5 7295 8.57800000 2211621994 2211621994 5.00000000
3.84908581 1.17972267 -0.63762689 6 6 7296 4.07600000 2211621997 2211621997 -9.00000000
8.16920280 2.50225401 1.04905128 95 7 7297 8.60800000 2211621999 2211621999 7.00000000
5.19333982 1.58974576 -0.66686904 6 8 7298 5.47200000 2211622001 2211622001 -7.00000000
8.19431400 2.50681710 1.35722542 97 9 7299 8.67600000 2211622004 2211622004 9.00000000
6.64353609 2.03240085 -0.60782415 12 10 7299 6.97400000 2211622006 2211622006 -5.00000000
8.18388939 2.50206614 1.66347277 90 11 7300 8.71800000 2211622008 2211622008 11.00000000
8.16181564 2.49375987 -0.44726309 17 12 7301 8.54600000 2211622010 2211622010 -3.00000000
8.20253181 2.50463510 1.98001921 103 13 7302 8.80200000 2211622013 2211622013 13.00000000
8.17072964 2.49336553 -0.14911336 12 14 7303 8.54400000 2211622015 2211622015 -1.00000000
7.49256325 2.28641725 2.09902239 45 15 7303 8.11000000 2211622017 2211622017 15.00000000
2.17016244 0.65893203 -0.60770714 4 0 7311 2.34800000 2211622039 2211622039 -15.00000000
8.16698265 2.47820544 0.14897375 12 1 7312 8.53600000 2211622041 2211622041 1.00000000
2.54369283 0.77137834 -0.61366647 6 2 7313 2.72800000 2211622044 2211622044 -13.00000000
8.17084312 2.47781944 0.44747242 10 3 7313 8.55000000 2211622046 2211622046 3.00000000
3.07006764 0.93041724 -0.62356383 5 4 7314 3.26800000 2211622048 2211622048 -11.00000000
8.17275906 2.47528553 0.74709904 79 5 7315 8.57200000 2211622051 2211622051 5.00000000
3.85318041 1.16627967 -0.63762689 6 6 7316 4.07600000 2211622053 2211622053 -9.00000000
8.17788792 2.47372293 1.04905128 95 7 7317 8.60800000 2211622055 2211622055 7.00000000
5.17985582 1.56586373 -0.66443163 9 8 7318 5.45200000 2211622057 2211622057 -7.00000000
8.18745518 2.47505713 1.35472250 90 9 7318 8.66000000 2211622060 2211622060 9.00000000
6.65821934 2.01150298 -0.60852140 12 10 7319 6.98200000 2211622062 2211622062 -5.00000000
8.18881416 2.47234893 1.66270959 90 11 7320 8.71400000 2211622064 2211622064 11.00000000
8.16473389 2.46352386 -0.44694906 12 12 7321 8.54000000 2211622067 2211622067 -3.00000000
8.19256687 2.47036171 1.97552013 103 13 7322 8.78200000 2211622069 2211622069 13.00000000
8.16023731 2.45905948 -0.14876431 14 14 7323 8.52400000 2211622071 2211622071 -1.00000000
7.58928347 2.28700447 2.12386918 45 15 7323 8.20600000 2211622074 2211622074 15.00000000
2.16134644 0.64802384 -0.60460126 4 0 7331 2.33600000 2211622094 2211622094 -15.00000000
8.17558289 2.44968224 0.14897375 12 1 7332 8.53600000 2211622097 2211622097 1.00000000
2.55197048 0.76417154 -0.61501616 6 2 7333 2.73400000 2211622099 2211622099 -13.00000000
8.17412949 2.44613743 0.44715840 13 3 7334 8.54400000 2211622101 2211622101 3.00000000
3.06389260 0.91688079 -0.62165570 5 4 7334 3.25800000 2211622104 2211622104 -11.00000000
8.17180538 2.44388795 0.74622744 76 5 7335 8.56200000 2211622106 2211622106 5.00000000
3.86101341 1.15395379 -0.63825262 6 6 7336 4.08000000 2211622108 2211622108 -9.00000000
8.18266869 2.44402552 1.04856384 92 7 7337 8.60400000 2211622110 2211622110 7.00000000
5.19670296 1.55117989 -0.66589409 9 8 7338 5.46400000 2211622113 2211622113 -7.00000000
8.18132782 2.44051456 1.35221946 92 9 7339 8.64400000 2211622115 2211622115 9.00000000
6.64801693 1.98312330 -0.60695261 16 10 7339 6.96400000 2211622117 2211622117 -5.00000000
8.19739437 2.44374943 1.66270959 87 11 7340 8.71400000 2211622120 2211622120 11.00000000
8.16179943 2.43158698 -0.44632104 12 12 7341 8.52800000 2211622122 2211622122 -3.00000000
8.19740486 2.44063711 1.97462034 103 13 7342 8.77800000 2211622124 2211622124 13.00000000
8.15535450 2.42656803 -0.14851998 16 14 7343 8.51000000 2211622127 2211622127 -1.00000000
7.66242504 2.27844453 2.14198637 45 15 7344 8.27600000 2211622129 2211622129 15.00000000
2.15989041 0.63937867 -0.60356599 4 0 7351 2.33200000 2211622150 2211622150 -15.00000000
8.16874409 2.41659093 0.14869450 12 1 7352 8.52000000 2211622152 2211622152 1.00000000
2.55835986 0.75636387 -0.61591601 6 2 7353 2.73800000 2211622154 2211622154 -13.00000000
8.17836571 2.41788507 0.44694906 13 3 7353 8.54000000 2211622157 2211622157 3.00000000
3.07272291 0.90784907 -0.62280059 5 4 7354 3.26400000 2211622159 2211622159 -11.00000000
8.16117764 2.40970612 0.74448436 76 5 7355 8.54200000 2211622161 2211622161 5.00000000
3.86122870 1.13935113 -0.63762689 6 6 7356 4.07600000 2211622163 2211622163 -9.00000000
8.19115067 2.41544771 1.04856384 97 7 7357 8.60400000 2211622166 2211622166 7.00000000
5.21160650 1.53583622 -0.66711277 9 8 7358 5.47400000 2211622168 2211622168 -7.00000000
8.18411255 2.41026735 1.35128093 50 9 7359 8.63800000 2211622170 2211622170 9.00000000
6.62240791 1.95033658 -0.60398930 28 10 7359 6.93000000 2211622173 2211622173 -5.00000000
8.20210838 2.41401172 1.66194630 25 11 7360 8.71000000 2211622175 2211622175 11.00000000
8.17406940 2.40420938 -0.44653037 12 12 7361 8.53200000 2211622177 2211622177 -3.00000000
8.19839573 2.40980983 1.97282076 25 13 7362 8.77000000 2211622180 2211622180 13.00000000
8.16377544 2.39808559 -0.14851998 14 14 7363 8.51000000 2211622182 2211622182 -1.00000000
7.73851967 2.27316809 2.16113901 45 15 7363 8.35000000 2211622184 2211622184 15.00000000
2.16767216 0.63346100 -0.60511893 4 0 7371 2.33800000 2211622205 2211622205 -15.00000000
8.16177368 2.38357735 0.14841527 12 1 7372 8.50400000 2211622207 2211622207 1.00000000
2.55537248 0.74579102 -0.61456627 6 2 7373 2.73200000 2211622209 2211622209 -13.00000000
8.19634247 2.39212036 0.44747242 26 3 7373 8.55000000 2211622212 2211622212 3.00000000
3.07775784 0.89766741 -0.62318218 5 4 7374 3.26600000 2211622214 2211622214 -11.00000000
8.16762638 2.38064599 0.74431002 76 5 7375 8.54000000 2211622216 2211622216 5.00000000
3.85000968 1.12144649 -0.63512391 6 6 7376 4.06000000 2211622219 2211622219 -9.00000000
8.18237782 2.38184714 1.04637015 90 7 7377 8.58600000 2211622221 2211622221 7.00000000
5.22837257 1.52096188 -0.66857523 9 8 7378 5.48600000 2211622223 2211622223 -7.00000000
6.63874102 1.92998922 -0.60486084 56 10 7379 6.94000000 2211622228 2211622228 -5.00000000
8.29720879 2.41056204 1.67950082 12 11 7380 8.80200000 2211622230 2211622230 11.00000000
8.15747738 2.36842227 -0.44516966 17 12 7381 8.50600000 2211622233 2211622233 -3.00000000
8.29097748 2.40561366 1.99306631 16 13 7382 8.86000000 2211622235 2211622235 13.00000000
8.15481091 2.36456203 -0.14820583 12 14 7383 8.49200000 2211622237 2211622237 -1.00000000
7.83361244 2.27142763 2.18546796 45 15 7383 8.44400000 2211622239 2211622239 15.00000000
2.17369175 0.62658203 -0.60615420 4 0 7392 2.34200000 2211622260 2211622260 -15.00000000
8.16661167 2.35253978 0.14834546 12 1 7393 8.50000000 2211622262 2211622262 1.00000000
2.55434322 0.73534185 -0.61366647 6 2 7394 2.72800000 2211622265 2211622265 -13.00000000
8.18051434 2.35345268 0.44611168 13 3 7395 8.52400000 2211622267 2211622267 3.00000000
3.08480072 0.88746643 -0.62394542 5 4 7395 3.27000000 2211622269 2211622269 -11.00000000
8.15906429 2.34573960 0.74274123 72 5 7396 8.52200000 2211622272 2211622272 5.00000000
3.86168861 1.10950994 -0.63637543 4 6 7397 4.06800000 2211622274 2211622274 -9.00000000
8.17769718 2.34800649 1.04466403 90 7 7398 8.57200000 2211622276 2211622276 7.00000000
5.22055531 1.49795628 -0.66686904 9 8 7399 5.47200000 2211622279 2211622279 -7.00000000
8.30706978 2.38358307 1.36880159 10 9 7399 8.75000000 2211622281 2211622281 9.00000000
6.65917683 1.90948820 -0.60608101 16 10 7400 6.95400000 2211622283 2211622283 -5.00000000
8.28711510 2.37472677 1.67568457 12 11 7401 8.78200000 2211622286 2211622286 11.00000000
8.15842247 2.33630848 -0.44475096 17 12 7402 8.49800000 2211622288 2211622288 -3.00000000
8.15957737 2.33355761 -0.14813602 14 14 7404 8.48800000 2211622292 2211622292 -1.00000000
7.94072247 2.26946807 2.21290278 45 15 7405 8.55000000 2211622295 2211622295 15.00000000
2.18887258 0.62269080 -0.60977769 4 0 7412 2.35600000 2211622315 2211622315 -15.00000000
8.16130924 2.32019091 0.14810112 12 1 7413 8.48600000 2211622318 2211622318 1.00000000
2.55502009 0.72588849 -0.61321658 7 2 7414 2.72600000 2211622320 2211622320 -13.00000000
8.16906166 2.32085395 0.44506496 18 3 7414 8.50400000 2211622322 2211622322 3.00000000
3.07843661 0.87401205 -0.62203735 5 4 7415 3.26000000 2211622325 2211622325 -11.00000000
8.18253613 2.32159543 0.74413574 90 5 7416 8.53800000 2211622327 2211622327 5.00000000
3.87313962 1.09817874 -0.63762689 4 6 7417 4.07600000 2211622329 2211622329 -9.00000000
8.18011379 2.31782317 1.04393280 90 7 7418 8.56600000 2211622332 2211622332 7.00000000
5.22002220 1.47810149 -0.66613781 9 8 7419 5.46600000 2211622334 2211622334 -7.00000000
8.51152706 2.40851951 1.40102708 7 9 7420 8.95600000 2211622336 2211622336 9.00000000
6.67155313 1.88785923 -0.60660398 12 10 7420 6.96000000 2211622339 2211622339 -5.00000000
8.53339005 2.41309738 1.72376847 12 11 7421 9.03400000 2211622341 2211622341 11.00000000
8.14923096 2.30292773 -0.44380891 17 12 7422 8.48000000 2211622343 2211622343 -3.00000000
8.16767406 2.30506110 -0.14813602 16 14 7424 8.48800000 2211622348 2211622348 -1.00000000
8.04342175 2.26847959 2.23930240 42 15 7425 8.65200000 2211622350 2211622350 15.00000000
2.17987323 0.61191374 -0.60667187 4 0 7432 2.34400000 2211622371 2211622371 -15.00000000
8.17513466 2.29330873 0.14820583 15 1 7433 8.49200000 2211622373 2211622373 1.00000000
2.56129098 0.71801746 -0.61411637 7 2 7434 2.73000000 2211622375 2211622375 -13.00000000
8.17326736 2.29124618 0.44485563 23 3 7434 8.50000000 2211622378 2211622378 3.00000000
3.08335924 0.86379057 -0.62241894 5 4 7435 3.26200000 2211622380 2211622380 -11.00000000
8.16564846 2.28603625 0.74186969 72 5 7436 8.51200000 2211622382 2211622382 5.00000000
3.87694955 1.08465230 -0.63762689 4 6 7437 4.07600000 2211622385 2211622385 -9.00000000
8.18241882 2.28765154 1.04320157 90 7 7438 8.56000000 2211622387 2211622387 7.00000000
5.22515011 1.45987117 -0.66613781 9 8 7439 5.46600000 2211622389 2211622389 -7.00000000
8.59747028 2.40207458 1.41385472 10 9 7439 9.03800000 2211622392 2211622392 9.00000000
6.65699339 1.85866594 -0.60468656 12 10 7440 6.93800000 2211622394 2211622394 -5.00000000
8.63820362 2.41020465 1.74323094 12 11 7441 9.13600000 2211622396 2211622396 11.00000000
8.16106701 2.27554035 -0.44401824 12 12 7442 8.48400000 2211622398 2211622398 -3.00000000
8.60708904 2.39828515 2.06280112 33 13 7443 9.17000000 2211622401 2211622401 13.00000000
8.14870071 2.26902676 -0.14764735 14 14 7444 8.46000000 2211622403 2211622403 -1.00000000
8.16668129 2.27249813 2.27139592 47 15 7445 8.77600000 2211622405 2211622405 15.00000000
2.17082524 0.60120714 -0.60356599 4 0 7452 2.33200000 2211622426 2211622426 -15.00000000
8.15996361 2.25835776 0.14778697 12 1 7453 8.46800000 2211622428 2211622428 1.00000000
2.56566000 0.70959193 -0.61456627 6 2 7454 2.73200000 2211622431 2211622431 -13.00000000
8.17351532 2.26057243 0.44443694 28 3 7454 8.49200000 2211622433 2211622433 3.00000000
3.08446336 0.85249937 -0.62203735 5 4 7455 3.26000000 2211622435 2211622435 -11.00000000
8.15821457 2.25327539 0.74047518 76 5 7456 8.49600000 2211622438 2211622438 5.00000000
3.87119102 1.06848478 -0.63606256 4 6 7457 4.06600000 2211622440 2211622440 -9.00000000
8.19035435 2.25907564 1.04320157 92 7 7458 8.56000000 2211622442 2211622442 7.00000000
5.21873188 1.43845820 -0.66467541 9 8 7459 5.45400000 2211622445 2211622445 -7.00000000
8.66674232 2.38884592 1.42386651 7 9 7459 9.10200000 2211622447 2211622447 9.00000000
6.63078594 1.82642281 -0.60172325 24 10 7460 6.90400000 2211622449 2211622449 -5.00000000
8.49702835 2.33887601 1.71308315 3 11 7461 8.97800000 2211622451 2211622451 11.00000000
8.16510963 2.24597979 -0.44380891 12 12 7462 8.48000000 2211622454 2211622454 -3.00000000
8.16042805 2.24162817 -0.14771716 12 14 7464 8.46400000 2211622458 2211622458 -1.00000000
8.20809746 2.25318217 2.28071332 47 15 7465 8.81200000 2211622461 2211622461 15.00000000
2.17477417 0.59413499 -0.60408366 4 0 7472 2.33400000 2211622481 2211622481 -15.00000000
8.15622234 2.22670031 0.14757755 12 1 7473 8.45600000 2211622484 2211622484 1.00000000
2.56624126 0.70011890 -0.61411637 7 2 7474 2.73000000 2211622486 2211622486 -13.00000000
8.18906403 2.23413062 0.44485563 44 3 7474 8.50000000 2211622488 2211622488 3.00000000
3.09310269 0.84327662 -0.62318218 5 4 7475 3.26600000 2211622491 2211622491 -11.00000000
