# .PCD v0.7 - Point Cloud Data file format
VERSION 0.7
FIELDS x y z intensity laser_id azimuth distance_m adjustedtime timestamp vertical_angle
SIZE 4 4 4 1 1 2 8 8 4 8
TYPE F F F U U U F U U F
COUNT 1 1 1 1 1 1 1 1 1 1
WIDTH 541
HEIGHT 1
VIEWPOINT 0 0 0 1 0 0 0
POINTS 541
DATA ascii
2.30010843 2.34469676 -0.63844693 4 4 4445 3.34600000 2337913865 2337913865 -11.00000000
3.00449371 3.06166768 0.37529263 5 5 4446 4.30600000 2337913867 2337913867 5.00000000
2.91986418 2.97438908 -0.66015345 9 6 4447 4.22000000 2337913869 2337913869 -9.00000000
3.02932644 3.08481812 0.53086287 63 7 4448 4.35600000 2337913871 2337913871 7.00000000
2.98256660 3.03614163 -0.52257574 8 8 4449 4.28800000 2337913874 2337913874 -7.00000000
2.99685502 3.04962182 -0.37407246 9 10 4450 4.29200000 2337913878 2337913878 -5.00000000
3.03475809 3.08711433 0.84146768 68 11 4451 4.41000000 2337913881 2337913881 11.00000000
2.99544406 3.04605842 -0.22389323 6 12 4452 4.27800000 2337913883 2337913883 -3.00000000
3.01612496 3.06601834 0.99293393 49 13 4453 4.41400000 2337913885 2337913885 13.00000000
2.99174666 3.04017520 -0.07445197 5 14 4454 4.26600000 2337913888 2337913888 -1.00000000
3.03252220 3.08161044 1.15847409 50 15 4454 4.47600000 2337913890 2337913890 15.00000000
1.60254097 1.62394011 -0.61133057 4 0 4462 2.36200000 2337913911 2337913911 -15.00000000
3.00635242 3.04543352 0.07469630 7 1 4463 4.28000000 2337913913 2337913913 1.00000000
1.91288722 1.93707764 -0.62851322 3 2 4464 2.79400000 2337913915 2337913915 -13.00000000
3.00602722 3.04404140 0.22420724 5 3 4464 4.28400000 2337913918 2337913918 3.00000000
2.30551958 2.33386016 -0.63768369 4 4 4465 3.34200000 2337913920 2337913920 -11.00000000
3.01516271 3.05116129 0.37529263 5 5 4466 4.30600000 2337913922 2337913922 5.00000000
2.94133878 2.97541738 -0.66265637 11 6 4467 4.23600000 2337913924 2337913924 -9.00000000
3.02332616 3.05728698 0.52793801 56 7 4468 4.33200000 2337913927 2337913927 7.00000000
2.98477006 3.01724458 -0.52111334 8 8 4469 4.27600000 2337913929 2337913929 -7.00000000
3.02850914 3.06145954 0.68205428 66 9 4469 4.36000000 2337913931 2337913931 9.00000000
3.00467920 3.03630996 -0.37372383 9 10 4470 4.28800000 2337913934 2337913934 -5.00000000
3.02479792 3.05557370 0.83574343 42 11 4471 4.38000000 2337913936 2337913936 11.00000000
2.99903154 3.02848792 -0.22336987 8 12 4472 4.26800000 2337913938 2337913938 -3.00000000
3.02132320 3.04993367 0.99113435 54 13 4473 4.40600000 2337913941 2337913941 13.00000000
2.99389529 3.02119112 -0.07424254 7 14 4474 4.25400000 2337913943 2337913943 -1.00000000
3.02883577 3.05538344 1.15278006 52 15 4475 4.45400000 2337913945 2337913945 15.00000000
1.60519433 1.61587584 -0.61029530 4 0 4481 2.35800000 2337913966 2337913966 -15.00000000
3.00515842 3.02410007 0.07441706 7 1 4482 4.26400000 2337913968 2337913968 1.00000000
1.91655254 1.92795944 -0.62761343 3 2 4483 2.79000000 2337913971 2337913971 -13.00000000
3.01381779 3.03069735 0.22399789 7 3 4484 4.28000000 2337913973 2337913973 3.00000000
2.32016802 2.33316255 -0.63959175 4 4 4484 3.35200000 2337913975 2337913975 -11.00000000
3.00699735 3.02278328 0.37302658 7 5 4485 4.28000000 2337913977 2337913977 5.00000000
2.95118952 2.96564722 -0.66265637 11 6 4486 4.23600000 2337913980 2337913980 -9.00000000
3.02924633 3.04302406 0.52720678 63 7 4487 4.32600000 2337913982 2337913982 7.00000000
2.99195790 3.00451684 -0.52062583 8 8 4488 4.27200000 2337913984 2337913984 -7.00000000
3.02331209 3.03600264 0.67861271 72 9 4488 4.33800000 2337913987 2337913987 9.00000000
2.99363947 3.00515628 -0.37110916 9 10 4489 4.25800000 2337913989 2337913989 -5.00000000
3.02798486 3.03857303 0.83383530 59 11 4490 4.37000000 2337913991 2337913991 11.00000000
3.00623798 3.01569724 -0.22316052 8 12 4491 4.26400000 2337913994 2337913994 -3.00000000
3.02454042 3.03299832 0.98888481 55 13 4492 4.39600000 2337913996 2337913996 13.00000000
2.99966073 3.00699902 -0.07413782 7 14 4493 4.24800000 2337913998 2337913998 -1.00000000
3.02614045 3.03354383 1.14812124 58 15 4493 4.43600000 2337914001 2337914001 15.00000000
1.61765635 1.61709177 -0.61288351 4 0 4501 2.36800000 2337914021 2337914021 -15.00000000
3.00013685 2.99804306 0.07403311 7 1 4502 4.24200000 2337914024 2337914024 1.00000000
1.92327070 1.92125773 -0.62761343 3 2 4503 2.79000000 2337914026 2337914026 -13.00000000
3.01448584 3.01027966 0.22326519 7 3 4504 4.26600000 2337914028 2337914028 3.00000000
2.32274127 2.31950045 -0.63806528 4 4 4504 3.34400000 2337914030 2337914030 -11.00000000
3.01189017 3.00663805 0.37232932 7 5 4505 4.27200000 2337914033 2337914033 5.00000000
2.94754100 2.94137406 -0.65952772 13 6 4506 4.21600000 2337914035 2337914035 -9.00000000
3.02439094 3.01700997 0.52452564 61 7 4507 4.30400000 2337914037 2337914037 7.00000000
2.99821043 2.98984957 -0.51989460 8 8 4508 4.26600000 2337914040 2337914040 -7.00000000
3.03022242 3.02071762 0.67767411 70 9 4509 4.33200000 2337914042 2337914042 9.00000000
2.99564505 2.98624849 -0.37006328 9 10 4509 4.24600000 2337914044 2337914044 -5.00000000
3.01910400 3.00858355 0.82849264 59 11 4510 4.34200000 2337914047 2337914047 11.00000000
2.99976659 2.98827028 -0.22190446 8 12 4511 4.24000000 2337914049 2337914049 -3.00000000
3.02958560 3.01692176 0.98708522 57 13 4512 4.38800000 2337914051 2337914051 13.00000000
3.00305271 2.98945618 -0.07396330 7 14 4513 4.23800000 2337914054 2337914054 -1.00000000
3.02628374 3.01153064 1.14398015 58 15 4514 4.42000000 2337914056 2337914056 15.00000000
1.62575150 1.61444104 -0.61391878 4 0 4520 2.37200000 2337914077 2337914077 -15.00000000
3.00438547 2.98244262 0.07389349 7 1 4521 4.23400000 2337914079 2337914079 1.00000000
1.92963123 1.91486931 -0.62761343 3 2 4522 2.79000000 2337914081 2337914081 -13.00000000
3.01594400 2.99182725 0.22263716 7 3 4523 4.25400000 2337914083 2337914083 3.00000000
2.34017682 2.32146358 -0.64073658 4 4 4523 3.35800000 2337914086 2337914086 -11.00000000
3.01335573 2.98821616 0.37128347 7 5 4524 4.26000000 2337914088 2337914088 5.00000000
2.95587587 2.93019271 -0.65921485 13 6 4525 4.21400000 2337914090 2337914090 -9.00000000
3.01886868 2.99159384 0.52184451 63 7 4526 4.28200000 2337914093 2337914093 7.00000000
2.98695445 2.95893502 -0.51623851 8 8 4527 4.23600000 2337914095 2337914095 -7.00000000
3.02566361 2.99728084 0.67454541 68 9 4527 4.31200000 2337914097 2337914097 9.00000000
2.99420571 2.96508288 -0.36866879 9 10 4528 4.23000000 2337914100 2337914100 -5.00000000
3.01929736 2.98888707 0.82582134 65 11 4529 4.32800000 2337914102 2337914102 11.00000000
2.98978448 2.95863819 -0.22043905 8 12 4530 4.21200000 2337914104 2337914104 -3.00000000
3.02710485 2.99452448 0.98303610 56 13 4531 4.37000000 2337914107 2337914107 13.00000000
3.00584030 2.97245073 -0.07378878 7 14 4532 4.22800000 2337914109 2337914109 -1.00000000
3.03160882 2.99793315 1.14242721 62 15 4532 4.41400000 2337914111 2337914111 15.00000000
1.62587488 1.60333049 -0.61184824 4 0 4540 2.36400000 2337914132 2337914132 -15.00000000
3.00908160 2.96632171 0.07375387 7 1 4541 4.22600000 2337914134 2337914134 1.00000000
1.92519939 1.89717937 -0.62401420 3 2 4542 2.77400000 2337914136 2337914136 -13.00000000
3.00929523 2.96446180 0.22138110 7 3 4543 4.23000000 2337914139 2337914139 3.00000000
2.34267139 2.30776954 -0.63921010 4 4 4543 3.35000000 2337914141 2337914141 -11.00000000
3.02518773 2.97907734 0.37145779 7 5 4544 4.26200000 2337914143 2337914143 5.00000000
2.96467829 2.91847134 -0.65890199 13 6 4545 4.21200000 2337914146 2337914146 -9.00000000
3.02221847 2.97407603 0.52062583 67 7 4546 4.27200000 2337914148 2337914148 7.00000000
2.97886825 2.93039322 -0.51306993 8 8 4547 4.21000000 2337914150 2337914150 -7.00000000
3.02113581 2.97093558 0.67110384 72 9 4548 4.29000000 2337914153 2337914153 9.00000000
3.00169635 2.95181894 -0.36832017 9 10 4548 4.22600000 2337914155 2337914155 -5.00000000
3.01851177 2.96731901 0.82276839 59 11 4549 4.31200000 2337914157 2337914157 11.00000000
3.00151825 2.94958377 -0.22054371 8 12 4550 4.21400000 2337914159 2337914159 -3.00000000
3.01529646 2.96208930 0.97583765 59 13 4551 4.33800000 2337914162 2337914162 13.00000000
3.00050330 2.94652820 -0.07340482 7 14 4552 4.20600000 2337914164 2337914164 -1.00000000
3.02879047 2.97326827 1.13725090 64 15 4553 4.39400000 2337914166 2337914166 15.00000000
1.63422215 1.60034859 -0.61288351 4 0 4560 2.36800000 2337914187 2337914187 -15.00000000
3.00369883 2.94041252 0.07336992 8 1 4561 4.20400000 2337914189 2337914189 1.00000000
1.94573796 1.90407741 -0.62851322 3 2 4562 2.79400000 2337914192 2337914192 -13.00000000
3.00963068 2.94416261 0.22064839 7 3 4563 4.21600000 2337914194 2337914194 3.00000000
2.35071278 2.29957819 -0.63921010 2 4 4563 3.35000000 2337914196 2337914196 -11.00000000
3.02274799 2.95596242 0.36988896 7 5 4564 4.24400000 2337914199 2337914199 5.00000000
2.97908545 2.91224742 -0.65984058 11 6 4565 4.21800000 2337914201 2337914201 -9.00000000
3.01838398 2.94963431 0.51818848 58 7 4566 4.25200000 2337914203 2337914203 7.00000000
2.98481894 2.91581559 -0.51233870 8 8 4567 4.20400000 2337914206 2337914206 -7.00000000
3.01825380 2.94847751 0.66828805 70 9 4567 4.27200000 2337914208 2337914208 9.00000000
2.99487638 2.92461896 -0.36622843 9 10 4568 4.20200000 2337914210 2337914210 -5.00000000
3.02604151 2.95402169 0.82200515 29 11 4569 4.30800000 2337914212 2337914212 11.00000000
3.00321937 2.93071914 -0.21991569 8 12 4570 4.20200000 2337914215 2337914215 -3.00000000
3.01445818 2.94065952 0.97223848 58 13 4571 4.32200000 2337914217 2337914217 13.00000000
3.00361204 2.92905593 -0.07323030 8 14 4572 4.19600000 2337914219 2337914219 -1.00000000
3.02756882 2.95241809 1.13310981 66 15 4572 4.37800000 2337914222 2337914222 15.00000000
1.63702857 1.59194076 -0.61184824 4 0 4580 2.36400000 2337914242 2337914242 -15.00000000
2.99960613 2.91597104 0.07302087 8 1 4581 4.18400000 2337914245 2337914245 1.00000000
1.95237267 1.89727390 -0.62851322 3 2 4582 2.79400000 2337914247 2337914247 -13.00000000
3.02132201 2.93503070 0.22075306 7 3 4583 4.21800000 2337914249 2337914249 3.00000000
2.34182715 2.27494287 -0.63463074 4 4 4583 3.32600000 2337914252 2337914252 -11.00000000
3.01303697 2.92596054 0.36744860 7 5 4584 4.21600000 2337914254 2337914254 5.00000000
2.97647643 2.88944745 -0.65702474 9 6 4585 4.20000000 2337914256 2337914256 -9.00000000
3.02438807 2.93493295 0.51745725 36 7 4586 4.24600000 2337914259 2337914259 7.00000000
2.99212933 2.90261436 -0.51185125 10 8 4587 4.20000000 2337914261 2337914261 -7.00000000
3.02478600 2.93326950 0.66734940 74 9 4588 4.26600000 2337914263 2337914263 9.00000000
2.99076390 2.90027690 -0.36448532 9 10 4588 4.18200000 2337914265 2337914265 -5.00000000
3.01800942 2.92567635 0.81704414 8 11 4589 4.28200000 2337914268 2337914268 11.00000000
3.00769401 2.91465831 -0.21949700 8 12 4590 4.19400000 2337914270 2337914270 -3.00000000
3.02330494 2.92876339 0.97178853 16 13 4591 4.32000000 2337914272 2337914272 13.00000000
2.99657965 2.90186024 -0.07281144 8 14 4592 4.17200000 2337914275 2337914275 -1.00000000
3.01338530 2.91711569 1.12379229 20 15 4593 4.34200000 2337914277 2337914277 15.00000000
1.64257550 1.58621669 -0.61184824 4 0 4600 2.36400000 2337914298 2337914298 -15.00000000
2.99537945 2.89159417 0.07267182 8 1 4601 4.16400000 2337914300 2337914300 1.00000000
1.96178806 1.89315367 -0.62941307 3 2 4602 2.79800000 2337914302 2337914302 -13.00000000
3.01573682 2.90921330 0.21960168 7 3 4603 4.19600000 2337914305 2337914305 3.00000000
2.34975386 2.26675463 -0.63463074 2 4 4603 3.32600000 2337914307 2337914307 -11.00000000
3.01319289 2.90574408 0.36622843 7 5 4604 4.20200000 2337914309 2337914309 5.00000000
2.97516704 2.86807227 -0.65452182 9 6 4605 4.18400000 2337914312 2337914312 -9.00000000
3.02174973 2.91196084 0.51526356 28 7 4606 4.22800000 2337914314 2337914314 7.00000000
2.99223566 2.88251185 -0.51014507 8 8 4607 4.18600000 2337914316 2337914316 -7.00000000
3.01884723 2.90814781 0.66390789 68 9 4607 4.24400000 2337914318 2337914318 9.00000000
2.99512887 2.88429141 -0.36378807 9 10 4608 4.17400000 2337914321 2337914321 -5.00000000
3.01405978 2.90150785 0.81322795 19 11 4609 4.26200000 2337914323 2337914323 11.00000000
2.99482369 2.88198328 -0.21782225 7 12 4610 4.16200000 2337914325 2337914325 -3.00000000
3.01384807 2.89927793 0.96548992 11 13 4611 4.29200000 2337914328 2337914328 13.00000000
2.99804258 2.88306594 -0.07260201 8 14 4612 4.16000000 2337914330 2337914330 -1.00000000
3.02025747 2.90442872 1.12275708 14 15 4612 4.33800000 2337914332 2337914332 15.00000000
1.65089107 1.58314764 -0.61288351 4 0 4620 2.36800000 2337914353 2337914353 -15.00000000
2.99390650 2.87005019 0.07239258 8 1 4621 4.14800000 2337914355 2337914355 1.00000000
1.95712841 1.87550771 -0.62581384 3 2 4622 2.78200000 2337914358 2337914358 -13.00000000
3.01433539 2.88761568 0.21876429 7 3 4623 4.18000000 2337914360 2337914360 3.00000000
2.38317084 2.28298450 -0.64149982 2 4 4623 3.36200000 2337914362 2337914362 -11.00000000
3.01324463 2.88556218 0.36500826 7 5 4624 4.18800000 2337914365 2337914365 5.00000000
2.98087955 2.85357141 -0.65358317 9 6 4625 4.17800000 2337914367 2337914367 -9.00000000
3.02042246 2.89041543 0.51331365 17 7 4626 4.21200000 2337914369 2337914369 7.00000000
2.98650026 2.85695505 -0.50746393 8 8 4627 4.16400000 2337914371 2337914371 -7.00000000
3.02805829 2.89569831 0.66359502 72 9 4628 4.24200000 2337914374 2337914374 9.00000000
2.99653912 2.86555672 -0.36274222 9 10 4628 4.16200000 2337914376 2337914376 -5.00000000
3.01991224 2.88689923 0.81208307 19 11 4629 4.25600000 2337914378 2337914378 11.00000000
2.99620175 2.86323261 -0.21719421 7 12 4630 4.15000000 2337914381 2337914381 -3.00000000
3.01408648 2.87931728 0.96234059 10 13 4631 4.27800000 2337914383 2337914383 13.00000000
3.00953436 2.87396431 -0.07263692 7 14 4632 4.16200000 2337914385 2337914385 -1.00000000
3.01970339 2.88266778 1.11861587 10 15 4633 4.32200000 2337914388 2337914388 15.00000000
1.65360928 1.57471085 -0.61184824 4 0 4640 2.36400000 2337914408 2337914408 -15.00000000
2.99811316 2.85406685 0.07225296 7 1 4641 4.14000000 2337914411 2337914411 1.00000000
1.96366322 1.86866462 -0.62581384 3 2 4642 2.78200000 2337914413 2337914413 -13.00000000
3.00413775 2.85780382 0.21729890 7 3 4643 4.15200000 2337914415 2337914415 3.00000000
2.37974596 2.26382661 -0.63844693 2 4 4643 3.34600000 2337914418 2337914418 -11.00000000
3.01752353 2.86953449 0.36431101 7 5 4644 4.18000000 2337914420 2337914420 5.00000000
2.99082232 2.84314871 -0.65358317 9 6 4645 4.17800000 2337914422 2337914422 -9.00000000
3.02905440 2.87848711 0.51306993 8 7 4646 4.21000000 2337914424 2337914424 7.00000000
2.98206258 2.83284068 -0.50502658 10 8 4647 4.14400000 2337914427 2337914427 -7.00000000
3.02189016 2.87067533 0.66015345 66 9 4647 4.22000000 2337914429 2337914429 9.00000000
3.00941300 2.85782337 -0.36309081 9 10 4648 4.16600000 2337914431 2337914431 -5.00000000
3.02712321 2.87363696 0.81131983 10 11 4649 4.25200000 2337914434 2337914434 11.00000000
3.00038314 2.84725714 -0.21677554 7 12 4650 4.14200000 2337914436 2337914436 -3.00000000
3.01422215 2.85939026 0.95919132 10 13 4651 4.26400000 2337914438 2337914438 13.00000000
2.99197888 2.83729768 -0.07197373 8 14 4652 4.12400000 2337914441 2337914441 -1.00000000
3.03345156 2.87662625 1.12016881 16 15 4652 4.32800000 2337914443 2337914443 15.00000000
1.66190326 1.57158375 -0.61288351 4 0 4660 2.36800000 2337914464 2337914464 -15.00000000
3.00515103 2.84083676 0.07218315 7 1 4661 4.13600000 2337914466 2337914466 1.00000000
1.97300696 1.86447573 -0.62671363 3 2 4662 2.78600000 2337914468 2337914468 -13.00000000
3.00683546 2.84044218 0.21677554 7 3 4663 4.14200000 2337914471 2337914471 3.00000000
2.38477945 2.25280952 -0.63768369 2 4 4663 3.34200000 2337914473 2337914473 -11.00000000
3.01448464 2.84667253 0.36274222 7 5 4664 4.16200000 2337914475 2337914475 5.00000000
2.98636413 2.81913161 -0.65045452 9 6 4665 4.15800000 2337914477 2337914477 -9.00000000
3.02897763 2.85835934 0.51136374 7 7 4666 4.19600000 2337914480 2337914480 7.00000000
2.98326898 2.81424117 -0.50356412 10 8 4667 4.13200000 2337914482 2337914482 -7.00000000
3.02039695 2.84926558 0.65765047 64 9 4667 4.20400000 2337914484 2337914484 9.00000000
2.99907684 2.82816434 -0.36065045 9 10 4668 4.13800000 2337914487 2337914487 -5.00000000
3.02713561 2.85362601 0.80864853 36 11 4669 4.23800000 2337914489 2337914489 11.00000000
2.99722171 2.82443881 -0.21583349 7 12 4670 4.12400000 2337914491 2337914491 -3.00000000
3.01567411 2.84083390 0.95649189 44 13 4671 4.25200000 2337914494 2337914494 13.00000000
2.98439503 2.81038547 -0.07155487 8 14 4672 4.10000000 2337914496 2337914496 -1.00000000
3.01815891 2.84218049 1.11085129 10 15 4672 4.29200000 2337914498 2337914498 15.00000000
1.66147351 1.56077325 -0.61081296 4 0 4679 2.36000000 2337914519 2337914519 -15.00000000
3.00143552 2.81853557 0.07186901 8 1 4680 4.11800000 2337914521 2337914521 1.00000000
1.98486209 1.86325777 -0.62851322 3 2 4681 2.79400000 2337914524 2337914524 -13.00000000
3.01186895 2.82635546 0.21646151 7 3 4682 4.13600000 2337914526 2337914526 3.00000000
2.39510012 2.24757576 -0.63844693 2 4 4682 3.34600000 2337914528 2337914528 -11.00000000
3.00065827 2.81485057 0.35995322 6 5 4683 4.13000000 2337914530 2337914530 5.00000000
2.97840500 2.79299808 -0.64670008 9 6 4684 4.13400000 2337914533 2337914533 -9.00000000
3.02685356 2.83743811 0.50941384 7 7 4685 4.18000000 2337914535 2337914535 7.00000000
2.98968792 2.80161810 -0.50307667 10 8 4686 4.12800000 2337914537 2337914537 -7.00000000
3.02311611 2.83195257 0.65608615 62 9 4687 4.19400000 2337914540 2337914540 9.00000000
2.98808217 2.79913378 -0.35821012 9 10 4687 4.11000000 2337914542 2337914542 -5.00000000
3.01508665 2.82344294 0.80292428 50 11 4688 4.20800000 2337914544 2337914544 11.00000000
2.99928093 2.80765939 -0.21531013 7 12 4689 4.11400000 2337914547 2337914547 -3.00000000
3.00800323 2.81483960 0.95109308 50 13 4690 4.22800000 2337914549 2337914549 13.00000000
2.99661899 2.80320549 -0.07162467 8 14 4691 4.10400000 2337914551 2337914551 -1.00000000
3.01769161 2.82291818 1.10722792 10 15 4691 4.27800000 2337914553 2337914553 15.00000000
1.66973674 1.55759966 -0.61184824 4 0 4699 2.36400000 2337914574 2337914574 -15.00000000
2.99516845 2.79303980 0.07148506 10 1 4700 4.09600000 2337914577 2337914577 1.00000000
1.99135399 1.85631800 -0.62851322 3 2 4701 2.79400000 2337914579 2337914579 -13.00000000
3.01441073 2.80901670 0.21593815 7 3 4702 4.12600000 2337914581 2337914581 3.00000000
2.41154885 2.24723244 -0.64073658 4 4 4702 3.35800000 2337914583 2337914583 -11.00000000
3.01046562 2.80435920 0.35995322 6 5 4703 4.13000000 2337914586 2337914586 5.00000000
2.97367978 2.76912260 -0.64357138 9 6 4704 4.11400000 2337914588 2337914588 -9.00000000
3.02075672 2.81197691 0.50673270 7 7 4705 4.15800000 2337914590 2337914590 7.00000000
2.99654269 2.78846049 -0.50258917 8 8 4706 4.12400000 2337914593 2337914593 -7.00000000
3.02575135 2.81465554 0.65452182 66 9 4707 4.18400000 2337914595 2337914595 9.00000000
2.98908186 2.78054428 -0.35716423 9 10 4707 4.09800000 2337914597 2337914597 -5.00000000
3.01629758 2.80487943 0.80063456 56 11 4708 4.19600000 2337914600 2337914600 11.00000000
2.99736047 2.78629422 -0.21447276 9 12 4709 4.09800000 2337914602 2337914602 -3.00000000
3.01638293 2.80299616 0.95064318 14 13 4710 4.22600000 2337914604 2337914604 13.00000000
2.99906015 2.78592348 -0.07145015 7 14 4711 4.09400000 2337914606 2337914606 -1.00000000
3.01952410 2.80395150 1.10412204 10 15 4712 4.26600000 2337914609 2337914609 15.00000000
1.67826939 1.55409443 -0.61288351 4 0 4720 2.36800000 2337914630 2337914630 -15.00000000
3.00098300 2.77796793 0.07138034 8 1 4721 4.09000000 2337914632 2337914632 1.00000000
1.98670185 1.83841836 -0.62491405 3 2 4722 2.77800000 2337914634 2337914634 -13.00000000
3.00709200 2.78167462 0.21468209 7 3 4723 4.10200000 2337914636 2337914636 3.00000000
2.41544557 2.23437905 -0.63959175 4 4 4723 3.35200000 2337914639 2337914639 -11.00000000
3.00902128 2.78248477 0.35855871 6 5 4724 4.11400000 2337914641 2337914641 5.00000000
2.96785307 2.74345517 -0.64012980 9 6 4725 4.09200000 2337914643 2337914643 -9.00000000
3.02229548 2.79280305 0.50527030 7 7 4726 4.14600000 2337914646 2337914646 7.00000000
2.99216127 2.76398897 -0.50015181 10 8 4727 4.10400000 2337914648 2337914648 -7.00000000
3.03169346 2.79952621 0.65358317 62 9 4728 4.17800000 2337914650 2337914650 9.00000000
2.99486184 2.76551509 -0.35664129 11 10 4728 4.09200000 2337914653 2337914653 -5.00000000
3.01934481 2.78714705 0.79872644 14 11 4729 4.18600000 2337914655 2337914655 11.00000000
2.98993874 2.75903606 -0.21321669 7 12 4730 4.07400000 2337914657 2337914657 -3.00000000
3.01947427 2.78531504 0.94839364 16 13 4731 4.21600000 2337914659 2337914659 13.00000000
2.99455023 2.76135659 -0.07110111 7 14 4732 4.07400000 2337914662 2337914662 -1.00000000
3.02219248 2.78684616 1.10153389 12 15 4732 4.25600000 2337914664 2337914664 15.00000000
1.68652797 1.55084205 -0.61391878 4 0 4740 2.37200000 2337914685 2337914685 -15.00000000
3.00035620 2.75800252 0.07113601 8 1 4741 4.07600000 2337914687 2337914687 1.00000000
1.99310708 1.83147228 -0.62491405 3 2 4742 2.77800000 2337914689 2337914689 -13.00000000
3.00942922 2.76440525 0.21415873 8 3 4743 4.09200000 2337914692 2337914692 3.00000000
2.41166353 2.21530890 -0.63653880 4 4 4743 3.33600000 2337914694 2337914694 -11.00000000
3.02605343 2.77870226 0.35943028 6 5 4744 4.12400000 2337914696 2337914696 5.00000000
2.98468757 2.73975778 -0.64169419 9 6 4745 4.10200000 2337914699 2337914699 -9.00000000
3.02178717 2.77284122 0.50356412 7 7 4746 4.13200000 2337914701 2337914701 7.00000000
2.98862529 2.74145079 -0.49795812 10 8 4747 4.08600000 2337914703 2337914703 -7.00000000
3.02834392 2.77691126 0.65076739 44 9 4748 4.16000000 2337914706 2337914706 9.00000000
3.00155997 2.75235105 -0.35629267 11 10 4748 4.08800000 2337914708 2337914708 -5.00000000
3.01603031 2.76465106 0.79529190 16 11 4749 4.16800000 2337914710 2337914710 11.00000000
2.98777127 2.73778796 -0.21237931 7 12 4750 4.05800000 2337914712 2337914712 -3.00000000
2.99612761 2.74448323 0.93804592 45 13 4751 4.17000000 2337914715 2337914715 13.00000000
2.99679685 2.74413443 -0.07092658 7 14 4752 4.06400000 2337914717 2337914717 -1.00000000
3.01765418 2.76323342 1.09635746 24 15 4752 4.23600000 2337914719 2337914719 15.00000000
1.68622482 1.53973484 -0.61184824 4 0 4760 2.36400000 2337914740 2337914740 -15.00000000
3.00996518 2.74751258 0.07113601 8 1 4761 4.07600000 2337914742 2337914742 1.00000000
2.00524592 1.82975805 -0.62671363 3 2 4762 2.78600000 2337914745 2337914745 -13.00000000
3.00972748 2.74633288 0.21353070 8 3 4762 4.08000000 2337914747 2337914747 3.00000000
2.41648078 2.20423102 -0.63577557 4 4 4763 3.33200000 2337914749 2337914749 -11.00000000
3.01659560 2.75067067 0.35716423 6 5 4764 4.09800000 2337914752 2337914752 5.00000000
2.97671437 2.71335387 -0.63793975 9 6 4765 4.07800000 2337914754 2337914754 -9.00000000
3.02411127 2.75559139 0.50234544 7 7 4766 4.12200000 2337914756 2337914756 7.00000000
2.98643637 2.72030759 -0.49600822 12 8 4767 4.07000000 2337914758 2337914758 -7.00000000
3.02001143 2.75089097 0.64701295 34 9 4767 4.13600000 2337914761 2337914761 9.00000000
2.99494433 2.72710133 -0.35437524 11 10 4768 4.06600000 2337914763 2337914763 -5.00000000
3.02130675 2.75014186 0.79414701 16 11 4769 4.16200000 2337914765 2337914765 11.00000000
2.99583244 2.72599769 -0.21227464 7 12 4770 4.05600000 2337914768 2337914768 -3.00000000
3.00568938 2.73400807 0.93804592 49 13 4771 4.17000000 2337914770 2337914770 13.00000000
2.99304175 2.72154927 -0.07061244 7 14 4772 4.04600000 2337914772 2337914772 -1.00000000
3.02013469 2.74618483 1.09376931 22 15 4772 4.22600000 2337914775 2337914775 15.00000000
1.69731379 1.53903008 -0.61391878 4 0 4780 2.37200000 2337914795 2337914795 -15.00000000
2.99879479 2.71818757 0.07064734 7 1 4781 4.04800000 2337914798 2337914798 1.00000000
2.02317357 1.83321536 -0.63031286 3 2 4782 2.80200000 2337914800 2337914800 -13.00000000
3.01089144 2.72723842 0.21290267 8 3 4783 4.06800000 2337914802 2337914802 3.00000000
2.42707038 2.19841838 -0.63653880 4 4 4783 3.33600000 2337914805 2337914805 -11.00000000
3.00845599 2.72407651 0.35507250 6 5 4784 4.07400000 2337914807 2337914807 5.00000000
2.97445130 2.69234157 -0.63543677 9 6 4785 4.06200000 2337914809 2337914809 -9.00000000
3.02782393 2.73969078 0.50137049 7 7 4786 4.11400000 2337914811 2337914811 7.00000000
2.99296927 2.70720315 -0.49552074 12 8 4787 4.06600000 2337914814 2337914814 -7.00000000
3.02714324 2.73715377 0.64638722 18 9 4788 4.13200000 2337914816 2337914816 9.00000000
2.98966718 2.70326781 -0.35263214 11 10 4788 4.04600000 2337914818 2337914818 -5.00000000
3.01632357 2.72641397 0.79033089 28 11 4789 4.14200000 2337914821 2337914821 11.00000000
2.99792004 2.70882869 -0.21175128 7 12 4790 4.04600000 2337914823 2337914823 -3.00000000
3.01521468 2.72349977 0.93804592 19 13 4791 4.17000000 2337914825 2337914825 13.00000000
2.99361849 2.70304418 -0.07040301 7 14 4792 4.03400000 2337914828 2337914828 -1.00000000
3.00580072 2.71309185 1.08496940 50 15 4793 4.19200000 2337914830 2337914830 15.00000000
1.69379556 1.52563572 -0.61081296 4 0 4799 2.36000000 2337914851 2337914851 -15.00000000
2.98847318 2.69083333 0.07019358 7 1 4800 4.02200000 2337914853 2337914853 1.00000000
2.01765418 1.81606650 -0.62671363 3 2 4801 2.78600000 2337914855 2337914855 -13.00000000
3.01944447 2.71776581 0.21290267 8 3 4801 4.06800000 2337914858 2337914858 3.00000000
2.43726611 2.19298434 -0.63730204 4 4 4802 3.34000000 2337914860 2337914860 -11.00000000
3.01302862 2.71008801 0.35454956 6 5 4803 4.06800000 2337914862 2337914862 5.00000000
2.97161174 2.67189717 -0.63293386 9 6 4804 4.04600000 2337914864 2337914864 -9.00000000
3.01769948 2.71238422 0.49820188 7 7 4805 4.08800000 2337914867 2337914867 7.00000000
2.99454737 2.69062972 -0.49430206 12 8 4806 4.05600000 2337914869 2337914869 -7.00000000
3.02150726 2.71390057 0.64325851 10 9 4807 4.11200000 2337914871 2337914871 9.00000000
2.98527479 2.68135667 -0.35106334 9 10 4807 4.02800000 2337914874 2337914874 -5.00000000
3.01220083 2.70459175 0.78689629 64 11 4808 4.12400000 2337914876 2337914876 11.00000000
2.99350929 2.68686533 -0.21080923 7 12 4809 4.02800000 2337914878 2337914878 -3.00000000
3.01842761 2.70828009 0.93624628 16 13 4810 4.16200000 2337914881 2337914881 13.00000000
3.00554276 2.69577265 -0.07047281 7 14 4811 4.03800000 2337914883 2337914883 -1.00000000
3.01287103 2.70234561 1.08445179 56 15 4811 4.19000000 2337914885 2337914885 15.00000000
1.70199049 1.52228975 -0.61184824 4 0 4819 2.36400000 2337914906 2337914906 -15.00000000
2.99337554 2.67638659 0.07008886 8 1 4820 4.01600000 2337914908 2337914908 1.00000000
2.01816940 1.80381787 -0.62491405 3 2 4821 2.77800000 2337914910 2337914910 -13.00000000
3.01402140 2.69389963 0.21185595 8 3 4821 4.04800000 2337914913 2337914913 3.00000000
2.45369029 2.19231153 -0.63959175 4 4 4822 3.35200000 2337914915 2337914915 -11.00000000
3.01355457 2.69159079 0.35350370 8 5 4823 4.05600000 2337914917 2337914917 5.00000000
2.97502637 2.65624547 -0.63168240 9 6 4824 4.03800000 2337914920 2337914920 -9.00000000
3.01678228 2.69258118 0.49649569 8 7 4825 4.07400000 2337914922 2337914922 7.00000000
2.98762774 2.66562295 -0.49162093 10 8 4826 4.03400000 2337914924 2337914924 -7.00000000
3.02948809 2.70202208 0.64294565 8 9 4827 4.11000000 2337914927 2337914927 9.00000000
2.98718166 2.66428876 -0.35019177 13 10 4827 4.01800000 2337914929 2337914929 -5.00000000
3.01283097 2.68622160 0.78460658 68 11 4828 4.11200000 2337914931 2337914931 11.00000000
2.98646903 2.66178203 -0.20965785 11 12 4829 4.00600000 2337914934 2337914934 -3.00000000
3.00603771 2.67828202 0.92949778 36 13 4830 4.13200000 2337914936 2337914936 13.00000000
3.00597477 2.67728496 -0.07026339 7 14 4831 4.02600000 2337914938 2337914938 -1.00000000
3.02372837 2.69309711 1.08496940 68 15 4831 4.19200000 2337914940 2337914940 15.00000000
1.71307158 1.52147090 -0.61391878 4 0 4839 2.37200000 2337914961 2337914961 -15.00000000
3.00419521 2.66724920 0.07012377 8 1 4840 4.01800000 2337914963 2337914963 1.00000000
2.03028345 1.80193651 -0.62671363 3 2 4841 2.78600000 2337914966 2337914966 -13.00000000
3.01042867 2.67090511 0.21091390 10 3 4842 4.03000000 2337914968 2337914968 3.00000000
2.45839071 2.18112731 -0.63882852 4 4 4842 3.34800000 2337914970 2337914970 -11.00000000
3.02591276 2.68369913 0.35385230 8 5 4843 4.06000000 2337914973 2337914973 5.00000000
2.97541165 2.63798165 -0.62980515 9 6 4844 4.02600000 2337914975 2337914975 -9.00000000
3.02616262 2.68203425 0.49649569 8 7 4845 4.07400000 2337914977 2337914977 7.00000000
2.98057008 2.64069748 -0.48893979 10 8 4846 4.01200000 2337914980 2337914980 -7.00000000
3.01921034 2.67493176 0.63887835 8 9 4846 4.08400000 2337914982 2337914982 9.00000000
2.99944663 2.65648746 -0.35054040 13 10 4847 4.02200000 2337914984 2337914984 -5.00000000
3.01630950 2.67048287 0.78308010 64 11 4848 4.10400000 2337914987 2337914987 11.00000000
2.98676825 2.64339876 -0.20902981 8 12 4849 3.99400000 2337914989 2337914989 -3.00000000
3.00807095 2.66131639 0.92724824 59 13 4850 4.12200000 2337914991 2337914991 13.00000000
2.99433112 2.64822888 -0.06977472 8 14 4851 3.99800000 2337914993 2337914993 -1.00000000
3.02489471 2.67431903 1.08186364 76 15 4852 4.18000000 2337914996 2337914996 15.00000000
1.71257651 1.51037061 -0.61184824 4 0 4859 2.36400000 2337915016 2337915016 -15.00000000
2.99998736 2.64484453 0.06980962 7 1 4860 4.00000000 2337915019 2337915019 1.00000000
2.04240894 1.79999232 -0.62851322 3 2 4861 2.79400000 2337915021 2337915021 -13.00000000
3.01027894 2.65298414 0.21028587 8 3 4861 4.01800000 2337915023 2337915023 3.00000000
2.44536591 2.15436339 -0.63348585 4 4 4862 3.32000000 2337915026 2337915026 -11.00000000
3.02031016 2.65995216 0.35210919 8 5 4863 4.04000000 2337915028 2337915028 5.00000000
2.98460174 2.62757945 -0.62980515 9 6 4864 4.02600000 2337915030 2337915030 -9.00000000
3.02358484 2.66096282 0.49454579 7 7 4865 4.05800000 2337915033 2337915033 7.00000000
2.98678899 2.62765503 -0.48845232 10 8 4866 4.00800000 2337915035 2337915035 -7.00000000
3.01119399 2.64819336 0.63512391 8 9 4867 4.06000000 2337915037 2337915037 9.00000000
2.99523616 2.63415933 -0.34897161 11 10 4867 4.00400000 2337915040 2337915040 -5.00000000
3.01971507 2.65475249 0.78155363 68 11 4868 4.09600000 2337915042 2337915042 11.00000000
2.99747753 2.63427544 -0.20913447 8 12 4869 3.99600000 2337915044 2337915044 -3.00000000
3.00563002 2.64051056 0.92364901 59 13 4870 4.10600000 2337915046 2337915046 13.00000000
2.99003410 2.62588477 -0.06946058 8 14 4871 3.98000000 2337915049 2337915049 -1.00000000
3.01679015 2.64844966 1.07565200 72 15 4872 4.15600000 2337915051 2337915051 15.00000000
1.71466947 1.50213718 -0.61081296 4 0 4878 2.36000000 2337915072 2337915072 -15.00000000
2.99971509 2.62697697 0.06960019 8 1 4879 3.98800000 2337915074 2337915074 1.00000000
2.04543424 1.79064238 -0.62761343 3 2 4880 2.79000000 2337915076 2337915076 -13.00000000
3.01004338 2.63509369 0.20965785 7 3 4880 4.00600000 2337915079 2337915079 3.00000000
2.46431565 2.15658569 -0.63653880 4 4 4881 3.33600000 2337915081 2337915081 -11.00000000
3.01561809 2.63811541 0.35054040 8 5 4882 4.02200000 2337915083 2337915083 5.00000000
2.98140287 2.60726476 -0.62730223 9 6 4883 4.01000000 2337915086 2337915086 -9.00000000
3.02342510 2.64308262 0.49308336 7 7 4884 4.04600000 2337915088 2337915088 7.00000000
2.98651767 2.60989833 -0.48698989 9 8 4885 3.99600000 2337915090 2337915090 -7.00000000
3.02247357 2.64132023 0.63574964 8 9 4885 4.06400000 2337915093 2337915093 9.00000000
2.99495196 2.61634755 -0.34792572 10 10 4886 3.99200000 2337915095 2337915095 -5.00000000
3.01371431 2.63181067 0.77773744 66 11 4887 4.07600000 2337915097 2337915097 11.00000000
2.99716902 2.61644006 -0.20850645 8 12 4888 3.98400000 2337915099 2337915099 -3.00000000
3.01143336 2.62796640 0.92274922 56 13 4889 4.10200000 2337915102 2337915102 13.00000000
2.99420476 2.61201143 -0.06935586 9 14 4890 3.97400000 2337915104 2337915104 -1.00000000
3.00954032 2.62446451 1.06995797 78 15 4891 4.13400000 2337915106 2337915106 15.00000000
1.72281754 1.49867857 -0.61184824 4 0 4898 2.36400000 2337915127 2337915127 -15.00000000
2.98774123 2.59811950 0.06911153 6 1 4899 3.96000000 2337915129 2337915129 1.00000000
2.05755520 1.78860545 -0.62941307 3 2 4900 2.79800000 2337915132 2337915132 -13.00000000
3.01470113 2.62063980 0.20934382 8 3 4900 4.00000000 2337915134 2337915134 3.00000000
2.47775626 2.15312147 -0.63806528 4 4 4901 3.34400000 2337915136 2337915136 -11.00000000
3.01127124 2.61581349 0.34897161 8 5 4902 4.00400000 2337915139 2337915139 5.00000000
2.97855353 2.58648038 -0.62479925 8 6 4903 3.99400000 2337915141 2337915141 -9.00000000
3.01914120 2.62080097 0.49088973 7 7 4904 4.02800000 2337915143 2337915143 7.00000000
2.99710894 2.60075855 -0.48723364 5 8 4905 3.99800000 2337915146 2337915146 -7.00000000
3.01526356 2.61651230 0.63230813 8 9 4905 4.04200000 2337915148 2337915148 9.00000000
2.98600602 2.59021068 -0.34583399 8 10 4906 3.96800000 2337915150 2337915150 -5.00000000
3.01101661 2.61098504 0.77468455 62 11 4907 4.06000000 2337915152 2337915152 11.00000000
3.00024724 2.60072923 -0.20808776 7 12 4908 3.97600000 2337915155 2337915155 -3.00000000
3.01175189 2.60978150 0.92004979 55 13 4909 4.09000000 2337915157 2337915157 13.00000000
2.99423528 2.59368801 -0.06914643 9 14 4910 3.96200000 2337915159 2337915159 -1.00000000
3.01430178 2.61014938 1.06840503 76 15 4911 4.12800000 2337915162 2337915162 15.00000000
1.73096228 1.49518132 -0.61288351 4 0 4918 2.36800000 2337915182 2337915182 -15.00000000
2.99376512 2.58506083 0.06904172 6 1 4919 3.95600000 2337915185 2337915185 1.00000000
2.05198455 1.77122557 -0.62581384 3 2 4920 2.78200000 2337915187 2337915187 -13.00000000
3.00568748 2.59443974 0.20808776 6 3 4920 3.97600000 2337915189 2337915189 3.00000000
2.47931147 2.13932920 -0.63653880 4 4 4921 3.33600000 2337915192 2337915192 -11.00000000
3.01434922 2.60008073 0.34827435 6 5 4922 3.99600000 2337915194 2337915194 5.00000000
2.98756385 2.57606745 -0.62479925 8 6 4923 3.99400000 2337915196 2337915196 -9.00000000
3.01924944 2.60246992 0.48942727 7 7 4924 4.01600000 2337915198 2337915198 7.00000000
2.97909999 2.56695676 -0.48284635 20 8 4925 3.96200000 2337915201 2337915201 -7.00000000
3.02437830 2.60597110 0.63230813 8 9 4925 4.04200000 2337915203 2337915203 9.00000000
2.97389507 2.56156778 -0.34339362 6 10 4926 3.94000000 2337915205 2337915205 -5.00000000
3.01713681 2.59789681 0.77392131 68 11 4927 4.05600000 2337915208 2337915208 11.00000000
2.96692252 2.55375838 -0.20515695 5 12 4928 3.92000000 2337915210 2337915210 -3.00000000
3.01050305 2.59035540 0.91690052 57 13 4929 4.07600000 2337915212 2337915212 13.00000000
2.98507833 2.56757236 -0.06872758 6 14 4930 3.93800000 2337915215 2337915215 -1.00000000
3.02001143 2.59761977 1.06736970 70 15 4930 4.12400000 2337915217 2337915217 15.00000000
1.74496913 1.49667633 -0.61598933 4 0 4938 2.38000000 2337915238 2337915238 -15.00000000
2.98455358 2.55897546 0.06862286 16 1 4939 3.93200000 2337915240 2337915240 1.00000000
2.06111407 1.76658845 -0.62671363 3 2 4940 2.78600000 2337915242 2337915242 -13.00000000
2.98439622 2.55793691 0.20599432 8 3 4940 3.93600000 2337915245 2337915245 3.00000000
2.49123645 2.13449383 -0.63768369 5 4 4941 3.34200000 2337915247 2337915247 -11.00000000
3.01432753 2.58176661 0.34722847 16 5 4942 3.98400000 2337915249 2337915249 5.00000000
2.97853160 2.55020642 -0.62104481 8 6 4943 3.97000000 2337915251 2337915251 -9.00000000
3.00267720 2.56997156 0.48528373 14 7 4944 3.98200000 2337915254 2337915254 7.00000000
2.96089172 2.53331256 -0.47845903 18 8 4945 3.92600000 2337915256 2337915256 -7.00000000
3.01844692 2.58255601 0.62917942 8 9 4945 4.02200000 2337915258 2337915258 9.00000000
2.99493146 2.56153131 -0.34478810 44 10 4946 3.95600000 2337915261 2337915261 -5.00000000
3.01723361 2.57969427 0.77163160 64 11 4947 4.04400000 2337915263 2337915263 11.00000000
2.97278214 2.54079103 -0.20494761 21 12 4948 3.91600000 2337915265 2337915265 -3.00000000
3.00915551 2.57097006 0.91375118 57 13 4949 4.06200000 2337915268 2337915268 13.00000000
2.97577572 2.54155254 -0.06830872 19 14 4950 3.91400000 2337915270 2337915270 -1.00000000
3.02069664 2.57900715 1.06426394 70 15 4951 4.11200000 2337915272 2337915272 15.00000000
1.73253393 1.47554505 -0.60977769 4 0 4958 2.35600000 2337915293 2337915293 -15.00000000
2.99803567 2.55243063 0.06872758 19 1 4959 3.93800000 2337915295 2337915295 1.00000000
2.07320428 1.76443505 -0.62851322 3 2 4960 2.79400000 2337915298 2337915298 -13.00000000
2.99983644 2.55215812 0.20641302 19 3 4961 3.94400000 2337915300 2337915300 3.00000000
2.48072839 2.11051893 -0.63310426 5 4 4961 3.31800000 2337915302 2337915302 -11.00000000
3.01117921 2.56090260 0.34583399 19 5 4962 3.96800000 2337915304 2337915304 5.00000000
2.98440552 2.53723478 -0.62041909 8 6 4963 3.96600000 2337915307 2337915307 -9.00000000
3.01011705 2.55818915 0.48503998 14 7 4964 3.98000000 2337915309 2337915309 7.00000000
3.01389432 2.56049323 0.62636358 8 9 4965 4.00400000 2337915314 2337915314 9.00000000
3.02322674 2.56660533 0.77086836 64 11 4967 4.04000000 2337915318 2337915318 11.00000000
3.01365328 2.55666828 0.91240150 54 13 4969 4.05600000 2337915323 2337915323 13.00000000
3.01449871 2.55648088 1.05908751 72 15 4970 4.09200000 2337915328 2337915328 15.00000000
1.74062419 1.47198331 -0.61081296 4 0 4978 2.36000000 2337915348 2337915348 -15.00000000
2.08828139 1.76473451 -0.63121265 3 2 4980 2.80600000 2337915353 2337915353 -13.00000000
2.50457764 2.11578298 -0.63730204 5 4 4981 3.34000000 2337915357 2337915357 -11.00000000
2.98116827 2.51660800 -0.61791611 8 6 4983 3.95000000 2337915362 2337915362 -9.00000000
2.97547078 2.51002002 -0.47797155 7 8 4985 3.92200000 2337915367 2337915367 -7.00000000
3.01721835 2.54433584 0.62511212 9 9 4986 3.99600000 2337915369 2337915369 9.00000000
2.96704745 2.50202823 -0.33955878 4 10 4986 3.89600000 2337915371 2337915371 -5.00000000
3.03366852 2.55730200 0.77124995 32 11 4987 4.04200000 2337915374 2337915374 11.00000000
2.97670197 2.50839210 -0.20400555 1 12 4988 3.89800000 2337915376 2337915376 -3.00000000
3.00467443 2.53106737 0.90700263 17 13 4989 4.03200000 2337915378 2337915378 13.00000000
2.96132445 2.49366689 -0.06757572 4 14 4990 3.87200000 2337915381 2337915381 -1.00000000
3.00759125 2.53172994 1.05339348 26 15 4991 4.07000000 2337915383 2337915383 15.00000000
1.74845433 1.46868825 -0.61184824 4 0 4997 2.36400000 2337915404 2337915404 -15.00000000
2.96939778 2.49338746 0.06768043 6 1 4998 3.87800000 2337915406 2337915406 1.00000000
2.08218098 1.74777675 -0.62761343 3 2 4999 2.79000000 2337915408 2337915408 -13.00000000
2.98959899 2.50857139 0.20452891 4 3 5000 3.90800000 2337915410 2337915410 3.00000000
2.51308393 2.10872769 -0.63768369 5 4 5000 3.34200000 2337915413 2337915413 -11.00000000
2.99037886 2.50833654 0.34147620 4 5 5001 3.91800000 2337915415 2337915415 5.00000000
2.97284675 2.49274683 -0.61447459 8 6 5002 3.92800000 2337915417 2337915417 -9.00000000
3.00920415 2.52233839 0.48211512 4 7 5003 3.95600000 2337915420 2337915420 7.00000000
2.99595046 2.51033878 -0.47992146 5 8 5004 3.93800000 2337915422 2337915422 -7.00000000
3.02519655 2.53484440 0.62511212 11 9 5004 3.99600000 2337915424 2337915424 9.00000000
2.97838283 2.49473405 -0.33990741 8 10 5005 3.90000000 2337915427 2337915427 -5.00000000
3.03008986 2.53714490 0.76819700 12 11 5006 4.02600000 2337915429 2337915429 11.00000000
2.98500371 2.49850726 -0.20400555 12 12 5007 3.89800000 2337915431 2337915431 -3.00000000
3.02500772 2.53109384 0.91060185 10 13 5008 4.04800000 2337915434 2337915434 13.00000000
2.98491621 2.49666286 -0.06792477 8 14 5009 3.89200000 2337915436 2337915436 -1.00000000
3.02145743 2.52722669 1.05546403 12 15 5009 4.07800000 2337915438 2337915438 15.00000000
1.76247180 1.47000027 -0.61495405 4 0 5017 2.37600000 2337915459 2337915459 -15.00000000
2.97654724 2.48172641 0.06764553 4 1 5018 3.87600000 2337915461 2337915461 1.00000000
2.07629347 1.73051655 -0.62401420 3 2 5019 2.77400000 2337915463 2337915463 -13.00000000
3.00294065 2.50195575 0.20484294 4 3 5020 3.91400000 2337915466 2337915466 3.00000000
2.52344608 2.10245609 -0.63844693 5 4 5020 3.34600000 2337915468 2337915468 -11.00000000
3.00677109 2.50425839 0.34234777 3 5 5021 3.92800000 2337915470 2337915470 5.00000000
3.00733757 2.50384116 -0.61979336 8 6 5022 3.96200000 2337915473 2337915473 -9.00000000
3.02409363 2.51689839 0.48309007 4 7 5023 3.96400000 2337915475 2337915475 7.00000000
3.00622082 2.50113535 -0.48016521 1 8 5024 3.94000000 2337915477 2337915477 -7.00000000
3.03902316 2.52752900 0.62605071 12 9 5025 4.00200000 2337915480 2337915480 9.00000000
3.01158237 2.50470662 -0.34269637 2 10 5025 3.93200000 2337915482 2337915482 -5.00000000
3.04345679 2.53031778 0.76934189 10 11 5026 4.03200000 2337915484 2337915484 11.00000000
3.03832126 2.52425504 0.91195160 9 13 5028 4.05400000 2337915489 2337915489 13.00000000
3.00745821 2.49772668 -0.06823891 1 14 5029 3.91000000 2337915491 2337915491 -1.00000000
3.04556346 2.52847552 1.06064045 8 15 5030 4.09800000 2337915493 2337915493 15.00000000
1.76759231 1.46383905 -0.61495405 4 0 5037 2.37600000 2337915514 2337915514 -15.00000000
3.01445866 2.49554992 0.06830872 1 1 5038 3.91400000 2337915516 2337915516 1.00000000
2.08532405 1.72574329 -0.62491405 3 2 5039 2.77800000 2337915519 2337915519 -13.00000000
3.01319480 2.49273157 0.20494761 1 3 5040 3.91600000 2337915521 2337915521 3.00000000
2.51412988 2.07986903 -0.63424909 5 4 5040 3.32400000 2337915523 2337915523 -11.00000000
3.04006052 2.51406312 0.34513673 1 5 5041 3.96000000 2337915526 2337915526 5.00000000
3.02976179 2.50465608 -0.62260920 8 6 5042 3.98000000 2337915528 2337915528 -9.00000000
3.04969311 2.52023697 0.48577121 4 7 5043 3.98600000 2337915530 2337915530 7.00000000
3.01799393 2.49315500 -0.48065269 22 8 5044 3.94400000 2337915533 2337915533 -7.00000000
3.05804873 2.52624393 0.62824082 8 9 5044 4.01600000 2337915535 2337915535 9.00000000
3.00955319 2.48529840 -0.34147620 8 10 5045 3.91800000 2337915537 2337915537 -5.00000000
3.06286883 2.52842760 0.77201319 8 11 5046 4.04600000 2337915539 2337915539 11.00000000
3.01161647 2.48523474 -0.20463359 7 12 5047 3.91000000 2337915542 2337915542 -3.00000000
3.05763698 2.52231455 0.91510087 7 13 5048 4.06800000 2337915544 2337915544 13.00000000
3.02541542 2.49484682 -0.06844833 14 14 5049 3.92200000 2337915546 2337915546 -1.00000000
3.06585503 2.52819467 1.06478155 8 15 5049 4.11400000 2337915549 2337915549 15.00000000
1.77567565 1.46011412 -0.61598933 4 0 5057 2.38000000 2337915569 2337915569 -15.00000000
3.04477835 2.50278950 0.06879739 19 1 5058 3.94200000 2337915572 2337915572 1.00000000
2.09434676 1.72092795 -0.62581384 3 2 5059 2.78200000 2337915574 2337915574 -13.00000000
3.04811454 2.50374961 0.20672703 17 3 5060 3.95000000 2337915576 2337915576 3.00000000
2.52289176 2.07232666 -0.63463074 5 4 5060 3.32600000 2337915579 2337915579 -11.00000000
3.06421566 2.51607966 0.34687987 16 5 5061 3.98000000 2337915581 2337915581 5.00000000
3.05070114 2.50409126 -0.62511212 8 6 5062 3.99600000 2337915583 2337915583 -9.00000000
3.06767941 2.51713133 0.48723364 6 7 5063 3.99800000 2337915586 2337915586 7.00000000
3.05123568 2.50274777 -0.48455250 7 8 5064 3.97600000 2337915588 2337915588 -7.00000000
3.06575966 2.51376605 0.62792796 8 9 5065 4.01400000 2337915590 2337915590 9.00000000
3.03977966 2.49246383 -0.34391657 27 10 5065 3.94600000 2337915592 2337915592 -5.00000000
3.08382297 2.52767730 0.77506614 8 11 5066 4.06200000 2337915595 2337915595 11.00000000
3.03572226 2.48736525 -0.20568031 17 12 5067 3.93000000 2337915597 2337915597 -3.00000000
3.07697582 2.52026987 0.91825020 7 13 5068 4.08200000 2337915599 2337915599 13.00000000
3.03255820 2.48300409 -0.06841344 17 14 5069 3.92000000 2337915602 2337915602 -1.00000000
3.07659578 2.51816440 1.06529915 8 15 5070 4.11600000 2337915604 2337915604 15.00000000
1.77153039 1.44688559 -0.61288351 4 0 5076 2.36800000 2337915625 2337915625 -15.00000000
3.06235504 2.50026703 0.06900682 6 1 5077 3.95400000 2337915627 2337915627 1.00000000
2.10910034 1.72136652 -0.62851322 3 2 5078 2.79400000 2337915629 2337915629 -13.00000000
3.05949569 2.49615312 0.20693637 9 3 5079 3.95400000 2337915632 2337915632 3.00000000
2.52518630 2.06022573 -0.63348585 5 4 5079 3.32000000 2337915634 2337915634 -11.00000000
3.05401444 2.49079347 0.34478810 6 5 5080 3.95600000 2337915636 2337915636 5.00000000
3.06664348 2.50020218 -0.62667644 9 6 5081 4.00600000 2337915639 2337915639 -9.00000000
3.09755254 2.52450228 0.49064597 7 7 5082 4.02600000 2337915641 2337915641 7.00000000
3.07029104 2.50139260 -0.48625869 7 8 5083 3.99000000 2337915643 2337915643 -7.00000000
3.09201932 2.51909471 0.63168240 8 9 5083 4.03800000 2337915645 2337915645 9.00000000
3.07274628 2.50250077 -0.34670556 6 10 5084 3.97800000 2337915648 2337915648 -5.00000000
3.10132313 2.52487397 0.77735585 8 11 5085 4.07400000 2337915650 2337915650 11.00000000
3.08577919 2.51132393 -0.20850645 7 12 5086 3.98400000 2337915652 2337915652 -3.00000000
3.09589815 2.51866102 0.92139953 8 13 5087 4.09600000 2337915655 2337915655 13.00000000
3.07335520 2.49942994 -0.06914643 6 14 5088 3.96200000 2337915657 2337915657 -1.00000000
3.09648180 2.51823783 1.06944025 8 15 5088 4.13200000 2337915659 2337915659 15.00000000
1.77056825 1.43582571 -0.61081296 4 0 5096 2.36000000 2337915680 2337915680 -15.00000000
3.07883096 2.49585843 0.06918134 8 1 5097 3.96400000 2337915682 2337915682 1.00000000
2.11206818 1.71154010 -0.62761343 3 2 5098 2.79000000 2337915685 2337915685 -13.00000000
3.10388494 2.51437354 0.20934382 7 3 5099 4.00000000 2337915687 2337915687 3.00000000
2.53693891 2.05510592 -0.63463074 5 4 5099 3.32600000 2337915689 2337915689 -11.00000000
3.09985161 2.51021028 0.34897161 6 5 5100 4.00400000 2337915692 2337915692 5.00000000
3.08456421 2.49693966 -0.62855369 11 6 5101 4.01800000 2337915694 2337915694 -9.00000000
3.11406136 2.51991796 0.49186468 7 7 5102 4.03600000 2337915696 2337915696 7.00000000
3.10215425 2.50938678 -0.48991477 8 8 5103 4.02000000 2337915698 2337915698 -7.00000000
3.12427187 2.52637601 0.63637543 8 9 5104 4.06800000 2337915701 2337915701 9.00000000
3.10005403 2.50679278 -0.34879729 9 10 5104 4.00200000 2337915703 2337915703 -5.00000000
3.10859084 2.51279879 0.77697420 8 11 5105 4.07200000 2337915705 2337915705 11.00000000
3.10074043 2.50555825 -0.20892514 7 12 5106 3.99200000 2337915708 2337915708 -3.00000000
3.12741041 2.52620697 0.92814803 8 13 5107 4.12600000 2337915710 2337915710 13.00000000
3.10851002 2.51004338 -0.06973982 6 14 5108 3.99600000 2337915712 2337915712 -1.00000000
3.12222648 2.52021909 1.07513428 8 15 5109 4.15400000 2337915715 2337915715 15.00000000
1.78183866 1.43417180 -0.61288351 4 0 5117 2.36800000 2337915735 2337915735 -15.00000000
3.10509610 2.49834633 0.06956529 6 1 5118 3.98600000 2337915738 2337915738 1.00000000
2.10921597 1.69645941 -0.62491405 3 2 5119 2.77800000 2337915740 2337915740 -13.00000000
3.12241888 2.51048923 0.20997186 7 3 5120 4.01200000 2337915742 2337915742 3.00000000
2.55822468 2.05686545 -0.63806528 5 4 5120 3.34400000 2337915745 2337915745 -11.00000000
3.12921953 2.51505804 0.35123765 6 5 5121 4.03000000 2337915747 2337915747 5.00000000
3.10755444 2.49675250 -0.63136947 9 6 5122 4.03600000 2337915749 2337915749 -9.00000000
3.14184904 2.52340412 0.49478954 7 7 5123 4.06000000 2337915751 2337915751 7.00000000
3.12061834 2.50545669 -0.49137720 10 8 5124 4.03200000 2337915754 2337915754 -7.00000000
3.14077330 2.52163839 0.63793975 8 9 5124 4.07800000 2337915756 2337915756 9.00000000
3.12475944 2.50788450 -0.35054040 9 10 5125 4.02200000 2337915758 2337915758 -5.00000000
