# .PCD v0.7 - Point Cloud Data file format
VERSION 0.7
FIELDS x y z intensity laser_id azimuth distance_m adjustedtime timestamp vertical_angle
SIZE 4 4 4 1 1 2 8 8 4 8
TYPE F F F U U U F U U F
COUNT 1 1 1 1 1 1 1 1 1 1
WIDTH 538
HEIGHT 1
VIEWPOINT 0 0 0 1 0 0 0
POINTS 538
DATA ascii
16.97859573 8.93665600 3.72955251 41 11 6224 19.54600000 2338018778 2338018778 11.00000000
8.21203518 4.32056093 -0.48630571 17 12 6225 9.29200000 2338018780 2338018780 -3.00000000
8.27889252 4.35389137 2.15953016 70 13 6226 9.60000000 2338018783 2338018783 13.00000000
8.20763206 4.31458664 -0.16185361 16 14 6227 9.27400000 2338018785 2338018785 -1.00000000
7.78966761 4.09313631 2.35784149 45 15 6228 9.11000000 2338018787 2338018787 15.00000000
2.00880289 1.05285680 -0.60770714 4 0 6234 2.34800000 2338018808 2338018808 -15.00000000
8.20656300 4.29941034 0.16171400 15 1 6235 9.26600000 2338018810 2338018810 1.00000000
2.39099431 1.25210786 -0.62311441 4 2 6236 2.77000000 2338018813 2338018813 -13.00000000
8.22991371 4.30798340 0.48682907 10 3 6237 9.30200000 2338018815 2338018815 3.00000000
2.85430050 1.49409568 -0.62623513 5 4 6237 3.28200000 2338018817 2338018817 -11.00000000
8.21942425 4.30066538 0.81159425 82 5 6238 9.31200000 2338018819 2338018819 5.00000000
3.60762835 1.88682425 -0.64482284 6 6 6239 4.12200000 2338018822 2338018822 -9.00000000
8.23479557 4.30504751 1.14094079 85 7 6240 9.36200000 2338018824 2338018824 7.00000000
4.87517643 2.54759741 -0.67539990 6 8 6241 5.54200000 2338018826 2338018826 -7.00000000
17.85235214 9.32901764 3.19032454 18 9 6241 20.39400000 2338018829 2338018829 9.00000000
16.98377419 8.86758232 3.72421002 41 11 6243 19.51800000 2338018833 2338018833 11.00000000
8.21215248 4.28591251 -0.48546833 17 12 6244 9.27600000 2338018836 2338018836 -3.00000000
8.28637409 4.32280827 2.15773058 72 13 6245 9.59200000 2338018838 2338018838 13.00000000
8.20593643 4.27902412 -0.16153948 14 14 6246 9.25600000 2338018840 2338018840 -1.00000000
7.80420113 4.06953716 2.35835910 45 15 6246 9.11200000 2338018843 2338018843 15.00000000
2.02275085 1.05118334 -0.61081296 4 0 6254 2.36000000 2338018863 2338018863 -15.00000000
8.20732403 4.26336336 0.16143475 12 1 6255 9.25000000 2338018866 2338018866 1.00000000
2.38151455 1.23657000 -0.61951518 4 2 6256 2.75400000 2338018868 2338018868 -13.00000000
8.22717381 4.27002859 0.48578236 13 3 6257 9.28200000 2338018870 2338018870 3.00000000
2.86821127 1.48864532 -0.62814319 5 4 6257 3.29200000 2338018872 2338018872 -11.00000000
8.22377491 4.26644278 0.81054842 82 5 6258 9.30000000 2338018875 2338018875 5.00000000
3.60016370 1.86694479 -0.64231992 6 6 6259 4.10600000 2338018877 2338018877 -9.00000000
8.23919868 4.27079487 1.13947833 85 7 6260 9.35000000 2338018879 2338018879 7.00000000
4.87698936 2.52691150 -0.67442495 6 8 6261 5.53400000 2338018882 2338018882 -7.00000000
17.87765503 9.25898075 3.18876004 4 9 6262 20.38400000 2338018884 2338018884 9.00000000
17.02159691 8.81185436 3.72573638 41 11 6263 19.52600000 2338018889 2338018889 11.00000000
8.20577717 4.24620581 -0.48421228 17 12 6264 9.25200000 2338018891 2338018891 -3.00000000
8.28064156 4.28311348 2.15233159 78 13 6265 9.56800000 2338018893 2338018893 13.00000000
8.21371746 4.24668026 -0.16139986 14 14 6266 9.24800000 2338018896 2338018896 -1.00000000
7.82249641 4.04267979 2.35939431 45 15 6267 9.11600000 2338018898 2338018898 15.00000000
2.02297330 1.04234648 -0.60977769 4 0 6274 2.35600000 2338018919 2338018919 -15.00000000
8.21504498 4.23102617 0.16129515 12 1 6275 9.24200000 2338018921 2338018921 1.00000000
2.39447951 1.23270929 -0.62176472 4 2 6276 2.76400000 2338018923 2338018923 -13.00000000
8.22782230 4.23397350 0.48494497 13 3 6277 9.26600000 2338018925 2338018925 3.00000000
2.86815310 1.47592938 -0.62699836 5 4 6277 3.28600000 2338018928 2338018928 -11.00000000
8.22444344 4.23041964 0.80915391 75 5 6278 9.28400000 2338018930 2338018930 5.00000000
3.61719918 1.85978603 -0.64419711 6 6 6279 4.11800000 2338018932 2338018932 -9.00000000
8.23993206 4.23474979 1.13752842 87 7 6280 9.33400000 2338018935 2338018935 7.00000000
4.88578033 2.50987220 -0.67442495 6 8 6281 5.53400000 2338018937 2338018937 -7.00000000
8.37077618 4.30014801 1.49050760 2 9 6281 9.52800000 2338018939 2338018939 9.00000000
6.69251251 3.43653178 -0.65820014 12 10 6282 7.55200000 2338018942 2338018942 -5.00000000
17.05924034 8.75597000 3.72726297 41 11 6283 19.53400000 2338018944 2338018944 11.00000000
8.20277882 4.20841932 -0.48316556 17 12 6284 9.23200000 2338018946 2338018946 -3.00000000
8.26432991 4.23817587 2.14423347 76 13 6285 9.53200000 2338018949 2338018949 13.00000000
8.21069622 4.20886135 -0.16105081 18 14 6286 9.22800000 2338018951 2338018951 -1.00000000
7.83585978 4.01671743 2.35939431 45 15 6286 9.11600000 2338018953 2338018953 15.00000000
2.02831984 1.03615749 -0.61029530 4 0 6294 2.35800000 2338018974 2338018974 -15.00000000
8.20839310 4.19141197 0.16087629 12 1 6295 9.21800000 2338018976 2338018976 1.00000000
8.18219376 4.17623377 -2.12083864 8 2 6296 9.42800000 2338018978 2338018978 -13.00000000
8.22653961 4.19705820 0.48400292 13 3 6297 9.24800000 2338018981 2338018981 3.00000000
2.86804104 1.46323204 -0.62585348 5 4 6297 3.28000000 2338018983 2338018983 -11.00000000
8.22318649 4.19353914 0.80758512 78 5 6298 9.26600000 2338018985 2338018985 5.00000000
3.63422847 1.85253096 -0.64607435 6 6 6299 4.13000000 2338018988 2338018988 -9.00000000
8.23697662 4.19694901 1.13509107 95 7 6300 9.31400000 2338018990 2338018990 7.00000000
4.88743591 2.48919868 -0.67344999 6 8 6301 5.52600000 2338018992 2338018992 -7.00000000
19.96102142 10.16187382 3.54762077 21 9 6302 22.67800000 2338018995 2338018995 9.00000000
6.68316126 3.40230274 -0.65610844 12 10 6302 7.52800000 2338018997 2338018997 -5.00000000
17.08620071 8.69458771 3.72649980 45 11 6303 19.53000000 2338018999 2338018999 11.00000000
8.20673752 4.17432737 -0.48253751 17 12 6304 9.22000000 2338019001 2338019001 -3.00000000
8.26517677 4.20223665 2.14063430 75 13 6305 9.51600000 2338019004 2338019004 13.00000000
8.20216274 4.16839743 -0.16059704 16 14 6306 9.20200000 2338019006 2338019006 -1.00000000
7.84363937 3.98447084 2.35732388 45 15 6307 9.10800000 2338019008 2338019008 15.00000000
2.01968169 1.02331364 -0.60667187 4 0 6313 2.34400000 2338019029 2338019029 -15.00000000
8.19727135 4.15151978 0.16038762 12 1 6314 9.19000000 2338019031 2338019031 1.00000000
2.41672397 1.22342348 -0.62536395 4 2 6315 2.78000000 2338019034 2338019034 -13.00000000
8.22793770 4.16344261 0.48327023 13 3 6316 9.23400000 2338019036 2338019036 3.00000000
2.87988448 1.45725882 -0.62737995 5 4 6316 3.28800000 2338019038 2338019038 -11.00000000
8.21393490 4.15455675 0.80531907 82 5 6317 9.24000000 2338019041 2338019041 5.00000000
3.63682604 1.83868670 -0.64544863 6 6 6318 4.12600000 2338019043 2338019043 -9.00000000
8.24021816 4.16423941 1.13362861 92 7 6319 9.30200000 2338019045 2338019045 7.00000000
4.90452290 2.47745275 -0.67466867 6 8 6320 5.53600000 2338019048 2338019048 -7.00000000
20.10921860 10.15789700 3.56827021 16 9 6320 22.81000000 2338019050 2338019050 9.00000000
6.66950750 3.36754966 -0.65366805 12 10 6321 7.50000000 2338019052 2338019052 -5.00000000
17.10792732 8.63434219 3.72497320 41 11 6322 19.52200000 2338019054 2338019054 11.00000000
8.21161938 4.14259195 -0.48201415 17 12 6323 9.21000000 2338019057 2338019057 -3.00000000
8.26688671 4.16866350 2.13748503 80 13 6324 9.50200000 2338019059 2338019059 13.00000000
8.20165539 4.13397455 -0.16031781 16 14 6325 9.18600000 2338019061 2338019061 -1.00000000
7.85266829 3.95807052 2.35628867 45 15 6325 9.10400000 2338019064 2338019064 15.00000000
2.03359938 1.02146018 -0.60977769 4 0 6333 2.35600000 2338019084 2338019084 -15.00000000
8.20099068 4.11749744 0.16017818 12 1 6334 9.17800000 2338019087 2338019087 1.00000000
2.41749644 1.21323192 -0.62446415 4 2 6335 2.77600000 2338019089 2338019089 -13.00000000
8.23349380 4.13021851 0.48274687 15 3 6336 9.22400000 2338019091 2338019091 3.00000000
2.89372802 1.45159876 -0.62928808 5 4 6336 3.29800000 2338019094 2338019094 -11.00000000
8.21770000 4.12050104 0.80427319 78 5 6337 9.22800000 2338019096 2338019096 5.00000000
3.62203026 1.81535935 -0.64169419 6 6 6338 4.10200000 2338019098 2338019098 -9.00000000
8.22985649 4.12300205 1.13021624 97 7 6339 9.27400000 2338019101 2338019101 7.00000000
4.91136599 2.45942903 -0.67442495 9 8 6340 5.53400000 2338019103 2338019103 -7.00000000
8.31466007 4.16185665 1.47267401 2 9 6341 9.41400000 2338019105 2338019105 9.00000000
6.71150970 3.35940886 -0.65663135 8 10 6341 7.53400000 2338019107 2338019107 -5.00000000
17.13093948 8.57105732 3.72344685 41 11 6342 19.51400000 2338019110 2338019110 11.00000000
8.20637989 4.10407591 -0.48086277 17 12 6343 9.18800000 2338019112 2338019112 -3.00000000
8.26744270 4.13281012 2.13388562 76 13 6344 9.48600000 2338019114 2338019114 13.00000000
8.21603584 4.10532045 -0.16031781 16 14 6345 9.18600000 2338019117 2338019117 -1.00000000
7.87057924 3.93098903 2.35732388 47 15 6346 9.10800000 2338019119 2338019119 15.00000000
2.03041172 1.01055670 -0.60770714 4 0 6354 2.34800000 2338019140 2338019140 -15.00000000
8.20528412 4.08206749 0.15996876 12 1 6355 9.16600000 2338019142 2338019142 1.00000000
8.19058037 4.07296896 -2.11184049 8 2 6356 9.38800000 2338019144 2338019144 -13.00000000
8.22353745 4.08756781 0.48128146 13 3 6357 9.19600000 2338019147 2338019147 3.00000000
2.89902902 1.44098294 -0.62928808 5 4 6357 3.29800000 2338019149 2338019149 -11.00000000
8.22561073 4.08680773 0.80357593 78 5 6358 9.22000000 2338019151 2338019151 5.00000000
3.63219810 1.80382895 -0.64231992 4 6 6359 4.10600000 2338019154 2338019154 -9.00000000
8.22002029 4.08045340 1.12680399 95 7 6360 9.24600000 2338019156 2338019156 7.00000000
4.91323423 2.43788195 -0.67344999 9 8 6361 5.52600000 2338019158 2338019158 -7.00000000
18.75338745 9.30518341 3.31578493 9 9 6361 21.19600000 2338019160 2338019160 9.00000000
6.77732515 3.36134529 -0.66186070 4 10 6362 7.59400000 2338019163 2338019163 -5.00000000
17.15520287 8.50472450 3.72192025 41 11 6363 19.50600000 2338019165 2338019165 11.00000000
8.20526123 4.06598949 -0.47992072 17 12 6364 9.17000000 2338019167 2338019167 -3.00000000
8.26507187 4.09383106 2.12938666 72 13 6365 9.46600000 2338019170 2338019170 13.00000000
8.21310616 4.06630659 -0.15996876 16 14 6366 9.16600000 2338019172 2338019172 -1.00000000
7.88771534 3.90520597 2.35835910 45 15 6366 9.11200000 2338019174 2338019174 15.00000000
2.04778647 1.01030099 -0.61184824 4 0 6374 2.36400000 2338019195 2338019195 -15.00000000
8.20513535 4.04632521 0.15968952 12 1 6375 9.15000000 2338019197 2338019197 1.00000000
8.19251156 4.03832245 -2.10869122 8 2 6376 9.37400000 2338019200 2338019200 -13.00000000
8.21625710 4.04824448 0.48002538 13 3 6377 9.17200000 2338019202 2338019202 3.00000000
2.89347458 1.42564833 -0.62699836 5 4 6377 3.28600000 2338019204 2338019204 -11.00000000
8.22910118 4.05278873 0.80253005 78 5 6378 9.20800000 2338019207 2338019207 5.00000000
3.65265059 1.79811883 -0.64482284 4 6 6379 4.12200000 2338019209 2338019209 -9.00000000
8.21996403 4.04472399 1.12485409 95 7 6380 9.23000000 2338019211 2338019211 7.00000000
4.91815186 2.41896462 -0.67296249 9 8 6381 5.52200000 2338019213 2338019213 -7.00000000
20.58136749 10.11836624 3.63240838 33 9 6382 23.22000000 2338019216 2338019216 9.00000000
7.54891491 3.71125412 -0.73594308 8 10 6382 8.44400000 2338019218 2338019218 -5.00000000
17.18478584 8.44478989 3.72192025 37 11 6383 19.50600000 2338019220 2338019220 11.00000000
8.19968414 4.02763700 -0.47876933 17 12 6384 9.14800000 2338019223 2338019223 -3.00000000
8.25657082 4.05379057 2.12353802 74 13 6385 9.44000000 2338019225 2338019225 13.00000000
8.20391273 4.02615976 -0.15951499 18 14 6386 9.14000000 2338019227 2338019227 -1.00000000
7.90891314 3.87967300 2.36042976 45 15 6387 9.12000000 2338019230 2338019230 15.00000000
2.03897858 0.99756175 -0.60822475 4 0 6393 2.35000000 2338019250 2338019250 -15.00000000
8.20952702 4.01470137 0.15951499 12 1 6394 9.14000000 2338019253 2338019253 1.00000000
8.19885540 4.00770950 -2.10689163 8 2 6395 9.36600000 2338019255 2338019255 -13.00000000
8.21707439 4.01483870 0.47929269 13 3 6396 9.15800000 2338019257 2338019257 3.00000000
2.89818645 1.41604543 -0.62699836 5 4 6396 3.28600000 2338019260 2338019260 -11.00000000
8.22101212 4.01498556 0.80043834 82 5 6397 9.18400000 2338019262 2338019262 5.00000000
3.65504289 1.78426313 -0.64419711 4 6 6398 4.11800000 2338019264 2338019264 -9.00000000
8.22619534 4.01396132 1.12387908 95 7 6399 9.22200000 2338019266 2338019266 7.00000000
4.93328285 2.40612292 -0.67393744 6 8 6400 5.53000000 2338019269 2338019269 -7.00000000
7.56118059 3.68620062 -0.73594308 13 10 6401 8.44400000 2338019273 2338019273 -5.00000000
8.20401764 3.99605060 -0.47824597 12 12 6403 9.13800000 2338019278 2338019278 -3.00000000
8.26120758 4.02212334 2.12128854 66 13 6404 9.43000000 2338019280 2338019280 13.00000000
8.19564247 3.98843217 -0.15909614 14 14 6405 9.11600000 2338019283 2338019283 -1.00000000
7.92106247 3.85480714 2.36042976 45 15 6405 9.12000000 2338019285 2338019285 15.00000000
2.04244828 0.99043834 -0.60822475 4 0 6413 2.35000000 2338019306 2338019306 -15.00000000
8.19469929 3.97206473 0.15895651 18 1 6414 9.10800000 2338019308 2338019308 1.00000000
8.19876480 3.97226834 -2.10329247 8 2 6415 9.35000000 2338019310 2338019310 -13.00000000
8.21665859 3.97916698 0.47845531 10 3 6416 9.14200000 2338019313 2338019313 3.00000000
2.89957786 1.40420890 -0.62623513 5 4 6416 3.28200000 2338019315 2338019315 -11.00000000
8.21345711 3.97584724 0.79834658 93 5 6417 9.16000000 2338019317 2338019317 5.00000000
3.65413618 1.76805234 -0.64294565 6 6 6418 4.11000000 2338019319 2338019319 -9.00000000
8.22586060 3.97830772 1.12192917 95 7 6419 9.20600000 2338019322 2338019322 7.00000000
4.93807745 2.38715982 -0.67344999 6 8 6420 5.52600000 2338019324 2338019324 -7.00000000
20.77784920 10.04440498 3.65524769 22 9 6420 23.36600000 2338019326 2338019326 9.00000000
7.55247450 3.64938259 -0.73385137 13 10 6421 8.42000000 2338019329 2338019329 -5.00000000
17.25070953 8.33189106 3.72382832 26 11 6422 19.51600000 2338019331 2338019331 11.00000000
8.20712471 3.96217895 -0.47761795 17 12 6423 9.12600000 2338019333 2338019333 -3.00000000
8.26817703 3.98987412 2.11948872 66 13 6424 9.42200000 2338019336 2338019336 13.00000000
8.19690704 3.95371842 -0.15885180 18 14 6425 9.10200000 2338019338 2338019338 -1.00000000
7.92751026 3.82377696 2.35835910 45 15 6425 9.11200000 2338019340 2338019340 15.00000000
2.05459905 0.98748708 -0.61081296 4 0 6433 2.36000000 2338019361 2338019361 -15.00000000
8.19950199 3.93910599 0.15878199 21 1 6434 9.09800000 2338019363 2338019363 1.00000000
8.19852734 3.93687654 -2.09969306 8 2 6435 9.33400000 2338019366 2338019366 -13.00000000
8.21969414 3.94527578 0.47782728 10 3 6436 9.13000000 2338019368 2338019368 3.00000000
2.91154146 1.39747703 -0.62776160 5 4 6436 3.29000000 2338019370 2338019370 -11.00000000
8.19495106 3.93163991 0.79520899 75 5 6437 9.12400000 2338019372 2338019372 5.00000000
3.65672326 1.75357795 -0.64231992 6 6 6438 4.10600000 2338019375 2338019375 -9.00000000
8.22537613 3.94270539 1.11997926 90 7 6439 9.19000000 2338019377 2338019377 7.00000000
4.95712137 2.37505460 -0.67491245 6 8 6440 5.53800000 2338019379 2338019379 -7.00000000
20.81987000 9.97074223 3.65618634 45 9 6441 23.37200000 2338019382 2338019382 9.00000000
7.57594872 3.62816072 -0.73489720 13 10 6441 8.43200000 2338019384 2338019384 -5.00000000
17.27791595 8.27077579 3.72344685 45 11 6442 19.51400000 2338019386 2338019386 11.00000000
8.19388103 3.92057586 -0.47604784 17 12 6443 9.09600000 2338019389 2338019389 -3.00000000
8.27502155 3.95762539 2.11768913 68 13 6444 9.41400000 2338019391 2338019391 13.00000000
8.19983292 3.91990709 -0.15864238 16 14 6445 9.09000000 2338019393 2338019393 -1.00000000
7.94778109 3.79941440 2.36042976 45 15 6445 9.12000000 2338019395 2338019395 15.00000000
2.05454516 0.97864765 -0.60977769 4 0 6453 2.35600000 2338019416 2338019416 -15.00000000
8.19334221 3.90100455 0.15839805 21 1 6454 9.07600000 2338019419 2338019419 1.00000000
8.17174816 3.88897371 -2.08934546 8 2 6455 9.28800000 2338019421 2338019421 -13.00000000
8.21718407 3.90883827 0.47688523 10 3 6456 9.11200000 2338019423 2338019423 3.00000000
2.91817474 1.38814867 -0.62814319 5 4 6456 3.29200000 2338019425 2338019425 -11.00000000
8.21402359 3.90557694 0.79573190 78 5 6457 9.13000000 2338019428 2338019428 5.00000000
3.66282225 1.74080288 -0.64231992 6 6 6458 4.10600000 2338019430 2338019430 -9.00000000
8.21936512 3.90459991 1.11729813 87 7 6459 9.16800000 2338019432 2338019432 7.00000000
4.96179533 2.35603356 -0.67442495 6 8 6460 5.53400000 2338019435 2338019435 -7.00000000
7.59576702 3.60511088 -0.73559445 13 10 6461 8.44000000 2338019439 2338019439 -5.00000000
17.30668259 8.21041489 3.72344685 41 11 6462 19.51400000 2338019442 2338019442 11.00000000
8.19127464 3.88424826 -0.47510582 17 12 6463 9.07800000 2338019444 2338019444 -3.00000000
8.26237202 3.91619635 2.11094069 74 13 6464 9.38400000 2338019446 2338019446 13.00000000
8.20623779 3.88783574 -0.15850276 16 14 6465 9.08200000 2338019448 2338019448 -1.00000000
7.96863699 3.77356601 2.36250019 47 15 6466 9.12800000 2338019451 2338019451 15.00000000
2.06843066 0.97641802 -0.61288351 4 0 6473 2.36800000 2338019472 2338019472 -15.00000000
8.20148373 3.86982059 0.15829332 18 1 6474 9.07000000 2338019474 2338019474 1.00000000
8.18174839 3.85876298 -2.08844566 8 2 6475 9.28400000 2338019476 2338019476 -13.00000000
8.21090603 3.87076283 0.47573385 13 3 6476 9.09000000 2338019478 2338019478 3.00000000
2.91589904 1.37460530 -0.62661672 5 4 6476 3.28400000 2338019481 2338019481 -11.00000000
8.22039700 3.87348390 0.79503471 78 5 6477 9.12200000 2338019483 2338019483 5.00000000
3.67245054 1.72969007 -0.64294565 6 6 6478 4.11000000 2338019485 2338019485 -9.00000000
8.22755718 3.87334847 1.11656690 90 7 6479 9.16200000 2338019488 2338019488 7.00000000
4.95561981 2.33193779 -0.67247504 9 8 6480 5.51800000 2338019490 2338019490 -7.00000000
8.31912327 3.91290879 1.45609200 2 9 6481 9.30800000 2338019492 2338019492 9.00000000
7.60830498 3.57857466 -0.73559445 13 10 6481 8.44000000 2338019495 2338019495 -5.00000000
17.33168221 8.14828205 3.72268343 41 11 6482 19.51000000 2338019497 2338019497 11.00000000
8.19393730 3.85053515 -0.47447777 17 12 6483 9.06600000 2338019499 2338019499 -3.00000000
8.26011753 3.87987494 2.10689163 75 13 6484 9.36600000 2338019501 2338019501 13.00000000
8.19441700 3.84726906 -0.15801409 16 14 6485 9.05400000 2338019504 2338019504 -1.00000000
7.98460436 3.74876237 2.36353540 45 15 6485 9.13200000 2338019506 2338019506 15.00000000
2.06132722 0.96428049 -0.60977769 4 0 6493 2.35600000 2338019527 2338019527 -15.00000000
8.20588398 3.83693361 0.15811880 15 1 6494 9.06000000 2338019529 2338019529 1.00000000
8.18457508 3.82522893 -2.08574629 8 2 6495 9.27200000 2338019531 2338019531 -13.00000000
8.20808125 3.83446980 0.47479180 13 3 6496 9.07200000 2338019534 2338019534 3.00000000
2.91178608 1.36026371 -0.62470865 5 4 6496 3.27400000 2338019536 2338019536 -11.00000000
8.21942616 3.83802199 0.79364020 78 5 6497 9.10600000 2338019538 2338019538 5.00000000
3.69457603 1.72437942 -0.64576149 6 6 6498 4.12800000 2338019541 2338019541 -9.00000000
8.22663593 3.83789134 1.11461699 92 7 6499 9.14600000 2338019543 2338019543 7.00000000
4.96552896 2.31546402 -0.67271876 9 8 6500 5.52000000 2338019545 2338019545 -7.00000000
8.35779667 3.89552903 1.46047211 2 9 6501 9.33600000 2338019548 2338019548 9.00000000
7.60630322 3.54526138 -0.73420000 13 10 6501 8.42400000 2338019550 2338019550 -5.00000000
17.36713791 8.09105015 3.72421002 45 11 6502 19.51800000 2338019552 2338019552 11.00000000
8.20008564 3.81853700 -0.47405910 17 12 6503 9.05800000 2338019554 2338019554 -3.00000000
8.25594234 3.84279466 2.10239244 80 13 6504 9.34600000 2338019557 2338019557 13.00000000
8.18966579 3.81020641 -0.15766504 16 14 6505 9.03400000 2338019559 2338019559 -1.00000000
7.99413824 3.71923804 2.36250019 45 15 6505 9.12800000 2338019561 2338019561 15.00000000
2.05908918 0.95536065 -0.60822475 4 0 6511 2.35000000 2338019582 2338019582 -15.00000000
8.19794273 3.80188084 0.15773486 12 1 6512 9.03800000 2338019584 2338019584 1.00000000
8.18064022 3.79212165 -2.08169699 10 2 6513 9.25400000 2338019587 2338019587 -13.00000000
8.21398640 3.80757904 0.47447777 10 3 6513 9.06600000 2338019589 2338019589 3.00000000
2.92495179 1.35523617 -0.62661672 5 4 6514 3.28400000 2338019591 2338019591 -11.00000000
8.19890022 3.79710960 0.79050261 78 5 6515 9.07000000 2338019594 2338019594 5.00000000
3.69638991 1.71110439 -0.64513576 4 6 6516 4.12400000 2338019596 2338019596 -9.00000000
8.23504925 3.81036067 1.11412954 92 7 6517 9.14200000 2338019598 2338019598 7.00000000
4.97638178 2.30151963 -0.67320627 9 8 6518 5.52400000 2338019600 2338019600 -7.00000000
17.76776886 8.21738911 3.10053110 4 9 6518 19.82000000 2338019603 2338019603 9.00000000
7.62102032 3.52302003 -0.73454863 13 10 6519 8.42800000 2338019605 2338019605 -5.00000000
17.37286758 8.02739143 3.72001219 45 11 6520 19.49600000 2338019607 2338019607 11.00000000
8.20116234 3.78773212 -0.47343105 17 12 6521 9.04600000 2338019610 2338019610 -3.00000000
8.26089764 3.81357169 2.10059285 82 13 6522 9.33800000 2338019612 2338019612 13.00000000
8.19433212 3.78110790 -0.15752542 16 14 6523 9.02600000 2338019614 2338019614 -1.00000000
7.99876642 3.69086790 2.36042976 45 15 6523 9.12000000 2338019617 2338019617 15.00000000
2.06592202 0.94978118 -0.60926002 4 0 6531 2.35400000 2338019637 2338019637 -15.00000000
8.18754292 3.76238680 0.15728109 12 1 6532 9.01200000 2338019640 2338019640 1.00000000
8.17257690 3.75378203 -2.07629824 8 2 6533 9.23000000 2338019642 2338019642 -13.00000000
8.22062588 3.77411461 0.47405910 13 3 6534 9.05800000 2338019644 2338019644 3.00000000
2.92966461 1.34501791 -0.62661672 5 4 6534 3.28400000 2338019647 2338019647 -11.00000000
8.20123959 3.76348114 0.78945673 78 5 6535 9.05800000 2338019649 2338019649 5.00000000
3.70234013 1.69819117 -0.64513576 4 6 6536 4.12400000 2338019651 2338019651 -9.00000000
8.23025417 3.77331877 1.11169219 92 7 6537 9.12200000 2338019653 2338019653 7.00000000
4.98618984 2.28496170 -0.67344999 9 8 6538 5.52600000 2338019656 2338019656 -7.00000000
8.30622387 3.80463982 1.44701874 2 9 6539 9.25000000 2338019658 2338019658 9.00000000
7.62602615 3.49307752 -0.73385137 13 10 6539 8.42000000 2338019660 2338019660 -5.00000000
17.39542770 7.96424818 3.71886730 41 11 6540 19.49000000 2338019663 2338019663 11.00000000
8.19254017 3.74910855 -0.47217500 17 12 6541 9.02200000 2338019665 2338019665 -3.00000000
8.25998116 3.77822781 2.09699368 76 13 6542 9.32200000 2338019667 2338019667 13.00000000
8.19475079 3.74666095 -0.15728109 16 14 6543 9.01200000 2338019670 2338019670 -1.00000000
8.02278328 3.66634393 2.36353540 47 15 6544 9.13200000 2338019672 2338019672 15.00000000
2.07449889 0.94496644 -0.61081296 4 0 6551 2.36000000 2338019693 2338019693 -15.00000000
8.18970585 3.72881222 0.15707166 12 1 6552 9.00000000 2338019695 2338019695 1.00000000
8.16611958 3.71635222 -2.07134938 8 2 6553 9.20800000 2338019697 2338019697 -13.00000000
8.21491718 3.73856020 0.47301236 13 3 6553 9.03800000 2338019700 2338019700 3.00000000
2.93970275 1.33722198 -0.62776160 5 4 6554 3.29000000 2338019702 2338019702 -11.00000000
8.21251297 3.73400593 0.78928238 78 5 6555 9.05600000 2338019704 2338019704 5.00000000
3.69026160 1.67708433 -0.64200705 6 6 6556 4.10400000 2338019706 2338019706 -9.00000000
8.21807289 3.73307276 1.10827982 95 7 6557 9.09400000 2338019709 2338019709 7.00000000
4.99775076 2.26918411 -0.67393744 6 8 6558 5.53000000 2338019711 2338019711 -7.00000000
17.77754784 8.06799507 3.09208369 4 9 6559 19.76600000 2338019713 2338019713 9.00000000
7.63817263 3.46643639 -0.73385137 13 10 6559 8.42000000 2338019716 2338019716 -5.00000000
17.41239357 7.89861202 3.71657753 45 11 6560 19.47800000 2338019718 2338019718 11.00000000
8.19830132 3.71718931 -0.47175631 17 12 6561 9.01400000 2338019720 2338019720 -3.00000000
8.24827003 3.73811030 2.09069514 72 13 6562 9.29400000 2338019723 2338019723 13.00000000
8.20413589 3.71638274 -0.15721127 16 14 6563 9.00800000 2338019725 2338019725 -1.00000000
8.04545498 3.64450216 2.36664128 47 15 6563 9.14400000 2338019727 2338019727 15.00000000
2.07778478 0.93771929 -0.61081296 4 0 6571 2.36000000 2338019748 2338019748 -15.00000000
8.19538116 3.69691300 0.15693204 12 1 6572 8.99200000 2338019750 2338019750 1.00000000
8.16660595 3.68221760 -2.06820011 8 2 6573 9.19400000 2338019752 2338019752 -13.00000000
8.20788956 3.70083165 0.47186098 13 3 6573 9.01600000 2338019755 2338019755 3.00000000
2.93361330 1.32211244 -0.62547189 5 4 6574 3.27800000 2338019757 2338019757 -11.00000000
8.21096420 3.69876981 0.78788793 78 5 6575 9.04000000 2338019759 2338019759 5.00000000
3.70329809 1.66743672 -0.64325851 6 6 6576 4.11200000 2338019762 2338019762 -9.00000000
8.21114159 3.69540215 1.10559869 99 7 6577 9.07200000 2338019764 2338019764 7.00000000
4.98753738 2.24358130 -0.67150009 9 8 6578 5.51000000 2338019766 2338019766 -7.00000000
17.76596642 7.98806953 3.08520055 12 9 6579 19.72200000 2338019769 2338019769 9.00000000
7.67384911 3.45037460 -0.73611742 13 10 6579 8.44600000 2338019771 2338019771 -5.00000000
17.45060349 7.84261227 3.71886730 41 11 6580 19.49000000 2338019773 2338019773 11.00000000
8.20576096 3.68609405 -0.47144228 17 12 6581 9.00800000 2338019776 2338019776 -3.00000000
8.24349117 3.70131350 2.08619618 72 13 6582 9.27400000 2338019778 2338019778 13.00000000
8.20246315 3.68117213 -0.15693204 14 14 6583 8.99200000 2338019780 2338019780 -1.00000000
2.07735610 0.92924631 -0.60977769 4 0 6590 2.35600000 2338019803 2338019803 -15.00000000
8.20211887 3.66726708 0.15682733 12 1 6591 8.98600000 2338019805 2338019805 1.00000000
8.17521381 3.65352559 -2.06730008 8 2 6592 9.19000000 2338019808 2338019808 -13.00000000
8.20069790 3.66319776 0.47070959 13 3 6593 8.99400000 2338019810 2338019810 3.00000000
2.94335914 1.31477916 -0.62661672 5 4 6593 3.28400000 2338019812 2338019812 -11.00000000
8.21408844 3.66745949 0.78701633 86 5 6594 9.03000000 2338019815 2338019815 5.00000000
3.71602273 1.65836716 -0.64450997 6 6 6595 4.12000000 2338019817 2338019817 -9.00000000
8.21791172 3.66572666 1.10486746 97 7 6596 9.06600000 2338019819 2338019819 7.00000000
4.99857616 2.22864628 -0.67198753 9 8 6597 5.51400000 2338019822 2338019822 -7.00000000
17.75128174 7.91451979 3.07831740 8 9 6597 19.67800000 2338019824 2338019824 9.00000000
7.67069006 3.41842008 -0.73472291 13 10 6598 8.43000000 2338019826 2338019826 -5.00000000
17.47292709 7.78310299 3.71810412 45 11 6599 19.48600000 2338019829 2338019829 11.00000000
8.20516777 3.65317583 -0.47070959 12 12 6600 8.99400000 2338019831 2338019831 -3.00000000
8.24503708 3.66920280 2.08349657 68 13 6601 9.26200000 2338019833 2338019833 13.00000000
8.19087315 3.64338636 -0.15647827 16 14 6602 8.96600000 2338019835 2338019835 -1.00000000
7.13159180 3.17071605 2.09125781 49 15 6603 8.08000000 2338019838 2338019838 15.00000000
2.07352233 0.91885865 -0.60770714 4 0 6610 2.34800000 2338019858 2338019858 -15.00000000
8.19110107 3.62808609 0.15637356 12 1 6611 8.96000000 2338019861 2338019861 1.00000000
8.18435287 3.62338877 -2.06640029 8 2 6612 9.18600000 2338019863 2338019863 -13.00000000
8.21097469 3.63517451 0.47060493 13 3 6612 8.99200000 2338019865 2338019865 3.00000000
2.94433999 1.30290794 -0.62585348 6 4 6613 3.28000000 2338019868 2338019868 -11.00000000
8.20679665 3.62989926 0.78509891 93 5 6614 9.00800000 2338019870 2338019870 5.00000000
3.70733547 1.63899589 -0.64200705 6 6 6615 4.10400000 2338019872 2338019872 -9.00000000
8.21250057 3.62899494 1.10243011 97 7 6616 9.04600000 2338019875 2338019875 7.00000000
5.01722050 2.21599650 -0.67344999 9 8 6617 5.52600000 2338019877 2338019877 -7.00000000
17.76390648 7.84222460 3.07550168 4 9 6618 19.66000000 2338019879 2338019879 9.00000000
7.68075323 3.39081883 -0.73454863 13 10 6618 8.42800000 2338019882 2338019882 -5.00000000
17.51076698 7.72681904 3.72039390 45 11 6619 19.49800000 2338019884 2338019884 11.00000000
8.20873260 3.62048244 -0.47018623 17 12 6620 8.98400000 2338019886 2338019886 -3.00000000
8.25066185 3.63725567 2.08169699 62 13 6621 9.25400000 2338019888 2338019888 13.00000000
8.18707180 3.60751581 -0.15616414 20 14 6622 8.94800000 2338019891 2338019891 -1.00000000
7.11963272 3.13568020 2.08452868 45 15 6623 8.05400000 2338019893 2338019893 15.00000000
2.06964135 0.90850908 -0.60563654 4 0 6630 2.34000000 2338019914 2338019914 -15.00000000
8.18174171 3.58983040 0.15595470 12 1 6631 8.93600000 2338019916 2338019916 1.00000000
8.17910480 3.58697128 -2.06190133 8 2 6632 9.16600000 2338019918 2338019918 -13.00000000
8.21263885 3.60167789 0.46997687 13 3 6632 8.98000000 2338019921 2338019921 3.00000000
2.95965862 1.29735148 -0.62814319 5 4 6633 3.29200000 2338019923 2338019923 -11.00000000
8.19386864 3.59003639 0.78265858 78 5 6634 8.98000000 2338019925 2338019925 5.00000000
3.70760560 1.62366760 -0.64106846 6 6 6635 4.09800000 2338019928 2338019928 -9.00000000
8.21784401 3.59712195 1.10145509 95 7 6636 9.03800000 2338019930 2338019930 7.00000000
5.02674389 2.19926548 -0.67369372 9 8 6637 5.52800000 2338019932 2338019932 -7.00000000
21.21566772 9.28212833 3.66776252 16 9 6637 23.44600000 2338019935 2338019935 9.00000000
7.67611313 3.35680294 -0.73297977 13 10 6638 8.41000000 2338019937 2338019937 -5.00000000
17.52323914 7.65935755 3.71734095 41 11 6639 19.48200000 2338019939 2338019939 11.00000000
8.19569683 3.58061218 -0.46872082 17 12 6640 8.95600000 2338019941 2338019941 -3.00000000
8.26330853 3.60843325 2.08169699 66 13 6641 9.25400000 2338019944 2338019944 13.00000000
8.19045067 3.57491589 -0.15598960 20 14 6642 8.93800000 2338019946 2338019946 -1.00000000
7.13761759 3.11389875 2.08659911 45 15 6643 8.06200000 2338019948 2338019948 15.00000000
2.07988667 0.90436041 -0.60770714 4 0 6650 2.34800000 2338019969 2338019969 -15.00000000
8.18688679 3.55806065 0.15581508 15 1 6651 8.92800000 2338019971 2338019971 1.00000000
8.17370224 3.55063462 -2.05740237 8 2 6652 9.14600000 2338019974 2338019974 -13.00000000
8.20867443 3.56582642 0.46903485 13 3 6652 8.96200000 2338019976 2338019976 3.00000000
2.95336413 1.28232098 -0.62585348 6 4 6653 3.28000000 2338019978 2338019978 -11.00000000
8.19538403 3.55665326 0.78161269 78 5 6654 8.96800000 2338019981 2338019981 5.00000000
3.72231174 1.61464620 -0.64263278 6 6 6655 4.10800000 2338019983 2338019983 -9.00000000
8.20485210 3.55735922 1.09804273 92 7 6656 9.01000000 2338019985 2338019985 7.00000000
5.02710438 2.17854810 -0.67271876 9 8 6657 5.52000000 2338019988 2338019988 -7.00000000
21.24250031 9.20565891 3.66682386 28 9 6657 23.44000000 2338019990 2338019990 9.00000000
7.69509697 3.33315539 -0.73367703 13 10 6658 8.41800000 2338019992 2338019992 -5.00000000
17.55347252 7.59970379 3.71810412 30 11 6659 19.48600000 2338019994 2338019994 11.00000000
8.18431664 3.54167032 -0.46736008 17 12 6660 8.93000000 2338019997 2338019997 -3.00000000
8.25439072 3.57028341 2.07629824 62 13 6661 9.23000000 2338019999 2338019999 13.00000000
8.19186687 3.54154277 -0.15578018 18 14 6662 8.92600000 2338020001 2338020001 -1.00000000
7.15021706 3.08973122 2.08711672 45 15 6663 8.06400000 2338020004 2338020004 15.00000000
2.08480501 0.89785892 -0.60822475 4 0 6670 2.35000000 2338020024 2338020024 -15.00000000
8.18456268 3.52313614 0.15553585 18 1 6671 8.91200000 2338020027 2338020027 1.00000000
8.17888546 3.51900077 -2.05560279 8 2 6672 9.13800000 2338020029 2338020029 -13.00000000
8.19722080 3.52688932 0.46767411 10 3 6672 8.93600000 2338020031 2338020031 3.00000000
2.95782232 1.27200401 -0.62585348 5 4 6673 3.28000000 2338020034 2338020034 -11.00000000
8.19676685 3.52330375 0.78056681 75 5 6674 8.95600000 2338020036 2338020036 5.00000000
3.71703553 1.59696448 -0.64075559 6 6 6675 4.09600000 2338020038 2338020038 -9.00000000
8.20627499 3.52399755 1.09658039 90 7 6676 8.99800000 2338020040 2338020040 7.00000000
5.02920580 2.15863800 -0.67198753 9 8 6677 5.51400000 2338020043 2338020043 -7.00000000
21.25816727 9.12444115 3.66400814 56 9 6677 23.42200000 2338020045 2338020045 9.00000000
7.71583986 3.31020188 -0.73454863 13 10 6678 8.42800000 2338020047 2338020047 -5.00000000
17.58350182 7.53993177 3.71886730 33 11 6679 19.49000000 2338020050 2338020050 11.00000000
8.19662952 3.51308012 -0.46736008 21 12 6680 8.93000000 2338020052 2338020052 -3.00000000
8.25247288 3.53530955 2.07269907 64 13 6681 9.21400000 2338020054 2338020054 13.00000000
8.19131184 3.50741649 -0.15553585 18 14 6682 8.91200000 2338020057 2338020057 -1.00000000
7.16752720 3.06904483 2.08918738 45 15 6682 8.07200000 2338020059 2338020059 15.00000000
2.09148026 0.89209199 -0.60926002 4 0 6690 2.35400000 2338020080 2338020080 -15.00000000
8.19681072 3.49454522 0.15553585 18 1 6691 8.91200000 2338020082 2338020082 1.00000000
2.47400856 1.05423355 -0.62086493 4 2 6692 2.76000000 2338020084 2338020084 -13.00000000
8.20396996 3.49590540 0.46736008 10 3 6692 8.93000000 2338020087 2338020087 3.00000000
2.95863199 1.26013291 -0.62509024 6 4 6693 3.27600000 2338020089 2338020089 -11.00000000
8.18335056 3.48374438 0.77812648 75 5 6694 8.92800000 2338020091 2338020091 5.00000000
3.74076390 1.59171414 -0.64388424 6 6 6695 4.11600000 2338020093 2338020093 -9.00000000
8.21487331 3.49377704 1.09609282 95 7 6696 8.99400000 2338020096 2338020096 7.00000000
5.04767132 2.14572930 -0.67344999 6 8 6697 5.52600000 2338020098 2338020098 -7.00000000
21.28261757 9.04708958 3.66275668 56 9 6697 23.41400000 2338020100 2338020100 9.00000000
7.70901060 3.27545714 -0.73280549 13 10 6698 8.40800000 2338020103 2338020103 -5.00000000
17.61332893 7.48004293 3.71963048 37 11 6699 19.49400000 2338020105 2338020105 11.00000000
8.19045830 3.47664309 -0.46631336 17 12 6700 8.91000000 2338020107 2338020107 -3.00000000
8.25399876 3.50191474 2.06999969 66 13 6701 9.20200000 2338020110 2338020110 13.00000000
8.17957115 3.46865296 -0.15508208 18 14 6702 8.88600000 2338020112 2338020112 -1.00000000
7.16805553 3.03823066 2.08608150 40 15 6703 8.06000000 2338020114 2338020114 15.00000000
2.08405757 0.87991178 -0.60615420 4 0 6711 2.34200000 2338020135 2338020135 -15.00000000
8.18561268 3.45437169 0.15508208 12 1 6712 8.88600000 2338020137 2338020137 1.00000000
2.48144698 1.04667342 -0.62176472 4 2 6713 2.76400000 2338020140 2338020140 -13.00000000
8.21365166 3.46282697 0.46715075 10 3 6714 8.92600000 2338020142 2338020142 3.00000000
2.95418549 1.24546707 -0.62318218 6 4 6714 3.26600000 2338020144 2338020144 -11.00000000
8.19789982 3.45450115 0.77830076 86 5 6715 8.93000000 2338020146 2338020146 5.00000000
3.73200893 1.57185876 -0.64138132 4 6 6716 4.10000000 2338020149 2338020149 -9.00000000
8.21115685 3.45671272 1.09389925 90 7 6717 8.97600000 2338020151 2338020151 7.00000000
5.05550194 2.12721419 -0.67344999 6 8 6718 5.52600000 2338020153 2338020153 -7.00000000
21.30653000 8.96519279 3.66119218 56 9 6718 23.40400000 2338020156 2338020156 9.00000000
7.72280025 3.24795246 -0.73297977 13 10 6719 8.41000000 2338020158 2338020158 -5.00000000
17.63700676 7.41391468 3.71886730 33 11 6720 19.49000000 2338020160 2338020160 11.00000000
8.19762135 3.44427943 -0.46599936 17 12 6721 8.90400000 2338020163 2338020163 -3.00000000
8.26318550 3.47012973 2.06909990 66 13 6722 9.19800000 2338020165 2338020165 13.00000000
8.19038582 3.43787622 -0.15504718 18 14 6723 8.88400000 2338020167 2338020167 -1.00000000
7.17683601 3.01244330 2.08556390 40 15 6723 8.05800000 2338020170 2338020170 15.00000000
2.08533406 0.87188655 -0.60563654 4 0 6731 2.34000000 2338020190 2338020190 -15.00000000
8.18101597 3.41883802 0.15476795 15 1 6732 8.86800000 2338020193 2338020193 1.00000000
2.48868179 1.03950739 -0.62266451 4 2 6733 2.76800000 2338020195 2338020195 -13.00000000
8.20357227 3.42490125 0.46589467 10 3 6734 8.90200000 2338020197 2338020197 3.00000000
2.96938515 1.23968565 -0.62547189 6 4 6734 3.27800000 2338020199 2338020199 -11.00000000
8.18784428 3.41665697 0.77620906 71 5 6735 8.90600000 2338020202 2338020202 5.00000000
3.73382664 1.55730128 -0.64075559 6 6 6736 4.09600000 2338020204 2338020204 -9.00000000
8.21217918 3.42344642 1.09243679 90 7 6737 8.96400000 2338020206 2338020206 7.00000000
5.07022619 2.11260819 -0.67442495 6 8 6738 5.53400000 2338020209 2338020209 -7.00000000
7.73776913 3.22250700 -0.73332840 13 10 6739 8.41400000 2338020213 2338020213 -5.00000000
17.67002869 7.35532284 3.72039390 22 11 6740 19.49800000 2338020216 2338020216 11.00000000
8.18008995 3.40336800 -0.46432459 17 12 6741 8.87200000 2338020218 2338020218 -3.00000000
8.26805019 3.43827152 2.06730008 66 13 6742 9.19000000 2338020220 2338020220 13.00000000
8.18941116 3.40389276 -0.15480284 18 14 6743 8.87000000 2338020223 2338020223 -1.00000000
7.18782902 2.98611856 2.08556390 42 15 6744 8.05800000 2338020225 2338020225 15.00000000
2.09907436 0.86903590 -0.60874242 4 0 6751 2.35200000 2338020246 2338020246 -15.00000000
8.18735695 3.38796639 0.15466322 12 1 6752 8.86200000 2338020248 2338020248 1.00000000
2.47428727 1.02336586 -0.61816549 4 2 6753 2.74800000 2338020250 2338020250 -13.00000000
8.20440292 3.39166641 0.46526664 10 3 6754 8.89000000 2338020252 2338020252 3.00000000
2.98276615 1.23306322 -0.62737995 5 4 6754 3.28800000 2338020255 2338020255 -11.00000000
8.20708656 3.39109850 0.77690631 78 5 6755 8.91400000 2338020257 2338020257 5.00000000
3.74836874 1.54802847 -0.64231992 6 6 6756 4.10600000 2338020259 2338020259 -9.00000000
8.20389557 3.38642812 1.08975565 92 7 6757 8.94200000 2338020262 2338020262 7.00000000
5.06655931 2.09035444 -0.67296249 6 8 6758 5.52200000 2338020264 2338020264 -7.00000000
21.36129379 8.81321430 3.65994072 78 9 6758 23.39600000 2338020266 2338020266 9.00000000
7.76002216 3.20003510 -0.73437428 13 10 6759 8.42600000 2338020269 2338020269 -5.00000000
16.10555077 6.63822937 3.38609648 10 11 6760 17.74600000 2338020271 2338020271 11.00000000
8.18453312 3.37175012 -0.46390593 17 12 6761 8.86400000 2338020273 2338020273 -3.00000000
8.26918983 3.40493774 2.06460071 68 13 6762 9.17800000 2338020276 2338020276 13.00000000
8.19384575 3.37224150 -0.15466322 16 14 6763 8.86200000 2338020278 2338020278 -1.00000000
7.20126438 2.96373701 2.08659911 42 15 6763 8.06200000 2338020280 2338020280 15.00000000
2.10924506 0.86463445 -0.61081296 4 0 6771 2.36000000 2338020301 2338020301 -15.00000000
8.18432999 3.35330129 0.15438399 12 1 6772 8.84600000 2338020303 2338020303 1.00000000
2.47784448 1.01472282 -0.61816549 4 2 6773 2.74800000 2338020305 2338020305 -13.00000000
8.19770813 3.35544109 0.46421993 13 3 6774 8.87000000 2338020308 2338020308 3.00000000
2.97796750 1.21892536 -0.62547189 6 4 6774 3.27800000 2338020310 2338020310 -11.00000000
8.21149731 3.35941219 0.77620906 78 5 6775 8.90600000 2338020312 2338020312 5.00000000
3.75740647 1.53643012 -0.64294565 6 6 6776 4.11000000 2338020315 2338020315 -9.00000000
8.21566677 3.35777044 1.08975565 92 7 6777 8.94200000 2338020317 2338020317 7.00000000
5.06647444 2.06965327 -0.67198753 6 8 6778 5.51400000 2338020319 2338020319 -7.00000000
21.35687637 8.71992874 3.65368342 73 9 6779 23.35600000 2338020322 2338020322 9.00000000
7.78959084 3.18045926 -0.73611742 13 10 6779 8.44600000 2338020324 2338020324 -5.00000000
17.73367119 7.23697710 3.72306514 22 11 6780 19.51200000 2338020326 2338020326 11.00000000
8.17776012 3.33561707 -0.46285918 17 12 6781 8.84400000 2338020328 2338020328 -3.00000000
8.25937080 3.36722398 2.05920196 68 13 6782 9.15400000 2338020331 2338020331 13.00000000
8.18334484 3.33456397 -0.15424436 16 14 6783 8.83800000 2338020333 2338020333 -1.00000000
7.21207905 2.93732309 2.08659911 40 15 6784 8.06200000 2338020335 2338020335 15.00000000
2.10121226 0.85364103 -0.60770714 4 0 6789 2.34800000 2338020356 2338020356 -15.00000000
8.19667721 3.32832527 0.15441889 12 1 6790 8.84800000 2338020358 2338020358 1.00000000
2.49365997 1.01206338 -0.62131482 4 2 6791 2.76200000 2338020361 2338020361 -13.00000000
8.20080566 3.32666779 0.46380123 13 3 6792 8.86200000 2338020363 2338020363 3.00000000
2.97814345 1.20808792 -0.62470865 6 4 6792 3.27400000 2338020365 2338020365 -11.00000000
8.19616127 3.32311773 0.77376866 75 5 6793 8.87800000 2338020368 2338020368 5.00000000
3.75672245 1.52239251 -0.64200705 6 6 6794 4.10400000 2338020370 2338020370 -9.00000000
8.21513557 3.32747221 1.08829319 90 7 6795 8.93000000 2338020372 2338020372 7.00000000
5.08399153 2.05819583 -0.67344999 6 8 6796 5.52600000 2338020375 2338020375 -7.00000000
21.35335922 8.64466286 3.64867735 84 9 6796 23.32400000 2338020377 2338020377 9.00000000
7.77553415 3.14625669 -0.73385137 13 10 6797 8.42000000 2338020379 2338020379 -5.00000000
17.77269936 7.18785429 3.72649980 33 11 6798 19.53000000 2338020381 2338020381 11.00000000
8.18634701 3.30916095 -0.46275452 17 12 6799 8.84200000 2338020384 2338020384 -3.00000000
8.26629448 3.33979988 2.05830216 64 13 6800 9.15000000 2338020386 2338020386 13.00000000
8.17709255 3.30209970 -0.15393023 18 14 6801 8.82000000 2338020388 2338020388 -1.00000000
7.21717978 2.91446471 2.08556390 42 15 6801 8.05800000 2338020391 2338020391 15.00000000
2.09700990 0.84341776 -0.60563654 4 0 6809 2.34000000 2338020411 2338020411 -15.00000000
8.17855835 3.28775954 0.15386042 12 1 6810 8.81600000 2338020414 2338020414 1.00000000
2.49536920 1.00262618 -0.62086493 4 2 6811 2.76000000 2338020416 2338020416 -13.00000000
8.19939423 3.29281116 0.46306854 13 3 6812 8.84800000 2338020418 2338020418 3.00000000
2.98234248 1.19768488 -0.62470865 6 4 6812 3.27400000 2338020421 2338020421 -11.00000000
8.19291878 3.28855038 0.77237421 78 5 6813 8.86200000 2338020423 2338020423 5.00000000
3.76568031 1.51074088 -0.64263278 6 6 6814 4.10800000 2338020425 2338020425 -9.00000000
8.21195984 3.29286551 1.08634329 95 7 6815 8.91400000 2338020428 2338020428 7.00000000
5.07640409 2.03452897 -0.67150009 6 8 6816 5.51000000 2338020430 2338020430 -7.00000000
21.34639168 8.55091476 3.64210725 73 9 6817 23.28200000 2338020432 2338020432 9.00000000
7.78461981 3.11835480 -0.73367703 13 10 6817 8.41800000 2338020434 2338020434 -5.00000000
17.78674507 7.12139368 3.72421002 45 11 6818 19.51800000 2338020437 2338020437 11.00000000
8.19970226 3.28130722 -0.46285918 17 12 6819 8.84400000 2338020439 2338020439 -3.00000000
8.26704597 3.30658269 2.05560279 64 13 6820 9.13800000 2338020441 2338020441 13.00000000
8.18114185 3.27056718 -0.15379061 16 14 6821 8.81200000 2338020444 2338020444 -1.00000000
7.22422552 2.88655925 2.08452868 40 15 6822 8.05400000 2338020446 2338020446 15.00000000
2.10712051 0.83895117 -0.60770714 4 0 6829 2.34800000 2338020467 2338020467 -15.00000000
8.17512131 3.25327587 0.15358117 12 1 6830 8.80000000 2338020469 2338020469 1.00000000
2.50247526 0.99535000 -0.62176472 4 2 6831 2.76400000 2338020471 2338020471 -13.00000000
8.20527077 3.26195645 0.46275452 13 3 6832 8.84200000 2338020474 2338020474 3.00000000
2.99562669 1.19089353 -0.62661672 6 4 6832 3.28400000 2338020476 2338020476 -11.00000000
8.19323826 3.25551724 0.77132833 78 5 6833 8.85000000 2338020478 2338020478 5.00000000
3.76175141 1.49394143 -0.64106846 6 6 6834 4.09800000 2338020481 2338020481 -9.00000000
8.20126343 3.25539184 1.08341849 97 7 6835 8.89000000 2338020483 2338020483 7.00000000
5.08716536 2.01826072 -0.67198753 6 8 6836 5.51400000 2338020485 2338020485 -7.00000000
21.34157944 8.46696854 3.63647556 77 9 6836 23.24600000 2338020487 2338020487 9.00000000
7.80657005 3.09556890 -0.73472291 13 10 6837 8.43000000 2338020490 2338020490 -5.00000000
17.79689407 7.05347633 3.72115707 41 11 6838 19.50200000 2338020492 2338020492 11.00000000
8.19068050 3.24457359 -0.46170780 12 12 6839 8.82200000 2338020494 2338020494 -3.00000000
8.28216171 3.27913976 2.05650258 64 13 6840 9.14200000 2338020497 2338020497 13.00000000
8.18321133 3.23831058 -0.15361609 18 14 6841 8.80200000 2338020499 2338020499 -1.00000000
7.23375797 2.86258698 2.08452868 42 15 6841 8.05400000 2338020501 2338020501 15.00000000
2.10284710 0.82875746 -0.60563654 4 0 6849 2.34000000 2338020522 2338020522 -15.00000000
8.17898560 3.22178793 0.15344156 15 1 6850 8.79200000 2338020524 2338020524 1.00000000
2.49505496 0.98232526 -0.61906528 4 2 6851 2.75200000 2338020527 2338020527 -13.00000000
8.20917225 3.23036933 0.46233582 10 3 6852 8.83400000 2338020529 2338020529 3.00000000
3.00707316 1.18330526 -0.62814319 5 4 6852 3.29200000 2338020531 2338020531 -11.00000000
8.19898987 3.22470999 0.77080542 82 5 6853 8.84400000 2338020534 2338020534 5.00000000
3.75958967 1.47791064 -0.63981694 6 6 6854 4.09000000 2338020536 2338020536 -9.00000000
8.19779682 3.22093678 1.08146858 97 7 6855 8.87400000 2338020538 2338020538 7.00000000
5.09417963 2.00049090 -0.67198753 6 8 6856 5.51400000 2338020540 2338020540 -7.00000000
21.35040283 8.38002968 3.63272119 71 9 6857 23.22200000 2338020543 2338020543 9.00000000
7.82103729 3.06975603 -0.73507154 13 10 6857 8.43400000 2338020545 2338020545 -5.00000000
17.81409645 6.98844242 3.71963048 41 11 6858 19.49400000 2338020547 2338020547 11.00000000
8.19079971 3.21158862 -0.46107978 17 12 6859 8.81000000 2338020550 2338020550 -3.00000000
8.28267097 3.24594331 2.05380321 62 13 6860 9.13000000 2338020552 2338020552 13.00000000
8.18887997 3.20753813 -0.15351136 16 14 6861 8.79600000 2338020554 2338020554 -1.00000000
7.24420118 2.83605480 2.08452868 40 15 6862 8.05400000 2338020557 2338020557 15.00000000
2.12192488 0.82773066 -0.61029530 4 0 6869 2.35800000 2338020577 2338020577 -15.00000000
8.19018173 3.19321847 0.15344156 15 1 6870 8.79200000 2338020580 2338020580 1.00000000
2.49846864 0.97360992 -0.61906528 4 2 6871 2.75200000 2338020582 2338020582 -13.00000000
8.19062138 3.19009662 0.46066108 13 3 6872 8.80200000 2338020584 2338020584 3.00000000
2.99655008 1.16710126 -0.62509024 5 4 6872 3.27600000 2338020587 2338020587 -11.00000000
8.19719982 3.19101119 0.76958519 86 5 6873 8.83000000 2338020589 2338020589 5.00000000
3.78129411 1.47122467 -0.64263278 6 6 6874 4.10800000 2338020591 2338020591 -9.00000000
8.19788933 3.18798470 1.08000612 97 7 6875 8.86200000 2338020593 2338020593 7.00000000
5.08632946 1.97694349 -0.67003763 6 8 6876 5.49800000 2338020596 2338020596 -7.00000000
21.35229874 8.29916477 3.62834096 44 9 6876 23.19400000 2338020598 2338020598 9.00000000
7.82799053 3.04099393 -0.73472291 13 10 6877 8.43000000 2338020600 2338020600 -5.00000000
17.82923126 6.92266417 3.71772242 15 11 6878 19.48400000 2338020603 2338020603 11.00000000
8.18520260 3.17647457 -0.46013772 17 12 6879 8.79200000 2338020605 2338020605 -3.00000000
8.28305054 3.21278334 2.05110383 60 13 6880 9.11800000 2338020607 2338020607 13.00000000
8.18511009 3.17315173 -0.15323213 14 14 6881 8.78000000 2338020610 2338020610 -1.00000000
7.26077080 2.81480956 2.08659911 42 15 6881 8.06200000 2338020612 2338020612 15.00000000
2.11759257 0.81753558 -0.60822475 4 0 6889 2.35000000 2338020633 2338020633 -15.00000000
8.18262196 3.15741110 0.15309250 15 1 6890 8.77200000 2338020635 2338020635 1.00000000
2.51276135 0.96909004 -0.62176472 4 2 6891 2.76400000 2338020637 2338020637 -13.00000000
8.19052505 3.15717649 0.46003306 10 3 6892 8.79000000 2338020640 2338020640 3.00000000
3.00060582 1.15663421 -0.62509024 5 4 6892 3.27600000 2338020642 2338020642 -11.00000000
8.19527435 3.15736437 0.76836503 82 5 6893 8.81600000 2338020644 2338020644 5.00000000
3.78271985 1.45659685 -0.64200705 4 6 6894 4.10400000 2338020646 2338020646 -9.00000000
8.20340919 3.15721035 1.07927489 99 7 6895 8.85600000 2338020649 2338020649 7.00000000
5.10246325 1.96274030 -0.67125636 6 8 6896 5.50800000 2338020651 2338020651 -7.00000000
7.81996107 3.00650072 -0.73297977 13 10 6897 8.41000000 2338020656 2338020656 -5.00000000
8.19810581 3.14859962 -0.46024239 17 12 6899 8.79400000 2338020660 2338020660 -3.00000000
8.30513000 3.18804073 2.05380321 57 13 6900 9.13000000 2338020663 2338020663 13.00000000
