# .PCD v0.7 - Point Cloud Data file format
VERSION 0.7
FIELDS x y z intensity laser_id azimuth distance_m adjustedtime timestamp vertical_angle
SIZE 4 4 4 1 1 2 8 8 4 8
TYPE F F F U U U F U U F
COUNT 1 1 1 1 1 1 1 1 1 1
WIDTH 516
HEIGHT 1
VIEWPOINT 0 0 0 1 0 0 0
POINTS 516
DATA ascii
-1.69458258 -1.41538405 -0.50973910 4 2 23013 2.26600000 2338365352 2338365352 -13.00000000
-49.65780640 -41.46150208 3.39032316 16 3 23014 64.78000000 2338365355 2338365355 3.00000000
-1.97118104 -1.64582634 -0.49915633 3 4 23014 2.61600000 2338365357 2338365357 -11.00000000
-29.02428246 -24.22506142 3.30756044 52 5 23015 37.95000000 2338365359 2338365359 5.00000000
-2.36767197 -1.97547197 -0.48838839 2 6 23016 3.12200000 2338365362 2338365362 -9.00000000
-17.03570747 -14.20873547 2.72377992 7 7 23017 22.35000000 2338365364 2338365364 7.00000000
-2.91364455 -2.42928052 -0.46578464 1 8 23018 3.82200000 2338365366 2338365366 -7.00000000
-13.08478737 -10.90570354 2.69786882 52 9 23019 17.24600000 2338365369 2338365369 9.00000000
-3.86603618 -3.22220325 -0.44031081 9 10 23019 5.05200000 2338365371 2338365371 -5.00000000
-11.57949543 -9.64767170 2.92968130 35 11 23020 15.35400000 2338365373 2338365373 11.00000000
-5.65377712 -4.70887804 -0.38561133 3 12 23021 7.36800000 2338365375 2338365375 -3.00000000
-9.50689316 -7.91522455 2.85597849 32 13 23022 12.69600000 2338365378 2338365378 13.00000000
-9.87985516 -8.22282505 -0.22436814 9 14 23023 12.85600000 2338365380 2338365380 -1.00000000
-8.06691551 -6.71156454 2.81181002 38 15 23024 10.86400000 2338365382 2338365382 15.00000000
-1.47808969 -1.22582686 -0.51453227 9 0 23033 1.98800000 2338365403 2338365403 -15.00000000
-1.70300567 -1.41135383 -0.51063889 4 2 23035 2.27000000 2338365408 2338365408 -13.00000000
-53.86318588 -44.62287903 3.66571498 17 3 23036 70.04200000 2338365410 2338365410 3.00000000
-1.97446239 -1.63574040 -0.49839309 3 4 23036 2.61200000 2338365412 2338365412 -11.00000000
-29.02961922 -24.04100227 3.29762459 52 5 23037 37.83600000 2338365415 2338365415 5.00000000
-2.37219667 -1.96384692 -0.48776266 2 6 23038 3.11800000 2338365417 2338365417 -9.00000000
-17.16813469 -14.20776463 2.73621058 10 7 23039 22.45200000 2338365419 2338365419 7.00000000
-2.92906904 -2.42313647 -0.46675959 1 8 23040 3.83000000 2338365422 2338365422 -7.00000000
-13.11553860 -10.85011673 2.69599152 52 9 23040 17.23400000 2338365424 2338365424 9.00000000
-3.86916780 -3.19971657 -0.43926495 9 10 23041 5.04000000 2338365426 2338365426 -5.00000000
-11.62401962 -9.60939312 2.93158937 35 11 23042 15.36400000 2338365428 2338365428 11.00000000
-5.67797470 -4.69222355 -0.38603002 3 12 23043 7.37600000 2338365431 2338365431 -3.00000000
-9.54172325 -7.88238573 2.85732818 45 13 23044 12.70200000 2338365433 2338365433 13.00000000
-9.87897587 -8.15808868 -0.22363514 6 14 23045 12.81400000 2338365435 2338365435 -1.00000000
-8.09592915 -6.68564320 2.81336308 40 15 23045 10.87000000 2338365438 2338365438 15.00000000
-1.47490299 -1.21451974 -0.51194406 7 0 23053 1.97800000 2338365458 2338365458 -15.00000000
-1.71093142 -1.40787709 -0.51153868 4 2 23055 2.27400000 2338365463 2338365463 -13.00000000
-53.85820770 -44.30263519 3.65482926 17 3 23056 69.83400000 2338365465 2338365465 3.00000000
-1.98016012 -1.62883830 -0.49839309 3 4 23056 2.61200000 2338365468 2338365468 -11.00000000
-29.01486969 -23.85853577 3.28646874 42 5 23057 37.70800000 2338365470 2338365470 5.00000000
-2.37445927 -1.95179129 -0.48682407 2 6 23058 3.11200000 2338365472 2338365472 -9.00000000
-20.03354836 -16.46159935 3.18371463 9 7 23059 26.12400000 2338365475 2338365475 7.00000000
-2.93750930 -2.41289735 -0.46675959 1 8 23060 3.83000000 2338365477 2338365477 -7.00000000
-13.14605808 -10.79445171 2.69411445 56 9 23061 17.22200000 2338365479 2338365479 9.00000000
-3.87723374 -3.18366265 -0.43891633 6 10 23061 5.03600000 2338365481 2338365481 -5.00000000
-11.64990425 -9.56253147 2.92968130 32 11 23062 15.35400000 2338365484 2338365484 11.00000000
-5.67579079 -4.65717220 -0.38477394 3 12 23063 7.35200000 2338365486 2338365486 -3.00000000
-9.56917953 -7.84903097 2.85732818 42 13 23064 12.70200000 2338365488 2338365488 13.00000000
-9.87646580 -8.09819698 -0.22293703 6 14 23065 12.77400000 2338365491 2338365491 -1.00000000
-8.10693169 -6.64490366 2.80870438 40 15 23066 10.85200000 2338365493 2338365493 15.00000000
-1.48511589 -1.21425521 -0.51401460 7 0 23073 1.98600000 2338365514 2338365514 -15.00000000
-1.71281719 -1.39943027 -0.51063889 4 2 23075 2.27000000 2338365518 2338365518 -13.00000000
-53.90578842 -44.02719116 3.64760685 17 3 23076 69.69600000 2338365521 2338365521 3.00000000
-1.98583376 -1.62191629 -0.49839309 3 4 23076 2.61200000 2338365523 2338365523 -11.00000000
-29.01926422 -23.69284630 3.27757883 42 5 23077 37.60600000 2338365525 2338365525 5.00000000
-2.37819719 -1.94099295 -0.48619831 2 6 23078 3.10800000 2338365528 2338365528 -9.00000000
-20.08934975 -16.39031410 3.18347096 18 7 23079 26.12200000 2338365530 2338365530 7.00000000
-2.97975755 -2.43023086 -0.47212183 1 8 23080 3.87400000 2338365532 2338365532 -7.00000000
-13.18178177 -10.75079823 2.69411445 48 9 23080 17.22200000 2338365534 2338365534 9.00000000
-3.89758849 -3.17766285 -0.43996218 6 10 23081 5.04800000 2338365537 2338365537 -5.00000000
-11.68016911 -9.51932621 2.92891812 32 11 23082 15.35000000 2338365539 2338365539 11.00000000
-5.69820642 -4.64237785 -0.38519263 3 12 23083 7.36000000 2338365541 2338365541 -3.00000000
-9.59954166 -7.81804180 2.85822821 40 13 23084 12.70600000 2338365544 2338365544 13.00000000
-9.87520981 -8.03968430 -0.22227384 6 14 23085 12.73600000 2338365546 2338365546 -1.00000000
-8.13491535 -6.62286186 2.81077480 40 15 23085 10.86000000 2338365548 2338365548 15.00000000
-1.48934531 -1.20906389 -0.51401460 6 0 23093 1.98600000 2338365569 2338365569 -15.00000000
-1.70558453 -1.38362134 -0.50703967 4 2 23095 2.25400000 2338365574 2338365574 -13.00000000
-45.45106888 -36.85811615 3.06678247 14 3 23096 58.59800000 2338365576 2338365576 3.00000000
-1.99758267 -1.61992097 -0.49991956 3 4 23096 2.62000000 2338365578 2338365578 -11.00000000
-29.02750015 -23.53118324 3.26921201 52 5 23097 37.51000000 2338365581 2338365581 5.00000000
-2.39109683 -1.93765438 -0.48744980 2 6 23098 3.11600000 2338365583 2338365583 -9.00000000
-20.16186523 -16.33258438 3.18590832 31 7 23099 26.14200000 2338365585 2338365585 7.00000000
-2.96045375 -2.39732814 -0.46773455 1 8 23100 3.83800000 2338365587 2338365587 -7.00000000
-13.21956158 -10.70116997 2.69380140 36 9 23101 17.22000000 2338365590 2338365590 9.00000000
-3.90555954 -3.16153121 -0.43961358 9 10 23101 5.04400000 2338365592 2338365592 -5.00000000
-11.71790504 -9.48220253 2.93006301 35 11 23102 15.35600000 2338365594 2338365594 11.00000000
-5.71282387 -4.62120295 -0.38508797 3 12 23103 7.35800000 2338365597 2338365597 -3.00000000
-9.62374210 -7.78203487 2.85732818 42 13 23104 12.70200000 2338365599 2338365599 13.00000000
-9.88144112 -7.98756552 -0.22178519 6 14 23105 12.70800000 2338365601 2338365601 -1.00000000
-8.15913486 -6.59300184 2.81077480 40 15 23106 10.86000000 2338365604 2338365604 15.00000000
-1.50258124 -1.21113181 -0.51712048 5 0 23113 1.99800000 2338365624 2338365624 -15.00000000
-1.71040392 -1.37765932 -0.50703967 4 2 23115 2.25400000 2338365629 2338365629 -13.00000000
-45.48144531 -36.62032700 3.06018806 43 3 23116 58.47200000 2338365631 2338365631 3.00000000
-2.00628352 -1.61540067 -0.50068283 3 4 23116 2.62400000 2338365634 2338365634 -11.00000000
-29.02565002 -23.36225510 3.25979900 52 5 23117 37.40200000 2338365636 2338365636 5.00000000
-2.39476776 -1.92681944 -0.48682407 2 6 23118 3.11200000 2338365638 2338365638 -9.00000000
-20.22339439 -16.26583862 3.18663955 28 7 23119 26.14800000 2338365640 2338365640 7.00000000
-2.96570969 -2.38449192 -0.46724707 1 8 23120 3.83400000 2338365643 2338365643 -7.00000000
-13.25651455 -10.65851116 2.69411445 36 9 23120 17.22200000 2338365645 2338365645 9.00000000
-3.91035986 -3.14288640 -0.43891633 9 10 23121 5.03600000 2338365647 2338365647 -5.00000000
-11.62237358 -9.33795071 2.89800692 29 11 23122 15.18800000 2338365650 2338365650 11.00000000
-5.72736263 -4.59998274 -0.38498330 3 12 23123 7.35600000 2338365652 2338365652 -3.00000000
-9.64173031 -7.74107409 2.85462880 44 13 23124 12.69000000 2338365654 2338365654 13.00000000
-9.88430977 -7.93299770 -0.22122671 4 14 23125 12.67600000 2338365657 2338365657 -1.00000000
-8.18999290 -6.57316399 2.81388068 38 15 23125 10.87200000 2338365659 2338365659 15.00000000
-1.49171662 -1.19380856 -0.51194406 5 0 23133 1.97800000 2338365680 2338365680 -15.00000000
-1.72433400 -1.37898314 -0.50973910 4 2 23135 2.26600000 2338365684 2338365684 -13.00000000
-45.46703339 -36.34785461 3.05066299 43 3 23136 58.29000000 2338365687 2338365687 3.00000000
-1.99964225 -1.59858036 -0.49762985 3 4 23136 2.60800000 2338365689 2338365689 -11.00000000
-29.01830482 -23.18989563 3.24986339 41 5 23137 37.28800000 2338365691 2338365691 5.00000000
-2.41073942 -1.92584610 -0.48870125 2 6 23138 3.12400000 2338365693 2338365693 -9.00000000
-20.27694702 -16.19267082 3.18615222 28 7 23139 26.14400000 2338365696 2338365696 7.00000000
-2.97246385 -2.37288666 -0.46700332 3 8 23140 3.83200000 2338365698 2338365698 -7.00000000
-13.26893806 -10.59245396 2.68910837 52 9 23140 17.19000000 2338365700 2338365700 9.00000000
-3.92753577 -3.13418865 -0.43961358 6 10 23141 5.04400000 2338365703 2338365703 -5.00000000
-11.79302597 -9.40751076 2.93235254 32 11 23142 15.36800000 2338365705 2338365705 11.00000000
-5.74494648 -4.58120775 -0.38508797 7 12 23143 7.35800000 2338365707 2338365707 -3.00000000
-9.67174053 -7.70980024 2.85552859 43 13 23144 12.69400000 2338365710 2338365710 13.00000000
-9.96667767 -7.94206381 -0.22244838 6 14 23145 12.74600000 2338365712 2338365712 -1.00000000
-8.20382214 -6.53731203 2.81077480 38 15 23145 10.86000000 2338365714 2338365714 15.00000000
-1.49869180 -1.19125938 -0.51297933 4 0 23152 1.98200000 2338365735 2338365735 -15.00000000
-1.73500109 -1.37810564 -0.51153868 4 2 23154 2.27400000 2338365740 2338365740 -13.00000000
-45.49502945 -36.12360382 3.04448724 14 3 23155 58.17200000 2338365742 2338365742 3.00000000
-2.01723266 -1.60170710 -0.50068283 3 4 23155 2.62400000 2338365744 2338365744 -11.00000000
-28.99985313 -23.01798248 3.23923039 51 5 23156 37.16600000 2338365746 2338365746 5.00000000
-2.40473270 -1.90801871 -0.48619831 2 6 23157 3.10800000 2338365749 2338365749 -9.00000000
-20.33053398 -16.12533951 3.18615222 28 7 23158 26.14400000 2338365751 2338365751 7.00000000
-2.97564983 -2.35931659 -0.46627212 1 8 23159 3.82600000 2338365753 2338365753 -7.00000000
-13.30583191 -10.54607201 2.68910837 44 9 23160 17.19000000 2338365756 2338365756 9.00000000
-3.93166184 -3.11619687 -0.43891633 6 10 23160 5.03600000 2338365758 2338365758 -5.00000000
-11.83185196 -9.37444878 2.93426085 32 11 23161 15.37800000 2338365760 2338365760 11.00000000
-5.76636934 -4.56709146 -0.38550666 3 12 23162 7.36600000 2338365763 2338365763 -3.00000000
-9.70336533 -7.68252373 2.85732818 42 13 23163 12.70200000 2338365765 2338365765 13.00000000
-10.35830688 -8.19812489 -0.23058119 4 14 23164 13.21200000 2338365767 2338365767 -1.00000000
-8.22091103 -6.50647449 2.80922198 28 15 23164 10.85400000 2338365769 2338365769 15.00000000
-1.50587392 -1.18841434 -0.51401460 4 0 23172 1.98600000 2338365790 2338365790 -15.00000000
-1.73674071 -1.36962759 -0.51063889 4 2 23174 2.27000000 2338365795 2338365795 -13.00000000
-2.01972771 -1.59222496 -0.49991956 3 4 23175 2.62000000 2338365799 2338365799 -11.00000000
-29.00647545 -22.85865211 3.23103762 41 5 23176 37.07200000 2338365802 2338365802 5.00000000
-2.40361977 -1.89350092 -0.48463398 2 6 23177 3.09800000 2338365804 2338365804 -9.00000000
-20.37578011 -16.04567719 3.18444586 28 7 23178 26.13000000 2338365806 2338365806 7.00000000
-3.00258446 -2.36364985 -0.46919698 1 8 23179 3.85000000 2338365809 2338365809 -7.00000000
-13.33169651 -10.49101067 2.68691826 40 9 23180 17.17600000 2338365811 2338365811 9.00000000
-3.94564700 -3.10491800 -0.43926495 6 10 23180 5.04000000 2338365813 2338365813 -5.00000000
-11.28740215 -8.87911987 2.79153562 13 11 23181 14.63000000 2338365816 2338365816 11.00000000
-5.76971626 -4.53705883 -0.38466927 3 12 23182 7.35000000 2338365818 2338365818 -3.00000000
-9.74238014 -7.65824080 2.86092758 45 13 23183 12.71800000 2338365820 2338365820 13.00000000
-9.87742329 -7.76160574 -0.21927203 4 14 23184 12.56400000 2338365822 2338365822 -1.00000000
-8.24622250 -6.47749281 2.80973959 38 15 23185 10.85600000 2338365825 2338365825 15.00000000
-1.51132703 -1.18460584 -0.51453227 5 0 23191 1.98800000 2338365846 2338365846 -15.00000000
-1.73513639 -1.35905421 -0.50883931 4 2 23193 2.26200000 2338365850 2338365850 -13.00000000
-2.02499652 -1.58551860 -0.49991956 3 4 23194 2.62000000 2338365855 2338365855 -11.00000000
-2.41766453 -1.89160609 -0.48619831 2 6 23196 3.10800000 2338365859 2338365859 -9.00000000
-20.40855026 -15.96212292 3.18127728 21 7 23197 26.10400000 2338365862 2338365862 7.00000000
-2.98225689 -2.33167148 -0.46480969 1 8 23198 3.81400000 2338365864 2338365864 -7.00000000
-11.35086727 -8.87145996 2.28175306 18 9 23199 14.58600000 2338365866 2338365866 9.00000000
-3.94964242 -3.08690906 -0.43856770 3 10 23199 5.03200000 2338365869 2338365869 -5.00000000
-11.87527561 -9.27798176 2.92929959 22 11 23200 15.35200000 2338365871 2338365871 11.00000000
-5.77843380 -4.51298332 -0.38425058 3 12 23201 7.34200000 2338365873 2338365873 -3.00000000
-9.75543404 -7.61629772 2.85732818 44 13 23202 12.70200000 2338365875 2338365875 13.00000000
-9.86842632 -7.70174170 -0.21850413 4 14 23203 12.52000000 2338365878 2338365878 -1.00000000
-8.27566910 -6.45868587 2.81284547 38 15 23203 10.86800000 2338365880 2338365880 15.00000000
-1.52764964 -1.18881464 -0.51867336 5 0 23211 2.00400000 2338365901 2338365901 -15.00000000
-37.21290970 -28.94860458 0.82295078 11 1 23212 47.15400000 2338365903 2338365903 1.00000000
-1.73679304 -1.35059667 -0.50793946 4 2 23213 2.25800000 2338365905 2338365905 -13.00000000
-37.17608643 -28.89913368 2.46774507 43 3 23214 47.15200000 2338365908 2338365908 3.00000000
-2.02121878 -1.57121086 -0.49762985 3 4 23214 2.60800000 2338365910 2338365910 -11.00000000
-28.99463272 -22.53109741 3.21256065 41 5 23215 36.86000000 2338365912 2338365912 5.00000000
-2.41801262 -1.87830806 -0.48494685 2 6 23216 3.10000000 2338365915 2338365915 -9.00000000
-20.44532967 -15.87617683 3.17835259 12 7 23217 26.08000000 2338365917 2338365917 7.00000000
-3.01076317 -2.33707118 -0.46797827 1 8 23218 3.84000000 2338365919 2338365919 -7.00000000
-15.20221806 -11.79629898 3.04765630 25 9 23219 19.48200000 2338365922 2338365922 9.00000000
-3.97298622 -3.08287477 -0.43996218 3 10 23219 5.04800000 2338365924 2338365924 -5.00000000
-11.92620468 -9.25091267 2.93387914 32 11 23220 15.37600000 2338365926 2338365926 11.00000000
-5.79888678 -4.49645710 -0.38456461 7 12 23221 7.34800000 2338365928 2338365928 -3.00000000
-9.77579880 -7.57742310 2.85552859 38 13 23222 12.69400000 2338365931 2338365931 13.00000000
-9.86679745 -7.64520121 -0.21787584 6 14 23223 12.48400000 2338365933 2338365933 -1.00000000
-8.29510975 -6.42739296 2.81181002 40 15 23223 10.86400000 2338365935 2338365935 15.00000000
-1.52129412 -1.17494166 -0.51504987 5 0 23232 1.99000000 2338365956 2338365956 -15.00000000
-37.23962021 -28.75091553 0.82120556 11 1 23233 47.05400000 2338365958 2338365958 1.00000000
-1.74173164 -1.34422195 -0.50793946 4 2 23234 2.25800000 2338365961 2338365961 -13.00000000
-37.19768143 -28.70817566 2.46251130 32 3 23234 47.05200000 2338365963 2338365963 3.00000000
-2.03007269 -1.56619060 -0.49839309 3 4 23235 2.61200000 2338365965 2338365965 -11.00000000
-28.99971199 -22.36505318 3.20401931 51 5 23236 36.76200000 2338365968 2338365968 5.00000000
-2.42800975 -1.87184525 -0.48557258 2 6 23237 3.10400000 2338365970 2338365970 -9.00000000
-20.49080276 -15.79144001 3.17640257 6 7 23238 26.06400000 2338365972 2338365972 7.00000000
-3.02559900 -2.33086634 -0.46895322 1 8 23239 3.84800000 2338365974 2338365974 -7.00000000
-15.22295952 -11.72748947 3.04358888 46 9 23239 19.45600000 2338365977 2338365977 9.00000000
-3.97952318 -3.06464553 -0.43943927 3 10 23240 5.04200000 2338365979 2338365979 -5.00000000
-11.96625328 -9.21192932 2.93540549 35 11 23241 15.38400000 2338365981 2338365981 11.00000000
-5.81532812 -4.47517252 -0.38456461 7 12 23242 7.34800000 2338365984 2338365984 -3.00000000
-9.85670757 -7.57973003 -0.21703812 6 14 23244 12.43600000 2338365988 2338365988 -1.00000000
-8.31554890 -6.39459133 2.81077480 40 15 23244 10.86000000 2338365991 2338365991 15.00000000
-1.51465476 -1.16139567 -0.51142645 5 0 23252 1.97600000 2338366011 2338366011 -15.00000000
-37.21913528 -28.52829552 0.81855279 11 1 23253 46.90200000 2338366014 2338366014 1.00000000
-1.75569439 -1.34524536 -0.51063889 4 2 23254 2.27000000 2338366016 2338366016 -13.00000000
-37.18848801 -28.48420334 2.45497513 32 3 23255 46.90800000 2338366018 2338366018 3.00000000
-2.03864455 -1.56148231 -0.49915633 3 4 23255 2.61600000 2338366021 2338366021 -11.00000000
-28.98426819 -22.19222641 3.19373512 41 5 23256 36.64400000 2338366023 2338366023 5.00000000
-2.43766618 -1.86575973 -0.48619831 2 6 23257 3.10800000 2338366025 2338366025 -9.00000000
-17.07577896 -13.06486702 2.63993382 2 7 23258 21.66200000 2338366027 2338366027 7.00000000
-3.04002380 -2.32511473 -0.46992818 1 8 23259 3.85600000 2338366030 2338366030 -7.00000000
-15.26584053 -11.67161655 3.04358888 51 9 23260 19.45600000 2338366032 2338366032 9.00000000
-3.99969339 -3.05799651 -0.44048512 3 10 23260 5.05400000 2338366034 2338366034 -5.00000000
-11.99677658 -9.16891098 2.93502402 35 11 23261 15.38200000 2338366037 2338366037 11.00000000
-5.84995890 -4.46939659 -0.38582066 3 12 23262 7.37200000 2338366039 2338366039 -3.00000000
-8.24232578 -6.29489851 2.39437914 10 13 23263 10.64400000 2338366041 2338366041 13.00000000
-9.86880112 -7.53435659 -0.21672398 9 14 23264 12.41800000 2338366044 2338366044 -1.00000000
-8.33278751 -6.35938215 2.80870438 38 15 23265 10.85200000 2338366046 2338366046 15.00000000
-1.52351332 -1.15934598 -0.51297933 5 0 23273 1.98200000 2338366067 2338366067 -15.00000000
-37.19612122 -28.29483414 0.81576037 11 1 23274 46.74200000 2338366069 2338366069 1.00000000
-1.75751078 -1.33644223 -0.50973910 4 2 23275 2.26600000 2338366071 2338366071 -13.00000000
-37.19548035 -28.28410149 2.44890404 31 3 23275 46.79200000 2338366074 2338366074 3.00000000
-2.03497624 -1.54687142 -0.49686661 3 4 23276 2.60400000 2338366076 2338366076 -11.00000000
-28.99561310 -22.03280640 3.18606544 31 5 23277 36.55600000 2338366078 2338366078 5.00000000
-2.44448805 -1.85681272 -0.48619831 2 6 23278 3.10800000 2338366080 2338366080 -9.00000000
-20.70762253 -15.72363853 3.19248939 9 7 23279 26.19600000 2338366083 2338366083 7.00000000
-3.04536319 -2.31155634 -0.46944070 1 8 23280 3.85200000 2338366085 2338366085 -7.00000000
-15.31323719 -11.61916733 3.04452753 46 9 23281 19.46200000 2338366087 2338366087 9.00000000
-4.01881075 -3.04933786 -0.44135669 6 10 23281 5.06400000 2338366090 2338366090 -5.00000000
-12.02248001 -9.11894608 2.93311596 35 11 23282 15.37200000 2338366092 2338366092 11.00000000
-5.84879446 -4.43465137 -0.38466927 3 12 23283 7.35000000 2338366094 2338366094 -3.00000000
-8.29019165 -6.28348064 2.40157747 14 13 23284 10.67600000 2338366097 2338366097 13.00000000
-9.86287785 -7.47277498 -0.21599098 20 14 23285 12.37600000 2338366099 2338366099 -1.00000000
-8.36571312 -6.33842325 2.81232786 35 15 23285 10.86600000 2338366101 2338366101 15.00000000
-1.53063381 -1.15634990 -0.51401460 5 0 23293 1.98600000 2338366122 2338366122 -15.00000000
-1.75594389 -1.32560265 -0.50793946 4 2 23295 2.25800000 2338366126 2338366126 -13.00000000
-37.37687302 -28.21666718 2.45434690 10 3 23295 46.89600000 2338366129 2338366129 3.00000000
-2.05290031 -1.54921949 -0.49991956 3 4 23296 2.62000000 2338366131 2338366131 -11.00000000
-29.00235939 -21.87866402 3.17839551 10 5 23297 36.46800000 2338366133 2338366133 5.00000000
-2.44306874 -1.84232175 -0.48463398 2 6 23298 3.09800000 2338366136 2338366136 -9.00000000
-20.71641350 -15.61660576 3.18542099 12 7 23299 26.13800000 2338366138 2338366138 7.00000000
-3.03597426 -2.28777075 -0.46675959 1 8 23300 3.83000000 2338366140 2338366140 -7.00000000
-15.36948013 -11.57752895 3.04765630 51 9 23301 19.48200000 2338366143 2338366143 9.00000000
-4.02943039 -3.03529096 -0.44135669 6 10 23301 5.06400000 2338366145 2338366145 -5.00000000
-12.06364822 -9.08401012 2.93540549 35 11 23302 15.38400000 2338366147 2338366147 11.00000000
-5.87221718 -4.42021418 -0.38519263 3 12 23303 7.36000000 2338366150 2338366150 -3.00000000
-8.34010315 -6.27559471 2.40967560 15 13 23304 10.71200000 2338366152 2338366152 13.00000000
-9.87611771 -7.42868519 -0.21571174 20 14 23305 12.36000000 2338366154 2338366154 -1.00000000
-1.54084277 -1.15563643 -0.51608515 4 0 23313 1.99400000 2338366177 2338366177 -15.00000000
-1.75900102 -1.31829655 -0.50748956 4 2 23315 2.25600000 2338366182 2338366182 -13.00000000
-37.66865540 -28.22079277 2.46669841 10 3 23316 47.13200000 2338366184 2338366184 3.00000000
-2.05515313 -1.53968978 -0.49915633 3 4 23316 2.61600000 2338366186 2338366186 -11.00000000
-22.83034897 -17.09793472 2.49544334 8 5 23317 28.63200000 2338366189 2338366189 5.00000000
-2.47320461 -1.85154033 -0.48932701 2 6 23318 3.12800000 2338366191 2338366191 -9.00000000
-20.72629738 -15.51089382 3.17859626 28 7 23319 26.08200000 2338366193 2338366193 7.00000000
-3.06937408 -2.29618526 -0.47065940 1 8 23320 3.86200000 2338366196 2338366196 -7.00000000
-15.38089848 -11.50638199 3.04233742 42 9 23320 19.44800000 2338366198 2338366198 9.00000000
-4.04478741 -3.02478695 -0.44187963 6 10 23321 5.07000000 2338366200 2338366200 -5.00000000
-12.10000134 -9.04537106 2.93655038 35 11 23322 15.39000000 2338366203 2338366203 11.00000000
-5.87481165 -4.39012480 -0.38435528 3 12 23323 7.34400000 2338366205 2338366205 -3.00000000
-8.39162159 -6.26860285 2.41822386 14 13 23324 10.75000000 2338366207 2338366207 13.00000000
-9.86994362 -7.37023640 -0.21501365 20 14 23325 12.32000000 2338366209 2338366209 -1.00000000
-7.43400145 -5.54921150 2.48569822 2 15 23326 9.60400000 2338366212 2338366212 15.00000000
-1.54331779 -1.14909708 -0.51556754 5 0 23333 1.99200000 2338366232 2338366232 -15.00000000
-1.76515543 -1.31331170 -0.50793946 4 2 23335 2.25800000 2338366237 2338366237 -13.00000000
-37.87740707 -28.18156242 2.47423458 10 3 23335 47.27600000 2338366239 2338366239 3.00000000
-2.05736446 -1.53016329 -0.49839309 3 4 23336 2.61200000 2338366242 2338366242 -11.00000000
-22.82593727 -16.97058678 2.48847079 17 5 23337 28.55200000 2338366244 2338366244 5.00000000
-2.47965264 -1.84289598 -0.48932701 2 6 23338 3.12800000 2338366246 2338366246 -9.00000000
-20.71338844 -15.38873005 3.16835928 28 7 23339 25.99800000 2338366249 2338366249 7.00000000
-3.04868460 -2.26415300 -0.46627212 1 8 23340 3.82600000 2338366251 2338366251 -7.00000000
-15.40234947 -11.43462372 3.03827024 46 9 23341 19.42200000 2338366253 2338366253 9.00000000
-4.03772449 -2.99758554 -0.43996218 6 10 23341 5.04800000 2338366256 2338366256 -5.00000000
-12.14096069 -9.01009941 2.93884015 35 11 23342 15.40200000 2338366258 2338366258 11.00000000
-5.90934896 -4.38387108 -0.38561133 3 12 23343 7.36800000 2338366260 2338366260 -3.00000000
-8.45728016 -6.27177477 2.43082118 14 13 23344 10.80600000 2338366262 2338366262 13.00000000
-9.86187553 -7.31073093 -0.21428065 9 14 23345 12.27800000 2338366265 2338366265 -1.00000000
-7.47505617 -5.53933048 2.49294496 2 15 23346 9.63200000 2338366267 2338366267 15.00000000
-1.53799832 -1.13681316 -0.51246172 5 0 23353 1.98000000 2338366288 2338366288 -15.00000000
-1.77913415 -1.31408882 -0.51063889 4 2 23355 2.27000000 2338366292 2338366292 -13.00000000
-38.16833115 -28.19156837 2.48679519 10 3 23355 47.51600000 2338366295 2338366295 3.00000000
-2.06269312 -1.52297246 -0.49839309 3 4 23356 2.61200000 2338366297 2338366297 -11.00000000
-28.66560745 -21.15728569 3.11703801 20 5 23357 35.76400000 2338366299 2338366299 5.00000000
-2.47335410 -1.82484686 -0.48682407 2 6 23358 3.11200000 2338366302 2338366302 -9.00000000
-20.72384453 -15.28452015 3.16177821 34 7 23359 25.94400000 2338366304 2338366304 7.00000000
-3.07574272 -2.26763320 -0.46919698 1 8 23360 3.85000000 2338366306 2338366306 -7.00000000
-15.43064404 -11.37645149 3.03639293 46 9 23360 19.41000000 2338366309 2338366309 9.00000000
-4.05137110 -2.98583698 -0.44031081 9 10 23361 5.05200000 2338366311 2338366311 -5.00000000
-12.16127396 -8.95951366 2.93616891 35 11 23362 15.38800000 2338366313 2338366313 11.00000000
-5.91818237 -4.35847902 -0.38519263 3 12 23363 7.36000000 2338366315 2338366315 -3.00000000
-8.53561783 -6.28380680 2.44701767 8 13 23364 10.87800000 2338366318 2338366318 13.00000000
-9.86800766 -7.26203871 -0.21386179 6 14 23365 12.25400000 2338366320 2338366320 -1.00000000
-8.44047642 -6.20922327 2.80766892 35 15 23366 10.84800000 2338366322 2338366322 15.00000000
-1.54195714 -1.13143766 -0.51246172 5 0 23373 1.98000000 2338366343 2338366343 -15.00000000
-1.77742410 -1.30326128 -0.50883931 4 2 23375 2.26200000 2338366348 2338366348 -13.00000000
-59.44693375 -43.58829498 3.86323094 18 3 23375 73.81600000 2338366350 2338366350 3.00000000
-2.07433057 -1.52040553 -0.49991956 3 4 23376 2.62000000 2338366352 2338366352 -11.00000000
-28.59142685 -20.94875908 3.10100126 30 5 23377 35.58000000 2338366355 2338366355 5.00000000
-2.47652149 -1.81386769 -0.48619831 2 6 23378 3.10800000 2338366357 2338366357 -9.00000000
-20.71620750 -15.16752529 3.15251613 40 7 23379 25.86800000 2338366359 2338366359 7.00000000
-3.07723212 -2.25219345 -0.46822202 1 8 23380 3.84200000 2338366362 2338366362 -7.00000000
-15.45591450 -11.31201935 3.03357720 42 9 23380 19.39200000 2338366364 2338366364 9.00000000
-4.05212116 -2.96461821 -0.43926495 9 10 23381 5.04000000 2338366366 2338366366 -5.00000000
-12.19247437 -8.91700840 2.93616891 35 11 23382 15.38800000 2338366368 2338366368 11.00000000
-5.93980980 -4.34250927 -0.38561133 3 12 23383 7.36800000 2338366371 2338366371 -3.00000000
-10.00341702 -7.31067514 2.86047769 41 13 23384 12.71600000 2338366373 2338366373 13.00000000
-9.87069035 -7.21103430 -0.21337312 9 14 23385 12.22600000 2338366375 2338366375 -1.00000000
-8.46677971 -6.18314075 2.80922198 38 15 23386 10.85400000 2338366378 2338366378 15.00000000
-1.55526626 -1.13287282 -0.51556754 4 0 23393 1.99200000 2338366398 2338366398 -15.00000000
-28.93796539 -21.07099724 0.62483108 8 1 23394 35.80200000 2338366401 2338366401 1.00000000
-1.78196251 -1.29704905 -0.50883931 4 2 23395 2.26200000 2338366403 2338366403 -13.00000000
-28.92091560 -21.05085945 1.87467396 36 3 23395 35.82000000 2338366405 2338366405 3.00000000
-2.08280015 -1.51546562 -0.50068283 3 4 23396 2.62400000 2338366408 2338366408 -11.00000000
-28.67726707 -20.85820389 3.10239577 30 5 23397 35.59600000 2338366410 2338366410 5.00000000
-2.47484946 -1.79940367 -0.48463398 2 6 23398 3.09800000 2338366412 2338366412 -9.00000000
-20.71121788 -15.05310440 3.14374161 34 7 23399 25.79600000 2338366414 2338366414 7.00000000
-3.08828688 -2.24377179 -0.46870950 1 8 23400 3.84600000 2338366417 2338366417 -7.00000000
-15.47612953 -11.24406624 3.02982283 42 9 23400 19.36800000 2338366419 2338366419 9.00000000
-4.07534122 -2.95982218 -0.44065943 9 10 23401 5.05600000 2338366421 2338366421 -5.00000000
-12.21875954 -8.87093353 2.93502402 35 11 23402 15.38200000 2338366424 2338366424 11.00000000
-5.95493174 -4.32174921 -0.38561133 3 12 23403 7.36800000 2338366426 2338366426 -3.00000000
-10.02098846 -7.26999044 2.85822821 42 13 23404 12.70600000 2338366428 2338366428 13.00000000
-9.87475681 -7.16127348 -0.21291935 9 14 23405 12.20000000 2338366431 2338366431 -1.00000000
-8.49192905 -6.15843248 2.81077480 38 15 23405 10.86000000 2338366433 2338366433 15.00000000
-1.56234229 -1.12970090 -0.51660281 4 0 23413 1.99600000 2338366454 2338366454 -15.00000000
-28.95137596 -20.92651367 0.62353957 8 1 23414 35.72800000 2338366456 2338366456 1.00000000
-1.78332007 -1.28853822 -0.50793946 4 2 23415 2.25800000 2338366458 2338366458 -13.00000000
-28.92298889 -20.89830971 1.87006843 58 3 23415 35.73200000 2338366461 2338366461 3.00000000
-2.08171129 -1.50358796 -0.49915633 3 4 23416 2.61600000 2338366463 2338366463 -11.00000000
-28.83389854 -20.81862259 3.11145997 30 5 23417 35.70000000 2338366465 2338366465 5.00000000
-2.50033665 -1.80462670 -0.48838839 1 6 23418 3.12200000 2338366467 2338366467 -9.00000000
-20.71051216 -14.94238853 3.13569832 34 7 23419 25.73000000 2338366470 2338366470 7.00000000
-3.07194972 -2.21555996 -0.46505341 1 8 23420 3.81600000 2338366472 2338366472 -7.00000000
-15.51208019 -11.18766499 3.02919698 42 9 23420 19.36400000 2338366474 2338366474 9.00000000
-4.07595110 -2.93858743 -0.43961358 9 10 23421 5.04400000 2338366477 2338366477 -5.00000000
-12.26079941 -8.83626366 2.93769526 35 11 23422 15.39600000 2338366479 2338366479 11.00000000
-5.96998119 -4.30093622 -0.38561133 3 12 23423 7.36800000 2338366481 2338366481 -3.00000000
-10.03365326 -7.22585583 2.85462880 42 13 23424 12.69000000 2338366484 2338366484 13.00000000
-9.87535095 -7.10923529 -0.21239579 9 14 23425 12.17000000 2338366486 2338366486 -1.00000000
-8.51444340 -6.12726641 2.81077480 38 15 23426 10.86000000 2338366488 2338366488 15.00000000
-1.55823374 -1.11888003 -0.51401460 4 0 23432 1.98600000 2338366509 2338366509 -15.00000000
-28.94913292 -20.77908707 0.62200379 8 1 23433 35.64000000 2338366511 2338366511 1.00000000
-1.79708326 -1.28943384 -0.51063889 4 2 23434 2.27000000 2338366514 2338366514 -13.00000000
-28.93246651 -20.75182533 1.86598623 29 3 23435 35.65400000 2338366516 2338366516 3.00000000
-2.08030462 -1.49209952 -0.49762985 3 4 23435 2.60800000 2338366518 2338366518 -11.00000000
-28.82667542 -20.66832733 3.10326743 10 5 23436 35.60600000 2338366520 2338366520 5.00000000
-2.51112390 -1.79977763 -0.48932701 2 6 23437 3.12800000 2338366523 2338366523 -9.00000000
-20.70992470 -14.83778763 3.12814236 43 7 23438 25.66800000 2338366525 2338366525 7.00000000
-3.08412147 -2.20882845 -0.46578464 1 8 23439 3.82200000 2338366527 2338366527 -7.00000000
-15.52661037 -11.12006092 3.02481675 46 9 23439 19.33600000 2338366530 2338366530 9.00000000
-4.09053373 -2.92853451 -0.44013649 9 10 23440 5.05000000 2338366532 2338366532 -5.00000000
-12.29482365 -8.79898453 2.93884015 35 11 23441 15.40200000 2338366534 2338366534 11.00000000
-5.98745966 -4.28343964 -0.38582066 3 12 23442 7.37200000 2338366537 2338366537 -3.00000000
-8.79422283 -6.28908300 2.49605680 15 13 23443 11.09600000 2338366539 2338366539 13.00000000
-9.86470985 -7.05202675 -0.21166278 6 14 23444 12.12800000 2338366541 2338366541 -1.00000000
-7.57656193 -5.41628885 2.49553323 22 15 23444 9.64200000 2338366544 2338366544 15.00000000
-1.55111790 -1.10558498 -0.51039118 4 0 23452 1.97200000 2338366564 2338366564 -15.00000000
-28.93191719 -20.61408806 0.62008399 8 1 23453 35.53000000 2338366567 2338366567 1.00000000
-1.80474782 -1.28541410 -0.51153868 4 2 23454 2.27400000 2338366569 2338366569 -13.00000000
-28.92337608 -20.59278488 1.86075258 35 3 23455 35.55400000 2338366571 2338366571 3.00000000
-2.08869910 -1.48710608 -0.49839309 3 4 23455 2.61200000 2338366573 2338366573 -11.00000000
-28.58535957 -20.34460640 3.06962538 10 5 23456 35.22000000 2338366576 2338366576 5.00000000
-2.51256227 -1.78756583 -0.48838839 2 6 23457 3.12200000 2338366578 2338366578 -9.00000000
-20.70982552 -14.72859001 3.12034273 40 7 23458 25.60400000 2338366580 2338366580 7.00000000
-3.10152030 -2.20495057 -0.46724707 1 8 23459 3.83400000 2338366583 2338366583 -7.00000000
-15.56726360 -11.06307793 3.02481675 46 9 23460 19.33600000 2338366585 2338366585 9.00000000
-4.08124256 -2.90038824 -0.43804476 9 10 23460 5.02600000 2338366587 2338366587 -5.00000000
-12.32066154 -8.75260258 2.93769526 35 11 23461 15.39600000 2338366590 2338366590 11.00000000
-5.98934746 -4.25326204 -0.38498330 3 12 23462 7.35600000 2338366592 2338366592 -3.00000000
-10.10008526 -7.16980076 2.85957789 30 13 23463 12.71200000 2338366594 2338366594 13.00000000
-9.94634438 -7.05805349 -0.21288446 6 14 23464 12.19800000 2338366597 2338366597 -1.00000000
-7.58218145 -5.37842369 2.49087453 38 15 23465 9.62400000 2338366599 2338366599 15.00000000
-1.56600702 -1.10797429 -0.51401460 4 0 23472 1.98600000 2338366620 2338366620 -15.00000000
-28.93185997 -20.46216393 0.61854821 7 1 23473 35.44200000 2338366622 2338366622 1.00000000
-1.80126762 -1.27348161 -0.50928921 4 2 23474 2.26400000 2338366624 2338366624 -13.00000000
-28.92494774 -20.44213104 1.85625172 42 3 23475 35.46800000 2338366626 2338366626 3.00000000
-2.10029030 -1.48433852 -0.49991956 3 4 23475 2.62000000 2338366629 2338366629 -11.00000000
-28.75383759 -20.31367874 3.08008385 10 5 23476 35.34000000 2338366631 2338366631 5.00000000
-2.50265098 -1.76738930 -0.48525971 1 6 23477 3.10200000 2338366633 2338366633 -9.00000000
-20.70759583 -14.61843014 3.11229920 37 7 23478 25.53800000 2338366636 2338366636 7.00000000
-3.11568594 -2.19868898 -0.46822202 1 8 23479 3.84200000 2338366638 2338366638 -7.00000000
-15.60063648 -11.00911617 3.02419114 42 9 23479 19.33200000 2338366640 2338366640 9.00000000
-4.10599470 -2.89646053 -0.43961358 9 10 23480 5.04400000 2338366643 2338366643 -5.00000000
-12.35755730 -8.71406746 2.93922186 35 11 23481 15.40400000 2338366645 2338366645 11.00000000
-6.00415802 -4.23232937 -0.38498330 3 12 23482 7.35600000 2338366647 2338366647 -3.00000000
-10.13938808 -7.14460325 2.86362696 42 13 23483 12.73000000 2338366650 2338366650 13.00000000
-10.82757950 -7.62670231 -0.23117457 2 14 23484 13.24600000 2338366652 2338366652 -1.00000000
-7.61576939 -5.36437559 2.49605083 40 15 23484 9.64400000 2338366654 2338366654 15.00000000
-1.57144594 -1.10361147 -0.51453227 5 0 23492 1.98800000 2338366675 2338366675 -15.00000000
-28.94582748 -20.32083511 0.61732650 7 1 23493 35.37200000 2338366677 2338366677 1.00000000
-1.79772627 -1.26158917 -0.50703967 4 2 23494 2.25400000 2338366679 2338366679 -13.00000000
-28.94544029 -20.30548286 1.85300684 14 3 23495 35.40600000 2338366682 2338366682 3.00000000
-2.10545897 -1.47699809 -0.49991956 3 4 23495 2.62000000 2338366684 2338366684 -11.00000000
-28.88166428 -20.25322342 3.08618474 10 5 23496 35.41000000 2338366686 2338366686 5.00000000
-2.52336287 -1.76884747 -0.48807552 2 6 23497 3.12000000 2338366689 2338366689 -9.00000000
-20.69672203 -14.50276947 3.10303712 30 7 23498 25.46200000 2338366691 2338366691 7.00000000
-3.12334180 -2.18779993 -0.46822202 1 8 23499 3.84200000 2338366693 2338366693 -7.00000000
-15.64411831 -10.95412922 3.02481675 46 9 23500 19.33600000 2338366696 2338366696 9.00000000
-4.11934423 -2.88439584 -0.43996218 9 10 23500 5.04800000 2338366698 2338366698 -5.00000000
-12.38468266 -8.66862679 2.93845844 35 11 23501 15.40000000 2338366700 2338366700 11.00000000
-6.00253010 -4.19989491 -0.38393658 3 12 23502 7.33600000 2338366702 2338366702 -3.00000000
-10.15468407 -7.10246515 2.86092758 41 13 23503 12.71800000 2338366705 2338366705 13.00000000
-10.88199615 -7.60833979 -0.23176795 4 14 23504 13.28000000 2338366707 2338366707 -1.00000000
-7.63696289 -5.33753300 2.49656844 40 15 23505 9.64600000 2338366709 2338366709 15.00000000
-1.58340526 -1.10336673 -0.51712048 4 0 23513 1.99800000 2338366730 2338366730 -15.00000000
-29.13005066 -20.29118538 0.61966515 8 1 23514 35.50600000 2338366732 2338366732 1.00000000
-1.80873501 -1.25944591 -0.50883931 4 2 23515 2.26200000 2338366735 2338366735 -13.00000000
-29.12294197 -20.27113914 1.85960114 7 3 23516 35.53200000 2338366737 2338366737 3.00000000
-2.10441279 -1.46478498 -0.49839309 3 4 23516 2.61200000 2338366739 2338366739 -11.00000000
-29.02602577 -20.19616127 3.09368014 40 5 23517 35.49600000 2338366742 2338366742 5.00000000
-2.51361227 -1.74830770 -0.48494685 2 6 23518 3.10000000 2338366744 2338366744 -9.00000000
-18.99111938 -13.20408821 2.84004307 22 7 23519 23.30400000 2338366746 2338366746 7.00000000
-3.14600992 -2.18653393 -0.47041565 1 8 23520 3.86000000 2338366749 2338366749 -7.00000000
-15.68550396 -10.90170956 3.02544260 42 9 23520 19.34000000 2338366751 2338366751 9.00000000
-4.13970613 -2.87609911 -0.44100806 9 10 23521 5.06000000 2338366753 2338366753 -5.00000000
-12.41798401 -8.62429714 2.93884015 35 11 23522 15.40200000 2338366755 2338366755 11.00000000
-6.03757095 -4.19153452 -0.38519263 3 12 23523 7.36000000 2338366758 2338366758 -3.00000000
-10.17424393 -7.06075478 2.85912800 36 13 23524 12.71000000 2338366760 2338366760 13.00000000
-10.89666557 -7.55928564 -0.23148872 2 14 23525 13.26400000 2338366762 2338366762 -1.00000000
-7.65078592 -5.30753899 2.49501562 40 15 23525 9.64000000 2338366765 2338366765 15.00000000
-1.58406949 -1.09563506 -0.51608515 5 0 23533 1.99400000 2338366785 2338366785 -15.00000000
-29.37176514 -20.30765152 0.62329525 8 1 23534 35.71400000 2338366788 2338366788 1.00000000
-1.81953275 -1.25755656 -0.51063889 4 2 23535 2.27000000 2338366790 2338366790 -13.00000000
-29.37920952 -20.29764557 1.87142909 21 3 23536 35.75800000 2338366792 2338366792 3.00000000
-2.10951304 -1.45743024 -0.49839309 3 4 23536 2.61200000 2338366795 2338366795 -11.00000000
-2.52132535 -1.74064517 -0.48525971 2 6 23538 3.10200000 2338366799 2338366799 -9.00000000
-19.05179977 -13.14786434 2.84223676 30 7 23539 23.32200000 2338366802 2338366802 7.00000000
-3.15035510 -2.17328453 -0.46992818 3 8 23540 3.85600000 2338366804 2338366804 -7.00000000
-15.71885014 -10.83965969 3.02419114 42 9 23541 19.33200000 2338366806 2338366806 9.00000000
-4.13987875 -2.85484481 -0.43996218 9 10 23541 5.04800000 2338366808 2338366808 -5.00000000
-12.45286179 -8.58423996 2.93998504 29 11 23542 15.40800000 2338366811 2338366811 11.00000000
-6.04229784 -4.16363430 -0.38456461 3 12 23543 7.34800000 2338366813 2338366813 -3.00000000
-10.17957020 -7.01193142 2.85372901 36 13 23544 12.68600000 2338366815 2338366815 13.00000000
-10.92957401 -7.52573919 -0.23162834 4 14 23545 13.27200000 2338366818 2338366818 -1.00000000
-7.66223097 -5.27398539 2.49242735 40 15 23546 9.63000000 2338366820 2338366820 15.00000000
-1.57673562 -1.08244526 -0.51246172 5 0 23553 1.98000000 2338366841 2338366841 -15.00000000
-29.58426857 -20.30230904 0.62629706 8 1 23554 35.88600000 2338366843 2338366843 1.00000000
-1.82391143 -1.25119746 -0.51063889 4 2 23555 2.27000000 2338366845 2338366845 -13.00000000
-29.57177353 -20.27855492 1.87917483 21 3 23556 35.90600000 2338366848 2338366848 3.00000000
-2.11458755 -1.45005774 -0.49839309 3 4 23556 2.61200000 2338366850 2338366850 -11.00000000
-2.53227448 -1.73518324 -0.48619831 2 6 23558 3.10800000 2338366855 2338366855 -9.00000000
-19.08775139 -13.07454967 2.84077430 30 7 23559 23.31000000 2338366857 2338366857 7.00000000
-3.14645672 -2.15442395 -0.46822202 1 8 23560 3.84200000 2338366859 2338366859 -7.00000000
-15.75144958 -10.78524303 3.02356529 42 9 23560 19.32800000 2338366861 2338366861 9.00000000
-4.14324236 -2.83587527 -0.43926495 6 10 23561 5.04000000 2338366864 2338366864 -5.00000000
-12.45520592 -8.52187252 2.93349743 42 11 23562 15.37400000 2338366866 2338366866 11.00000000
-6.05020046 -4.13800716 -0.38414592 3 12 23563 7.34000000 2338366868 2338366868 -3.00000000
-10.23133183 -6.99505281 2.86137748 39 13 23564 12.72000000 2338366871 2338366871 13.00000000
-10.94587135 -7.48077202 -0.23141891 4 14 23565 13.26000000 2338366873 2338366873 -1.00000000
-7.67648840 -5.24636745 2.49139214 40 15 23565 9.62600000 2338366875 2338366875 15.00000000
-1.59008324 -1.08346176 -0.51556754 5 0 23573 1.99200000 2338366896 2338366896 -15.00000000
-29.80370331 -20.30023384 0.62943852 8 1 23574 36.06600000 2338366898 2338366898 1.00000000
-1.82182455 -1.24043620 -0.50883931 4 2 23575 2.26200000 2338366901 2338366901 -13.00000000
-29.80253601 -20.28421211 1.88932800 7 3 23576 36.10000000 2338366903 2338366903 3.00000000
-2.11639047 -1.44045842 -0.49762985 3 4 23576 2.60800000 2338366905 2338366905 -11.00000000
-29.01683617 -19.74204063 3.07049680 40 5 23577 35.23000000 2338366908 2338366908 5.00000000
-2.54158282 -1.72855520 -0.48682407 2 6 23578 3.11200000 2338366910 2338366910 -9.00000000
-19.11193275 -12.99333286 2.83760571 30 7 23579 23.28400000 2338366912 2338366912 7.00000000
-3.16052532 -2.14789081 -0.46919698 1 8 23580 3.85000000 2338366914 2338366914 -7.00000000
-15.78760624 -10.72521877 3.02293968 46 9 23581 19.32400000 2338366917 2338366917 9.00000000
-4.17783737 -2.83818936 -0.44187963 6 10 23581 5.07000000 2338366919 2338366919 -5.00000000
-12.44427299 -8.45077038 2.92395711 52 11 23582 15.32400000 2338366921 2338366921 11.00000000
-6.07121801 -4.12135029 -0.38456461 3 12 23583 7.34800000 2338366924 2338366924 -3.00000000
-10.97853661 -7.44700861 -0.23155853 4 14 23585 13.26800000 2338366928 2338366928 -1.00000000
-7.70046234 -5.22144890 2.49294496 40 15 23586 9.63200000 2338366931 2338366931 15.00000000
-1.59225535 -1.07682240 -0.51504987 4 0 23593 1.99000000 2338366951 2338366951 -15.00000000
-29.99531746 -20.27783203 0.63198656 8 1 23594 36.21200000 2338366954 2338366954 1.00000000
-1.81322634 -1.22534025 -0.50524008 4 2 23595 2.24600000 2338366956 2338366956 -13.00000000
-53.64259720 -36.23690033 3.39262605 16 3 23596 64.82400000 2338366958 2338366958 3.00000000
-2.13442039 -1.44185376 -0.50068283 3 4 23596 2.62400000 2338366961 2338366961 -11.00000000
-29.04099083 -19.61052704 3.06579041 40 5 23597 35.17600000 2338366963 2338366963 5.00000000
-2.54432654 -1.71746242 -0.48619831 2 6 23598 3.10800000 2338366965 2338366965 -9.00000000
-19.14565277 -12.91876793 2.83589959 33 7 23599 23.27000000 2338366967 2338366967 7.00000000
-3.15812922 -2.13018513 -0.46773455 1 8 23600 3.83800000 2338366970 2338366970 -7.00000000
-15.82308483 -10.67280579 3.02293968 46 9 23600 19.32400000 2338366972 2338366972 9.00000000
-4.17285109 -2.81356406 -0.44031081 3 10 23601 5.05200000 2338366974 2338366974 -5.00000000
-12.45578766 -8.39521027 2.91975927 35 11 23602 15.30200000 2338366977 2338366977 11.00000000
-6.06900311 -4.08897257 -0.38351789 3 12 23603 7.32800000 2338366979 2338366979 -3.00000000
-10.27991676 -6.92345476 2.86137748 32 13 23604 12.72000000 2338366981 2338366981 13.00000000
-11.02105236 -7.41980886 -0.23190758 4 14 23605 13.28800000 2338366984 2338366984 -1.00000000
-7.71773481 -5.19588470 2.49294496 38 15 23605 9.63200000 2338366986 2338366986 15.00000000
-1.60242057 -1.07556450 -0.51712048 5 0 23613 1.99800000 2338367007 2338367007 -15.00000000
-1.83043993 -1.22768736 -0.50883931 4 2 23615 2.26200000 2338367011 2338367011 -13.00000000
-53.65927124 -35.97602463 3.38571763 48 3 23616 64.69200000 2338367014 2338367014 3.00000000
-2.12965631 -1.42783475 -0.49839309 3 4 23616 2.61200000 2338367016 2338367016 -11.00000000
-29.08609581 -19.49350739 3.06334996 40 5 23617 35.14800000 2338367018 2338367018 5.00000000
-2.56343508 -1.71736634 -0.48870125 2 6 23618 3.12400000 2338367020 2338367020 -9.00000000
-19.18733215 -12.84964943 2.83541203 33 7 23619 23.26600000 2338367023 2338367023 7.00000000
-3.16389608 -2.11804390 -0.46749079 1 8 23620 3.83600000 2338367025 2338367025 -7.00000000
-15.84711170 -10.60871696 3.02043676 42 9 23620 19.30800000 2338367027 2338367027 9.00000000
-4.18099117 -2.79787302 -0.44013649 3 10 23621 5.05000000 2338367030 2338367030 -5.00000000
-6.08988047 -4.07220364 -0.38393658 3 12 23623 7.33600000 2338367034 2338367034 -3.00000000
-10.29754162 -6.88319731 2.85957789 37 13 23624 12.71200000 2338367037 2338367037 13.00000000
-11.02693367 -7.36796141 -0.23148872 4 14 23625 13.26400000 2338367039 2338367039 -1.00000000
-7.74385643 -5.17427921 2.49553323 38 15 23625 9.64200000 2338367041 2338367041 15.00000000
-1.60455739 -1.06889331 -0.51660281 5 0 23633 1.99600000 2338367062 2338367062 -15.00000000
-1.83795869 -1.22345006 -0.50973910 4 2 23635 2.26600000 2338367067 2338367067 -13.00000000
-2.12808967 -1.41604185 -0.49686661 3 4 23636 2.60400000 2338367071 2338367071 -11.00000000
-29.15396309 -19.39185905 3.06334996 40 5 23637 35.14800000 2338367073 2338367073 5.00000000
-2.56283450 -1.70403290 -0.48744980 2 6 23638 3.11600000 2338367076 2338367076 -9.00000000
-19.23537445 -12.78479195 2.83589959 33 7 23639 23.27000000 2338367078 2338367078 7.00000000
-3.17623043 -2.11028242 -0.46822202 1 8 23640 3.84200000 2338367080 2338367080 -7.00000000
-15.87601566 -10.54400539 3.01855946 42 9 23641 19.29600000 2338367083 2338367083 9.00000000
-4.17911434 -2.77554560 -0.43891633 3 10 23641 5.03600000 2338367085 2338367085 -5.00000000
-10.31091976 -6.84537172 2.40571976 6 11 23642 12.60800000 2338367087 2338367087 11.00000000
-6.11404276 -4.05754757 -0.38456461 3 12 23643 7.34800000 2338367090 2338367090 -3.00000000
-10.31663322 -6.84397840 2.85822821 40 13 23644 12.70600000 2338367092 2338367092 13.00000000
-11.07591724 -7.34489727 -0.23197739 4 14 23645 13.29200000 2338367094 2338367094 -1.00000000
-7.76026058 -5.14614916 2.49501562 40 15 23645 9.64000000 2338367096 2338367096 15.00000000
-1.60183275 -1.05902421 -0.51453227 5 0 23653 1.98800000 2338367117 2338367117 -15.00000000
-1.84872198 -1.22132361 -0.51153868 4 2 23655 2.27400000 2338367122 2338367122 -13.00000000
-2.14284897 -1.41509604 -0.49915633 3 4 23656 2.61600000 2338367126 2338367126 -11.00000000
-29.19487190 -19.27241135 3.06056118 40 5 23657 35.11600000 2338367129 2338367129 5.00000000
-2.56876707 -1.69507658 -0.48744980 2 6 23658 3.11600000 2338367131 2338367131 -9.00000000
-19.28485680 -12.72084999 2.83663082 30 7 23659 23.27600000 2338367133 2338367133 7.00000000
-3.18689179 -2.10136795 -0.46870950 1 8 23660 3.84600000 2338367136 2338367136 -7.00000000
-15.94241142 -10.50809193 3.02419114 38 9 23661 19.33200000 2338367138 2338367138 9.00000000
-4.21373034 -2.77738810 -0.44153100 3 10 23661 5.06600000 2338367140 2338367140 -5.00000000
-10.36590004 -6.82986116 2.41297054 6 11 23662 12.64600000 2338367143 2338367143 11.00000000
-6.12816906 -4.03618097 -0.38456461 3 12 23663 7.34800000 2338367145 2338367145 -3.00000000
-10.34046078 -6.80792475 2.85822821 43 13 23664 12.70600000 2338367147 2338367147 13.00000000
-11.11819172 -7.31718397 -0.23232643 4 14 23665 13.31200000 2338367149 2338367149 -1.00000000
-7.77584219 -5.11554813 2.49398041 40 15 23666 9.63600000 2338367152 2338367152 15.00000000
-1.60390449 -1.05236661 -0.51401460 5 0 23673 1.98600000 2338367173 2338367173 -15.00000000
-1.84319568 -1.20845199 -0.50883931 4 2 23675 2.26200000 2338367177 2338367177 -13.00000000
-59.41197968 -38.93737411 3.72276115 17 3 23676 71.13200000 2338367179 2338367179 3.00000000
-2.14449167 -1.40545511 -0.49839309 3 4 23676 2.61200000 2338367182 2338367182 -11.00000000
-29.27696800 -19.18021202 3.06212997 40 5 23677 35.13400000 2338367184 2338367184 5.00000000
-2.57136321 -1.68393517 -0.48682407 2 6 23678 3.11200000 2338367186 2338367186 -9.00000000
-19.32914352 -12.65345573 2.83663082 30 7 23679 23.27600000 2338367189 2338367189 7.00000000
-3.21081805 -2.10110044 -0.47114688 1 8 23680 3.86600000 2338367191 2338367191 -7.00000000
-4.20339108 -2.74957442 -0.43943927 3 10 23681 5.04200000 2338367196 2338367196 -5.00000000
-10.41432476 -6.80975246 2.41869473 9 11 23682 12.67600000 2338367198 2338367198 11.00000000
-6.13218975 -4.00820827 -0.38393658 3 12 23683 7.33600000 2338367200 2338367200 -3.00000000
-10.36742496 -6.77392006 2.85912800 43 13 23684 12.71000000 2338367202 2338367202 13.00000000
-11.15705967 -7.28707743 -0.23260567 2 14 23685 13.32800000 2338367205 2338367205 -1.00000000
-7.79599810 -5.09184742 2.49501562 38 15 23685 9.64000000 2338367207 2338367207 15.00000000
-1.62051940 -1.05519462 -0.51815575 5 0 23693 2.00200000 2338367228 2338367228 -15.00000000
-1.83760214 -1.19563401 -0.50613987 4 2 23695 2.25000000 2338367232 2338367232 -13.00000000
-2.16584229 -1.40866506 -0.50220925 3 4 23696 2.63200000 2338367237 2338367237 -11.00000000
-29.34875107 -19.08115768 3.06265283 40 5 23697 35.14000000 2338367239 2338367239 5.00000000
