# .PCD v0.7 - Point Cloud Data file format
VERSION 0.7
FIELDS x y z intensity laser_id azimuth distance_m adjustedtime timestamp vertical_angle
SIZE 4 4 4 1 1 2 8 8 4 8
TYPE F F F U U U F U U F
COUNT 1 1 1 1 1 1 1 1 1 1
WIDTH 517
HEIGHT 1
VIEWPOINT 0 0 0 1 0 0 0
POINTS 517
DATA ascii
-12.44396305 -4.74442291 0.69795233 10 3 24913 13.33600000 2337670671 2337670671 3.00000000
-2.40328598 -0.91580373 -0.49991956 3 4 24914 2.62000000 2337670673 2337670673 -11.00000000
-12.41899776 -4.72993994 1.16265762 83 5 24915 13.34000000 2337670675 2337670675 5.00000000
-2.87813640 -1.09560132 -0.48776266 2 6 24916 3.11800000 2337670677 2337670677 -9.00000000
-12.43267250 -4.73017979 1.63329291 80 7 24917 13.40200000 2337670680 2337670680 7.00000000
-3.57734442 -1.36033475 -0.46992818 3 8 24918 3.85600000 2337670682 2337670682 -7.00000000
-12.39377785 -4.71043015 2.09997630 77 9 24919 13.42400000 2337670684 2337670684 9.00000000
-4.69886875 -1.78587127 -0.43978786 3 10 24919 5.04600000 2337670687 2337670687 -5.00000000
-12.37543201 -4.70098543 2.57325006 53 11 24920 13.48600000 2337670689 2337670689 11.00000000
-6.88628101 -2.61447740 -0.38603002 3 12 24921 7.37600000 2337670691 2337670691 -3.00000000
-11.55860138 -4.38608456 2.85417891 50 13 24922 12.68800000 2337670694 2337670694 13.00000000
-12.47489262 -4.73129463 -0.23288491 9 14 24923 13.34400000 2337670696 2337670696 -1.00000000
-9.72694397 -3.68909264 2.78748107 42 15 24923 10.77000000 2337670698 2337670698 15.00000000
-1.80545104 -0.68186301 -0.51712048 5 0 24931 1.99800000 2337670719 2337670719 -15.00000000
-12.43740940 -4.69474459 0.23204720 14 1 24932 13.29600000 2337670721 2337670721 1.00000000
-2.06214976 -0.77798778 -0.50883931 4 2 24933 2.26200000 2337670723 2337670723 -13.00000000
-12.45110416 -4.69743156 0.69742894 10 3 24933 13.32600000 2337670726 2337670726 3.00000000
-2.40646815 -0.90740913 -0.49991956 3 4 24934 2.62000000 2337670728 2337670728 -11.00000000
-12.42051697 -4.68093967 1.16126311 78 5 24935 13.32400000 2337670730 2337670730 5.00000000
-2.88194323 -1.08554804 -0.48776266 2 6 24936 3.11800000 2337670733 2337670733 -9.00000000
-12.42867279 -4.67905951 1.63061178 80 7 24937 13.38000000 2337670735 2337670735 7.00000000
-3.60993981 -1.35832548 -0.47358426 3 8 24938 3.88600000 2337670737 2337670737 -7.00000000
-12.39535332 -4.66157627 2.09747338 73 9 24939 13.40800000 2337670740 2337670740 9.00000000
-4.73304701 -1.77997828 -0.44240254 3 10 24939 5.07600000 2337670742 2337670742 -5.00000000
-12.36971378 -4.64946938 2.56867075 53 11 24940 13.46200000 2337670744 2337670744 11.00000000
-6.87479877 -2.58269763 -0.38487864 3 12 24941 7.35400000 2337670747 2337670747 -3.00000000
-11.60303116 -4.35667086 2.86137748 13 13 24942 12.72000000 2337670749 2337670749 13.00000000
-12.47448254 -4.68139648 -0.23257077 9 14 24943 13.32600000 2337670751 2337670751 -1.00000000
-9.73614502 -3.65375948 2.78644586 42 15 24943 10.76600000 2337670753 2337670753 15.00000000
-1.80420089 -0.67420417 -0.51608515 4 0 24951 1.99400000 2337670774 2337670774 -15.00000000
-12.44622803 -4.64850283 0.23190758 14 1 24952 13.28800000 2337670776 2337670776 1.00000000
-2.05755019 -0.76805878 -0.50703967 4 2 24953 2.25400000 2337670779 2337670779 -13.00000000
-12.44765377 -4.64408493 0.69627756 10 3 24954 13.30400000 2337670781 2337670781 3.00000000
-2.42433619 -0.90449357 -0.50297248 3 4 24954 2.63600000 2337670783 2337670783 -11.00000000
-12.43864822 -4.63825178 1.16143739 87 5 24955 13.32600000 2337670786 2337670786 5.00000000
-12.51833916 -4.66547918 -2.11593246 6 6 24956 13.52600000 2337670788 2337670788 -9.00000000
-12.41702652 -4.62525320 1.62695575 71 7 24957 13.35000000 2337670790 2337670790 7.00000000
-3.59605575 -1.33879018 -0.47114688 3 8 24958 3.86600000 2337670793 2337670793 -7.00000000
-12.39963627 -4.61631060 2.09559608 77 9 24958 13.39600000 2337670795 2337670795 9.00000000
-4.73362970 -1.76136148 -0.44187963 3 10 24959 5.07000000 2337670797 2337670797 -5.00000000
-12.37482643 -4.60215664 2.56638098 53 11 24960 13.45000000 2337670800 2337670800 11.00000000
-6.86317873 -2.55102992 -0.38372722 3 12 24961 7.33200000 2337670802 2337670802 -3.00000000
-9.64161873 -3.58185506 2.37458324 14 13 24962 10.55600000 2337670804 2337670804 13.00000000
-12.46262836 -4.62738323 -0.23204720 9 14 24963 13.29600000 2337670806 2337670806 -1.00000000
-9.76396084 -3.62342715 2.79058695 38 15 24964 10.78200000 2337670809 2337670809 15.00000000
-1.82103908 -0.67326152 -0.52022630 5 0 24971 2.01000000 2337670829 2337670829 -15.00000000
-12.44174480 -4.59740448 0.23152362 14 1 24972 13.26600000 2337670832 2337670832 1.00000000
-2.07118702 -0.76492268 -0.50973910 4 2 24973 2.26600000 2337670834 2337670834 -13.00000000
-12.43488216 -4.59240246 0.69470751 10 3 24973 13.27400000 2337670836 2337670836 3.00000000
-2.41642809 -0.89194649 -0.50068283 3 4 24974 2.62400000 2337670839 2337670839 -11.00000000
-12.43233204 -4.58652925 1.15934575 78 5 24975 13.30200000 2337670841 2337670841 5.00000000
-2.90057182 -1.06950235 -0.48963988 2 6 24976 3.13000000 2337670843 2337670843 -9.00000000
-12.42191982 -4.57776260 1.62549329 75 7 24977 13.33800000 2337670846 2337670846 7.00000000
-3.60256982 -1.32691562 -0.47139063 3 8 24978 3.86800000 2337670848 2337670848 -7.00000000
-12.39793491 -4.56400871 2.09246731 73 9 24979 13.37600000 2337670850 2337670850 9.00000000
-4.74348831 -1.74620390 -0.44222823 3 10 24979 5.07400000 2337670853 2337670853 -5.00000000
-12.38713074 -4.55757666 2.56561780 56 11 24980 13.44600000 2337670855 2337670855 11.00000000
-6.89828539 -2.53670788 -0.38519263 3 12 24981 7.36000000 2337670857 2337670857 -3.00000000
-9.69064522 -3.56162286 2.38358140 17 13 24982 10.59600000 2337670859 2337670859 13.00000000
-12.45993423 -4.57695723 -0.23169814 9 14 24983 13.27600000 2337670862 2337670862 -1.00000000
-9.77836227 -3.58998823 2.79110456 40 15 24984 10.78400000 2337670864 2337670864 15.00000000
-1.80886376 -0.66159213 -0.51608515 4 0 24991 1.99400000 2337670885 2337670885 -15.00000000
-12.45020485 -4.55120087 0.23138401 14 1 24992 13.25800000 2337670887 2337670887 1.00000000
-2.07933569 -0.75969446 -0.51108879 4 2 24993 2.27200000 2337670889 2337670889 -13.00000000
-12.44333363 -4.54622698 0.69428879 15 3 24993 13.26600000 2337670892 2337670892 3.00000000
-2.41952682 -0.88350618 -0.50068283 3 4 24994 2.62400000 2337670894 2337670894 -11.00000000
-12.42954922 -4.53627348 1.15760255 78 5 24995 13.28200000 2337670896 2337670896 5.00000000
-2.89315295 -1.05530953 -0.48776266 2 6 24996 3.11800000 2337670899 2337670899 -9.00000000
-12.42663383 -4.53029490 1.62403083 75 7 24997 13.32600000 2337670901 2337670901 7.00000000
-3.59785414 -1.31093419 -0.47017193 5 8 24998 3.85800000 2337670903 2337670903 -7.00000000
-12.39444065 -4.51610804 2.08933878 77 9 24998 13.35600000 2337670906 2337670906 9.00000000
-4.75329924 -1.73099899 -0.44257686 6 10 24999 5.07800000 2337670908 2337670908 -5.00000000
-12.38082600 -4.50625229 2.56103826 56 11 25000 13.42200000 2337670910 2337670910 11.00000000
-6.89583635 -2.50851631 -0.38456461 3 12 25001 7.34800000 2337670912 2337670912 -3.00000000
-9.77444458 -3.55374360 2.40112758 15 13 25002 10.67400000 2337670915 2337670915 13.00000000
-12.45891953 -4.52728939 -0.23138401 9 14 25003 13.25800000 2337670917 2337670917 -1.00000000
-9.77812386 -3.55121732 2.78748107 42 15 25004 10.77000000 2337670919 2337670919 15.00000000
-1.80752885 -0.65395951 -0.51504987 5 0 25011 1.99000000 2337670940 2337670940 -15.00000000
-12.45097160 -4.50227356 0.23110476 10 1 25012 13.24200000 2337670942 2337670942 1.00000000
-2.08014202 -0.75176924 -0.51063889 4 2 25013 2.27000000 2337670945 2337670945 -13.00000000
-12.45724869 -4.50208521 0.69418412 15 3 25013 13.26400000 2337670947 2337670947 3.00000000
-2.42259598 -0.87505507 -0.50068283 3 4 25014 2.62400000 2337670949 2337670949 -11.00000000
-12.43031597 -4.48744678 1.15620804 17 5 25015 13.26600000 2337670952 2337670952 5.00000000
-2.91168404 -1.05056751 -0.49026561 2 6 25016 3.13400000 2337670954 2337670954 -9.00000000
-3.58186555 -1.29096353 -0.46749079 9 8 25018 3.83600000 2337670959 2337670959 -7.00000000
-4.76306152 -1.71574676 -0.44292548 3 10 25019 5.08200000 2337670963 2337670963 -5.00000000
-12.40941048 -4.46766281 2.56370974 46 11 25020 13.43600000 2337670965 2337670965 11.00000000
-6.90830946 -2.48578238 -0.38477394 3 12 25021 7.35200000 2337670968 2337670968 -3.00000000
-11.59854698 -4.17116117 2.84563088 15 13 25022 12.65000000 2337670970 2337670970 13.00000000
-12.48781967 -4.48850679 -0.23162834 6 14 25023 13.27200000 2337670972 2337670972 -1.00000000
-9.78864193 -3.51641035 2.78696346 42 15 25024 10.76800000 2337670975 2337670975 15.00000000
-1.81321168 -0.64958084 -0.51608515 5 0 25029 1.99400000 2337670995 2337670995 -15.00000000
-12.50647259 -4.47796535 0.23187268 10 1 25030 13.28600000 2337670998 2337670998 1.00000000
-2.07331944 -0.74194765 -0.50838935 4 2 25031 2.26000000 2337671000 2337671000 -13.00000000
-12.53150558 -4.48446131 0.69753361 7 3 25031 13.32800000 2337671002 2337671002 3.00000000
-2.42903018 -0.86876225 -0.50144607 3 4 25032 2.62800000 2337671005 2337671005 -11.00000000
-12.50438881 -4.46983385 1.16178608 8 5 25033 13.33000000 2337671007 2337671007 5.00000000
-2.91497016 -1.04141498 -0.49026561 2 6 25034 3.13400000 2337671009 2337671009 -9.00000000
-12.54240322 -4.47848558 1.63524282 5 7 25035 13.41800000 2337671011 2337671011 7.00000000
-3.62703490 -1.29438293 -0.47285306 5 8 25036 3.88000000 2337671014 2337671014 -7.00000000
-12.52086353 -4.46833086 2.10560799 10 9 25036 13.46000000 2337671016 2337671016 9.00000000
-4.77218151 -1.70211339 -0.44327411 3 10 25037 5.08600000 2337671018 2337671018 -5.00000000
-12.45112419 -4.43854380 2.56943393 37 11 25038 13.46600000 2337671021 2337671021 11.00000000
-6.90855885 -2.46138597 -0.38435528 3 12 25039 7.34400000 2337671023 2337671023 -3.00000000
-11.61526585 -4.13601017 2.84653068 45 13 25040 12.65400000 2337671025 2337671025 13.00000000
-12.62243176 -4.49216366 -0.23386225 6 14 25041 13.40000000 2337671028 2337671028 -1.00000000
-9.80813217 -3.49059010 2.78955173 42 15 25041 10.77800000 2337671030 2337671030 15.00000000
-1.82639372 -0.64711869 -0.51919103 5 0 25049 2.00600000 2337671051 2337671051 -15.00000000
-12.63701248 -4.47500086 0.23400186 10 1 25050 13.40800000 2337671053 2337671053 1.00000000
-2.07957101 -0.73600626 -0.50928921 4 2 25051 2.26400000 2337671055 2337671055 -13.00000000
-12.64498997 -4.47534227 0.70297658 7 3 25051 13.43200000 2337671058 2337671058 3.00000000
-2.43945146 -0.86289692 -0.50297248 3 4 25052 2.63600000 2337671060 2337671060 -11.00000000
-12.64952850 -4.47198057 1.17381358 8 5 25053 13.46800000 2337671062 2337671062 5.00000000
-2.90741229 -1.02728498 -0.48838839 2 6 25054 3.12200000 2337671064 2337671064 -9.00000000
-12.67588329 -4.47632074 1.65059841 7 7 25055 13.54400000 2337671067 2337671067 7.00000000
-3.62217140 -1.27841103 -0.47163436 5 8 25056 3.87000000 2337671069 2337671069 -7.00000000
-12.67236614 -4.47259140 2.12844729 10 9 25056 13.60600000 2337671071 2337671071 9.00000000
-4.76494122 -1.68080556 -0.44205391 3 10 25057 5.07200000 2337671074 2337671074 -5.00000000
-12.45172882 -4.38983202 2.56638098 34 11 25058 13.45000000 2337671076 2337671076 11.00000000
-6.92652750 -2.44057417 -0.38487864 3 12 25059 7.35400000 2337671078 2337671078 -3.00000000
-11.61308956 -4.08961439 2.84248161 42 13 25060 12.63600000 2337671081 2337671081 13.00000000
-12.74743938 -4.48658133 -0.23588672 6 14 25061 13.51600000 2337671083 2337671083 -1.00000000
-9.83179474 -3.45846438 2.79265761 42 15 25062 10.79000000 2337671085 2337671085 15.00000000
-1.82146013 -0.63786626 -0.51712048 5 0 25070 1.99800000 2337671106 2337671106 -15.00000000
-12.78167439 -4.47357416 0.23637539 7 1 25071 13.54400000 2337671108 2337671108 1.00000000
-2.08409405 -0.72902274 -0.50973910 4 2 25072 2.26600000 2337671111 2337671111 -13.00000000
-12.77708721 -4.46696329 0.70936155 7 3 25073 13.55400000 2337671113 2337671113 3.00000000
-2.42777181 -0.84876674 -0.49991956 3 4 25073 2.62000000 2337671115 2337671115 -11.00000000
-12.78621101 -4.46764851 1.18496943 4 5 25074 13.59600000 2337671117 2337671117 5.00000000
-2.92234755 -1.02052951 -0.49026561 2 6 25075 3.13400000 2337671120 2337671120 -9.00000000
-12.79528618 -4.46580887 1.66400397 7 7 25076 13.65400000 2337671122 2337671122 7.00000000
-3.62495852 -1.26447272 -0.47139063 3 8 25077 3.86800000 2337671124 2337671124 -7.00000000
-12.79685307 -4.46385002 2.14659381 10 9 25077 13.72200000 2337671127 2337671127 9.00000000
-4.79176426 -1.67054462 -0.44397137 3 10 25078 5.09400000 2337671129 2337671129 -5.00000000
-12.46402740 -4.34287310 2.56561780 34 11 25079 13.44600000 2337671131 2337671131 11.00000000
-6.93542624 -2.41517091 -0.38487864 3 12 25080 7.35400000 2337671134 2337671134 -3.00000000
-11.62063885 -4.04446077 2.84068203 43 13 25081 12.62800000 2337671136 2337671136 13.00000000
-12.88089657 -4.48056173 -0.23805082 6 14 25082 13.64000000 2337671138 2337671138 -1.00000000
-9.82921028 -3.41904640 2.78851628 40 15 25082 10.77400000 2337671141 2337671141 15.00000000
-1.82367563 -0.63150430 -0.51712048 4 0 25090 1.99800000 2337671161 2337671161 -15.00000000
-12.91815472 -4.47078705 0.23860930 10 1 25091 13.67200000 2337671164 2337671164 1.00000000
-2.08478451 -0.72110641 -0.50928921 4 2 25092 2.26400000 2337671166 2337671166 -13.00000000
-12.91529942 -4.46475124 0.71616524 7 3 25093 13.68400000 2337671168 2337671168 3.00000000
-2.43443060 -0.84156996 -0.50068283 3 4 25093 2.62400000 2337671170 2337671170 -11.00000000
-12.92789936 -4.46658134 1.19664836 4 5 25094 13.73000000 2337671173 2337671173 5.00000000
-2.92589211 -1.01032233 -0.49026561 2 6 25095 3.13400000 2337671175 2337671175 -9.00000000
-12.94965744 -4.46903944 1.68204069 5 7 25096 13.80200000 2337671177 2337671177 7.00000000
-3.63122678 -1.25245881 -0.47163436 5 8 25097 3.87000000 2337671180 2337671180 -7.00000000
-12.91397476 -4.45168114 2.16348863 10 9 25098 13.83000000 2337671182 2337671182 9.00000000
-4.78061390 -1.64796424 -0.44240254 3 10 25098 5.07600000 2337671184 2337671184 -5.00000000
-12.47539806 -4.29805994 2.56485462 34 11 25099 13.44200000 2337671187 2337671187 11.00000000
-6.93248367 -2.38704562 -0.38425058 3 12 25100 7.34200000 2337671189 2337671189 -3.00000000
-11.63468552 -4.00387239 2.84068203 43 13 25101 12.62800000 2337671191 2337671191 13.00000000
-12.98722553 -4.46678972 -0.23972626 6 14 25102 13.73600000 2337671194 2337671194 -1.00000000
-9.84350300 -3.38362575 2.78903413 42 15 25103 10.77600000 2337671196 2337671196 15.00000000
-1.81296659 -0.62107074 -0.51349699 5 0 25109 1.98400000 2337671217 2337671217 -15.00000000
-13.04263783 -4.46549320 0.24063379 7 1 25110 13.78800000 2337671219 2337671219 1.00000000
-2.10007071 -0.71860546 -0.51243848 4 2 25111 2.27800000 2337671221 2337671221 -13.00000000
-13.03964233 -4.45938301 0.72223622 7 3 25112 13.80000000 2337671223 2337671223 3.00000000
-2.43720794 -0.83349246 -0.50068283 3 4 25112 2.62400000 2337671226 2337671226 -11.00000000
-13.05198765 -4.46106052 1.20675838 4 5 25113 13.84600000 2337671228 2337671228 5.00000000
-2.92174911 -0.99805999 -0.48901415 2 6 25114 3.12600000 2337671230 2337671230 -9.00000000
-13.07148743 -4.46263027 1.69593382 7 7 25115 13.91600000 2337671233 2337671233 7.00000000
-3.64287519 -1.24297440 -0.47260931 5 8 25116 3.87800000 2337671235 2337671235 -7.00000000
-13.04754734 -4.45191431 2.18351221 10 9 25116 13.95800000 2337671237 2337671237 9.00000000
-4.78228092 -1.63081598 -0.44205391 6 10 25117 5.07200000 2337671240 2337671240 -5.00000000
-12.47285843 -4.25096607 2.56141996 34 11 25118 13.42400000 2337671242 2337671242 11.00000000
-6.95548582 -2.36919522 -0.38508797 3 12 25119 7.35800000 2337671244 2337671244 -3.00000000
-11.65527821 -3.96778035 2.84248161 43 13 25120 12.63600000 2337671247 2337671247 13.00000000
-13.08904934 -4.45332670 -0.24133188 9 14 25121 13.82800000 2337671249 2337671249 -1.00000000
-9.84311104 -3.34895134 2.78592825 40 15 25121 10.76400000 2337671251 2337671251 15.00000000
-1.82793188 -0.61907643 -0.51712048 5 0 25129 1.99800000 2337671272 2337671272 -15.00000000
-13.18694687 -4.46353531 0.24300730 7 1 25130 13.92400000 2337671274 2337671274 1.00000000
-2.09702849 -0.70939702 -0.51108879 4 2 25131 2.27200000 2337671276 2337671276 -13.00000000
-13.19892502 -4.46245527 0.73019129 7 3 25132 13.95200000 2337671279 2337671279 3.00000000
-2.44382238 -0.82623756 -0.50144607 3 4 25132 2.62800000 2337671281 2337671281 -11.00000000
-13.16940784 -4.44991446 1.21617126 4 5 25133 13.95400000 2337671283 2337671283 5.00000000
-2.90275669 -0.98027080 -0.48525971 2 6 25134 3.10200000 2337671286 2337671286 -9.00000000
-13.19795609 -4.45442867 1.71031439 5 7 25135 14.03400000 2337671288 2337671288 7.00000000
-3.64907265 -1.23088539 -0.47285306 5 8 25136 3.88000000 2337671290 2337671290 -7.00000000
-13.19106388 -4.44697380 2.20478725 10 9 25137 14.09400000 2337671293 2337671293 9.00000000
-4.79549646 -1.61665869 -0.44275117 6 10 25137 5.08000000 2337671295 2337671295 -5.00000000
-12.46715546 -4.20050669 2.55722213 34 11 25138 13.40200000 2337671297 2337671297 11.00000000
-6.97317791 -2.34808850 -0.38561133 3 12 25139 7.36800000 2337671299 2337671299 -3.00000000
-11.66536331 -3.92582870 2.84158182 43 13 25140 12.63200000 2337671302 2337671302 13.00000000
-13.12725925 -4.41526031 -0.24175073 9 14 25141 13.85200000 2337671304 2337671304 -1.00000000
-9.85531902 -3.31285191 2.78592825 42 15 25142 10.76400000 2337671306 2337671306 15.00000000
-1.83945608 -0.61511642 -0.51970863 5 0 25151 2.00800000 2337671327 2337671327 -15.00000000
-13.29312801 -4.44265938 0.24464783 7 1 25152 14.01800000 2337671329 2337671329 1.00000000
-2.09234333 -0.69887030 -0.50928921 4 2 25153 2.26400000 2337671332 2337671332 -13.00000000
-13.30121422 -4.44020081 0.73490149 2 3 25154 14.04200000 2337671334 2337671334 3.00000000
-2.45442581 -0.81933445 -0.50297248 3 4 25154 2.63600000 2337671336 2337671336 -11.00000000
-35.72631073 -11.91919899 3.29501009 31 5 25155 37.80600000 2337671339 2337671339 5.00000000
-2.92898655 -0.97661579 -0.48901415 2 6 25156 3.12600000 2337671341 2337671341 -9.00000000
-21.38274002 -7.12552786 2.76740909 13 7 25157 22.70800000 2337671343 2337671343 7.00000000
-3.64812183 -1.21498311 -0.47212183 5 8 25158 3.87400000 2337671346 2337671346 -7.00000000
-17.93393135 -5.97277832 2.99384284 34 9 25158 19.13800000 2337671348 2337671348 9.00000000
-4.79599714 -1.59634566 -0.44222823 3 10 25159 5.07400000 2337671350 2337671350 -5.00000000
-12.47201443 -4.14888716 2.55493236 34 11 25160 13.39000000 2337671352 2337671352 11.00000000
-6.97077084 -2.31751561 -0.38498330 3 12 25161 7.35600000 2337671355 2337671355 -3.00000000
-11.68035126 -3.88100791 2.84158182 42 13 25162 12.63200000 2337671357 2337671357 13.00000000
-13.14791107 -4.36608315 -0.24182054 6 14 25163 13.85600000 2337671359 2337671359 -1.00000000
-9.86922836 -3.27731705 2.78644586 40 15 25163 10.76600000 2337671362 2337671362 15.00000000
-1.83792353 -0.60747927 -0.51867336 5 0 25171 2.00400000 2337671382 2337671382 -15.00000000
-36.95217514 -12.20645523 0.67928255 18 1 25172 38.92200000 2337671385 2337671385 1.00000000
-2.09106922 -0.69034058 -0.50838935 4 2 25173 2.26000000 2337671387 2337671387 -13.00000000
-36.94934082 -12.19121552 2.03911352 86 3 25174 38.96200000 2337671389 2337671389 3.00000000
-2.45354199 -0.80953163 -0.50220925 3 4 25174 2.63200000 2337671392 2337671392 -11.00000000
-36.09504318 -11.90236092 3.32516599 31 5 25175 38.15200000 2337671394 2337671394 5.00000000
-2.93988228 -0.96885896 -0.49026561 2 6 25176 3.13400000 2337671396 2337671396 -9.00000000
-20.00093079 -6.58757830 2.58557987 5 7 25177 21.21600000 2337671399 2337671399 7.00000000
-3.64479852 -1.19975877 -0.47114688 5 8 25178 3.86600000 2337671401 2337671401 -7.00000000
-15.81467819 -5.20266008 2.63685942 32 9 25179 16.85600000 2337671403 2337671403 9.00000000
-4.81668139 -1.58457577 -0.44362274 3 10 25179 5.09000000 2337671405 2337671405 -5.00000000
-12.48642159 -4.10532665 2.55493236 34 11 25180 13.39000000 2337671408 2337671408 11.00000000
-6.97502327 -2.29192209 -0.38477394 7 12 25181 7.35200000 2337671410 2337671410 -3.00000000
-11.69012451 -3.83899617 2.84068203 43 13 25182 12.62800000 2337671412 2337671412 13.00000000
-13.16877174 -4.32203245 -0.24192525 6 14 25183 13.86200000 2337671415 2337671415 -1.00000000
-9.88484573 -3.24232674 2.78748107 42 15 25184 10.77000000 2337671417 2337671417 15.00000000
-1.83247828 -0.59930027 -0.51660281 5 0 25189 1.99600000 2337671438 2337671438 -15.00000000
-36.98653793 -12.08906364 0.67921275 18 1 25190 38.91800000 2337671440 2337671440 1.00000000
-2.10248971 -0.68679339 -0.51063889 4 2 25191 2.27000000 2337671442 2337671442 -13.00000000
-36.93239594 -12.05710030 2.03607798 86 3 25192 38.90400000 2337671445 2337671445 3.00000000
-2.44860792 -0.79938251 -0.50068283 3 4 25192 2.62400000 2337671447 2337671447 -11.00000000
-36.49214172 -11.90632534 3.35828519 42 5 25193 38.53200000 2337671449 2337671449 5.00000000
-2.94666767 -0.96084303 -0.49089134 2 6 25194 3.13800000 2337671452 2337671452 -9.00000000
-20.16497040 -6.57145643 2.60410404 7 7 25195 21.36800000 2337671454 2337671454 7.00000000
-3.65987468 -1.19199085 -0.47260931 5 8 25196 3.87800000 2337671456 2337671456 -7.00000000
-15.83380127 -5.15693760 2.63748503 56 9 25196 16.86000000 2337671458 2337671458 9.00000000
-4.81216288 -1.56635261 -0.44275117 3 10 25197 5.08000000 2337671461 2337671461 -5.00000000
-12.49925709 -4.06607914 2.55493236 37 11 25198 13.39000000 2337671463 2337671463 11.00000000
-7.01447868 -2.28049588 -0.38655338 7 12 25199 7.38600000 2337671465 2337671465 -3.00000000
-11.70954132 -3.80466056 2.84248161 42 13 25200 12.63600000 2337671468 2337671468 13.00000000
-13.18799019 -4.28249311 -0.24202998 6 14 25201 13.86800000 2337671470 2337671470 -1.00000000
-9.88339710 -3.20940351 2.78437519 40 15 25201 10.75800000 2337671472 2337671472 15.00000000
-1.82904434 -0.59111780 -0.51504987 4 0 25209 1.99000000 2337671493 2337671493 -15.00000000
-37.00757980 -11.95312214 0.67882878 9 1 25210 38.89600000 2337671495 2337671495 1.00000000
-2.11229229 -0.68184471 -0.51243848 4 2 25211 2.27800000 2337671498 2337671498 -13.00000000
-2.45512009 -0.79203588 -0.50144607 3 4 25212 2.62800000 2337671502 2337671502 -11.00000000
-36.85205078 -11.88158321 3.38756943 53 5 25213 38.86800000 2337671505 2337671505 5.00000000
-2.93872261 -0.94691640 -0.48901415 2 6 25214 3.12600000 2337671507 2337671507 -9.00000000
-20.35406494 -6.55457401 2.62555313 7 7 25215 21.54400000 2337671509 2337671509 7.00000000
-3.66023397 -1.17799187 -0.47212183 5 8 25216 3.87400000 2337671511 2337671511 -7.00000000
-15.84695435 -5.09705496 2.63654637 48 9 25217 16.85400000 2337671514 2337671514 9.00000000
-4.80053091 -1.54405499 -0.44118237 6 10 25217 5.06200000 2337671516 2337671516 -5.00000000
-12.50402832 -4.01941967 2.55302429 40 11 25218 13.38000000 2337671518 2337671518 11.00000000
-7.02239656 -2.25599694 -0.38655338 3 12 25219 7.38600000 2337671521 2337671521 -3.00000000
-11.72646141 -3.76495481 2.84338140 42 13 25220 12.64000000 2337671523 2337671523 13.00000000
-13.22189999 -4.24254227 -0.24237902 6 14 25221 13.88800000 2337671525 2337671525 -1.00000000
-9.88037777 -3.16843820 2.78023410 42 15 25222 10.74200000 2337671528 2337671528 15.00000000
-1.83661747 -0.58649266 -0.51660281 5 0 25229 1.99600000 2337671548 2337671548 -15.00000000
-37.45103836 -11.95215130 0.68619370 9 1 25230 39.31800000 2337671551 2337671551 1.00000000
-2.10166335 -0.67032218 -0.50928921 4 2 25231 2.26400000 2337671553 2337671553 -13.00000000
-37.45905304 -11.94030285 2.06046653 8 3 25232 39.37000000 2337671555 2337671555 3.00000000
-2.45412898 -0.78226864 -0.50068283 3 4 25232 2.62400000 2337671558 2337671558 -11.00000000
-36.89520264 -11.75347805 3.38774371 42 5 25233 38.87000000 2337671560 2337671560 5.00000000
-2.93824553 -0.93545407 -0.48838839 2 6 25234 3.12200000 2337671562 2337671562 -9.00000000
-20.58490181 -6.54969215 2.65236449 7 7 25235 21.76400000 2337671564 2337671564 7.00000000
-3.67945766 -1.17002058 -0.47407174 7 8 25236 3.89000000 2337671567 2337671567 -7.00000000
-15.86000538 -5.04327917 2.63592076 48 9 25236 16.85000000 2337671569 2337671569 9.00000000
-4.82867718 -1.53452981 -0.44327411 6 10 25237 5.08600000 2337671571 2337671571 -5.00000000
-12.50675583 -3.97218227 2.55073476 46 11 25238 13.36800000 2337671574 2337671574 11.00000000
-7.01880646 -2.22784495 -0.38592535 7 12 25239 7.37400000 2337671576 2337671576 -3.00000000
-11.73953247 -3.72399902 2.84338140 42 13 25240 12.64000000 2337671578 2337671578 13.00000000
-13.25378418 -4.20180225 -0.24269317 6 14 25241 13.90600000 2337671581 2337671581 -1.00000000
-9.88898849 -3.13507247 2.77971649 40 15 25241 10.74000000 2337671583 2337671583 15.00000000
-1.84970760 -0.58356553 -0.51970863 5 0 25249 2.00800000 2337671604 2337671604 -15.00000000
-53.32563782 -16.81350899 0.97597349 13 1 25250 55.92200000 2337671606 2337671606 1.00000000
-2.11142492 -0.66532463 -0.51108879 4 2 25251 2.27200000 2337671608 2337671608 -13.00000000
-53.27223969 -16.77623177 2.92704535 54 3 25252 55.92800000 2337671611 2337671611 3.00000000
-2.47557044 -0.77959442 -0.50449896 3 4 25252 2.64400000 2337671613 2337671613 -11.00000000
-36.88849258 -11.60966492 3.38338590 42 5 25253 38.82000000 2337671615 2337671615 5.00000000
-2.94903040 -0.92756271 -0.48963988 2 6 25254 3.13000000 2337671617 2337671617 -9.00000000
-20.84814453 -6.55339766 2.68331909 10 7 25255 22.01800000 2337671620 2337671620 7.00000000
-3.66458082 -1.15122020 -0.47163436 5 8 25256 3.87000000 2337671622 2337671622 -7.00000000
-15.88881969 -4.99143887 2.63779783 48 9 25256 16.86200000 2337671624 2337671624 9.00000000
-4.83970690 -1.51945555 -0.44379705 6 10 25257 5.09200000 2337671627 2337671627 -5.00000000
-12.51305199 -3.92615032 2.54920816 40 11 25258 13.36000000 2337671629 2337671629 11.00000000
-7.01319981 -2.19914794 -0.38519263 7 12 25259 7.36000000 2337671631 2337671631 -3.00000000
-11.74874020 -3.68183208 2.84248161 42 13 25260 12.63600000 2337671634 2337671634 13.00000000
-13.30844498 -4.16806316 -0.24342616 4 14 25261 13.94800000 2337671636 2337671636 -1.00000000
-9.90171528 -3.10111165 2.78023410 42 15 25261 10.74200000 2337671638 2337671638 15.00000000
-1.85542202 -0.57825488 -0.52074391 5 0 25269 2.01200000 2337671659 2337671659 -15.00000000
-53.31145096 -16.60466766 0.97464710 13 1 25270 55.84600000 2337671661 2337671661 1.00000000
-2.10070968 -0.65389603 -0.50793946 4 2 25271 2.25800000 2337671664 2337671664 -13.00000000
-53.27135468 -16.57178307 2.92380047 54 3 25272 55.86600000 2337671666 2337671666 3.00000000
-2.45765567 -0.76453346 -0.50030118 3 4 25272 2.62200000 2337671668 2337671668 -11.00000000
-36.89834976 -11.47136593 3.38059688 53 5 25273 38.78800000 2337671670 2337671670 5.00000000
-2.96356869 -0.92077971 -0.49151710 2 6 25274 3.14200000 2337671673 2337671673 -9.00000000
-21.18938637 -6.57947969 2.72426724 26 7 25275 22.35400000 2337671675 2337671675 7.00000000
-3.65720153 -1.13489151 -0.47017193 5 8 25276 3.85800000 2337671677 2337671677 -7.00000000
-15.89757442 -4.93024445 2.63623357 40 9 25277 16.85200000 2337671680 2337671680 9.00000000
-4.84878731 -1.50373292 -0.44414568 6 10 25277 5.09600000 2337671682 2337671682 -5.00000000
-12.53793240 -3.88593483 2.55149794 40 11 25278 13.37200000 2337671684 2337671684 11.00000000
-7.04372787 -2.18174529 -0.38644871 7 12 25279 7.38400000 2337671687 2337671687 -3.00000000
-11.72615051 -3.62985015 2.83393335 9 13 25280 12.59800000 2337671689 2337671689 13.00000000
-13.33437538 -4.12512827 -0.24363559 4 14 25281 13.96000000 2337671691 2337671691 -1.00000000
-9.86634064 -3.05225587 2.76729321 23 15 25281 10.69200000 2337671693 2337671693 15.00000000
-1.84450483 -0.56779617 -0.51712048 5 0 25289 1.99800000 2337671714 2337671714 -15.00000000
-53.31174850 -16.40083504 0.97359997 13 1 25290 55.78600000 2337671717 2337671717 1.00000000
-2.11974382 -0.65171337 -0.51198858 4 2 25291 2.27600000 2337671719 2337671719 -13.00000000
-53.26587677 -16.36637115 2.92034626 54 3 25292 55.80000000 2337671721 2337671721 3.00000000
-2.46969271 -0.75883311 -0.50220925 3 4 25292 2.63200000 2337671723 2337671723 -11.00000000
-36.88293457 -11.32553577 3.37554193 42 5 25293 38.73000000 2337671726 2337671726 5.00000000
-2.96676493 -0.91042930 -0.49151710 2 6 25294 3.14200000 2337671728 2337671728 -9.00000000
-24.26396179 -7.44139719 3.11619902 34 7 25295 25.57000000 2337671730 2337671730 7.00000000
-3.67632437 -1.12677228 -0.47212183 5 8 25296 3.87400000 2337671733 2337671733 -7.00000000
-15.90524292 -4.87182856 2.63466930 48 9 25297 16.84200000 2337671735 2337671735 9.00000000
-4.84448147 -1.48388076 -0.44327411 3 10 25297 5.08600000 2337671737 2337671737 -5.00000000
-12.53640270 -3.83754849 2.54844499 40 11 25298 13.35600000 2337671740 2337671740 11.00000000
-7.68538284 -2.35112405 -0.42119977 51 12 25299 8.04800000 2337671742 2337671742 -3.00000000
-9.80620766 -2.99805856 2.36738491 27 13 25300 10.52400000 2337671744 2337671744 13.00000000
-13.36016750 -4.08206367 -0.24384502 2 14 25301 13.97200000 2337671746 2337671746 -1.00000000
-9.80355644 -2.99350643 2.74658775 23 15 25302 10.61200000 2337671749 2337671749 15.00000000
-1.83178616 -0.55653918 -0.51297933 4 0 25310 1.98200000 2337671770 2337671770 -15.00000000
-2.12584758 -0.64507145 -0.51288843 4 2 25312 2.28000000 2337671774 2337671774 -13.00000000
-53.44973755 -16.20870781 2.92715001 40 3 25313 55.93000000 2337671776 2337671776 3.00000000
-2.46494222 -0.74749720 -0.50068283 3 4 25313 2.62400000 2337671779 2337671779 -11.00000000
-36.87462234 -11.17525291 3.37100983 42 5 25314 38.67800000 2337671781 2337671781 5.00000000
-2.95495725 -0.89496869 -0.48901415 2 6 25315 3.12600000 2337671783 2337671783 -9.00000000
-24.28347206 -7.35011482 3.11522412 34 7 25316 25.56200000 2337671786 2337671786 7.00000000
-3.68042946 -1.11329031 -0.47212183 5 8 25317 3.87400000 2337671788 2337671788 -7.00000000
-15.92299271 -4.81350040 2.63466930 44 9 25318 16.84200000 2337671790 2337671790 9.00000000
-4.83272362 -1.46092618 -0.44170532 3 10 25318 5.06800000 2337671793 2337671793 -5.00000000
-12.55978012 -3.79441333 2.55035305 40 11 25319 13.36600000 2337671795 2337671795 11.00000000
-9.81339931 -2.96097112 2.36648512 34 13 25321 10.52000000 2337671799 2337671799 13.00000000
-13.39227009 -4.03826427 -0.24415916 2 14 25322 13.99000000 2337671802 2337671802 -1.00000000
-9.79545021 -2.95369029 2.74141121 23 15 25322 10.59200000 2337671804 2337671804 15.00000000
-1.85037100 -0.55513787 -0.51763809 5 0 25330 2.00000000 2337671825 2337671825 -15.00000000
-2.12621975 -0.63708758 -0.51243848 4 2 25332 2.27800000 2337671829 2337671829 -13.00000000
-54.07616043 -16.19276810 2.95834231 27 3 25333 56.52600000 2337671832 2337671832 3.00000000
-2.47505951 -0.74114108 -0.50220925 3 4 25333 2.63200000 2337671834 2337671834 -11.00000000
-36.86377716 -11.03161716 3.36647773 42 5 25334 38.62600000 2337671836 2337671836 5.00000000
-2.94481540 -0.88068652 -0.48682407 2 6 25335 3.11200000 2337671839 2337671839 -9.00000000
-24.30707932 -7.26473665 3.11498046 34 7 25336 25.56000000 2337671841 2337671841 7.00000000
-3.68809748 -1.10157263 -0.47260931 5 8 25337 3.87800000 2337671843 2337671843 -7.00000000
-15.95862675 -4.76353931 2.63779783 48 9 25338 16.86200000 2337671846 2337671846 9.00000000
-4.86643076 -1.45259595 -0.44431996 3 10 25338 5.09800000 2337671848 2337671848 -5.00000000
-7.06081390 -2.10492015 -0.38613468 7 12 25340 7.37800000 2337671852 2337671852 -3.00000000
-11.79588032 -3.51426315 2.84158182 17 13 25341 12.63200000 2337671855 2337671855 13.00000000
-13.41970062 -3.99548650 -0.24440350 4 14 25342 14.00400000 2337671857 2337671857 -1.00000000
-9.88531685 -2.94318390 2.76366973 19 15 25342 10.67800000 2337671859 2337671859 15.00000000
-1.84849727 -0.54790080 -0.51660281 4 0 25349 1.99600000 2337671880 2337671880 -15.00000000
-2.11524057 -0.62616122 -0.50928921 4 2 25351 2.26400000 2337671885 2337671885 -13.00000000
-54.64384460 -16.17587090 2.98660374 28 3 25351 57.06600000 2337671887 2337671887 3.00000000
-2.47750354 -0.73292941 -0.50220925 3 4 25352 2.63200000 2337671889 2337671889 -11.00000000
-36.86194611 -10.89801407 3.36299157 53 5 25353 38.58600000 2337671892 2337671892 5.00000000
-2.94771957 -0.87091637 -0.48682407 2 6 25354 3.11200000 2337671894 2337671894 -9.00000000
-24.32722855 -7.18296719 3.11449289 34 7 25355 25.55600000 2337671896 2337671896 7.00000000
-3.67649865 -1.08484197 -0.47065940 5 8 25356 3.86200000 2337671898 2337671898 -7.00000000
-15.97351265 -4.71338034 2.63779783 48 9 25356 16.86200000 2337671901 2337671901 9.00000000
-4.88268709 -1.43983150 -0.44536585 6 10 25357 5.11000000 2337671903 2337671903 -5.00000000
-10.01477146 -2.95130634 2.02944446 6 11 25358 10.63600000 2337671905 2337671905 11.00000000
-7.06583929 -2.08092976 -0.38603002 3 12 25359 7.37600000 2337671908 2337671908 -3.00000000
-11.77008057 -3.46412301 2.83258367 42 13 25360 12.59200000 2337671910 2337671910 13.00000000
-13.43479538 -3.95152736 -0.24443841 2 14 25361 14.00600000 2337671912 2337671912 -1.00000000
-9.94506264 -2.92510509 2.77764606 40 15 25361 10.73200000 2337671915 2337671915 15.00000000
-1.86152315 -0.54470021 -0.51970863 5 0 25369 2.00800000 2337671935 2337671935 -15.00000000
-55.82912827 -16.32557869 1.01531124 14 1 25370 58.17600000 2337671938 2337671938 1.00000000
-2.12115431 -0.61986709 -0.51018900 4 2 25371 2.26800000 2337671940 2337671940 -13.00000000
-55.22615433 -16.12833405 3.01517916 14 3 25372 57.61200000 2337671942 2337671942 3.00000000
-2.47250891 -0.72207540 -0.50068283 3 4 25372 2.62400000 2337671945 2337671945 -11.00000000
-36.87489700 -10.76201916 3.36072540 53 5 25373 38.56000000 2337671947 2337671947 5.00000000
-2.97349811 -0.86725873 -0.49057847 2 6 25374 3.13600000 2337671949 2337671949 -9.00000000
-3.68788648 -1.07422256 -0.47163436 5 8 25376 3.87000000 2337671954 2337671954 -7.00000000
-15.98878384 -4.65425110 2.63748503 36 9 25377 16.86000000 2337671956 2337671956 9.00000000
-4.90107441 -1.42667699 -0.44658601 3 10 25377 5.12400000 2337671958 2337671958 -5.00000000
-10.12869358 -2.94649172 2.05043340 3 11 25378 10.74600000 2337671961 2337671961 11.00000000
-7.06922436 -2.05513763 -0.38582066 3 12 25379 7.37200000 2337671963 2337671963 -3.00000000
-11.78584290 -3.42410398 2.83348346 44 13 25380 12.59600000 2337671965 2337671965 13.00000000
-13.46002865 -3.90795255 -0.24464783 2 14 25381 14.01800000 2337671968 2337671968 -1.00000000
-9.94458485 -2.88540506 2.77454019 42 15 25382 10.72000000 2337671970 2337671970 15.00000000
-1.84680235 -0.53305215 -0.51504987 5 0 25390 1.99000000 2337671991 2337671991 -15.00000000
-55.98849869 -16.14966393 1.01712620 29 1 25391 58.28000000 2337671993 2337671993 1.00000000
-2.12715697 -0.61316806 -0.51108879 4 2 25392 2.27200000 2337671995 2337671995 -13.00000000
-55.89815140 -16.11303711 3.04877877 14 3 25392 58.25400000 2337671998 2337671998 3.00000000
-2.47891188 -0.71409523 -0.50144607 3 4 25393 2.62800000 2337672000 2337672000 -11.00000000
-36.86431503 -10.61246300 3.35619330 42 5 25394 38.50800000 2337672002 2337672002 5.00000000
-2.98425031 -0.85853910 -0.49182996 3 6 25395 3.14400000 2337672004 2337672004 -9.00000000
-20.76079559 -5.96875143 2.65236449 7 7 25396 21.76400000 2337672007 2337672007 7.00000000
-3.69179893 -1.06069863 -0.47163436 5 8 25397 3.87000000 2337672009 2337672009 -7.00000000
-4.88712025 -1.40320563 -0.44484290 3 10 25398 5.10400000 2337672014 2337672014 -5.00000000
-3.70439053 -1.06291664 0.74911612 5 11 25399 3.92600000 2337672016 2337672016 11.00000000
-7.08438921 -2.03141594 -0.38623935 3 12 25400 7.38000000 2337672018 2337672018 -3.00000000
-10.37269974 -2.97236466 2.49110794 30 13 25401 11.07400000 2337672021 2337672021 13.00000000
-13.48579597 -3.86189580 -0.24485727 2 14 25402 14.03000000 2337672023 2337672023 -1.00000000
-9.93788147 -2.84588766 2.76988149 40 15 25402 10.70200000 2337672025 2337672025 15.00000000
-1.84307802 -0.52501458 -0.51349699 5 0 25410 1.98400000 2337672046 2337672046 -15.00000000
-2.14427948 -0.61000490 -0.51468801 4 2 25412 2.28800000 2337672050 2337672050 -13.00000000
-56.53229141 -16.08231354 3.08028507 29 3 25412 58.85600000 2337672053 2337672053 3.00000000
-2.49271989 -0.70865905 -0.50373572 3 4 25413 2.64000000 2337672055 2337672055 -11.00000000
-36.85705185 -10.47119427 3.35218430 53 5 25414 38.46200000 2337672057 2337672057 5.00000000
-2.96062517 -0.84056365 -0.48744980 2 6 25415 3.11600000 2337672060 2337672060 -9.00000000
-23.04833412 -6.53940392 2.94168210 2 7 25416 24.13800000 2337672062 2337672062 7.00000000
-3.69165945 -1.04672229 -0.47114688 7 8 25417 3.86600000 2337672064 2337672064 -7.00000000
-3.65096641 -1.03449595 0.60102123 7 9 25418 3.84200000 2337672067 2337672067 9.00000000
-4.89390564 -1.38668096 -0.44501722 3 10 25418 5.10600000 2337672069 2337672069 -5.00000000
-7.09143686 -2.00667429 -0.38623935 3 12 25420 7.38000000 2337672074 2337672074 -3.00000000
-10.38301182 -2.93613911 2.49110794 30 13 25421 11.07400000 2337672076 2337672076 13.00000000
-13.51651382 -3.81969237 -0.24517141 2 14 25422 14.04800000 2337672078 2337672078 -1.00000000
-9.94589520 -2.81065536 2.76936388 42 15 25422 10.70000000 2337672080 2337672080 15.00000000
-1.85233855 -0.52066886 -0.51556754 4 0 25430 1.99200000 2337672101 2337672101 -15.00000000
-57.52451706 -16.15858078 1.04295576 30 1 25431 59.76000000 2337672103 2337672103 1.00000000
-2.13138580 -0.59830284 -0.51108879 4 2 25432 2.27200000 2337672106 2337672106 -13.00000000
-57.19276047 -16.04385376 3.11304736 14 3 25433 59.48200000 2337672108 2337672108 3.00000000
-2.48761725 -0.69783247 -0.50220925 3 4 25433 2.63200000 2337672110 2337672110 -11.00000000
-36.85309219 -10.33118153 3.34852362 42 5 25434 38.42000000 2337672113 2337672113 5.00000000
-2.97114992 -0.83235556 -0.48870125 2 6 25435 3.12400000 2337672115 2337672115 -9.00000000
-24.39575577 -6.82978010 3.11059308 9 7 25436 25.52400000 2337672117 2337672117 7.00000000
-3.71058416 -1.03810835 -0.47309679 7 8 25437 3.88200000 2337672120 2337672120 -7.00000000
-4.89295959 -1.36798024 -0.44449428 3 10 25438 5.10000000 2337672124 2337672124 -5.00000000
-3.65877724 -1.02223730 0.73843080 37 11 25439 3.87000000 2337672127 2337672127 11.00000000
-7.09070349 -1.97976005 -0.38582066 3 12 25440 7.37200000 2337672129 2337672129 -3.00000000
-10.38756657 -2.89830661 2.48975825 6 13 25441 11.06800000 2337672131 2337672131 13.00000000
-13.57214165 -3.78430367 -0.24593931 4 14 25442 14.09200000 2337672133 2337672133 -1.00000000
-9.95240879 -2.77314591 2.76832843 40 15 25443 10.69600000 2337672136 2337672136 15.00000000
-1.86159110 -0.51626492 -0.51763809 5 0 25450 2.00000000 2337672156 2337672156 -15.00000000
-45.06238556 -12.48843575 0.81621414 11 1 25451 46.76800000 2337672159 2337672159 1.00000000
-2.12782717 -0.58929890 -0.50973910 4 2 25452 2.26600000 2337672161 2337672161 -13.00000000
-45.04045868 -12.47389507 2.44932270 63 3 25452 46.80000000 2337672163 2337672163 3.00000000
-2.49382234 -0.69019216 -0.50297248 3 4 25453 2.63600000 2337672166 2337672166 -11.00000000
-2.98546124 -0.82513666 -0.49057847 2 6 25455 3.13600000 2337672170 2337672170 -9.00000000
-3.71418524 -1.02514958 -0.47309679 7 8 25457 3.88200000 2337672175 2337672175 -7.00000000
-3.65619516 -1.00845718 0.60070837 68 9 25458 3.84000000 2337672177 2337672177 9.00000000
-4.89578438 -1.35036254 -0.44431996 3 10 25458 5.09800000 2337672180 2337672180 -5.00000000
-3.64528918 -1.00476444 0.73499626 65 11 25459 3.85200000 2337672182 2337672182 11.00000000
-7.09564543 -1.95446634 -0.38571599 3 12 25460 7.37000000 2337672184 2337672184 -3.00000000
-3.66190147 -1.00796807 0.87685919 3 13 25461 3.89800000 2337672186 2337672186 13.00000000
-13.58912468 -3.73796558 -0.24600913 4 14 25462 14.09600000 2337672189 2337672189 -1.00000000
-9.96761608 -2.73992467 2.76988149 40 15 25463 10.70200000 2337672191 2337672191 15.00000000
-1.86888278 -0.51161909 -0.51919103 5 0 25469 2.00600000 2337672212 2337672212 -15.00000000
-45.06690216 -12.32890987 0.81555092 11 1 25470 46.73000000 2337672214 2337672214 1.00000000
-2.13916850 -0.58480901 -0.51198858 4 2 25471 2.27600000 2337672216 2337672216 -13.00000000
-45.03726196 -12.31235313 2.44691539 63 3 25471 46.75400000 2337672219 2337672219 3.00000000
-2.49230957 -0.68088377 -0.50220925 3 4 25472 2.63200000 2337672221 2337672221 -11.00000000
-3.72493100 -1.01692975 0.33781567 1 5 25473 3.87600000 2337672223 2337672223 5.00000000
-2.98818088 -0.81523198 -0.49057847 2 6 25474 3.13600000 2337672226 2337672226 -9.00000000
-3.64269495 -0.99311262 0.46359098 16 7 25475 3.80400000 2337672228 2337672228 7.00000000
-3.70607257 -1.00969648 -0.47163436 5 8 25476 3.87000000 2337672230 2337672230 -7.00000000
-3.62885070 -0.98865789 0.59570247 70 9 25476 3.80800000 2337672233 2337672233 9.00000000
-4.90408039 -1.33516681 -0.44466859 3 10 25477 5.10200000 2337672235 2337672235 -5.00000000
-3.64481235 -0.99163991 0.73423302 76 11 25478 3.84800000 2337672237 2337672237 11.00000000
-7.11943340 -1.93564165 -0.38665804 3 12 25479 7.38800000 2337672239 2337672239 -3.00000000
-13.60916519 -3.69497776 -0.24614874 4 14 25481 14.10400000 2337672244 2337672244 -1.00000000
-9.98037624 -2.70786762 2.77091670 28 15 25482 10.70600000 2337672246 2337672246 15.00000000
-1.86879218 -0.50458872 -0.51867336 5 0 25489 2.00400000 2337672267 2337672267 -15.00000000
-45.07298279 -12.16162395 0.81488776 11 1 25490 46.69200000 2337672269 2337672269 1.00000000
-2.14119697 -0.57733834 -0.51198858 4 2 25491 2.27600000 2337672272 2337672272 -13.00000000
-45.03368759 -12.14258957 2.44440317 42 3 25491 46.70600000 2337672274 2337672274 3.00000000
-2.48329735 -0.66911519 -0.49991956 3 4 25492 2.62000000 2337672276 2337672276 -11.00000000
-3.67074203 -0.98838055 0.33258632 16 5 25493 3.81600000 2337672279 2337672279 5.00000000
-2.98719335 -0.80376977 -0.48995274 2 6 25494 3.13200000 2337672281 2337672281 -9.00000000
-3.63655448 -0.97781396 0.46237230 34 7 25495 3.79400000 2337672283 2337672283 7.00000000
-3.71340871 -0.99778396 -0.47212183 7 8 25496 3.87400000 2337672286 2337672286 -7.00000000
-3.62655663 -0.97444701 0.59476382 77 9 25496 3.80200000 2337672288 2337672288 9.00000000
-4.91255951 -1.31907356 -0.44501722 3 10 25497 5.10600000 2337672290 2337672290 -5.00000000
-3.66152477 -0.98247260 0.73690432 95 11 25498 3.86200000 2337672292 2337672292 11.00000000
-7.13386297 -1.91284740 -0.38707674 3 12 25499 7.39600000 2337672295 2337672295 -3.00000000
-3.64420724 -0.97646236 0.87101048 48 13 25500 3.87200000 2337672297 2337672297 13.00000000
-13.64515972 -3.65365696 -0.24656759 4 14 25501 14.12800000 2337672299 2337672299 -1.00000000
-9.98043633 -2.67051625 2.76832843 28 15 25502 10.69600000 2337672302 2337672302 15.00000000
-1.86120808 -0.49557704 -0.51608515 5 0 25509 1.99400000 2337672322 2337672322 -15.00000000
-45.04752350 -11.98621941 0.81366611 11 1 25510 46.62200000 2337672325 2337672325 1.00000000
-2.13566589 -0.56785762 -0.51018900 4 2 25511 2.26800000 2337672327 2337672327 -13.00000000
-45.04298401 -11.97659397 2.44262385 21 3 25511 46.67200000 2337672329 2337672329 3.00000000
-2.49320745 -0.66245937 -0.50144607 3 4 25512 2.62800000 2337672332 2337672332 -11.00000000
-3.58366346 -0.95153010 0.32439366 22 5 25513 3.72200000 2337672334 2337672334 5.00000000
-3.00525546 -0.79739046 -0.49245569 3 6 25514 3.14800000 2337672336 2337672336 -9.00000000
-3.64186430 -0.96562278 0.46261603 43 7 25515 3.79600000 2337672338 2337672338 7.00000000
-3.73221993 -0.98888308 -0.47407174 5 8 25516 3.89000000 2337672341 2337672341 -7.00000000
-3.63184547 -0.96228796 0.59507668 73 9 25516 3.80400000 2337672343 2337672343 9.00000000
-4.90750408 -1.29936779 -0.44414568 3 10 25517 5.09600000 2337672345 2337672345 -5.00000000
-3.65923810 -0.96817899 0.73575950 82 11 25518 3.85600000 2337672348 2337672348 11.00000000
-7.14628935 -1.88946545 -0.38739076 3 12 25519 7.40200000 2337672350 2337672350 -3.00000000
-3.65136170 -0.96473134 0.87191027 77 13 25520 3.87600000 2337672352 2337672352 13.00000000
-13.68103123 -3.61212993 -0.24698645 4 14 25521 14.15200000 2337672355 2337672355 -1.00000000
-9.97989845 -2.63493943 2.76574039 28 15 25521 10.68600000 2337672357 2337672357 15.00000000
-1.86853218 -0.49054882 -0.51763809 5 0 25529 2.00000000 2337672378 2337672378 -15.00000000
-2.14517522 -0.56237602 -0.51198858 4 2 25531 2.27600000 2337672382 2337672382 -13.00000000
-2.49930310 -0.65474749 -0.50220925 3 4 25532 2.63200000 2337672387 2337672387 -11.00000000
-3.58310819 -0.93800586 0.32404506 28 5 25533 3.71800000 2337672389 2337672389 5.00000000
-2.98890972 -0.78189594 -0.48932701 2 6 25534 3.12800000 2337672391 2337672391 -9.00000000
-3.63560987 -0.95039415 0.46139732 32 7 25535 3.78600000 2337672394 2337672394 7.00000000
-3.73180795 -0.97484571 -0.47358426 5 8 25536 3.88600000 2337672396 2337672396 -7.00000000
-3.66193986 -0.95659435 0.59945685 84 9 25536 3.83200000 2337672398 2337672398 9.00000000
-4.89658737 -1.27820361 -0.44275117 3 10 25537 5.08000000 2337672401 2337672401 -5.00000000
-3.65309691 -0.95292228 0.73385137 63 11 25538 3.84600000 2337672403 2337672403 11.00000000
-7.14704323 -1.86299741 -0.38707674 3 12 25539 7.39600000 2337672405 2337672405 -3.00000000
-3.66413593 -0.95443594 0.87415981 73 13 25540 3.88600000 2337672408 2337672408 13.00000000
-9.99322796 -2.59931636 2.76677561 33 15 25542 10.69000000 2337672412 2337672412 15.00000000
-1.87023318 -0.48402345 -0.51763809 5 0 25549 2.00000000 2337672433 2337672433 -15.00000000
-3.75196862 -0.97032511 0.06764553 14 1 25550 3.87600000 2337672435 2337672435 1.00000000
-2.14523840 -0.55439699 -0.51153868 4 2 25551 2.27400000 2337672438 2337672438 -13.00000000
-3.73226500 -0.96383953 0.20201679 13 3 25552 3.86000000 2337672440 2337672440 3.00000000
-2.51297855 -0.64896470 -0.50449896 3 4 25552 2.64400000 2337672442 2337672442 -11.00000000
-3.58057308 -0.92399925 0.32352212 27 5 25553 3.71200000 2337672444 2337672444 5.00000000
-2.98779535 -0.77047145 -0.48870125 2 6 25554 3.12400000 2337672447 2337672447 -9.00000000
-3.65043902 -0.94066983 0.46285978 35 7 25555 3.79800000 2337672449 2337672449 7.00000000
-3.74287748 -0.96379340 -0.47455922 5 8 25556 3.89400000 2337672451 2337672451 -7.00000000
-3.68438625 -0.94873184 0.60258555 98 9 25556 3.85200000 2337672454 2337672454 9.00000000
-4.92996216 -1.26855099 -0.44536585 6 10 25557 5.11000000 2337672456 2337672456 -5.00000000
-3.64309120 -0.93674248 0.73118007 69 11 25558 3.83200000 2337672458 2337672458 11.00000000
-7.22701120 -1.85692561 -0.39105427 3 12 25559 7.47200000 2337672461 2337672461 -3.00000000
-3.65612030 -0.93873209 0.87146038 75 13 25560 3.87400000 2337672463 2337672463 13.00000000
-3.78094220 -0.97007757 -0.06813420 4 14 25561 3.90400000 2337672465 2337672465 -1.00000000
-9.99243641 -2.56376266 2.76418734 30 15 25561 10.68000000 2337672468 2337672468 15.00000000
-1.87752712 -0.47892463 -0.51919103 5 0 25569 2.00600000 2337672488 2337672488 -15.00000000
-3.74370646 -0.95425880 0.06743610 29 1 25570 3.86400000 2337672491 2337672491 1.00000000
-2.14716053 -0.54690528 -0.51153868 4 2 25571 2.27400000 2337672493 2337672493 -13.00000000
-3.71625137 -0.94587922 0.20097007 24 3 25572 3.84000000 2337672495 2337672495 3.00000000
-2.50000787 -0.63631475 -0.50144607 3 4 25572 2.62800000 2337672497 2337672497 -11.00000000
-3.58570743 -0.91198617 0.32369643 27 5 25573 3.71400000 2337672500 2337672500 5.00000000
-3.01344061 -0.76587635 -0.49245569 3 6 25574 3.14800000 2337672502 2337672502 -9.00000000
-3.67294049 -0.93280804 0.46529716 45 7 25575 3.81800000 2337672504 2337672504 7.00000000
-3.72890210 -0.94632775 -0.47236559 5 8 25576 3.87600000 2337672507 2337672507 -7.00000000
-3.66869116 -0.93036580 0.59945685 82 9 25577 3.83200000 2337672509 2337672509 9.00000000
-4.94208527 -1.25329351 -0.44606310 6 10 25577 5.11800000 2337672511 2337672511 -5.00000000
