# .PCD v0.7 - Point Cloud Data file format
VERSION 0.7
FIELDS x y z intensity laser_id azimuth distance_m adjustedtime timestamp vertical_angle
SIZE 4 4 4 1 1 2 8 8 4 8
TYPE F F F U U U F U U F
COUNT 1 1 1 1 1 1 1 1 1 1
WIDTH 533
HEIGHT 1
VIEWPOINT 0 0 0 1 0 0 0
POINTS 533
DATA ascii
3.71531916 7.42903423 -0.72670460 8 10 2657 8.33800000 2337508835 2337508835 -5.00000000
5.22327662 10.43974304 2.26910067 59 11 2658 11.89200000 2337508837 2337508837 11.00000000
6.96230984 13.90947437 -0.81518483 4 12 2659 15.57600000 2337508840 2337508840 -3.00000000
8.51804829 17.00273705 -0.33194476 7 14 2661 19.02000000 2337508844 2337508844 -1.00000000
3.48112440 6.94861555 2.08245802 45 15 2661 8.04600000 2337508846 2337508846 15.00000000
1.02390540 2.03669477 -0.61081296 4 0 2669 2.36000000 2337508867 2337508867 -15.00000000
8.54025364 16.98040390 0.33177024 53 1 2670 19.01000000 2337508869 2337508869 1.00000000
1.21488690 2.41448379 -0.62401420 3 2 2671 2.77400000 2337508872 2337508872 -13.00000000
25.38728714 50.43313599 2.95907497 41 3 2672 56.54000000 2337508874 2337508874 3.00000000
1.45563769 2.89169836 -0.62928808 2 4 2672 3.29800000 2337508876 2337508876 -11.00000000
1.85493827 3.68172884 -0.65295744 2 6 2674 4.17400000 2337508881 2337508881 -9.00000000
8.02083206 15.91304016 2.18804216 40 7 2675 17.95400000 2337508883 2337508883 7.00000000
2.49190426 4.94170094 -0.67954344 4 8 2676 5.57600000 2337508886 2337508886 -7.00000000
5.67629004 11.25666428 1.99672949 40 9 2676 12.76400000 2337508888 2337508888 9.00000000
3.74481821 7.42313528 -0.72740185 8 10 2677 8.34600000 2337508890 2337508890 -5.00000000
5.26764727 10.43722057 2.27253509 62 11 2678 11.91000000 2337508893 2337508893 11.00000000
6.97121143 13.80664062 -0.81057930 4 12 2679 15.48800000 2337508895 2337508895 -3.00000000
4.57245922 9.05193043 2.34129047 59 13 2680 10.40800000 2337508897 2337508897 13.00000000
8.51421165 16.84796715 -0.32950142 7 14 2681 18.88000000 2337508899 2337508899 -1.00000000
3.50308251 6.92891359 2.08038759 45 15 2682 8.03800000 2337508902 2337508902 15.00000000
1.02751362 2.02621627 -0.60874242 4 0 2689 2.35200000 2337508922 2337508922 -15.00000000
8.53252411 16.81852341 0.32918730 53 1 2690 18.86200000 2337508925 2337508925 1.00000000
1.23212743 2.42760563 -0.62851322 3 2 2691 2.79400000 2337508927 2337508927 -13.00000000
25.53088570 50.30236435 2.95635343 41 3 2691 56.48800000 2337508929 2337508929 3.00000000
1.47105587 2.89710259 -0.63157779 4 4 2692 3.31000000 2337508932 2337508932 -11.00000000
17.34509277 34.14472580 3.35061526 10 5 2693 38.44400000 2337508934 2337508934 5.00000000
1.86419880 3.66818738 -0.65170598 2 6 2694 4.16600000 2337508936 2337508936 -9.00000000
8.07992935 15.89202309 2.18901706 42 7 2695 17.96200000 2337508939 2337508939 7.00000000
2.50733876 4.92943382 -0.67905599 4 8 2696 5.57200000 2337508941 2337508941 -7.00000000
5.72378063 11.24810791 1.99891961 40 9 2697 12.77800000 2337508943 2337508943 9.00000000
3.76618910 7.40113974 -0.72653025 8 10 2697 8.33600000 2337508946 2337508946 -5.00000000
5.30761099 10.42576790 2.27406168 62 11 2698 11.91800000 2337508948 2337508948 11.00000000
7.03386593 13.81069756 -0.81225401 4 12 2699 15.52000000 2337508950 2337508950 -3.00000000
4.60314369 9.03417778 2.34084058 55 13 2700 10.40600000 2337508952 2337508952 13.00000000
8.51757336 16.70946884 -0.32737225 7 14 2701 18.75800000 2337508955 2337508955 -1.00000000
3.52724767 6.91664362 2.08038759 45 15 2702 8.03800000 2337508957 2337508957 15.00000000
1.03458011 2.02261734 -0.60874242 4 0 2709 2.35200000 2337508978 2337508978 -15.00000000
8.52194691 16.65334511 0.32653451 52 1 2710 18.71000000 2337508980 2337508980 1.00000000
1.23171341 2.40594363 -0.62401420 3 2 2711 2.77400000 2337508982 2337508982 -13.00000000
8.52538872 16.65290260 0.98046178 9 3 2711 18.73400000 2337508985 2337508985 3.00000000
1.48473954 2.89893961 -0.63310426 4 4 2712 3.31800000 2337508987 2337508987 -11.00000000
13.85177422 27.03382683 2.65755296 38 5 2713 30.49200000 2337508989 2337508989 5.00000000
1.88059616 3.66868925 -0.65295744 2 6 2714 4.17400000 2337508992 2337508992 -9.00000000
8.12991810 15.85312366 2.18755460 40 7 2715 17.95000000 2337508994 2337508994 7.00000000
2.52543664 4.92241812 -0.67929971 4 8 2716 5.57400000 2337508996 2337508996 -7.00000000
5.76104927 11.22906590 1.99891961 37 9 2716 12.77800000 2337508999 2337508999 9.00000000
3.78108335 7.36667776 -0.72443855 21 10 2717 8.31200000 2337509001 2337509001 -5.00000000
5.35114527 10.42114925 2.27711463 65 11 2718 11.93400000 2337509003 2337509003 11.00000000
6.96156406 13.55155563 -0.79843736 4 12 2719 15.25600000 2337509005 2337509005 -3.00000000
4.64177656 9.03192043 2.34443998 55 13 2720 10.42200000 2337509008 2337509008 13.00000000
8.51184273 16.55514717 -0.32492891 7 14 2721 18.61800000 2337509010 2337509010 -1.00000000
3.54960227 6.90085316 2.07935214 42 15 2722 8.03400000 2337509012 2337509012 15.00000000
1.04517710 2.02586102 -0.61081296 4 0 2729 2.36000000 2337509033 2337509033 -15.00000000
8.52316189 16.51332474 0.32437041 52 1 2730 18.58600000 2337509035 2337509035 1.00000000
1.23652792 2.39470339 -0.62221462 3 2 2731 2.76600000 2337509038 2337509038 -13.00000000
8.53123474 16.52188873 0.97449553 31 3 2731 18.62000000 2337509040 2337509040 3.00000000
1.49304760 2.89025092 -0.63234103 4 4 2732 3.31400000 2337509042 2337509042 -11.00000000
1.89157641 3.65859294 -0.65233171 2 6 2734 4.17000000 2337509047 2337509047 -9.00000000
8.17791080 15.81054306 2.18560481 40 7 2735 17.93400000 2337509049 2337509049 7.00000000
2.54534054 4.91886139 -0.68003094 4 8 2736 5.58000000 2337509052 2337509052 -7.00000000
5.80202675 11.21239662 1.99954534 40 9 2736 12.78200000 2337509054 2337509054 9.00000000
3.81685066 7.37289715 -0.72635597 8 10 2737 8.33400000 2337509056 2337509056 -5.00000000
5.40193558 10.43029976 2.28322053 62 11 2738 11.96600000 2337509058 2337509058 11.00000000
6.97758532 13.46687889 -0.79487848 4 12 2739 15.18800000 2337509061 2337509061 -3.00000000
4.67327595 9.01566315 2.34443998 54 13 2740 10.42200000 2337509063 2337509063 13.00000000
8.50882149 16.40817070 -0.32262519 7 14 2741 18.48600000 2337509065 2337509065 -1.00000000
3.57366920 6.88842058 2.07935214 45 15 2742 8.03400000 2337509068 2337509068 15.00000000
1.05634642 2.03095317 -0.61340111 3 0 2748 2.37000000 2337509088 2337509088 -15.00000000
8.51695442 16.36789131 0.32206669 52 1 2749 18.45400000 2337509091 2337509091 1.00000000
1.24446225 2.39058971 -0.62221462 3 2 2750 2.76600000 2337509093 2337509093 -13.00000000
8.52326488 16.37303925 0.96737784 43 3 2750 18.48400000 2337509095 2337509095 3.00000000
1.50625110 2.89224887 -0.63386750 4 4 2751 3.32200000 2337509098 2337509098 -11.00000000
13.86147213 26.60496140 2.62460804 28 5 2752 30.11400000 2337509100 2337509100 5.00000000
1.90552437 3.65580344 -0.65295744 2 6 2753 4.17400000 2337509102 2337509102 -9.00000000
8.22478771 15.77277565 2.18414235 44 7 2754 17.92200000 2337509104 2337509104 7.00000000
2.55704737 4.90159369 -0.67881227 4 8 2755 5.57000000 2337509107 2337509107 -7.00000000
5.83186722 11.17908287 1.99704242 43 9 2755 12.76600000 2337509109 2337509109 9.00000000
3.85141921 7.37962914 -0.72827339 8 10 2756 8.35600000 2337509111 2337509111 -5.00000000
5.44830656 10.43495274 2.28818154 65 11 2757 11.99200000 2337509114 2337509114 11.00000000
6.94452953 13.29496098 -0.78608608 4 12 2758 15.02000000 2337509116 2337509116 -3.00000000
4.70043945 8.99493504 2.34309030 59 13 2759 10.41600000 2337509118 2337509118 13.00000000
8.50481987 16.26821899 -0.32042620 7 14 2760 18.36000000 2337509121 2337509121 -1.00000000
3.59708214 6.88058376 2.08038759 45 15 2760 8.03800000 2337509123 2337509123 15.00000000
1.05894232 2.01869965 -0.61081296 4 0 2768 2.36000000 2337509144 2337509144 -15.00000000
8.51084900 16.21765518 0.31969318 52 1 2769 18.31800000 2337509146 2337509146 1.00000000
1.25823450 2.39658356 -0.62491405 3 2 2770 2.77800000 2337509148 2337509148 -13.00000000
8.52466011 16.23708534 0.96109748 51 3 2770 18.36400000 2337509151 2337509151 3.00000000
1.51816356 2.89044976 -0.63463074 4 4 2771 3.32600000 2337509153 2337509153 -11.00000000
13.97742558 26.60050774 2.62896585 38 5 2772 30.16400000 2337509155 2337509155 5.00000000
1.91275907 3.63863873 -0.65108025 2 6 2773 4.16200000 2337509157 2337509157 -9.00000000
8.27794743 15.74045658 2.18365479 42 7 2774 17.91800000 2337509160 2337509160 7.00000000
2.57968736 4.90317917 -0.68027467 4 8 2775 5.58200000 2337509162 2337509162 -7.00000000
5.86901474 11.15516186 1.99641669 43 9 2775 12.76200000 2337509164 2337509164 9.00000000
3.88179541 7.37495565 -0.72914493 8 10 2776 8.36600000 2337509167 2337509167 -5.00000000
5.49841881 10.44192886 2.29390574 62 11 2777 12.02200000 2337509169 2337509169 11.00000000
8.51195049 16.15801811 -0.95711994 5 12 2778 18.28800000 2337509171 2337509171 -3.00000000
4.73180914 8.97847271 2.34309030 57 13 2779 10.41600000 2337509174 2337509174 13.00000000
8.50093365 16.12345505 -0.31815737 7 14 2780 18.23000000 2337509176 2337509176 -1.00000000
3.61867142 6.86051846 2.07831693 45 15 2781 8.03000000 2337509178 2337509178 15.00000000
1.06452680 2.01138997 -0.60977769 4 0 2789 2.35600000 2337509199 2337509199 -15.00000000
8.51596165 16.08385277 0.31766871 46 1 2790 18.20200000 2337509201 2337509201 1.00000000
1.26883423 2.39539981 -0.62581384 3 2 2791 2.78200000 2337509204 2337509204 -13.00000000
8.52147961 16.08069801 0.95377046 48 3 2792 18.22400000 2337509206 2337509206 3.00000000
1.52139330 2.87098789 -0.63157779 4 4 2792 3.31000000 2337509208 2337509208 -11.00000000
14.09722519 26.59134674 2.63314939 38 5 2793 30.21200000 2337509210 2337509210 5.00000000
1.93348694 3.64556456 -0.65358317 2 6 2794 4.17800000 2337509213 2337509213 -9.00000000
8.32814026 15.69598198 2.18170500 42 7 2795 17.90200000 2337509215 2337509215 7.00000000
2.59112597 4.88141727 -0.67856848 4 8 2796 5.56800000 2337509217 2337509217 -7.00000000
5.90986061 11.13357544 1.99641669 43 9 2796 12.76200000 2337509220 2337509220 9.00000000
3.89571762 7.33604336 -0.72670460 8 10 2797 8.33800000 2337509222 2337509222 -5.00000000
5.54033804 10.42864037 2.29543233 62 11 2798 12.03000000 2337509224 2337509224 11.00000000
8.50924969 16.01031303 -0.95021164 5 12 2799 18.15600000 2337509227 2337509227 -3.00000000
4.76651478 8.96451092 2.34399009 59 13 2800 10.42000000 2337509229 2337509229 13.00000000
8.49141693 15.96331024 -0.31560931 7 14 2801 18.08400000 2337509231 2337509231 -1.00000000
3.64078259 6.84443426 2.07728171 45 15 2801 8.02600000 2337509234 2337509234 15.00000000
1.07336056 2.01107049 -0.61081296 4 0 2809 2.36000000 2337509254 2337509254 -15.00000000
8.50706291 15.93231297 0.31526026 42 1 2810 18.06400000 2337509257 2337509257 1.00000000
1.27535164 2.38751841 -0.62491405 3 2 2811 2.77800000 2337509259 2337509259 -13.00000000
8.51919651 15.94164181 0.94728082 43 3 2812 18.10000000 2337509261 2337509261 3.00000000
1.54065883 2.88297510 -0.63539398 4 4 2812 3.33000000 2337509263 2337509263 -11.00000000
14.22001934 26.59820175 2.63872719 38 5 2813 30.27600000 2337509266 2337509266 5.00000000
1.94061065 3.62834191 -0.65170598 2 6 2814 4.16600000 2337509268 2337509268 -9.00000000
8.37538624 15.65281391 2.17975497 44 7 2815 17.88600000 2337509270 2337509270 7.00000000
2.61283374 4.88109350 -0.67978722 4 8 2816 5.57800000 2337509273 2337509273 -7.00000000
5.95249271 11.11532307 1.99704242 47 9 2817 12.76600000 2337509275 2337509275 9.00000000
3.92882609 7.33645105 -0.72809905 8 10 2817 8.35400000 2337509277 2337509277 -5.00000000
5.58226967 10.41962147 2.29772186 62 11 2818 12.04200000 2337509280 2337509280 11.00000000
8.50281334 15.86432838 -0.94330329 5 12 2819 18.02400000 2337509282 2337509282 -3.00000000
4.79961967 8.95125294 2.34488988 56 13 2820 10.42400000 2337509284 2337509284 13.00000000
8.49887943 15.84370232 -0.31382918 7 14 2821 17.98200000 2337509287 2337509287 -1.00000000
3.66767120 6.83444834 2.07831693 45 15 2822 8.03000000 2337509289 2337509289 15.00000000
1.08368480 2.01430511 -0.61288351 4 0 2828 2.36800000 2337509310 2337509310 -15.00000000
8.50961971 15.81068993 0.31341031 31 1 2829 17.95800000 2337509312 2337509312 1.00000000
1.27771878 2.37298131 -0.62221462 3 2 2830 2.76600000 2337509314 2337509314 -13.00000000
8.51802444 15.81307602 0.94131452 51 3 2831 17.98600000 2337509316 2337509316 3.00000000
1.55207276 2.88130713 -0.63615721 4 4 2831 3.33400000 2337509319 2337509319 -11.00000000
14.33366394 26.59825706 2.64343357 38 5 2832 30.33000000 2337509321 2337509321 5.00000000
1.95263195 3.62188673 -0.65170598 2 6 2833 4.16600000 2337509323 2337509323 -9.00000000
8.41970825 15.61097622 2.17780519 42 7 2834 17.87000000 2337509326 2337509326 7.00000000
2.62523508 4.86541414 -0.67881227 4 8 2835 5.57000000 2337509328 2337509328 -7.00000000
5.99301147 11.10699844 1.99891961 43 9 2835 12.77800000 2337509330 2337509330 9.00000000
3.96543622 7.34617472 -0.73036510 4 10 2836 8.38000000 2337509333 2337509333 -5.00000000
5.62238884 10.41141701 2.30001163 62 11 2837 12.05400000 2337509335 2337509335 11.00000000
8.47942829 15.69546700 -0.93492955 5 12 2838 17.86400000 2337509337 2337509337 -3.00000000
4.82371712 8.92500114 2.34219027 56 13 2839 10.41200000 2337509340 2337509340 13.00000000
8.49430561 15.70988941 -0.31173488 7 14 2840 17.86200000 2337509342 2337509342 -1.00000000
3.69096184 6.82629108 2.07935214 45 15 2840 8.03400000 2337509344 2337509344 15.00000000
1.09255183 2.01390624 -0.61391878 4 0 2848 2.37200000 2337509365 2337509365 -15.00000000
8.50561810 15.67192173 0.31124622 15 1 2849 17.83400000 2337509367 2337509367 1.00000000
1.28971362 2.37535691 -0.62401420 3 2 2850 2.77400000 2337509369 2337509369 -13.00000000
8.51120472 15.66916752 0.93451083 44 3 2851 17.85600000 2337509372 2337509372 3.00000000
1.56774342 2.88622284 -0.63844693 4 4 2851 3.34600000 2337509374 2337509374 -11.00000000
14.43783760 26.56906700 2.64552546 9 5 2852 30.35400000 2337509376 2337509376 5.00000000
1.96714985 3.61851978 -0.65233171 2 6 2853 4.17000000 2337509379 2337509379 -9.00000000
8.46466541 15.56405258 2.17536783 44 7 2854 17.85000000 2337509381 2337509381 7.00000000
2.65074110 4.87191391 -0.68100590 4 8 2855 5.58800000 2337509383 2337509383 -7.00000000
6.03179169 11.08148861 1.99829388 47 9 2856 12.77400000 2337509386 2337509386 9.00000000
3.98248243 7.31653833 -0.72879630 4 10 2856 8.36200000 2337509388 2337509388 -5.00000000
5.66996431 10.41241837 2.30459094 59 11 2857 12.07800000 2337509390 2337509390 11.00000000
8.49594593 15.59561729 -0.93074262 5 12 2858 17.78400000 2337509392 2337509392 -3.00000000
4.85484171 8.90810871 2.34219027 57 13 2859 10.41200000 2337509395 2337509395 13.00000000
8.48399925 15.56075573 -0.30936137 7 14 2860 17.72600000 2337509397 2337509397 -1.00000000
3.71688175 6.81441307 2.07986975 45 15 2861 8.03600000 2337509399 2337509399 15.00000000
1.09215796 1.99652147 -0.60977769 4 0 2868 2.35600000 2337509420 2337509420 -15.00000000
8.50459194 15.54039288 0.30922174 15 1 2869 17.71800000 2337509422 2337509422 1.00000000
1.30735564 2.38793397 -0.62851322 3 2 2870 2.79400000 2337509425 2337509425 -13.00000000
8.50636387 15.53075600 0.92802119 41 3 2871 17.73200000 2337509427 2337509427 3.00000000
1.55706048 2.84285116 -0.63005131 2 4 2871 3.30200000 2337509429 2337509429 -11.00000000
18.26914787 33.34164810 3.32621169 21 5 2872 38.16400000 2337509432 2337509432 5.00000000
1.98261738 3.61682773 -0.65327030 2 6 2873 4.17600000 2337509434 2337509434 -9.00000000
8.51703358 15.53092861 2.17488027 42 7 2874 17.84600000 2337509436 2337509436 7.00000000
2.66391182 4.85566998 -0.68003094 4 8 2875 5.58000000 2337509439 2337509439 -7.00000000
6.06280518 11.05103397 1.99641669 47 9 2875 12.76200000 2337509441 2337509441 9.00000000
4.00703907 7.30084562 -0.72862202 4 10 2876 8.36000000 2337509443 2337509443 -5.00000000
5.70911026 10.39772511 2.30573583 56 11 2877 12.08400000 2337509445 2337509445 11.00000000
8.48109913 15.43982697 -0.92320627 5 12 2878 17.64000000 2337509448 2337509448 -3.00000000
4.88590717 8.89110756 2.34219027 59 13 2879 10.41200000 2337509450 2337509450 13.00000000
8.48046303 15.42590523 -0.30726707 7 14 2880 17.60600000 2337509452 2337509452 -1.00000000
3.74038935 6.80374289 2.08038759 40 15 2880 8.03800000 2337509455 2337509455 15.00000000
1.09725440 1.98931384 -0.60874242 4 0 2888 2.35200000 2337509475 2337509475 -15.00000000
8.49695492 15.39855862 0.30698782 11 1 2889 17.59000000 2337509478 2337509478 1.00000000
1.30814874 2.36970735 -0.62491405 3 2 2890 2.77800000 2337509480 2337509480 -13.00000000
8.51224709 15.41355038 0.92278761 46 3 2891 17.63200000 2337509482 2337509482 3.00000000
1.57456720 2.85114741 -0.63310426 2 4 2891 3.31800000 2337509485 2337509485 -11.00000000
18.35169792 33.21663666 3.32011080 42 5 2892 38.09400000 2337509487 2337509487 5.00000000
1.98854136 3.59778285 -0.65108025 2 6 2893 4.16200000 2337509489 2337509489 -9.00000000
8.55678558 15.47504616 2.17122412 46 7 2894 17.81600000 2337509492 2337509492 7.00000000
2.69525814 4.87239742 -0.68368703 6 8 2895 5.61000000 2337509494 2337509494 -7.00000000
6.10613775 11.03392410 1.99735522 50 9 2896 12.76800000 2337509496 2337509496 9.00000000
4.02960539 7.28158426 -0.72809905 8 10 2896 8.35400000 2337509498 2337509498 -5.00000000
5.74822330 10.38288689 2.30688071 53 11 2897 12.09000000 2337509501 2337509501 11.00000000
8.48752689 15.32451630 -0.91807735 5 12 2898 17.54200000 2337509503 2337509503 -3.00000000
4.92069101 8.88081646 2.34399009 56 13 2899 10.42000000 2337509505 2337509505 13.00000000
8.47899818 15.29651737 -0.30527750 7 14 2900 17.49200000 2337509508 2337509508 -1.00000000
3.75968003 6.77985144 2.07728171 42 15 2901 8.02600000 2337509510 2337509510 15.00000000
1.10725200 1.99261153 -0.61081296 4 0 2906 2.36000000 2337509531 2337509531 -15.00000000
8.48796368 15.26866913 0.30492845 11 1 2907 17.47200000 2337509533 2337509533 1.00000000
1.31369269 2.36217999 -0.62401420 3 2 2908 2.77400000 2337509535 2337509535 -13.00000000
8.49848175 15.27503204 0.91608858 41 3 2909 17.50400000 2337509538 2337509538 3.00000000
1.58351660 2.84618664 -0.63310426 2 4 2909 3.31800000 2337509540 2337509540 -11.00000000
18.44530296 33.13966751 3.31819344 42 5 2910 38.07200000 2337509542 2337509542 5.00000000
2.00560021 3.60187316 -0.65295744 2 6 2911 4.17400000 2337509545 2337509545 -9.00000000
8.56961727 15.38392353 2.16220593 52 7 2912 17.74200000 2337509547 2337509547 7.00000000
2.70668674 4.85696983 -0.68271208 6 8 2913 5.60200000 2337509549 2337509549 -7.00000000
6.14365721 11.02438545 1.99891961 47 9 2913 12.77800000 2337509551 2337509551 9.00000000
4.05828238 7.27933025 -0.72914493 4 10 2914 8.36600000 2337509554 2337509554 -5.00000000
5.77698851 10.35791874 2.30535436 50 11 2915 12.08200000 2337509556 2337509556 11.00000000
8.46847916 15.17743111 -0.91085500 5 12 2916 17.40400000 2337509558 2337509558 -3.00000000
4.94666719 8.86191082 2.34309030 57 13 2917 10.41600000 2337509561 2337509561 13.00000000
8.47631359 15.17901707 -0.30346245 7 14 2918 17.38800000 2337509563 2337509563 -1.00000000
3.78166342 6.77203941 2.07831693 42 15 2918 8.03000000 2337509565 2337509565 15.00000000
1.11797774 1.99547577 -0.61288351 4 0 2926 2.36800000 2337509586 2337509586 -15.00000000
8.48450279 15.13777351 0.30290398 11 1 2927 17.35600000 2337509588 2337509588 1.00000000
1.32002401 2.35418034 -0.62311441 3 2 2928 2.77000000 2337509591 2337509591 -13.00000000
8.50094032 15.15469360 0.91064566 49 3 2929 17.40000000 2337509593 2337509593 3.00000000
1.59920490 2.85091543 -0.63539398 2 4 2929 3.33000000 2337509595 2337509595 -11.00000000
18.55306816 33.06118011 3.31679893 42 5 2930 38.05600000 2337509598 2337509598 5.00000000
2.01429296 3.58796024 -0.65170598 2 6 2931 4.16600000 2337509600 2337509600 -9.00000000
8.56396770 15.24833775 2.14733791 60 7 2932 17.62000000 2337509602 2337509602 7.00000000
2.71973467 4.84056950 -0.68173712 6 8 2933 5.59400000 2337509604 2337509604 -7.00000000
6.19176579 11.01556969 2.00142264 43 9 2934 12.79400000 2337509607 2337509607 9.00000000
4.09050083 7.27727747 -0.73036510 8 10 2934 8.38000000 2337509609 2337509609 -5.00000000
5.81310892 10.33768940 2.30535436 53 11 2935 12.08200000 2337509611 2337509611 11.00000000
8.46265221 15.04333496 -0.90457469 10 12 2936 17.28400000 2337509614 2337509614 -3.00000000
4.97565937 8.84119320 2.34219027 57 13 2937 10.41200000 2337509616 2337509616 13.00000000
8.46744061 15.03955936 -0.30126345 7 14 2938 17.26200000 2337509618 2337509618 -1.00000000
3.81025100 6.76486635 2.08038759 40 15 2939 8.03800000 2337509621 2337509621 15.00000000
1.12493634 1.99156117 -0.61288351 4 0 2946 2.36800000 2337509641 2337509641 -15.00000000
8.48416805 15.01405334 0.30101910 11 1 2947 17.24800000 2337509644 2337509644 1.00000000
1.33015168 2.35295105 -0.62401420 3 2 2948 2.77400000 2337509646 2337509646 -13.00000000
8.49184704 15.01540279 0.90405130 44 3 2949 17.27400000 2337509648 2337509648 3.00000000
1.59948218 2.82822680 -0.63157779 4 4 2949 3.31000000 2337509651 2337509651 -11.00000000
18.66149330 32.98407745 3.31557870 31 5 2950 38.04200000 2337509653 2337509653 5.00000000
2.03167009 3.58950281 -0.65327030 2 6 2951 4.17600000 2337509655 2337509655 -9.00000000
8.55943394 15.11643410 2.13295722 50 7 2952 17.50200000 2337509657 2337509657 7.00000000
2.73270106 4.82413769 -0.68076217 6 8 2953 5.58600000 2337509660 2337509660 -7.00000000
6.22436619 10.98810196 2.00017118 43 9 2953 12.78600000 2337509662 2337509662 9.00000000
4.10998440 7.25255442 -0.72931927 8 10 2954 8.36800000 2337509664 2337509664 -5.00000000
5.84915876 10.31733513 2.30535436 53 11 2955 12.08200000 2337509667 2337509667 11.00000000
8.46683121 14.92857552 -0.89944577 10 12 2956 17.18600000 2337509669 2337509669 -3.00000000
5.00456715 8.82038116 2.34129047 59 13 2957 10.40800000 2337509671 2337509671 13.00000000
8.47151756 14.92469597 -0.29955310 7 14 2958 17.16400000 2337509674 2337509674 -1.00000000
3.83361673 6.75387430 2.08090520 40 15 2958 8.04000000 2337509676 2337509676 15.00000000
1.12996948 1.98426485 -0.61184824 4 0 2966 2.36400000 2337509697 2337509697 -15.00000000
8.48307228 14.89052010 0.29913425 11 1 2967 17.14000000 2337509699 2337509699 1.00000000
1.34414649 2.35845208 -0.62671363 3 2 2968 2.78600000 2337509701 2337509701 -13.00000000
8.48188496 14.87635994 0.89745700 44 3 2969 17.14800000 2337509704 2337509704 3.00000000
1.60934472 2.82262635 -0.63157779 4 4 2969 3.31000000 2337509706 2337509706 -11.00000000
18.73505592 32.84605026 3.30825758 10 5 2970 37.95800000 2337509708 2337509708 5.00000000
2.05593562 3.60297751 -0.65702474 2 6 2971 4.20000000 2337509710 2337509710 -9.00000000
8.55998898 14.99509335 2.12003899 45 7 2972 17.39600000 2337509713 2337509713 7.00000000
2.75247717 4.81974077 -0.68149334 6 8 2973 5.59200000 2337509715 2337509715 -7.00000000
6.25680590 10.95601559 1.99829388 43 9 2973 12.77400000 2337509717 2337509717 9.00000000
4.13725233 7.24162340 -0.72966790 8 10 2974 8.37200000 2337509720 2337509720 -5.00000000
5.88513756 10.29685497 2.30535436 53 11 2975 12.08200000 2337509722 2337509722 11.00000000
8.46436405 14.80356789 -0.89368880 10 12 2976 17.07600000 2337509724 2337509724 -3.00000000
5.03532553 8.80285835 2.34129047 56 13 2977 10.40800000 2337509727 2337509727 13.00000000
8.45900536 14.78221893 -0.29728431 7 14 2978 17.03400000 2337509729 2337509729 -1.00000000
3.84949279 6.72703743 2.07676411 40 15 2978 8.02400000 2337509731 2337509731 15.00000000
1.13304162 1.97360682 -0.60977769 4 0 2986 2.35600000 2337509752 2337509752 -15.00000000
8.47126007 14.74983883 0.29690033 10 1 2987 17.01200000 2337509754 2337509754 1.00000000
1.35237074 2.35374570 -0.62671363 3 2 2988 2.78600000 2337509757 2337509757 -13.00000000
8.48399639 14.76008320 0.89222336 47 3 2989 17.04800000 2337509759 2337509759 3.00000000
1.62701464 2.83060837 -0.63463074 2 4 2989 3.32600000 2337509761 2337509761 -11.00000000
2.06160474 3.58379316 -0.65483469 2 6 2991 4.18600000 2337509766 2337509766 -9.00000000
8.55980206 14.87393475 2.10712099 48 7 2992 17.29000000 2337509768 2337509768 7.00000000
2.77225590 4.81526423 -0.68222457 6 8 2993 5.59800000 2337509770 2337509770 -7.00000000
6.30480719 10.94670391 2.00079679 40 9 2994 12.79000000 2337509773 2337509773 9.00000000
4.15554428 7.21505213 -0.72844768 4 10 2994 8.35800000 2337509775 2337509775 -5.00000000
5.91222286 10.26093960 2.30191970 46 11 2995 12.06400000 2337509777 2337509777 11.00000000
8.46511841 14.68568325 -0.88835055 5 12 2996 16.97400000 2337509780 2337509780 -3.00000000
5.07186365 8.79535770 2.34399009 55 13 2997 10.42000000 2337509782 2337509782 13.00000000
8.46358967 14.67119122 -0.29564378 7 14 2998 16.94000000 2337509784 2337509784 -1.00000000
3.87005520 6.70853901 2.07521105 40 15 2998 8.01800000 2337509786 2337509786 15.00000000
1.13798845 1.96629572 -0.60874242 4 0 3006 2.35200000 2337509807 2337509807 -15.00000000
8.47059250 14.63018990 0.29508528 10 1 3007 16.90800000 2337509810 2337509810 1.00000000
1.35667181 2.34226561 -0.62491405 3 2 3008 2.77800000 2337509812 2337509812 -13.00000000
8.47738934 14.63014793 0.88615239 44 3 3009 16.93200000 2337509814 2337509814 3.00000000
1.63885403 2.82830906 -0.63539398 2 4 3009 3.33000000 2337509816 2337509816 -11.00000000
8.59915543 14.83432198 1.50012469 5 5 3010 17.21200000 2337509819 2337509819 5.00000000
2.07013822 3.56973958 -0.65358317 2 6 3011 4.17800000 2337509821 2337509821 -9.00000000
8.54791641 14.73407269 2.09152174 39 7 3012 17.16200000 2337509823 2337509823 7.00000000
2.79104018 4.80899191 -0.68271208 6 8 3013 5.60200000 2337509826 2337509826 -7.00000000
6.34496355 10.92804527 2.00142264 40 9 3014 12.79400000 2337509828 2337509828 9.00000000
4.17670250 7.19361067 -0.72775048 4 10 3014 8.35000000 2337509830 2337509830 -5.00000000
5.94701815 10.23854160 2.30153799 50 11 3015 12.06200000 2337509833 2337509833 11.00000000
8.45612240 14.55243206 -0.88207018 10 12 3016 16.85400000 2337509835 2337509835 -3.00000000
5.09763718 8.76917553 2.34174037 53 13 3017 10.41000000 2337509837 2337509837 13.00000000
8.46448517 14.55512619 -0.29389852 7 14 3018 16.84000000 2337509839 2337509839 -1.00000000
3.89461708 6.69430971 2.07521105 42 15 3019 8.01800000 2337509842 2337509842 15.00000000
1.15458024 1.97899771 -0.61391878 4 0 3026 2.37200000 2337509863 2337509863 -15.00000000
8.46516228 14.50381756 0.29313061 10 1 3027 16.79600000 2337509865 2337509865 1.00000000
1.36287427 2.33414984 -0.62401420 3 2 3028 2.77400000 2337509867 2337509867 -13.00000000
8.48206711 14.52113533 0.88133752 49 3 3029 16.84000000 2337509869 2337509869 3.00000000
1.64871669 2.82257128 -0.63539398 2 4 3029 3.33000000 2337509872 2337509872 -11.00000000
19.13126183 32.73923111 3.31749630 31 5 3030 38.06400000 2337509874 2337509874 5.00000000
2.07660460 3.55225968 -0.65170598 2 6 3031 4.16600000 2337509876 2337509876 -9.00000000
8.53515911 14.59447670 2.07592249 52 7 3032 17.03400000 2337509879 2337509879 7.00000000
2.80580497 4.79579306 -0.68222457 6 8 3033 5.59800000 2337509881 2337509881 -7.00000000
6.38107538 10.90242100 2.00079679 40 9 3034 12.79000000 2337509883 2337509883 9.00000000
4.21789026 7.20649958 -0.73053944 8 10 3034 8.38200000 2337509886 2337509886 -5.00000000
5.98172951 10.21602631 2.30115652 50 11 3035 12.06000000 2337509888 2337509888 11.00000000
8.45134640 14.42804050 -0.87631327 9 12 3036 16.74400000 2337509890 2337509890 -3.00000000
5.12920141 8.75300980 2.34219027 56 13 3037 10.41200000 2337509892 2337509892 13.00000000
8.46973228 14.44786072 -0.29232782 7 14 3038 16.75000000 2337509895 2337509895 -1.00000000
3.91679502 6.68135786 2.07521105 42 15 3038 8.01800000 2337509897 2337509897 15.00000000
1.16148126 1.97495544 -0.61391878 4 0 3046 2.37200000 2337509918 2337509918 -15.00000000
8.47112179 14.39834499 0.29159480 10 1 3047 16.70800000 2337509920 2337509920 1.00000000
1.37299061 2.33273721 -0.62491405 3 2 3048 2.77800000 2337509922 2337509922 -13.00000000
8.47494030 14.39333820 0.87537122 47 3 3049 16.72600000 2337509925 2337509925 3.00000000
1.66652822 2.83033299 -0.63844693 2 4 3049 3.34600000 2337509927 2337509927 -11.00000000
19.20194435 32.59843063 3.31000090 42 5 3050 37.97800000 2337509929 2337509929 5.00000000
2.09701467 3.55860424 -0.65420896 2 6 3051 4.18200000 2337509932 2337509932 -9.00000000
8.54169464 14.48935223 2.06519794 41 7 3052 16.94600000 2337509934 2337509934 7.00000000
2.81647778 4.77571058 -0.68076217 6 8 3053 5.58600000 2337509936 2337509936 -7.00000000
6.41507769 10.87327576 1.99954534 43 9 3054 12.78200000 2337509939 2337509939 9.00000000
4.23897028 7.18486881 -0.72984219 4 10 3054 8.37400000 2337509941 2337509941 -5.00000000
6.02034712 10.20015621 2.30230141 50 11 3055 12.06600000 2337509943 2337509943 11.00000000
8.44580650 14.30386066 -0.87055629 4 12 3056 16.63400000 2337509945 2337509945 -3.00000000
5.15774202 8.73169613 2.34129047 57 13 3057 10.40800000 2337509948 2337509948 13.00000000
8.45500374 14.30802727 -0.29009390 7 14 3058 16.62200000 2337509950 2337509950 -1.00000000
3.94304180 6.67263412 2.07676411 22 15 3058 8.02400000 2337509952 2337509952 15.00000000
1.16408467 1.96444511 -0.61184824 4 0 3065 2.36400000 2337509973 2337509973 -15.00000000
8.46579552 14.28072643 0.28977975 10 1 3066 16.60400000 2337509975 2337509975 1.00000000
1.38668299 2.33822823 -0.62761343 3 2 3067 2.79000000 2337509978 2337509978 -13.00000000
8.46204567 14.26872349 0.86940491 45 3 3067 16.61200000 2337509980 2337509980 3.00000000
1.66789091 2.81128335 -0.63539398 2 4 3068 3.33000000 2337509982 2337509982 -11.00000000
19.30383682 32.52429581 3.30895495 42 5 3069 37.96600000 2337509985 2337509985 5.00000000
2.11182952 3.55672622 -0.65514755 2 6 3070 4.18800000 2337509987 2337509987 -9.00000000
8.53697968 14.37219810 2.05252337 50 7 3071 16.84200000 2337509989 2337509989 7.00000000
2.82824278 4.75951862 -0.67978722 6 8 3072 5.57800000 2337509991 2337509991 -7.00000000
6.44920540 10.85306835 1.99954534 40 9 3072 12.78200000 2337509994 2337509994 9.00000000
4.26379108 7.17248487 -0.73001653 8 10 3073 8.37600000 2337509996 2337509996 -5.00000000
6.05313540 10.17844868 2.30191970 43 11 3074 12.06400000 2337509998 2337509998 11.00000000
8.45745182 14.21569920 -0.86689276 9 12 3075 16.56400000 2337510001 2337510001 -3.00000000
5.18666887 8.71454430 2.34129047 56 13 3076 10.40800000 2337510003 2337510003 13.00000000
8.44409180 14.18197346 -0.28810433 7 14 3077 16.50800000 2337510005 2337510005 -1.00000000
4.50279427 7.56250811 2.35835910 40 15 3077 9.11200000 2337510008 2337510008 15.00000000
1.16895354 1.95705271 -0.61081296 4 0 3085 2.36000000 2337510028 2337510028 -15.00000000
8.45917797 14.15667629 0.28786001 10 1 3086 16.49400000 2337510031 2337510031 1.00000000
1.39483643 2.33337355 -0.62761343 3 2 3087 2.79000000 2337510033 2337510033 -13.00000000
8.46508312 14.15533352 0.86438066 45 3 3088 16.51600000 2337510035 2337510035 3.00000000
1.67769396 2.80544424 -0.63539398 2 4 3088 3.33000000 2337510038 2337510038 -11.00000000
19.40395355 32.43448639 3.30668879 42 5 3089 37.94000000 2337510040 2337510040 5.00000000
2.11915970 3.54085803 -0.65358317 2 6 3090 4.17800000 2337510042 2337510042 -9.00000000
8.53509045 14.25545025 2.04009271 42 7 3091 16.74000000 2337510044 2337510044 7.00000000
2.85299969 4.76324081 -0.68173712 6 8 3092 5.59400000 2337510047 2337510047 -7.00000000
6.48487949 10.82258034 1.99829388 43 9 3093 12.77400000 2337510049 2337510049 9.00000000
4.29494619 7.16781235 -0.73106235 8 10 3093 8.38800000 2337510051 2337510051 -5.00000000
6.08459044 10.15052128 2.30039334 50 11 3094 12.05600000 2337510054 2337510054 11.00000000
8.43820190 14.07132721 -0.85987973 9 12 3095 16.43000000 2337510056 2337510056 -3.00000000
5.21906185 8.69972897 2.34219027 56 13 3096 10.41200000 2337510058 2337510058 13.00000000
8.44929695 14.07868385 -0.28660342 7 14 3097 16.42200000 2337510061 2337510061 -1.00000000
4.52153254 7.53104734 2.35370040 40 15 3098 9.09400000 2337510063 2337510063 15.00000000
1.17577779 1.95296037 -0.61081296 4 0 3105 2.36000000 2337510084 2337510084 -15.00000000
8.45592499 14.03969955 0.28607985 10 1 3106 16.39200000 2337510086 2337510086 1.00000000
1.39895010 2.32181382 -0.62581384 3 2 3107 2.78200000 2337510088 2337510088 -13.00000000
8.46662426 14.05191231 0.85977507 45 3 3107 16.42800000 2337510091 2337510091 3.00000000
1.68747663 2.79957080 -0.63539398 2 4 3108 3.33000000 2337510093 2337510093 -11.00000000
2.12946606 3.53005624 -0.65295744 2 6 3110 4.17400000 2337510097 2337510097 -9.00000000
8.52531052 14.12699413 2.02595592 42 7 3111 16.62400000 2337510100 2337510100 7.00000000
2.87576485 4.76344967 -0.68319952 6 8 3112 5.60600000 2337510102 2337510102 -7.00000000
6.52670240 10.80664158 1.99954534 43 9 3113 12.78200000 2337510104 2337510104 9.00000000
4.31994009 7.15277624 -0.73106235 8 10 3113 8.38800000 2337510107 2337510107 -5.00000000
6.11592436 10.12249851 2.29886675 43 11 3114 12.04800000 2337510109 2337510109 11.00000000
8.44594288 13.97341537 -0.85569286 9 12 3115 16.35000000 2337510111 2337510111 -3.00000000
5.24738073 8.67812252 2.34129047 56 13 3116 10.40800000 2337510114 2337510114 13.00000000
8.44974422 13.96868706 -0.28496289 7 14 3117 16.32800000 2337510116 2337510116 -1.00000000
4.54748154 7.51766491 2.35421801 40 15 3117 9.09600000 2337510118 2337510118 15.00000000
1.18258774 1.94884419 -0.61081296 4 0 3125 2.36000000 2337510139 2337510139 -15.00000000
8.45403481 13.92633724 0.28436950 10 1 3126 16.29400000 2337510141 2337510141 1.00000000
1.40300012 2.31025386 -0.62401420 3 2 3127 2.77400000 2337510143 2337510143 -13.00000000
8.45963955 13.93008900 0.85412282 47 3 3127 16.32000000 2337510146 2337510146 3.00000000
1.71354842 2.82050943 -0.64149982 2 4 3128 3.36200000 2337510148 2337510148 -11.00000000
19.62370491 32.28801727 3.30564308 21 5 3129 37.92800000 2337510150 2337510150 5.00000000
2.14280152 3.52428937 -0.65327030 2 6 3130 4.17600000 2337510153 2337510153 -9.00000000
8.52299213 14.01234913 2.01376891 42 7 3131 16.52400000 2337510155 2337510155 7.00000000
2.89650226 4.76016569 -0.68417448 9 8 3132 5.61400000 2337510157 2337510157 -7.00000000
6.56849337 10.79054260 2.00079679 40 9 3133 12.79000000 2337510160 2337510160 9.00000000
4.35731363 7.15807581 -0.73315412 8 10 3133 8.41200000 2337510162 2337510162 -5.00000000
6.14917898 10.09773540 2.29810357 46 11 3134 12.04400000 2337510164 2337510164 11.00000000
8.43232155 13.84150791 -0.84941256 9 12 3135 16.23000000 2337510167 2337510167 -3.00000000
5.27662706 8.65808868 2.34084058 54 13 3136 10.40600000 2337510169 2337510169 13.00000000
8.43807602 13.84007835 -0.28293842 7 14 3137 16.21200000 2337510171 2337510171 -1.00000000
4.58073473 7.51329184 2.35784149 40 15 3137 9.11000000 2337510173 2337510173 15.00000000
1.19341505 1.95129657 -0.61288351 4 0 3145 2.36800000 2337510194 2337510194 -15.00000000
8.45354366 13.81657219 0.28272897 10 1 3146 16.20000000 2337510196 2337510196 1.00000000
1.41614258 2.31365299 -0.62626374 3 2 3147 2.78400000 2337510199 2337510199 -13.00000000
8.46161938 13.81893349 0.84920323 47 3 3148 16.22600000 2337510201 2337510201 3.00000000
1.70697999 2.78772187 -0.63539398 2 4 3148 3.33000000 2337510203 2337510203 -11.00000000
9.58298779 15.64414215 1.60506010 16 5 3149 18.41600000 2337510206 2337510206 5.00000000
2.15509057 3.51678801 -0.65327030 2 6 3150 4.17600000 2337510208 2337510208 -9.00000000
8.52308941 13.90297031 2.00231338 49 7 3151 16.43000000 2337510210 2337510210 7.00000000
2.89857149 4.72633505 -0.68076217 9 8 3152 5.58600000 2337510213 2337510213 -7.00000000
6.60010910 10.76196575 1.99954534 40 9 3152 12.78200000 2337510215 2337510215 9.00000000
4.37602186 7.13263273 -0.73210824 8 10 3153 8.40000000 2337510217 2337510217 -5.00000000
6.18438911 10.07620907 2.29810357 43 11 3154 12.04400000 2337510220 2337510220 11.00000000
8.43878460 13.74390793 -0.84522569 9 12 3155 16.15000000 2337510222 2337510222 -3.00000000
5.29865789 8.62633324 2.33724141 54 13 3156 10.39000000 2337510224 2337510224 13.00000000
8.43712997 13.73046303 -0.28129789 10 14 3157 16.11800000 2337510226 2337510226 -1.00000000
4.60419512 7.48986912 2.35577106 40 15 3158 9.10200000 2337510229 2337510229 15.00000000
1.19616425 1.94054079 -0.61081296 4 0 3165 2.36000000 2337510249 2337510249 -15.00000000
8.45763779 13.71549129 0.28126299 10 1 3166 16.11600000 2337510252 2337510252 1.00000000
1.42318690 2.30703712 -0.62581384 3 2 3167 2.78200000 2337510254 2337510254 -13.00000000
8.45077324 13.69900608 0.84355092 45 3 3167 16.11800000 2337510256 2337510256 3.00000000
1.72082472 2.78842950 -0.63692045 2 4 3168 3.33800000 2337510259 2337510259 -11.00000000
9.55903912 15.48344612 1.59198678 21 5 3169 18.26600000 2337510261 2337510261 5.00000000
2.17046738 3.51428604 -0.65420896 2 6 3170 4.18200000 2337510263 2337510263 -9.00000000
8.52252769 13.79376316 1.99085760 42 7 3171 16.33600000 2337510266 2337510266 7.00000000
2.92548895 4.73307419 -0.68319952 6 8 3172 5.60600000 2337510268 2337510268 -7.00000000
6.63535404 10.73098183 1.99829388 40 9 3173 12.77400000 2337510270 2337510270 9.00000000
4.40613174 7.12578726 -0.73297977 4 10 3173 8.41000000 2337510273 2337510273 -5.00000000
6.22365522 10.06123829 2.29962993 43 11 3174 12.05200000 2337510275 2337510275 11.00000000
8.43205738 13.62605190 -0.83978277 9 12 3175 16.04600000 2337510277 2337510277 -3.00000000
5.33386564 8.61606979 2.33949089 57 13 3176 10.40000000 2337510279 2337510279 13.00000000
8.43552303 13.62102509 -0.27965736 10 14 3177 16.02400000 2337510282 2337510282 -1.00000000
4.62827635 7.47046709 2.35473561 40 15 3178 9.09800000 2337510284 2337510284 15.00000000
1.20496964 1.93963552 -0.61184824 4 0 3185 2.36400000 2337510305 2337510305 -15.00000000
8.44846439 13.59417057 0.27937812 10 1 3186 16.00800000 2337510307 2337510307 1.00000000
1.43534696 2.30867505 -0.62761343 3 2 3187 2.79000000 2337510309 2337510309 -13.00000000
8.45530415 13.59988117 0.83925939 47 3 3187 16.03600000 2337510312 2337510312 3.00000000
1.72017896 2.76573443 -0.63310426 2 4 3188 3.31800000 2337510314 2337510314 -11.00000000
9.56882000 15.37893486 1.58466566 21 5 3189 18.18200000 2337510316 2337510316 5.00000000
2.18585277 3.51171947 -0.65514755 2 6 3190 4.18800000 2337510319 2337510319 -9.00000000
8.52760410 13.69484043 1.98086429 49 7 3191 16.25400000 2337510321 2337510321 7.00000000
2.94199252 4.72283316 -0.68319952 6 8 3192 5.60600000 2337510323 2337510323 -7.00000000
6.67299175 10.71227264 1.99891961 43 9 3192 12.77800000 2337510326 2337510326 9.00000000
4.42044115 7.09345436 -0.73123670 4 10 3193 8.39000000 2337510328 2337510328 -5.00000000
6.25458288 10.03278828 2.29810357 50 11 3194 12.04400000 2337510330 2337510330 11.00000000
8.43517876 13.52535820 -0.83538651 4 12 3195 15.96200000 2337510332 2337510332 -3.00000000
5.36390877 8.59739876 2.33949089 55 13 3196 10.40000000 2337510335 2337510335 13.00000000
8.43537235 13.51515865 -0.27808663 9 14 3197 15.93400000 2337510337 2337510337 -1.00000000
4.65330219 7.45262718 2.35421801 40 15 3198 9.09600000 2337510339 2337510339 15.00000000
1.20763218 1.92886794 -0.60977769 4 0 3205 2.35600000 2337510360 2337510360 -15.00000000
8.44916153 13.49002934 0.27784231 10 1 3206 15.92000000 2337510362 2337510362 1.00000000
1.44132769 2.30034804 -0.62671363 3 2 3207 2.78600000 2337510365 2337510365 -13.00000000
8.45606518 13.49581528 0.83465385 47 3 3207 15.94800000 2337510367 2337510367 3.00000000
1.73816419 2.77302098 -0.63615721 2 4 3208 3.33400000 2337510369 2337510369 -11.00000000
9.54835224 15.22728062 1.57246387 15 5 3209 18.04200000 2337510372 2337510372 5.00000000
2.19704795 3.50239468 -0.65483469 2 6 3210 4.18600000 2337510374 2337510374 -9.00000000
8.52048779 13.57755566 1.96818995 36 7 3211 16.15000000 2337510376 2337510376 7.00000000
2.96584868 4.72430372 -0.68490571 6 8 3212 5.62000000 2337510379 2337510379 -7.00000000
6.71454525 10.69560623 2.00017118 40 9 3212 12.78600000 2337510381 2337510381 9.00000000
4.46318865 7.10666370 -0.73420000 4 10 3213 8.42400000 2337510383 2337510383 -5.00000000
6.28538799 10.00424576 2.29657698 46 11 3214 12.03600000 2337510385 2337510385 11.00000000
8.42282200 13.40113640 -0.82952493 9 12 3215 15.85000000 2337510388 2337510388 -3.00000000
5.39388657 8.57862282 2.33949089 57 13 3216 10.40000000 2337510390 2337510390 13.00000000
8.43458557 13.40946102 -0.27651593 7 14 3217 15.84400000 2337510392 2337510392 -1.00000000
4.67825937 7.43470383 2.35370040 40 15 3218 9.09400000 2337510395 2337510395 15.00000000
1.21299136 1.92321873 -0.60926002 3 0 3224 2.35400000 2337510415 2337510415 -15.00000000
8.43836212 13.37399387 0.27602726 10 1 3225 15.81600000 2337510418 2337510418 1.00000000
1.44478726 2.28896403 -0.62491405 3 2 3226 2.77800000 2337510420 2337510420 -13.00000000
8.44746876 13.38325214 0.82942021 47 3 3226 15.84800000 2337510422 2337510422 3.00000000
1.75363946 2.77720189 -0.63844693 2 4 3227 3.34600000 2337510425 2337510425 -11.00000000
9.57112980 15.15173817 1.56793177 42 5 3228 17.99000000 2337510427 2337510427 5.00000000
2.20548439 3.49007988 -0.65389609 2 6 3229 4.18000000 2337510429 2337510429 -9.00000000
8.51136780 13.46365261 1.95575917 42 7 3230 16.04800000 2337510431 2337510431 7.00000000
2.97088838 4.69766521 -0.68246830 4 8 3231 5.60000000 2337510434 2337510434 -7.00000000
6.75208759 10.67662048 2.00079679 40 9 3231 12.79000000 2337510436 2337510436 9.00000000
4.46755695 7.06151724 -0.73106235 4 10 3232 8.38800000 2337510438 2337510438 -5.00000000
6.32272863 9.98998260 2.29810357 46 11 3233 12.04400000 2337510441 2337510441 11.00000000
8.42768478 13.31069565 -0.82565206 9 12 3234 15.77600000 2337510443 2337510443 -3.00000000
5.41604805 8.55081081 2.33679152 55 13 3235 10.38800000 2337510445 2337510445 13.00000000
8.43512440 13.31216145 -0.27508482 9 14 3236 15.76200000 2337510448 2337510448 -1.00000000
4.70779705 7.42976093 2.35680628 42 15 3236 9.10600000 2337510450 2337510450 15.00000000
1.23524141 1.94342875 -0.61702460 4 0 3244 2.38400000 2337510471 2337510471 -15.00000000
8.44636726 13.28370857 0.27477068 10 1 3245 15.74400000 2337510473 2337510473 1.00000000
1.45486033 2.28719544 -0.62581384 3 2 3246 2.78200000 2337510475 2337510475 -13.00000000
8.44053650 13.26942253 0.82418662 47 3 3246 15.74800000 2337510478 2337510478 3.00000000
1.75699914 2.76112556 -0.63615721 2 4 3247 3.33400000 2337510480 2337510480 -11.00000000
9.57046509 15.03419876 1.55921626 31 5 3248 17.89000000 2337510482 2337510482 5.00000000
2.22083688 3.48735881 -0.65483469 2 6 3249 4.18600000 2337510484 2337510484 -9.00000000
8.51458263 13.36521721 1.94576597 36 7 3250 15.96600000 2337510487 2337510487 7.00000000
2.98620129 4.68559217 -0.68222457 4 8 3251 5.59800000 2337510489 2337510489 -7.00000000
6.78506804 10.64632320 1.99954534 43 9 3251 12.78200000 2337510491 2337510491 9.00000000
4.51145840 7.07611942 -0.73420000 4 10 3252 8.42400000 2337510494 2337510494 -5.00000000
6.36178446 9.97447300 2.29962993 46 11 3253 12.05200000 2337510496 2337510496 11.00000000
8.41178608 13.18354034 -0.81958109 9 12 3254 15.66000000 2337510498 2337510498 -3.00000000
5.44376612 8.52856827 2.33589172 57 13 3255 10.38400000 2337510501 2337510501 13.00000000
8.42557812 13.19499588 -0.27326977 9 14 3256 15.65800000 2337510503 2337510503 -1.00000000
4.73707676 7.41571236 2.35784149 42 15 3257 9.11000000 2337510505 2337510505 15.00000000
1.22984922 1.91936934 -0.61081296 4 0 3265 2.36000000 2337510526 2337510526 -15.00000000
8.43672466 13.16175175 0.27288583 10 1 3266 15.63600000 2337510528 2337510528 1.00000000
1.46954513 2.29169035 -0.62851322 3 2 3267 2.79400000 2337510531 2337510531 -13.00000000
8.44613171 13.16630936 0.81979042 47 3 3268 15.66400000 2337510533 2337510533 3.00000000
1.77134752 2.76127720 -0.63768369 2 4 3268 3.34200000 2337510535 2337510535 -11.00000000
9.56524372 14.90511990 1.54945481 46 5 3269 17.77800000 2337510537 2337510537 5.00000000
2.23467112 3.48085785 -0.65514755 2 6 3270 4.18800000 2337510540 2337510540 -9.00000000
8.51202106 13.25374603 1.93406653 38 7 3271 15.87000000 2337510542 2337510542 7.00000000
3.01408482 4.69131708 -0.68466198 6 8 3272 5.61800000 2337510544 2337510544 -7.00000000
6.82190800 10.61805916 1.99891961 40 9 3272 12.77800000 2337510547 2337510547 9.00000000
4.53520918 7.05618477 -0.73385137 4 10 3273 8.42000000 2337510549 2337510549 -5.00000000
6.40148544 9.95604229 2.30077481 50 11 3274 12.05800000 2337510551 2337510551 11.00000000
8.43195820 13.10894680 -0.81685960 9 12 3275 15.60800000 2337510554 2337510554 -3.00000000
5.47287941 8.50528049 2.33499193 57 13 3276 10.38000000 2337510556 2337510556 13.00000000
8.42734146 13.09172440 -0.27176887 9 14 3277 15.57200000 2337510558 2337510558 -1.00000000
4.41577768 6.85983133 2.18598557 18 15 3277 8.44600000 2337510561 2337510561 15.00000000
1.23444569 1.91181874 -0.60977769 4 0 3285 2.35600000 2337510581 2337510581 -15.00000000
8.44138622 13.06839180 0.27155945 10 1 3286 15.56000000 2337510584 2337510584 1.00000000
1.48176622 2.29309368 -0.63031286 3 2 3287 2.80200000 2337510586 2337510586 -13.00000000
8.44866848 13.06965351 0.81560355 52 3 3288 15.58400000 2337510588 2337510588 3.00000000
1.78097546 2.75507712 -0.63768369 2 4 3288 3.34200000 2337510590 2337510590 -11.00000000
9.55013466 14.76791191 1.53864753 46 5 3289 17.65400000 2337510593 2337510593 5.00000000
2.23607802 3.45645046 -0.65201885 2 6 3290 4.16800000 2337510595 2337510595 -9.00000000
8.52371979 13.17062378 1.92626679 36 7 3291 15.80600000 2337510597 2337510597 7.00000000
3.03152108 4.68243361 -0.68490571 6 8 3292 5.62000000 2337510600 2337510600 -7.00000000
6.85863161 10.58966827 1.99829388 40 9 3293 12.77400000 2337510602 2337510602 9.00000000
4.55439663 7.03194952 -0.73297977 4 10 3293 8.41000000 2337510604 2337510604 -5.00000000
6.43086195 9.92539787 2.29886675 46 11 3294 12.04800000 2337510607 2337510607 11.00000000
8.42769432 13.00233841 -0.81204468 9 12 3295 15.51600000 2337510609 2337510609 -3.00000000
5.50253487 8.48612499 2.33499193 55 13 3296 10.38000000 2337510611 2337510611 13.00000000
8.42184258 12.98337746 -0.27012834 9 14 3297 15.47800000 2337510614 2337510614 -1.00000000
4.79002094 7.38162470 2.35784149 40 15 3298 9.11000000 2337510616 2337510616 15.00000000
1.24532604 1.91397512 -0.61184824 4 0 3305 2.36400000 2337510637 2337510637 -15.00000000
8.43677139 12.96175289 0.26995382 10 1 3306 15.46800000 2337510639 2337510639 1.00000000
1.48338151 2.27810907 -0.62761343 3 2 3307 2.79000000 2337510641 2337510641 -13.00000000
8.44518280 12.96477413 0.81089330 47 3 3308 15.49400000 2337510643 2337510643 3.00000000
1.78843844 2.74555349 -0.63692045 2 4 3308 3.33800000 2337510646 2337510646 -11.00000000
9.56899357 14.68440819 1.53341818 15 5 3309 17.59400000 2337510648 2337510648 5.00000000
2.25675988 3.46186256 -0.65452182 4 6 3310 4.18400000 2337510650 2337510650 -9.00000000
8.53494263 13.08758163 1.91846716 36 7 3311 15.74200000 2337510653 2337510653 7.00000000
3.04459357 4.66683531 -0.68417448 6 8 3312 5.61400000 2337510655 2337510655 -7.00000000
6.89371061 10.56686592 1.99829388 40 9 3312 12.77400000 2337510657 2337510657 9.00000000
4.58218193 7.02101421 -0.73350275 4 10 3313 8.41600000 2337510660 2337510660 -5.00000000
6.46332216 9.89960194 2.29810357 43 11 3314 12.04400000 2337510662 2337510662 11.00000000
8.41077614 12.87752628 -0.80607837 9 12 3315 15.40200000 2337510664 2337510664 -3.00000000
5.53958511 8.47828579 2.33814120 53 13 3316 10.39400000 2337510667 2337510667 13.00000000
8.42553616 12.89029408 -0.26880196 9 14 3317 15.40200000 2337510669 2337510669 -1.00000000
4.80918789 7.35761452 2.35525322 38 15 3317 9.10000000 2337510671 2337510671 15.00000000
1.25835478 1.91930997 -0.61495405 4 0 3325 2.37600000 2337510692 2337510692 -15.00000000
8.43809700 12.86533928 0.26855764 10 1 3326 15.38800000 2337510694 2337510694 1.00000000
1.48491025 2.26314116 -0.62491405 3 2 3327 2.77800000 2337510696 2337510696 -13.00000000
8.44106865 12.86007977 0.80618310 52 3 3328 15.40400000 2337510699 2337510699 3.00000000
