# .PCD v0.7 - Point Cloud Data file format
VERSION 0.7
FIELDS x y z intensity laser_id azimuth distance_m adjustedtime timestamp vertical_angle
SIZE 4 4 4 1 1 2 8 8 4 8
TYPE F F F U U U F U U F
COUNT 1 1 1 1 1 1 1 1 1 1
WIDTH 521
HEIGHT 1
VIEWPOINT 0 0 0 1 0 0 0
POINTS 521
DATA ascii
-4.60366249 6.98182106 2.24085522 42 15 32660 8.65800000 2338192084 2338192084 15.00000000
-1.16837478 1.77732837 -0.56991953 4 0 32668 2.20200000 2338192105 2338192105 -15.00000000
-12.52023697 19.05299187 0.39794978 13 1 32669 22.80200000 2338192107 2338192107 1.00000000
-1.37161541 2.08808494 -0.57677448 4 2 32670 2.56400000 2338192110 2338192110 -13.00000000
-12.51482010 19.05199242 1.19462049 10 3 32670 22.82600000 2338192112 2338192112 3.00000000
-1.62607586 2.47640562 -0.57586157 4 4 32671 3.01800000 2338192114 2338192114 -11.00000000
-12.50828362 19.05653572 1.99429774 21 5 32672 22.88200000 2338192117 2338192117 5.00000000
-2.01019335 3.06372166 -0.58037186 1 6 32673 3.71000000 2338192119 2338192119 -9.00000000
-11.34101295 17.29133606 2.53902578 35 7 32674 20.83400000 2338192121 2338192121 7.00000000
-2.58606839 3.94441009 -0.57912314 2 8 32675 4.75200000 2338192123 2338192123 -7.00000000
-8.67335033 13.22905731 2.50545430 48 9 32675 16.01600000 2338192126 2338192126 9.00000000
-3.67062473 5.60076475 -0.58586091 4 10 32676 6.72200000 2338192128 2338192128 -5.00000000
-7.05552864 10.76966667 2.50265074 65 11 32677 13.11600000 2338192130 2338192130 11.00000000
-6.14507723 9.38351154 -0.58783746 8 12 32678 11.23200000 2338192133 2338192133 -3.00000000
-6.03689194 9.22182465 2.54464626 60 13 32679 11.31200000 2338192135 2338192135 13.00000000
-12.46502113 19.04854774 -0.39735639 11 14 32680 22.76800000 2338192137 2338192137 -1.00000000
-4.57080078 6.98491621 2.23671412 42 15 32680 8.64200000 2338192140 2338192140 15.00000000
-1.16427481 1.78463185 -0.57095480 4 0 32688 2.20600000 2338192160 2338192160 -15.00000000
-12.41651440 19.03962898 0.39676300 13 1 32689 22.73400000 2338192163 2338192163 1.00000000
-1.36431825 2.09285998 -0.57677448 4 2 32690 2.56400000 2338192165 2338192165 -13.00000000
-12.42309856 19.06426811 1.19252706 10 3 32691 22.78600000 2338192167 2338192167 3.00000000
-1.61742163 2.48206663 -0.57586157 2 4 32691 3.01800000 2338192170 2338192170 -11.00000000
-12.39927673 19.03497314 1.98749959 6 5 32692 22.80400000 2338192172 2338192172 5.00000000
-2.00379848 3.07734132 -0.58162332 2 6 32693 3.71800000 2338192174 2338192174 -9.00000000
-11.27408791 17.32083702 2.53756356 38 7 32694 20.82200000 2338192176 2338192176 7.00000000
-2.58202767 3.96838808 -0.58131677 2 8 32695 4.77000000 2338192179 2338192179 -7.00000000
-8.62803555 13.26572514 2.50639296 48 9 32696 16.02200000 2338192181 2338192181 9.00000000
-3.65974236 5.62690496 -0.58725542 4 10 32696 6.73800000 2338192183 2338192183 -5.00000000
-6.99113941 10.75308037 2.49311042 62 11 32697 13.06600000 2338192186 2338192186 11.00000000
-6.11990404 9.41662788 -0.58857018 8 12 32698 11.24600000 2338192188 2338192188 -3.00000000
-6.00891161 9.24937820 2.54644585 60 13 32699 11.32000000 2338192190 2338192190 13.00000000
-12.36469078 19.03995323 -0.39627433 8 14 32700 22.70600000 2338192193 2338192193 -1.00000000
-4.54727316 7.00486279 2.23774958 45 15 32701 8.64600000 2338192195 2338192195 15.00000000
-1.16286433 1.79476583 -0.57302535 4 0 32706 2.21400000 2338192216 2338192216 -15.00000000
-12.33054924 19.03826141 0.39592528 13 1 32707 22.68600000 2338192218 2338192218 1.00000000
-1.35138214 2.08732080 -0.57407510 4 2 32708 2.55200000 2338192220 2338192220 -13.00000000
-12.33391571 19.05074692 1.18938696 10 3 32708 22.72600000 2338192223 2338192223 3.00000000
-1.61814940 2.50032115 -0.57891446 4 4 32709 3.03400000 2338192225 2338192225 -11.00000000
-12.29179859 19.00022697 1.97982991 6 5 32710 22.71600000 2338192227 2338192227 5.00000000
-1.97588515 3.05542254 -0.57630455 1 6 32711 3.68400000 2338192229 2338192229 -9.00000000
-11.21099663 17.34283257 2.53561354 38 7 32712 20.80600000 2338192232 2338192232 7.00000000
-2.56523848 3.96981096 -0.58034182 2 8 32713 4.76200000 2338192234 2338192234 -7.00000000
-8.58846188 13.29608440 2.50701880 48 9 32714 16.02600000 2338192236 2338192236 9.00000000
-3.65393853 5.65678453 -0.58917284 4 10 32714 6.76000000 2338192239 2338192239 -5.00000000
-6.94880342 10.76179600 2.49005747 59 11 32715 13.05000000 2338192241 2338192241 11.00000000
-6.09678936 9.44587612 -0.58919817 8 12 32716 11.25800000 2338192243 2338192243 -3.00000000
-5.97771120 9.26493454 2.54554605 56 13 32717 11.31600000 2338192246 2338192246 13.00000000
-12.27446651 19.03165054 -0.39529702 8 14 32718 22.65000000 2338192248 2338192248 -1.00000000
-4.53065729 7.02481794 2.23982000 42 15 32718 8.65400000 2338192250 2338192250 15.00000000
-1.15659237 1.79881406 -0.57302535 4 0 32726 2.21400000 2338192271 2338192271 -15.00000000
-12.24239349 19.04754257 0.39522719 13 1 32727 22.64600000 2338192273 2338192273 1.00000000
-1.35462141 2.10842037 -0.57857412 4 2 32728 2.57200000 2338192275 2338192275 -13.00000000
-12.23927212 19.04999542 1.18666542 10 3 32728 22.67400000 2338192278 2338192278 3.00000000
-1.60516822 2.49934673 -0.57738805 4 4 32729 3.02600000 2338192280 2338192280 -11.00000000
-12.21678925 19.02960396 1.97843540 20 5 32730 22.70000000 2338192282 2338192282 5.00000000
-1.98441172 3.09222579 -0.58193618 2 6 32731 3.72000000 2338192285 2338192285 -9.00000000
-11.14181519 17.36849403 2.53366375 35 7 32732 20.79000000 2338192287 2338192287 7.00000000
-2.55136561 3.97874117 -0.58034182 2 8 32733 4.76200000 2338192289 2338192289 -7.00000000
-8.52920532 13.30602646 2.50326443 48 9 32734 16.00200000 2338192292 2338192292 9.00000000
-3.61911750 5.64602137 -0.58673245 4 10 32734 6.73200000 2338192294 2338192294 -5.00000000
-6.89212990 10.75623131 2.48318815 59 11 32735 13.01400000 2338192296 2338192296 11.00000000
-6.08101559 9.49400997 -0.59087294 8 12 32736 11.29000000 2338192299 2338192299 -3.00000000
-5.93692780 9.27261543 2.54194689 56 13 32737 11.30000000 2338192301 2338192301 13.00000000
-12.18208790 19.03395844 -0.39445928 11 14 32738 22.60200000 2338192303 2338192303 -1.00000000
-4.50715017 7.04221725 2.24033761 45 15 32738 8.65600000 2338192305 2338192305 15.00000000
-1.15238452 1.80609751 -0.57406062 4 0 32746 2.21800000 2338192326 2338192326 -15.00000000
-12.14142036 19.03621101 0.39411023 13 1 32747 22.58200000 2338192328 2338192328 1.00000000
-1.34620583 2.11149287 -0.57812423 3 2 32748 2.57000000 2338192331 2338192331 -13.00000000
-12.13287163 19.03746033 1.18310666 10 3 32749 22.60600000 2338192333 2338192333 3.00000000
-1.59010315 2.49500108 -0.57509834 4 4 32749 3.01400000 2338192335 2338192335 -11.00000000
-12.13101959 19.04188728 1.97529781 20 5 32750 22.66400000 2338192338 2338192338 5.00000000
-1.96617818 3.08747053 -0.57974613 1 6 32751 3.70600000 2338192340 2338192340 -9.00000000
-11.07472420 17.39723396 2.53220129 35 7 32752 20.77800000 2338192342 2338192342 7.00000000
-2.54172444 3.99432182 -0.58131677 2 8 32753 4.77000000 2338192345 2338192345 -7.00000000
-8.48079205 13.32757092 2.50201273 48 9 32753 15.99400000 2338192347 2338192347 9.00000000
-3.61008048 5.67543125 -0.58847558 4 10 32754 6.75200000 2338192349 2338192349 -5.00000000
-6.84611464 10.76697063 2.48013544 59 11 32755 12.99800000 2338192352 2338192352 11.00000000
-6.05426645 9.52529240 -0.59150100 8 12 32756 11.30200000 2338192354 2338192354 -3.00000000
-5.91706467 9.31302071 2.54734564 62 13 32757 11.32400000 2338192356 2338192356 13.00000000
-12.08233833 19.02403641 -0.39337724 11 14 32758 22.54000000 2338192358 2338192358 -1.00000000
-4.47716713 7.05216551 2.23826718 45 15 32759 8.64800000 2338192361 2338192361 15.00000000
-1.13987243 1.80031598 -0.57095480 4 0 32766 2.20600000 2338192381 2338192381 -15.00000000
-12.04923153 19.03792191 0.39327252 18 1 32767 22.53400000 2338192384 2338192384 1.00000000
-1.33882713 2.11617923 -0.57812423 3 2 32768 2.57000000 2338192386 2338192386 -13.00000000
-12.04404640 19.03708267 1.18059444 10 3 32768 22.55800000 2338192388 2338192388 3.00000000
-1.59607530 2.52376628 -0.58044094 4 4 32769 3.04200000 2338192391 2338192391 -11.00000000
-12.03147316 19.03190994 1.96989405 20 5 32770 22.60200000 2338192393 2338192393 5.00000000
-1.97016251 3.11769342 -0.58412629 2 6 32771 3.73400000 2338192395 2338192395 -9.00000000
-11.01180840 17.43242836 2.53171372 35 7 32772 20.77400000 2338192398 2338192398 7.00000000
-2.53200555 4.00988388 -0.58229172 2 8 32773 4.77800000 2338192400 2338192400 -7.00000000
-8.42556000 13.34854221 2.50013566 52 9 32774 15.98200000 2338192402 2338192402 9.00000000
-3.58918428 5.68631315 -0.58830124 4 10 32774 6.75000000 2338192405 2338192405 -5.00000000
-6.78858423 10.75925446 2.47288465 59 11 32775 12.96000000 2338192407 2338192407 11.00000000
-6.04548597 9.58522224 -0.59390843 8 12 32776 11.34800000 2338192409 2338192409 -3.00000000
-5.88659906 9.33691502 2.54824543 57 13 32777 11.32800000 2338192411 2338192411 13.00000000
-11.98067379 19.01026726 -0.39222538 8 14 32778 22.47400000 2338192414 2338192414 -1.00000000
-4.44840431 7.06121254 2.23619652 45 15 32779 8.64000000 2338192416 2338192416 15.00000000
-1.13769209 1.81082702 -0.57302535 4 0 32786 2.21400000 2338192437 2338192437 -15.00000000
-11.95079803 19.02906418 0.39222538 13 1 32787 22.47400000 2338192439 2338192439 1.00000000
-1.33350432 2.12414050 -0.57902402 3 2 32788 2.57400000 2338192441 2338192441 -13.00000000
-11.96477795 19.05871010 1.17933846 10 3 32788 22.53400000 2338192444 2338192444 3.00000000
-1.58099461 2.51934457 -0.57815129 4 4 32789 3.03000000 2338192446 2338192446 -11.00000000
-11.93320370 19.02315712 1.96466470 20 5 32790 22.54200000 2338192448 2338192448 5.00000000
-1.94667459 3.10446882 -0.58037186 1 6 32791 3.71000000 2338192451 2338192451 -9.00000000
-10.93824005 17.45057678 2.52878881 38 7 32792 20.75000000 2338192453 2338192453 7.00000000
-2.52220917 4.02542639 -0.58326668 2 8 32793 4.78600000 2338192455 2338192455 -7.00000000
-8.37915134 13.37306118 2.49950981 52 9 32793 15.97800000 2338192458 2338192458 9.00000000
-3.57671642 5.71062708 -0.58952147 4 10 32794 6.76400000 2338192460 2338192460 -5.00000000
-6.73327541 10.75459766 2.46639705 62 11 32795 12.92600000 2338192462 2338192462 11.00000000
-6.01516914 9.61134529 -0.59422243 4 12 32796 11.35400000 2338192464 2338192464 -3.00000000
-5.85810518 9.36401463 2.55004525 62 13 32797 11.33600000 2338192467 2338192467 13.00000000
-11.89621830 19.02314949 -0.39163199 8 14 32798 22.44000000 2338192469 2338192469 -1.00000000
-4.42168093 7.07342100 2.23516130 45 15 32799 8.63600000 2338192471 2338192471 15.00000000
-1.13545227 1.82134485 -0.57509589 4 0 32806 2.22200000 2338192492 2338192492 -15.00000000
-11.84728527 19.01126480 0.39100373 13 1 32807 22.40400000 2338192494 2338192494 1.00000000
-1.32608163 2.12878251 -0.57902402 3 2 32808 2.57400000 2338192497 2338192497 -13.00000000
-11.86438560 19.04611015 1.17598891 10 3 32808 22.47000000 2338192499 2338192499 3.00000000
-1.57426643 2.52818108 -0.57891446 4 4 32809 3.03400000 2338192501 2338192501 -11.00000000
-11.85304070 19.04270554 1.96239865 20 5 32810 22.51600000 2338192504 2338192504 5.00000000
-1.93582618 3.11124492 -0.58037186 1 6 32811 3.71000000 2338192506 2338192506 -9.00000000
-10.85419464 17.45156860 2.52342653 40 7 32812 20.70600000 2338192508 2338192508 7.00000000
-2.51443100 4.04432106 -0.58472914 2 8 32813 4.79800000 2338192511 2338192511 -7.00000000
-8.33450508 13.40558338 2.50013566 44 9 32813 15.98200000 2338192513 2338192513 9.00000000
-3.56096745 5.72984600 -0.59021866 4 10 32814 6.77200000 2338192515 2338192515 -5.00000000
-5.99001169 9.64585686 -0.59505981 4 12 32816 11.37000000 2338192520 2338192520 -3.00000000
-5.82332754 9.38109493 2.54914546 62 13 32817 11.33200000 2338192522 2338192522 13.00000000
-11.81814480 19.04586792 -0.39124805 11 14 32818 22.41800000 2338192524 2338192524 -1.00000000
-4.40103626 7.09537935 2.23723173 45 15 32819 8.64400000 2338192527 2338192527 15.00000000
-1.12838960 1.82345736 -0.57457829 4 0 32825 2.22000000 2338192547 2338192547 -15.00000000
-11.78943634 19.05895042 0.39117825 13 1 32826 22.41400000 2338192550 2338192550 1.00000000
-1.31286573 2.12322330 -0.57632458 3 2 32827 2.56200000 2338192552 2338192552 -13.00000000
-11.79275799 19.07175827 1.17515159 32 3 32827 22.45400000 2338192554 2338192554 3.00000000
-1.55968070 2.52336764 -0.57662481 4 4 32828 3.02200000 2338192557 2338192557 -11.00000000
-11.78668594 19.07682228 1.96187580 27 5 32829 22.51000000 2338192559 2338192559 5.00000000
-1.94522035 3.14958024 -0.58631635 2 6 32830 3.74800000 2338192561 2338192561 -9.00000000
-10.78896332 17.47564125 2.52172041 40 7 32831 20.69200000 2338192563 2338192563 7.00000000
-2.48849559 4.03236532 -0.58180422 2 8 32832 4.77400000 2338192566 2338192566 -7.00000000
-8.27444363 13.40793228 2.49544263 46 9 32832 15.95200000 2338192568 2338192568 9.00000000
-3.55659175 5.76536274 -0.59265906 4 10 32833 6.80000000 2338192570 2338192570 -5.00000000
-6.64033651 10.76842976 2.45914626 68 11 32834 12.88800000 2338192573 2338192573 11.00000000
-5.96952009 9.68437004 -0.59621119 4 12 32835 11.39200000 2338192575 2338192575 -3.00000000
-5.78400850 9.38708115 2.54554605 62 13 32836 11.31600000 2338192577 2338192577 13.00000000
-11.80316162 19.16327667 -0.39285368 8 14 32837 22.51000000 2338192580 2338192580 -1.00000000
-4.37872362 7.10917044 2.23723173 45 15 32837 8.64400000 2338192582 2338192582 15.00000000
-1.12707186 1.83561647 -0.57716650 4 0 32845 2.23000000 2338192603 2338192603 -15.00000000
-11.78350639 19.19883537 0.39320272 13 1 32846 22.53000000 2338192605 2338192605 1.00000000
-1.31156087 2.13775945 -0.57902402 3 2 32847 2.57400000 2338192607 2338192607 -13.00000000
-11.78042507 19.20133209 1.18059444 54 3 32847 22.55800000 2338192610 2338192610 3.00000000
-1.55291569 2.53214383 -0.57738805 4 4 32848 3.02600000 2338192612 2338192612 -11.00000000
-11.77000713 19.19938278 1.97024274 61 5 32849 22.60600000 2338192614 2338192614 5.00000000
-1.92286098 3.13782382 -0.58287483 2 6 32850 3.72600000 2338192616 2338192616 -9.00000000
-10.71752739 17.49626923 2.51928306 40 7 32851 20.67200000 2338192619 2338192619 7.00000000
-2.49099064 4.06811428 -0.58570409 2 8 32852 4.80600000 2338192621 2338192621 -7.00000000
-8.21211815 13.41146469 2.49074960 50 9 32852 15.92200000 2338192623 2338192623 9.00000000
-3.53644538 5.77774286 -0.59265906 4 10 32853 6.80000000 2338192626 2338192626 -5.00000000
-6.58836269 10.76809788 2.45380378 65 11 32854 12.86000000 2338192628 2338192628 11.00000000
-5.95964718 9.74433708 -0.59861869 4 12 32855 11.43800000 2338192630 2338192630 -3.00000000
-5.75323915 9.41053963 2.54644585 66 13 32856 11.32000000 2338192633 2338192633 13.00000000
-11.79876328 19.30673790 -0.39494795 8 14 32857 22.63000000 2338192635 2338192635 -1.00000000
-4.35062361 7.12187481 2.23619652 45 15 32858 8.64000000 2338192637 2338192637 15.00000000
-1.11261690 1.82634103 -0.57302535 4 0 32865 2.21400000 2338192658 2338192658 -15.00000000
-11.77986240 19.34403419 0.39533192 9 1 32866 22.65200000 2338192660 2338192660 1.00000000
-1.30409062 2.14232469 -0.57902402 3 2 32867 2.57400000 2338192663 2338192663 -13.00000000
-11.76187992 19.32969093 1.18582809 21 3 32868 22.65800000 2338192665 2338192665 3.00000000
-1.54814959 2.54425764 -0.57891446 4 4 32868 3.03400000 2338192667 2338192667 -11.00000000
-11.75572109 19.32716560 1.97913265 61 5 32869 22.70800000 2338192669 2338192669 5.00000000
-1.90779126 3.13776541 -0.58162332 2 6 32870 3.71800000 2338192672 2338192672 -9.00000000
-10.65020275 17.52339554 2.51782060 42 7 32871 20.66000000 2338192674 2338192674 7.00000000
-2.47265220 4.06999826 -0.58472914 2 8 32872 4.79800000 2338192676 2338192676 -7.00000000
-8.15704727 13.42654228 2.48824668 50 9 32872 15.90600000 2338192679 2338192679 9.00000000
-3.52659750 5.80708170 -0.59440219 4 10 32873 6.82000000 2338192681 2338192681 -5.00000000
-6.53545332 10.76585579 2.44807935 59 11 32874 12.83000000 2338192683 2338192683 11.00000000
-5.93699408 9.78386307 -0.59977007 4 12 32875 11.46000000 2338192686 2338192686 -3.00000000
-5.72237682 9.43389702 2.54734564 62 13 32876 11.32400000 2338192688 2338192688 13.00000000
-11.79661560 19.45553017 -0.39714697 8 14 32877 22.75600000 2338192690 2338192690 -1.00000000
-4.32097340 7.12635136 2.23309064 45 15 32877 8.62800000 2338192693 2338192693 15.00000000
-1.10623503 1.83021367 -0.57302535 4 0 32885 2.21400000 2338192713 2338192713 -15.00000000
-11.76914310 19.47917175 0.39725167 13 1 32886 22.76200000 2338192716 2338192716 1.00000000
-1.29660463 2.14686370 -0.57902402 3 2 32887 2.57400000 2338192718 2338192718 -13.00000000
-11.76556015 19.48860741 1.19305050 14 3 32888 22.79600000 2338192720 2338192720 3.00000000
-1.54737639 2.56309199 -0.58196741 4 4 32888 3.05000000 2338192722 2338192722 -11.00000000
-11.75921631 19.48578453 1.99116015 61 5 32889 22.84600000 2338192725 2338192725 5.00000000
-1.89274538 3.13763976 -0.58037186 1 6 32890 3.71000000 2338192727 2338192727 -9.00000000
-10.56641769 17.52306557 2.51245832 40 7 32891 20.61600000 2338192729 2338192729 7.00000000
-2.48097539 4.11600733 -0.59009135 2 8 32892 4.84200000 2338192732 2338192732 -7.00000000
-8.10574341 13.45296478 2.48762083 50 9 32893 15.90200000 2338192734 2338192734 9.00000000
-3.47957134 5.77498579 -0.58987010 4 10 32893 6.76800000 2338192736 2338192736 -5.00000000
-6.47960091 10.75833130 2.44121027 62 11 32894 12.79400000 2338192739 2338192739 11.00000000
-5.90280581 9.80452728 -0.59977007 4 12 32895 11.46000000 2338192741 2338192741 -3.00000000
-5.68740177 9.45047474 2.54644585 59 13 32896 11.32000000 2338192743 2338192743 13.00000000
-11.78429508 19.58912086 -0.39903182 8 14 32897 22.86400000 2338192746 2338192746 -1.00000000
-4.29283381 7.13882923 2.23205543 47 15 32898 8.62400000 2338192748 2338192748 15.00000000
-1.10182667 1.83737755 -0.57406062 4 0 32905 2.21800000 2338192769 2338192769 -15.00000000
-11.76790428 19.63161850 0.39952049 13 1 32906 22.89200000 2338192771 2338192771 1.00000000
-1.28509617 2.14469004 -0.57722443 3 2 32907 2.56600000 2338192773 2338192773 -13.00000000
-11.76929951 19.64949799 1.20037746 47 3 32908 22.93600000 2338192775 2338192775 3.00000000
-1.53034973 2.55500364 -0.57891446 4 4 32908 3.03400000 2338192778 2338192778 -11.00000000
-11.75560570 19.63440704 2.00214171 63 5 32909 22.97200000 2338192780 2338192780 5.00000000
-1.88685358 3.15270257 -0.58193618 2 6 32910 3.72000000 2338192782 2338192782 -9.00000000
-10.49703407 17.54621506 2.51050854 42 7 32911 20.60000000 2338192785 2338192785 7.00000000
-2.44825363 4.09397602 -0.58570409 2 8 32912 4.80600000 2338192787 2338192787 -7.00000000
-8.05905914 13.47638035 2.48699522 50 9 32912 15.89800000 2338192789 2338192789 9.00000000
-3.49619365 5.84866142 -0.59614527 4 10 32913 6.84000000 2338192792 2338192792 -5.00000000
-6.42186737 10.74717808 2.43357801 62 11 32914 12.75400000 2338192794 2338192794 11.00000000
-5.87366629 9.83364582 -0.60029340 4 12 32915 11.47000000 2338192796 2338192796 -3.00000000
-5.65038252 9.46357727 2.54464626 60 13 32916 11.31200000 2338192799 2338192799 13.00000000
-11.79065704 19.75548553 -0.40157989 9 14 32917 23.01000000 2338192801 2338192801 -1.00000000
-4.26913691 7.15302563 2.23205543 45 15 32917 8.62400000 2338192803 2338192803 15.00000000
-1.09540629 1.84121251 -0.57406062 4 0 32925 2.21800000 2338192824 2338192824 -15.00000000
-11.75450039 19.76538849 0.40140533 13 1 32926 23.00000000 2338192826 2338192826 1.00000000
-1.28058946 2.15418816 -0.57857412 4 2 32927 2.57200000 2338192828 2338192828 -13.00000000
-11.75471401 19.78146172 1.20592511 39 3 32928 23.04200000 2338192831 2338192831 3.00000000
-1.52743924 2.57045650 -0.58120418 4 4 32928 3.04600000 2338192833 2338192833 -11.00000000
-11.74804688 19.77810097 2.01260042 42 5 32929 23.09200000 2338192835 2338192835 5.00000000
-1.87886262 3.16436529 -0.58287483 2 6 32930 3.72600000 2338192838 2338192838 -9.00000000
-10.43572235 17.58274841 2.51050854 40 7 32931 20.60000000 2338192840 2338192840 7.00000000
-2.44205117 4.11615515 -0.58765399 2 8 32932 4.82200000 2338192842 2338192842 -7.00000000
-7.99953556 13.48883724 2.48386645 46 9 32933 15.87800000 2338192845 2338192845 9.00000000
-3.46559381 5.84369278 -0.59440219 4 10 32933 6.82000000 2338192847 2338192847 -5.00000000
-6.37029743 10.74588585 2.42823529 62 11 32934 12.72600000 2338192849 2338192849 11.00000000
-5.84643221 9.86611652 -0.60102612 4 12 32935 11.48400000 2338192851 2338192851 -3.00000000
-5.61135530 9.47318268 2.54194689 59 13 32936 11.30000000 2338192854 2338192854 13.00000000
-4.24682713 7.17527485 2.23412609 45 15 32938 8.63200000 2338192858 2338192858 15.00000000
-1.08929455 1.84483480 -0.57406062 4 0 32944 2.21800000 2338192879 2338192879 -15.00000000
-1.27244854 2.15674448 -0.57812423 3 2 32946 2.57000000 2338192884 2338192884 -13.00000000
-20.89338112 35.42749023 2.15550876 56 3 32947 41.18600000 2338192886 2338192886 3.00000000
-1.51292300 2.56536126 -0.57891446 4 4 32947 3.03400000 2338192888 2338192888 -11.00000000
-12.24799919 20.77639008 2.11004043 22 5 32948 24.21000000 2338192891 2338192891 5.00000000
-1.86936176 3.17228031 -0.58318770 2 6 32949 3.72800000 2338192893 2338192893 -9.00000000
-10.36929798 17.60357475 2.50855851 40 7 32950 20.58400000 2338192895 2338192895 7.00000000
-2.42838812 4.12423086 -0.58765399 2 8 32951 4.82200000 2338192898 2338192898 -7.00000000
-7.95711994 13.51390171 2.48386645 46 9 32951 15.87800000 2338192900 2338192900 9.00000000
-3.44215393 5.84828472 -0.59370494 4 10 32952 6.81200000 2338192902 2338192902 -5.00000000
-5.84000731 9.93021107 -0.60374761 4 12 32954 11.53600000 2338192907 2338192907 -3.00000000
-5.57991028 9.49173927 2.54194689 60 13 32955 11.30000000 2338192909 2338192909 13.00000000
-21.07587814 35.86557388 -0.72612482 5 14 32956 41.60600000 2338192911 2338192911 -1.00000000
-4.21839190 7.17858744 2.23102021 47 15 32956 8.62000000 2338192914 2338192914 15.00000000
-1.07894266 1.84195828 -0.57199007 4 0 32964 2.21000000 2338192934 2338192934 -15.00000000
-1.27278733 2.17462778 -0.58172345 3 2 32966 2.58600000 2338192939 2338192939 -13.00000000
-1.50395906 2.57062650 -0.57891446 2 4 32967 3.03400000 2338192944 2338192944 -11.00000000
-12.14321518 20.76398087 2.10446262 22 5 32968 24.14600000 2338192946 2338192946 5.00000000
-1.87422800 3.20607209 -0.58819360 2 6 32969 3.76000000 2338192948 2338192948 -9.00000000
-10.29677010 17.62080956 2.50587749 16 7 32970 20.56200000 2338192951 2338192951 7.00000000
-2.42398930 4.14982319 -0.59009135 2 8 32971 4.84200000 2338192953 2338192953 -7.00000000
-7.90753555 13.54297543 2.48386645 50 9 32972 15.87800000 2338192955 2338192955 9.00000000
-3.43779230 5.88779354 -0.59649390 4 10 32972 6.84400000 2338192957 2338192957 -5.00000000
-5.75270987 9.85642719 2.21834540 6 11 32973 11.62600000 2338192960 2338192960 11.00000000
-5.82845783 9.99021435 -0.60615504 4 12 32974 11.58200000 2338192962 2338192962 -3.00000000
-5.55263424 9.52125931 2.54464626 62 13 32975 11.31200000 2338192964 2338192964 13.00000000
-22.83281326 39.16777802 -0.79136193 6 14 32976 45.34400000 2338192967 2338192967 -1.00000000
-4.18232632 7.17730904 2.22584391 45 15 32977 8.60000000 2338192969 2338192969 15.00000000
-1.07833004 1.85573518 -0.57509589 4 0 32984 2.22200000 2338192990 2338192990 -15.00000000
-1.26323175 2.17568684 -0.58082360 3 2 32986 2.58200000 2338192994 2338192994 -13.00000000
-20.20542336 34.81415558 2.10955763 27 3 32987 40.30800000 2338192997 2338192997 3.00000000
-1.50088966 2.58604884 -0.58120418 4 4 32987 3.04600000 2338192999 2338192999 -11.00000000
-12.04166698 20.75626373 2.09940743 22 5 32988 24.08800000 2338193001 2338193001 5.00000000
-1.84915161 3.18867111 -0.58381343 2 6 32989 3.73200000 2338193004 2338193004 -9.00000000
-10.21827507 17.62744904 2.50173378 40 7 32990 20.52800000 2338193006 2338193006 7.00000000
-2.40550804 4.15138865 -0.58911639 2 8 32991 4.83400000 2338193008 2338193008 -7.00000000
-7.85862017 13.56228638 2.48261499 54 9 32991 15.87000000 2338193010 2338193010 9.00000000
-3.40523601 5.87906933 -0.59440219 4 10 32992 6.82000000 2338193013 2338193013 -5.00000000
-5.78554630 9.99666977 -0.60531765 4 12 32994 11.56600000 2338193017 2338193017 -3.00000000
-20.97513580 36.27149963 -0.73136055 5 14 32996 41.90600000 2338193022 2338193022 -1.00000000
-4.16237068 7.19782829 2.22791433 45 15 32996 8.60800000 2338193024 2338193024 15.00000000
-1.07377517 1.86283541 -0.57613117 4 0 33004 2.22600000 2338193045 2338193045 -15.00000000
-1.24979389 2.16995120 -0.57812423 3 2 33006 2.57000000 2338193050 2338193050 -13.00000000
-20.13260460 34.96928787 2.11468673 36 3 33007 40.40600000 2338193052 2338193052 3.00000000
-1.49381256 2.59467483 -0.58196741 2 4 33007 3.05000000 2338193054 2338193054 -11.00000000
-11.95224667 20.76881409 2.09644413 22 5 33008 24.05400000 2338193057 2338193057 5.00000000
-1.84982979 3.21565390 -0.58756787 2 6 33009 3.75600000 2338193059 2338193059 -9.00000000
-9.57680893 16.65458107 2.35890293 11 7 33010 19.35600000 2338193061 2338193061 7.00000000
-2.40089464 4.17697096 -0.59155381 2 8 33011 4.85400000 2338193063 2338193063 -7.00000000
-7.80689096 13.58757305 2.48198915 54 9 33012 15.86600000 2338193066 2338193066 9.00000000
-3.41447091 5.94274616 -0.59963149 4 10 33012 6.88000000 2338193068 2338193068 -5.00000000
-6.16775417 10.73906136 2.40724635 59 11 33013 12.61600000 2338193070 2338193070 11.00000000
-5.75956583 10.03239250 -0.60625970 4 12 33014 11.58400000 2338193073 2338193073 -3.00000000
-4.79930496 8.36312771 2.22611570 59 13 33015 9.89600000 2338193075 2338193075 13.00000000
-20.32203865 35.42690659 -0.71289587 5 14 33016 40.84800000 2338193077 2338193077 -1.00000000
-4.13211775 7.20633221 2.22584391 47 15 33017 8.60000000 2338193080 2338193080 15.00000000
-1.07301962 1.87663460 -0.57923704 4 0 33024 2.23800000 2338193100 2338193100 -15.00000000
-20.26338768 35.45357513 0.71279120 10 1 33025 40.84200000 2338193103 2338193103 1.00000000
-1.24801195 2.18445277 -0.58082360 3 2 33026 2.58200000 2338193105 2338193105 -13.00000000
-19.99753952 35.01680374 2.11332583 36 3 33027 40.38000000 2338193107 2338193107 3.00000000
-1.47890472 2.58964443 -0.57967770 4 4 33027 3.03800000 2338193110 2338193110 -11.00000000
-11.84806919 20.75503922 2.09086633 22 5 33028 23.99000000 2338193112 2338193112 5.00000000
-1.82880366 3.20493436 -0.58443916 2 6 33029 3.73600000 2338193114 2338193114 -9.00000000
-10.06742573 17.65007591 2.49490929 38 7 33030 20.47200000 2338193116 2338193116 7.00000000
-2.39219904 4.19567299 -0.59301621 2 8 33031 4.86600000 2338193119 2338193119 -7.00000000
-7.75983334 13.60995483 2.48136353 50 9 33031 15.86200000 2338193121 2338193121 9.00000000
-3.40357137 5.97193861 -0.60137463 4 10 33032 6.90000000 2338193123 2338193123 -5.00000000
-6.11954021 10.74176025 2.40304852 59 11 33033 12.59400000 2338193126 2338193126 11.00000000
-5.73637104 10.07326317 -0.60751575 4 12 33034 11.60800000 2338193128 2338193128 -3.00000000
-4.76140642 8.36458683 2.22206640 64 13 33035 9.87800000 2338193130 2338193130 13.00000000
-20.16759491 35.44374847 -0.71181387 5 14 33036 40.78600000 2338193133 2338193133 -1.00000000
-4.10915327 7.22167397 2.22636151 45 15 33036 8.60200000 2338193135 2338193135 15.00000000
-1.06074405 1.87028635 -0.57613117 4 0 33044 2.22600000 2338193156 2338193156 -15.00000000
-20.09217072 35.44058990 0.71111578 10 1 33045 40.74600000 2338193158 2338193158 1.00000000
-1.23653603 2.18201423 -0.57902402 3 2 33046 2.57400000 2338193160 2338193160 -13.00000000
-19.88404655 35.10203552 2.11426806 36 3 33047 40.39800000 2338193163 2338193163 3.00000000
-1.46985614 2.59479094 -0.57967770 4 4 33047 3.03800000 2338193165 2338193165 -11.00000000
-11.75002384 20.75119209 2.08633423 21 5 33048 23.93800000 2338193167 2338193167 5.00000000
-1.83317363 3.23880434 -0.58944505 2 6 33049 3.76800000 2338193169 2338193169 -9.00000000
-10.01357365 17.69893074 2.49685907 45 7 33050 20.48800000 2338193172 2338193172 7.00000000
-2.38144779 4.21090937 -0.59399116 2 8 33051 4.87400000 2338193174 2338193174 -7.00000000
-7.70449877 13.62320328 2.47886062 50 9 33051 15.84600000 2338193176 2338193176 9.00000000
-3.39447069 6.00459623 -0.60346639 4 10 33052 6.92400000 2338193179 2338193179 -5.00000000
-6.07138252 10.74425507 2.39885068 59 11 33053 12.57200000 2338193181 2338193181 11.00000000
-5.70510292 10.10018158 -0.60793447 4 12 33054 11.61600000 2338193183 2338193183 -3.00000000
-4.73122168 8.37945938 2.22161651 59 13 33055 9.87600000 2338193186 2338193186 13.00000000
-19.99558830 35.42859650 -0.71010351 5 14 33056 40.68800000 2338193188 2338193188 -1.00000000
-4.07917213 7.22756195 2.22377324 45 15 33056 8.59200000 2338193190 2338193190 15.00000000
-1.05231476 1.87061012 -0.57509589 4 0 33064 2.22200000 2338193211 2338193211 -15.00000000
-19.93795204 35.45647812 0.71003371 10 1 33065 40.68400000 2338193213 2338193213 1.00000000
-1.23464096 2.19650984 -0.58172345 3 2 33066 2.58600000 2338193216 2338193216 -13.00000000
-19.78389740 35.21128082 2.11667538 36 3 33067 40.44400000 2338193218 2338193218 3.00000000
-1.46078968 2.59990597 -0.57967770 2 4 33067 3.03800000 2338193220 2338193220 -11.00000000
-11.65019894 20.74344063 2.08145356 21 5 33068 23.88200000 2338193222 2338193222 5.00000000
-1.80831861 3.22106862 -0.58506489 2 6 33069 3.74000000 2338193225 2338193225 -9.00000000
-9.94881725 17.72858429 2.49612784 47 7 33070 20.48200000 2338193227 2338193227 7.00000000
-2.36479211 4.21573400 -0.59350371 2 8 33071 4.87000000 2338193229 2338193229 -7.00000000
-7.65258360 13.64790440 2.47823477 46 9 33072 15.84200000 2338193232 2338193232 9.00000000
-3.35984778 5.99207878 -0.60102600 4 10 33072 6.89600000 2338193234 2338193234 -5.00000000
-6.02136278 10.74311829 2.39388967 65 11 33073 12.54600000 2338193236 2338193236 11.00000000
-5.68152666 10.14094353 -0.60919052 4 12 33074 11.64000000 2338193239 2338193239 -3.00000000
-4.70194292 8.39592361 2.22161651 56 13 33075 9.87600000 2338193241 2338193241 13.00000000
-19.83370209 35.43013000 -0.70874220 5 14 33076 40.61000000 2338193243 2338193243 -1.00000000
-4.03315830 7.20467138 2.21238518 33 15 33076 8.54800000 2338193245 2338193245 15.00000000
-1.04766130 1.87764609 -0.57613117 4 0 33084 2.22600000 2338193266 2338193266 -15.00000000
-19.75269890 35.41583252 0.70783472 10 1 33085 40.55800000 2338193269 2338193269 1.00000000
-1.22886407 2.20421028 -0.58262324 3 2 33086 2.59000000 2338193271 2338193271 -13.00000000
-19.63364410 35.23127365 2.11374450 36 3 33087 40.38800000 2338193273 2338193273 3.00000000
-1.45552826 2.61184907 -0.58120418 2 4 33087 3.04600000 2338193275 2338193275 -11.00000000
-11.56026745 20.75265121 2.07831573 21 5 33088 23.84600000 2338193278 2338193278 5.00000000
-1.80282998 3.23771620 -0.58694214 2 6 33089 3.75200000 2338193280 2338193280 -9.00000000
-9.87818336 17.74759293 2.49393415 45 7 33090 20.46400000 2338193282 2338193282 7.00000000
-2.35778308 4.23784018 -0.59545362 2 8 33091 4.88600000 2338193285 2338193285 -7.00000000
-7.60489655 13.67453289 2.47823477 50 9 33092 15.84200000 2338193287 2338193287 9.00000000
-3.33310103 5.99332285 -0.59998012 4 10 33092 6.88400000 2338193289 2338193289 -5.00000000
-5.96760941 10.73490047 2.38740206 68 11 33093 12.51200000 2338193292 2338193292 11.00000000
-5.65773487 10.18166447 -0.61044657 4 12 33094 11.66400000 2338193294 2338193294 -3.00000000
-4.67449951 8.41569233 2.22251630 59 13 33095 9.88000000 2338193296 2338193296 13.00000000
-19.67107964 35.42921448 -0.70734602 5 14 33096 40.53000000 2338193298 2338193298 -1.00000000
-3.95891404 7.13325882 2.18598557 20 15 33097 8.44600000 2338193301 2338193301 15.00000000
-1.04110074 1.88129163 -0.57613117 4 0 33104 2.22600000 2338193322 2338193322 -15.00000000
-19.59991646 35.43207169 0.70678753 10 1 33105 40.49800000 2338193324 2338193324 1.00000000
-1.21644759 2.19995952 -0.58037370 4 2 33106 2.58000000 2338193326 2338193326 -13.00000000
-19.52407074 35.32406616 2.11521006 27 3 33107 40.41600000 2338193328 2338193328 3.00000000
-1.45210052 2.62722349 -0.58349389 2 4 33107 3.05800000 2338193331 2338193331 -11.00000000
-11.46077919 20.74404716 2.07343507 21 5 33108 23.79000000 2338193333 2338193333 5.00000000
-1.78769743 3.23707271 -0.58569062 2 6 33109 3.74400000 2338193335 2338193335 -9.00000000
-9.80562019 17.76284981 2.49125314 45 7 33110 20.44200000 2338193338 2338193338 7.00000000
-2.34297585 4.24604464 -0.59545362 2 8 33111 4.88600000 2338193340 2338193340 -7.00000000
-7.56093359 13.70791531 2.47948623 54 9 33112 15.85000000 2338193342 2338193342 9.00000000
-3.31408477 6.00840998 -0.60032874 4 10 33112 6.88800000 2338193345 2338193345 -5.00000000
-5.91588259 10.72987747 2.38167787 59 11 33113 12.48200000 2338193347 2338193347 11.00000000
-5.62408781 10.20485020 -0.61065596 4 12 33114 11.66800000 2338193349 2338193349 -3.00000000
-4.64133358 8.42513084 2.22071671 59 13 33115 9.87200000 2338193351 2338193351 13.00000000
-19.51738739 35.44335938 -0.70626396 5 14 33116 40.46800000 2338193354 2338193354 -1.00000000
-3.89982677 7.08204269 2.16631532 15 15 33116 8.37000000 2338193356 2338193356 15.00000000
-1.04382241 1.90184975 -0.58130759 4 0 33124 2.24600000 2338193377 2338193377 -15.00000000
-19.47130775 35.49150467 0.70661300 40 1 33125 40.48800000 2338193379 2338193379 1.00000000
-1.20782387 2.20248365 -0.57992381 3 2 33126 2.57800000 2338193381 2338193381 -13.00000000
-15.98959732 29.16932869 1.74331069 6 3 33127 33.31000000 2338193384 2338193384 3.00000000
-1.44480836 2.63571930 -0.58425713 2 4 33127 3.06200000 2338193386 2338193386 -11.00000000
-11.37298012 20.75597000 2.07064605 21 5 33128 23.75800000 2338193388 2338193388 5.00000000
-1.78777409 3.26408362 -0.58944505 2 6 33129 3.76800000 2338193391 2338193391 -9.00000000
-9.73402309 17.77955818 2.48881578 47 7 33130 20.42200000 2338193393 2338193393 7.00000000
-2.31289220 4.22633505 -0.59155381 2 8 33131 4.85400000 2338193395 2338193395 -7.00000000
-7.50545406 13.72035980 2.47698331 54 9 33132 15.83400000 2338193398 2338193398 9.00000000
-3.31603956 6.06189251 -0.60451221 4 10 33132 6.93600000 2338193400 2338193400 -5.00000000
-5.87085676 10.73668194 2.37862492 59 11 33133 12.46600000 2338193402 2338193402 11.00000000
-5.60759020 10.25946999 -0.61274940 4 12 33134 11.70800000 2338193404 2338193404 -3.00000000
-4.61002731 8.43786049 2.21981692 57 13 33135 9.86800000 2338193407 2338193407 13.00000000
-19.48268509 35.67449188 -0.70951015 5 14 33136 40.65400000 2338193409 2338193409 -1.00000000
-3.86582279 7.07865763 2.16113901 15 15 33136 8.35000000 2338193411 2338193411 15.00000000
-1.02978873 1.89190757 -0.57716650 4 0 33144 2.23000000 2338193433 2338193433 -15.00000000
-19.43618011 35.72261429 0.70985919 40 1 33145 40.67400000 2338193435 2338193435 1.00000000
-1.20385253 2.21353412 -0.58172345 3 2 33146 2.58600000 2338193438 2338193438 -13.00000000
-15.97770786 29.37834740 1.75262654 6 3 33146 33.48800000 2338193440 2338193440 3.00000000
-1.42247164 2.61659861 -0.57891446 2 4 33147 3.03400000 2338193442 2338193442 -11.00000000
-11.27382278 20.74652672 2.06576538 21 5 33148 23.70200000 2338193445 2338193445 5.00000000
-1.77259803 3.26336098 -0.58819360 2 6 33149 3.76000000 2338193447 2338193447 -9.00000000
-9.67569065 17.82040596 2.48979068 19 7 33150 20.43000000 2338193449 2338193449 7.00000000
-2.31138206 4.25880861 -0.59496611 2 8 33151 4.88200000 2338193451 2338193451 -7.00000000
-7.45426083 13.73475647 2.47510600 50 9 33151 15.82200000 2338193454 2338193454 9.00000000
-3.28345847 6.05241537 -0.60242051 4 10 33152 6.91200000 2338193456 2338193456 -5.00000000
-5.82772779 10.74675465 2.37633514 59 11 33153 12.45400000 2338193458 2338193458 11.00000000
-5.58697224 10.30707645 -0.61442411 4 12 33154 11.74000000 2338193461 2338193461 -3.00000000
-4.58240271 8.45732784 2.22071671 59 13 33155 9.87200000 2338193463 2338193463 13.00000000
-19.47422409 35.95680237 -0.71376854 5 14 33156 40.89800000 2338193465 2338193465 -1.00000000
-3.83096981 7.07342291 2.15544510 18 15 33156 8.32800000 2338193468 2338193468 15.00000000
-1.02317846 1.89549065 -0.57716650 4 0 33164 2.23000000 2338193488 2338193488 -15.00000000
-19.43006325 36.01022339 0.71422225 40 1 33165 40.92400000 2338193491 2338193491 1.00000000
-1.19704366 2.21943784 -0.58217335 4 2 33166 2.58800000 2338193493 2338193493 -13.00000000
-15.94953823 29.58438683 1.76141894 6 3 33167 33.65600000 2338193495 2338193495 3.00000000
-1.41891921 2.63191676 -0.58120418 2 4 33167 3.04600000 2338193498 2338193498 -11.00000000
-11.16636372 20.72085762 2.05931592 21 5 33168 23.62800000 2338193500 2338193500 5.00000000
-1.76681674 3.27996325 -0.59007078 2 6 33169 3.77200000 2338193502 2338193502 -9.00000000
-9.62001514 17.86630630 2.49149680 52 7 33170 20.44400000 2338193504 2338193504 7.00000000
-2.29085732 4.25636292 -0.59350371 2 8 33171 4.87000000 2338193507 2338193507 -7.00000000
-7.39825487 13.75154781 2.47322893 50 9 33172 15.81000000 2338193509 2338193509 9.00000000
-3.27363920 6.08489513 -0.60451221 4 10 33172 6.93600000 2338193511 2338193511 -5.00000000
-5.77716112 10.74282455 2.37099266 62 11 33173 12.42600000 2338193514 2338193514 11.00000000
-5.56419897 10.35114479 -0.61588955 4 12 33174 11.76800000 2338193516 2338193516 -3.00000000
-4.55285311 8.47327137 2.22071671 57 13 33175 9.87200000 2338193518 2338193518 13.00000000
-3.79405308 7.06699181 2.14923334 18 15 33177 8.30400000 2338193523 2338193523 15.00000000
-1.01506317 1.89546716 -0.57613117 4 0 33183 2.22600000 2338193544 2338193544 -15.00000000
-23.49691582 43.89511871 0.86906004 71 1 33184 49.79600000 2338193546 2338193546 1.00000000
-1.18508029 2.21480417 -0.57992381 4 2 33185 2.57800000 2338193548 2338193548 -13.00000000
-18.45529747 34.49122620 2.05010414 8 3 33185 39.17200000 2338193551 2338193551 3.00000000
-1.41759109 2.65045714 -0.58425713 2 4 33186 3.06200000 2338193553 2338193553 -11.00000000
-11.07504463 20.71560287 2.05513239 21 5 33187 23.58000000 2338193555 2338193555 5.00000000
-1.74475789 3.26489782 -0.58631635 2 6 33188 3.74800000 2338193557 2338193557 -9.00000000
-9.54855633 17.87534714 2.48832822 47 7 33189 20.41800000 2338193560 2338193560 7.00000000
-2.28981996 4.28845167 -0.59691602 2 8 33190 4.89800000 2338193562 2338193562 -7.00000000
-7.35075235 13.77252007 2.47260308 46 9 33191 15.80600000 2338193564 2338193564 9.00000000
-3.27783442 6.14141750 -0.60904431 4 10 33191 6.98800000 2338193567 2338193567 -5.00000000
-5.72487116 10.73074436 2.36412334 62 11 33192 12.39000000 2338193569 2338193569 11.00000000
-5.53548145 10.38011360 -0.61651754 4 12 33193 11.78000000 2338193571 2338193571 -3.00000000
-4.52839613 8.49520111 2.22251630 60 13 33194 9.88000000 2338193574 2338193574 13.00000000
-3.76002312 7.05671215 2.14250398 22 15 33195 8.27800000 2338193578 2338193578 15.00000000
-1.00662839 1.89558649 -0.57509589 4 0 33203 2.22200000 2338193599 2338193599 -15.00000000
-23.30135918 43.89738846 0.86748934 83 1 33204 49.70600000 2338193601 2338193601 1.00000000
-1.18099546 2.22581315 -0.58172345 3 2 33205 2.58600000 2338193603 2338193603 -13.00000000
-18.30296135 34.49544907 2.04654527 8 3 33205 39.10400000 2338193606 2338193606 3.00000000
-1.40281141 2.64498281 -0.58196741 2 4 33206 3.05000000 2338193608 2338193608 -11.00000000
-10.98586845 20.72245026 2.05199480 14 5 33207 23.54400000 2338193610 2338193610 5.00000000
-1.73890030 3.28144073 -0.58819360 2 6 33208 3.76000000 2338193613 2338193613 -9.00000000
-9.47773838 17.89278030 2.48613453 45 7 33209 20.40000000 2338193615 2338193615 7.00000000
-2.26926327 4.28589249 -0.59545362 2 8 33210 4.88600000 2338193617 2338193617 -7.00000000
-7.30263233 13.79809475 2.47260308 46 9 33211 15.80600000 2338193620 2338193620 9.00000000
-3.23214507 6.10703707 -0.60451221 4 10 33211 6.93600000 2338193622 2338193622 -5.00000000
-5.67452621 10.72636700 2.35878086 62 11 33212 12.36200000 2338193624 2338193624 11.00000000
-5.49921465 10.39937210 -0.61651754 4 12 33213 11.78000000 2338193627 2338193627 -3.00000000
-4.49142981 8.49717426 2.21891713 59 13 33214 9.86400000 2338193629 2338193629 13.00000000
-20.95820427 39.66682816 -0.78308946 6 14 33215 44.87000000 2338193631 2338193631 -1.00000000
-3.73446536 7.06808615 2.14198637 20 15 33215 8.27600000 2338193633 2338193633 15.00000000
-1.00720620 1.91276348 -0.57923704 4 0 33223 2.23800000 2338193654 2338193654 -15.00000000
-23.10700417 43.90059662 0.86595351 95 1 33224 49.61800000 2338193656 2338193656 1.00000000
-1.17140400 2.22647262 -0.58082360 3 2 33225 2.58200000 2338193659 2338193659 -13.00000000
-18.11133003 34.43856430 2.03921819 8 3 33226 38.96400000 2338193661 2338193661 3.00000000
-1.39539778 2.65333867 -0.58273065 2 4 33226 3.05400000 2338193663 2338193663 -11.00000000
-9.54511166 18.15765190 1.79471111 6 5 33227 20.59200000 2338193666 2338193666 5.00000000
-1.72192228 3.27699876 -0.58631635 2 6 33228 3.74800000 2338193668 2338193668 -9.00000000
-9.40599251 17.90818024 2.48369718 42 7 33229 20.38000000 2338193670 2338193670 7.00000000
-2.25428891 4.29378748 -0.59545362 2 8 33230 4.88600000 2338193673 2338193673 -7.00000000
-7.25316286 13.81523991 2.47135162 46 9 33230 15.79800000 2338193675 2338193675 9.00000000
-3.22191787 6.13945246 -0.60660398 4 10 33231 6.96000000 2338193677 2338193677 -5.00000000
-5.62610531 10.72524643 2.35420132 62 11 33232 12.33800000 2338193680 2338193680 11.00000000
-5.47772026 10.44680595 -0.61819232 4 12 33233 11.81200000 2338193682 2338193682 -3.00000000
-4.45812273 8.50589561 2.21711755 57 13 33234 9.85600000 2338193684 2338193684 13.00000000
-20.83446312 39.76808548 -0.78364795 6 14 33235 44.90200000 2338193686 2338193686 -1.00000000
-3.70405340 7.07316923 2.13939834 20 15 33236 8.26600000 2338193689 2338193689 15.00000000
-0.99873501 1.91284263 -0.57820177 4 0 33243 2.23400000 2338193709 2338193709 -15.00000000
-22.90828705 43.89411926 0.86424315 83 1 33244 49.52000000 2338193712 2338193712 1.00000000
-1.16723037 2.23745918 -0.58262324 3 2 33245 2.59000000 2338193714 2338193714 -13.00000000
-17.95822906 34.42406082 2.03482199 8 3 33245 38.88000000 2338193716 2338193716 3.00000000
-1.38431191 2.65471172 -0.58196741 2 4 33246 3.05000000 2338193719 2338193719 -11.00000000
-9.51114082 18.24739647 1.80028903 6 5 33247 20.65600000 2338193721 2338193721 5.00000000
-1.72872770 3.31802654 -0.59257376 2 6 33248 3.78800000 2338193723 2338193723 -9.00000000
-9.33700562 17.92858124 2.48199105 38 7 33249 20.36600000 2338193726 2338193726 7.00000000
-2.25578618 4.33332491 -0.59984088 2 8 33250 4.92200000 2338193728 2338193728 -7.00000000
-7.19336081 13.82420731 2.46822309 50 9 33251 15.77800000 2338193730 2338193730 9.00000000
-3.20046759 6.15066147 -0.60660398 4 10 33251 6.96000000 2338193733 2338193733 -5.00000000
-5.58319759 10.73436928 2.35191178 59 11 33252 12.32600000 2338193735 2338193735 11.00000000
-5.46517467 10.51193714 -0.62091380 4 12 33253 11.86400000 2338193737 2338193737 -3.00000000
-4.42840481 8.52140617 2.21711755 57 13 33254 9.85600000 2338193739 2338193739 13.00000000
-20.69551849 39.84056854 -0.78364795 6 14 33255 44.90200000 2338193742 2338193742 -1.00000000
-3.67310905 7.07405376 2.13577485 22 15 33256 8.25200000 2338193744 2338193744 15.00000000
-0.98672307 1.90602374 -0.57509589 4 0 33263 2.22200000 2338193765 2338193765 -15.00000000
-22.70805931 43.88324356 0.86246300 100 1 33264 49.41800000 2338193767 2338193767 1.00000000
-1.16120362 2.24498177 -0.58352304 3 2 33265 2.59400000 2338193769 2338193769 -13.00000000
-17.81593513 34.44395828 2.03230977 8 3 33265 38.83200000 2338193772 2338193772 3.00000000
-1.38044679 2.66999149 -0.58425713 2 4 33266 3.06200000 2338193774 2338193774 -11.00000000
-9.48763561 18.35836601 1.80795872 12 5 33267 20.74400000 2338193776 2338193776 5.00000000
-1.70897555 3.30824542 -0.58975792 2 6 33268 3.77000000 2338193779 2338193779 -9.00000000
-9.26525879 17.94342613 2.47955370 35 7 33269 20.34600000 2338193781 2338193781 7.00000000
-2.24246716 4.34470034 -0.60032839 2 8 33270 4.92600000 2338193783 2338193783 -7.00000000
-7.14385462 13.84096432 2.46697140 54 9 33270 15.77000000 2338193786 2338193786 9.00000000
-3.16436219 6.13346577 -0.60381496 4 10 33271 6.92800000 2338193788 2338193788 -5.00000000
-5.52949667 10.72238541 2.34504247 50 11 33272 12.29000000 2338193790 2338193790 11.00000000
-5.41929674 10.51319790 -0.61986709 4 12 33273 11.84400000 2338193792 2338193792 -3.00000000
-4.40041780 8.54027653 2.21801734 60 13 33274 9.86000000 2338193795 2338193795 13.00000000
-3.63866711 7.06793880 2.13008070 20 15 33276 8.23000000 2338193799 2338193799 15.00000000
-0.98182803 1.91289377 -0.57613117 4 0 33283 2.22600000 2338193820 2338193820 -15.00000000
-22.51001167 43.87506104 0.86075270 82 1 33284 49.32000000 2338193822 2338193822 1.00000000
-1.15158165 2.24555349 -0.58262324 3 2 33285 2.59000000 2338193825 2338193825 -13.00000000
-17.67007637 34.45617676 2.02937913 8 3 33285 38.77600000 2338193827 2338193827 3.00000000
-1.37111831 2.67479372 -0.58425713 2 4 33286 3.06200000 2338193829 2338193829 -11.00000000
-9.48527622 18.51194763 1.81981194 18 5 33287 20.88000000 2338193832 2338193832 5.00000000
-1.69291472 3.30539989 -0.58819360 2 6 33288 3.76000000 2338193834 2338193834 -9.00000000
-9.18809414 17.94738579 2.47565389 26 7 33289 20.31400000 2338193836 2338193836 7.00000000
-2.22186184 4.34189892 -0.59886593 2 8 33290 4.91400000 2338193839 2338193839 -7.00000000
-7.09549713 13.86581707 2.46697140 46 9 33290 15.77000000 2338193841 2338193841 9.00000000
-3.15382099 6.16576004 -0.60590672 4 10 33291 6.95200000 2338193843 2338193843 -5.00000000
-5.39347267 10.55339241 -0.62112314 4 12 33293 11.86800000 2338193848 2338193848 -3.00000000
-4.37057972 8.55558491 2.21801734 59 13 33294 9.86000000 2338193850 2338193850 13.00000000
-3.60606885 7.06511068 2.12542200 18 15 33296 8.21200000 2338193855 2338193855 15.00000000
-0.98127782 1.92836154 -0.57975465 4 0 33303 2.24000000 2338193875 2338193875 -15.00000000
-22.31592369 43.87316132 0.85918194 100 1 33304 49.23000000 2338193878 2338193878 1.00000000
-1.14373612 2.24955940 -0.58262324 3 2 33305 2.59000000 2338193880 2338193880 -13.00000000
-17.50081444 34.42150879 2.02372670 8 3 33305 38.66800000 2338193882 2338193882 3.00000000
-1.36355221 2.68306398 -0.58502036 2 4 33306 3.06600000 2338193885 2338193885 -11.00000000
-9.47474098 18.65152550 1.83027065 18 5 33307 21.00000000 2338193887 2338193887 5.00000000
-1.69567597 3.33947015 -0.59319949 2 6 33308 3.79200000 2338193889 2338193889 -9.00000000
-7.73820877 15.24624729 2.09932137 5 7 33309 17.22600000 2338193891 2338193891 7.00000000
-2.20309973 4.34254694 -0.59789097 2 8 33310 4.90600000 2338193894 2338193894 -7.00000000
-7.04526567 13.88697720 2.46634579 50 9 33310 15.76600000 2338193896 2338193896 9.00000000
-3.13227916 6.17673111 -0.60590672 4 10 33311 6.95200000 2338193898 2338193898 -5.00000000
-4.97429657 9.81336212 2.13858724 12 11 33312 11.20800000 2338193901 2338193901 11.00000000
-5.35299063 10.56502819 -0.62070441 4 12 33313 11.86000000 2338193903 2338193903 -3.00000000
-4.33716679 8.56383514 2.21621776 59 13 33314 9.85200000 2338193905 2338193905 13.00000000
-3.58262038 7.07703018 2.12542200 15 15 33315 8.21200000 2338193910 2338193910 15.00000000
-0.97280037 1.92832553 -0.57871938 4 0 33323 2.23600000 2338193931 2338193931 -15.00000000
-22.12482643 43.87579727 0.85771596 94 1 33324 49.14600000 2338193933 2338193933 1.00000000
-1.13587677 2.25353813 -0.58262324 3 2 33325 2.59000000 2338193935 2338193935 -13.00000000
-17.35178757 34.42531586 2.02037716 8 3 33325 38.60400000 2338193938 2338193938 3.00000000
-1.35594487 2.69131398 -0.58578360 2 4 33326 3.07000000 2338193940 2338193940 -11.00000000
-9.46961975 18.80370903 1.84194946 19 5 33327 21.13400000 2338193942 2338193942 5.00000000
-1.66979766 3.31713796 -0.58819360 2 6 33328 3.76000000 2338193944 2338193944 -9.00000000
-7.67334318 15.25011349 2.09615278 9 7 33329 17.20000000 2338193947 2338193947 7.00000000
