# .PCD v0.7 - Point Cloud Data file format
VERSION 0.7
FIELDS x y z intensity laser_id azimuth distance_m adjustedtime timestamp vertical_angle
SIZE 4 4 4 1 1 2 8 8 4 8
TYPE F F F U U U F U U F
COUNT 1 1 1 1 1 1 1 1 1 1
WIDTH 520
HEIGHT 1
VIEWPOINT 0 0 0 1 0 0 0
POINTS 520
DATA ascii
-4.62178707 3.95156622 -0.53199863 7 10 31053 6.10400000 2337887723 2337887723 -5.00000000
-10.17828655 8.70537472 2.60339785 46 11 31054 13.64400000 2337887726 2337887726 11.00000000
-7.40889978 6.33898830 -0.51100826 12 12 31055 9.76400000 2337887728 2337887728 -3.00000000
-8.59878731 7.35964537 2.61303139 60 13 31056 11.61600000 2337887730 2337887730 13.00000000
-12.78687859 10.94807243 -0.29382873 7 14 31057 16.83600000 2337887733 2337887733 -1.00000000
-7.37140512 6.31359625 2.60061383 42 15 31058 10.04800000 2337887735 2337887735 15.00000000
-1.56830096 1.34657228 -0.55387276 4 0 31065 2.14000000 2337887756 2337887756 -15.00000000
-12.73477650 10.93817711 0.29302591 14 1 31066 16.79000000 2337887758 2337887758 1.00000000
-1.83280921 1.57479572 -0.55787861 4 2 31067 2.48000000 2337887760 2337887760 -13.00000000
-12.75785637 10.96574211 0.88165152 10 3 31068 16.84600000 2337887763 2337887763 3.00000000
-2.15735435 1.85430765 -0.55296445 2 4 31068 2.89800000 2337887765 2337887765 -11.00000000
-12.74448109 10.95811367 1.47049165 9 5 31069 16.87200000 2337887767 2337887767 5.00000000
-2.64176798 2.27227902 -0.55190080 3 6 31070 3.52800000 2337887770 2337887770 -9.00000000
-12.75869656 10.97808456 2.06666040 7 7 31071 16.95800000 2337887772 2337887772 7.00000000
-3.09328222 2.66252160 -0.50112677 40 8 31072 4.11200000 2337887774 2337887774 -7.00000000
-9.74944878 8.39177132 2.03740239 16 9 31072 13.02400000 2337887776 2337887776 9.00000000
-4.60192633 3.96247506 -0.53130138 3 10 31073 6.09600000 2337887779 2337887779 -5.00000000
-10.14039898 8.73444366 2.60148978 46 11 31074 13.63400000 2337887781 2337887781 11.00000000
-7.40337086 6.37915230 -0.51215965 12 12 31075 9.78600000 2337887783 2337887783 -3.00000000
-8.57304478 7.38961601 2.61303139 59 13 31076 11.61600000 2337887786 2337887786 13.00000000
-12.69860840 10.94954681 -0.29267687 10 14 31077 16.77000000 2337887788 2337887788 -1.00000000
-7.35189104 6.33926773 2.60113144 42 15 31077 10.05000000 2337887790 2337887790 15.00000000
-1.56943619 1.35709286 -0.55594331 4 0 31085 2.14800000 2337887811 2337887811 -15.00000000
-12.66324425 10.95378208 0.29225799 10 1 31086 16.74600000 2337887813 2337887813 1.00000000
-1.81993282 1.57480812 -0.55562907 3 2 31087 2.47000000 2337887816 2337887816 -13.00000000
-12.66060734 10.95922947 0.87756932 7 3 31088 16.76800000 2337887818 2337887818 3.00000000
-2.15383720 1.86439669 -0.55372769 3 4 31088 2.90200000 2337887820 2337887820 -11.00000000
-12.64289284 10.94775486 1.46317065 9 5 31089 16.78800000 2337887823 2337887823 5.00000000
-2.64576483 2.29183340 -0.55440372 3 6 31090 3.54400000 2337887825 2337887825 -9.00000000
-12.66329002 10.97315502 2.05739832 7 7 31091 16.88200000 2337887827 2337887827 7.00000000
-3.11096907 2.69670725 -0.50551403 62 8 31092 4.14800000 2337887829 2337887829 -7.00000000
-9.74250412 8.44815445 2.04240847 20 9 31093 13.05600000 2337887832 2337887832 9.00000000
-4.61817217 4.00462055 -0.53478765 3 10 31093 6.13600000 2337887834 2337887834 -5.00000000
-10.10688305 8.76721382 2.60072660 40 11 31094 13.63000000 2337887836 2337887836 11.00000000
-7.41877079 6.43768120 -0.51477647 17 12 31095 9.83600000 2337887839 2337887839 -3.00000000
-8.53542519 7.40927649 2.60943222 59 13 31096 11.60000000 2337887841 2337887841 13.00000000
-12.60444450 10.94529533 -0.29138538 7 14 31097 16.69600000 2337887843 2337887843 -1.00000000
-7.32277346 6.36110353 2.59906077 42 15 31098 10.04200000 2337887846 2337887846 15.00000000
-1.56662238 1.36328483 -0.55646098 4 0 31103 2.15000000 2337887866 2337887866 -15.00000000
-12.57145596 10.94361782 0.29093161 10 1 31104 16.67000000 2337887869 2337887869 1.00000000
-1.81350684 1.57923806 -0.55517918 4 2 31105 2.46800000 2337887871 2337887871 -13.00000000
-12.57340622 10.95303345 0.87390578 10 3 31106 16.69800000 2337887873 2337887873 3.00000000
-2.13908744 1.86341655 -0.55143797 3 4 31106 2.89000000 2337887876 2337887876 -11.00000000
-12.56037045 10.94553280 1.45759261 9 5 31107 16.72400000 2337887878 2337887878 5.00000000
-2.63259578 2.29494190 -0.55315226 3 6 31108 3.53600000 2337887880 2337887880 -9.00000000
-12.57040596 10.96200085 2.04789233 7 7 31109 16.80400000 2337887882 2337887882 7.00000000
-3.10098600 2.70516253 -0.50527030 44 8 31110 4.14600000 2337887885 2337887885 -7.00000000
-9.73823547 8.49520397 2.04678845 20 9 31110 13.08400000 2337887887 2337887887 9.00000000
-4.60556841 4.01910925 -0.53478765 3 10 31111 6.13600000 2337887889 2337887889 -5.00000000
-10.07633209 8.79633999 2.59996343 34 11 31112 13.62600000 2337887892 2337887892 11.00000000
-7.41656208 6.47672129 -0.51603252 17 12 31113 9.86000000 2337887894 2337887894 -3.00000000
-8.50330067 7.42836237 2.60673285 56 13 31114 11.58800000 2337887896 2337887896 13.00000000
-12.51428413 10.93615246 -0.29009390 7 14 31115 16.62200000 2337887899 2337887899 -1.00000000
-7.30677652 6.38534498 2.60009623 45 15 31115 10.04600000 2337887901 2337887901 15.00000000
-1.55749536 1.36492527 -0.55490804 4 0 31123 2.14400000 2337887922 2337887922 -15.00000000
-12.47904587 10.93997765 0.28967506 14 1 31124 16.59800000 2337887924 2337887924 1.00000000
-1.81823921 1.59455299 -0.55832851 3 2 31125 2.48200000 2337887926 2337887926 -13.00000000
-12.48104668 10.94943905 0.87013763 10 3 31126 16.62600000 2337887929 2337887929 3.00000000
-2.14142466 1.87864041 -0.55372769 3 4 31126 2.90200000 2337887931 2337887931 -11.00000000
-12.48165417 10.95382690 1.45288622 14 5 31127 16.67000000 2337887933 2337887933 5.00000000
-2.61863089 2.29890442 -0.55190080 3 6 31128 3.52800000 2337887935 2337887935 -9.00000000
-12.49030113 10.96913528 2.04106784 7 7 31129 16.74800000 2337887938 2337887938 7.00000000
-3.12582493 2.74610424 -0.51087630 28 8 31130 4.19200000 2337887940 2337887940 -7.00000000
-9.74265480 8.55913162 2.05398464 20 9 31130 13.13000000 2337887942 2337887942 9.00000000
-4.61096668 4.05225945 -0.53705370 3 10 31131 6.16200000 2337887945 2337887945 -5.00000000
-10.05146313 8.83664513 2.60148978 34 11 31132 13.63400000 2337887947 2337887947 11.00000000
-7.38341045 6.49333763 -0.51529980 8 12 31133 9.84600000 2337887949 2337887949 -3.00000000
-8.47878170 7.45928621 2.60718274 54 13 31134 11.59000000 2337887952 2337887952 13.00000000
-12.41598797 10.92692375 -0.28869772 10 14 31135 16.54200000 2337887954 2337887954 -1.00000000
-7.27429152 6.40187740 2.59647274 47 15 31135 10.03200000 2337887956 2337887956 15.00000000
-1.55272150 1.37035370 -0.55490804 4 0 31143 2.14400000 2337887977 2337887977 -15.00000000
-12.38381767 10.93317890 0.28834864 14 1 31144 16.52200000 2337887979 2337887979 1.00000000
-1.81850469 1.60605013 -0.56012815 3 2 31145 2.49000000 2337887982 2337887982 -13.00000000
-12.39335632 10.94930077 0.86668342 10 3 31146 16.56000000 2337887984 2337887984 3.00000000
-2.12896872 1.88090444 -0.55220121 3 4 31146 2.89400000 2337887986 2337887986 -11.00000000
-12.38064003 10.94191360 1.44556510 14 5 31147 16.58600000 2337887988 2337887988 5.00000000
-2.61355019 2.31064796 -0.55252653 3 6 31148 3.53200000 2337887991 2337887991 -9.00000000
-12.40137768 10.96795464 2.03278065 7 7 31149 16.68000000 2337887993 2337887993 7.00000000
-3.13852119 2.77672911 -0.51453239 26 8 31150 4.22200000 2337887995 2337887995 -7.00000000
-9.75707531 8.63536739 2.06368351 16 9 31151 13.19200000 2337887998 2337887998 9.00000000
-4.57441378 4.04852295 -0.53443903 3 10 31151 6.13200000 2337888000 2337888000 -5.00000000
-10.01026726 8.86256695 2.59881854 34 11 31152 13.62000000 2337888002 2337888002 11.00000000
-7.37565136 6.53231287 -0.51634657 8 12 31153 9.86600000 2337888005 2337888005 -3.00000000
-8.44977570 7.48625278 2.60628295 52 13 31154 11.58600000 2337888007 2337888007 13.00000000
-12.33137798 10.92908096 -0.28761566 12 14 31155 16.48000000 2337888009 2337888009 -1.00000000
-7.23888874 6.41569853 2.59181380 45 15 31155 10.01400000 2337888011 2337888011 15.00000000
-1.54937255 1.37704873 -0.55542564 4 0 31163 2.14600000 2337888032 2337888032 -15.00000000
-12.29476738 10.93116379 0.28716189 10 1 31164 16.45400000 2337888035 2337888035 1.00000000
-1.80851912 1.60850286 -0.55877841 4 2 31165 2.48400000 2337888037 2337888037 -13.00000000
-12.31477261 10.95664978 0.86385727 10 3 31166 16.50600000 2337888039 2337888039 3.00000000
-2.13412428 1.89876437 -0.55525416 3 4 31166 2.91000000 2337888041 2337888041 -11.00000000
-12.28432751 10.93340397 1.43876696 9 5 31167 16.50800000 2337888044 2337888044 5.00000000
-2.60104251 2.31581616 -0.55158794 5 6 31168 3.52600000 2337888046 2337888046 -9.00000000
-12.30372238 10.95836544 2.02303100 7 7 31169 16.60000000 2337888048 2337888048 7.00000000
-3.11547017 2.77578282 -0.51233870 38 8 31170 4.20400000 2337888051 2337888051 -7.00000000
-9.75489140 8.69434547 2.06962800 13 9 31171 13.23000000 2337888053 2337888053 9.00000000
-4.57512760 4.07772255 -0.53618211 3 10 31171 6.15200000 2337888055 2337888055 -5.00000000
-9.96315098 8.88308430 2.59462070 34 11 31172 13.59800000 2337888058 2337888058 11.00000000
-7.33491802 6.54206610 -0.51509047 8 12 31173 9.84200000 2337888060 2337888060 -3.00000000
-8.42359161 7.51570225 2.60628295 46 13 31174 11.58600000 2337888062 2337888062 13.00000000
-12.24839592 10.93211174 -0.28656852 7 14 31175 16.42000000 2337888064 2337888064 -1.00000000
-7.21820784 6.44476032 2.59284925 45 15 31176 10.01800000 2337888067 2337888067 15.00000000
-1.54887474 1.38631380 -0.55697858 4 0 31183 2.15200000 2337888088 2337888088 -15.00000000
-12.21184158 10.93399715 0.28611475 10 1 31184 16.39400000 2337888090 2337888090 1.00000000
-1.79563534 1.60830510 -0.55652893 3 2 31185 2.47400000 2337888092 2337888092 -13.00000000
-12.22141361 10.95025539 0.85998446 10 3 31186 16.43200000 2337888094 2337888094 3.00000000
-2.13040781 1.90882254 -0.55601740 3 4 31186 2.91400000 2337888097 2337888097 -11.00000000
-12.21641445 10.94962120 1.43528080 14 5 31187 16.46800000 2337888099 2337888099 5.00000000
-2.60617971 2.33674979 -0.55440372 3 6 31188 3.54400000 2337888101 2337888101 -9.00000000
-12.21515179 10.95618057 2.01474404 7 7 31189 16.53200000 2337888104 2337888104 7.00000000
-3.08359909 2.76675534 -0.50868267 44 8 31190 4.17400000 2337888106 2337888106 -7.00000000
-11.96192265 10.73658848 2.54581451 16 9 31191 16.27400000 2337888108 2337888108 9.00000000
-4.56976223 4.10165310 -0.53722799 3 10 31191 6.16400000 2337888111 2337888111 -5.00000000
-9.92916012 8.91518402 2.59385753 34 11 31192 13.59400000 2337888113 2337888113 11.00000000
-7.30312157 6.55962181 -0.51446247 8 12 31193 9.83000000 2337888115 2337888115 -3.00000000
-8.37991142 7.52943087 2.60088420 44 13 31194 11.56200000 2337888117 2337888117 13.00000000
-12.16851902 10.93737030 -0.28559119 7 14 31195 16.36400000 2337888120 2337888120 -1.00000000
-7.19535971 6.46737003 2.59233165 42 15 31195 10.01600000 2337888122 2337888122 15.00000000
-1.54833102 1.39559221 -0.55853152 4 0 31203 2.15800000 2337888143 2337888143 -15.00000000
-12.12310600 10.93102837 0.28492799 14 1 31204 16.32600000 2337888145 2337888145 1.00000000
-1.79001033 1.61456323 -0.55652893 3 2 31205 2.47400000 2337888147 2337888147 -13.00000000
-12.11935329 10.93531704 0.85548353 10 3 31206 16.34600000 2337888150 2337888150 3.00000000
-2.11498618 1.90835619 -0.55372769 2 4 31206 2.90200000 2337888152 2337888152 -11.00000000
-12.12339592 10.94280338 1.42883122 14 5 31207 16.39400000 2337888154 2337888154 5.00000000
-2.60093951 2.34848046 -0.55502951 3 6 31208 3.54800000 2337888157 2337888157 -9.00000000
-12.12821960 10.95484352 2.00670052 7 7 31209 16.46600000 2337888159 2337888159 7.00000000
-3.07539535 2.77883291 -0.50892639 54 8 31210 4.17600000 2337888161 2337888161 -7.00000000
-11.94049168 10.79284859 2.54925609 40 9 31211 16.29600000 2337888164 2337888164 9.00000000
-4.57315350 4.13361168 -0.53931975 3 10 31211 6.18800000 2337888166 2337888166 -5.00000000
-9.89797974 8.94978905 2.59385753 37 11 31212 13.59400000 2337888168 2337888168 11.00000000
-7.26536798 6.57167673 -0.51341575 12 12 31213 9.81000000 2337888170 2337888170 -3.00000000
-8.34490776 7.55079174 2.59818459 43 13 31214 11.55000000 2337888173 2337888173 13.00000000
-12.06355095 10.91939259 -0.28402045 15 14 31215 16.27400000 2337888175 2337888175 -1.00000000
-7.17417240 6.49374342 2.59284925 47 15 31215 10.01800000 2337888177 2337888177 15.00000000
-1.53486741 1.39319789 -0.55542564 4 0 31223 2.14600000 2337888198 2337888198 -15.00000000
-12.04342365 10.93564034 0.28395066 14 1 31224 16.27000000 2337888200 2337888200 1.00000000
-1.79590344 1.63128388 -0.56012815 3 2 31225 2.49000000 2337888203 2337888203 -13.00000000
-12.04310608 10.93918800 0.85265738 10 3 31225 16.29200000 2337888205 2337888205 3.00000000
-2.11121774 1.91836786 -0.55449092 3 4 31226 2.90600000 2337888207 2337888207 -11.00000000
-12.02762508 10.93279076 1.42203307 13 5 31227 16.31600000 2337888210 2337888210 5.00000000
-2.59857178 2.36286092 -0.55628097 3 6 31228 3.55600000 2337888212 2337888212 -9.00000000
-12.04438400 10.95570374 1.99914467 7 7 31229 16.40400000 2337888214 2337888214 7.00000000
-3.07595444 2.79890323 -0.51063257 62 8 31230 4.19000000 2337888216 2337888216 -7.00000000
-11.92655087 10.85232639 2.55394912 64 9 31230 16.32600000 2337888219 2337888219 9.00000000
-4.54101610 4.13345575 -0.53722799 3 10 31231 6.16400000 2337888221 2337888221 -5.00000000
-9.86377621 8.98164177 2.59309435 40 11 31232 13.59000000 2337888223 2337888223 11.00000000
-7.27191448 6.62389660 -0.51550919 8 12 31233 9.85000000 2337888226 2337888226 -3.00000000
-8.31561852 7.57724953 2.59728479 42 13 31234 11.54600000 2337888228 2337888228 13.00000000
-12.01501751 10.95200634 -0.28377613 17 14 31235 16.26000000 2337888230 2337888230 -1.00000000
-7.13718414 6.50573254 2.58767271 45 15 31235 9.99800000 2337888233 2337888233 15.00000000
-1.52999485 1.39854705 -0.55542564 4 0 31243 2.14600000 2337888253 2337888253 -15.00000000
-12.00517750 10.97761250 0.28395066 14 1 31244 16.27000000 2337888256 2337888256 1.00000000
-1.78444672 1.63228166 -0.55832851 3 2 31245 2.48200000 2337888258 2337888258 -13.00000000
-2.10450864 1.92572570 -0.55449092 3 4 31246 2.90600000 2337888263 2337888263 -11.00000000
-11.98351097 10.96932697 1.42133582 46 5 31247 16.30800000 2337888265 2337888265 5.00000000
-2.58448076 2.36658096 -0.55502951 3 6 31248 3.54800000 2337888267 2337888267 -9.00000000
-3.07787418 2.82035208 -0.51258248 70 8 31250 4.20600000 2337888272 2337888272 -7.00000000
-11.87650204 10.88662338 2.55175900 72 9 31251 16.31200000 2337888274 2337888274 9.00000000
-4.52362251 4.14658880 -0.53687936 3 10 31251 6.16000000 2337888276 2337888276 -5.00000000
-9.83091736 9.01469135 2.59271264 43 11 31252 13.58800000 2337888279 2337888279 11.00000000
-7.27376986 6.67219162 -0.51728857 8 12 31253 9.88400000 2337888281 2337888281 -3.00000000
-8.28624725 7.60359526 2.59638500 40 13 31254 11.54200000 2337888283 2337888283 13.00000000
-12.01501656 11.02903843 -0.28468364 15 14 31255 16.31200000 2337888286 2337888286 -1.00000000
-7.10190821 6.52139473 2.58353162 45 15 31256 9.98200000 2337888288 2337888288 15.00000000
-1.52794647 1.40649593 -0.55646098 4 0 31263 2.15000000 2337888309 2337888309 -15.00000000
-11.99914837 11.04925251 0.28471857 10 1 31264 16.31400000 2337888311 2337888311 1.00000000
-1.78160465 1.64114118 -0.55922830 3 2 31265 2.48600000 2337888313 2337888313 -13.00000000
-12.01345158 11.06629848 0.85600692 90 3 31265 16.35600000 2337888316 2337888316 3.00000000
-2.10354877 1.93838167 -0.55601740 3 4 31266 2.91400000 2337888318 2337888318 -11.00000000
-11.98470116 11.04755116 1.42604232 76 5 31267 16.36200000 2337888320 2337888320 5.00000000
-2.57039523 2.37023163 -0.55377799 3 6 31268 3.54000000 2337888322 2337888322 -9.00000000
-11.97490120 11.04625225 2.00036335 85 7 31269 16.41400000 2337888325 2337888325 7.00000000
-3.08843470 2.84992552 -0.51599479 86 8 31270 4.23400000 2337888327 2337888327 -7.00000000
-11.79343224 10.88647747 2.54206014 68 9 31271 16.25000000 2337888329 2337888329 9.00000000
-4.51644039 4.16911125 -0.53775096 3 10 31271 6.17000000 2337888332 2337888332 -5.00000000
-9.77919674 9.03030586 2.58736992 50 11 31272 13.56000000 2337888334 2337888334 11.00000000
-7.25923777 6.70567274 -0.51791662 8 12 31273 9.89600000 2337888336 2337888336 -3.00000000
-8.25679207 7.62982845 2.59548521 42 13 31274 11.53800000 2337888339 2337888339 13.00000000
-12.01462364 11.10620403 -0.28559119 7 14 31275 16.36400000 2337888341 2337888341 -1.00000000
-7.08024311 6.54490948 2.58353162 42 15 31275 9.98200000 2337888343 2337888343 15.00000000
-1.52869463 1.41707420 -0.55853152 4 0 31283 2.15800000 2337888364 2337888364 -15.00000000
-11.99569702 11.12370300 0.28555629 10 1 31284 16.36200000 2337888366 2337888366 1.00000000
-1.76443565 1.63674772 -0.55562907 3 2 31285 2.47000000 2337888368 2337888368 -13.00000000
-11.99817753 11.12989902 0.85768163 85 3 31285 16.38800000 2337888371 2337888371 3.00000000
-2.09676981 1.94571257 -0.55601740 3 4 31286 2.91400000 2337888373 2337888373 -11.00000000
-11.96942902 11.11100578 1.42883122 71 5 31287 16.39400000 2337888375 2337888375 5.00000000
-2.57223845 2.38859892 -0.55596811 3 6 31288 3.55400000 2337888378 2337888378 -9.00000000
-11.95954037 11.10960102 2.00426316 71 7 31289 16.44600000 2337888380 2337888380 7.00000000
-3.06974292 2.85258102 -0.51453239 82 8 31290 4.22200000 2337888382 2337888382 -7.00000000
-11.71195507 10.88722992 2.53267407 64 9 31291 16.19000000 2337888385 2337888385 9.00000000
-4.52374935 4.20519876 -0.54036558 3 10 31291 6.20000000 2337888387 2337888387 -5.00000000
-9.74474049 9.06171227 2.58660674 46 11 31292 13.55600000 2337888389 2337888389 11.00000000
-7.23724890 6.73233175 -0.51802129 4 12 31293 9.89800000 2337888392 2337888392 -3.00000000
-8.22154903 7.65063810 2.59278584 42 13 31294 11.52600000 2337888394 2337888394 13.00000000
-12.01969242 11.18895054 -0.28663832 7 14 31295 16.42400000 2337888396 2337888396 -1.00000000
-7.06018209 6.57221699 2.58456707 45 15 31295 9.98600000 2337888398 2337888398 15.00000000
-1.52515101 1.42372000 -0.55904913 4 0 31303 2.16000000 2337888419 2337888419 -15.00000000
-11.99479485 11.20099258 0.28646380 14 1 31304 16.41400000 2337888421 2337888421 1.00000000
-1.76725590 1.65087843 -0.55832851 3 2 31305 2.48200000 2337888424 2337888424 -13.00000000
-11.98940849 11.20380020 0.85998446 77 3 31306 16.43200000 2337888426 2337888426 3.00000000
-2.08996511 1.95301986 -0.55601740 3 4 31306 2.91400000 2337888428 2337888428 -11.00000000
-11.97714615 11.19625854 1.43440926 57 5 31307 16.45800000 2337888431 2337888431 5.00000000
-2.57398486 2.40700769 -0.55815816 3 6 31308 3.56800000 2337888433 2337888433 -9.00000000
-11.96417809 11.19196320 2.01157546 68 7 31309 16.50600000 2337888435 2337888435 7.00000000
-3.06556463 2.86870456 -0.51550734 74 8 31310 4.23000000 2337888438 2337888438 -7.00000000
-9.77333355 9.14572334 2.11999989 10 9 31310 13.55200000 2337888440 2337888440 9.00000000
-4.51340628 4.22504902 -0.54088855 3 10 31311 6.20600000 2337888442 2337888442 -5.00000000
-9.70301819 9.08627892 2.58393550 50 11 31312 13.54200000 2337888445 2337888445 11.00000000
-7.22390747 6.76711130 -0.51875401 4 12 31313 9.91200000 2337888447 2337888447 -3.00000000
-8.18057346 7.66596508 2.58828688 40 13 31314 11.50600000 2337888449 2337888449 13.00000000
-12.00974083 11.25819111 -0.28733641 12 14 31315 16.46400000 2337888451 2337888451 -1.00000000
-7.03181887 6.59408522 2.58301401 45 15 31316 9.98000000 2337888454 2337888454 15.00000000
-1.51594925 1.42506552 -0.55749625 4 0 31323 2.15400000 2337888474 2337888474 -15.00000000
-11.99641228 11.28115177 0.28744113 14 1 31324 16.47000000 2337888477 2337888477 1.00000000
-1.76716018 1.66237831 -0.56012815 3 2 31325 2.49000000 2337888479 2337888479 -13.00000000
-11.98710346 11.27634048 0.86249655 60 3 31325 16.48000000 2337888481 2337888481 3.00000000
-2.07169724 1.94953978 -0.55296445 3 4 31326 2.89800000 2337888484 2337888484 -11.00000000
-11.97280884 11.27077389 1.43859267 28 5 31327 16.50600000 2337888486 2337888486 5.00000000
-2.55981469 2.41056085 -0.55690670 3 6 31328 3.56000000 2337888488 2337888488 -9.00000000
-11.96405125 11.27040958 2.01815629 64 7 31329 16.56000000 2337888491 2337888491 7.00000000
-3.06275582 2.88619494 -0.51672602 60 8 31330 4.24000000 2337888493 2337888493 -7.00000000
-11.53792000 10.87658882 2.51139879 28 9 31331 16.05400000 2337888495 2337888495 9.00000000
-4.49718094 4.23941135 -0.54071420 3 10 31331 6.20400000 2337888498 2337888498 -5.00000000
-9.67981243 9.12817574 2.58622503 50 11 31332 13.55400000 2337888500 2337888500 11.00000000
-7.23510981 6.82517862 -0.52126610 4 12 31333 9.96000000 2337888502 2337888502 -3.00000000
-8.15376472 7.69447374 2.58828688 43 13 31334 11.50600000 2337888504 2337888504 13.00000000
-12.00236034 11.33024311 -0.28810433 15 14 31335 16.50800000 2337888507 2337888507 -1.00000000
-6.99892664 6.60930634 2.57939053 42 15 31336 9.96600000 2337888509 2337888509 15.00000000
-1.50254798 1.42237997 -0.55439037 4 0 31343 2.14200000 2337888530 2337888530 -15.00000000
-11.98454762 11.34908295 0.28810433 14 1 31344 16.50800000 2337888532 2337888532 1.00000000
-1.76700556 1.67389739 -0.56192774 3 2 31345 2.49800000 2337888534 2337888534 -13.00000000
-11.98971748 11.35794830 0.86553204 72 3 31345 16.53800000 2337888537 2337888537 3.00000000
-2.07627964 1.96756279 -0.55601740 3 4 31346 2.91400000 2337888539 2337888539 -11.00000000
-11.96086597 11.33854198 1.44190466 19 5 31347 16.54400000 2337888541 2337888541 5.00000000
-2.54851794 2.41676307 -0.55628097 3 6 31348 3.55600000 2337888544 2337888544 -9.00000000
-11.95776081 11.34352589 2.02376223 70 7 31349 16.60600000 2337888546 2337888546 7.00000000
-3.04546261 2.89003611 -0.51550734 60 8 31350 4.23000000 2337888548 2337888548 -7.00000000
-11.46596718 10.88079643 2.50357723 68 9 31350 16.00400000 2337888551 2337888551 9.00000000
-4.47657537 4.24959660 -0.54001701 3 10 31351 6.19600000 2337888553 2337888553 -5.00000000
-9.63934803 9.15379715 2.58393550 53 11 31352 13.54200000 2337888555 2337888555 11.00000000
-7.21703386 6.85589457 -0.52168483 4 12 31353 9.96800000 2337888557 2337888557 -3.00000000
-8.12685680 7.72288895 2.58828688 45 13 31354 11.50600000 2337888560 2337888560 13.00000000
-12.01056480 11.41753674 -0.28925619 10 14 31355 16.57400000 2337888562 2337888562 -1.00000000
-6.96881342 6.62704039 2.57680249 45 15 31356 9.95600000 2337888564 2337888564 15.00000000
-1.50316691 1.43294811 -0.55646098 4 0 31363 2.15000000 2337888585 2337888585 -15.00000000
-11.98682690 11.43086815 0.28911656 10 1 31364 16.56600000 2337888587 2337888587 1.00000000
-1.75833166 1.67736495 -0.56102794 3 2 31365 2.49400000 2337888590 2337888590 -13.00000000
-11.99479771 11.44246769 0.86877686 85 3 31365 16.60000000 2337888592 2337888592 3.00000000
-2.07508016 1.98021996 -0.55754387 3 4 31366 2.92200000 2337888594 2337888594 -11.00000000
-11.96588993 11.42287254 1.44730830 33 5 31367 16.60600000 2337888597 2337888597 5.00000000
-2.54435205 2.42973709 -0.55721956 1 6 31368 3.56200000 2337888599 2337888599 -9.00000000
-11.94967079 11.41536331 2.02912450 68 7 31369 16.65000000 2337888601 2337888601 7.00000000
-3.04683733 2.91162086 -0.51745725 74 8 31370 4.24600000 2337888604 2337888604 -7.00000000
-11.38650036 10.88117599 2.49450397 65 9 31370 15.94600000 2337888606 2337888606 9.00000000
-4.46747494 4.27070379 -0.54071420 3 10 31371 6.20400000 2337888608 2337888608 -5.00000000
-9.59314823 9.17382050 2.58011913 53 11 31372 13.52200000 2337888610 2337888610 11.00000000
-7.22769594 6.91418028 -0.52419692 4 12 31373 10.01600000 2337888613 2337888613 -3.00000000
-8.08858585 7.74043131 2.58468771 42 13 31374 11.49000000 2337888615 2337888615 13.00000000
-12.00386047 11.49119663 -0.29005900 7 14 31375 16.62000000 2337888617 2337888617 -1.00000000
-6.94703341 6.65266180 2.57732010 45 15 31376 9.95800000 2337888620 2337888620 15.00000000
-1.50094318 1.44086206 -0.55749625 4 0 31383 2.15400000 2337888640 2337888640 -15.00000000
-11.97858334 11.50311279 0.28988448 10 1 31384 16.61000000 2337888643 2337888643 1.00000000
-1.73841238 1.66999221 -0.55652893 3 2 31385 2.47400000 2337888645 2337888645 -13.00000000
-11.98358917 11.51194000 0.87087029 77 3 31385 16.64000000 2337888647 2337888647 3.00000000
-2.07098651 1.99017191 -0.55830711 3 4 31386 2.92600000 2337888650 2337888650 -11.00000000
-11.96759796 11.50461388 1.45236325 52 5 31387 16.66400000 2337888652 2337888652 5.00000000
-2.53870296 2.44134212 -0.55784529 3 6 31388 3.56600000 2337888654 2337888654 -9.00000000
-11.94408512 11.49003506 2.03497434 66 7 31389 16.69800000 2337888656 2337888656 7.00000000
-3.03808570 2.92361522 -0.51770097 82 8 31390 4.24800000 2337888659 2337888659 -7.00000000
-11.30574703 10.87976360 2.48511791 65 9 31390 15.88600000 2337888661 2337888661 9.00000000
-4.46402311 4.29732656 -0.54210871 3 10 31391 6.22000000 2337888663 2337888663 -5.00000000
-9.55541039 9.20180321 2.57859278 53 11 31392 13.51400000 2337888666 2337888666 11.00000000
-7.22221613 6.95738077 -0.52555770 4 12 31393 10.04200000 2337888668 2337888668 -3.00000000
-8.05871105 7.76591396 2.58378792 42 13 31394 11.48600000 2337888670 2337888670 13.00000000
-12.00110722 11.56911182 -0.29096651 7 14 31395 16.67200000 2337888673 2337888673 -1.00000000
-6.92354345 6.67432165 2.57680249 45 15 31395 9.95600000 2337888675 2337888675 15.00000000
-1.50284922 1.45280612 -0.56008440 4 0 31403 2.16400000 2337888696 2337888696 -15.00000000
-11.98291969 11.58794880 0.29096651 14 1 31404 16.67200000 2337888698 2337888698 1.00000000
-1.74657869 1.68959951 -0.56102794 3 2 31405 2.49400000 2337888700 2337888700 -13.00000000
-11.97204208 11.58147430 0.87296373 63 3 31405 16.68000000 2337888703 2337888703 3.00000000
-2.06684852 2.00011945 -0.55907035 3 4 31406 2.93000000 2337888705 2337888705 -11.00000000
-11.96888065 11.58650589 1.45741832 76 5 31407 16.72200000 2337888707 2337888707 5.00000000
-2.53158474 2.45156336 -0.55815816 3 6 31408 3.56800000 2337888709 2337888709 -9.00000000
-11.94525242 11.57171249 2.04204273 64 7 31409 16.75600000 2337888712 2337888712 7.00000000
-3.02643633 2.93282080 -0.51745725 80 8 31410 4.24600000 2337888714 2337888714 -7.00000000
-11.22230721 10.87517166 2.47510600 62 9 31410 15.82200000 2337888716 2337888716 9.00000000
-4.44756508 4.31149578 -0.54193443 3 10 31411 6.21800000 2337888719 2337888719 -5.00000000
-9.53732586 9.24876976 2.58240891 53 11 31412 13.53400000 2337888721 2337888721 11.00000000
-7.20505381 6.98950195 -0.52608103 4 12 31413 10.05200000 2337888723 2337888723 -3.00000000
-8.02316284 7.78585386 2.58108830 41 13 31414 11.47400000 2337888726 2337888726 13.00000000
-12.00512981 11.65411186 -0.29204857 15 14 31415 16.73400000 2337888728 2337888728 -1.00000000
-6.90042019 6.70099878 2.57732010 42 15 31416 9.95800000 2337888730 2337888730 15.00000000
-1.50053740 1.46073830 -0.56111968 4 0 31423 2.16800000 2337888751 2337888751 -15.00000000
-11.98967361 11.67574501 0.29211837 14 1 31424 16.73800000 2337888753 2337888753 1.00000000
-1.74346209 1.69840550 -0.56192774 3 2 31425 2.49800000 2337888756 2337888756 -13.00000000
-11.96670341 11.66151810 0.87568521 70 3 31426 16.73200000 2337888758 2337888758 3.00000000
-2.04860592 1.99636042 -0.55601740 2 4 31426 2.91400000 2337888760 2337888760 -11.00000000
-11.96260262 11.66159344 1.46160185 78 5 31427 16.77000000 2337888762 2337888762 5.00000000
-2.52159739 2.45900607 -0.55784529 3 6 31428 3.56600000 2337888765 2337888765 -9.00000000
-11.94315243 11.65076542 2.04862356 71 7 31429 16.81000000 2337888767 2337888767 7.00000000
-3.02328396 2.95029926 -0.51867592 84 8 31430 4.25600000 2337888769 2337888769 -7.00000000
-11.14469147 10.87564945 2.46634579 46 9 31430 15.76600000 2337888772 2337888772 9.00000000
-4.44389343 4.33812857 -0.54332888 7 10 31431 6.23400000 2337888774 2337888774 -5.00000000
-9.49936485 9.27651787 2.58088255 53 11 31432 13.52600000 2337888776 2337888776 11.00000000
-7.18632698 7.02019262 -0.52649975 4 12 31433 10.06000000 2337888779 2337888779 -3.00000000
-7.99314833 7.81108856 2.58018851 42 13 31434 11.47000000 2337888781 2337888781 13.00000000
-11.98868561 11.71971035 -0.29264194 7 14 31435 16.76800000 2337888783 2337888783 -1.00000000
-6.87677956 6.72249413 2.57680249 45 15 31435 9.95600000 2337888786 2337888786 15.00000000
-1.49129069 1.46191013 -0.55956680 4 0 31443 2.16200000 2337888806 2337888806 -15.00000000
-19.89427757 19.50914192 0.48636365 10 1 31444 27.86800000 2337888809 2337888809 1.00000000
-1.74030519 1.70721030 -0.56282753 3 2 31445 2.50200000 2337888811 2337888811 -13.00000000
-19.87178993 19.50070190 1.45912647 49 3 31446 27.88000000 2337888813 2337888813 3.00000000
-2.05283475 2.01449990 -0.55907035 2 4 31446 2.93000000 2337888815 2337888815 -11.00000000
-11.93461990 11.71584129 1.46317065 24 5 31447 16.78800000 2337888818 2337888818 5.00000000
-2.51440811 2.46917725 -0.55815816 1 6 31448 3.56800000 2337888820 2337888820 -9.00000000
-11.92506886 11.71464252 2.05252337 39 7 31449 16.84200000 2337888822 2337888822 7.00000000
-3.03420496 2.98170495 -0.52233201 78 8 31450 4.28600000 2337888825 2337888825 -7.00000000
-10.08345032 9.91243935 2.23951578 10 9 31451 14.31600000 2337888827 2337888827 9.00000000
-4.43440676 4.35920095 -0.54402614 7 10 31451 6.24200000 2337888829 2337888829 -5.00000000
-9.45852757 9.30136108 2.57859278 50 11 31452 13.51400000 2337888832 2337888832 11.00000000
-7.18171167 7.06484365 -0.52796513 4 12 31453 10.08800000 2337888834 2337888834 -3.00000000
-7.96583414 7.83894253 2.58018851 42 13 31454 11.47000000 2337888836 2337888836 13.00000000
-19.76415634 19.45611572 -0.48409486 10 14 31455 27.73800000 2337888839 2337888839 -1.00000000
-6.84383535 6.73952055 2.57369661 45 15 31456 9.94400000 2337888841 2337888841 15.00000000
-1.48944116 1.46930134 -0.56060207 4 0 31461 2.16600000 2337888862 2337888862 -15.00000000
-19.87558937 19.61368370 0.48741081 15 1 31462 27.92800000 2337888864 2337888864 1.00000000
-1.73215950 1.70993114 -0.56192774 3 2 31463 2.49800000 2337888866 2337888866 -13.00000000
-19.86443138 19.61636162 1.46310401 36 3 31464 27.95600000 2337888868 2337888868 3.00000000
-2.04649591 2.02093911 -0.55907035 2 4 31464 2.93000000 2337888871 2337888871 -11.00000000
-19.43271637 19.19673920 2.38981056 85 5 31465 27.42000000 2337888873 2337888873 5.00000000
-2.50663853 2.47706413 -0.55815816 3 6 31466 3.56800000 2337888875 2337888875 -9.00000000
-15.25236893 15.07767773 2.63335276 32 7 31467 21.60800000 2337888878 2337888878 7.00000000
-3.03329182 2.99959731 -0.52379441 80 8 31468 4.29800000 2337888880 2337888880 -7.00000000
-10.02028561 9.90897846 2.23200703 14 9 31468 14.26800000 2337888882 2337888882 9.00000000
-4.42352295 4.37591314 -0.54437476 3 10 31469 6.24600000 2337888885 2337888885 -5.00000000
-9.41530514 9.31722069 2.57477665 50 11 31470 13.49400000 2337888887 2337888887 11.00000000
-7.17935276 7.10704231 -0.52943051 4 12 31471 10.11600000 2337888889 2337888889 -3.00000000
-7.94393730 7.86667156 2.58108830 43 13 31472 11.47400000 2337888892 2337888892 13.00000000
-19.84073830 19.65461922 -0.48748061 10 14 31473 27.93200000 2337888894 2337888894 -1.00000000
-6.82518101 6.76115656 2.57421422 45 15 31473 9.94600000 2337888896 2337888896 15.00000000
-1.48430324 1.47449148 -0.56060207 4 0 31481 2.16600000 2337888917 2337888917 -15.00000000
-19.86941528 19.74496269 0.48894662 15 1 31482 28.01600000 2337888919 2337888919 1.00000000
-1.71788788 1.70772386 -0.55922830 3 2 31483 2.48600000 2337888921 2337888921 -13.00000000
-19.86806297 19.75740623 1.46844220 18 3 31484 28.05800000 2337888924 2337888924 3.00000000
-2.03664494 2.02530169 -0.55830711 3 4 31484 2.92600000 2337888926 2337888926 -11.00000000
-19.29637527 19.19560242 2.38126922 85 5 31485 27.32200000 2337888928 2337888928 5.00000000
-2.49657631 2.48440552 -0.55784529 1 6 31486 3.56600000 2337888931 2337888931 -9.00000000
-15.18135548 15.11262035 2.63018417 57 7 31487 21.58200000 2337888933 2337888933 7.00000000
-3.03405571 3.02137303 -0.52574432 76 8 31488 4.31400000 2337888935 2337888935 -7.00000000
-9.95171165 9.91357327 2.22481108 14 9 31489 14.22200000 2337888938 2337888938 9.00000000
-4.40539837 4.38851500 -0.54402614 7 10 31489 6.24200000 2337888940 2337888940 -5.00000000
-9.37159920 9.33894253 2.57172370 50 11 31490 13.47800000 2337888942 2337888942 11.00000000
-7.16581678 7.14334011 -0.53026789 4 12 31491 10.13200000 2337888944 2337888944 -3.00000000
-7.91090965 7.88884878 2.57928872 41 13 31492 11.46600000 2337888947 2337888947 13.00000000
-19.83147049 19.78307152 -0.48894662 10 14 31493 28.01600000 2337888949 2337888949 -1.00000000
-6.80719185 6.79294968 2.57680249 45 15 31494 9.95600000 2337888951 2337888951 15.00000000
-1.47615790 1.47718883 -0.55956680 4 0 31502 2.16200000 2337888972 2337888972 -15.00000000
-19.88170815 19.90253830 0.49104092 16 1 31503 28.13600000 2337888974 2337888974 1.00000000
-1.71712530 1.71952450 -0.56102794 3 2 31504 2.49400000 2337888977 2337888977 -13.00000000
-19.85760117 19.89228821 1.47304785 58 3 31505 28.14600000 2337888979 2337888979 3.00000000
-2.03198218 2.03553176 -0.55907035 2 4 31505 2.93000000 2337888981 2337888981 -11.00000000
-19.15974426 19.19991493 2.37307668 85 5 31506 27.22800000 2337888984 2337888984 5.00000000
-2.49442935 2.50053191 -0.55940962 1 6 31507 3.57600000 2337888986 2337888986 -9.00000000
-15.11184597 15.15410519 2.62774682 50 7 31508 21.56200000 2337888988 2337888988 7.00000000
-3.02296138 3.03247309 -0.52574432 82 8 31509 4.31400000 2337888991 2337888991 -7.00000000
-9.88078690 9.91187668 2.21667647 18 9 31509 14.17000000 2337888993 2337888993 9.00000000
-3.50467658 3.51693153 -0.43438423 9 10 31510 4.98400000 2337888995 2337888995 -5.00000000
-9.33453560 9.37044716 2.57096052 53 11 31511 13.47400000 2337888997 2337888997 11.00000000
-7.15508938 7.18512392 -0.53141928 4 12 31512 10.15400000 2337889000 2337889000 -3.00000000
-7.87094355 7.90674210 2.57568955 55 13 31513 11.45000000 2337889002 2337889002 13.00000000
-19.79550362 19.89247894 -0.48985416 10 14 31514 28.06800000 2337889004 2337889004 -1.00000000
-6.77798796 6.81119251 2.57473183 45 15 31514 9.94800000 2337889007 2337889007 15.00000000
-1.47099257 1.48233259 -0.55956680 4 0 31522 2.16200000 2337889027 2337889027 -15.00000000
-19.85577202 20.01582718 0.49212295 16 1 31523 28.19800000 2337889030 2337889030 1.00000000
-1.71385694 1.72827542 -0.56192774 3 2 31524 2.49800000 2337889032 2337889032 -13.00000000
-19.85272217 20.02673149 1.47786272 54 3 31525 28.23800000 2337889034 2337889034 3.00000000
-2.02209997 2.03982377 -0.55830711 3 4 31525 2.92600000 2337889037 2337889037 -11.00000000
-19.01407051 19.18742561 2.36331511 67 5 31526 27.11600000 2337889039 2337889039 5.00000000
-2.49680734 2.52045059 -0.56191260 1 6 31527 3.59200000 2337889041 2337889041 -9.00000000
-15.04907894 15.19688988 2.62604070 47 7 31528 21.54800000 2337889044 2337889044 7.00000000
-3.02073693 3.05147147 -0.52720678 76 8 31529 4.32600000 2337889046 2337889046 -7.00000000
-9.80270767 9.90590191 2.20729041 21 9 31530 14.11000000 2337889048 2337889048 9.00000000
-9.30453110 9.40576458 2.57172370 50 11 31531 13.47800000 2337889053 2337889053 11.00000000
-7.21703577 7.29810476 -0.53790897 4 12 31532 10.27800000 2337889055 2337889055 -3.00000000
-7.85014582 7.94109821 2.57793903 40 13 31533 11.46000000 2337889057 2337889057 13.00000000
-19.63036537 19.86473656 -0.48748061 6 14 31534 27.93200000 2337889060 2337889060 -1.00000000
-6.74347448 6.82636881 2.57110834 42 15 31535 9.93400000 2337889062 2337889062 15.00000000
-1.46580935 1.48745823 -0.55956680 4 0 31542 2.16200000 2337889083 2337889083 -15.00000000
-27.73854637 28.15805435 0.68992853 58 1 31543 39.53200000 2337889085 2337889085 1.00000000
-1.72148716 1.74813235 -0.56642675 3 2 31544 2.51800000 2337889087 2337889087 -13.00000000
-27.70053864 28.13911057 2.06936359 71 3 31545 39.54000000 2337889090 2337889090 3.00000000
-2.02323103 2.05526423 -0.56059682 3 4 31545 2.93800000 2337889092 2337889092 -11.00000000
-2.48522353 2.52633452 -0.56128687 1 6 31547 3.58800000 2337889097 2337889097 -9.00000000
-14.99454784 15.24791241 2.62579679 47 7 31548 21.54600000 2337889099 2337889099 7.00000000
-3.01563334 3.06765962 -0.52818173 74 8 31549 4.33400000 2337889101 2337889101 -7.00000000
-9.73656845 9.90454578 2.19978142 14 9 31549 14.06200000 2337889103 2337889103 9.00000000
-3.45071244 3.51147056 -0.43072367 100 10 31550 4.94200000 2337889106 2337889106 -5.00000000
-9.26476383 9.43118382 2.56981564 50 11 31551 13.46800000 2337889108 2337889108 11.00000000
-7.21670580 7.34890270 -0.53979307 4 12 31552 10.31400000 2337889110 2337889110 -3.00000000
-7.81691790 7.96288919 2.57613945 53 13 31553 11.45200000 2337889113 2337889113 13.00000000
-19.56230545 19.93456459 -0.48751551 3 14 31554 27.93400000 2337889115 2337889115 -1.00000000
-6.72215319 6.85007238 2.57162595 45 15 31554 9.93600000 2337889117 2337889117 15.00000000
-1.46195936 1.49394655 -0.56008440 4 0 31562 2.16400000 2337889138 2337889138 -15.00000000
-35.64572906 36.43836594 0.88975859 36 1 31563 50.98200000 2337889140 2337889140 1.00000000
-1.70992458 1.74855781 -0.56462717 3 2 31564 2.51000000 2337889143 2337889143 -13.00000000
-27.69848061 28.33417892 2.07658601 44 3 31565 39.67800000 2337889145 2337889145 3.00000000
-2.01329970 2.05950642 -0.55983359 3 4 31565 2.93400000 2337889147 2337889147 -11.00000000
-17.82413292 18.23957443 2.23118711 7 5 31566 25.60000000 2337889150 2337889150 5.00000000
-2.46258593 2.52086377 -0.55815816 1 6 31567 3.56800000 2337889152 2337889152 -9.00000000
-14.92736244 15.28595829 2.62335944 50 7 31568 21.52600000 2337889154 2337889154 7.00000000
-3.01738691 3.09095168 -0.53037536 90 8 31569 4.35200000 2337889156 2337889156 -7.00000000
-9.67398834 9.91330433 2.19383693 18 9 31570 14.02400000 2337889159 2337889159 9.00000000
-3.43843412 3.52349424 -0.43072367 100 10 31570 4.94200000 2337889161 2337889161 -5.00000000
-9.21807671 9.44941330 2.56599927 50 11 31571 13.44800000 2337889163 2337889163 11.00000000
-7.14917707 7.33115196 -0.53665292 4 12 31572 10.25400000 2337889166 2337889166 -3.00000000
-7.79451561 7.99570847 2.57793903 55 13 31573 11.46000000 2337889168 2337889168 13.00000000
-19.57215118 20.08436203 -0.48950508 6 14 31574 28.04800000 2337889170 2337889170 -1.00000000
-6.69700146 6.87466431 2.57162595 45 15 31575 9.93600000 2337889173 2337889173 15.00000000
-1.46077454 1.50319695 -0.56163734 4 0 31582 2.17000000 2337889193 2337889193 -15.00000000
-35.59913254 36.64576340 0.89178306 49 1 31583 51.09800000 2337889196 2337889196 1.00000000
-1.69566476 1.74612772 -0.56192774 3 2 31584 2.49800000 2337889198 2337889198 -13.00000000
-34.77366638 35.82103729 2.61637902 45 3 31585 49.99200000 2337889200 2337889200 3.00000000
-2.01977324 2.08060813 -0.56364977 2 4 31585 2.95400000 2337889203 2337889203 -11.00000000
-17.69652939 18.23591042 2.22316861 23 5 31586 25.50800000 2337889205 2337889205 5.00000000
-2.46202421 2.53795147 -0.56003541 1 6 31587 3.58000000 2337889207 2337889207 -9.00000000
-14.86285782 15.32657051 2.62140965 55 7 31588 21.51000000 2337889209 2337889209 7.00000000
-3.00934243 3.10431623 -0.53086287 90 8 31589 4.35600000 2337889212 2337889212 -7.00000000
-9.61356258 9.91696358 2.18757963 14 9 31589 13.98400000 2337889214 2337889214 9.00000000
-3.41640806 3.52545977 -0.42950350 99 10 31590 4.92800000 2337889216 2337889216 -5.00000000
-9.18913460 9.48576260 2.56714416 50 11 31591 13.45400000 2337889219 2337889219 11.00000000
-7.11659575 7.34888840 -0.53612953 4 12 31592 10.24400000 2337889221 2337889221 -3.00000000
-7.75978088 8.01586723 2.57568955 53 13 31593 11.45000000 2337889223 2337889223 13.00000000
-19.51305008 20.16405487 -0.48978433 3 14 31594 28.06400000 2337889226 2337889226 -1.00000000
-6.68222809 6.90516376 2.57473183 45 15 31594 9.94800000 2337889228 2337889228 15.00000000
-1.45551860 1.50828683 -0.56163734 4 0 31602 2.17000000 2337889249 2337889249 -15.00000000
-51.36068726 53.24130630 1.29126871 35 1 31603 73.98800000 2337889251 2337889251 1.00000000
-1.69091213 1.75343883 -0.56237763 4 2 31604 2.50000000 2337889253 2337889253 -13.00000000
-34.52643585 35.81566620 2.60716796 45 3 31605 49.81600000 2337889256 2337889256 3.00000000
-2.00159788 2.07633829 -0.56059682 3 4 31605 2.93800000 2337889258 2337889258 -11.00000000
-17.58576012 18.24879265 2.21724200 23 5 31606 25.44000000 2337889260 2337889260 5.00000000
-2.45315003 2.54653001 -0.56003541 1 6 31607 3.58000000 2337889262 2337889262 -9.00000000
-14.79549789 15.36405945 2.61897230 52 7 31608 21.49000000 2337889265 2337889265 7.00000000
-3.00124145 3.11766195 -0.53135031 90 8 31609 4.36000000 2337889267 2337889267 -7.00000000
-9.55148792 9.92199802 2.18132210 14 9 31609 13.94400000 2337889269 2337889269 9.00000000
-3.40131807 3.53449249 -0.42915487 99 10 31610 4.92400000 2337889272 2337889272 -5.00000000
-9.15460587 9.51636600 2.56676269 50 11 31611 13.45200000 2337889274 2337889274 11.00000000
-7.12274122 7.40679646 -0.53853697 8 12 31612 10.29000000 2337889276 2337889276 -3.00000000
-7.72635126 8.03728485 2.57388997 53 13 31613 11.44200000 2337889279 2337889279 13.00000000
-19.49658394 20.28827667 -0.49114561 3 14 31614 28.14200000 2337889281 2337889281 -1.00000000
-6.65674496 6.92705441 2.57421422 45 15 31614 9.94600000 2337889283 2337889283 15.00000000
-1.44783509 1.51031613 -0.56060207 4 0 31621 2.16600000 2337889304 2337889304 -15.00000000
-56.79561615 59.26731873 1.43284261 70 1 31622 82.10000000 2337889306 2337889306 1.00000000
-1.68913233 1.76325810 -0.56372732 3 2 31623 2.50600000 2337889309 2337889309 -13.00000000
-34.28591537 35.80302048 2.59795690 45 3 31624 49.64000000 2337889311 2337889311 3.00000000
-1.99198580 2.08012867 -0.55983359 3 4 31624 2.93400000 2337889313 2337889313 -11.00000000
-17.45626068 18.23504829 2.20852661 23 5 31625 25.34000000 2337889315 2337889315 5.00000000
-2.44196057 2.55179667 -0.55940962 1 6 31626 3.57600000 2337889318 2337889318 -9.00000000
-14.74446774 15.41303825 2.61897230 50 7 31627 21.49000000 2337889320 2337889320 7.00000000
-2.98128271 3.11755466 -0.52964419 42 8 31628 4.34600000 2337889322 2337889322 -7.00000000
-9.47584534 9.91244125 2.17193604 14 9 31629 13.88400000 2337889325 2337889325 9.00000000
-3.37856460 3.53423071 -0.42776039 100 10 31629 4.90800000 2337889327 2337889327 -5.00000000
-9.12571049 9.54951096 2.56752586 50 11 31630 13.45600000 2337889329 2337889329 11.00000000
-7.25541687 7.59501362 -0.55046958 8 12 31631 10.51800000 2337889332 2337889332 -3.00000000
-7.69696426 8.06004429 2.57299018 53 13 31632 11.43800000 2337889334 2337889334 13.00000000
-19.46509743 20.39042664 -0.49205315 3 14 31633 28.19400000 2337889336 2337889336 -1.00000000
-6.63240385 6.94769335 2.57369661 45 15 31633 9.94400000 2337889338 2337889338 15.00000000
-1.44255435 1.51536083 -0.56060207 4 0 31641 2.16600000 2337889359 2337889359 -15.00000000
-56.77173233 59.65787506 1.43748486 72 1 31642 82.36600000 2337889362 2337889362 1.00000000
-1.69639874 1.78326285 -0.56822634 3 2 31643 2.52600000 2337889364 2337889364 -13.00000000
-34.04511642 35.80090714 2.58916450 45 3 31644 49.47200000 2337889366 2337889366 3.00000000
-1.99824166 2.10129595 -0.56364977 3 4 31644 2.95400000 2337889368 2337889368 -11.00000000
-17.32935715 18.22944450 2.20050812 23 5 31645 25.24800000 2337889371 2337889371 5.00000000
-2.43848109 2.56603289 -0.56066114 1 6 31646 3.58400000 2337889373 2337889373 -9.00000000
-14.69331074 15.46729088 2.61945963 55 7 31647 21.49400000 2337889375 2337889375 7.00000000
-2.97311616 3.13082123 -0.53013164 42 8 31648 4.35000000 2337889378 2337889378 -7.00000000
-9.40990639 9.91250706 2.16474009 14 9 31649 13.83800000 2337889380 2337889380 9.00000000
-3.35523343 3.53444266 -0.42636588 83 10 31649 4.89200000 2337889382 2337889382 -5.00000000
-9.08826637 9.57703495 2.56638098 50 11 31650 13.45000000 2337889385 2337889385 11.00000000
-7.23435926 7.62608957 -0.55088830 12 12 31651 10.52600000 2337889387 2337889387 -3.00000000
-7.67012358 8.08827591 2.57344007 55 13 31652 11.44000000 2337889389 2337889389 13.00000000
-19.38279724 20.44663811 -0.49177390 3 14 31653 28.17800000 2337889391 2337889391 -1.00000000
-6.59892178 6.96354246 2.57059073 45 15 31654 9.93200000 2337889394 2337889394 15.00000000
-1.43486655 1.51732886 -0.55956680 4 0 31660 2.16200000 2337889415 2337889415 -15.00000000
-56.77277374 60.05651855 1.44254613 74 1 31661 82.65600000 2337889417 2337889417 1.00000000
-1.68244505 1.78038025 -0.56552696 4 2 31662 2.51400000 2337889419 2337889419 -13.00000000
-33.80414200 35.78439331 2.57984853 45 3 31663 49.29400000 2337889421 2337889421 3.00000000
-1.98856616 2.10505652 -0.56288654 3 4 31663 2.95000000 2337889424 2337889424 -11.00000000
-17.20862198 18.22307396 2.19283843 23 5 31664 25.16000000 2337889426 2337889426 5.00000000
-2.41911054 2.56261349 -0.55815816 1 6 31665 3.56800000 2337889428 2337889428 -9.00000000
-14.62014008 15.49283123 2.61555982 52 7 31666 21.46200000 2337889431 2337889431 7.00000000
-2.97633934 3.15510297 -0.53256905 38 8 31667 4.37000000 2337889433 2337889433 -7.00000000
-9.37562847 9.94221973 2.16442728 7 9 31668 13.83600000 2337889435 2337889435 9.00000000
-3.34622812 3.54844856 -0.42671451 34 10 31668 4.89600000 2337889438 2337889438 -5.00000000
-9.05915165 9.60997677 2.56714416 18 11 31669 13.45400000 2337889440 2337889440 11.00000000
-7.14602184 7.58317423 -0.54607338 8 12 31670 10.43400000 2337889442 2337889442 -3.00000000
-7.64459562 8.11508560 2.57388997 53 13 31671 11.44200000 2337889444 2337889444 13.00000000
-19.41085243 20.61270714 -0.49421725 3 14 31672 28.31800000 2337889447 2337889447 -1.00000000
-6.57303905 6.98001957 2.56903791 45 15 31672 9.92600000 2337889449 2337889449 15.00000000
-1.42691648 1.51951170 -0.55853152 4 0 31680 2.15800000 2337889470 2337889470 -15.00000000
-56.75440216 60.45843887 1.44743276 76 1 31681 82.93600000 2337889472 2337889472 1.00000000
-1.66021800 1.76918983 -0.56012815 3 2 31682 2.49000000 2337889474 2337889474 -13.00000000
-33.56560898 35.78126907 2.57116079 45 3 31683 49.12800000 2337889477 2337889477 3.00000000
-1.98657882 2.11771250 -0.56441301 3 4 31683 2.95800000 2337889479 2337889479 -11.00000000
-17.09039116 18.22489929 2.18586612 15 5 31684 25.08000000 2337889481 2337889481 5.00000000
-2.42366028 2.58545375 -0.56128687 1 6 31685 3.58800000 2337889484 2337889484 -9.00000000
-14.54968166 15.52638817 2.61263490 52 7 31686 21.43800000 2337889486 2337889486 7.00000000
-2.96937919 3.16981936 -0.53330022 38 8 31687 4.37600000 2337889488 2337889488 -7.00000000
-10.16855526 10.85875511 2.35621595 56 9 31688 15.06200000 2337889491 2337889491 9.00000000
-7.08129740 7.56723928 -0.54314256 8 12 31690 10.37800000 2337889497 2337889497 -3.00000000
-7.60823488 8.13318157 2.57119060 54 13 31691 11.43000000 2337889500 2337889500 13.00000000
-19.33878136 20.68033791 -0.49421725 3 14 31692 28.31800000 2337889502 2337889502 -1.00000000
-6.55127335 7.00574350 2.57007313 40 15 31692 9.93000000 2337889504 2337889504 15.00000000
-1.43582761 1.54027545 -0.56422549 4 0 31701 2.18000000 2337889525 2337889525 -15.00000000
-56.75055313 60.90012360 1.45301759 78 1 31702 83.25600000 2337889527 2337889527 1.00000000
-1.65903568 1.78096652 -0.56192774 3 2 31703 2.49800000 2337889530 2337889530 -13.00000000
-33.32206726 35.77107620 2.56205440 44 3 31703 48.95400000 2337889532 2337889532 3.00000000
-1.97345197 2.11923242 -0.56288654 3 4 31704 2.95000000 2337889534 2337889534 -11.00000000
-16.98682594 18.24804115 2.18115973 7 5 31705 25.02600000 2337889537 2337889537 5.00000000
-2.41551352 2.59576583 -0.56159973 1 6 31706 3.59000000 2337889539 2337889539 -9.00000000
-14.48726940 15.57379723 2.61166000 50 7 31707 21.43000000 2337889541 2337889541 7.00000000
