# .PCD v0.7 - Point Cloud Data file format
VERSION 0.7
FIELDS x y z intensity laser_id azimuth distance_m adjustedtime timestamp vertical_angle
SIZE 4 4 4 1 1 2 8 8 4 8
TYPE F F F U U U F U U F
COUNT 1 1 1 1 1 1 1 1 1 1
WIDTH 522
HEIGHT 1
VIEWPOINT 0 0 0 1 0 0 0
POINTS 522
DATA ascii
3.43261671 -11.49250126 1.04935515 17 5 16337 12.04000000 2338446866 2338446866 5.00000000
0.95711493 -3.20648956 -0.52999997 1 6 16338 3.38800000 2338446869 2338446869 -9.00000000
3.88986826 -13.03999043 1.67082870 76 7 16339 13.71000000 2338446871 2338446871 7.00000000
1.22384012 -4.10529041 -0.52598810 2 8 16340 4.31600000 2338446873 2338446873 -7.00000000
3.88434887 -13.03810024 2.15472841 70 9 16341 13.77400000 2338446876 2338446876 9.00000000
1.73846436 -5.83528233 -0.53269589 3 10 16341 6.11200000 2338446878 2338446878 -5.00000000
3.42015624 -11.48733044 2.32977772 34 11 16342 12.21000000 2338446880 2338446880 11.00000000
2.69872427 -9.07003403 -0.49593553 4 12 16343 9.47600000 2338446882 2338446882 -3.00000000
2.75325894 -9.25922966 2.23016477 26 13 16344 9.91400000 2338446885 2338446885 13.00000000
3.56922102 -12.01098824 -0.21871355 6 14 16345 12.53200000 2338446887 2338446887 -1.00000000
2.69697976 -9.07575989 2.53694439 33 15 16345 9.80200000 2338446889 2338446889 15.00000000
0.57344776 -1.93965602 -0.54196709 4 0 16353 2.09400000 2338446910 2338446910 -15.00000000
3.40699863 -11.53139114 0.20988265 10 1 16354 12.02600000 2338446912 2338446912 1.00000000
0.66055405 -2.23716044 -0.53853285 3 2 16355 2.39400000 2338446915 2338446915 -13.00000000
3.52639651 -11.94317818 0.65262938 17 3 16355 12.47000000 2338446917 2338446917 3.00000000
0.77620506 -2.63053679 -0.53312033 5 4 16356 2.79400000 2338446919 2338446919 -11.00000000
3.38853478 -11.49103642 1.04813492 17 5 16357 12.02600000 2338446922 2338446922 5.00000000
0.94926673 -3.22117972 -0.53187716 3 6 16358 3.40000000 2338446924 2338446924 -9.00000000
3.83984017 -13.03825569 1.66887879 76 7 16359 13.69400000 2338446926 2338446926 7.00000000
1.21118402 -4.11525011 -0.52671933 4 8 16360 4.32200000 2338446928 2338446928 -7.00000000
3.83551431 -13.03195953 2.15159965 73 9 16360 13.75400000 2338446931 2338446931 9.00000000
1.71808481 -5.84131527 -0.53269589 3 10 16361 6.11200000 2338446933 2338446933 -5.00000000
3.38502002 -11.51615143 2.33321238 34 11 16362 12.22800000 2338446935 2338446935 11.00000000
2.66310716 -9.06598473 -0.49520281 4 12 16363 9.46200000 2338446938 2338446938 -3.00000000
2.71488357 -9.24821568 2.22521591 25 13 16364 9.89200000 2338446940 2338446940 13.00000000
3.48449111 -11.87754345 -0.21606079 6 14 16365 12.38000000 2338446942 2338446942 -1.00000000
2.69573712 -9.18892765 2.56593204 40 15 16365 9.91400000 2338446945 2338446945 15.00000000
0.56559110 -1.93793690 -0.54093182 4 0 16373 2.09000000 2338446965 2338446965 -15.00000000
3.54589653 -12.15752029 0.22105218 3 1 16374 12.66600000 2338446968 2338446968 1.00000000
0.65601277 -2.25067782 -0.54123223 3 2 16375 2.40600000 2338446970 2338446970 -13.00000000
3.55576992 -12.20722389 0.66634142 10 3 16376 12.73200000 2338446972 2338446972 3.00000000
0.76537091 -2.62757564 -0.53197551 5 4 16376 2.78800000 2338446975 2338446975 -11.00000000
3.34561872 -11.49322987 1.04726338 17 5 16377 12.01600000 2338446977 2338446977 5.00000000
0.93912047 -3.22826719 -0.53250289 1 6 16378 3.40400000 2338446979 2338446979 -9.00000000
3.79153395 -13.04204845 1.66766012 78 7 16379 13.68400000 2338446981 2338446981 7.00000000
1.19736552 -4.12135935 -0.52696306 2 8 16380 4.32400000 2338446984 2338446984 -7.00000000
3.78111458 -13.02316570 2.14784527 73 9 16381 13.73000000 2338446986 2338446986 9.00000000
1.69768429 -5.84727669 -0.53269589 3 10 16381 6.11200000 2338446988 2338446988 -5.00000000
3.34972429 -11.54486656 2.33664703 34 11 16382 12.24600000 2338446991 2338446991 11.00000000
2.63311338 -9.08098030 -0.49551684 4 12 16383 9.46800000 2338446993 2338446993 -3.00000000
2.68149996 -9.25389194 2.22431612 25 13 16384 9.88800000 2338446995 2338446995 13.00000000
3.53979206 -12.22385025 -0.22213423 11 14 16385 12.72800000 2338446998 2338446998 -1.00000000
2.69372463 -9.30823326 2.59647274 40 15 16386 10.03200000 2338447000 2338447000 15.00000000
0.55882299 -1.93989944 -0.54093182 4 0 16393 2.09000000 2338447021 2338447021 -15.00000000
3.53939533 -12.29473114 0.22332099 7 1 16394 12.79600000 2338447023 2338447023 1.00000000
0.64815247 -2.25295401 -0.54123223 3 2 16395 2.40600000 2338447025 2338447025 -13.00000000
3.54287934 -12.31491852 0.67157501 7 3 16395 12.83200000 2338447028 2338447028 3.00000000
0.75727922 -2.63400483 -0.53273869 5 4 16396 2.79200000 2338447030 2338447030 -11.00000000
3.29612637 -11.47228432 1.04430008 17 5 16397 11.98200000 2338447032 2338447032 5.00000000
0.92293960 -3.21443772 -0.52968711 3 6 16398 3.38600000 2338447034 2338447034 -9.00000000
3.74379563 -13.04757214 1.66668510 78 7 16399 13.67600000 2338447037 2338447037 7.00000000
1.18078339 -4.11788082 -0.52598810 2 8 16400 4.31600000 2338447039 2338447039 -7.00000000
3.73182321 -13.02299213 2.14565516 73 9 16401 13.71600000 2338447041 2338447041 9.00000000
1.66299331 -5.80336952 -0.52816379 3 10 16401 6.06000000 2338447044 2338447044 -5.00000000
3.31048560 -11.56026363 2.33741021 34 11 16402 12.25000000 2338447046 2338447046 11.00000000
2.59480453 -9.06707382 -0.49426076 4 12 16403 9.44400000 2338447048 2338447048 -3.00000000
2.64864564 -9.26132202 2.22386622 21 13 16404 9.88600000 2338447051 2338447051 13.00000000
3.52402735 -12.33034515 -0.22384456 20 14 16405 12.82600000 2338447053 2338447053 -1.00000000
2.68885517 -9.40813065 2.62183690 45 15 16405 10.13000000 2338447055 2338447055 15.00000000
0.55310464 -1.94555461 -0.54196709 4 0 16413 2.09400000 2338447076 2338447076 -15.00000000
3.26583743 -11.49526405 0.20859116 10 1 16414 11.95200000 2338447078 2338447078 1.00000000
0.64028424 -2.25520277 -0.54123223 3 2 16415 2.40600000 2338447080 2338447080 -13.00000000
3.26258206 -11.49143505 0.62604272 2 3 16415 11.96200000 2338447083 2338447083 3.00000000
0.75236720 -2.65174174 -0.53579164 3 4 16416 2.80800000 2338447085 2338447085 -11.00000000
3.25443006 -11.47797012 1.04377723 21 5 16417 11.97600000 2338447087 2338447087 5.00000000
0.91063648 -3.21383882 -0.52906138 3 6 16418 3.38200000 2338447090 2338447090 -9.00000000
3.69173837 -13.03764057 1.66376030 80 7 16419 13.65200000 2338447092 2338447092 7.00000000
1.16586161 -4.12006760 -0.52574432 2 8 16420 4.31400000 2338447094 2338447094 -7.00000000
3.68419147 -13.02833557 2.14440370 73 9 16421 13.70800000 2338447097 2338447097 9.00000000
1.62971389 -5.76312590 -0.52398032 3 10 16421 6.01200000 2338447099 2338447099 -5.00000000
3.26957870 -11.56985950 2.33702850 37 11 16422 12.24800000 2338447101 2338447101 11.00000000
2.56639552 -9.08760929 -0.49488881 4 12 16423 9.45600000 2338447104 2338447104 -3.00000000
2.61577225 -9.26863575 2.22341633 19 13 16424 9.88400000 2338447106 2338447106 13.00000000
2.67382741 -9.48067665 2.63943672 42 15 16425 10.19800000 2338447110 2338447110 15.00000000
0.54526645 -1.94375336 -0.54093182 4 0 16433 2.09000000 2338447131 2338447131 -15.00000000
3.65967011 -13.05467033 0.23665462 14 1 16434 13.56000000 2338447133 2338447133 1.00000000
0.62820268 -2.24241209 -0.53763300 3 2 16435 2.39000000 2338447136 2338447136 -13.00000000
3.54404759 -12.65922451 0.68895054 22 3 16436 13.16400000 2338447138 2338447138 3.00000000
0.74310631 -2.65435195 -0.53579164 3 4 16436 2.80800000 2338447140 2338447140 -11.00000000
3.21112394 -11.47774792 1.04273129 21 5 16437 11.96400000 2338447143 2338447143 5.00000000
0.90154004 -3.22460747 -0.53031284 3 6 16438 3.39000000 2338447145 2338447145 -9.00000000
3.63926172 -13.02559376 1.66059172 76 7 16439 13.62600000 2338447147 2338447147 7.00000000
1.14720213 -4.10881615 -0.52379441 2 8 16440 4.29800000 2338447150 2338447150 -7.00000000
3.63778043 -13.02906513 2.14252639 73 9 16440 13.69600000 2338447152 2338447152 9.00000000
1.62029612 -5.80716133 -0.52746654 3 10 16441 6.05200000 2338447154 2338447154 -5.00000000
3.23180890 -11.59065819 2.33893657 37 11 16442 12.25800000 2338447157 2338447157 11.00000000
2.53251386 -9.08881569 -0.49447012 4 12 16443 9.44800000 2338447159 2338447159 -3.00000000
2.57974339 -9.26456928 2.22026682 16 13 16444 9.87000000 2338447161 2338447161 13.00000000
3.47484946 -12.48757458 -0.22625300 20 14 16445 12.96400000 2338447163 2338447163 -1.00000000
2.64061356 -9.49599648 2.64098954 42 15 16446 10.20400000 2338447166 2338447166 15.00000000
0.53847814 -1.94564486 -0.54093182 4 0 16453 2.09000000 2338447186 2338447186 -15.00000000
3.48508048 -12.60094929 0.22820766 31 1 16454 13.07600000 2338447189 2338447189 1.00000000
0.61933309 -2.24083471 -0.53673321 3 2 16455 2.38600000 2338447191 2338447191 -13.00000000
3.49353552 -12.64010620 0.68727577 25 3 16455 13.13200000 2338447193 2338447193 3.00000000
0.73070031 -2.64557528 -0.53350192 3 4 16456 2.79600000 2338447196 2338447196 -11.00000000
3.16785884 -11.47736359 1.04168546 17 5 16457 11.95200000 2338447198 2338447198 5.00000000
0.89080381 -3.22963905 -0.53062570 3 6 16458 3.39200000 2338447200 2338447200 -9.00000000
3.59113431 -13.02864933 1.65937293 80 7 16459 13.61600000 2338447203 2338447203 7.00000000
1.13654280 -4.12619257 -0.52550060 2 8 16460 4.31200000 2338447205 2338447205 -7.00000000
3.58371115 -13.01945686 2.13877201 77 9 16461 13.67200000 2338447207 2338447207 9.00000000
1.60318804 -5.82430744 -0.52851242 3 10 16461 6.06400000 2338447210 2338447210 -5.00000000
3.19393373 -11.61133289 2.34084487 37 11 16462 12.26800000 2338447212 2338447212 11.00000000
2.49494934 -9.07641697 -0.49331874 4 12 16463 9.42600000 2338447214 2338447214 -3.00000000
2.54996920 -9.28291321 2.22251630 15 13 16464 9.88000000 2338447216 2338447216 13.00000000
3.42276883 -12.46877480 -0.22569452 13 14 16465 12.93200000 2338447219 2338447219 -1.00000000
2.60693932 -9.50329304 2.64047194 42 15 16466 10.20200000 2338447221 2338447221 15.00000000
0.53134423 -1.94360006 -0.53989655 4 0 16471 2.08600000 2338447242 2338447242 -15.00000000
3.13876677 -11.48915482 0.20789306 10 1 16472 11.91200000 2338447244 2338447244 1.00000000
0.61639613 -2.25780892 -0.54033244 3 2 16473 2.40200000 2338447246 2338447246 -13.00000000
0.72031850 -2.64028168 -0.53197551 3 4 16474 2.78800000 2338447251 2338447251 -11.00000000
3.12602139 -11.46611404 1.03976798 25 5 16475 11.93000000 2338447253 2338447253 5.00000000
0.88273025 -3.24004531 -0.53187716 3 6 16476 3.40000000 2338447256 2338447256 -9.00000000
3.54914308 -13.03603554 1.65888548 78 7 16477 13.61200000 2338447258 2338447258 7.00000000
1.11992633 -4.11633444 -0.52379441 2 8 16478 4.29800000 2338447260 2338447260 -7.00000000
3.54143596 -13.01669025 2.13658190 73 9 16478 13.65800000 2338447263 2338447263 9.00000000
1.59742773 -5.87545776 -0.53269589 3 10 16479 6.11200000 2338447265 2338447265 -5.00000000
3.16052842 -11.63267708 2.34313440 37 11 16480 12.28000000 2338447267 2338447267 11.00000000
2.46118951 -9.06493473 -0.49227199 4 12 16481 9.40600000 2338447269 2338447269 -3.00000000
2.52079368 -9.29087830 2.22251630 8 13 16482 9.88000000 2338447272 2338447272 13.00000000
3.11461020 -11.48743916 -0.20775345 4 14 16483 11.90400000 2338447274 2338447274 -1.00000000
2.57555532 -9.50584221 2.63891888 42 15 16484 10.19600000 2338447276 2338447276 15.00000000
0.52455652 -1.94544291 -0.53989655 4 0 16491 2.08600000 2338447297 2338447297 -15.00000000
3.50080061 -12.99257469 0.23487449 14 1 16492 13.45800000 2338447299 2338447299 1.00000000
0.60851115 -2.25994658 -0.54033244 3 2 16493 2.40200000 2338447302 2338447302 -13.00000000
3.50984907 -13.03521252 0.70747745 10 3 16493 13.51800000 2338447304 2338447304 3.00000000
0.71211803 -2.64657164 -0.53273869 3 4 16494 2.79200000 2338447306 2338447306 -11.00000000
3.07873535 -11.45001984 1.03732765 17 5 16495 11.90200000 2338447309 2338447309 5.00000000
0.87141502 -3.24310684 -0.53187716 1 6 16496 3.40000000 2338447311 2338447311 -9.00000000
3.50001359 -13.03492451 1.65717936 75 7 16497 13.59800000 2338447313 2338447313 7.00000000
1.11172426 -4.14322567 -0.52671933 2 8 16498 4.32200000 2338447316 2338447316 -7.00000000
3.49341798 -13.01943302 2.13501763 73 9 16498 13.64800000 2338447318 2338447318 9.00000000
1.57690883 -5.88099813 -0.53269589 3 10 16499 6.11200000 2338447320 2338447320 -5.00000000
3.12244415 -11.65312004 2.34504247 43 11 16500 12.29000000 2338447322 2338447322 11.00000000
2.43418145 -9.09083462 -0.49321404 8 12 16501 9.42400000 2338447325 2338447325 -3.00000000
2.54677773 -9.51799297 2.27470517 8 13 16502 10.11200000 2338447327 2338447327 13.00000000
3.33741546 -12.48154163 -0.22552000 24 14 16503 12.92200000 2338447329 2338447329 -1.00000000
2.53637362 -9.49237823 2.63270736 40 15 16504 10.17200000 2338447332 2338447332 15.00000000
0.51543826 -1.93988419 -0.53782600 4 0 16512 2.07800000 2338447352 2338447352 -15.00000000
3.46649957 -13.05556965 0.23578201 14 1 16513 13.51000000 2338447355 2338447355 1.00000000
0.59822488 -2.25462747 -0.53853285 3 2 16514 2.39400000 2338447357 2338447357 -13.00000000
3.44309711 -12.97656155 0.70360458 15 3 16514 13.44400000 2338447359 2338447359 3.00000000
0.70241308 -2.64916396 -0.53273869 3 4 16515 2.79200000 2338447362 2338447362 -11.00000000
3.03215575 -11.44389343 1.03575885 21 5 16516 11.88400000 2338447364 2338447364 5.00000000
0.85193855 -3.21763539 -0.52718413 1 6 16517 3.37000000 2338447366 2338447366 -9.00000000
3.44815278 -13.03231335 1.65522945 76 7 16518 13.58200000 2338447368 2338447368 7.00000000
1.09653115 -4.14727259 -0.52671933 2 8 16519 4.32200000 2338447371 2338447371 -7.00000000
3.44315124 -13.02260113 2.13345313 73 9 16519 13.63800000 2338447373 2338447373 9.00000000
1.55534327 -5.88673830 -0.53269589 3 10 16520 6.11200000 2338447375 2338447375 -5.00000000
3.07770777 -11.65689373 2.34351611 37 11 16521 12.28200000 2338447378 2338447378 11.00000000
2.39676929 -9.08424568 -0.49237669 8 12 16522 9.40800000 2338447380 2338447380 -3.00000000
3.29062700 -12.48982239 -0.22545019 18 14 16524 12.91800000 2338447385 2338447385 -1.00000000
2.50765324 -9.51798725 2.63736606 40 15 16524 10.19000000 2338447387 2338447387 15.00000000
0.51062191 -1.94914675 -0.53989655 4 0 16532 2.08600000 2338447408 2338447408 -15.00000000
2.99753404 -11.45034313 0.20660159 10 1 16533 11.83800000 2338447410 2338447410 1.00000000
0.59035110 -2.25670195 -0.53853285 3 2 16534 2.39400000 2338447412 2338447412 -13.00000000
2.99946809 -11.46589851 0.62112314 2 3 16534 11.86800000 2338447415 2338447415 3.00000000
0.69316149 -2.65159965 -0.53273869 3 4 16535 2.79200000 2338447417 2338447417 -11.00000000
2.98967266 -11.44476891 1.03488731 17 5 16536 11.87400000 2338447419 2338447419 5.00000000
0.84618998 -3.24161434 -0.53062570 1 6 16537 3.39200000 2338447421 2338447421 -9.00000000
3.39963412 -13.03274536 1.65376699 76 7 16538 13.57000000 2338447424 2338447424 7.00000000
1.07904339 -4.13954973 -0.52525687 2 8 16539 4.31000000 2338447426 2338447426 -7.00000000
3.39567971 -13.02689457 2.13220167 73 9 16539 13.63000000 2338447428 2338447428 9.00000000
1.52172756 -5.84200191 -0.52816379 3 10 16540 6.06000000 2338447431 2338447431 -5.00000000
3.03996611 -11.67896557 2.34580588 40 11 16541 12.29400000 2338447433 2338447433 11.00000000
2.35951424 -9.07129478 -0.49122527 8 12 16542 9.38600000 2338447435 2338447435 -3.00000000
2.67567635 -10.29417324 2.45556569 51 13 16543 10.91600000 2338447438 2338447438 13.00000000
2.47323656 -9.52898407 2.63788366 40 15 16545 10.19200000 2338447442 2338447442 15.00000000
0.50478113 -1.95465827 -0.54093182 4 0 16552 2.09000000 2338447463 2338447463 -15.00000000
3.36327863 -13.03298092 0.23494430 14 1 16553 13.46200000 2338447465 2338447465 1.00000000
0.58052373 -2.25120091 -0.53673321 3 2 16554 2.38600000 2338447468 2338447468 -13.00000000
3.25745177 -12.64112949 0.68413562 32 3 16555 13.07200000 2338447470 2338447470 3.00000000
0.68096203 -2.64259624 -0.53044903 3 4 16555 2.78000000 2338447472 2338447472 -11.00000000
2.94523335 -11.43776989 1.03331852 17 5 16556 11.85600000 2338447474 2338447474 5.00000000
0.83240819 -3.23498297 -0.52906138 1 6 16557 3.38200000 2338447477 2338447477 -9.00000000
3.35115457 -13.03299713 1.65230453 73 7 16558 13.55800000 2338447479 2338447479 7.00000000
1.06261110 -4.13560057 -0.52428192 2 8 16559 4.30200000 2338447481 2338447481 -7.00000000
3.34625411 -13.02336216 2.12969875 73 9 16559 13.61400000 2338447484 2338447484 9.00000000
1.49438906 -5.82026100 -0.52572346 3 10 16560 6.03200000 2338447486 2338447486 -5.00000000
3.00308371 -11.70471954 2.34885883 37 11 16561 12.31000000 2338447488 2338447488 11.00000000
2.32833123 -9.08141041 -0.49132997 8 12 16562 9.38800000 2338447491 2338447491 -3.00000000
2.66584349 -10.40539074 2.47986031 38 13 16563 11.02400000 2338447493 2338447493 13.00000000
3.18202615 -12.42919064 -0.22394928 22 14 16564 12.83200000 2338447495 2338447495 -1.00000000
2.44162369 -9.53713322 2.63788366 40 15 16564 10.19200000 2338447498 2338447498 15.00000000
0.49604896 -1.94891965 -0.53886127 4 0 16572 2.08200000 2338447518 2338447518 -15.00000000
3.32170773 -13.06014633 0.23522353 14 1 16573 13.47800000 2338447521 2338447521 1.00000000
0.57650214 -2.26832318 -0.54033244 3 2 16574 2.40200000 2338447523 2338447523 -13.00000000
3.19413233 -12.57692623 0.68005341 20 3 16575 12.99400000 2338447525 2338447525 3.00000000
0.67270005 -2.64876270 -0.53121227 3 4 16575 2.78400000 2338447527 2338447527 -11.00000000
2.90087914 -11.43060112 1.03174973 17 5 16576 11.83800000 2338447530 2338447530 5.00000000
0.82013977 -3.23403931 -0.52843565 1 6 16577 3.37800000 2338447532 2338447532 -9.00000000
3.30368996 -13.03691864 1.65132964 75 7 16578 13.55000000 2338447534 2338447534 7.00000000
1.04816866 -4.13928413 -0.52428192 2 8 16579 4.30200000 2338447537 2338447537 -7.00000000
3.29365277 -13.01638889 2.12657022 70 9 16580 13.59400000 2338447539 2338447539 9.00000000
1.45842350 -5.76363373 -0.52014548 3 10 16580 5.96800000 2338447541 2338447541 -5.00000000
2.96653962 -11.73226070 2.35229325 40 11 16581 12.32800000 2338447544 2338447544 11.00000000
2.29221344 -9.07205486 -0.49038792 4 12 16582 9.37000000 2338447546 2338447546 -3.00000000
2.66957808 -10.57334614 2.51765227 48 13 16583 11.19200000 2338447548 2338447548 13.00000000
3.13666415 -12.43246651 -0.22380966 33 14 16584 12.82400000 2338447551 2338447551 -1.00000000
2.40570736 -9.54227161 2.63684845 40 15 16585 10.18800000 2338447553 2338447553 15.00000000
0.48770219 -1.94305897 -0.53679073 4 0 16591 2.07400000 2338447574 2338447574 -15.00000000
2.86827898 -11.43599129 0.20579877 20 1 16592 11.79200000 2338447576 2338447576 1.00000000
0.56708193 -2.26266146 -0.53853285 3 2 16593 2.39400000 2338447578 2338447578 -13.00000000
2.86807537 -11.45211887 0.61871570 26 3 16594 11.82200000 2338447580 2338447580 3.00000000
0.66582054 -2.65859675 -0.53273869 3 4 16594 2.79200000 2338447583 2338447583 -11.00000000
2.85570264 -11.41116619 1.02913499 8 5 16595 11.80800000 2338447585 2338447585 5.00000000
0.81132770 -3.24440670 -0.52968711 1 6 16596 3.38600000 2338447587 2338447587 -9.00000000
3.25851488 -13.04009914 1.65035462 75 7 16597 13.54200000 2338447590 2338447590 7.00000000
1.03732204 -4.15429306 -0.52574432 2 8 16598 4.31400000 2338447592 2338447592 -7.00000000
3.24987316 -13.01517296 2.12469292 70 9 16598 13.58200000 2338447594 2338447594 9.00000000
1.44219661 -5.78003693 -0.52119136 3 10 16599 5.98000000 2338447597 2338447597 -5.00000000
2.92666793 -11.73822403 2.35153008 40 11 16600 12.32400000 2338447599 2338447599 11.00000000
2.26791096 -9.10286236 -0.49164397 4 12 16601 9.39400000 2338447601 2338447601 -3.00000000
2.66933870 -10.72207546 2.55094504 55 13 16602 11.34000000 2338447604 2338447604 13.00000000
2.84969735 -11.45506001 -0.20604311 23 14 16603 11.80600000 2338447606 2338447606 -1.00000000
2.37291956 -9.53853416 2.63374257 26 15 16603 10.17600000 2338447608 2338447608 15.00000000
0.48277169 -1.95225108 -0.53886127 4 0 16611 2.08200000 2338447629 2338447629 -15.00000000
2.83313942 -11.46534634 0.20614782 16 1 16612 11.81200000 2338447631 2338447631 1.00000000
0.55731171 -2.25705934 -0.53673321 3 2 16613 2.38600000 2338447633 2338447633 -13.00000000
0.65465504 -2.65328026 -0.53121227 3 4 16614 2.78400000 2338447638 2338447638 -11.00000000
3.21505141 -13.04020977 1.17503369 74 5 16615 13.48200000 2338447640 2338447640 5.00000000
0.80188781 -3.25489116 -0.53093857 1 6 16616 3.39400000 2338447643 2338447643 -9.00000000
3.20823145 -13.03211784 1.64791727 76 7 16617 13.52200000 2338447645 2338447645 7.00000000
2.82518721 -11.48479462 -1.45219505 2 8 16618 11.91600000 2338447647 2338447647 -7.00000000
3.20214820 -13.02699661 2.12469292 70 9 16619 13.58200000 2338447650 2338447650 9.00000000
1.41535354 -5.75794888 -0.51875097 3 10 16619 5.95200000 2338447652 2338447652 -5.00000000
2.88567591 -11.74836826 2.35153008 40 11 16620 12.32400000 2338447654 2338447654 11.00000000
2.22660089 -9.07192993 -0.48955053 4 12 16621 9.35400000 2338447656 2338447656 -3.00000000
2.66717315 -10.87516975 2.58513761 52 13 16622 11.49200000 2338447659 2338447659 13.00000000
3.02055240 -12.32534218 -0.22150594 11 14 16623 12.69200000 2338447661 2338447661 -1.00000000
2.33978105 -9.55467224 2.63581324 26 15 16624 10.18400000 2338447663 2338447663 15.00000000
0.47835439 -1.96526968 -0.54196709 4 0 16632 2.09400000 2338447684 2338447684 -15.00000000
3.17247534 -13.04369450 0.23431601 14 1 16633 13.42600000 2338447686 2338447686 1.00000000
0.54903543 -2.25908685 -0.53673321 3 2 16634 2.38600000 2338447689 2338447689 -13.00000000
3.04999971 -12.55922318 0.67733192 25 3 16635 12.94200000 2338447691 2338447691 3.00000000
0.64770573 -2.66710877 -0.53350192 3 4 16635 2.79600000 2338447693 2338447693 -11.00000000
3.16018748 -13.02286243 1.17241907 61 5 16636 13.45200000 2338447696 2338447696 5.00000000
0.78622866 -3.24245048 -0.52843565 1 6 16637 3.37800000 2338447698 2338447698 -9.00000000
3.15763998 -13.03221416 1.64645481 76 7 16638 13.51000000 2338447700 2338447700 7.00000000
1.00289702 -4.14231634 -0.52330697 2 8 16639 4.29400000 2338447703 2338447703 -7.00000000
3.15479684 -13.03041553 2.12344146 70 9 16639 13.57400000 2338447705 2338447705 9.00000000
1.39049208 -5.74760580 -0.51735651 3 10 16640 5.93600000 2338447707 2338447707 -5.00000000
2.84444189 -11.76649857 2.35305643 43 11 16641 12.33200000 2338447709 2338447709 11.00000000
2.18723917 -9.05479145 -0.48818979 4 12 16642 9.32800000 2338447712 2338447712 -3.00000000
2.66296029 -11.03263092 2.62022996 51 13 16643 11.64800000 2338447714 2338447714 13.00000000
2.96926236 -12.31105900 -0.22105218 22 14 16644 12.66600000 2338447716 2338447716 -1.00000000
2.30913258 -9.57404995 2.63891888 38 15 16644 10.19600000 2338447719 2338447719 15.00000000
0.46969008 -1.95941293 -0.53989655 4 0 16652 2.08600000 2338447739 2338447739 -15.00000000
3.05193114 -12.74159431 0.22869633 14 1 16653 13.10400000 2338447742 2338447742 1.00000000
0.54114640 -2.26098967 -0.53673321 3 2 16654 2.38600000 2338447744 2338447744 -13.00000000
2.99777937 -12.53482819 0.67544782 20 3 16655 12.90600000 2338447746 2338447746 3.00000000
0.63839185 -2.66935349 -0.53350192 3 4 16655 2.79600000 2338447749 2338447749 -11.00000000
3.11887765 -13.05125523 1.17398787 70 5 16656 13.47000000 2338447751 2338447751 5.00000000
0.77719957 -3.25478196 -0.52999997 1 6 16657 3.38800000 2338447753 2338447753 -9.00000000
3.10890484 -13.02964020 1.64474869 78 7 16658 13.49600000 2338447756 2338447756 7.00000000
0.98659009 -4.13806772 -0.52233201 2 8 16659 4.28600000 2338447758 2338447758 -7.00000000
3.10198092 -13.02075291 2.11999989 73 9 16660 13.55200000 2338447760 2338447760 9.00000000
1.37411463 -5.76792955 -0.51875097 3 10 16660 5.95200000 2338447762 2338447762 -5.00000000
2.80698895 -11.79163551 2.35610938 40 11 16661 12.34800000 2338447765 2338447765 11.00000000
2.15007234 -9.03905392 -0.48693374 4 12 16662 9.30400000 2338447767 2338447767 -3.00000000
2.65372348 -11.16509438 2.64947343 53 13 16663 11.77800000 2338447769 2338447769 13.00000000
2.92303610 -12.30772972 -0.22080785 15 14 16664 12.65200000 2338447772 2338447772 -1.00000000
2.27581048 -9.58996773 2.64098954 38 15 16665 10.20400000 2338447774 2338447774 15.00000000
0.46196008 -1.95728016 -0.53886127 4 0 16672 2.08200000 2338447795 2338447795 -15.00000000
3.08087778 -13.06357861 0.23428111 14 1 16673 13.42400000 2338447797 2338447797 1.00000000
0.53414476 -2.26665831 -0.53763300 3 2 16674 2.39000000 2338447799 2338447799 -13.00000000
2.95171738 -12.53549576 0.67492449 22 3 16675 12.89600000 2338447802 2338447802 3.00000000
0.62637031 -2.66009951 -0.53121227 3 4 16675 2.78400000 2338447804 2338447804 -11.00000000
3.06828189 -13.04072857 1.17207038 74 5 16676 13.44800000 2338447806 2338447806 5.00000000
0.76718980 -3.26324391 -0.53093857 1 6 16677 3.39400000 2338447809 2338447809 -9.00000000
3.06340408 -13.04041290 1.64474869 80 7 16678 13.49600000 2338447811 2338447811 7.00000000
0.97213948 -4.14148664 -0.52233201 2 8 16679 4.28600000 2338447813 2338447813 -7.00000000
3.05517435 -13.01558304 2.11749697 73 9 16679 13.53600000 2338447815 2338447815 9.00000000
1.34851289 -5.74941397 -0.51665926 3 10 16680 5.92800000 2338447818 2338447818 -5.00000000
2.76670742 -11.80518436 2.35687280 40 11 16681 12.35200000 2338447820 2338447820 11.00000000
2.12670422 -9.08150768 -0.48881784 4 12 16682 9.34000000 2338447822 2338447822 -3.00000000
2.62627792 -11.22362423 2.66117096 50 13 16683 11.83000000 2338447825 2338447825 13.00000000
2.86184549 -12.23997116 -0.21941166 15 14 16684 12.57200000 2338447827 2338447827 -1.00000000
2.24399662 -9.59746170 2.64098954 38 15 16684 10.20400000 2338447829 2338447829 15.00000000
0.45512506 -1.95888078 -0.53886127 4 0 16692 2.08200000 2338447850 2338447850 -15.00000000
3.02802300 -13.04308701 0.23372263 14 1 16693 13.39200000 2338447852 2338447852 1.00000000
0.52887154 -2.27989912 -0.54033244 3 2 16694 2.40200000 2338447855 2338447855 -13.00000000
2.90298152 -12.52432060 0.67377311 20 3 16695 12.87400000 2338447857 2338447857 3.00000000
0.61841094 -2.66800737 -0.53235710 3 4 16695 2.79000000 2338447859 2338447859 -11.00000000
3.01644897 -13.02418518 1.16963005 70 5 16696 13.42000000 2338447862 2338447862 5.00000000
0.75044978 -3.24280763 -0.52718413 1 6 16697 3.37000000 2338447864 2338447864 -9.00000000
3.01428795 -13.03555489 1.64279878 78 7 16698 13.48000000 2338447866 2338447866 7.00000000
0.95767707 -4.14485455 -0.52233201 2 8 16699 4.28600000 2338447868 2338447868 -7.00000000
3.00567174 -13.01899529 2.11624551 73 9 16700 13.52800000 2338447871 2338447871 9.00000000
1.32933187 -5.75796890 -0.51700789 3 10 16700 5.93200000 2338447873 2338447873 -5.00000000
2.72857189 -11.82816124 2.35954404 40 11 16701 12.36600000 2338447875 2338447875 11.00000000
2.09588814 -9.09276867 -0.48902717 4 12 16702 9.34400000 2338447878 2338447878 -3.00000000
2.58752155 -11.23462200 2.66162086 47 13 16703 11.83200000 2338447880 2338447880 13.00000000
2.81551480 -12.23429585 -0.21913241 15 14 16704 12.55600000 2338447882 2338447882 -1.00000000
2.20620751 -9.59432507 2.63788366 38 15 16705 10.19200000 2338447885 2338447885 15.00000000
0.44810626 -1.95653474 -0.53782600 4 0 16710 2.07800000 2338447905 2338447905 -15.00000000
2.96785021 -12.96871567 0.23222172 14 1 16711 13.30600000 2338447908 2338447908 1.00000000
0.51996887 -2.27395058 -0.53853285 3 2 16712 2.39400000 2338447910 2338447910 -13.00000000
2.86317611 -12.53143120 0.67366844 25 3 16713 12.87200000 2338447912 2338447912 3.00000000
2.99022102 -13.08747673 -2.60950375 4 4 16713 13.67600000 2338447915 2338447915 -11.00000000
2.97551727 -13.03359699 1.16963005 78 5 16714 13.42000000 2338447917 2338447917 5.00000000
0.73894054 -3.23937154 -0.52624553 1 6 16715 3.36400000 2338447919 2338447919 -9.00000000
2.96979165 -13.02947617 1.64084888 82 7 16716 13.46400000 2338447921 2338447921 7.00000000
0.94376934 -4.14397192 -0.52184451 2 8 16717 4.28200000 2338447924 2338447924 -7.00000000
2.96439862 -13.01629925 2.11436820 73 9 16717 13.51600000 2338447926 2338447926 9.00000000
1.31300449 -5.76988745 -0.51770508 3 10 16718 5.94000000 2338447928 2338447928 -5.00000000
2.69226980 -11.84050369 2.36030722 40 11 16719 12.37000000 2338447931 2338447931 11.00000000
2.06288719 -9.07983208 -0.48798046 4 12 16720 9.32400000 2338447933 2338447933 -3.00000000
2.55394006 -11.25029659 2.66342044 45 13 16721 11.84000000 2338447935 2338447935 13.00000000
2.78148937 -12.26258183 -0.21948147 15 14 16722 12.57600000 2338447938 2338447938 -1.00000000
2.18029499 -9.61213303 2.64098954 38 15 16722 10.20400000 2338447940 2338447940 15.00000000
0.44212338 -1.96185613 -0.53886127 4 0 16730 2.08200000 2338447961 2338447961 -15.00000000
2.93793774 -13.04727554 0.23344339 14 1 16731 13.37600000 2338447963 2338447963 1.00000000
0.50946158 -2.26434445 -0.53583342 3 2 16732 2.38200000 2338447965 2338447965 -13.00000000
2.81547332 -12.52381229 0.67272639 27 3 16733 12.85400000 2338447968 2338447968 3.00000000
2.94322729 -13.09208870 -2.60835886 4 4 16733 13.67000000 2338447970 2338447970 -11.00000000
2.92869353 -13.03807259 1.16910708 78 5 16734 13.41400000 2338447972 2338447972 5.00000000
0.72892636 -3.24771357 -0.52718413 1 6 16735 3.37000000 2338447974 2338447974 -9.00000000
2.92168593 -13.02814102 1.63938642 82 7 16736 13.45200000 2338447977 2338447977 7.00000000
0.92973244 -4.14917803 -0.52208829 2 8 16737 4.28400000 2338447979 2338447979 -7.00000000
2.91894507 -13.02656746 2.11436820 73 9 16737 13.51600000 2338447981 2338447981 9.00000000
1.28850269 -5.75499296 -0.51596200 3 10 16738 5.92000000 2338447984 2338447984 -5.00000000
2.63977861 -11.80001640 2.35038519 15 11 16739 12.31800000 2338447986 2338447986 11.00000000
2.03815103 -9.11816406 -0.48965520 4 12 16740 9.35600000 2338447988 2338447988 -3.00000000
2.51295447 -11.25153542 2.66162086 48 13 16741 11.83200000 2338447991 2338447991 13.00000000
2.75129867 -12.32881546 -0.22049370 13 14 16742 12.63400000 2338447993 2338447993 -1.00000000
2.14883280 -9.62911224 2.64357781 35 15 16742 10.21400000 2338447995 2338447995 15.00000000
0.43694505 -1.97093177 -0.54093182 4 0 16750 2.09000000 2338448016 2338448016 -15.00000000
2.88718677 -13.03402328 0.23302454 14 1 16751 13.35200000 2338448018 2338448018 1.00000000
0.50281781 -2.27181697 -0.53718311 4 2 16752 2.38800000 2338448021 2338448021 -13.00000000
2.76225209 -12.49066067 0.67042363 30 3 16753 12.81000000 2338448023 2338448023 3.00000000
2.89199829 -13.07736206 -2.60339785 4 4 16753 13.64400000 2338448025 2338448025 -11.00000000
2.86725903 -12.97623444 1.16265762 35 5 16754 13.34000000 2338448027 2338448027 5.00000000
0.71886289 -3.25602508 -0.52812278 1 6 16755 3.37600000 2338448030 2338448030 -9.00000000
2.87362576 -13.02662945 1.63792396 82 7 16756 13.44000000 2338448032 2338448032 7.00000000
0.91097063 -4.13301229 -0.51965088 2 8 16757 4.26400000 2338448034 2338448034 -7.00000000
2.86820674 -13.02367496 2.11217809 73 9 16758 13.50200000 2338448037 2338448037 9.00000000
1.27012026 -5.76723862 -0.51665926 3 10 16758 5.92800000 2338448039 2338448039 -5.00000000
2.58380580 -11.74205017 2.33702850 12 11 16759 12.24800000 2338448041 2338448041 11.00000000
1.99258614 -9.06280136 -0.48630571 4 12 16760 9.29200000 2338448044 2338448044 -3.00000000
2.47366405 -11.26023865 2.66162086 47 13 16761 11.83200000 2338448046 2338448046 13.00000000
2.72711015 -12.42428493 -0.22202952 18 14 16762 12.72200000 2338448048 2338448048 -1.00000000
2.11769295 -9.64787674 2.64668345 35 15 16762 10.22600000 2338448050 2338448050 15.00000000
0.42923945 -1.96866989 -0.53989655 4 0 16770 2.08600000 2338448071 2338448071 -15.00000000
2.73398137 -12.54969311 0.22419362 35 1 16771 12.84600000 2338448074 2338448074 1.00000000
0.49612802 -2.27927089 -0.53853285 4 2 16772 2.39400000 2338448076 2338448076 -13.00000000
2.82729506 -12.99984550 0.69721961 10 3 16773 13.32200000 2338448078 2338448078 3.00000000
2.84382892 -13.07586670 -2.60110831 4 4 16773 13.63200000 2338448080 2338448080 -11.00000000
2.83548450 -13.04846573 1.16823554 74 5 16774 13.40400000 2338448083 2338448083 5.00000000
0.70455891 -3.24500155 -0.52593267 1 6 16775 3.36200000 2338448085 2338448085 -9.00000000
2.82645345 -13.02882099 1.63694906 78 7 16776 13.43200000 2338448087 2338448087 7.00000000
0.89443558 -4.12646675 -0.51843220 2 8 16777 4.25400000 2338448090 2338448090 -7.00000000
2.81771088 -13.01043987 2.10842371 73 9 16778 13.47800000 2338448092 2338448092 9.00000000
1.24660730 -5.75605917 -0.51526475 3 10 16778 5.91200000 2338448094 2338448094 -5.00000000
2.54404831 -11.75675488 2.33817339 12 11 16779 12.25400000 2338448097 2338448097 11.00000000
2.70209455 -12.49768162 -0.67010957 4 12 16780 12.80400000 2338448099 2338448099 -3.00000000
2.43434334 -11.26880550 2.66162086 47 13 16781 11.83200000 2338448101 2338448101 13.00000000
2.74068141 -12.69761086 -0.22674167 9 14 16782 12.99200000 2338448103 2338448103 -1.00000000
2.08109570 -9.64990807 2.64513063 38 15 16783 10.22000000 2338448106 2338448106 15.00000000
0.41912529 -1.95504475 -0.53575540 4 0 16790 2.07000000 2338448127 2338448127 -15.00000000
2.79612255 -13.05386162 0.23302454 14 1 16791 13.35200000 2338448129 2338448129 1.00000000
0.48939234 -2.28670549 -0.53988254 4 2 16792 2.40000000 2338448131 2338448131 -13.00000000
2.79025269 -13.04869747 0.69931304 12 3 16793 13.36200000 2338448133 2338448133 3.00000000
0.56858319 -2.65899563 -0.52854091 3 4 16793 2.77000000 2338448136 2338448136 -11.00000000
2.78409171 -13.03100681 1.16579521 78 5 16794 13.37600000 2338448138 2338448138 5.00000000
0.69776374 -3.26869154 -0.52937424 1 6 16795 3.38400000 2338448140 2338448140 -9.00000000
2.78012896 -13.03472519 1.63646150 82 7 16796 13.42800000 2338448143 2338448143 7.00000000
0.88002610 -4.12956381 -0.51843220 2 8 16797 4.25400000 2338448145 2338448145 -7.00000000
2.77104449 -13.01439953 2.10748506 73 9 16798 13.47200000 2338448147 2338448147 9.00000000
1.22899687 -5.77206755 -0.51631063 3 10 16798 5.92400000 2338448150 2338448150 -5.00000000
2.63698816 -12.39541531 2.46334410 34 11 16799 12.91000000 2338448152 2338448152 11.00000000
2.78053761 -13.08140087 -0.70088315 4 12 16800 13.39200000 2338448154 2338448154 -3.00000000
2.39742208 -11.28867149 2.66432023 48 13 16801 11.84400000 2338448156 2338448156 13.00000000
2.77022552 -13.05529308 -0.23295473 11 14 16802 13.34800000 2338448159 2338448159 -1.00000000
2.04587603 -9.64163780 2.64098954 40 15 16802 10.20400000 2338448161 2338448161 15.00000000
0.41429013 -1.96594751 -0.53834361 4 0 16810 2.08000000 2338448182 2338448182 -15.00000000
2.74394703 -13.03223324 0.23246606 14 1 16811 13.32000000 2338448184 2338448184 1.00000000
0.47900024 -2.27695775 -0.53718311 4 2 16812 2.38800000 2338448186 2338448186 -13.00000000
2.74345493 -13.05249405 0.69899905 10 3 16813 13.35600000 2338448189 2338448189 3.00000000
2.75085831 -13.08771706 -2.59958172 4 4 16813 13.62400000 2338448191 2338448191 -11.00000000
2.73613119 -13.02894592 1.16474938 83 5 16814 13.36400000 2338448193 2338448193 5.00000000
0.68107629 -3.24597478 -0.52530694 1 6 16815 3.35800000 2338448196 2338448196 -9.00000000
2.73135376 -13.02880764 1.63451159 80 7 16816 13.41200000 2338448198 2338448198 7.00000000
0.86926848 -4.15009689 -0.52062583 2 8 16817 4.27200000 2338448200 2338448200 -7.00000000
2.72559905 -13.02399349 2.10748506 73 9 16818 13.47200000 2338448203 2338448203 9.00000000
1.21047354 -5.78412294 -0.51700789 3 10 16818 5.93200000 2338448205 2338448205 -5.00000000
2.63348365 -12.59479237 2.50112438 43 11 16819 13.10800000 2338448207 2338448207 11.00000000
2.72913980 -13.06365585 -0.69941771 4 12 16820 13.36400000 2338448209 2338448209 -3.00000000
2.36039162 -11.30841732 2.66701961 46 13 16821 11.85600000 2338448212 2338448212 13.00000000
2.72341251 -13.05901146 -0.23285000 9 14 16822 13.34200000 2338448214 2338448214 -1.00000000
2.01378560 -9.65628529 2.64306021 40 15 16822 10.21200000 2338448216 2338448216 15.00000000
0.40781692 -1.96927345 -0.53886127 4 0 16830 2.08200000 2338448237 2338448237 -15.00000000
2.69681859 -13.03389931 0.23232643 28 1 16831 13.31200000 2338448239 2338448239 1.00000000
0.46868217 -2.26716566 -0.53448373 4 2 16832 2.37600000 2338448242 2338448242 -13.00000000
2.69692135 -13.04587269 0.69816166 12 3 16832 13.34000000 2338448244 2338448244 3.00000000
2.70515680 -13.09723949 -2.59958172 4 4 16833 13.62400000 2338448246 2338448246 -11.00000000
2.68902421 -13.03061295 1.16405213 70 5 16834 13.35600000 2338448249 2338448249 5.00000000
2.69771409 -13.08425903 -2.11593246 6 6 16835 13.52600000 2338448251 2338448251 -9.00000000
2.68866181 -13.05187225 1.63621783 35 7 16836 13.42600000 2338448253 2338448253 7.00000000
0.85157526 -4.13755131 -0.51867592 4 8 16837 4.25600000 2338448255 2338448255 -7.00000000
2.70549154 -13.14517975 2.12563157 21 9 16837 13.58800000 2338448258 2338448258 9.00000000
1.18947327 -5.78441000 -0.51665926 3 10 16838 5.92800000 2338448260 2338448260 -5.00000000
2.62980390 -12.80006313 2.54004931 50 11 16839 13.31200000 2338448262 2338448262 11.00000000
2.67950654 -13.05353832 -0.69837099 4 12 16840 13.34400000 2338448265 2338448265 -3.00000000
2.32168651 -11.32040501 2.66791940 36 13 16841 11.86000000 2338448267 2338448267 13.00000000
2.67419863 -13.05080700 -0.23253587 20 14 16842 13.32400000 2338448269 2338448269 -1.00000000
1.98278105 -9.67650318 2.64668345 35 15 16842 10.22600000 2338448272 2338448272 15.00000000
0.40094039 -1.97068501 -0.53886127 4 0 16850 2.08200000 2338448292 2338448292 -15.00000000
2.65011024 -13.03735542 0.23222172 7 1 16851 13.30600000 2338448295 2338448295 1.00000000
0.46348038 -2.28215623 -0.53763300 3 2 16852 2.39000000 2338448297 2338448297 -13.00000000
2.65345669 -13.07720089 0.69931304 7 3 16853 13.36200000 2338448299 2338448299 3.00000000
2.65473771 -13.08351326 -2.59500241 4 4 16853 13.60000000 2338448302 2338448302 -11.00000000
0.65918297 -3.25452256 -0.52593267 1 6 16855 3.36200000 2338448306 2338448306 -9.00000000
2.68836451 -13.28492832 1.66424775 22 7 16856 13.65600000 2338448308 2338448308 7.00000000
0.83398020 -4.12493277 -0.51672602 4 8 16857 4.24000000 2338448311 2338448311 -7.00000000
2.70109963 -13.37187004 2.16067290 24 9 16858 13.81200000 2338448313 2338448313 9.00000000
1.16611874 -5.77290344 -0.51526475 3 10 16858 5.91200000 2338448315 2338448315 -5.00000000
2.59753585 -12.87074757 2.55226111 56 11 16859 13.37600000 2338448318 2338448318 11.00000000
2.28023267 -11.31888866 2.66566992 48 13 16861 11.85000000 2338448322 2338448322 13.00000000
2.63572884 -13.09534931 -0.23316415 6 14 16862 13.36000000 2338448325 2338448325 -1.00000000
1.94958675 -9.69506931 2.64978933 35 15 16863 10.23800000 2338448327 2338448327 15.00000000
0.39330190 -1.96828377 -0.53782600 4 0 16870 2.07800000 2338448348 2338448348 -15.00000000
2.64569187 -13.25243092 0.23588672 7 1 16871 13.51600000 2338448350 2338448350 1.00000000
0.45513016 -2.28184891 -0.53718311 4 2 16872 2.38800000 2338448352 2338448352 -13.00000000
2.65500379 -13.31117535 0.71135032 7 3 16872 13.59200000 2338448355 2338448355 3.00000000
0.53216976 -2.67052579 -0.52930415 3 4 16873 2.77400000 2338448357 2338448357 -11.00000000
2.66762638 -13.39884090 1.19525385 13 5 16874 13.71400000 2338448359 2338448359 5.00000000
0.64858925 -3.26067853 -0.52655840 1 6 16875 3.36600000 2338448361 2338448361 -9.00000000
2.68685913 -13.52008533 1.69252145 26 7 16876 13.88800000 2338448364 2338448364 7.00000000
0.82034963 -4.13171291 -0.51721346 4 8 16877 4.24400000 2338448366 2338448366 -7.00000000
2.69322729 -13.57691669 2.19227266 21 9 16878 14.01400000 2338448368 2338448368 9.00000000
1.14596045 -5.77693892 -0.51526475 3 10 16878 5.91200000 2338448371 2338448371 -5.00000000
2.55182934 -12.87588501 2.55149794 53 11 16879 13.37200000 2338448373 2338448373 11.00000000
2.24184299 -11.33251476 2.66701961 48 13 16881 11.85600000 2338448378 2338448378 13.00000000
2.63497758 -13.33203220 -0.23721310 6 14 16882 13.59200000 2338448380 2338448380 -1.00000000
1.91555321 -9.69200516 2.64720130 38 15 16882 10.22800000 2338448382 2338448382 15.00000000
0.38642892 -1.96964467 -0.53782600 4 0 16890 2.07800000 2338448403 2338448403 -15.00000000
2.64172673 -13.47744465 0.23972626 7 1 16891 13.73600000 2338448405 2338448405 1.00000000
0.44903478 -2.29298592 -0.53943264 4 2 16892 2.39800000 2338448407 2338448407 -13.00000000
2.64767385 -13.52028561 0.72202682 5 3 16892 13.79600000 2338448410 2338448410 3.00000000
0.52359855 -2.67622066 -0.53006738 3 4 16893 2.77800000 2338448412 2338448412 -11.00000000
2.65714955 -13.59383202 1.21181345 17 5 16894 13.90400000 2338448414 2338448414 5.00000000
0.63871789 -3.27067757 -0.52780986 1 6 16895 3.37400000 2338448417 2338448417 -9.00000000
0.80592227 -4.13455153 -0.51721346 4 8 16897 4.24400000 2338448421 2338448421 -7.00000000
2.84518957 -14.61000156 2.35746741 15 9 16898 15.07000000 2338448424 2338448424 9.00000000
1.11817122 -5.74179077 -0.51177853 3 10 16898 5.87200000 2338448426 2338448426 -5.00000000
2.50236917 -12.86158848 2.54691839 53 11 16899 13.34800000 2338448428 2338448428 11.00000000
2.20375729 -11.34792328 2.66881943 48 13 16901 11.86400000 2338448433 2338448433 13.00000000
2.62689233 -13.53942108 -0.24073850 6 14 16902 13.79400000 2338448435 2338448435 -1.00000000
1.88097417 -9.69483948 2.64616585 38 15 16902 10.22400000 2338448437 2338448437 15.00000000
0.37955120 -1.97098148 -0.53782600 4 0 16910 2.07800000 2338448458 2338448458 -15.00000000
0.43882105 -2.28305697 -0.53673321 3 2 16912 2.38600000 2338448463 2338448463 -13.00000000
0.51277268 -2.67032003 -0.52854091 3 4 16913 2.77000000 2338448467 2338448467 -11.00000000
0.62246323 -3.24766636 -0.52374262 1 6 16915 3.34800000 2338448472 2338448472 -9.00000000
3.77399731 -19.70922089 2.46395445 2 7 16916 20.21800000 2338448474 2338448474 7.00000000
0.79558796 -4.15878630 -0.51989460 4 8 16917 4.26600000 2338448477 2338448477 -7.00000000
2.79524064 -14.61159515 2.35621595 18 9 16917 15.06200000 2338448479 2338448479 9.00000000
1.10186195 -5.76522827 -0.51352161 3 10 16918 5.89200000 2338448481 2338448481 -5.00000000
2.45451283 -12.85481739 2.54386544 53 11 16919 13.33200000 2338448484 2338448484 11.00000000
1.72603655 -9.04820061 -0.48274687 4 12 16920 9.22400000 2338448486 2338448486 -3.00000000
2.16632128 -11.36703205 2.67151880 50 13 16921 11.87600000 2338448488 2338448488 13.00000000
3.27753615 -17.21409035 -0.30587086 2 14 16922 17.52600000 2338448490 2338448490 -1.00000000
1.84723318 -9.71115780 2.64875412 35 15 16923 10.23400000 2338448493 2338448493 15.00000000
0.37266889 -1.97229433 -0.53782600 4 0 16930 2.07800000 2338448513 2338448513 -15.00000000
0.42904329 -2.27500010 -0.53448373 4 2 16932 2.37600000 2338448518 2338448518 -13.00000000
0.50781041 -2.69524527 -0.53312033 3 4 16933 2.79400000 2338448523 2338448523 -11.00000000
3.36894608 -17.89812469 1.59338129 16 5 16934 18.28200000 2338448525 2338448525 5.00000000
0.60856754 -3.23622990 -0.52155250 1 6 16935 3.33400000 2338448527 2338448527 -9.00000000
3.70151091 -19.70276451 2.46151710 2 7 16936 20.19800000 2338448530 2338448530 7.00000000
0.77447498 -4.12642002 -0.51550734 2 8 16937 4.23000000 2338448532 2338448532 -7.00000000
2.74093962 -14.61785889 2.35559011 15 9 16938 15.05800000 2338448534 2338448534 9.00000000
1.07291842 -5.72204113 -0.50933814 3 10 16938 5.84400000 2338448537 2338448537 -5.00000000
2.40673447 -12.84786987 2.54081249 56 11 16939 13.31600000 2338448539 2338448539 11.00000000
2.12519717 -11.36686230 2.66971922 48 13 16941 11.86800000 2338448543 2338448543 13.00000000
3.26075268 -17.45737839 -0.30998963 2 14 16942 17.76200000 2338448546 2338448546 -1.00000000
1.81474113 -9.72514343 2.65082455 33 15 16943 10.24200000 2338448548 2338448548 15.00000000
0.36578929 -1.97554660 -0.53834361 4 0 16951 2.08000000 2338448569 2338448569 -15.00000000
0.42070213 -2.27655721 -0.53448373 4 2 16953 2.37600000 2338448573 2338448573 -13.00000000
3.31004238 -17.91172600 0.95460784 2 3 16953 18.24000000 2338448576 2338448576 3.00000000
0.49436417 -2.67778206 -0.52930415 3 4 16954 2.77400000 2338448578 2338448578 -11.00000000
0.60207129 -3.26757884 -0.52624553 1 6 16956 3.36400000 2338448583 2338448583 -9.00000000
3.64292789 -19.79038620 2.47077918 2 7 16957 20.27400000 2338448585 2338448585 7.00000000
0.76042277 -4.13508797 -0.51623851 2 8 16958 4.23600000 2338448587 2338448587 -7.00000000
2.68668175 -14.60985279 2.35277438 15 9 16958 15.04000000 2338448590 2338448590 9.00000000
1.05697894 -5.75336981 -0.51177853 3 10 16959 5.87200000 2338448592 2338448592 -5.00000000
2.35962844 -12.85660458 2.54081249 53 11 16960 13.31600000 2338448594 2338448594 11.00000000
2.08352137 -11.37457561 2.66971922 48 13 16962 11.86800000 2338448599 2338448599 13.00000000
3.24498010 -17.73279381 -0.31466690 2 14 16963 18.03000000 2338448601 2338448601 -1.00000000
1.77977931 -9.73552990 2.65186000 40 15 16964 10.24600000 2338448603 2338448603 15.00000000
0.35820094 -1.97300982 -0.53730834 4 0 16971 2.07600000 2338448624 2338448624 -15.00000000
0.41414264 -2.28568196 -0.53628331 4 2 16973 2.38400000 2338448629 2338448629 -13.00000000
0.48361522 -2.67176414 -0.52777767 3 4 16974 2.76600000 2338448633 2338448633 -11.00000000
0.58714998 -3.25022149 -0.52311683 1 6 16976 3.34400000 2338448638 2338448638 -9.00000000
3.58510613 -19.86549568 2.47857881 2 7 16977 20.33800000 2338448640 2338448640 7.00000000
0.74704063 -4.14357758 -0.51696974 2 8 16978 4.24200000 2338448643 2338448643 -7.00000000
2.63531685 -14.61719799 2.35246158 15 9 16978 15.03800000 2338448645 2338448645 9.00000000
1.03477049 -5.74525928 -0.51073265 3 10 16979 5.86000000 2338448647 2338448647 -5.00000000
2.31334543 -12.85703373 2.53928614 53 11 16980 13.30800000 2338448649 2338448649 11.00000000
2.85075545 -15.85971355 -0.84449297 4 12 16981 16.13600000 2338448652 2338448652 -3.00000000
2.04311514 -11.37794304 2.66881943 48 13 16982 11.86400000 2338448654 2338448654 13.00000000
2.83527255 -15.80526066 -0.28028566 37 14 16983 16.06000000 2338448656 2338448656 -1.00000000
1.74476290 -9.73597813 2.65030694 40 15 16984 10.24000000 2338448659 2338448659 15.00000000
0.35063475 -1.97044420 -0.53627306 4 0 16991 2.07200000 2338448679 2338448679 -15.00000000
0.40616158 -2.28711367 -0.53628331 4 2 16993 2.38400000 2338448684 2338448684 -13.00000000
0.47222844 -2.66183758 -0.52548796 3 4 16994 2.75400000 2338448689 2338448689 -11.00000000
0.57821167 -3.26586699 -0.52530694 1 6 16996 3.35800000 2338448693 2338448693 -9.00000000
3.50882602 -19.83879280 2.47370386 2 7 16997 20.29800000 2338448695 2338448695 7.00000000
0.73602617 -4.16570854 -0.51940715 2 8 16998 4.26200000 2338448698 2338448698 -7.00000000
2.58668327 -14.63992405 2.35465145 15 9 16998 15.05200000 2338448700 2338448700 9.00000000
1.01886535 -5.77238083 -0.51282442 3 10 16999 5.88400000 2338448702 2338448702 -5.00000000
2.26640654 -12.85342979 2.53699636 53 11 17000 13.29600000 2338448705 2338448705 11.00000000
2.79329848 -15.85776615 -0.84386498 4 12 17001 16.12400000 2338448707 2338448707 -3.00000000
2.00575018 -11.39844036 2.67196870 51 13 17002 11.87800000 2338448709 2338448709 13.00000000
1.71213317 -9.73980808 2.64978933 35 15 17003 10.23800000 2338448714 2338448714 15.00000000
0.34143183 -1.95833421 -0.53264958 4 0 17011 2.05800000 2338448735 2338448735 -15.00000000
3.34951973 -19.23151588 0.34074077 8 1 17012 19.52400000 2338448737 2338448737 1.00000000
0.39750752 -2.28467774 -0.53538352 4 2 17013 2.38000000 2338448739 2338448739 -13.00000000
3.35920405 -19.30705261 1.02704084 3 3 17013 19.62400000 2338448742 2338448742 3.00000000
0.46696830 -2.68668079 -0.53006738 3 4 17014 2.77800000 2338448744 2338448744 -11.00000000
3.34360886 -19.25722122 1.70999563 23 5 17015 19.62000000 2338448746 2338448746 5.00000000
0.56545782 -3.26008034 -0.52405548 1 6 17016 3.35000000 2338448748 2338448748 -9.00000000
3.30466986 -19.07245255 2.37669587 2 7 17017 19.50200000 2338448751 2338448751 7.00000000
0.72554344 -4.19172430 -0.52233201 2 8 17018 4.28600000 2338448753 2338448753 -7.00000000
