# .PCD v0.7 - Point Cloud Data file format
VERSION 0.7
FIELDS x y z intensity laser_id azimuth distance_m adjustedtime timestamp vertical_angle
SIZE 4 4 4 1 1 2 8 8 4 8
TYPE F F F U U U F U U F
COUNT 1 1 1 1 1 1 1 1 1 1
WIDTH 524
HEIGHT 1
VIEWPOINT 0 0 0 1 0 0 0
POINTS 524
DATA ascii
-2.01603889 2.04581428 -0.55830711 3 4 31542 2.92600000 1206591813 1206591813 -11.00000000
-2.49070406 2.52925515 -0.56222546 1 6 31544 3.59400000 1206591818 1206591818 -9.00000000
-3.17596793 3.22737837 -0.55596793 4 8 31546 4.56200000 1206591822 1206591822 -7.00000000
-4.37192678 4.44424772 -0.54542065 3 10 31547 6.25800000 1206591827 1206591827 -5.00000000
-7.20655155 7.33088017 -0.53874636 4 12 31549 10.29400000 1206591831 1206591831 -3.00000000
-7.81698847 7.95462513 2.57478976 50 13 31550 11.44600000 1206591834 1206591834 13.00000000
-6.73401880 6.85737419 2.57524943 45 15 31552 9.95000000 1206591838 1206591838 15.00000000
-1.46409321 1.49456096 -0.56060207 4 0 31559 2.16600000 1206591859 1206591859 -15.00000000
-1.70675015 1.74348450 -0.56327742 3 2 31561 2.50400000 1206591864 1206591864 -13.00000000
-2.00613904 2.05003285 -0.55754387 3 4 31562 2.92200000 1206591868 1206591868 -11.00000000
-2.47909784 2.53510928 -0.56159973 1 6 31564 3.59000000 1206591873 1206591873 -9.00000000
-3.17716956 3.25122261 -0.55816162 2 8 31566 4.58000000 1206591878 1206591878 -7.00000000
-4.36891699 4.47230864 -0.54698944 3 10 31567 6.27600000 1206591882 1206591882 -5.00000000
-7.17952299 7.35456181 -0.53864169 4 12 31569 10.29200000 1206591887 1206591887 -3.00000000
-7.79325724 7.98604727 2.57613945 51 13 31570 11.45200000 1206591889 1206591889 13.00000000
-6.70060015 6.87115669 2.57162595 45 15 31572 9.93600000 1206591894 1206591894 15.00000000
-1.45617318 1.49689293 -0.55956680 4 0 31579 2.16200000 1206591914 1206591914 -15.00000000
-1.69522047 1.74384236 -0.56147784 3 2 31581 2.49600000 1206591919 1206591919 -13.00000000
-2.00991678 2.06828666 -0.56059682 3 4 31582 2.93800000 1206591924 1206591924 -11.00000000
-2.45234323 2.52532482 -0.55753243 3 6 31584 3.56400000 1206591928 1206591928 -9.00000000
-3.16718388 3.26371789 -0.55840534 2 8 31586 4.58200000 1206591933 1206591933 -7.00000000
-4.36715174 4.50183201 -0.54873258 3 10 31587 6.29600000 1206591937 1206591937 -5.00000000
-7.15658712 7.38244629 -0.53885102 4 12 31589 10.29600000 1206591942 1206591942 -3.00000000
-7.76126480 8.00900364 2.57478976 50 13 31590 11.44600000 1206591944 1206591944 13.00000000
-6.68584251 6.90166426 2.57473183 42 15 31591 9.94800000 1206591949 1206591949 15.00000000
-1.46436143 1.51586103 -0.56474316 4 0 31599 2.18200000 1206591970 1206591970 -15.00000000
-1.68370914 1.74414098 -0.55967820 3 2 31601 2.48800000 1206591974 1206591974 -13.00000000
-2.00268483 2.07528996 -0.56059682 3 4 31602 2.93800000 1206591979 1206591979 -11.00000000
-2.45859671 2.54951096 -0.56097400 1 6 31604 3.58600000 1206591983 1206591983 -9.00000000
-3.15301704 3.27189469 -0.55791783 2 8 31606 4.57800000 1206591988 1206591988 -7.00000000
-4.36385155 4.52996302 -0.55030137 3 10 31607 6.31400000 1206591993 1206591993 -5.00000000
-7.11415243 7.39011621 -0.53759491 8 12 31609 10.27200000 1206591997 1206591997 -3.00000000
-7.72785568 8.03042984 2.57299018 50 13 31610 11.43800000 1206592000 1206592000 13.00000000
-6.66317987 6.92890787 2.57576704 42 15 31612 9.95200000 1206592004 1206592004 15.00000000
-1.46173584 1.52375162 -0.56577843 4 0 31619 2.18600000 1206592025 1206592025 -15.00000000
-1.69379342 1.76688874 -0.56507707 3 2 31621 2.51200000 1206592030 1206592030 -13.00000000
-1.98727834 2.07376313 -0.55830711 3 4 31622 2.92600000 1206592034 1206592034 -11.00000000
-2.45378113 2.56235766 -0.56191260 1 6 31624 3.59200000 1206592039 1206592039 -9.00000000
-3.15804648 3.30009127 -0.56084269 2 8 31626 4.60200000 1206592043 1206592043 -7.00000000
-4.34801245 4.54516792 -0.55030137 3 10 31627 6.31400000 1206592048 1206592048 -5.00000000
-7.23736572 7.57082462 -0.54889953 12 12 31629 10.48800000 1206592053 1206592053 -3.00000000
-7.69304562 8.05031204 2.57074070 51 13 31630 11.42800000 1206592055 1206592055 13.00000000
-6.63883162 6.94956875 2.57524943 40 15 31631 9.95000000 1206592060 1206592060 15.00000000
-1.44574821 1.51765466 -0.56163734 4 0 31639 2.17000000 1206592080 1206592080 -15.00000000
-1.68224096 1.76714456 -0.56327742 3 2 31641 2.50400000 1206592085 1206592085 -13.00000000
-1.98273420 2.08353186 -0.55907035 3 4 31642 2.93000000 1206592089 1206592089 -11.00000000
-2.45435071 2.58092761 -0.56410271 1 6 31644 3.60600000 1206592094 1206592094 -9.00000000
-3.13556814 3.29958296 -0.55889279 2 8 31646 4.58600000 1206592099 1206592099 -7.00000000
-4.34172583 4.57042933 -0.55152154 3 10 31647 6.32800000 1206592103 1206592103 -5.00000000
-7.24527168 7.63225508 -0.55151629 12 12 31649 10.53800000 1206592108 1206592108 -3.00000000
-7.66758060 8.07994366 2.57164049 56 13 31650 11.43200000 1206592110 1206592110 13.00000000
-6.60666895 6.96684551 2.57266140 42 15 31652 9.94000000 1206592115 1206592115 15.00000000
-1.43486655 1.51732886 -0.55956680 4 0 31660 2.16200000 1206592136 1206592136 -15.00000000
-1.68646049 1.78462934 -0.56687665 4 2 31662 2.52000000 1206592140 1206592140 -13.00000000
-1.96969163 2.08507633 -0.55754387 3 4 31663 2.92200000 1206592145 1206592145 -11.00000000
-2.44216251 2.58703303 -0.56347692 1 6 31665 3.60200000 1206592149 1206592149 -9.00000000
-3.13162661 3.31971717 -0.56035525 2 8 31667 4.59800000 1206592154 1206592154 -7.00000000
-4.29897356 4.55877066 -0.54820961 3 10 31668 6.29000000 1206592159 1206592159 -5.00000000
-7.18437529 7.62387371 -0.54900420 12 12 31670 10.49000000 1206592163 1206592163 -3.00000000
-7.64058733 8.11083031 2.57254028 56 13 31671 11.43600000 1206592166 1206592166 13.00000000
-6.57701254 6.98423910 2.57059073 42 15 31672 9.93200000 1206592170 1206592170 15.00000000
-1.44014096 1.53359437 -0.56370789 4 0 31680 2.17800000 1206592191 1206592191 -15.00000000
-1.67221963 1.78197908 -0.56417722 4 2 31682 2.50800000 1206592195 1206592195 -13.00000000
-1.96777415 2.09766650 -0.55907035 3 4 31683 2.93000000 1206592200 1206592200 -11.00000000
-2.41420341 2.57536554 -0.55909675 1 6 31685 3.57400000 1206592205 1206592205 -9.00000000
-3.11459088 3.32483339 -0.55938029 2 8 31687 4.59000000 1206592209 1206592209 -7.00000000
-4.31844282 4.61156082 -0.55274171 3 10 31688 6.34200000 1206592214 1206592214 -5.00000000
-7.13724899 7.62703037 -0.54743409 8 12 31690 10.46000000 1206592218 1206592218 -3.00000000
-7.60956573 8.13460445 2.57164049 57 13 31691 11.43200000 1206592221 1206592221 13.00000000
-6.55400848 7.01112032 2.57162595 42 15 31693 9.93600000 1206592225 1206592225 15.00000000
-1.43241191 1.53553629 -0.56267262 4 0 31699 2.17400000 1206592246 1206592246 -15.00000000
-1.65832841 1.77896190 -0.56147784 3 2 31701 2.49600000 1206592251 1206592251 -13.00000000
-1.97686851 2.12141609 -0.56364977 2 4 31702 2.95400000 1206592255 1206592255 -11.00000000
-2.41776586 2.59636807 -0.56191260 1 6 31704 3.59200000 1206592260 1206592260 -9.00000000
-3.11166215 3.34386277 -0.56084269 2 8 31706 4.60200000 1206592265 1206592265 -7.00000000
-4.31533957 4.63898516 -0.55431050 3 10 31707 6.36000000 1206592269 1206592269 -5.00000000
-7.81970453 8.40911579 2.23208356 3 11 31708 11.69800000 1206592271 1206592271 11.00000000
-7.03304720 7.56581163 -0.54136312 8 12 31709 10.34400000 1206592274 1206592274 -3.00000000
-7.57856894 8.15551186 2.57029080 59 13 31710 11.42600000 1206592276 1206592276 13.00000000
-6.53457928 7.03450680 2.57266140 40 15 31711 9.94000000 1206592281 1206592281 15.00000000
-1.43492007 1.54903030 -0.56577843 4 0 31719 2.18600000 1206592301 1206592301 -15.00000000
-1.66005147 1.79332018 -0.56417722 3 2 31721 2.50800000 1206592306 1206592306 -13.00000000
-1.95878398 2.11677599 -0.56059682 3 4 31722 2.93800000 1206592311 1206592311 -11.00000000
-2.42075825 2.61784482 -0.56472844 1 6 31724 3.61000000 1206592315 1206592315 -9.00000000
-3.10535979 3.36053586 -0.56181765 2 8 31726 4.61000000 1206592320 1206592320 -7.00000000
-4.30858374 4.66426516 -0.55553073 3 10 31727 6.37400000 1206592324 1206592324 -5.00000000
-7.01743269 7.60205603 -0.54220051 4 12 31729 10.36000000 1206592329 1206592329 -3.00000000
-7.54212570 8.17332363 2.56759143 57 13 31730 11.41400000 1206592331 1206592331 13.00000000
-6.50875282 7.05840969 2.57266140 42 15 31732 9.94000000 1206592336 1206592336 15.00000000
-1.42819631 1.55260789 -0.56526077 4 0 31739 2.18400000 1206592357 1206592357 -15.00000000
-1.65378141 1.79910398 -0.56417722 3 2 31741 2.50800000 1206592361 1206592361 -13.00000000
-1.95403993 2.12649179 -0.56136006 3 4 31742 2.94200000 1206592366 1206592366 -11.00000000
-2.41694975 2.63209891 -0.56597990 1 6 31744 3.61800000 1206592371 1206592371 -9.00000000
-3.09629464 3.37428045 -0.56230515 2 8 31746 4.61400000 1206592375 1206592375 -7.00000000
-4.28958273 4.67633963 -0.55518210 3 10 31747 6.37000000 1206592380 1206592380 -5.00000000
-7.00704861 7.64417267 -0.54345655 8 12 31749 10.38400000 1206592384 1206592384 -3.00000000
-7.50828314 8.19385338 2.56579161 59 13 31750 11.40600000 1206592387 1206592387 13.00000000
-6.47617626 7.06998301 2.56903791 40 15 31751 9.92600000 1206592391 1206592391 15.00000000
-1.42016220 1.55473113 -0.56422549 4 0 31759 2.18000000 1206592412 1206592412 -15.00000000
-1.65537405 1.81350148 -0.56687665 3 2 31761 2.52000000 1206592417 1206592417 -13.00000000
-1.93866515 2.12459826 -0.55907035 3 4 31762 2.93000000 1206592421 1206592421 -11.00000000
-2.40375447 2.63614058 -0.56504130 1 6 31764 3.61200000 1206592426 1206592426 -9.00000000
-3.09251952 3.39387178 -0.56376761 2 8 31766 4.62600000 1206592430 1206592430 -7.00000000
-4.27859974 4.69717646 -0.55587935 3 10 31767 6.37800000 1206592435 1206592435 -5.00000000
-6.99511194 7.68483257 -0.54460794 8 12 31769 10.40600000 1206592440 1206592440 -3.00000000
-7.48488188 8.22577763 2.56759143 59 13 31770 11.41400000 1206592442 1206592442 13.00000000
-6.44762087 7.09081316 2.56800246 38 15 31772 9.92200000 1206592447 1206592447 15.00000000
-1.41862035 1.56397164 -0.56577843 4 0 31779 2.18600000 1206592467 1206592467 -15.00000000
-1.64903367 1.81926870 -0.56687665 3 2 31781 2.52000000 1206592472 1206592472 -13.00000000
-1.94969273 2.15172029 -0.56441301 2 4 31782 2.95800000 1206592477 1206592477 -11.00000000
-2.39188623 2.64158654 -0.56441557 1 6 31784 3.60800000 1206592481 1206592481 -9.00000000
-3.06200743 3.38403845 -0.56035525 2 8 31786 4.59800000 1206592486 1206592486 -7.00000000
-4.26618719 4.71651602 -0.55640227 7 10 31787 6.38400000 1206592490 1206592490 -5.00000000
-7.00038671 7.74476337 -0.54712009 4 12 31789 10.45400000 1206592495 1206592495 -3.00000000
-7.45873594 8.25474644 2.56849122 59 13 31790 11.41800000 1206592497 1206592497 13.00000000
-6.42277622 7.11072206 2.56748486 40 15 31791 9.92000000 1206592502 1206592502 15.00000000
-1.41056657 1.56604314 -0.56474316 4 0 31799 2.18200000 1206592523 1206592523 -15.00000000
-1.63485098 1.81632328 -0.56417722 3 2 31801 2.50800000 1206592527 1206592527 -13.00000000
-1.94742250 2.16435075 -0.56593949 2 4 31802 2.96600000 1206592532 1206592532 -11.00000000
-2.37472606 2.64110637 -0.56253833 1 6 31804 3.59600000 1206592536 1206592536 -9.00000000
-3.06609726 3.41242552 -0.56328011 4 8 31806 4.62200000 1206592541 1206592541 -7.00000000
-4.26167965 4.74471903 -0.55797106 7 10 31807 6.40200000 1206592546 1206592546 -5.00000000
-6.96797323 7.76320696 -0.54670137 4 12 31809 10.44600000 1206592550 1206592550 -3.00000000
-7.40905285 8.25752449 2.56129265 41 13 31810 11.38600000 1206592553 1206592553 13.00000000
-6.40049601 7.13597441 2.56852031 42 15 31811 9.92400000 1206592557 1206592557 15.00000000
-1.41309452 1.57935035 -0.56784898 4 0 31818 2.19400000 1206592578 1206592578 -15.00000000
-1.62881875 1.82173467 -0.56417722 3 2 31820 2.50800000 1206592583 1206592583 -13.00000000
-1.92976809 2.15908647 -0.56288654 3 4 31821 2.95000000 1206592587 1206592587 -11.00000000
-2.37253428 2.65633297 -0.56410271 1 6 31823 3.60600000 1206592592 1206592592 -9.00000000
-3.06269526 3.43146014 -0.56474257 2 8 31825 4.63400000 1206592596 1206592596 -7.00000000
-4.25122786 4.76477194 -0.55866832 7 10 31826 6.41000000 1206592601 1206592601 -5.00000000
-6.95415354 7.79968786 -0.54764342 4 12 31828 10.46400000 1206592606 1206592606 -3.00000000
-6.34952354 7.12404537 2.20317054 11 13 31829 9.79400000 1206592608 1206592608 13.00000000
-6.37808228 7.15860224 2.56903791 40 15 31830 9.92600000 1206592612 1206592612 15.00000000
-1.40115738 1.57705235 -0.56526077 4 0 31838 2.18400000 1206592633 1206592633 -15.00000000
-1.62503743 1.83032382 -0.56507707 3 2 31840 2.51200000 1206592638 1206592638 -13.00000000
-1.92482603 2.16874599 -0.56364977 3 4 31841 2.95400000 1206592642 1206592642 -11.00000000
-2.36193681 2.66312075 -0.56378978 1 6 31843 3.60400000 1206592647 1206592647 -9.00000000
-3.04543209 3.43618774 -0.56376761 2 8 31845 4.62600000 1206592652 1206592652 -7.00000000
-4.23721218 4.78256512 -0.55901694 7 10 31846 6.41400000 1206592656 1206592656 -5.00000000
-6.94144869 7.84036398 -0.54879487 4 12 31848 10.48600000 1206592661 1206592661 -3.00000000
-6.30266142 7.12135792 2.19552231 15 13 31849 9.76000000 1206592663 1206592663 13.00000000
-6.34796238 7.17758989 2.56748486 42 15 31851 9.92000000 1206592668 1206592668 15.00000000
-1.39436579 1.58048511 -0.56474316 4 0 31858 2.18200000 1206592689 1206592689 -15.00000000
-1.62121606 1.83890855 -0.56597686 3 2 31860 2.51600000 1206592693 1206592693 -13.00000000
-1.91464794 2.17250609 -0.56288654 3 4 31861 2.95000000 1206592698 1206592698 -11.00000000
-2.35132074 2.66986680 -0.56347692 1 6 31863 3.60200000 1206592702 1206592702 -9.00000000
-3.03866482 3.45275807 -0.56474257 2 8 31865 4.63400000 1206592707 1206592707 -7.00000000
-4.22970438 4.80779791 -0.56023711 3 10 31866 6.42800000 1206592712 1206592712 -5.00000000
-6.90348864 7.85254669 -0.54795748 4 12 31868 10.47000000 1206592716 1206592716 -3.00000000
-6.25975513 7.12282181 2.18922377 16 13 31869 9.73200000 1206592718 1206592718 13.00000000
-6.31010008 7.18263626 2.56179094 40 15 31870 9.89800000 1206592723 1206592723 15.00000000
-1.39265943 1.58970201 -0.56629604 4 0 31878 2.18800000 1206592744 1206592744 -15.00000000
-1.61221993 1.84162402 -0.56507707 3 2 31880 2.51200000 1206592748 1206592748 -13.00000000
-1.91739607 2.19099545 -0.56593949 2 4 31881 2.96600000 1206592753 1206592753 -11.00000000
-2.34328723 2.67954516 -0.56378978 1 6 31883 3.60400000 1206592758 1206592758 -9.00000000
-3.02006269 3.45587015 -0.56352383 2 8 31885 4.62400000 1206592762 1206592762 -7.00000000
-4.22338247 4.83453703 -0.56163162 3 10 31886 6.44400000 1206592767 1206592767 -5.00000000
-6.89705181 7.90067005 -0.54963219 4 12 31888 10.50200000 1206592771 1206592771 -3.00000000
-6.29006958 7.21044207 2.56386137 38 15 31890 9.90600000 1206592778 1206592778 15.00000000
-1.38048518 1.58750689 -0.56370789 4 0 31899 2.17800000 1206592799 1206592799 -15.00000000
-1.60418093 1.84604979 -0.56462717 4 2 31901 2.51000000 1206592804 1206592804 -13.00000000
-1.90935278 2.19800830 -0.56593949 3 4 31902 2.96600000 1206592808 1206592808 -11.00000000
-2.34122014 2.69706607 -0.56566703 1 6 31904 3.61600000 1206592813 1206592813 -9.00000000
-3.00867677 3.46841550 -0.56376761 2 8 31906 4.62600000 1206592817 1206592817 -7.00000000
-4.22390890 4.87105751 -0.56407195 3 10 31907 6.47200000 1206592822 1206592822 -5.00000000
-6.91382647 7.97872496 -0.55329573 17 12 31909 10.57200000 1206592827 1206592827 -3.00000000
-6.17162371 7.12471724 2.17617655 21 13 31910 9.67400000 1206592829 1206592829 13.00000000
-6.07896709 7.02022696 2.48828626 78 15 31911 9.61400000 1206592834 1206592834 15.00000000
-1.37998557 1.59816468 -0.56577843 4 0 31919 2.18600000 1206592854 1206592854 -15.00000000
-1.59645414 1.85016274 -0.56417722 4 2 31921 2.50800000 1206592859 1206592859 -13.00000000
-1.89397478 2.19573998 -0.56364977 3 4 31922 2.95400000 1206592864 1206592864 -11.00000000
-2.32663250 2.69923711 -0.56441557 1 6 31924 3.60800000 1206592868 1206592868 -9.00000000
-3.00691557 3.49092913 -0.56571752 2 8 31926 4.64200000 1206592873 1206592873 -7.00000000
-4.20297956 4.88124275 -0.56354904 7 10 31927 6.46600000 1206592877 1206592877 -5.00000000
-6.90547323 8.02551937 -0.55486584 4 12 31929 10.60200000 1206592882 1206592882 -3.00000000
-6.12765455 7.12405539 2.16942787 20 13 31930 9.64400000 1206592884 1206592884 13.00000000
-6.24586058 7.26661205 2.56748486 40 15 31932 9.92000000 1206592889 1206592889 15.00000000
-1.37216294 1.59979939 -0.56474316 4 0 31938 2.18200000 1206592910 1206592910 -15.00000000
-1.58523726 1.84952807 -0.56237763 4 2 31940 2.50000000 1206592914 1206592914 -13.00000000
-1.88923788 2.20499039 -0.56441301 3 4 31941 2.95800000 1206592919 1206592919 -11.00000000
-2.34336352 2.73694801 -0.57067293 1 6 31943 3.64800000 1206592923 1206592923 -9.00000000
-2.99661326 3.50238967 -0.56596124 2 8 31945 4.64400000 1206592928 1206592928 -7.00000000
-4.18676996 4.89515352 -0.56354904 7 10 31946 6.46600000 1206592933 1206592933 -5.00000000
-6.88920307 8.06052113 -0.55570316 4 12 31948 10.61800000 1206592937 1206592937 -3.00000000
-6.08374262 7.12063074 2.16222954 21 13 31949 9.61200000 1206592940 1206592940 13.00000000
-6.21421862 7.27591515 2.56386137 40 15 31950 9.90600000 1206592944 1206592944 15.00000000
-1.36907542 1.60752094 -0.56577843 4 0 31958 2.18600000 1206592965 1206592965 -15.00000000
-1.59013867 1.86840665 -0.56642675 4 2 31960 2.51800000 1206592969 1206592969 -13.00000000
-1.88152945 2.21157146 -0.56441301 3 4 31961 2.95800000 1206592974 1206592974 -11.00000000
-2.31204414 2.71952629 -0.56535417 1 6 31963 3.61400000 1206592979 1206592979 -9.00000000
-2.97280192 3.49921274 -0.56376761 2 8 31965 4.62600000 1206592983 1206592983 -7.00000000
-4.17094660 4.91125679 -0.56372333 7 10 31966 6.46800000 1206592988 1206592988 -5.00000000
-6.02898121 7.10158920 1.81077731 18 11 31967 9.49000000 1206592990 1206592990 11.00000000
-6.86360931 8.08756542 -0.55591255 4 12 31968 10.62200000 1206592993 1206592993 -3.00000000
-6.04876471 7.12993526 2.15863037 16 13 31969 9.59600000 1206592995 1206592995 13.00000000
-6.19003248 7.29903555 2.56437922 42 15 31970 9.90800000 1206592999 1206592999 15.00000000
-1.36096084 1.60933983 -0.56474316 4 0 31978 2.18200000 1206593020 1206593020 -15.00000000
-1.58109140 1.87096906 -0.56552696 4 2 31980 2.51400000 1206593025 1206593025 -13.00000000
-1.87886596 2.22412491 -0.56593949 3 4 31981 2.96600000 1206593029 1206593029 -11.00000000
-2.31910205 2.74720311 -0.56942147 1 6 31983 3.64000000 1206593034 1206593034 -9.00000000
-2.97336912 3.52474165 -0.56620497 2 8 31985 4.64600000 1206593039 1206593039 -7.00000000
-4.15763092 4.93035555 -0.56424630 7 10 31986 6.47400000 1206593043 1206593043 -5.00000000
-6.01174736 7.13159752 1.81306708 25 11 31987 9.50200000 1206593046 1206593046 11.00000000
-6.83533669 8.11147499 -0.55591255 4 12 31988 10.62200000 1206593048 1206593048 -3.00000000
-6.00500727 7.12864971 2.15188169 12 13 31989 9.56600000 1206593050 1206593050 13.00000000
-6.16572666 7.32463026 2.56541443 42 15 31991 9.91200000 1206593055 1206593055 15.00000000
-1.36030400 1.61999846 -0.56681371 4 0 31998 2.19000000 1206593075 1206593075 -15.00000000
-1.56954038 1.87050545 -0.56372732 4 2 32000 2.50600000 1206593080 1206593080 -13.00000000
-1.88623118 2.24871969 -0.57051891 3 4 32001 2.99000000 1206593085 1206593085 -11.00000000
-2.29173303 2.73408699 -0.56504130 1 6 32003 3.61200000 1206593089 1206593089 -9.00000000
-2.97124457 3.54727364 -0.56815487 2 8 32005 4.66200000 1206593094 1206593094 -7.00000000
-4.13272095 4.93567276 -0.56320041 7 10 32006 6.46200000 1206593099 1206593099 -5.00000000
-6.00571871 7.17512131 1.81879139 9 11 32007 9.53200000 1206593101 1206593101 11.00000000
-6.80698061 8.13528538 -0.55591255 4 12 32008 10.62200000 1206593103 1206593103 -3.00000000
-5.97008467 7.13760948 2.14828253 12 13 32009 9.55000000 1206593105 1206593105 13.00000000
-6.13392687 7.33869648 2.56282616 38 15 32011 9.90200000 1206593110 1206593110 15.00000000
-1.35739923 1.62746763 -0.56784898 4 0 32017 2.19400000 1206593131 1206593131 -15.00000000
-1.56831956 1.88168776 -0.56552696 4 2 32019 2.51400000 1206593135 1206593135 -13.00000000
-1.86871016 2.24289560 -0.56746596 3 4 32020 2.97400000 1206593140 1206593140 -11.00000000
-2.29529309 2.75685263 -0.56816995 1 6 32022 3.63200000 1206593145 1206593145 -9.00000000
-2.95438671 3.55100298 -0.56717992 2 8 32024 4.65400000 1206593149 1206593149 -7.00000000
-4.14690733 4.98611403 -0.56738389 8 10 32025 6.51000000 1206593154 1206593154 -5.00000000
-6.02080059 7.24179649 1.83062148 9 11 32026 9.59400000 1206593156 1206593156 11.00000000
-6.78890181 8.16856480 -0.55664521 8 12 32027 10.63600000 1206593158 1206593158 -3.00000000
-5.98249722 7.20083666 2.16132975 27 13 32028 9.60800000 1206593161 1206593161 13.00000000
-6.02811289 7.26089716 2.52866197 51 15 32030 9.77000000 1206593165 1206593165 15.00000000
-1.35047781 1.63070810 -0.56733137 4 0 32037 2.19200000 1206593186 1206593186 -15.00000000
-1.56671154 1.89315605 -0.56732655 4 2 32039 2.52200000 1206593191 1206593191 -13.00000000
-1.85085821 2.23730326 -0.56441301 2 4 32040 2.95800000 1206593195 1206593195 -11.00000000
-2.27306962 2.74962306 -0.56504130 1 6 32042 3.61200000 1206593200 1206593200 -9.00000000
-2.93691611 3.55517244 -0.56620497 2 8 32044 4.64600000 1206593205 1206593205 -7.00000000
-4.12694025 4.99748659 -0.56703526 4 10 32045 6.50600000 1206593209 1206593209 -5.00000000
-6.78449965 8.22148228 -0.55863398 8 12 32047 10.67400000 1206593214 1206593214 -3.00000000
-7.03743124 8.53101730 2.55319452 48 13 32048 11.35000000 1206593216 1206593216 13.00000000
-6.08628988 7.38325977 2.56386137 40 15 32050 9.90600000 1206593221 1206593221 15.00000000
-1.34109640 1.63093567 -0.56577843 4 0 32057 2.18600000 1206593241 1206593241 -15.00000000
-1.57122827 1.91216409 -0.57137567 4 2 32059 2.54000000 1206593246 1206593246 -13.00000000
-1.84802186 2.24981856 -0.56593949 3 4 32060 2.96600000 1206593251 1206593251 -11.00000000
-2.28351068 2.78197074 -0.57004720 1 6 32062 3.64400000 1206593255 1206593255 -9.00000000
-2.93959570 3.58382034 -0.56912982 2 8 32064 4.67000000 1206593260 1206593260 -7.00000000
-4.11073351 5.01340246 -0.56720960 4 10 32065 6.50800000 1206593264 1206593264 -5.00000000
-6.76462126 8.25592804 -0.55936670 8 12 32067 10.68800000 1206593269 1206593269 -3.00000000
-7.00884438 8.55703831 2.55364442 59 13 32068 11.35200000 1206593271 1206593271 13.00000000
-6.05687714 7.39742327 2.56179094 40 15 32069 9.89800000 1206593276 1206593276 15.00000000
-1.34516943 1.64757860 -0.56991953 5 0 32077 2.20200000 1206593297 1206593297 -15.00000000
-1.55345666 1.90404749 -0.56732655 4 2 32079 2.52200000 1206593301 1206593301 -13.00000000
-1.84760225 2.26538420 -0.56822920 3 4 32080 2.97800000 1206593306 1206593306 -11.00000000
-2.25506639 2.76695609 -0.56535417 1 6 32082 3.61400000 1206593310 1206593310 -9.00000000
-2.92957497 3.59713817 -0.56961733 2 8 32084 4.67400000 1206593315 1206593315 -7.00000000
-4.09069300 5.02463102 -0.56686097 4 10 32085 6.50400000 1206593320 1206593320 -5.00000000
-6.74332380 8.28878689 -0.55999476 8 12 32087 10.70000000 1206593324 1206593324 -3.00000000
-6.97524309 8.57691574 2.55229473 59 13 32088 11.34600000 1206593327 1206593327 13.00000000
-6.03094196 7.42107248 2.56230855 42 15 32090 9.90000000 1206593331 1206593331 15.00000000
-1.33361435 1.64452779 -0.56733137 5 0 32096 2.19200000 1206593352 1206593352 -15.00000000
-1.54958797 1.91221654 -0.56822634 4 2 32098 2.52600000 1206593357 1206593357 -13.00000000
-1.84749448 2.28065181 -0.57051891 3 4 32099 2.99000000 1206593361 1206593361 -11.00000000
-2.24339271 2.77134824 -0.56472844 1 6 32101 3.61000000 1206593366 1206593366 -9.00000000
-2.91763020 3.60683322 -0.56961733 2 8 32103 4.67400000 1206593370 1206593370 -7.00000000
-4.08277750 5.04901361 -0.56808114 8 10 32104 6.51800000 1206593375 1206593375 -5.00000000
-6.71580029 8.31110287 -0.55999476 8 12 32106 10.70000000 1206593380 1206593380 -3.00000000
-6.94676304 8.59999943 2.55229473 56 13 32107 11.34600000 1206593382 1206593382 13.00000000
-6.00881195 7.44148540 2.56282616 40 15 32108 9.90200000 1206593387 1206593387 15.00000000
-1.33513510 1.65820134 -0.57043719 5 0 32116 2.20400000 1206593407 1206593407 -15.00000000
-1.54290354 1.91761398 -0.56822634 4 2 32118 2.52600000 1206593412 1206593412 -13.00000000
-1.83460045 2.28096747 -0.56899244 3 4 32119 2.98200000 1206593416 1206593416 -11.00000000
-2.25969291 2.81149602 -0.57129866 1 6 32121 3.65200000 1206593421 1206593421 -9.00000000
-2.89383483 3.60306621 -0.56742364 2 8 32123 4.65600000 1206593426 1206593426 -7.00000000
-4.08882809 5.09275293 -0.57139307 8 10 32124 6.55600000 1206593430 1206593430 -5.00000000
-6.71174526 8.36565208 -0.56208819 4 12 32126 10.74000000 1206593435 1206593435 -3.00000000
-6.90694714 8.61203384 2.54869556 57 13 32127 11.33000000 1206593437 1206593437 13.00000000
-5.98270512 7.46496630 2.56334376 40 15 32129 9.90400000 1206593442 1206593442 15.00000000
-1.32210100 1.65379810 -0.56733137 4 0 32136 2.19200000 1206593463 1206593463 -15.00000000
-1.54349840 1.93212330 -0.57092577 4 2 32138 2.53800000 1206593467 1206593467 -13.00000000
-1.81682646 2.27508473 -0.56593949 3 4 32139 2.96600000 1206593472 1206593472 -11.00000000
-2.23877621 2.80547047 -0.56848282 1 6 32141 3.63400000 1206593476 1206593476 -9.00000000
-2.89856720 3.63487411 -0.57083601 2 8 32143 4.68400000 1206593481 1206593481 -7.00000000
-4.06978416 5.10543680 -0.57121873 8 10 32144 6.55400000 1206593486 1206593486 -5.00000000
-6.69245815 8.40152740 -0.56292552 4 12 32146 10.75600000 1206593490 1206593490 -3.00000000
-6.87927103 8.63914013 2.54959536 56 13 32147 11.33400000 1206593493 1206593493 13.00000000
-5.95791769 7.48476458 2.56334376 42 15 32148 9.90400000 1206593497 1206593497 15.00000000
-1.31031501 1.65083730 -0.56474316 4 0 32156 2.18200000 1206593518 1206593518 -15.00000000
-1.53795552 1.93902624 -0.57137567 4 2 32158 2.54000000 1206593522 1206593522 -13.00000000
-1.82107127 2.29679656 -0.56975567 2 4 32159 2.98600000 1206593527 1206593527 -11.00000000
-2.22406268 2.80707502 -0.56723136 1 6 32161 3.62600000 1206593532 1206593532 -9.00000000
-2.89325476 3.65430808 -0.57229841 2 8 32163 4.69600000 1206593536 1206593536 -7.00000000
-4.06306648 5.13367224 -0.57278752 4 10 32164 6.57200000 1206593541 1206593541 -5.00000000
-6.67176342 8.43580246 -0.56365824 4 12 32166 10.77000000 1206593545 1206593545 -3.00000000
-6.85149002 8.66615868 2.55049515 57 13 32167 11.33800000 1206593548 1206593548 13.00000000
-5.92086363 7.49442434 2.55920267 42 15 32169 9.88800000 1206593552 1206593552 15.00000000
-1.30425560 1.65562868 -0.56474316 4 0 32177 2.18200000 1206593573 1206593573 -15.00000000
-1.53083837 1.94465005 -0.57137567 4 2 32179 2.54000000 1206593578 1206593578 -13.00000000
-1.81264079 2.30345559 -0.56975567 2 4 32180 2.98600000 1206593582 1206593582 -11.00000000
-2.21375918 2.81520772 -0.56723136 1 6 32182 3.62600000 1206593587 1206593587 -9.00000000
-2.87861514 3.66332698 -0.57205468 2 8 32184 4.69400000 1206593592 1206593592 -7.00000000
-4.04422331 5.14852953 -0.57278752 8 10 32185 6.57200000 1206593596 1206593596 -5.00000000
-6.64079952 8.46019936 -0.56365824 8 12 32187 10.77000000 1206593601 1206593601 -3.00000000
-6.81727505 8.68814564 2.54959536 60 13 32188 11.33400000 1206593603 1206593603 13.00000000
-5.89943647 7.52112675 2.56127334 42 15 32189 9.89600000 1206593608 1206593608 15.00000000
-1.30441928 1.66777980 -0.56733137 4 0 32197 2.19200000 1206593628 1206593628 -15.00000000
-1.51804078 1.94230473 -0.56912619 4 2 32199 2.53000000 1206593633 1206593633 -13.00000000
-1.81425881 2.32214546 -0.57280862 4 4 32200 3.00200000 1206593638 1206593638 -11.00000000
-2.20999694 2.83070326 -0.56879574 1 6 32202 3.63600000 1206593642 1206593642 -9.00000000
-2.85848379 3.66396213 -0.57059228 2 8 32204 4.68200000 1206593647 1206593647 -7.00000000
-4.03235292 5.17047071 -0.57365912 8 10 32205 6.58200000 1206593651 1206593651 -5.00000000
-6.63087082 8.50853443 -0.56533301 4 12 32207 10.80200000 1206593656 1206593656 -3.00000000
-6.78211594 8.70574093 2.54779553 59 13 32208 11.32600000 1206593658 1206593658 13.00000000
-5.87420416 7.54574728 2.56230855 42 15 32210 9.90000000 1206593663 1206593663 15.00000000
-1.29858971 1.67232299 -0.56733137 3 0 32217 2.19200000 1206593684 1206593684 -15.00000000
-1.51005697 1.94605219 -0.56867629 4 2 32219 2.52800000 1206593688 1206593688 -13.00000000
-1.80373538 2.32536173 -0.57204539 2 4 32220 2.99800000 1206593693 1206593693 -11.00000000
-2.20857382 2.84932923 -0.57098579 1 6 32222 3.65000000 1206593698 1206593698 -9.00000000
-2.83838344 3.66450143 -0.56912982 2 8 32224 4.67000000 1206593702 1206593702 -7.00000000
-4.02647781 5.20026827 -0.57540220 8 10 32225 6.60200000 1206593707 1206593707 -5.00000000
-6.63535213 8.57585812 -0.56826383 4 12 32227 10.85800000 1206593711 1206593711 -3.00000000
-6.74691677 8.72319508 2.54599595 56 13 32228 11.31800000 1206593714 1206593714 13.00000000
-5.85387564 7.57129860 2.56437922 42 15 32229 9.90800000 1206593718 1206593718 15.00000000
-1.29746234 1.68296552 -0.56940192 4 0 32237 2.20000000 1206593739 1206593739 -15.00000000
-1.51157975 1.96211779 -0.57182556 4 2 32239 2.54200000 1206593744 1206593744 -13.00000000
-1.79081583 2.32542181 -0.57051891 2 4 32240 2.99000000 1206593748 1206593748 -11.00000000
-2.19018126 2.84606290 -0.56879574 1 6 32242 3.63600000 1206593753 1206593753 -9.00000000
-2.84493613 3.69956470 -0.57302964 2 8 32244 4.70200000 1206593757 1206593757 -7.00000000
-3.99980116 5.20323467 -0.57418203 4 10 32245 6.58800000 1206593762 1206593762 -5.00000000
-6.60415936 8.59738350 -0.56815916 4 12 32247 10.85600000 1206593767 1206593767 -3.00000000
-6.71880007 8.74978447 2.54689574 59 13 32248 11.32200000 1206593769 1206593769 13.00000000
-5.81902981 7.58350754 2.56127334 40 15 32250 9.89600000 1206593774 1206593774 15.00000000
-1.28277111 1.67476404 -0.56526077 4 0 32255 2.18400000 1206593794 1206593794 -15.00000000
-1.50777698 1.96995187 -0.57272536 4 2 32257 2.54600000 1206593799 1206593799 -13.00000000
-1.77872968 2.32479954 -0.56899244 3 4 32258 2.98200000 1206593804 1206593804 -11.00000000
-2.20522523 2.88431478 -0.57505310 1 6 32260 3.67600000 1206593808 1206593808 -9.00000000
-2.83570981 3.71163893 -0.57351714 2 8 32262 4.70600000 1206593813 1206593813 -7.00000000
-3.99190021 5.22685862 -0.57540220 4 10 32263 6.60200000 1206593817 1206593817 -5.00000000
-6.57227087 8.61173820 -0.56774044 4 12 32265 10.84800000 1206593822 1206593822 -3.00000000
-6.68891430 8.76775074 2.54599595 55 13 32266 11.31800000 1206593824 1206593824 13.00000000
-5.79416084 7.59766722 2.56023788 42 15 32267 9.89200000 1206593829 1206593829 15.00000000
-1.28276396 1.68692029 -0.56784898 4 0 32275 2.19400000 1206593850 1206593850 -15.00000000
-1.50089133 1.97520292 -0.57272536 4 2 32277 2.54600000 1206593854 1206593854 -13.00000000
-1.78247905 2.34662795 -0.57280862 2 4 32278 3.00200000 1206593859 1206593859 -11.00000000
-2.18200612 2.87468696 -0.57161152 1 6 32280 3.65400000 1206593863 1206593863 -9.00000000
-2.82873464 3.72942281 -0.57473582 2 8 32282 4.71600000 1206593868 1206593868 -7.00000000
-3.96881557 5.23441029 -0.57470495 4 10 32283 6.59400000 1206593873 1206593873 -5.00000000
-6.55543756 8.65213871 -0.56889182 4 12 32285 10.87000000 1206593877 1206593877 -3.00000000
-6.66297483 8.79725933 2.54779553 56 13 32286 11.32600000 1206593880 1206593880 13.00000000
-5.76760435 7.61784649 2.56023788 42 15 32287 9.89200000 1206593884 1206593884 15.00000000
-1.28385150 1.70063865 -0.57095480 4 0 32295 2.20600000 1206593905 1206593905 -15.00000000
-1.48694587 1.97109568 -0.57002598 4 2 32297 2.53400000 1206593910 1206593910 -13.00000000
-1.77191269 2.34970069 -0.57204539 3 4 32298 2.99800000 1206593914 1206593914 -11.00000000
-2.16601419 2.87439799 -0.57004720 1 6 32300 3.64400000 1206593919 1206593919 -9.00000000
-2.81569934 3.73927426 -0.57473582 2 8 32302 4.71600000 1206593923 1206593923 -7.00000000
-3.95052004 5.24823236 -0.57470495 4 10 32303 6.59400000 1206593928 1206593928 -5.00000000
-6.53239965 8.68454552 -0.56951988 4 12 32305 10.88200000 1206593933 1206593933 -3.00000000
-6.62988377 8.81734943 2.54689574 55 13 32306 11.32200000 1206593935 1206593935 13.00000000
-5.73865652 7.63484430 2.55920267 42 15 32307 9.88800000 1206593939 1206593939 15.00000000
-1.28022444 1.70820153 -0.57199007 4 0 32315 2.21000000 1206593960 1206593960 -15.00000000
-1.48239279 1.97939372 -0.57092577 4 2 32317 2.53800000 1206593965 1206593965 -13.00000000
-1.74958098 2.33701205 -0.56746596 2 4 32318 2.97400000 1206593969 1206593969 -11.00000000
-2.17016721 2.90092230 -0.57380164 1 6 32320 3.66800000 1206593974 1206593974 -9.00000000
-2.80144119 3.74749017 -0.57449210 2 8 32322 4.71400000 1206593979 1206593979 -7.00000000
-3.92979097 5.25879812 -0.57435632 4 10 32323 6.59000000 1206593983 1206593983 -5.00000000
-6.52236032 8.73449993 -0.57129931 4 12 32325 10.91600000 1206593988 1206593988 -3.00000000
-6.59556818 8.83575344 2.54554605 54 13 32326 11.31600000 1206593990 1206593990 13.00000000
-5.71410036 7.66047144 2.56075573 40 15 32328 9.89400000 1206593995 1206593995 15.00000000
-1.26904559 1.70690334 -0.56991953 4 0 32337 2.20200000 1206594016 1206594016 -15.00000000
-1.47943020 1.99132824 -0.57272536 4 2 32339 2.54600000 1206594020 1206594020 -13.00000000
-1.74995887 2.35632181 -0.57051891 2 4 32340 2.99000000 1206594025 1206594025 -11.00000000
-2.16843009 2.92192388 -0.57630455 1 6 32342 3.68400000 1206594029 1206594029 -9.00000000
-2.79176092 3.76459718 -0.57546705 2 8 32344 4.72200000 1206594034 1206594034 -7.00000000
-3.93211341 5.30425930 -0.57766825 8 10 32345 6.62800000 1206594039 1206594039 -5.00000000
-6.51255131 8.79157734 -0.57339275 4 12 32347 10.95600000 1206594043 1206594043 -3.00000000
-6.56275225 8.86257935 2.54599595 55 13 32348 11.31800000 1206594045 1206594045 13.00000000
-5.67793941 7.67049408 2.55713224 42 15 32349 9.88000000 1206594050 1206594050 15.00000000
-1.26078522 1.70821416 -0.56888425 4 0 32357 2.19800000 1206594071 1206594071 -15.00000000
-1.47825360 2.00432181 -0.57497489 4 2 32359 2.55600000 1206594075 1206594075 -13.00000000
-1.74638331 2.36873674 -0.57204539 3 4 32360 2.99800000 1206594080 1206594080 -11.00000000
-2.15001583 2.91834283 -0.57411450 1 6 32362 3.67000000 1206594085 1206594085 -9.00000000
-2.77154183 3.76472759 -0.57400459 2 8 32364 4.71000000 1206594089 1206594089 -7.00000000
-3.90648866 5.30832434 -0.57662237 4 10 32365 6.61600000 1206594094 1206594094 -5.00000000
-6.50548840 8.84643745 -0.57548618 4 12 32367 10.99600000 1206594098 1206594098 -3.00000000
-6.53639317 8.89171410 2.54779553 55 13 32368 11.32600000 1206594101 1206594101 13.00000000
-5.64884186 7.68715382 2.55609679 42 15 32369 9.87600000 1206594105 1206594105 15.00000000
-1.26455104 1.72463000 -0.57302535 4 0 32375 2.21400000 1206594126 1206594126 -15.00000000
-1.46619070 2.00109625 -0.57272536 4 2 32377 2.54600000 1206594131 1206594131 -13.00000000
-1.74125326 2.37737918 -0.57280862 4 4 32378 3.00200000 1206594135 1206594135 -11.00000000
-2.14317036 2.92827082 -0.57474023 1 6 32380 3.67400000 1206594140 1206594140 -9.00000000
-2.76438832 3.77982545 -0.57497954 2 8 32382 4.71800000 1206594144 1206594144 -7.00000000
-3.89919972 5.33343792 -0.57801688 4 10 32383 6.63200000 1206594149 1206594149 -5.00000000
-6.46823883 8.85392952 -0.57464880 4 12 32385 10.98000000 1206594154 1206594154 -3.00000000
-6.51072550 8.91535187 2.54869556 57 13 32386 11.33000000 1206594156 1206594156 13.00000000
-5.62466383 7.70486212 2.55609679 45 15 32387 9.87600000 1206594161 1206594161 15.00000000
-1.26307070 1.73528123 -0.57509589 4 0 32395 2.22200000 1206594181 1206594181 -15.00000000
-1.45231903 1.99674630 -0.57002598 4 2 32397 2.53400000 1206594186 1206594186 -13.00000000
-1.73756206 2.38979435 -0.57433510 4 4 32398 3.01000000 1206594191 1206594191 -11.00000000
-2.11900258 2.91655684 -0.57098579 1 6 32400 3.65000000 1206594195 1206594195 -9.00000000
-2.75234365 3.79105830 -0.57522333 2 8 32402 4.72000000 1206594200 1206594200 -7.00000000
-3.88406968 5.35185385 -0.57853985 4 10 32403 6.63800000 1206594204 1206594204 -5.00000000
-6.45370913 8.89908981 -0.57611418 4 12 32405 11.00800000 1206594209 1206594209 -3.00000000
-6.47499037 8.93171406 2.54689574 59 13 32406 11.32200000 1206594211 1206594211 13.00000000
-5.60091972 7.73168373 2.55816746 42 15 32408 9.88400000 1206594216 1206594216 15.00000000
-1.25866020 1.74325085 -0.57613117 4 0 32417 2.22600000 1206594237 1206594237 -15.00000000
-1.44920230 2.00862956 -0.57182556 4 2 32419 2.54200000 1206594241 1206594241 -13.00000000
-1.73756051 2.40918708 -0.57738805 4 4 32420 3.02600000 1206594246 1206594246 -11.00000000
-2.11933780 2.94069719 -0.57411450 1 6 32422 3.67000000 1206594250 1206594250 -9.00000000
-2.74124694 3.80643106 -0.57595450 2 8 32424 4.72600000 1206594255 1206594255 -7.00000000
-3.87396789 5.38128090 -0.58010864 4 10 32425 6.65600000 1206594260 1206594260 -5.00000000
-6.43698645 8.94812393 -0.57768428 4 12 32427 11.03800000 1206594264 1206594264 -3.00000000
-6.43382072 8.94701672 2.54419637 55 13 32428 11.31000000 1206594267 1206594267 13.00000000
-5.57479906 7.75529766 2.55920267 42 15 32429 9.88800000 1206594271 1206594271 15.00000000
-1.24356425 1.73507214 -0.57199007 4 0 32437 2.21000000 1206594292 1206594292 -15.00000000
-1.44558609 2.01842880 -0.57317531 4 2 32439 2.54800000 1206594296 1206594296 -13.00000000
-1.72228312 2.40565968 -0.57509834 2 4 32440 3.01400000 1206594301 1206594301 -11.00000000
-2.11825466 2.96092987 -0.57661742 1 6 32442 3.68600000 1206594306 1206594306 -9.00000000
-2.72563457 3.81274676 -0.57546705 2 8 32444 4.72200000 1206594310 1206594310 -7.00000000
-3.85400176 5.39314985 -0.57993430 4 10 32445 6.65400000 1206594315 1206594315 -5.00000000
-6.41267681 8.98029137 -0.57831234 4 12 32447 11.05000000 1206594320 1206594320 -3.00000000
-6.40255070 8.96942043 2.54419637 56 13 32448 11.31000000 1206594322 1206594322 13.00000000
-5.54320574 7.76841974 2.55713224 42 15 32449 9.88000000 1206594326 1206594326 15.00000000
-1.23138452 1.72952795 -0.56888425 4 0 32455 2.19800000 1206594347 1206594347 -15.00000000
-1.44601607 2.03248763 -0.57587469 4 2 32457 2.56000000 1206594352 1206594352 -13.00000000
-1.71016574 2.40465879 -0.57357186 2 4 32458 3.00600000 1206594356 1206594356 -11.00000000
-2.10665369 2.96434951 -0.57599169 1 6 32460 3.68200000 1206594361 1206594361 -9.00000000
-2.72743535 3.84071279 -0.57839191 2 8 32462 4.74600000 1206594366 1206594366 -7.00000000
-3.83127308 5.39710760 -0.57906276 4 10 32463 6.64400000 1206594370 1206594370 -5.00000000
-6.40407705 9.02808666 -0.58009171 4 12 32465 11.08400000 1206594375 1206594375 -3.00000000
-6.37659550 8.99267006 2.54509616 57 13 32466 11.31400000 1206594377 1206594377 13.00000000
-4.84728289 6.84099865 2.24654937 33 15 32468 8.68000000 1206594382 1206594382 15.00000000
-1.23202956 1.74328148 -0.57199007 4 0 32475 2.21000000 1206594402 1206594402 -15.00000000
-1.43104351 2.02638006 -0.57272536 4 2 32477 2.54600000 1206594407 1206594407 -13.00000000
-1.69496810 2.40099072 -0.57128215 2 4 32478 2.99400000 1206594412 1206594412 -11.00000000
-2.08946109 2.96200013 -0.57411450 1 6 32480 3.67000000 1206594416 1206594416 -9.00000000
-2.71629953 3.85345507 -0.57887936 2 8 32482 4.75000000 1206594421 1206594421 -7.00000000
-3.82044363 5.42184877 -0.58028293 4 10 32483 6.65800000 1206594426 1206594426 -5.00000000
-6.36792469 9.04385376 -0.57967305 4 12 32485 11.07600000 1206594430 1206594430 -3.00000000
-6.34740925 9.01806068 2.54599595 60 13 32486 11.31800000 1206594432 1206594432 13.00000000
-4.81670570 6.84839630 2.24344349 40 15 32488 8.66800000 1206594437 1206594437 15.00000000
-1.22785020 1.75094879 -0.57302535 4 0 32496 2.21400000 1206594458 1206594458 -15.00000000
-1.42248845 2.03001547 -0.57227546 4 2 32498 2.54400000 1206594462 1206594462 -13.00000000
-1.69742012 2.42326689 -0.57509834 2 4 32499 3.01400000 1206594467 1206594467 -11.00000000
-2.07632542 2.96640182 -0.57348877 1 6 32501 3.66600000 1206594472 1206594472 -9.00000000
-2.69760656 3.85687804 -0.57790440 2 8 32503 4.74200000 1206594476 1206594476 -7.00000000
-3.80397081 5.44071388 -0.58080590 4 10 32504 6.66400000 1206594481 1206594481 -5.00000000
-6.34388542 9.08023071 -0.58051044 8 12 32506 11.09200000 1206594485 1206594485 -3.00000000
-6.30761909 9.03167820 2.54329658 57 13 32507 11.30600000 1206594488 1206594488 13.00000000
-4.79820633 6.87550974 2.24654937 40 15 32509 8.68000000 1206594492 1206594492 15.00000000
-1.22614527 1.76156640 -0.57509589 4 0 32516 2.22200000 1206594513 1206594513 -15.00000000
-1.42318285 2.04616737 -0.57542479 4 2 32518 2.55800000 1206594518 1206594518 -13.00000000
-1.68446815 2.42272949 -0.57357186 4 4 32519 3.00600000 1206594522 1206594522 -11.00000000
-2.08173728 2.99634337 -0.57786894 1 6 32521 3.69400000 1206594527 1206594527 -9.00000000
-2.69091964 3.87605500 -0.57936686 2 8 32523 4.75400000 1206594532 1206594532 -7.00000000
-3.79972339 5.47523785 -0.58307195 4 10 32524 6.69000000 1206594536 1206594536 -5.00000000
-6.32467031 9.12037373 -0.58166182 8 12 32526 11.11400000 1206594541 1206594541 -3.00000000
-6.27050304 9.04563332 2.54104710 54 13 32527 11.29600000 1206594543 1206594543 13.00000000
-4.77637720 6.89539289 2.24758458 40 15 32529 8.68400000 1206594548 1206594548 15.00000000
-1.21340024 1.75629926 -0.57199007 4 0 32536 2.21000000 1206594568 1206594568 -15.00000000
-1.41603172 2.05112267 -0.57542479 4 2 32538 2.55800000 1206594573 1206594573 -13.00000000
-1.67154050 2.42213130 -0.57204539 3 4 32539 2.99800000 1206594578 1206594578 -11.00000000
-2.08247972 3.01985359 -0.58099759 1 6 32541 3.71400000 1206594582 1206594582 -9.00000000
-2.67624688 3.88378978 -0.57912314 4 8 32543 4.75200000 1206594587 1206594587 -7.00000000
-3.77493691 5.48026419 -0.58220035 4 10 32544 6.68000000 1206594591 1206594591 -5.00000000
-6.28826618 9.13581371 -0.58124316 4 12 32546 11.10600000 1206594596 1206594596 -3.00000000
-6.24220371 9.07228279 2.54239678 56 13 32547 11.30200000 1206594598 1206594598 13.00000000
-4.75129509 6.90801048 2.24654937 42 15 32548 8.68000000 1206594603 1206594603 15.00000000
-1.20726216 1.76052415 -0.57199007 4 0 32556 2.21000000 1206594624 1206594624 -15.00000000
-1.40886331 2.05605316 -0.57542479 4 2 32558 2.55800000 1206594628 1206594628 -13.00000000
-1.67195117 2.44090915 -0.57509834 4 4 32559 3.01400000 1206594633 1206594633 -11.00000000
-2.06299996 3.01406360 -0.57849467 1 6 32561 3.69800000 1206594637 1206594637 -9.00000000
-2.66715622 3.89966202 -0.58009809 8 8 32563 4.76000000 1206594642 1206594642 -7.00000000
-3.75353527 5.49011803 -0.58185172 4 10 32564 6.67600000 1206594647 1206594647 -5.00000000
-6.28112459 9.19398975 -0.58354592 4 12 32566 11.15000000 1206594651 1206594651 -3.00000000
-6.21159649 9.09562588 2.54284668 54 13 32567 11.30400000 1206594654 1206594654 13.00000000
-4.71723270 6.91261292 2.24240828 42 15 32569 8.66400000 1206594658 1206594658 15.00000000
-1.19924295 1.76132417 -0.57095480 4 0 32575 2.20600000 1206594679 1206594679 -15.00000000
-1.40422988 2.06393623 -0.57632458 4 2 32577 2.56200000 1206594684 1206594684 -13.00000000
-1.67047215 2.45618033 -0.57738805 4 4 32578 3.02600000 1206594688 1206594688 -11.00000000
-2.04189014 3.00455022 -0.57536596 1 6 32580 3.67800000 1206594693 1206594693 -9.00000000
-2.65867066 3.91505408 -0.58107305 6 8 32582 4.76800000 1206594697 1206594697 -7.00000000
-3.73866582 5.50748062 -0.58237469 8 10 32583 6.68200000 1206594702 1206594702 -5.00000000
-6.26966190 9.24286747 -0.58532536 4 12 32585 11.18400000 1206594707 1206594707 -3.00000000
-6.18577480 9.12262630 2.54464626 54 13 32586 11.31200000 1206594709 1206594709 13.00000000
-4.70416403 6.94019127 2.24654937 42 15 32587 8.68000000 1206594714 1206594714 15.00000000
-1.19741416 1.77190208 -0.57302535 4 0 32595 2.21400000 1206594734 1206594734 -15.00000000
-1.38393009 2.04944515 -0.57092577 4 2 32597 2.53800000 1206594739 1206594739 -13.00000000
-1.65969145 2.45874190 -0.57662481 2 4 32598 3.02200000 1206594743 1206594743 -11.00000000
-2.04464531 3.03131151 -0.57912040 1 6 32600 3.70200000 1206594748 1206594748 -9.00000000
-2.63167477 3.90455747 -0.57814819 2 8 32602 4.74400000 1206594753 1206594753 -7.00000000
-3.72275805 5.52545452 -0.58289760 8 10 32603 6.68800000 1206594757 1206594757 -5.00000000
-6.23512888 9.26138210 -0.58511597 8 12 32605 11.18000000 1206594762 1206594762 -3.00000000
-6.15280533 9.14254665 2.54419637 55 13 32606 11.31000000 1206594764 1206594764 13.00000000
-4.67653942 6.95418024 2.24551415 42 15 32608 8.67600000 1206594769 1206594769 15.00000000
-1.19983041 1.78890634 -0.57716650 4 0 32615 2.23000000 1206594790 1206594790 -15.00000000
-1.38110745 2.06073880 -0.57272536 4 2 32617 2.54600000 1206594794 1206594794 -13.00000000
-1.64891326 2.46125841 -0.57586157 2 4 32618 3.01800000 1206594799 1206594799 -11.00000000
-2.03405166 3.03842998 -0.57912040 1 6 32620 3.70200000 1206594803 1206594803 -9.00000000
-2.62134027 3.91866994 -0.57887936 2 8 32622 4.75000000 1206594808 1206594808 -7.00000000
-3.71452284 5.55497789 -0.58464074 8 10 32623 6.70800000 1206594813 1206594813 -5.00000000
-6.23161316 9.32626820 -0.58783746 8 12 32625 11.23200000 1206594817 1206594817 -3.00000000
-6.11652470 9.15748596 2.54239678 56 13 32626 11.30200000 1206594820 1206594820 13.00000000
-4.65559816 6.97286320 2.24654937 42 15 32627 8.68000000 1206594824 1206594824 15.00000000
-1.18715584 1.78343475 -0.57406062 4 0 32635 2.21800000 1206594845 1206594845 -15.00000000
-1.38146055 2.07690525 -0.57587469 4 2 32637 2.56000000 1206594849 1206594849 -13.00000000
-1.64031184 2.46699905 -0.57586157 4 4 32638 3.01800000 1206594854 1206594854 -11.00000000
-2.02561951 3.04880238 -0.57974613 1 6 32640 3.70600000 1206594859 1206594859 -9.00000000
-2.61423349 3.93771911 -0.58034182 2 8 32642 4.76200000 1206594863 1206594863 -7.00000000
-3.69621158 5.56957006 -0.58481503 4 10 32643 6.71000000 1206594868 1206594868 -5.00000000
-6.19350100 9.33964062 -0.58731413 8 12 32645 11.22200000 1206594872 1206594872 -3.00000000
-6.08452177 9.17878056 2.54239678 55 13 32646 11.30200000 1206594875 1206594875 13.00000000
-4.62360954 6.98021650 2.24344349 42 15 32648 8.66800000 1206594879 1206594879 15.00000000
-1.17910492 1.78413832 -0.57302535 4 0 32654 2.21400000 1206594900 1206594900 -15.00000000
-1.38100898 2.09123182 -0.57857412 4 2 32656 2.57200000 1206594905 1206594905 -13.00000000
-1.63212192 2.47242498 -0.57586157 2 4 32657 3.01800000 1206594909 1206594909 -11.00000000
-2.01114726 3.04890704 -0.57849467 1 6 32659 3.69800000 1206594914 1206594914 -9.00000000
-2.59788370 3.94139409 -0.57961059 2 8 32661 4.75600000 1206594919 1206594919 -7.00000000
-3.67224097 5.57347822 -0.58394349 4 10 32662 6.70000000 1206594923 1206594923 -5.00000000
-6.17457676 9.37847805 -0.58846551 8 12 32664 11.24400000 1206594928 1206594928 -3.00000000
-6.05726433 9.20379066 2.54374647 57 13 32665 11.30800000 1206594930 1206594930 13.00000000
-4.59741068 6.98825169 2.24137282 45 15 32666 8.66000000 1206594935 1206594935 15.00000000
-1.17392945 1.78985870 -0.57354301 4 0 32674 2.21600000 1206594955 1206594955 -15.00000000
-1.36729157 2.08626032 -0.57587469 4 2 32676 2.56000000 1206594960 1206594960 -13.00000000
-1.62563336 2.48139143 -0.57662481 4 4 32677 3.02200000 1206594965 1206594965 -11.00000000
-2.01131177 3.07243609 -0.58162332 2 6 32679 3.71800000 1206594969 1206594969 -9.00000000
-2.60149670 3.97701836 -0.58351040 2 8 32681 4.78800000 1206594974 1206594974 -7.00000000
-3.67566133 5.62128115 -0.58760405 4 10 32682 6.74200000 1206594978 1206594978 -5.00000000
-6.15491199 9.42003822 -0.58972156 8 12 32684 11.26800000 1206594983 1206594983 -3.00000000
-6.02936316 9.23140430 2.54554605 56 13 32685 11.31600000 1206594985 1206594985 13.00000000
-4.57282209 7.00667286 2.24189067 45 15 32687 8.66200000 1206594990 1206594990 15.00000000
