# .PCD v0.7 - Point Cloud Data file format
VERSION 0.7
FIELDS x y z intensity laser_id azimuth distance_m adjustedtime timestamp vertical_angle
SIZE 4 4 4 1 1 2 8 8 4 8
TYPE F F F U U U F U U F
COUNT 1 1 1 1 1 1 1 1 1 1
WIDTH 529
HEIGHT 1
VIEWPOINT 0 0 0 1 0 0 0
POINTS 529
DATA ascii
3.59557962 -4.95252514 1.63987744 9 15 14402 6.33600000 1206644314 1206644314 15.00000000
1.21207929 -1.67442191 -0.55387276 4 0 14410 2.14000000 1206644335 1206644335 -15.00000000
3.59656549 -4.97028637 0.10708796 11 1 14411 6.13600000 1206644337 1206644337 1.00000000
1.41853321 -1.96106756 -0.55877841 4 2 14412 2.48400000 1206644340 1206644340 -13.00000000
3.60215330 -4.98166895 0.32218015 10 3 14413 6.15600000 1206644342 1206644342 3.00000000
1.65307486 -2.28615260 -0.54838502 3 4 14413 2.87400000 1206644344 1206644344 -11.00000000
3.59833908 -4.97822380 0.53740233 9 5 14414 6.16600000 1206644346 1206644346 5.00000000
2.02806234 -2.80681181 -0.54845923 1 6 14415 3.50600000 1206644349 1206644349 -9.00000000
3.59272718 -4.97411585 0.75339627 10 7 14416 6.18200000 1206644351 1206644351 7.00000000
2.61342311 -3.61960435 -0.54816830 4 8 14417 4.49800000 1206644353 1206644353 -7.00000000
3.58150768 -4.96223116 0.96926796 10 9 14418 6.19600000 1206644356 1206644356 9.00000000
3.60069275 -4.98881245 -0.53827387 15 10 14418 6.17600000 1206644358 1206644358 -5.00000000
3.58049345 -4.96265078 1.18950331 12 11 14419 6.23400000 1206644360 1206644360 11.00000000
3.59489608 -4.98444653 -0.32207549 9 12 14420 6.15400000 1206644363 1206644363 -3.00000000
3.56369996 -4.94300985 1.40684390 9 13 14421 6.25400000 1206644365 1206644365 13.00000000
3.58000135 -4.96744823 -0.10687853 9 14 14422 6.12400000 1206644367 1206644367 -1.00000000
3.56245708 -4.94310427 1.63263059 9 15 14422 6.30800000 1206644369 1206644369 15.00000000
1.21186364 -1.68648672 -0.55646098 4 0 14430 2.15000000 1206644390 1206644390 -15.00000000
3.57102752 -4.97144127 0.10684364 11 1 14431 6.12200000 1206644393 1206644393 1.00000000
1.41849887 -1.97550488 -0.56147784 5 2 14432 2.49600000 1206644395 1206644395 -13.00000000
3.57309580 -4.97798729 0.32113343 10 3 14433 6.13600000 1206644397 1206644397 3.00000000
1.64737427 -2.29509878 -0.54914826 3 4 14433 2.87800000 1206644399 1206644399 -11.00000000
3.56467867 -4.96809053 0.53496194 9 5 14434 6.13800000 1206644402 1206644402 5.00000000
2.02516031 -2.82350492 -0.55033642 1 6 14435 3.51800000 1206644404 1206644404 -9.00000000
3.55914855 -4.96404076 0.74998397 10 7 14436 6.15400000 1206644406 1206644406 7.00000000
2.60886717 -3.63999915 -0.54987448 6 8 14437 4.51200000 1206644409 1206644409 -7.00000000
3.54805779 -4.95222187 0.96488780 10 9 14438 6.16800000 1206644411 1206644411 9.00000000
3.56701136 -4.97867632 -0.53583348 15 10 14438 6.14800000 1206644413 1206644413 -5.00000000
3.55057430 -4.95756149 1.18530548 12 11 14439 6.21200000 1206644416 1206644416 11.00000000
3.56933665 -4.98559666 -0.32134277 13 12 14440 6.14000000 1206644418 1206644418 -3.00000000
3.54642391 -4.95541954 1.40684390 9 13 14441 6.25400000 1206644420 1206644420 13.00000000
3.55798602 -4.97340918 -0.10673892 9 14 14442 6.11600000 1206644422 1206644422 -1.00000000
3.53982067 -4.94984293 1.63056004 9 15 14443 6.30000000 1206644425 1206644425 15.00000000
1.20372570 -1.68756115 -0.55542564 4 0 14450 2.14600000 1206644446 1206644446 -15.00000000
3.53739905 -4.96108198 0.10635497 11 1 14451 6.09400000 1206644448 1206644448 1.00000000
1.39689028 -1.95981467 -0.55562907 4 2 14452 2.47000000 1206644450 1206644450 -13.00000000
3.54758477 -4.97904301 0.32040071 10 3 14453 6.12200000 1206644452 1206644452 3.00000000
1.64163125 -2.30403304 -0.54991150 3 4 14453 2.88200000 1206644455 1206644455 -11.00000000
3.54500341 -4.97725773 0.53461331 13 5 14454 6.13400000 1206644457 1206644457 5.00000000
2.00727201 -2.81929255 -0.54814637 1 6 14455 3.50400000 1206644459 1206644459 -9.00000000
3.53834605 -4.97158241 0.74925274 10 7 14456 6.14800000 1206644462 1206644462 7.00000000
2.60074854 -3.65555358 -0.55084944 6 8 14457 4.52000000 1206644464 1206644464 -7.00000000
3.53074980 -4.96457672 0.96488780 10 9 14458 6.16800000 1206644466 1206644466 9.00000000
3.54037309 -4.97810793 -0.53443903 11 10 14458 6.13200000 1206644469 1206644469 -5.00000000
3.52073455 -4.95232391 1.18110764 12 11 14459 6.19000000 1206644471 1206644471 11.00000000
3.53455734 -4.97360516 -0.31977269 9 12 14460 6.11000000 1206644473 1206644473 -3.00000000
3.51556158 -4.94870472 1.40144503 10 13 14461 6.23000000 1206644475 1206644475 13.00000000
3.53713036 -4.98090744 -0.10663420 9 14 14462 6.11000000 1206644478 1206644478 -1.00000000
3.51443863 -4.94895315 1.62641883 9 15 14462 6.28400000 1206644480 1206644480 15.00000000
1.19671130 -1.69017601 -0.55490804 4 0 14470 2.14400000 1206644501 1206644501 -15.00000000
3.51543903 -4.96687031 0.10621534 11 1 14471 6.08600000 1206644503 1206644503 1.00000000
1.38666415 -1.95990634 -0.55427939 3 2 14472 2.46400000 1206644505 1206644505 -13.00000000
3.51403737 -4.96856689 0.31893530 10 3 14473 6.09400000 1206644508 1206644508 3.00000000
1.63811326 -2.31616092 -0.55143797 3 4 14473 2.89000000 1206644510 1206644510 -11.00000000
3.51610613 -4.97333336 0.53287023 13 5 14474 6.11400000 1206644512 1206644512 5.00000000
1.99627864 -2.82466888 -0.54783350 1 6 14475 3.50200000 1206644515 1206644515 -9.00000000
3.50493479 -4.96120501 0.74584037 10 7 14476 6.12000000 1206644517 1206644517 7.00000000
2.57652116 -3.64839458 -0.54841202 6 8 14477 4.50000000 1206644519 1206644519 -7.00000000
3.50542402 -4.96557474 0.96269768 10 9 14478 6.15400000 1206644522 1206644522 9.00000000
3.51837850 -4.98392487 -0.53374177 11 10 14478 6.12400000 1206644524 1206644524 -5.00000000
3.48871064 -4.94373083 1.17614663 12 11 14479 6.16400000 1206644526 1206644526 11.00000000
3.50335932 -4.96632814 -0.31851664 9 12 14480 6.08600000 1206644528 1206644528 -3.00000000
3.48478961 -4.94183493 1.39604628 9 13 14481 6.20600000 1206644531 1206644531 13.00000000
3.50589681 -4.97361040 -0.10621534 9 14 14482 6.08600000 1206644533 1206644533 -1.00000000
3.48378587 -4.94224310 1.62020719 9 15 14482 6.26000000 1206644535 1206644535 15.00000000
1.19413674 -1.69908464 -0.55646098 4 0 14490 2.15000000 1206644556 1206644556 -15.00000000
3.49233222 -4.97093010 0.10604082 11 1 14491 6.07600000 1206644558 1206644558 1.00000000
1.37533450 -1.95835578 -0.55247980 3 2 14492 2.45600000 1206644561 1206644561 -13.00000000
3.48261929 -4.95894480 0.31757459 10 3 14492 6.06800000 1206644563 1206644563 3.00000000
1.62099409 -2.30901027 -0.54838502 3 4 14493 2.87400000 1206644565 1206644565 -11.00000000
3.48155713 -4.96111345 0.53025556 13 5 14494 6.08400000 1206644568 1206644568 5.00000000
1.98754096 -2.83323717 -0.54814637 3 6 14495 3.50400000 1206644570 1206644570 -9.00000000
3.47733784 -4.95878172 0.74364674 10 7 14496 6.10200000 1206644572 1206644572 7.00000000
2.55921245 -3.65086412 -0.54743707 6 8 14497 4.49200000 1206644574 1206644574 -7.00000000
3.47646570 -4.95937872 0.95925611 10 9 14497 6.13200000 1206644577 1206644577 9.00000000
3.49181294 -4.98312283 -0.53234726 11 10 14498 6.10800000 1206644579 1206644579 -5.00000000
3.46467447 -4.94623041 1.17385697 12 11 14499 6.15200000 1206644581 1206644581 11.00000000
3.47798324 -4.96707487 -0.31778392 9 12 14500 6.07200000 1206644584 1206644584 -3.00000000
3.45410848 -4.93481112 1.39064741 9 13 14501 6.18200000 1206644586 1206644586 13.00000000
3.47705030 -4.96943331 -0.10586630 9 14 14502 6.06600000 1206644588 1206644588 -1.00000000
3.45765281 -4.94171047 1.61606610 9 15 14502 6.24400000 1206644591 1206644591 15.00000000
1.18377733 -1.69690502 -0.55439037 4 0 14510 2.14200000 1206644611 1206644611 -15.00000000
3.46695232 -4.97160864 0.10579649 11 1 14511 6.06200000 1206644614 1206644614 1.00000000
1.37294781 -1.96953928 -0.55427939 3 2 14512 2.46400000 1206644616 1206644616 -13.00000000
3.46556234 -4.97331429 0.31767926 10 3 14513 6.07000000 1206644618 1206644618 3.00000000
1.61292422 -2.31465435 -0.54838502 3 4 14513 2.87400000 1206644621 1206644621 -11.00000000
3.45055270 -4.95361757 0.52816379 13 5 14514 6.06000000 1206644623 1206644623 5.00000000
1.98441172 -2.84988427 -0.55002356 1 6 14515 3.51600000 1206644625 1206644625 -9.00000000
3.45547104 -4.96437263 0.74267179 10 7 14516 6.09400000 1206644627 1206644627 7.00000000
2.54645300 -3.65977526 -0.54743707 6 8 14517 4.49200000 1206644630 1206644630 -7.00000000
3.44473004 -4.95262718 0.95550174 10 9 14518 6.10800000 1206644632 1206644632 9.00000000
3.46757150 -4.98546696 -0.53130138 11 10 14518 6.09600000 1206644634 1206644634 -5.00000000
3.45075011 -4.96313000 1.17500174 12 11 14519 6.15800000 1206644637 1206644637 11.00000000
3.45378447 -4.96934462 -0.31715590 9 12 14520 6.06000000 1206644639 1206644639 -3.00000000
3.42796659 -4.93403482 1.38704824 9 13 14521 6.16600000 1206644641 1206644641 13.00000000
3.45511985 -4.97497082 -0.10572668 9 14 14522 6.05800000 1206644644 1206644644 -1.00000000
3.43070364 -4.94165516 1.61192501 9 15 14523 6.22800000 1206644646 1206644646 15.00000000
1.17395532 -1.69667196 -0.55283749 4 0 14532 2.13600000 1206644667 1206644667 -15.00000000
3.43418694 -4.96514845 0.10537763 11 1 14533 6.03800000 1206644669 1206644669 1.00000000
1.36537516 -1.97479641 -0.55427939 3 2 14534 2.46400000 1206644671 1206644671 -13.00000000
3.43368077 -4.96626902 0.31642318 10 3 14534 6.04600000 1206644674 1206644674 3.00000000
1.60848963 -2.32729077 -0.54991150 3 4 14535 2.88200000 1206644676 1206644676 -11.00000000
3.42131424 -4.95207739 0.52659500 9 5 14536 6.04200000 1206644678 1206644678 5.00000000
1.96784163 -2.84935570 -0.54845923 1 6 14537 3.50600000 1206644680 1206644680 -9.00000000
3.43187284 -4.97106934 0.74169683 10 7 14538 6.08600000 1206644683 1206644683 7.00000000
2.53689170 -3.67606115 -0.54841202 6 8 14539 4.50000000 1206644685 1206644685 -7.00000000
3.41559267 -4.95118332 0.95268589 10 9 14540 6.09000000 1206644687 1206644687 9.00000000
3.43482685 -4.97906494 -0.52920967 11 10 14540 6.07200000 1206644690 1206644690 -5.00000000
3.41717863 -4.95533228 1.17004073 12 11 14541 6.13200000 1206644692 1206644692 11.00000000
3.44034600 -4.99079132 -0.31767926 9 12 14542 6.07000000 1206644694 1206644694 -3.00000000
3.40678453 -4.94395161 1.38614845 9 13 14543 6.16200000 1206644697 1206644697 13.00000000
3.42918563 -4.97831964 -0.10551725 9 14 14544 6.04600000 1206644699 1206644699 -1.00000000
3.39503455 -4.92874098 1.60364282 9 15 14544 6.19600000 1206644701 1206644701 15.00000000
1.17130661 -1.70553684 -0.55439037 4 0 14552 2.14200000 1206644722 1206644722 -15.00000000
3.40664840 -4.96226835 0.10506348 11 1 14553 6.02000000 1206644724 1206644724 1.00000000
1.35406291 -1.97312331 -0.55247980 3 2 14554 2.45600000 1206644726 1206644726 -13.00000000
3.41293406 -4.97328424 0.31610918 10 3 14554 6.04000000 1206644729 1206644729 3.00000000
1.60035610 -2.33289123 -0.54991150 3 4 14555 2.88200000 1206644731 1206644731 -11.00000000
3.39273953 -4.94755840 0.52485186 9 5 14556 6.02200000 1206644733 1206644733 5.00000000
1.95229912 -2.84806085 -0.54689491 1 6 14557 3.49600000 1206644736 1206644736 -9.00000000
3.40327883 -4.96664333 0.73925942 10 7 14558 6.06600000 1206644738 1206644738 7.00000000
2.52628803 -3.68816948 -0.54889953 6 8 14559 4.50400000 1206644740 1206644740 -7.00000000
3.39382482 -4.95655632 0.95143443 10 9 14560 6.08200000 1206644743 1206644743 9.00000000
3.41292310 -4.98444843 -0.52851242 11 10 14560 6.06400000 1206644745 1206644745 -5.00000000
3.38766265 -4.94940948 1.16584301 12 11 14561 6.11000000 1206644747 1206644747 11.00000000
3.40937018 -4.98298979 -0.31642318 9 12 14562 6.04600000 1206644750 1206644750 -3.00000000
3.38070512 -4.94294500 1.38254917 9 13 14563 6.14600000 1206644752 1206644752 13.00000000
3.40162969 -4.97540283 -0.10520311 9 14 14564 6.02800000 1206644754 1206644754 -1.00000000
3.37562871 -4.93737221 1.60260749 9 15 14564 6.19200000 1206644756 1206644756 15.00000000
1.16158819 -1.70282459 -0.55231982 4 0 14570 2.13400000 1206644777 1206644777 -15.00000000
3.37977624 -4.95642471 0.10471444 11 1 14571 6.00000000 1206644779 1206644779 1.00000000
1.35224795 -1.98380840 -0.55427939 3 2 14572 2.46400000 1206644782 1206644782 -13.00000000
3.38742614 -4.97137022 0.31527179 10 3 14573 6.02400000 1206644784 1206644784 3.00000000
1.59301925 -2.33790731 -0.54991150 2 4 14573 2.88200000 1206644786 1206644786 -11.00000000
3.37717962 -4.95819235 0.52485186 9 5 14574 6.02200000 1206644789 1206644789 5.00000000
1.93889499 -2.84764886 -0.54564339 1 6 14575 3.48800000 1206644791 1206644791 -9.00000000
3.37648940 -4.96089983 0.73682207 10 7 14576 6.04600000 1206644793 1206644793 7.00000000
2.51468873 -3.69608784 -0.54889953 6 8 14577 4.50400000 1206644796 1206644796 -7.00000000
3.39500618 -4.99185085 -0.52816379 11 10 14578 6.06000000 1206644800 1206644800 -5.00000000
3.36768174 -4.95353317 1.16431653 12 11 14579 6.10200000 1206644803 1206644803 11.00000000
3.38022733 -4.97385359 -0.31516713 13 12 14580 6.02200000 1206644805 1206644805 -3.00000000
3.35749412 -4.94225788 1.37939990 9 13 14581 6.13200000 1206644807 1206644807 13.00000000
3.37362480 -4.96786737 -0.10481916 9 14 14582 6.00600000 1206644809 1206644809 -1.00000000
3.35489726 -4.94214535 1.60053694 9 15 14583 6.18400000 1206644812 1206644812 15.00000000
1.16863406 -1.72606516 -0.55853152 4 0 14590 2.15800000 1206644832 1206644832 -15.00000000
3.36245465 -4.96819210 0.10471444 11 1 14591 6.00000000 1206644835 1206644835 1.00000000
1.33876300 -1.97883224 -0.55158001 3 2 14592 2.45200000 1206644837 1206644837 -13.00000000
3.35861111 -4.96437979 0.31412041 10 3 14592 6.00200000 1206644839 1206644839 3.00000000
1.57824969 -2.33369613 -0.54762185 3 4 14593 2.87000000 1206644842 1206644842 -11.00000000
3.35315657 -4.96004725 0.52380604 9 5 14594 6.01000000 1206644844 1206644844 5.00000000
1.93226123 -2.85930943 -0.54658204 3 6 14595 3.49400000 1206644846 1206644846 -9.00000000
3.35470724 -4.96607590 0.73584712 10 7 14596 6.03800000 1206644849 1206644849 7.00000000
2.49066257 -3.68839192 -0.54646212 6 8 14597 4.48400000 1206644851 1206644851 -7.00000000
3.34429955 -4.95439672 0.94674140 60 9 14598 6.05200000 1206644853 1206644853 9.00000000
3.37087250 -4.99376297 -0.52711791 11 10 14598 6.04800000 1206644856 1206644856 -5.00000000
3.34158516 -4.95223904 1.16126359 12 11 14599 6.08600000 1206644858 1206644858 11.00000000
3.35614347 -4.97568750 -0.31453910 9 12 14600 6.01000000 1206644860 1206644860 -3.00000000
3.32823825 -4.93617439 1.37445092 9 13 14601 6.11000000 1206644862 1206644862 13.00000000
3.34955716 -4.96966410 -0.10460973 9 14 14602 5.99400000 1206644865 1206644865 -1.00000000
3.33438706 -4.94901991 1.59898400 9 15 14603 6.17800000 1206644867 1206644867 15.00000000
1.15398192 -1.71730626 -0.55439037 4 0 14610 2.14200000 1206644888 1206644888 -15.00000000
3.34174681 -4.97491932 0.10460973 11 1 14611 5.99400000 1206644890 1206644890 1.00000000
1.32967472 -1.98025763 -0.55068016 3 2 14612 2.44800000 1206644892 1206644892 -13.00000000
3.33458138 -4.96612406 0.31349239 9 3 14612 5.99000000 1206644895 1206644895 3.00000000
1.54055214 -2.29517841 -0.53731811 3 4 14613 2.81600000 1206644897 1206644897 -11.00000000
3.33138204 -4.96510363 0.52310878 9 5 14614 6.00200000 1206644899 1206644899 5.00000000
1.92446923 -2.86931801 -0.54720777 3 6 14615 3.49800000 1206644902 1206644902 -9.00000000
3.32961392 -4.96621418 0.73414093 10 7 14616 6.02400000 1206644904 1206644904 7.00000000
2.48440361 -3.70695758 -0.54792458 6 8 14617 4.49600000 1206644906 1206644906 -7.00000000
3.31135535 -4.94084549 0.94204837 55 9 14617 6.02200000 1206644909 1206644909 9.00000000
3.33789539 -4.98232555 -0.52467757 15 10 14618 6.02000000 1206644911 1206644911 -5.00000000
3.32209349 -4.96061087 1.16050029 12 11 14619 6.08200000 1206644913 1206644913 11.00000000
3.33542156 -4.98239326 -0.31422508 13 12 14620 6.00400000 1206644915 1206644915 -3.00000000
3.30340099 -4.93642473 1.37130165 9 13 14621 6.09600000 1206644918 1206644918 13.00000000
3.32107115 -4.96470451 -0.10426068 9 14 14622 5.97400000 1206644920 1206644920 -1.00000000
3.30420542 -4.94135809 1.59277236 9 15 14623 6.15400000 1206644922 1206644922 15.00000000
1.17477727 -1.76150429 -0.56733137 5 0 14630 2.19200000 1206644943 1206644943 -15.00000000
3.30883145 -4.96325970 0.10412106 11 1 14631 5.96600000 1206644945 1206644945 1.00000000
1.33139980 -1.99786007 -0.55427939 3 2 14632 2.46400000 1206644948 1206644948 -13.00000000
3.31279564 -4.97108555 0.31307369 9 3 14632 5.98200000 1206644950 1206644950 3.00000000
1.34967232 -2.02604556 -0.47320631 4 4 14633 2.48000000 1206644952 1206644952 -11.00000000
3.30077863 -4.95680189 0.52101701 9 5 14634 5.97800000 1206644955 1206644955 5.00000000
1.90896869 -2.86779618 -0.54564339 1 6 14635 3.48800000 1206644957 1206644957 -9.00000000
3.30785942 -4.97119570 0.73316598 10 7 14636 6.01600000 1206644959 1206644959 7.00000000
2.47144866 -3.71560717 -0.54792458 6 8 14637 4.49600000 1206644962 1206644962 -7.00000000
3.28971243 -4.94579506 0.94079685 52 9 14637 6.01400000 1206644964 1206644964 9.00000000
3.31165838 -4.98067379 -0.52328306 15 10 14638 6.00400000 1206644966 1206644966 -5.00000000
3.29171658 -4.95255613 1.15592086 12 11 14639 6.05800000 1206644968 1206644968 11.00000000
3.31690407 -4.99234200 -0.31412041 13 12 14640 6.00200000 1206644971 1206644971 -3.00000000
3.28399324 -4.94467926 1.37040186 9 13 14641 6.09200000 1206644973 1206644973 13.00000000
3.29487252 -4.96293926 -0.10398144 9 14 14642 5.95800000 1206644975 1206644975 -1.00000000
3.26984501 -4.92710733 1.58449018 9 15 14643 6.12200000 1206644978 1206644978 15.00000000
1.17257714 -1.77224278 -0.56940192 6 0 14651 2.20000000 1206644998 1206644998 -15.00000000
3.28068995 -4.96034288 0.10380691 11 1 14652 5.94800000 1206645001 1206645001 1.00000000
1.31976938 -1.99622416 -0.55247980 3 2 14653 2.45600000 1206645003 1206645003 -13.00000000
3.29345202 -4.98152828 0.31296903 9 3 14653 5.98000000 1206645005 1206645005 3.00000000
1.32708311 -2.00804830 -0.46786365 13 4 14654 2.45200000 1206645008 1206645008 -11.00000000
3.27599955 -4.95889235 0.51997113 9 5 14655 5.96600000 1206645010 1206645010 5.00000000
1.90606487 -2.88631248 -0.54783350 1 6 14656 3.50200000 1206645012 1206645012 -9.00000000
3.27649355 -4.96340609 0.73024112 10 7 14657 5.99200000 1206645014 1206645014 7.00000000
2.46656036 -3.73789549 -0.54987448 6 8 14658 4.51200000 1206645017 1206645017 -7.00000000
3.26938725 -4.95452166 0.94017112 50 9 14658 6.01000000 1206645019 1206645019 9.00000000
3.29118681 -4.98945189 -0.52293444 15 10 14659 6.00000000 1206645021 1206645021 -5.00000000
3.25841212 -4.94164133 1.15057826 12 11 14660 6.03000000 1206645024 1206645024 11.00000000
3.28099751 -4.97778416 -0.31244567 12 12 14661 5.97000000 1206645026 1206645026 -3.00000000
3.26155925 -4.95017338 1.36860216 9 13 14662 6.08400000 1206645028 1206645028 13.00000000
3.27226067 -4.96830225 -0.10384182 9 14 14663 5.95000000 1206645031 1206645031 -1.00000000
3.24943852 -4.93365145 1.58293724 9 15 14663 6.11600000 1206645033 1206645033 15.00000000
1.14517677 -1.74402821 -0.55904913 4 0 14671 2.16000000 1206645054 1206645054 -15.00000000
3.25457668 -4.95839071 0.10352767 11 1 14672 5.93200000 1206645056 1206645056 1.00000000
1.30637884 -1.99104285 -0.54978037 3 2 14673 2.44400000 1206645058 1206645058 -13.00000000
3.26837349 -4.98130512 0.31223631 9 3 14673 5.96600000 1206645061 1206645061 3.00000000
1.30068457 -1.98311865 -0.46099454 12 4 14674 2.41600000 1206645063 1206645063 -11.00000000
3.25102282 -4.95863390 0.51875097 12 5 14675 5.95200000 1206645065 1206645065 5.00000000
1.90355766 -2.90451336 -0.55002356 1 6 14676 3.51600000 1206645067 1206645067 -9.00000000
3.24391842 -4.95156622 0.72682875 10 7 14677 5.96400000 1206645070 1206645070 7.00000000
2.44370985 -3.73153639 -0.54768085 6 8 14678 4.49400000 1206645072 1206645072 -7.00000000
3.25423717 -4.96920919 0.94079685 12 9 14678 6.01400000 1206645074 1206645074 9.00000000
3.26065540 -4.98090601 -0.52084273 15 10 14679 5.97600000 1206645077 1206645077 -5.00000000
3.23254275 -4.93984318 1.14752531 12 11 14680 6.01400000 1206645079 1206645079 11.00000000
3.25157499 -4.97082090 -0.31129426 12 12 14681 5.94800000 1206645081 1206645081 -3.00000000
3.23039556 -4.94032478 1.36275351 9 13 14682 6.05800000 1206645084 1206645084 13.00000000
3.24614549 -4.96630335 -0.10356258 9 14 14683 5.93400000 1206645086 1206645086 -1.00000000
3.22710729 -4.93905878 1.58086669 9 15 14684 6.10800000 1206645088 1206645088 15.00000000
1.13200212 -1.73648775 -0.55542564 4 0 14690 2.14600000 1206645109 1206645109 -15.00000000
3.23484087 -4.96412992 0.10342296 11 1 14691 5.92600000 1206645111 1206645111 1.00000000
1.30402374 -2.00189543 -0.55158001 3 2 14692 2.45200000 1206645114 1206645114 -13.00000000
3.23679781 -4.97092533 0.31087559 9 3 14693 5.94000000 1206645116 1206645116 3.00000000
1.29838622 -1.99400187 -0.46252102 9 4 14693 2.42400000 1206645118 1206645118 -11.00000000
3.23347473 -4.96771765 0.51857668 12 5 14694 5.95000000 1206645120 1206645120 5.00000000
1.88421965 -2.89590812 -0.54720777 1 6 14695 3.49800000 1206645123 1206645123 -9.00000000
3.22748065 -4.96229649 0.72682875 10 7 14696 5.96400000 1206645125 1206645125 7.00000000
2.42482996 -3.72963405 -0.54621840 6 8 14697 4.48200000 1206645127 1206645127 -7.00000000
3.21728277 -4.94850683 0.93485236 9 9 14697 5.97600000 1206645130 1206645130 9.00000000
3.23760581 -4.98166800 -0.51979685 15 10 14698 5.96400000 1206645132 1206645132 -5.00000000
3.21079612 -4.94230366 1.14561725 12 11 14699 6.00400000 1206645134 1206645134 11.00000000
3.22963452 -4.97320080 -0.31077090 12 12 14700 5.93800000 1206645137 1206645137 -3.00000000
3.19914007 -4.92812681 1.35645485 9 13 14701 6.03000000 1206645139 1206645139 13.00000000
3.22095037 -4.96362114 -0.10328334 9 14 14702 5.91800000 1206645141 1206645141 -1.00000000
3.21157479 -4.94917297 1.58086669 9 15 14702 6.10800000 1206645144 1206645144 15.00000000
1.12803245 -1.74367261 -0.55646098 4 0 14710 2.15000000 1206645164 1206645164 -15.00000000
3.21206379 -4.96699524 0.10324844 11 1 14711 5.91600000 1206645167 1206645167 1.00000000
1.30125964 -2.01298141 -0.55337960 3 2 14712 2.46000000 1206645169 1206645169 -13.00000000
3.20533442 -4.96038580 0.30951485 9 3 14713 5.91400000 1206645171 1206645171 3.00000000
1.48747480 -2.30192780 -0.53273869 3 4 14713 2.79200000 1206645173 1206645173 -11.00000000
3.20962811 -4.96893263 0.51753080 12 5 14714 5.93800000 1206645176 1206645176 5.00000000
1.87624264 -2.90578651 -0.54783350 1 6 14715 3.50200000 1206645178 1206645178 -9.00000000
3.20152712 -4.96018934 0.72487885 10 7 14716 5.94800000 1206645180 1206645180 7.00000000
2.41932988 -3.74975181 -0.54792458 4 8 14717 4.49600000 1206645183 1206645183 -7.00000000
3.19162941 -4.94864511 0.93266231 9 9 14718 5.96200000 1206645185 1206645185 9.00000000
3.21047807 -4.97786951 -0.51822805 15 10 14718 5.94600000 1206645187 1206645187 -5.00000000
3.19565225 -4.95678139 1.14638042 12 11 14719 6.00800000 1206645190 1206645190 11.00000000
3.20468140 -4.97269249 -0.31003821 12 12 14720 5.92400000 1206645192 1206645192 -3.00000000
3.17558622 -4.92943430 1.35375547 9 13 14721 6.01800000 1206645194 1206645194 13.00000000
3.18736458 -4.94961548 -0.10275977 9 14 14722 5.88800000 1206645197 1206645197 -1.00000000
3.18295717 -4.94466639 1.57569039 9 15 14723 6.08800000 1206645199 1206645199 15.00000000
1.13446295 -1.76710761 -0.56267262 5 0 14730 2.17400000 1206645220 1206645220 -15.00000000
3.18066597 -4.95629883 0.10279468 11 1 14731 5.89000000 1206645222 1206645222 1.00000000
1.29422510 -2.01751137 -0.55337960 3 2 14732 2.46000000 1206645224 1206645224 -13.00000000
3.18584371 -4.96818161 0.30930549 9 3 14733 5.91000000 1206645226 1206645226 3.00000000
1.51652229 -2.36494899 -0.54609537 3 4 14733 2.86200000 1206645229 1206645229 -11.00000000
3.17613578 -4.95494556 0.51491612 12 5 14734 5.90800000 1206645231 1206645231 5.00000000
1.85649657 -2.89734912 -0.54501766 1 6 14735 3.48400000 1206645233 1206645233 -9.00000000
3.17776942 -4.96130514 0.72341645 10 7 14736 5.93600000 1206645236 1206645236 7.00000000
2.40622592 -3.75817394 -0.54792458 4 8 14737 4.49600000 1206645238 1206645238 -7.00000000
3.16987586 -4.95088339 0.93109792 9 9 14737 5.95200000 1206645240 1206645240 9.00000000
3.18019414 -4.96890879 -0.51613629 15 10 14738 5.92200000 1206645243 1206645243 -5.00000000
3.16140175 -4.94144583 1.14027452 24 11 14739 5.97600000 1206645245 1206645245 11.00000000
3.18299985 -4.97711802 -0.30961952 12 12 14740 5.91600000 1206645247 1206645247 -3.00000000
3.15940952 -4.94213104 1.35420537 10 13 14741 6.02000000 1206645250 1206645250 13.00000000
3.17114449 -4.96239614 -0.10279468 9 14 14742 5.89000000 1206645252 1206645252 -1.00000000
3.15301919 -4.93403244 1.56896102 9 15 14742 6.06200000 1206645254 1206645254 15.00000000
1.15838921 -1.81830680 -0.57768410 8 0 14750 2.23200000 1206645275 1206645275 -15.00000000
3.15260434 -4.95050430 0.10244562 11 1 14751 5.87000000 1206645277 1206645277 1.00000000
1.29031420 -2.02694869 -0.55472928 4 2 14752 2.46600000 1206645279 1206645279 -13.00000000
3.16740990 -4.97758722 0.30920082 9 3 14753 5.90800000 1206645282 1206645282 3.00000000
1.50298786 -2.36194658 -0.54418725 3 4 14753 2.85200000 1206645284 1206645284 -11.00000000
3.15561247 -4.96095896 0.51439321 12 5 14754 5.90200000 1206645286 1206645286 5.00000000
1.84107208 -2.89547729 -0.54345334 1 6 14755 3.47400000 1206645289 1206645289 -9.00000000
3.14765382 -4.95226336 0.72049153 10 7 14756 5.91200000 1206645291 1206645291 7.00000000
2.39415741 -3.76822591 -0.54816830 4 8 14757 4.49800000 1206645293 1206645293 -7.00000000
3.14959049 -4.95913363 0.93047220 16 9 14758 5.94800000 1206645296 1206645296 9.00000000
3.15428472 -4.96652460 -0.51474184 15 10 14758 5.90600000 1206645298 1206645298 -5.00000000
3.13255882 -4.93421936 1.13607681 45 11 14759 5.95400000 1206645300 1206645300 11.00000000
3.15597534 -4.97302151 -0.30867746 12 12 14760 5.89800000 1206645302 1206645302 -3.00000000
3.13587546 -4.94325590 1.35150588 10 13 14761 6.00800000 1206645305 1206645305 13.00000000
3.14844871 -4.96499157 -0.10262015 9 14 14762 5.88000000 1206645307 1206645307 -1.00000000
3.13491392 -4.94555569 1.56896102 9 15 14763 6.06200000 1206645309 1206645309 15.00000000
1.11384034 -1.76192117 -0.55853152 4 0 14770 2.15800000 1206645330 1206645330 -15.00000000
3.13423634 -4.95978832 0.10241072 11 1 14771 5.86800000 1206645332 1206645332 1.00000000
1.28531241 -2.03473544 -0.55562907 4 2 14772 2.47000000 1206645335 1206645335 -13.00000000
3.13295388 -4.96159267 0.30752608 9 3 14773 5.87600000 1206645337 1206645337 3.00000000
1.45595062 -2.30575824 -0.53006738 12 4 14773 2.77800000 1206645339 1206645339 -11.00000000
3.13295889 -4.96351957 0.51352161 12 5 14774 5.89200000 1206645342 1206645342 5.00000000
1.83200788 -2.90355682 -0.54376620 1 6 14775 3.47600000 1206645344 1206645344 -9.00000000
3.11975813 -4.94643021 0.71805418 10 7 14776 5.89200000 1206645346 1206645346 7.00000000
2.37781310 -3.77152228 -0.54743707 4 8 14777 4.49200000 1206645349 1206645349 -7.00000000
3.12153959 -4.95116949 0.92703062 19 9 14777 5.92600000 1206645351 1206645351 9.00000000
3.13055539 -4.96739149 -0.51369596 15 10 14778 5.89400000 1206645353 1206645353 -5.00000000
3.11113048 -4.93847942 1.13455033 60 11 14779 5.94600000 1206645355 1206645355 11.00000000
3.12582564 -4.96372652 -0.30742142 12 12 14780 5.87400000 1206645358 1206645358 -3.00000000
3.10821986 -4.93768024 1.34700692 8 13 14781 5.98800000 1206645360 1206645360 13.00000000
3.12896848 -4.97256613 -0.10255034 9 14 14782 5.87600000 1206645362 1206645362 -1.00000000
3.10409236 -4.93303299 1.56171417 9 15 14782 6.03400000 1206645365 1206645365 15.00000000
1.09639084 -1.74779677 -0.55283749 4 0 14790 2.13600000 1206645385 1206645385 -15.00000000
3.11159277 -4.96222734 0.10223620 11 1 14791 5.85800000 1206645388 1206645388 1.00000000
1.27509713 -2.03425598 -0.55427939 4 2 14792 2.46400000 1206645390 1206645390 -13.00000000
3.10925293 -4.96234369 0.30689806 9 3 14793 5.86400000 1206645392 1206645392 3.00000000
1.45414746 -2.32080817 -0.53235710 10 4 14793 2.79000000 1206645395 1206645395 -11.00000000
3.10926843 -4.96429443 0.51247579 12 5 14794 5.88000000 1206645397 1206645397 5.00000000
1.83339214 -2.92835116 -0.54720777 1 6 14795 3.49800000 1206645399 1206645399 -9.00000000
3.10036659 -4.95392466 0.71756667 10 7 14796 5.88800000 1206645402 1206645402 7.00000000
2.36042237 -3.77306795 -0.54646212 4 8 14797 4.48400000 1206645404 1206645404 -7.00000000
3.09185052 -4.94415426 0.92358911 9 9 14798 5.90400000 1206645406 1206645406 9.00000000
3.10897112 -4.97153139 -0.51299870 15 10 14798 5.88600000 1206645408 1206645408 -5.00000000
3.08762908 -4.93932056 1.13226056 60 11 14799 5.93400000 1206645411 1206645411 11.00000000
3.10530472 -4.96952629 -0.30710739 12 12 14800 5.86800000 1206645413 1206645413 -3.00000000
3.07754421 -4.92701340 1.34115815 9 13 14801 5.96200000 1206645415 1206645415 13.00000000
3.10417843 -4.97158480 -0.10230601 9 14 14802 5.86200000 1206645418 1206645418 -1.00000000
3.08496833 -4.94273806 1.56119645 9 15 14803 6.03200000 1206645420 1206645420 15.00000000
1.09130406 -1.75325334 -0.55335510 4 0 14810 2.13800000 1206645441 1206645441 -15.00000000
3.09002662 -4.96626711 0.10209658 11 1 14811 5.85000000 1206645443 1206645443 1.00000000
1.27828062 -2.05524254 -0.55877841 7 2 14812 2.48400000 1206645445 1206645445 -13.00000000
3.08136678 -4.95620537 0.30585134 9 3 14813 5.84400000 1206645448 1206645448 3.00000000
1.49372041 -2.40256548 -0.54991150 5 4 14813 2.88200000 1206645450 1206645450 -11.00000000
3.08245587 -4.95988750 0.51090693 12 5 14814 5.86200000 1206645452 1206645452 5.00000000
1.81586230 -2.92298746 -0.54501766 1 6 14815 3.48400000 1206645455 1206645455 -9.00000000
3.08096075 -4.96134377 0.71707922 10 7 14816 5.88400000 1206645457 1206645457 7.00000000
2.35037827 -3.78634405 -0.54719335 4 8 14817 4.49000000 1206645459 1206645459 -7.00000000
3.07022905 -4.94598818 0.92202473 9 9 14817 5.89400000 1206645461 1206645461 9.00000000
3.08319449 -4.96881008 -0.51160419 15 10 14818 5.87000000 1206645464 1206645464 -5.00000000
3.08162403 -4.97015095 -0.30647936 9 12 14820 5.85600000 1206645468 1206645468 -3.00000000
3.05314064 -4.92613125 1.33800888 8 13 14821 5.94800000 1206645471 1206645471 13.00000000
3.07627392 -4.96539116 -0.10195696 9 14 14822 5.84200000 1206645473 1206645473 -1.00000000
3.05635142 -4.93323421 1.55498481 9 15 14822 6.00800000 1206645475 1206645475 15.00000000
1.08010185 -1.74883389 -0.55076694 4 0 14830 2.12800000 1206645496 1206645496 -15.00000000
3.06111693 -4.95830631 0.10171262 11 1 14831 5.82800000 1206645498 1206645498 1.00000000
1.28133297 -2.07627559 -0.56327742 5 2 14832 2.50400000 1206645501 1206645501 -13.00000000
3.06299901 -4.96523094 0.30574664 9 3 14833 5.84200000 1206645503 1206645503 3.00000000
1.49975550 -2.43115735 -0.55525416 10 4 14833 2.91000000 1206645505 1206645505 -11.00000000
3.04734588 -4.94178724 0.50794369 12 5 14834 5.82800000 1206645508 1206645508 5.00000000
1.80253851 -2.92426348 -0.54407907 1 6 14835 3.47800000 1206645510 1206645510 -9.00000000
3.06154108 -4.96868801 0.71659172 10 7 14836 5.88000000 1206645512 1206645512 7.00000000
2.34235239 -3.80297637 -0.54841202 4 8 14837 4.50000000 1206645514 1206645514 -7.00000000
3.04690218 -4.94879723 0.92046040 9 9 14838 5.88400000 1206645517 1206645517 9.00000000
3.05538559 -4.96257591 -0.50986111 15 10 14838 5.85000000 1206645519 1206645519 -5.00000000
3.04483891 -4.94738007 1.12920761 9 11 14839 5.91800000 1206645521 1206645521 11.00000000
3.06425619 -4.98087740 -0.30647936 12 12 14840 5.85600000 1206645524 1206645524 -3.00000000
3.03490567 -4.93509865 1.33755898 8 13 14841 5.94600000 1206645526 1206645526 13.00000000
3.05578089 -4.97098827 -0.10185225 9 14 14842 5.83600000 1206645528 1206645528 -1.00000000
3.02914715 -4.92958975 1.55032611 8 15 14843 5.99000000 1206645531 1206645531 15.00000000
1.07701886 -1.75753498 -0.55231982 4 0 14850 2.13400000 1206645551 1206645551 -15.00000000
3.03856802 -4.96043539 0.10153810 11 1 14851 5.81800000 1206645554 1206645554 1.00000000
1.24965441 -2.04084945 -0.55247980 4 2 14852 2.45600000 1206645556 1206645556 -13.00000000
3.03939247 -4.96567202 0.30511862 9 3 14853 5.83000000 1206645558 1206645558 3.00000000
1.48203576 -2.42130733 -0.55181962 11 4 14853 2.89200000 1206645561 1206645561 -11.00000000
3.02175856 -4.93879795 0.50654918 12 5 14854 5.81200000 1206645563 1206645563 5.00000000
1.75521612 -2.86987090 -0.53281581 4 6 14855 3.40600000 1206645565 1206645565 -9.00000000
3.03382421 -4.96240807 0.71415436 10 7 14856 5.86000000 1206645567 1206645567 7.00000000
2.32492280 -3.80435419 -0.54743707 4 8 14857 4.49200000 1206645570 1206645570 -7.00000000
3.02635431 -4.95213175 0.91920894 9 9 14857 5.87600000 1206645572 1206645572 9.00000000
3.03804421 -4.97321129 -0.50986111 15 10 14858 5.85000000 1206645574 1206645574 -5.00000000
3.01527286 -4.93787193 1.12462819 12 11 14859 5.89400000 1206645577 1206645577 11.00000000
3.03540468 -4.97279119 -0.30532798 12 12 14860 5.83400000 1206645579 1206645579 -3.00000000
3.01055551 -4.93401766 1.33440971 8 13 14861 5.93200000 1206645581 1206645581 13.00000000
3.02903891 -4.96625996 -0.10153810 9 14 14862 5.81800000 1206645584 1206645584 -1.00000000
3.00674772 -4.92971230 1.54722023 8 15 14862 5.97800000 1206645586 1206645586 15.00000000
1.07188094 -1.76293445 -0.55283749 4 0 14870 2.13600000 1206645607 1206645607 -15.00000000
3.01084852 -4.95392323 0.10118905 11 1 14871 5.79800000 1206645609 1206645609 1.00000000
1.23645186 -2.03520608 -0.54978037 3 2 14872 2.44400000 1206645611 1206645611 -13.00000000
3.01167321 -4.95917988 0.30407190 9 3 14873 5.81000000 1206645614 1206645614 3.00000000
1.47255564 -2.42478776 -0.55143797 3 4 14873 2.89000000 1206645616 1206645616 -11.00000000
3.00553465 -4.95101881 0.50672346 9 5 14874 5.81400000 1206645618 1206645618 5.00000000
1.71956837 -2.83376098 -0.52499408 11 6 14875 3.35600000 1206645620 1206645620 -9.00000000
3.00207043 -4.94920635 0.71074200 10 7 14876 5.83200000 1206645623 1206645623 7.00000000
2.31471658 -3.81753874 -0.54816830 2 8 14877 4.49800000 1206645625 1206645625 -7.00000000
2.99880791 -4.94577456 0.91608024 9 9 14877 5.85600000 1206645627 1206645627 9.00000000
3.01446986 -4.97356224 -0.50881523 14 10 14878 5.83800000 1206645630 1206645630 -5.00000000
2.99089694 -4.93661308 1.12195694 12 11 14879 5.88000000 1206645632 1206645632 11.00000000
3.00664687 -4.96456385 -0.30417657 9 12 14880 5.81200000 1206645634 1206645634 -3.00000000
2.98423123 -4.92949295 1.33036053 8 13 14881 5.91400000 1206645637 1206645637 13.00000000
3.01272035 -4.97851372 -0.10157301 9 14 14882 5.82000000 1206645639 1206645639 -1.00000000
2.98252034 -4.92860794 1.54359674 8 15 14882 5.96400000 1206645641 1206645641 15.00000000
1.06702709 -1.76813328 -0.55335510 4 0 14889 2.13800000 1206645662 1206645662 -15.00000000
2.99853563 -4.97072935 0.10132867 11 1 14890 5.80600000 1206645664 1206645664 1.00000000
1.23170877 -2.04263282 -0.55068016 3 2 14891 2.44800000 1206645667 1206645667 -13.00000000
2.99108720 -4.96229744 0.30365321 9 3 14892 5.80200000 1206645669 1206645669 3.00000000
1.45031774 -2.40611768 -0.54609537 3 4 14892 2.86200000 1206645671 1206645671 -11.00000000
2.98395872 -4.95242596 0.50585192 12 5 14893 5.80400000 1206645673 1206645673 5.00000000
1.74787104 -2.90205765 -0.53657019 7 6 14894 3.43000000 1206645676 1206645676 -9.00000000
2.98359394 -4.95573282 0.71025455 10 7 14895 5.82800000 1206645678 1206645678 7.00000000
2.29283214 -3.80988622 -0.54597467 2 8 14896 4.48000000 1206645680 1206645680 -7.00000000
2.97541595 -4.94605589 0.91420299 9 9 14897 5.84400000 1206645683 1206645683 9.00000000
2.99487925 -4.97840977 -0.50829232 14 10 14897 5.83200000 1206645685 1206645685 -5.00000000
2.97653341 -4.94986916 1.12272012 12 11 14898 5.88400000 1206645687 1206645687 11.00000000
2.98708034 -4.96937180 -0.30386257 12 12 14899 5.80600000 1206645690 1206645690 -3.00000000
2.96084237 -4.92766905 1.32721126 8 13 14900 5.90000000 1206645692 1206645692 13.00000000
2.97766137 -4.95762014 -0.10094472 9 14 14901 5.78400000 1206645694 1206645694 -1.00000000
2.96616006 -4.93847132 1.54359674 8 15 14901 5.96400000 1206645696 1206645696 15.00000000
1.05985630 -1.77018964 -0.55283749 4 0 14909 2.13600000 1206645717 1206645717 -15.00000000
2.97192407 -4.96572304 0.10101453 11 1 14910 5.78800000 1206645720 1206645720 1.00000000
1.22857296 -2.05360913 -0.55247980 3 2 14911 2.45600000 1206645722 1206645722 -13.00000000
2.96452165 -4.95728064 0.30271116 9 3 14912 5.78400000 1206645724 1206645724 3.00000000
1.44594049 -2.41790533 -0.54762185 2 4 14912 2.87000000 1206645726 1206645726 -11.00000000
2.96358633 -4.95768118 0.50532901 12 5 14913 5.79800000 1206645729 1206645729 5.00000000
1.76610148 -2.95562124 -0.54533052 3 6 14914 3.48600000 1206645731 1206645731 -9.00000000
2.96831298 -4.96952581 0.71074200 10 7 14915 5.83200000 1206645733 1206645733 7.00000000
2.27544856 -3.81104875 -0.54499972 2 8 14916 4.47200000 1206645736 1206645736 -7.00000000
2.94699693 -4.93775320 0.91076148 9 9 14917 5.82200000 1206645738 1206645738 9.00000000
2.96522999 -4.96830320 -0.50620055 14 10 14917 5.80800000 1206645740 1206645740 -5.00000000
2.95119023 -4.94674110 1.11966717 12 11 14918 5.86800000 1206645743 1206645743 11.00000000
2.96562386 -4.97290659 -0.30344388 12 12 14919 5.79800000 1206645745 1206645745 -3.00000000
2.93863440 -4.92960501 1.32496166 8 13 14920 5.89000000 1206645747 1206645747 13.00000000
2.94907784 -4.94908810 -0.10056077 9 14 14921 5.76200000 1206645749 1206645749 -1.00000000
2.93617630 -4.92939281 1.53738511 8 15 14922 5.94000000 1206645752 1206645752 15.00000000
1.05107951 -1.77092361 -0.55180222 4 0 14931 2.13200000 1206645773 1206645773 -15.00000000
2.93957090 -4.95474052 0.10056077 10 1 14932 5.76200000 1206645775 1206645775 1.00000000
1.21869051 -2.05495906 -0.55158001 3 2 14933 2.45200000 1206645777 1206645777 -13.00000000
2.94240975 -4.96347284 0.30239716 9 3 14934 5.77800000 1206645779 1206645779 3.00000000
1.43664575 -2.42343950 -0.54762185 3 4 14934 2.87000000 1206645782 1206645782 -11.00000000
2.92929292 -4.94331312 0.50271434 12 5 14935 5.76800000 1206645784 1206645784 5.00000000
1.75675309 -2.96577978 -0.54595625 3 6 14936 3.49000000 1206645786 1206645786 -9.00000000
2.94111824 -4.96722174 0.70879209 10 7 14937 5.81600000 1206645789 1206645789 7.00000000
2.26787615 -3.83171582 -0.54670590 4 8 14938 4.48600000 1206645791 1206645791 -7.00000000
2.92600393 -4.94563198 0.91013575 9 9 14939 5.81800000 1206645793 1206645793 9.00000000
2.93700075 -4.96421957 -0.50463176 14 10 14939 5.79000000 1206645796 1206645796 -5.00000000
2.92817688 -4.95127678 1.11814070 12 11 14940 5.86000000 1206645798 1206645798 11.00000000
2.94447470 -4.98081875 -0.30323452 12 12 14941 5.79400000 1206645800 1206645800 -3.00000000
2.91968441 -4.94085217 1.32496166 8 13 14942 5.89000000 1206645802 1206645802 13.00000000
2.92293382 -4.94832277 -0.10031644 9 14 14943 5.74800000 1206645805 1206645805 -1.00000000
2.90826416 -4.92348814 1.53220880 8 15 14943 5.92000000 1206645807 1206645807 15.00000000
1.04685175 -1.77791119 -0.55283749 4 0 14951 2.13600000 1206645828 1206645828 -15.00000000
2.91211462 -4.94773817 0.10021172 10 1 14952 5.74200000 1206645830 1206645830 1.00000000
1.20755732 -2.05248213 -0.54978037 3 2 14953 2.44400000 1206645832 1206645832 -13.00000000
2.92607856 -4.97543526 0.30250183 9 3 14954 5.78000000 1206645835 1206645835 3.00000000
1.42817760 -2.42843962 -0.54762185 3 4 14954 2.87000000 1206645837 1206645837 -11.00000000
2.91101003 -4.95179081 0.50253999 12 5 14955 5.76600000 1206645839 1206645839 5.00000000
1.74538910 -2.97019100 -0.54564339 7 6 14956 3.48800000 1206645842 1206645842 -9.00000000
2.91571832 -4.96376467 0.70684218 10 7 14957 5.80000000 1206645844 1206645844 7.00000000
2.25649738 -3.84303260 -0.54719335 2 8 14958 4.49000000 1206645846 1206645846 -7.00000000
2.90272331 -4.94559383 0.90825850 9 9 14959 5.80600000 1206645849 1206645849 9.00000000
2.91965437 -4.97444105 -0.50463176 14 10 14959 5.79000000 1206645851 1206645851 -5.00000000
2.89597368 -4.93606758 1.11241639 12 11 14960 5.83000000 1206645853 1206645853 11.00000000
2.91090441 -4.96350098 -0.30155978 12 12 14961 5.76200000 1206645855 1206645855 -3.00000000
2.89749217 -4.94260788 1.32271218 8 13 14962 5.88000000 1206645858 1206645858 13.00000000
2.90362120 -4.95504475 -0.10024662 9 14 14963 5.74400000 1206645860 1206645860 -1.00000000
2.89301372 -4.93694353 1.53324401 8 15 14963 5.92400000 1206645862 1206645862 15.00000000
1.04321110 -1.78452671 -0.55387276 4 0 14969 2.14000000 1206645883 1206645883 -15.00000000
2.88848519 -4.94304991 0.09993248 10 1 14970 5.72600000 1206645885 1206645885 1.00000000
1.19717169 -2.04953480 -0.54798079 3 2 14971 2.43600000 1206645888 1206645888 -13.00000000
2.89820743 -4.96167564 0.30114108 9 3 14971 5.75400000 1206645890 1206645890 3.00000000
1.41856158 -2.42952347 -0.54685861 3 4 14972 2.86600000 1206645892 1206645892 -11.00000000
2.88740468 -4.94714546 0.50114554 12 5 14973 5.75000000 1206645895 1206645895 5.00000000
1.73505402 -2.97395325 -0.54533052 3 6 14974 3.48600000 1206645897 1206645897 -9.00000000
2.88810921 -4.95232296 0.70391732 10 7 14975 5.77600000 1206645899 1206645899 7.00000000
2.23441553 -3.83295298 -0.54475594 2 8 14976 4.47000000 1206645901 1206645901 -7.00000000
2.88704181 -4.95247841 0.90794563 9 9 14976 5.80400000 1206645904 1206645904 9.00000000
2.89899683 -4.97498178 -0.50376022 14 10 14977 5.78000000 1206645906 1206645906 -5.00000000
2.87155914 -4.92987347 1.10898185 12 11 14978 5.81200000 1206645908 1206645908 11.00000000
2.88725710 -4.95881319 -0.30072239 12 12 14979 5.74600000 1206645911 1206645911 -3.00000000
2.87410808 -4.93821239 1.31911302 8 13 14980 5.86400000 1206645913 1206645913 13.00000000
2.88602901 -4.96068573 -0.10017681 9 14 14981 5.74000000 1206645915 1206645915 -1.00000000
2.86971784 -4.93264914 1.52910292 8 15 14981 5.90800000 1206645918 1206645918 15.00000000
1.03503728 -1.78481495 -0.55283749 4 0 14989 2.13600000 1206645938 1206645938 -15.00000000
2.87021017 -4.95137262 0.09989757 7 1 14990 5.72400000 1206645941 1206645941 1.00000000
1.19001019 -2.05370116 -0.54798079 3 2 14991 2.43600000 1206645943 1206645943 -13.00000000
2.86899114 -4.95325375 0.29998970 4 3 14992 5.73200000 1206645945 1206645945 3.00000000
1.41204023 -2.43785810 -0.54762185 3 4 14992 2.87000000 1206645948 1206645948 -11.00000000
2.86113358 -4.94167614 0.49957672 12 5 14993 5.73200000 1206645950 1206645950 5.00000000
1.70982015 -2.95434618 -0.54063749 1 6 14994 3.45600000 1206645952 1206645952 -9.00000000
2.86285257 -4.94862795 0.70196742 10 7 14995 5.76000000 1206645954 1206645954 7.00000000
2.21903515 -3.83729219 -0.54426849 2 8 14996 4.46600000 1206645957 1206645957 -7.00000000
2.85404181 -4.93737316 0.90325260 9 9 14997 5.77400000 1206645959 1206645959 9.00000000
2.86865091 -4.96264648 -0.50149417 14 10 14997 5.75400000 1206645961 1206645961 -5.00000000
2.85040426 -4.93306732 1.10745537 12 11 14998 5.80400000 1206645964 1206645964 11.00000000
2.86093950 -4.95329571 -0.29978037 9 12 14999 5.72800000 1206645966 1206645966 -3.00000000
2.84710932 -4.93133783 1.31461394 8 13 15000 5.84400000 1206645968 1206645968 13.00000000
2.85170317 -4.94128609 -0.09958343 6 14 15001 5.70600000 1206645971 1206645971 -1.00000000
2.84968901 -4.93978739 1.52806759 8 15 15002 5.90400000 1206645973 1206645973 15.00000000
1.02432561 -1.78207660 -0.55076694 4 0 15011 2.12800000 1206645994 1206645994 -15.00000000
2.84619617 -4.95368719 0.09972305 23 1 15012 5.71400000 1206645996 1206645996 1.00000000
1.18793893 -2.06839466 -0.55068016 3 2 15013 2.44800000 1206645998 1206645998 -13.00000000
2.83888078 -4.94295216 0.29873365 28 3 15013 5.70800000 1206646001 1206646001 3.00000000
1.39484942 -2.42964101 -0.54456890 3 4 15014 2.85400000 1206646003 1206646003 -11.00000000
2.84114623 -4.95089769 0.49940240 24 5 15015 5.73000000 1206646005 1206646005 5.00000000
1.71713901 -2.99344587 -0.54658204 1 6 15016 3.49400000 1206646007 1206646007 -9.00000000
2.84185529 -4.95613956 0.70147991 10 7 15017 5.75600000 1206646010 1206646010 7.00000000
2.19934893 -3.83717322 -0.54304981 4 8 15018 4.45600000 1206646012 1206646012 -7.00000000
2.83408070 -4.94658184 0.90293974 9 9 15019 5.77200000 1206646014 1206646014 9.00000000
2.84462237 -4.96498108 -0.50062257 14 10 15019 5.74400000 1206646017 1206646017 -5.00000000
2.83144164 -4.94397593 1.10745537 12 11 15020 5.80400000 1206646019 1206646019 11.00000000
2.82999182 -4.94344473 -0.29852429 18 12 15021 5.70400000 1206646021 1206646021 -3.00000000
2.82524967 -4.93715954 1.31326425 38 13 15022 5.83800000 1206646024 1206646024 13.00000000
2.82973027 -4.94699192 -0.09947871 27 14 15023 5.70000000 1206646026 1206646026 -1.00000000
2.83444214 -4.95522928 1.52962053 40 15 15023 5.91000000 1206646028 1206646028 15.00000000
1.01235759 -1.77557182 -0.54766113 4 0 15031 2.11600000 1206646049 1206646049 -15.00000000
2.81700540 -4.94274426 0.09930419 13 1 15032 5.69000000 1206646051 1206646051 1.00000000
1.18264091 -2.07591510 -0.55158001 3 2 15033 2.45200000 1206646053 1206646053 -13.00000000
2.83198261 -4.97305775 -1.11241639 5 4 15034 5.83000000 1206646058 1206646058 -11.00000000
2.83599901 -4.98415613 -0.90825850 4 6 15036 5.80600000 1206646063 1206646063 -9.00000000
2.81864929 -4.95567656 0.70001751 10 7 15037 5.74400000 1206646065 1206646065 7.00000000
2.18790340 -3.84827828 -0.54353726 4 8 15038 4.46000000 1206646067 1206646067 -7.00000000
2.81191659 -4.94785738 0.90137541 23 9 15039 5.76200000 1206646070 1206646070 9.00000000
2.81644535 -4.95582628 -0.49870515 14 10 15039 5.72200000 1206646072 1206646072 -5.00000000
2.81804562 -4.96065760 1.10898185 42 11 15040 5.81200000 1206646074 1206646074 11.00000000
2.81666374 -4.96024036 -0.29894298 24 12 15041 5.71200000 1206646077 1206646077 -3.00000000
2.81858039 -4.96563387 1.31821322 40 13 15042 5.86000000 1206646079 1206646079 13.00000000
2.82284784 -4.97517490 1.53272641 38 15 15043 5.92200000 1206646083 1206646083 15.00000000
1.01217175 -1.78900754 -0.55076694 4 0 15050 2.12800000 1206646104 1206646104 -15.00000000
2.78484869 -4.92420864 0.09874572 5 1 15051 5.65800000 1206646106 1206646106 1.00000000
1.17383242 -2.07643270 -0.55068016 3 2 15052 2.44800000 1206646109 1206646109 -13.00000000
2.80037332 -4.95569563 0.29831496 7 3 15053 5.70000000 1206646111 1206646111 3.00000000
1.38021088 -2.44249773 -0.54533213 3 4 15053 2.85800000 1206646113 1206646113 -11.00000000
2.79758191 -4.95277405 0.49765930 9 5 15054 5.71000000 1206646116 1206646116 5.00000000
1.68215525 -2.97926259 -0.54188901 1 6 15055 3.46400000 1206646118 1206646118 -9.00000000
2.81293273 -4.98401260 0.70269865 7 7 15056 5.76600000 1206646120 1206646120 7.00000000
2.17805624 -3.86069918 -0.54426849 2 8 15057 4.46600000 1206646123 1206646123 -7.00000000
2.80897665 -4.97903299 0.90544266 38 9 15057 5.78800000 1206646125 1206646125 9.00000000
2.79803824 -4.96166754 -0.49835655 14 10 15058 5.71800000 1206646127 1206646127 -5.00000000
2.80736446 -4.98023653 1.11127162 39 11 15059 5.82400000 1206646130 1206646130 11.00000000
2.82505059 -5.01570368 1.32901084 41 13 15061 5.90800000 1206646134 1206646134 13.00000000
2.78225708 -4.94174337 -0.09899005 6 14 15062 5.67200000 1206646136 1206646136 -1.00000000
2.82441354 -5.01866913 1.54307914 38 15 15063 5.96200000 1206646139 1206646139 15.00000000
1.00592077 -1.79252982 -0.55076694 4 0 15070 2.12800000 1206646159 1206646159 -15.00000000
2.76764321 -4.93389940 0.09874572 5 1 15071 5.65800000 1206646162 1206646162 1.00000000
1.16085863 -2.07031894 -0.54798079 3 2 15072 2.43600000 1206646164 1206646164 -13.00000000
2.81322861 -5.01721716 0.30145511 2 3 15072 5.76000000 1206646166 1206646166 3.00000000
1.37167656 -2.44730067 -0.54533213 3 4 15073 2.85800000 1206646169 1206646169 -11.00000000
2.79488397 -4.98858213 0.50027394 3 5 15074 5.74000000 1206646171 1206646171 5.00000000
