# .PCD v0.7 - Point Cloud Data file format
VERSION 0.7
FIELDS x y z intensity laser_id azimuth distance_m adjustedtime timestamp vertical_angle
SIZE 4 4 4 1 1 2 8 8 4 8
TYPE F F F U U U F U U F
COUNT 1 1 1 1 1 1 1 1 1 1
WIDTH 524
HEIGHT 1
VIEWPOINT 0 0 0 1 0 0 0
POINTS 524
DATA ascii
1.37873411 -3.09668732 -0.53688306 3 6 15600 3.43200000 1207047568 1207047568 -9.00000000
2.46228242 -5.53557634 -0.74389046 9 8 15602 6.10400000 1207047572 1207047572 -7.00000000
2.54887819 -5.73295069 -0.54890686 11 10 15603 6.29800000 1207047577 1207047577 -5.00000000
2.45418835 -5.52516842 -0.31684187 35 12 15605 6.05400000 1207047581 1207047581 -3.00000000
4.31359196 -9.71585560 2.45421600 48 13 15606 10.91000000 1207047584 1207047584 13.00000000
2.44713974 -5.51448774 -0.10530782 38 14 15607 6.03400000 1207047586 1207047586 -1.00000000
3.47055602 -7.82069683 2.29261899 33 15 15607 8.85800000 1207047588 1207047588 15.00000000
0.82721865 -1.87113154 -0.54817873 4 0 15615 2.11800000 1207047609 1207047609 -15.00000000
0.95425415 -2.16051912 -0.54528135 3 2 15617 2.42400000 1207047614 1207047614 -13.00000000
1.12669528 -2.55214715 -0.54227918 3 4 15618 2.84200000 1207047618 1207047618 -11.00000000
1.37110484 -3.10871077 -0.53813457 3 6 15620 3.44000000 1207047623 1207047623 -9.00000000
2.43894243 -5.53505516 -0.74267179 9 8 15622 6.09400000 1207047627 1207047627 -7.00000000
2.53366923 -5.75275326 -0.54995275 7 10 15623 6.31000000 1207047632 1207047632 -5.00000000
2.43327808 -5.53004551 -0.31663254 35 12 15625 6.05000000 1207047637 1207047637 -3.00000000
4.16981602 -9.48111534 2.39122963 59 13 15626 10.63000000 1207047639 1207047639 13.00000000
2.43270397 -5.53397989 -0.10551725 33 14 15627 6.04600000 1207047641 1207047641 -1.00000000
3.44653130 -7.84397650 2.29572487 31 15 15628 8.87000000 1207047644 1207047644 15.00000000
0.82255971 -1.87740338 -0.54921401 4 0 15634 2.12200000 1207047664 1207047664 -15.00000000
0.94552147 -2.16010141 -0.54438156 3 2 15636 2.42000000 1207047669 1207047669 -13.00000000
1.11665201 -2.55227208 -0.54151595 3 4 15637 2.83800000 1207047674 1207047674 -11.00000000
1.35683262 -3.10419035 -0.53657019 1 6 15639 3.43000000 1207047678 1207047678 -9.00000000
2.41739655 -5.53583574 -0.74169683 9 8 15641 6.08600000 1207047683 1207047683 -7.00000000
2.51139045 -5.75381947 -0.54925549 7 10 15642 6.30200000 1207047687 1207047687 -5.00000000
2.41173315 -5.53076077 -0.31621385 35 12 15644 6.04200000 1207047692 1207047692 -3.00000000
4.26293135 -9.78072071 2.46321416 53 13 15645 10.95000000 1207047694 1207047694 13.00000000
2.40874863 -5.52918339 -0.10527292 33 14 15646 6.03200000 1207047697 1207047697 -1.00000000
3.42495799 -7.86184978 2.29779553 31 15 15646 8.87800000 1207047699 1207047699 15.00000000
0.81292498 -1.87317455 -0.54714346 4 0 15654 2.11400000 1207047720 1207047720 -15.00000000
0.94107634 -2.17054033 -0.54618114 3 2 15656 2.42800000 1207047724 1207047724 -13.00000000
1.10305226 -2.54534602 -0.53922623 3 4 15657 2.82600000 1207047729 1207047729 -11.00000000
1.34912813 -3.11615872 -0.53782171 1 6 15659 3.43800000 1207047733 1207047733 -9.00000000
2.39411783 -5.53513050 -0.74047816 9 8 15661 6.07600000 1207047738 1207047738 -7.00000000
2.48180294 -5.74060535 -0.54716372 7 10 15662 6.27800000 1207047743 1207047743 -5.00000000
2.39003682 -5.53364515 -0.31589982 35 12 15664 6.03600000 1207047747 1207047747 -3.00000000
4.24266672 -9.82774544 2.47131228 54 13 15665 10.98600000 1207047750 1207047750 13.00000000
2.38309550 -5.52286959 -0.10499368 13 14 15666 6.01600000 1207047752 1207047752 -1.00000000
3.39443254 -7.86666203 2.29572487 33 15 15666 8.87000000 1207047754 1207047754 15.00000000
0.80332989 -1.86890149 -0.54507291 4 0 15674 2.10600000 1207047775 1207047775 -15.00000000
0.93041825 -2.16664958 -0.54438156 3 2 15676 2.42000000 1207047780 1207047780 -13.00000000
1.09880674 -2.56000543 -0.54151595 3 4 15677 2.83800000 1207047784 1207047784 -11.00000000
1.33746397 -3.11903358 -0.53750885 3 6 15679 3.43600000 1207047789 1207047789 -9.00000000
1.72285044 -4.02164984 -0.53720009 2 8 15681 4.40800000 1207047793 1207047793 -7.00000000
2.46018100 -5.74557018 -0.54681516 7 10 15682 6.27400000 1207047798 1207047798 -5.00000000
4.21369886 -9.85503864 2.47446156 50 13 15685 11.00000000 1207047805 1207047805 13.00000000
3.36771131 -7.88023949 2.29624248 31 15 15686 8.87200000 1207047809 1207047809 15.00000000
0.79982805 -1.87880421 -0.54714346 4 0 15694 2.11400000 1207047830 1207047830 -15.00000000
0.92437494 -2.17347074 -0.54528135 3 2 15696 2.42400000 1207047835 1207047835 -13.00000000
1.32579613 -3.12186503 -0.53719598 3 6 15699 3.43400000 1207047844 1207047844 -9.00000000
1.72430813 -4.06418753 -0.54207486 2 8 15701 4.44800000 1207047849 1207047849 -7.00000000
2.43699884 -5.74678612 -0.54611790 7 10 15702 6.26600000 1207047853 1207047853 -5.00000000
3.87839770 -9.15469646 -0.52105677 8 12 15704 9.95600000 1207047858 1207047858 -3.00000000
4.19522953 -9.90737152 2.48390961 47 13 15705 11.04200000 1207047860 1207047860 13.00000000
3.33805346 -7.89075089 2.29572487 33 15 15707 8.87000000 1207047865 1207047865 15.00000000
0.79209173 -1.87788618 -0.54610819 4 0 15713 2.11000000 1207047886 1207047886 -15.00000000
0.91640562 -2.17472839 -0.54483145 4 2 15715 2.42200000 1207047890 1207047890 -13.00000000
1.31467032 -3.12442350 -0.53688306 1 6 15718 3.43200000 1207047899 1207047899 -9.00000000
1.69389772 -4.02962351 -0.53671259 2 8 15720 4.40400000 1207047904 1207047904 -7.00000000
2.41638494 -5.75116205 -0.54576927 7 10 15721 6.26200000 1207047909 1207047909 -5.00000000
3.83410406 -9.13435841 -0.51917267 4 12 15723 9.92000000 1207047913 1207047913 -3.00000000
4.16763020 -9.93380737 2.48705888 46 13 15724 11.05600000 1207047915 1207047915 13.00000000
3.31772995 -7.91188765 2.29883075 31 15 15725 8.88200000 1207047920 1207047920 15.00000000
0.78851020 -1.88777006 -0.54817873 4 0 15733 2.11800000 1207047941 1207047941 -15.00000000
0.90655744 -2.17251873 -0.54348177 3 2 15735 2.41600000 1207047945 1207047945 -13.00000000
1.30147672 -3.12352324 -0.53594446 1 6 15738 3.42600000 1207047955 1207047955 -9.00000000
1.68134713 -4.03917694 -0.53720009 2 8 15740 4.40800000 1207047959 1207047959 -7.00000000
2.39476418 -5.75588274 -0.54542065 7 10 15741 6.25800000 1207047964 1207047964 -5.00000000
3.79146385 -9.12186623 -0.51770729 4 12 15743 9.89200000 1207047968 1207047968 -3.00000000
4.14190102 -9.96989059 2.49245763 45 13 15744 11.08000000 1207047971 1207047971 13.00000000
3.29305553 -7.93055725 2.30090141 31 15 15745 8.89000000 1207047975 1207047975 15.00000000
0.77863371 -1.88350618 -0.54610819 4 0 15754 2.11000000 1207047996 1207047996 -15.00000000
0.90379572 -2.18843508 -0.54663104 4 2 15756 2.43000000 1207048001 1207048001 -13.00000000
1.29830348 -3.14836073 -0.53938603 1 6 15759 3.44800000 1207048010 1207048010 -9.00000000
1.66199470 -4.03429985 -0.53573763 2 8 15761 4.39600000 1207048014 1207048014 -7.00000000
2.37592745 -5.77014828 -0.54594356 7 10 15762 6.26400000 1207048019 1207048019 -5.00000000
3.75420618 -9.12646580 -0.51718390 4 12 15764 9.88200000 1207048024 1207048024 -3.00000000
4.11570597 -10.01023674 2.49875641 48 13 15765 11.10800000 1207048026 1207048026 13.00000000
3.26396632 -7.94257355 2.30090141 31 15 15766 8.89000000 1207048031 1207048031 15.00000000
0.77205431 -1.88621259 -0.54610819 4 0 15774 2.11000000 1207048051 1207048051 -15.00000000
0.89836383 -2.19698787 -0.54798079 3 2 15776 2.43600000 1207048056 1207048056 -13.00000000
1.04801917 -2.56425381 -0.53846300 3 4 15777 2.82200000 1207048061 1207048061 -11.00000000
1.27834535 -3.13092756 -0.53563160 3 6 15779 3.42400000 1207048065 1207048065 -9.00000000
1.64490330 -4.03272438 -0.53476268 2 8 15781 4.38800000 1207048070 1207048070 -7.00000000
2.34900188 -5.76180220 -0.54437476 7 10 15782 6.24600000 1207048074 1207048074 -5.00000000
3.72157264 -9.13766575 -0.51707923 4 12 15784 9.88000000 1207048079 1207048079 -3.00000000
4.09322929 -10.05522633 2.50640464 51 13 15785 11.14200000 1207048081 1207048081 13.00000000
3.23556113 -7.95627308 2.30141902 29 15 15787 8.89200000 1207048086 1207048086 15.00000000
0.76434338 -1.88518190 -0.54507291 4 0 15793 2.10600000 1207048107 1207048107 -15.00000000
0.88814712 -2.19272995 -0.54618114 3 2 15795 2.42800000 1207048111 1207048111 -13.00000000
1.25906825 -3.11317420 -0.53187716 1 6 15798 3.40000000 1207048120 1207048120 -9.00000000
1.64044487 -4.06024361 -0.53768754 2 8 15800 4.41200000 1207048125 1207048125 -7.00000000
2.32839012 -5.76586485 -0.54402614 7 10 15801 6.24200000 1207048130 1207048130 -5.00000000
3.68826175 -9.14254761 -0.51666057 8 12 15803 9.87200000 1207048134 1207048134 -3.00000000
4.07225132 -10.09946918 2.51405287 53 13 15804 11.17600000 1207048137 1207048137 13.00000000
3.20910573 -7.96281481 2.30038357 36 15 15805 8.88800000 1207048141 1207048141 15.00000000
0.75775820 -1.88783848 -0.54507291 4 0 15813 2.10600000 1207048162 1207048162 -15.00000000
0.87758648 -2.18858194 -0.54438156 3 2 15815 2.42000000 1207048166 1207048166 -13.00000000
1.03346217 -2.57861733 -0.53998947 3 4 15816 2.83000000 1207048171 1207048171 -11.00000000
1.26361251 -3.15606117 -0.53844744 3 6 15818 3.44200000 1207048176 1207048176 -9.00000000
1.61741555 -4.04382753 -0.53476268 2 8 15820 4.38800000 1207048180 1207048180 -7.00000000
2.30972862 -5.77765751 -0.54437476 7 10 15821 6.24600000 1207048185 1207048185 -5.00000000
3.65484428 -9.15165615 -0.51645124 4 12 15823 9.86800000 1207048190 1207048190 -3.00000000
4.04636431 -10.13715172 2.51990175 55 13 15824 11.20200000 1207048192 1207048192 13.00000000
3.18773341 -7.99011707 2.30504251 33 15 15825 8.90600000 1207048196 1207048196 15.00000000
0.75259054 -1.89406264 -0.54610819 4 0 15833 2.11000000 1207048217 1207048217 -15.00000000
0.86994159 -2.19163179 -0.54438156 3 2 15835 2.42000000 1207048222 1207048222 -13.00000000
1.02300680 -2.57855940 -0.53922623 3 4 15836 2.82600000 1207048226 1207048226 -11.00000000
1.25258803 -3.16045284 -0.53844744 3 6 15838 3.44200000 1207048231 1207048231 -9.00000000
2.28881359 -5.78383207 -0.54420048 7 10 15841 6.24400000 1207048240 1207048240 -5.00000000
3.61406541 -9.14206982 -0.51519513 8 12 15843 9.84400000 1207048245 1207048245 -3.00000000
4.01668310 -10.16571331 2.52350092 56 13 15844 11.21800000 1207048247 1207048247 13.00000000
3.16339183 -8.01432514 2.30866599 36 15 15846 8.92000000 1207048252 1207048252 15.00000000
0.75021696 -1.90746498 -0.54921401 4 0 15853 2.12200000 1207048272 1207048272 -15.00000000
0.86513662 -2.20191026 -0.54618114 3 2 15855 2.42800000 1207048277 1207048277 -13.00000000
1.01256442 -2.57845974 -0.53846300 3 4 15856 2.82200000 1207048282 1207048282 -11.00000000
1.23794138 -3.15561104 -0.53688306 1 6 15858 3.43200000 1207048286 1207048286 -9.00000000
1.58335066 -4.04023457 -0.53281277 2 8 15860 4.37200000 1207048291 1207048291 -7.00000000
2.26207042 -5.77509022 -0.54263163 7 10 15861 6.22600000 1207048296 1207048296 -5.00000000
3.57922053 -9.14719009 -0.51477647 4 12 15863 9.83600000 1207048300 1207048300 -3.00000000
3.99536943 -10.21597004 2.53249907 55 13 15864 11.25800000 1207048302 1207048302 13.00000000
3.13328838 -8.01992130 2.30711293 33 15 15866 8.91400000 1207048307 1207048307 15.00000000
0.73687625 -1.89194095 -0.54403764 4 0 15872 2.10200000 1207048328 1207048328 -15.00000000
0.85641682 -2.20113492 -0.54528135 3 2 15874 2.42400000 1207048332 1207048332 -13.00000000
1.00543153 -2.58546281 -0.53922623 3 4 15875 2.82600000 1207048337 1207048337 -11.00000000
1.22317827 -3.14865112 -0.53500587 1 6 15877 3.42000000 1207048342 1207048342 -9.00000000
1.56276214 -4.02695656 -0.53037536 2 8 15879 4.35200000 1207048346 1207048346 -7.00000000
2.24218655 -5.78070211 -0.54245734 7 10 15880 6.22400000 1207048351 1207048351 -5.00000000
3.54670286 -9.15342140 -0.51446247 8 12 15882 9.83000000 1207048355 1207048355 -3.00000000
3.96850777 -10.24733448 2.53699803 49 13 15883 11.27800000 1207048358 1207048358 13.00000000
3.10597897 -8.02846527 2.30659533 36 15 15885 8.91200000 1207048362 1207048362 15.00000000
0.72887796 -1.89089644 -0.54300237 4 0 15892 2.09800000 1207048383 1207048383 -15.00000000
0.84592712 -2.19683647 -0.54348177 3 2 15894 2.41600000 1207048388 1207048388 -13.00000000
0.99357980 -2.58162785 -0.53769976 3 4 15895 2.81800000 1207048392 1207048392 -11.00000000
1.20721793 -3.13999486 -0.53281581 3 6 15897 3.40600000 1207048397 1207048397 -9.00000000
2.22270846 -5.79035330 -0.54263163 7 10 15900 6.22600000 1207048406 1207048406 -5.00000000
3.50400329 -9.13777351 -0.51289237 8 12 15902 9.80000000 1207048411 1207048411 -3.00000000
3.58819151 -9.36220741 2.31474638 34 13 15903 10.29000000 1207048413 1207048413 13.00000000
3.07793546 -8.03925800 2.30659533 36 15 15905 8.91200000 1207048418 1207048418 15.00000000
0.72535896 -1.90052259 -0.54507291 4 0 15911 2.10600000 1207048438 1207048438 -15.00000000
0.84002596 -2.20327139 -0.54438156 3 2 15913 2.42000000 1207048443 1207048443 -13.00000000
0.98641151 -2.58857751 -0.53846300 3 4 15914 2.82200000 1207048448 1207048448 -11.00000000
1.20312345 -3.16059637 -0.53563160 1 6 15916 3.42400000 1207048452 1207048452 -9.00000000
1.54660463 -4.06718826 -0.53427517 2 8 15918 4.38400000 1207048457 1207048457 -7.00000000
2.19783211 -5.78279305 -0.54123718 3 10 15919 6.21000000 1207048461 1207048461 -5.00000000
3.45454144 -9.09892845 -0.51006621 4 12 15921 9.74600000 1207048466 1207048466 -3.00000000
3.55436015 -9.36676693 2.31294680 48 13 15922 10.28200000 1207048468 1207048468 13.00000000
3.05677462 -8.05972576 2.30970120 36 15 15923 8.92400000 1207048473 1207048473 15.00000000
0.72281575 -1.91388655 -0.54817873 4 0 15931 2.11800000 1207048494 1207048494 -15.00000000
0.83232999 -2.20619035 -0.54438156 3 2 15933 2.42000000 1207048498 1207048498 -13.00000000
0.97321361 -2.58098316 -0.53617328 3 4 15934 2.81000000 1207048503 1207048503 -11.00000000
1.19417250 -3.17032242 -0.53657019 1 6 15936 3.43000000 1207048507 1207048507 -9.00000000
1.53938901 -4.09114122 -0.53671259 2 8 15938 4.40400000 1207048512 1207048512 -7.00000000
2.17623019 -5.78670025 -0.54088855 3 10 15939 6.20600000 1207048517 1207048517 -5.00000000
3.42346168 -9.11280060 -0.51017088 4 12 15941 9.74800000 1207048521 1207048521 -3.00000000
3.51958728 -9.37364388 2.31159711 48 13 15942 10.27600000 1207048524 1207048524 13.00000000
3.03264141 -8.08534622 2.31384230 36 15 15944 8.94000000 1207048528 1207048528 15.00000000
0.71309245 -1.90928388 -0.54610819 4 0 15952 2.11000000 1207048549 1207048549 -15.00000000
0.82423830 -2.20922613 -0.54438156 3 2 15954 2.42000000 1207048554 1207048554 -13.00000000
0.96306139 -2.58269310 -0.53579164 3 4 15955 2.80800000 1207048558 1207048558 -11.00000000
1.18116558 -3.17097569 -0.53594446 1 6 15957 3.42600000 1207048563 1207048563 -9.00000000
1.51053846 -4.05954647 -0.53183782 2 8 15959 4.36400000 1207048567 1207048567 -7.00000000
2.14667249 -5.77222824 -0.53879678 7 10 15960 6.18200000 1207048572 1207048572 -5.00000000
3.38934302 -9.12341499 -0.51006621 8 12 15962 9.74600000 1207048577 1207048577 -3.00000000
3.48724246 -9.39196110 2.31294680 51 13 15963 10.28200000 1207048579 1207048579 13.00000000
3.00171113 -8.08863831 2.31177163 36 15 15964 8.93200000 1207048584 1207048584 15.00000000
0.70106673 -1.89726460 -0.54196709 4 0 15972 2.09400000 1207048604 1207048604 -15.00000000
0.81787127 -2.21574616 -0.54528135 3 2 15974 2.42400000 1207048609 1207048609 -13.00000000
0.95336068 -2.58419728 -0.53541005 3 4 15975 2.80600000 1207048613 1207048613 -11.00000000
1.16530824 -3.16210485 -0.53375441 1 6 15977 3.41200000 1207048618 1207048618 -9.00000000
2.12031889 -5.76285791 -0.53722799 7 10 15980 6.16400000 1207048627 1207048627 -5.00000000
3.35334182 -9.12394238 -0.50943822 8 12 15982 9.73400000 1207048632 1207048632 -3.00000000
3.45779681 -9.41322327 2.31519628 48 13 15983 10.29200000 1207048634 1207048634 13.00000000
2.96805191 -8.08870411 2.30866599 31 15 15985 8.92000000 1207048639 1207048639 15.00000000
0.69808590 -1.91070867 -0.54507291 4 0 15993 2.10600000 1207048660 1207048660 -15.00000000
0.80840844 -2.21506763 -0.54438156 3 2 15995 2.42000000 1207048664 1207048664 -13.00000000
0.94455552 -2.58951855 -0.53579164 3 4 15996 2.80800000 1207048669 1207048669 -11.00000000
1.14830053 -3.15150666 -0.53125143 1 6 15998 3.39600000 1207048673 1207048673 -9.00000000
1.48416626 -4.07771301 -0.53281277 2 8 16000 4.37200000 1207048678 1207048678 -7.00000000
2.10258818 -5.77995205 -0.53809953 7 10 16001 6.17400000 1207048683 1207048683 -5.00000000
3.30623579 -9.09862900 -0.50734478 8 12 16003 9.69400000 1207048687 1207048687 -3.00000000
3.42659855 -9.43499184 2.31744576 53 13 16004 10.30200000 1207048690 1207048690 13.00000000
2.94375372 -8.10991096 2.31177163 36 15 16005 8.93200000 1207048694 1207048694 15.00000000
0.69075537 -1.91131699 -0.54455525 4 0 16013 2.10400000 1207048715 1207048715 -15.00000000
0.79934806 -2.21421003 -0.54348177 3 2 16015 2.41600000 1207048719 1207048719 -13.00000000
0.93884224 -2.60203338 -0.53769976 3 4 16016 2.81800000 1207048724 1207048724 -11.00000000
1.14332080 -3.17222095 -0.53406727 1 6 16018 3.41400000 1207048729 1207048729 -9.00000000
1.46723366 -4.07539797 -0.53183782 2 8 16020 4.36400000 1207048733 1207048733 -7.00000000
2.08172512 -5.78538179 -0.53792524 3 10 16021 6.17200000 1207048738 1207048738 -5.00000000
3.27175331 -9.10259628 -0.50692606 4 12 16023 9.68600000 1207048742 1207048742 -3.00000000
3.39232588 -9.44322777 2.31654596 49 13 16024 10.29800000 1207048745 1207048745 13.00000000
2.91922951 -8.13519192 2.31591272 36 15 16026 8.94800000 1207048749 1207048749 15.00000000
0.68474740 -1.91347766 -0.54455525 3 0 16031 2.10400000 1207048770 1207048770 -15.00000000
0.79107612 -2.21304035 -0.54258192 3 2 16033 2.41200000 1207048775 1207048775 -13.00000000
0.93198413 -2.60866761 -0.53846300 3 4 16034 2.82200000 1207048779 1207048779 -11.00000000
1.13467729 -3.17951798 -0.53469300 1 6 16036 3.41800000 1207048784 1207048784 -9.00000000
1.44909072 -4.06502867 -0.52988791 2 8 16038 4.34800000 1207048789 1207048789 -7.00000000
2.06420803 -5.79376984 -0.53809953 3 10 16039 6.17400000 1207048793 1207048793 -5.00000000
3.23912263 -9.10153961 -0.50629807 8 12 16041 9.67400000 1207048798 1207048798 -3.00000000
3.36003017 -9.44649410 2.31474638 53 13 16042 10.29000000 1207048800 1207048800 13.00000000
2.89766765 -8.15109921 2.31798339 36 15 16043 8.95600000 1207048805 1207048805 15.00000000
0.66130573 -1.86850607 -0.53109670 1 0 16051 2.05200000 1207048825 1207048825 -15.00000000
0.78594446 -2.22313738 -0.54438156 3 2 16053 2.42000000 1207048830 1207048830 -13.00000000
0.91502380 -2.58969188 -0.53388357 3 4 16054 2.79800000 1207048835 1207048835 -11.00000000
1.12357175 -3.18345952 -0.53469300 3 6 16056 3.41800000 1207048839 1207048839 -9.00000000
1.43489230 -4.07006216 -0.52988791 2 8 16058 4.34800000 1207048844 1207048844 -7.00000000
2.03337765 -5.77087355 -0.53531057 3 10 16059 6.14200000 1207048848 1207048848 -5.00000000
3.20799565 -9.11467457 -0.50640273 8 12 16061 9.67600000 1207048853 1207048853 -3.00000000
3.33091521 -9.46919537 2.31744576 47 13 16062 10.30200000 1207048855 1207048855 13.00000000
2.86521125 -8.15437412 2.31591272 36 15 16064 8.94800000 1207048860 1207048860 15.00000000
0.77946573 -2.22954655 -0.54528135 3 2 16073 2.42400000 1207048885 1207048885 -13.00000000
0.91051167 -2.60584378 -0.53655487 3 4 16074 2.81200000 1207048890 1207048890 -11.00000000
1.11049974 -3.18176699 -0.53375441 1 6 16076 3.41200000 1207048895 1207048895 -9.00000000
1.42917168 -4.09941387 -0.53305650 2 8 16078 4.37400000 1207048899 1207048899 -7.00000000
2.01584339 -5.78546190 -0.53600782 3 10 16079 6.15000000 1207048904 1207048904 -5.00000000
3.17353392 -9.11827183 -0.50598401 8 12 16081 9.66800000 1207048908 1207048908 -3.00000000
3.30104232 -9.48996735 2.31969523 50 13 16082 10.31200000 1207048911 1207048911 13.00000000
2.83815455 -8.16383076 2.31591272 38 15 16083 8.94800000 1207048915 1207048915 15.00000000
0.40183613 -1.16108882 -0.32921782 2 0 16091 1.27200000 1207048936 1207048936 -15.00000000
0.77040505 -2.22857022 -0.54438156 3 2 16093 2.42000000 1207048941 1207048941 -13.00000000
0.89884555 -2.60158372 -0.53502840 3 4 16094 2.80400000 1207048945 1207048945 -11.00000000
1.09616446 -3.17628741 -0.53219002 1 6 16096 3.40200000 1207048950 1207048950 -9.00000000
1.41226554 -4.09687090 -0.53208154 2 8 16098 4.36600000 1207048954 1207048954 -7.00000000
1.99044406 -5.77739382 -0.53461331 3 10 16099 6.13400000 1207048959 1207048959 -5.00000000
3.13258719 -9.10285473 -0.50451863 4 12 16101 9.64000000 1207048964 1207048964 -3.00000000
3.27233267 -9.51433182 2.32284451 53 13 16102 10.32600000 1207048966 1207048966 13.00000000
2.81260729 -8.18696785 2.31953621 38 15 16104 8.96200000 1207048971 1207048971 15.00000000
0.40757978 -1.19180048 -0.33750004 2 0 16112 1.30400000 1207048991 1207048991 -15.00000000
0.75719219 -2.21662593 -0.54078233 3 2 16114 2.40400000 1207048996 1207048996 -13.00000000
0.89564735 -2.62344027 -0.53884459 3 4 16115 2.82400000 1207049001 1207049001 -11.00000000
1.08961594 -3.19524097 -0.53469300 1 6 16117 3.41800000 1207049005 1207049005 -9.00000000
1.39211988 -4.08698702 -0.53013164 2 8 16119 4.35000000 1207049010 1207049010 -7.00000000
1.96540308 -5.77333355 -0.53356743 3 10 16120 6.12200000 1207049014 1207049014 -5.00000000
3.09277248 -9.09536552 -0.50347191 8 12 16122 9.62000000 1207049019 1207049019 -3.00000000
3.23430371 -9.51703644 2.32059503 52 13 16123 10.31600000 1207049021 1207049021 13.00000000
2.78587627 -8.20222282 2.32108927 38 15 16124 8.96800000 1207049026 1207049026 15.00000000
0.75194412 -2.22664070 -0.54258192 3 2 16134 2.41200000 1207049051 1207049051 -13.00000000
0.88271743 -2.61538959 -0.53655487 3 4 16135 2.81200000 1207049056 1207049056 -11.00000000
1.07214546 -3.18030620 -0.53156430 1 6 16137 3.39800000 1207049060 1207049060 -9.00000000
1.37341070 -4.07865238 -0.52842546 2 8 16139 4.33600000 1207049065 1207049065 -7.00000000
1.94396746 -5.77638245 -0.53321886 3 10 16140 6.11800000 1207049070 1207049070 -5.00000000
3.06291413 -9.11178493 -0.50378591 4 12 16142 9.62600000 1207049074 1207049074 -3.00000000
3.20168400 -9.53011513 2.32104492 49 13 16143 10.31800000 1207049077 1207049077 13.00000000
2.75661325 -8.21006584 2.32057166 40 15 16144 8.96600000 1207049081 1207049081 15.00000000
0.74741602 -2.23638511 -0.54438156 3 2 16152 2.42000000 1207049107 1207049107 -13.00000000
0.86952078 -2.60325289 -0.53350192 3 4 16153 2.79600000 1207049111 1207049111 -11.00000000
1.06527472 -3.19302797 -0.53312868 1 6 16155 3.40800000 1207049116 1207049116 -9.00000000
1.36372840 -4.09236336 -0.52964419 2 8 16157 4.34600000 1207049120 1207049120 -7.00000000
1.92706990 -5.78624153 -0.53356743 3 10 16158 6.12200000 1207049125 1207049125 -5.00000000
3.02986050 -9.10809708 -0.50305319 4 12 16160 9.61200000 1207049130 1207049130 -3.00000000
3.17603207 -9.55307102 2.32419419 50 13 16161 10.33200000 1207049132 1207049132 13.00000000
2.73628926 -8.23518562 2.32523036 38 15 16162 8.98400000 1207049136 1207049136 15.00000000
0.73716003 -2.23157883 -0.54258192 3 2 16172 2.41200000 1207049162 1207049162 -13.00000000
0.86104393 -2.60813642 -0.53388357 3 4 16173 2.79800000 1207049166 1207049166 -11.00000000
1.05350387 -3.19485092 -0.53281581 1 6 16175 3.40600000 1207049171 1207049171 -9.00000000
1.34322500 -4.07824421 -0.52720678 2 8 16177 4.32600000 1207049176 1207049176 -7.00000000
1.89315546 -5.75129795 -0.52973258 3 10 16178 6.07800000 1207049180 1207049180 -5.00000000
2.99617743 -9.11292553 -0.50273919 4 12 16180 9.60600000 1207049185 1207049185 -3.00000000
3.14631629 -9.57520771 2.32689381 48 13 16181 10.34400000 1207049187 1207049187 13.00000000
2.69524384 -8.21212006 2.31591272 11 15 16183 8.94800000 1207049192 1207049192 15.00000000
0.73299456 -2.24525356 -0.54528135 3 2 16192 2.42400000 1207049217 1207049217 -13.00000000
0.85497940 -2.62045836 -0.53579164 3 4 16193 2.80800000 1207049222 1207049222 -11.00000000
1.03683674 -3.18160558 -0.52999997 1 6 16195 3.38800000 1207049226 1207049226 -9.00000000
1.34311271 -4.12632322 -0.53281277 2 8 16197 4.37200000 1207049231 1207049231 -7.00000000
1.87183547 -5.75408220 -0.52938396 3 10 16198 6.07400000 1207049236 1207049236 -5.00000000
2.96064591 -9.11193180 -0.50211114 8 12 16200 9.59400000 1207049240 1207049240 -3.00000000
3.11287332 -9.58613205 2.32689381 35 13 16201 10.34400000 1207049242 1207049242 13.00000000
2.69721699 -8.31105042 2.34127712 18 15 16202 9.04600000 1207049247 1207049247 15.00000000
0.72275949 -2.24038005 -0.54348177 1 2 16212 2.41600000 1207049272 1207049272 -13.00000000
0.84221244 -2.61221552 -0.53350192 3 4 16213 2.79600000 1207049277 1207049277 -11.00000000
1.02814662 -3.19272661 -0.53125143 1 6 16215 3.39600000 1207049282 1207049282 -9.00000000
1.31958365 -4.10264015 -0.52915668 2 8 16217 4.34200000 1207049286 1207049286 -7.00000000
1.85661638 -5.77575541 -0.53077847 3 10 16218 6.09000000 1207049291 1207049291 -5.00000000
2.92088413 -9.09748936 -0.50075042 8 12 16220 9.56800000 1207049295 1207049295 -3.00000000
3.06629395 -9.55611706 2.31699586 17 13 16221 10.30000000 1207049298 1207049298 13.00000000
2.62453580 -8.18428612 2.30297184 6 15 16222 8.89800000 1207049302 1207049302 15.00000000
0.83455712 -2.62291336 -0.53502840 3 4 16235 2.80400000 1207049332 1207049332 -11.00000000
1.01408505 -3.19100285 -0.53031284 1 6 16237 3.39000000 1207049337 1207049337 -9.00000000
1.30081809 -4.09821653 -0.52793801 2 8 16239 4.33200000 1207049341 1207049341 -7.00000000
1.83442545 -5.78284168 -0.53077847 3 10 16240 6.09000000 1207049346 1207049346 -5.00000000
2.88351798 -9.10102177 -0.50033176 8 12 16242 9.56000000 1207049351 1207049351 -3.00000000
2.99957681 -9.47307110 2.29405093 15 13 16243 10.19800000 1207049353 1207049353 13.00000000
2.66245008 -8.41348076 2.36457086 9 15 16244 9.13600000 1207049358 1207049358 15.00000000
0.42128026 -1.33775830 -0.37580526 1 0 16252 1.45200000 1207049378 1207049378 -15.00000000
0.43501666 -1.38306260 -0.33472717 1 2 16254 1.48800000 1207049383 1207049383 -13.00000000
0.82304144 -2.61831903 -0.53350192 3 4 16255 2.79600000 1207049388 1207049388 -11.00000000
1.00767374 -3.20960069 -0.53281581 1 6 16257 3.40600000 1207049392 1207049392 -9.00000000
1.28947449 -4.11220312 -0.52915668 2 8 16259 4.34200000 1207049397 1207049397 -7.00000000
1.81422842 -5.78920984 -0.53077847 3 10 16260 6.09000000 1207049401 1207049401 -5.00000000
2.84874892 -9.10150146 -0.49980837 8 12 16262 9.55000000 1207049406 1207049406 -3.00000000
2.91762185 -9.32725430 2.25625896 16 13 16263 10.03000000 1207049408 1207049408 13.00000000
2.69554162 -8.62786198 2.42202854 29 15 16265 9.35800000 1207049413 1207049413 15.00000000
0.41707548 -1.33907521 -0.37580526 1 0 16270 1.45200000 1207049434 1207049434 -15.00000000
0.42603865 -1.36953616 -0.33112794 1 2 16272 1.47200000 1207049438 1207049438 -13.00000000
0.81539452 -2.62276649 -0.53388357 3 4 16273 2.79800000 1207049443 1207049443 -11.00000000
0.99641401 -3.20897746 -0.53219002 1 6 16275 3.40200000 1207049447 1207049447 -9.00000000
1.27302134 -4.10485744 -0.52769428 2 8 16277 4.33000000 1207049452 1207049452 -7.00000000
1.79957104 -5.80629921 -0.53182435 3 10 16278 6.10200000 1207049457 1207049457 -5.00000000
2.82014155 -9.11040592 -0.49980837 4 12 16280 9.55000000 1207049461 1207049461 -3.00000000
2.87160301 -9.28238583 2.24321198 18 13 16281 9.97200000 1207049464 1207049464 13.00000000
2.69560814 -8.71887589 2.44532228 29 15 16282 9.44800000 1207049468 1207049468 15.00000000
0.41239870 -1.34052289 -0.37580526 1 0 16290 1.45200000 1207049489 1207049489 -15.00000000
0.98404813 -3.20865893 -0.53156430 1 6 16295 3.39800000 1207049503 1207049503 -9.00000000
1.26449871 -4.12825680 -0.53013164 2 8 16297 4.35000000 1207049507 1207049507 -7.00000000
1.75829780 -5.74396086 -0.52554911 3 10 16298 6.03000000 1207049512 1207049512 -5.00000000
2.78189993 -9.09918404 -0.49865699 8 12 16300 9.52800000 1207049517 1207049517 -3.00000000
2.83178139 -9.26812458 2.23736310 20 13 16301 9.94600000 1207049519 1207049519 13.00000000
2.69562268 -8.82800484 2.47327471 36 15 16302 9.55600000 1207049523 1207049523 15.00000000
0.79934341 -2.63591003 -0.53541005 3 4 16313 2.80600000 1207049553 1207049553 -11.00000000
0.97398704 -3.21585560 -0.53219002 3 6 16315 3.40200000 1207049558 1207049558 -9.00000000
1.24318373 -4.10984468 -0.52720678 2 8 16317 4.32600000 1207049563 1207049563 -7.00000000
1.74976742 -5.78820658 -0.52903533 3 10 16318 6.07000000 1207049567 1207049567 -5.00000000
2.74319363 -9.08589554 -0.49740094 8 12 16320 9.50400000 1207049572 1207049572 -3.00000000
2.79322028 -9.25743103 2.23241425 21 13 16321 9.92400000 1207049574 1207049574 13.00000000
2.69780707 -8.95250607 2.50536847 31 15 16323 9.68000000 1207049579 1207049579 15.00000000
0.40303010 -1.34336936 -0.37580526 1 0 16330 1.45200000 1207049599 1207049599 -15.00000000
0.78844798 -2.63304210 -0.53426516 3 4 16333 2.80000000 1207049609 1207049609 -11.00000000
0.95766169 -3.20220280 -0.52937424 3 6 16335 3.38400000 1207049613 1207049613 -9.00000000
1.22712576 -4.10845280 -0.52647555 2 8 16337 4.32000000 1207049618 1207049618 -7.00000000
1.74322903 -5.84009886 -0.53321886 3 10 16338 6.11800000 1207049623 1207049623 -5.00000000
2.70290232 -9.06670570 -0.49583086 8 12 16340 9.47400000 1207049627 1207049627 -3.00000000
2.75699377 -9.25405121 2.22926497 23 13 16341 9.91000000 1207049629 1207049629 13.00000000
2.69629121 -9.06185627 2.53332090 38 15 16343 9.78800000 1207049634 1207049634 15.00000000
0.39833844 -1.34476793 -0.37580526 1 0 16350 1.45200000 1207049655 1207049655 -15.00000000
0.77702570 -2.62824750 -0.53273869 5 4 16353 2.79200000 1207049664 1207049664 -11.00000000
0.94927502 -3.21499872 -0.53093857 3 6 16355 3.39400000 1207049669 1207049669 -9.00000000
1.21053123 -4.10509539 -0.52550060 4 8 16357 4.31200000 1207049673 1207049673 -7.00000000
1.72283268 -5.84614801 -0.53321886 3 10 16358 6.11800000 1207049678 1207049678 -5.00000000
2.67574835 -9.09141350 -0.49666822 4 12 16360 9.49000000 1207049682 1207049682 -3.00000000
2.72357464 -9.25987911 2.22836518 24 13 16361 9.90600000 1207049685 1207049685 13.00000000
2.69458890 -9.17315769 2.56179094 38 15 16363 9.89800000 1207049689 1207049689 15.00000000
0.39364189 -1.34615028 -0.37580526 1 0 16370 1.45200000 1207049710 1207049710 -15.00000000
0.76674658 -2.62717438 -0.53197551 3 4 16373 2.78800000 1207049719 1207049719 -11.00000000
3.34661531 -11.47426224 1.04569459 17 5 16374 11.99800000 1207049722 1207049722 5.00000000
0.93694127 -3.21449995 -0.53031284 3 6 16375 3.39000000 1207049724 1207049724 -9.00000000
1.19231069 -4.09595394 -0.52379441 4 8 16377 4.29800000 1207049729 1207049729 -7.00000000
1.68349338 -5.78708172 -0.52729225 3 10 16378 6.05000000 1207049733 1207049733 -5.00000000
2.64399719 -9.10069752 -0.49666822 4 12 16380 9.49000000 1207049738 1207049738 -3.00000000
2.69014835 -9.26558685 2.22746539 23 13 16381 9.90200000 1207049740 1207049740 13.00000000
2.69052792 -9.27898979 2.58870816 42 15 16383 10.00200000 1207049745 1207049745 15.00000000
0.38870534 -1.34758401 -0.37580526 1 0 16391 1.45200000 1207049765 1207049765 -15.00000000
0.75874174 -2.63562703 -0.53312033 5 4 16394 2.79400000 1207049775 1207049775 -11.00000000
3.30343580 -11.48262119 1.04534602 17 5 16395 11.99400000 1207049777 1207049777 5.00000000
0.92187834 -3.20652151 -0.52843565 3 6 16396 3.37800000 1207049779 1207049779 -9.00000000
1.18550766 -4.12891674 -0.52745050 2 8 16398 4.32800000 1207049784 1207049784 -7.00000000
1.65567720 -5.77023172 -0.52520049 3 10 16399 6.02600000 1207049788 1207049788 -5.00000000
2.60512185 -9.09112740 -0.49562150 4 12 16401 9.47000000 1207049793 1207049793 -3.00000000
2.65241480 -9.26227093 2.22431612 21 13 16402 9.88800000 1207049795 1207049795 13.00000000
2.69054461 -9.40161991 2.62028408 40 15 16403 10.12400000 1207049800 1207049800 15.00000000
3.26766133 -11.48643017 0.20845154 10 1 16412 11.94400000 1207049823 1207049823 1.00000000
3.27314711 -11.51334858 0.62729877 7 3 16413 11.98600000 1207049828 1207049828 3.00000000
0.74900055 -2.63637090 -0.53273869 3 4 16414 2.79200000 1207049830 1207049830 -11.00000000
3.26061320 -11.48449993 1.04447436 21 5 16415 11.98400000 1207049832 1207049832 5.00000000
0.90960151 -3.20591927 -0.52780986 3 6 16416 3.37400000 1207049834 1207049834 -9.00000000
1.16892314 -4.12539005 -0.52647555 2 8 16418 4.32000000 1207049839 1207049839 -7.00000000
1.63552535 -5.77597570 -0.52520049 3 10 16419 6.02600000 1207049844 1207049844 -5.00000000
2.56956768 -9.08671284 -0.49488881 4 12 16421 9.45600000 1207049848 1207049848 -3.00000000
2.61741757 -9.26209641 2.22206640 19 13 16422 9.87800000 1207049851 1207049851 13.00000000
3.24940705 -11.50615311 -0.20869587 6 14 16423 11.95800000 1207049853 1207049853 -1.00000000
2.67810559 -9.48950577 2.64202476 45 15 16424 10.20800000 1207049855 1207049855 15.00000000
0.73979330 -2.63896942 -0.53273869 3 4 16434 2.79200000 1207049885 1207049885 -11.00000000
3.21674252 -11.48238182 1.04325426 21 5 16435 11.97000000 1207049887 1207049887 5.00000000
0.90160054 -3.22048807 -0.52968711 3 6 16436 3.38600000 1207049890 1207049890 -9.00000000
1.14222229 -4.08547401 -0.52086955 2 8 16438 4.27400000 1207049894 1207049894 -7.00000000
1.62178695 -5.80467653 -0.52729225 3 10 16439 6.05000000 1207049899 1207049899 -5.00000000
2.53675985 -9.09177876 -0.49467945 4 12 16441 9.45200000 1207049904 1207049904 -3.00000000
2.58245373 -9.26179123 2.21981692 17 13 16442 9.86800000 1207049906 1207049906 13.00000000
2.64765954 -9.50205612 2.64306021 42 15 16443 10.21200000 1207049911 1207049911 15.00000000
0.41583586 -1.50251019 -0.35992169 1 2 16453 1.60000000 1207049936 1207049936 -13.00000000
0.72848374 -2.63396668 -0.53121227 3 4 16454 2.78400000 1207049940 1207049940 -11.00000000
3.17133427 -11.47433662 1.04151118 17 5 16455 11.95000000 1207049943 1207049943 5.00000000
0.89403474 -3.23694444 -0.53187716 3 6 16456 3.40000000 1207049945 1207049945 -9.00000000
1.13481605 -4.11431360 -0.52403820 2 8 16458 4.30000000 1207049950 1207049950 -7.00000000
1.59622073 -5.79109478 -0.52554911 3 10 16459 6.03000000 1207049954 1207049954 -5.00000000
2.50182796 -9.08902454 -0.49405143 4 12 16461 9.44000000 1207049959 1207049959 -3.00000000
2.55062532 -9.27262783 2.22026682 15 13 16462 9.87000000 1207049961 1207049961 13.00000000
2.60872126 -9.49679375 2.63891888 40 15 16464 10.19600000 1207049966 1207049966 15.00000000
3.13929367 -11.49108315 0.20792797 10 1 16472 11.91400000 1207049989 1207049989 1.00000000
0.40853566 -1.49643278 -0.35812208 1 2 16473 1.59200000 1207049991 1207049991 -13.00000000
0.71721810 -2.62891746 -0.52968580 3 4 16474 2.77600000 1207049996 1207049996 -11.00000000
3.12392521 -11.45842552 1.03907073 21 5 16475 11.92200000 1207049998 1207049998 5.00000000
0.87649924 -3.21717453 -0.52812278 1 6 16476 3.37600000 1207050000 1207050000 -9.00000000
1.12461662 -4.13357353 -0.52598810 2 8 16478 4.31600000 1207050005 1207050005 -7.00000000
1.57599628 -5.79663134 -0.52554911 3 10 16479 6.03000000 1207050010 1207050010 -5.00000000
2.46799278 -9.08999252 -0.49363273 4 12 16481 9.43200000 1207050014 1207050014 -3.00000000
2.52385521 -9.30216312 2.22521591 8 13 16482 9.89200000 1207050017 1207050017 13.00000000
3.11304045 -11.48164940 -0.20764874 6 14 16483 11.89800000 1207050019 1207050019 -1.00000000
2.57670879 -9.50352764 2.63840127 42 15 16483 10.19400000 1207050021 1207050021 15.00000000
0.41542062 -1.54068637 -0.42756906 1 0 16491 1.65200000 1207050042 1207050042 -15.00000000
0.60800445 -2.25806499 -0.53988254 3 2 16493 2.40000000 1207050046 1207050046 -13.00000000
0.71109778 -2.64278007 -0.53197551 3 4 16494 2.78800000 1207050051 1207050051 -11.00000000
3.07925272 -11.45194340 1.03750193 21 5 16495 11.90400000 1207050053 1207050053 5.00000000
0.86731422 -3.22784519 -0.52937424 1 6 16496 3.38400000 1207050056 1207050056 -9.00000000
1.10709417 -4.12597036 -0.52452564 2 8 16498 4.30400000 1207050060 1207050060 -7.00000000
1.56091273 -5.82134151 -0.52729225 3 10 16499 6.05000000 1207050065 1207050065 -5.00000000
2.43366480 -9.08890533 -0.49310938 8 12 16501 9.42200000 1207050069 1207050069 -3.00000000
2.56793380 -9.59705830 2.29360104 9 13 16502 10.19600000 1207050072 1207050072 13.00000000
2.53986454 -9.50544262 2.63633084 40 15 16504 10.18600000 1207050076 1207050076 15.00000000
0.60090756 -2.25996399 -0.53988254 3 2 16511 2.40000000 1207050102 1207050102 -13.00000000
0.70480841 -2.65259051 -0.53350192 3 4 16512 2.79600000 1207050106 1207050106 -11.00000000
3.04070377 -11.45193195 1.03663039 21 5 16513 11.89400000 1207050109 1207050109 5.00000000
0.85615617 -3.22673535 -0.52874851 3 6 16514 3.38000000 1207050111 1207050111 -9.00000000
1.09107614 -4.11791468 -0.52306324 2 8 16516 4.29200000 1207050116 1207050116 -7.00000000
1.52731812 -5.76843548 -0.52206290 3 10 16517 5.99000000 1207050120 1207050120 -5.00000000
2.39948344 -9.07526588 -0.49195799 8 12 16519 9.40000000 1207050125 1207050125 -3.00000000
2.58107948 -9.76899433 2.33274245 8 13 16520 10.37000000 1207050127 1207050127 13.00000000
2.51362276 -9.52040863 2.63840127 42 15 16521 10.19400000 1207050132 1207050132 15.00000000
0.40519333 -1.54340756 -0.42756906 1 0 16529 1.65200000 1207050152 1207050152 -15.00000000
3.00606632 -11.45844269 0.20677611 10 1 16530 11.84800000 1207050155 1207050155 1.00000000
0.58906174 -2.24696732 -0.53628331 3 2 16531 2.38400000 1207050157 1207050157 -13.00000000
3.00093937 -11.45519066 0.62059975 7 3 16532 11.85800000 1207050159 1207050159 3.00000000
0.69355470 -2.64743805 -0.53197551 3 4 16532 2.78800000 1207050162 1207050162 -11.00000000
2.99919677 -11.45669460 1.03610742 21 5 16533 11.88800000 1207050164 1207050164 5.00000000
0.84688729 -3.23734856 -0.52999997 1 6 16534 3.38800000 1207050166 1207050166 -9.00000000
1.07468832 -4.11401558 -0.52208829 2 8 16536 4.28400000 1207050171 1207050171 -7.00000000
1.51623130 -5.80843210 -0.52520049 3 10 16537 6.02600000 1207050175 1207050175 -5.00000000
2.36577511 -9.07585621 -0.49153930 8 12 16539 9.39200000 1207050180 1207050180 -3.00000000
2.98456573 -11.46612835 -0.20681101 6 14 16541 11.85000000 1207050185 1207050185 -1.00000000
2.47725296 -9.52394867 2.63684845 40 15 16542 10.18800000 1207050187 1207050187 15.00000000
0.58511549 -2.26410389 -0.53988254 3 2 16551 2.40000000 1207050212 1207050212 -13.00000000
0.68136382 -2.63843751 -0.52968580 3 4 16552 2.77600000 1207050217 1207050217 -11.00000000
2.94823456 -11.42465115 1.03227258 17 5 16553 11.84400000 1207050219 1207050219 5.00000000
0.83508843 -3.23837233 -0.52968711 1 6 16554 3.38600000 1207050222 1207050222 -9.00000000
1.06428134 -4.13312101 -0.52403820 2 8 16556 4.30000000 1207050226 1207050226 -7.00000000
1.48005891 -5.75194407 -0.51962256 3 10 16557 5.96200000 1207050231 1207050231 -5.00000000
2.33407998 -9.08405876 -0.49153930 8 12 16559 9.39200000 1207050235 1207050235 -3.00000000
2.67129135 -10.40399265 2.47986031 47 13 16560 11.02400000 1207050238 1207050238 13.00000000
2.44469666 -9.52836800 2.63581324 42 15 16561 10.18400000 1207050242 1207050242 15.00000000
0.57817078 -2.26990938 -0.54078233 3 2 16571 2.40400000 1207050268 1207050268 -13.00000000
0.67408687 -2.64841008 -0.53121227 3 4 16572 2.78400000 1207050272 1207050272 -11.00000000
2.90342617 -11.41556358 1.03052950 17 5 16573 11.82400000 1207050275 1207050275 5.00000000
0.82377928 -3.24126744 -0.52968711 1 6 16574 3.38600000 1207050277 1207050277 -9.00000000
1.05082417 -4.14065886 -0.52452564 2 8 16576 4.30400000 1207050281 1207050281 -7.00000000
1.46388996 -5.77252579 -0.52101701 3 10 16577 5.97800000 1207050286 1207050286 -5.00000000
2.29353142 -9.05730057 -0.48965520 8 12 16579 9.35600000 1207050291 1207050291 -3.00000000
2.67320156 -10.56439018 2.51585269 55 13 16580 11.18400000 1207050293 1207050293 13.00000000
2.40644431 -9.52415371 2.63218975 38 15 16582 10.17000000 1207050298 1207050298 15.00000000
0.38900888 -1.54756606 -0.42756906 1 0 16589 1.65200000 1207050318 1207050318 -15.00000000
2.87129641 -11.43111038 0.20572896 10 1 16590 11.78800000 1207050321 1207050321 1.00000000
0.56882054 -2.26624346 -0.53943264 4 2 16591 2.39800000 1207050323 1207050323 -13.00000000
2.87158680 -11.44917965 0.61861098 26 3 16592 11.82000000 1207050325 1207050325 3.00000000
0.66388285 -2.64693856 -0.53044903 3 4 16592 2.78000000 1207050328 1207050328 -11.00000000
2.86065459 -11.41403389 1.02948368 12 5 16593 11.81200000 1207050330 1207050330 5.00000000
0.80574167 -3.21729660 -0.52530694 1 6 16594 3.35800000 1207050332 1207050332 -9.00000000
1.03636420 -4.14430189 -0.52452564 2 8 16596 4.30400000 1207050337 1207050337 -7.00000000
1.44662929 -5.78919792 -0.52206290 3 10 16597 5.99000000 1207050341 1207050341 -5.00000000
2.26238513 -9.06718922 -0.48975989 4 12 16599 9.35800000 1207050346 1207050346 -3.00000000
2.66836691 -10.70223522 2.54644585 52 13 16600 11.32000000 1207050348 1207050348 13.00000000
2.85369587 -11.45406532 -0.20604311 23 14 16601 11.80600000 1207050351 1207050351 -1.00000000
2.37718296 -9.54145432 2.63477778 40 15 16601 10.18000000 1207050353 1207050353 15.00000000
0.38360450 -1.54891455 -0.42756906 1 0 16609 1.65200000 1207050374 1207050374 -15.00000000
2.83858252 -11.47018051 0.20625255 30 1 16610 11.81800000 1207050376 1207050376 1.00000000
0.55856735 -2.25875640 -0.53718311 3 2 16611 2.38800000 1207050378 1207050378 -13.00000000
0.65652311 -2.65686345 -0.53197551 3 4 16612 2.78800000 1207050383 1207050383 -11.00000000
0.79876506 -3.23735023 -0.52812278 1 6 16614 3.37600000 1207050387 1207050387 -9.00000000
2.82824636 -11.47995281 -1.45170760 2 8 16616 11.91200000 1207050392 1207050392 -7.00000000
1.42164969 -5.77486610 -0.52031976 3 10 16617 5.97000000 1207050397 1207050397 -5.00000000
2.22976732 -9.07115173 -0.48955053 4 12 16619 9.35400000 1207050401 1207050401 -3.00000000
2.66446137 -10.84774303 2.57883883 48 13 16620 11.46400000 1207050404 1207050404 13.00000000
2.34248114 -9.54406548 2.63322496 14 15 16621 10.17400000 1207050408 1207050408 15.00000000
0.38277408 -1.56901228 -0.43274546 3 0 16629 1.67200000 1207050429 1207050429 -15.00000000
0.55252427 -2.26826596 -0.53898275 3 2 16631 2.39600000 1207050434 1207050434 -13.00000000
0.64538771 -2.65150881 -0.53044903 3 4 16632 2.78000000 1207050438 1207050438 -11.00000000
0.78792626 -3.24203825 -0.52843565 1 6 16634 3.37800000 1207050443 1207050443 -9.00000000
1.00366151 -4.13600302 -0.52257574 2 8 16636 4.28800000 1207050447 1207050447 -7.00000000
1.39866602 -5.76817560 -0.51927394 3 10 16637 5.95800000 1207050452 1207050452 -5.00000000
2.19385982 -9.06140900 -0.48860848 4 12 16639 9.33600000 1207050457 1207050457 -3.00000000
2.66094661 -10.99903488 2.61258149 53 13 16640 11.61400000 1207050459 1207050459 13.00000000
2.31459904 -9.57471752 2.63943672 28 15 16641 10.19800000 1207050463 1207050463 15.00000000
0.46755680 -1.94601798 -0.53627306 4 0 16649 2.07200000 1207050484 1207050484 -15.00000000
0.54187560 -2.25881100 -0.53628331 4 2 16651 2.38400000 1207050489 1207050489 -13.00000000
0.63338238 -2.64229035 -0.52815932 3 4 16652 2.76800000 1207050493 1207050493 -11.00000000
0.77936345 -3.25629568 -0.53031284 1 6 16654 3.39000000 1207050498 1207050498 -9.00000000
0.99198633 -4.15106583 -0.52403820 2 8 16656 4.30000000 1207050503 1207050503 -7.00000000
1.38222468 -5.78852606 -0.52066839 3 10 16657 5.97400000 1207050507 1207050507 -5.00000000
2.15897369 -9.05541229 -0.48787579 4 12 16659 9.32200000 1207050512 1207050512 -3.00000000
2.65776277 -11.15612030 2.64767385 57 13 16660 11.77000000 1207050514 1207050514 13.00000000
2.27904344 -9.58125687 2.63891888 42 15 16662 10.19600000 1207050519 1207050519 15.00000000
0.46209535 -1.95327806 -0.53782600 4 0 16669 2.07800000 1207050540 1207050540 -15.00000000
0.53936327 -2.28344727 -0.54168212 4 2 16671 2.40800000 1207050544 1207050544 -13.00000000
0.76527357 -3.24745989 -0.52843565 1 6 16674 3.37800000 1207050553 1207050553 -9.00000000
0.97203463 -4.13131523 -0.52111334 2 8 16676 4.27600000 1207050558 1207050558 -7.00000000
1.36018670 -5.78555775 -0.51997113 3 10 16677 5.96600000 1207050563 1207050563 -5.00000000
2.13054633 -9.07650471 -0.48860848 4 12 16679 9.33600000 1207050567 1207050567 -3.00000000
2.63393426 -11.22983646 2.66297054 53 13 16680 11.83800000 1207050569 1207050569 13.00000000
2.24681735 -9.58688068 2.63840127 38 15 16681 10.19400000 1207050574 1207050574 15.00000000
0.45527431 -1.95487916 -0.53782600 4 0 16689 2.07800000 1207050595 1207050595 -15.00000000
0.53050655 -2.28151989 -0.54078233 3 2 16691 2.40400000 1207050599 1207050599 -13.00000000
0.61758626 -2.65812182 -0.53044903 3 4 16692 2.78000000 1207050604 1207050604 -11.00000000
0.75348675 -3.24818730 -0.52812278 3 6 16694 3.37600000 1207050609 1207050609 -9.00000000
0.95760769 -4.13468313 -0.52111334 2 8 16696 4.27600000 1207050613 1207050613 -7.00000000
1.30629253 -5.64468861 -0.50689781 3 10 16697 5.81600000 1207050618 1207050618 -5.00000000
2.09255552 -9.05664253 -0.48714307 4 12 16699 9.30800000 1207050622 1207050622 -3.00000000
2.59734893 -11.25035477 2.66566992 51 13 16700 11.85000000 1207050625 1207050625 13.00000000
2.21420765 -9.59843063 2.63943672 40 15 16701 10.19800000 1207050629 1207050629 15.00000000
0.45069399 -1.96783328 -0.54093182 4 0 16710 2.09000000 1207050650 1207050650 -15.00000000
0.51736248 -2.26255226 -0.53583342 4 2 16712 2.38200000 1207050655 1207050655 -13.00000000
0.73850125 -3.23744559 -0.52593267 1 6 16715 3.36200000 1207050664 1207050664 -9.00000000
0.94156528 -4.13429403 -0.52062583 2 8 16717 4.27200000 1207050668 1207050668 -7.00000000
1.26835346 -5.57367229 -0.50009966 14 10 16718 5.73800000 1207050673 1207050673 -5.00000000
2.06200218 -9.07593632 -0.48777112 4 12 16720 9.32000000 1207050678 1207050678 -3.00000000
2.55437136 -11.25219727 2.66387033 47 13 16721 11.84200000 1207050680 1207050680 13.00000000
2.18200421 -9.61966896 2.64306021 38 15 16722 10.21200000 1207050685 1207050685 15.00000000
0.44297278 -1.96562529 -0.53989655 4 0 16730 2.08600000 1207050705 1207050705 -15.00000000
0.51245588 -2.27765298 -0.53898275 4 2 16732 2.39600000 1207050710 1207050710 -13.00000000
0.59811890 -2.66055751 -0.53006738 3 4 16733 2.77800000 1207050715 1207050715 -11.00000000
0.72762853 -3.24193120 -0.52624553 1 6 16735 3.36400000 1207050719 1207050719 -9.00000000
0.92799628 -4.14142990 -0.52111334 2 8 16737 4.27600000 1207050724 1207050724 -7.00000000
1.24889004 -5.57806587 -0.50009966 14 10 16738 5.73800000 1207050728 1207050728 -5.00000000
2.02420902 -9.05579090 -0.48630571 4 12 16740 9.29200000 1207050733 1207050733 -3.00000000
2.51252961 -11.24963379 2.66117096 50 13 16741 11.83000000 1207050735 1207050735 13.00000000
2.14883399 -9.63702965 2.64564824 40 15 16743 10.22200000 1207050740 1207050740 15.00000000
0.43728903 -1.97085547 -0.54093182 4 0 16749 2.09000000 1207050761 1207050761 -15.00000000
0.50490010 -2.27933979 -0.53898275 4 2 16751 2.39600000 1207050765 1207050765 -13.00000000
0.58589882 -2.64719152 -0.52701443 3 4 16752 2.76200000 1207050770 1207050770 -11.00000000
0.71730012 -3.24625516 -0.52655840 1 6 16754 3.36600000 1207050774 1207050774 -9.00000000
0.91340244 -4.14060736 -0.52062583 2 8 16756 4.27200000 1207050779 1207050779 -7.00000000
1.22738361 -5.56855679 -0.49887946 18 10 16757 5.72400000 1207050784 1207050784 -5.00000000
2.00103545 -9.09366322 -0.48798046 4 12 16759 9.32400000 1207050788 1207050788 -3.00000000
2.47688460 -11.26551723 2.66297054 47 13 16760 11.83800000 1207050791 1207050791 13.00000000
2.11813331 -9.64184570 2.64513063 38 15 16761 10.22000000 1207050795 1207050795 15.00000000
0.42669994 -1.95538294 -0.53627306 4 0 16769 2.07200000 1207050816 1207050816 -15.00000000
0.49859986 -2.28870463 -0.54078233 3 2 16771 2.40400000 1207050820 1207050820 -13.00000000
0.70638365 -3.25066948 -0.52687126 1 6 16774 3.36800000 1207050830 1207050830 -9.00000000
0.89810175 -4.13989067 -0.52013838 2 8 16776 4.26800000 1207050834 1207050834 -7.00000000
1.20624995 -5.56501865 -0.49818224 18 10 16777 5.71600000 1207050839 1207050839 -5.00000000
