# .PCD v0.7 - Point Cloud Data file format
VERSION 0.7
FIELDS x y z intensity laser_id azimuth distance_m adjustedtime timestamp vertical_angle
SIZE 4 4 4 1 1 2 8 8 4 8
TYPE F F F U U U F U U F
COUNT 1 1 1 1 1 1 1 1 1 1
WIDTH 539
HEIGHT 1
VIEWPOINT 0 0 0 1 0 0 0
POINTS 539
DATA ascii
8.21598911 3.83641720 0.47521049 13 3 6497 9.08000000 1206722309 1206722309 3.00000000
2.90846562 1.35809422 -0.62394542 5 4 6497 3.27000000 1206722311 1206722311 -11.00000000
8.21106815 3.83237410 0.79276866 82 5 6498 9.09600000 1206722314 1206722314 5.00000000
3.67518520 1.71454799 -0.64231992 6 6 6499 4.10600000 1206722316 1206722316 -9.00000000
8.22010899 3.83309984 1.11364210 99 7 6500 9.13800000 1206722318 1206722318 7.00000000
4.95513725 2.30956554 -0.67125636 9 8 6501 5.50800000 1206722321 1206722321 -7.00000000
7.60511589 3.54309225 -0.73402566 13 10 6502 8.42200000 1206722325 1206722325 -5.00000000
8.20075226 3.81710577 -0.47405910 17 12 6504 9.05800000 1206722330 1206722330 -3.00000000
8.25307941 3.83970952 2.10149264 75 13 6505 9.34200000 1206722332 1206722332 13.00000000
8.19395733 3.81046343 -0.15773486 16 14 6506 9.03800000 1206722334 1206722334 -1.00000000
8.00529766 3.72273040 2.36560607 47 15 6506 9.14000000 1206722337 1206722337 15.00000000
2.05783629 0.95347023 -0.60770714 4 0 6514 2.34800000 1206722357 1206722357 -15.00000000
8.20174694 3.79842806 0.15776975 12 1 6515 9.04000000 1206722360 1206722360 1.00000000
8.18439293 3.78865623 -2.08214688 8 2 6516 9.25600000 1206722362 1206722362 -13.00000000
8.21664238 3.80184388 0.47447777 15 3 6517 9.06600000 1206722364 1206722364 3.00000000
2.91318846 1.34793353 -0.62394542 5 4 6517 3.27000000 1206722367 1206722367 -11.00000000
8.20450401 3.79448891 0.79085124 86 5 6518 9.07400000 1206722369 1206722369 5.00000000
3.68831992 1.70502436 -0.64357138 6 6 6519 4.11400000 1206722371 1206722371 -9.00000000
8.22623062 3.80105233 1.11266708 99 7 6520 9.13000000 1206722374 1206722374 7.00000000
4.97398186 2.29724884 -0.67271876 9 8 6521 5.52000000 1206722376 1206722376 -7.00000000
7.61381912 3.51485372 -0.73367703 13 10 6522 8.41800000 1206722380 1206722380 -5.00000000
8.20314407 3.78343749 -0.47343105 17 12 6524 9.04600000 1206722385 1206722385 -3.00000000
8.25935364 3.80761409 2.09969306 76 13 6525 9.33400000 1206722387 1206722387 13.00000000
8.20175934 3.77932739 -0.15763013 16 14 6526 9.03200000 1206722390 1206722390 -1.00000000
8.01362419 3.69094014 2.36405325 45 15 6527 9.13400000 1206722392 1206722392 15.00000000
2.07344174 0.95192343 -0.61133057 4 0 6534 2.36200000 1206722413 1206722413 -15.00000000
8.18224144 3.75476313 0.15714146 12 1 6535 9.00400000 1206722415 1206722415 1.00000000
8.17985439 3.75193977 -2.07764792 8 2 6536 9.23600000 1206722417 1206722417 -13.00000000
8.22441673 3.77064204 0.47416377 13 3 6537 9.06000000 1206722420 1206722420 3.00000000
2.91787601 1.33775640 -0.62394542 5 4 6537 3.27000000 1206722422 1206722422 -11.00000000
8.21226501 3.76333666 0.79032826 93 5 6538 9.06800000 1206722424 1206722424 5.00000000
3.68706536 1.68884873 -0.64231992 4 6 6539 4.10600000 1206722427 1206722427 -9.00000000
8.21237469 3.75991893 1.10901105 95 7 6540 9.10000000 1206722429 1206722429 7.00000000
4.98377562 2.28069854 -0.67296249 9 8 6541 5.52200000 1206722431 1206722431 -7.00000000
8.30934715 3.80256224 1.44733167 2 9 6541 9.25200000 1206722433 1206722433 9.00000000
7.61517096 3.48328257 -0.73263115 13 10 6542 8.40600000 1206722436 1206722436 -5.00000000
8.19995213 3.74730873 -0.47248900 17 12 6544 9.02800000 1206722440 1206722440 -3.00000000
8.26195908 3.77390242 2.09699368 68 13 6545 9.32200000 1206722443 1206722443 13.00000000
8.20034981 3.74403071 -0.15735090 16 14 6546 9.01600000 1206722445 1206722445 -1.00000000
8.02757740 3.66514802 2.36457086 45 15 6546 9.13600000 1206722447 1206722447 15.00000000
2.07499337 0.94388008 -0.61081296 4 0 6554 2.36000000 1206722468 1206722468 -15.00000000
8.19165707 3.72452354 0.15707166 12 1 6555 9.00000000 1206722470 1206722470 1.00000000
8.17338657 3.71449494 -2.07269907 8 2 6556 9.21400000 1206722473 1206722473 -13.00000000
8.21752548 3.73282433 0.47301236 15 3 6557 9.03800000 1206722475 1206722475 3.00000000
2.94219017 1.33649457 -0.62814319 5 4 6557 3.29200000 1206722477 1206722477 -11.00000000
8.20902443 3.72723436 0.78875947 78 5 6558 9.05000000 1206722480 1206722480 5.00000000
3.67854762 1.66943741 -0.63981694 6 6 6559 4.09000000 1206722482 1206722482 -9.00000000
8.20194817 3.72056866 1.10584247 99 7 6560 9.07400000 1206722484 1206722484 7.00000000
4.97362709 2.25509071 -0.67052513 9 8 6561 5.50200000 1206722486 1206722486 -7.00000000
7.64543056 3.46490383 -0.73437428 13 10 6562 8.42600000 1206722491 1206722491 -5.00000000
8.19660759 3.71124864 -0.47154698 17 12 6564 9.01000000 1206722496 1206722496 -3.00000000
8.25377750 3.73539782 2.09159493 68 13 6565 9.29800000 1206722498 1206722498 13.00000000
8.19879341 3.70878983 -0.15707166 16 14 6566 9.00000000 1206722500 1206722500 -1.00000000
8.04271698 3.63649678 2.36508846 45 15 6567 9.13800000 1206722503 1206722503 15.00000000
2.09220099 0.94334650 -0.61495405 4 0 6573 2.37600000 1206722523 1206722523 -15.00000000
8.19120216 3.69158721 0.15682733 12 1 6574 8.98600000 1206722526 1206722526 1.00000000
8.17855167 3.68416905 -2.07089949 8 2 6575 9.20600000 1206722528 1206722528 -13.00000000
8.20982647 3.69653344 0.47186098 13 3 6576 9.01600000 1206722530 1206722530 3.00000000
2.93407464 1.32108831 -0.62547189 5 4 6576 3.27800000 1206722533 1206722533 -11.00000000
8.20135403 3.69099736 0.78684205 78 5 6577 9.02800000 1206722535 1206722535 5.00000000
3.69487238 1.66209209 -0.64169419 6 6 6578 4.10200000 1206722537 1206722537 -9.00000000
8.20518875 3.68927932 1.10462368 97 7 6579 9.06400000 1206722539 1206722539 7.00000000
4.98107767 2.23858523 -0.67052513 9 8 6580 5.50200000 1206722542 1206722542 -7.00000000
7.65142632 3.43708229 -0.73385137 13 10 6581 8.42000000 1206722546 1206722546 -5.00000000
8.19246960 3.67668724 -0.47060493 17 12 6583 8.99200000 1206722551 1206722551 -3.00000000
8.24833870 3.70003104 2.08709598 62 13 6584 9.27800000 1206722553 1206722553 13.00000000
8.19462490 3.67421818 -0.15675752 16 14 6585 8.98200000 1206722556 1206722556 -1.00000000
2.07431459 0.92658263 -0.60874242 4 0 6593 2.35200000 1206722579 1206722579 -15.00000000
8.20038605 3.66134143 0.15675752 12 1 6594 8.98200000 1206722581 1206722581 1.00000000
8.18958282 3.65480399 -2.07044959 8 2 6595 9.20400000 1206722583 1206722583 -13.00000000
8.21355915 3.66378522 0.47133762 13 3 6596 9.00600000 1206722586 1206722586 3.00000000
2.93149638 1.30763936 -0.62394542 5 4 6596 3.27000000 1206722588 1206722588 -11.00000000
8.19781017 3.65504479 0.78527325 78 5 6597 9.01000000 1206722590 1206722590 5.00000000
3.70065165 1.64918435 -0.64169419 6 6 6598 4.10200000 1206722592 1206722592 -9.00000000
8.21982956 3.66142321 1.10486746 99 7 6599 9.06600000 1206722595 1206722595 7.00000000
4.98160791 2.21795464 -0.66955018 9 8 6600 5.49400000 1206722597 1206722597 -7.00000000
7.65609646 3.40711284 -0.73315412 13 10 6601 8.41200000 1206722602 1206722602 -5.00000000
8.20160389 3.64644504 -0.47039557 17 12 6603 8.98800000 1206722606 1206722606 -3.00000000
8.25408077 3.66805077 2.08529639 66 13 6604 9.27000000 1206722609 1206722609 13.00000000
8.18912506 3.63747358 -0.15640847 18 14 6605 8.96200000 1206722611 1206722611 -1.00000000
7.13976002 3.17136312 2.09332848 49 15 6605 8.08800000 1206722613 1206722613 15.00000000
2.07753634 0.91933632 -0.60874242 4 0 6613 2.35200000 1206722634 1206722634 -15.00000000
8.19117069 3.62298799 0.15633866 12 1 6614 8.95800000 1206722636 1206722636 1.00000000
8.18803215 3.61989093 -2.06685019 8 2 6615 9.18800000 1206722639 1206722639 -13.00000000
8.21351051 3.62944126 0.47060493 13 3 6616 8.99200000 1206722641 1206722641 3.00000000
2.93604302 1.29739857 -0.62394542 5 4 6616 3.27000000 1206722643 1206722643 -11.00000000
8.19411564 3.61916208 0.78370446 78 5 6617 8.99200000 1206722645 1206722645 5.00000000
3.69915748 1.63306558 -0.64044273 6 6 6618 4.09400000 1206722648 1206722648 -9.00000000
8.21439934 3.62469435 1.10243011 100 7 6619 9.04600000 1206722650 1206722650 7.00000000
5.00748253 2.20856285 -0.67198753 9 8 6620 5.51400000 1206722652 1206722652 -7.00000000
7.67523527 3.38358212 -0.73385137 13 10 6621 8.42000000 1206722657 1206722657 -5.00000000
8.18869305 3.60652351 -0.46893016 17 12 6623 8.96000000 1206722662 1206722662 -3.00000000
8.25969982 3.63607574 2.08349657 64 13 6624 9.26200000 1206722664 1206722664 13.00000000
8.18896008 3.60322857 -0.15616414 20 14 6625 8.94800000 1206722666 1206722666 -1.00000000
7.12249470 3.13397264 2.08504629 42 15 6625 8.05600000 1206722668 1206722668 15.00000000
2.08073282 0.91207874 -0.60874242 4 0 6633 2.35200000 1206722689 1206722689 -15.00000000
8.18911457 3.58795333 0.15605941 12 1 6634 8.94200000 1206722692 1206722692 1.00000000
8.17205620 3.57877970 -2.05965185 8 2 6635 9.15600000 1206722694 1206722694 -13.00000000
8.21332169 3.59514260 0.46987221 13 3 6636 8.97800000 1206722696 1206722696 3.00000000
2.95314360 1.29265261 -0.62661672 6 4 6636 3.28400000 1206722698 1206722698 -11.00000000
8.19392204 3.58494687 0.78248423 78 5 6637 8.97800000 1206722701 1206722701 5.00000000
3.69940567 1.61776865 -0.63950408 6 6 6638 4.08800000 1206722703 1206722703 -9.00000000
8.21426964 3.59043336 1.10072386 97 7 6639 9.03200000 1206722705 1206722705 7.00000000
5.01334190 2.19027519 -0.67174381 9 8 6640 5.51200000 1206722708 1206722708 -7.00000000
7.67056608 3.34959388 -0.73228258 13 10 6641 8.40200000 1206722712 1206722712 -5.00000000
8.17926502 3.56833386 -0.46767411 17 12 6643 8.93600000 1206722717 1206722717 -3.00000000
8.26876926 3.60566401 2.08259678 64 13 6644 9.25800000 1206722719 1206722719 13.00000000
8.18315601 3.56663203 -0.15581508 20 14 6645 8.92800000 1206722721 1206722721 -1.00000000
7.14810228 3.11401892 2.08918738 45 15 6646 8.07200000 1206722724 1206722724 15.00000000
2.08358788 0.90553743 -0.60874242 4 0 6651 2.35200000 1206722745 1206722745 -15.00000000
8.19117546 3.55822515 0.15588489 21 1 6652 8.93200000 1206722747 1206722747 1.00000000
8.17074680 3.54765582 -2.05650258 8 2 6653 9.14200000 1206722749 1206722749 -13.00000000
8.20991802 3.56296086 0.46903485 13 3 6654 8.96200000 1206722751 1206722751 3.00000000
2.95538902 1.28258705 -0.62623513 6 4 6654 3.28200000 1206722754 1206722754 -11.00000000
8.19417667 3.55443001 0.78143841 78 5 6655 8.96600000 1206722756 1206722756 5.00000000
3.69903278 1.60378134 -0.63856548 6 6 6656 4.08200000 1206722758 1206722758 -9.00000000
8.20365143 3.55513787 1.09779906 90 7 6657 9.00800000 1206722761 1206722761 7.00000000
5.01655531 2.17293668 -0.67125636 9 8 6658 5.50800000 1206722763 1206722763 -7.00000000
7.69202185 3.33022904 -0.73332840 13 10 6659 8.41400000 1206722768 1206722768 -5.00000000
8.17393589 3.53548455 -0.46673205 17 12 6661 8.91800000 1206722772 1206722772 -3.00000000
8.26216888 3.57193589 2.07809782 66 13 6662 9.23800000 1206722774 1206722774 13.00000000
8.18697834 3.53773332 -0.15567547 16 14 6663 8.92000000 1206722777 1206722777 -1.00000000
7.15731049 3.09279633 2.08918738 45 15 6663 8.07200000 1206722779 1206722779 15.00000000
2.10270596 0.90513325 -0.61340111 4 0 6671 2.37000000 1206722800 1206722800 -15.00000000
8.18701458 3.52249789 0.15557075 21 1 6672 8.91400000 1206722802 1206722802 1.00000000
8.17412949 3.51526356 -2.05425310 8 2 6673 9.13200000 1206722804 1206722804 -13.00000000
8.20212078 3.52560520 0.46788344 13 3 6674 8.94000000 1206722807 1206722807 3.00000000
2.95443702 1.26993716 -0.62509024 6 4 6674 3.27600000 1206722809 1206722809 -11.00000000
8.20287323 3.52423239 0.78108978 75 5 6675 8.96200000 1206722811 1206722811 5.00000000
3.70823860 1.59241843 -0.63919121 6 6 6676 4.08600000 1206722814 1206722814 -9.00000000
8.20689011 3.52256536 1.09658039 90 7 6677 8.99800000 1206722816 1206722816 7.00000000
5.01863670 2.15306449 -0.67052513 9 8 6678 5.50200000 1206722818 1206722818 -7.00000000
7.71641779 3.30885506 -0.73454863 13 10 6679 8.42800000 1206722823 1206722823 -5.00000000
8.18255615 3.50535750 -0.46652272 21 12 6681 8.91400000 1206722827 1206722827 -3.00000000
8.25667191 3.53540325 2.07359886 72 13 6682 9.21800000 1206722830 1206722830 13.00000000
8.17905426 3.50047922 -0.15529151 20 14 6683 8.89800000 1206722832 1206722832 -1.00000000
7.17161465 3.06931400 2.09022260 45 15 6683 8.07600000 1206722834 1206722834 15.00000000
2.09163594 0.89172691 -0.60926002 4 0 6691 2.35400000 1206722855 1206722855 -15.00000000
8.19558048 3.49233079 0.15550095 18 1 6692 8.91000000 1206722857 1206722857 1.00000000
8.16662788 3.47830939 -2.04930401 8 2 6693 9.11000000 1206722860 1206722860 -13.00000000
8.20090485 3.49290824 0.46715075 13 3 6693 8.92600000 1206722862 1206722862 3.00000000
2.94801354 1.25500250 -0.62280059 6 4 6694 3.26400000 1206722864 1206722864 -11.00000000
8.19679165 3.48777676 0.77934664 78 5 6695 8.94200000 1206722867 1206722867 5.00000000
3.72468138 1.58410323 -0.64106846 6 6 6696 4.09800000 1206722869 1206722869 -9.00000000
8.21000195 3.49001360 1.09536171 95 7 6697 8.98800000 1206722871 1206722871 7.00000000
5.02977562 2.13708544 -0.67101258 6 8 6698 5.50600000 1206722873 1206722873 -7.00000000
7.69857883 3.26943874 -0.73175961 13 10 6699 8.39600000 1206722878 1206722878 -5.00000000
8.18371010 3.47209334 -0.46589467 17 12 6701 8.90200000 1206722883 1206722883 -3.00000000
8.25102234 3.49895239 2.06909990 66 13 6702 9.19800000 1206722885 1206722885 13.00000000
8.17097092 3.46332335 -0.15490755 16 14 6703 8.87600000 1206722887 1206722887 -1.00000000
7.17516994 3.04124618 2.08815217 45 15 6703 8.06800000 1206722890 1206722890 15.00000000
2.09295630 0.88366890 -0.60874242 4 0 6711 2.35200000 1206722910 1206722910 -15.00000000
8.18192863 3.45281672 0.15501228 15 1 6712 8.88200000 1206722913 1206722913 1.00000000
2.47965145 1.04591608 -0.62131482 4 2 6713 2.76200000 1206722915 1206722915 -13.00000000
8.20629025 3.45972347 0.46673205 13 3 6714 8.91800000 1206722917 1206722917 3.00000000
2.95961261 1.24775517 -0.62432700 5 4 6714 3.27200000 1206722920 1206722920 -11.00000000
8.19055653 3.45140648 0.77760351 78 5 6715 8.92200000 1206722922 1206722922 5.00000000
3.72290635 1.56802499 -0.63981694 6 6 6716 4.09000000 1206722924 1206722924 -9.00000000
8.21847534 3.45979357 1.09487414 95 7 6717 8.98400000 1206722926 1206722926 7.00000000
5.04269409 2.12182498 -0.67174381 6 8 6718 5.51200000 1206722929 1206722929 -7.00000000
7.71545410 3.24486279 -0.73228258 13 10 6719 8.40200000 1206722933 1206722933 -5.00000000
8.18289089 3.43809009 -0.46516198 17 12 6721 8.88800000 1206722938 1206722938 -3.00000000
8.26318550 3.47012973 2.06909990 72 13 6722 9.19800000 1206722940 1206722940 13.00000000
8.18301105 3.43478036 -0.15490755 16 14 6723 8.87600000 1206722943 1206722943 -1.00000000
7.18626881 3.01492739 2.08815217 45 15 6724 8.06800000 1206722945 1206722945 15.00000000
2.09261608 0.87450212 -0.60770714 4 0 6732 2.34800000 1206722966 1206722966 -15.00000000
8.17607689 3.41509795 0.15466322 15 1 6733 8.86200000 1206722968 1206722968 1.00000000
2.46908188 1.03081453 -0.61771560 4 2 6734 2.74600000 1206722970 1206722970 -13.00000000
8.21278763 3.42874861 0.46641803 13 3 6734 8.91200000 1206722973 1206722973 3.00000000
2.96416593 1.23689926 -0.62432700 6 4 6735 3.27200000 1206722975 1206722975 -11.00000000
8.19211769 3.41676164 0.77655768 75 5 6736 8.91000000 1206722977 1206722977 5.00000000
3.73045182 1.55512941 -0.64012980 6 6 6737 4.09200000 1206722979 1206722979 -9.00000000
8.21094418 3.42124963 1.09219301 99 7 6738 8.96200000 1206722982 1206722982 7.00000000
5.05776691 2.10638094 -0.67271876 6 8 6739 5.52000000 1206722984 1206722984 -7.00000000
7.74201059 3.22268796 -0.73367703 13 10 6740 8.41800000 1206722989 1206722989 -5.00000000
8.18068409 3.40194011 -0.46432459 17 12 6742 8.87200000 1206722993 1206722993 -3.00000000
8.27584839 3.43982029 2.06909990 72 13 6743 9.19800000 1206722996 1206722996 13.00000000
8.19000435 3.40246344 -0.15480284 18 14 6744 8.87000000 1206722998 1206722998 -1.00000000
7.19318104 2.98834205 2.08711672 45 15 6744 8.06400000 1206723000 1206723000 15.00000000
2.09922600 0.86866951 -0.60874242 4 0 6752 2.35200000 1206723021 1206723021 -15.00000000
8.17870808 3.38271594 0.15448870 12 1 6753 8.85200000 1206723023 1206723023 1.00000000
2.47086406 1.02144504 -0.61726570 4 2 6754 2.74400000 1206723025 1206723025 -13.00000000
8.20809460 3.39319253 0.46547601 15 3 6754 8.89400000 1206723028 1206723028 3.00000000
2.97572327 1.22954369 -0.62585348 5 4 6755 3.28000000 1206723030 1206723030 -11.00000000
8.19662857 3.38510299 0.77586043 75 5 6756 8.90200000 1206723032 1206723032 5.00000000
3.73585749 1.54209816 -0.64012980 6 6 6757 4.09200000 1206723035 1206723035 -9.00000000
8.19898129 3.38272500 1.08902442 97 7 6758 8.93600000 1206723037 1206723037 7.00000000
5.04306698 2.07963204 -0.66979390 6 8 6759 5.49600000 1206723039 1206723039 -7.00000000
7.74768639 3.19336581 -0.73315412 13 10 6760 8.41200000 1206723044 1206723044 -5.00000000
8.18881512 3.37184262 -0.46411526 17 12 6762 8.86800000 1206723049 1206723049 -3.00000000
8.25897217 3.39904451 2.06190133 70 13 6763 9.16600000 1206723051 1206723051 13.00000000
8.19628334 3.37157202 -0.15469813 16 14 6764 8.86400000 1206723053 1206723053 -1.00000000
7.21607447 2.96835947 2.09074020 45 15 6764 8.07800000 1206723055 1206723055 15.00000000
2.09836984 0.86060423 -0.60770714 4 0 6770 2.34800000 1206723076 1206723076 -15.00000000
8.18374443 3.35472965 0.15438399 12 1 6771 8.84600000 1206723078 1206723078 1.00000000
2.47766733 1.01515520 -0.61816549 4 2 6772 2.74800000 1206723081 1206723081 -13.00000000
8.18972874 3.35384440 0.46380123 13 3 6773 8.86200000 1206723083 1206723083 3.00000000
2.97412109 1.21795714 -0.62470865 6 4 6773 3.27400000 1206723085 1206723085 -11.00000000
8.19800377 3.35556221 0.77498889 78 5 6774 8.89200000 1206723088 1206723088 5.00000000
3.74799681 1.53334594 -0.64138132 6 6 6775 4.10000000 1206723090 1206723090 -9.00000000
8.19670582 3.35169101 1.08731830 100 7 6776 8.92200000 1206723092 1206723092 7.00000000
5.04590034 2.06227636 -0.66930646 6 8 6777 5.49200000 1206723095 1206723095 -7.00000000
7.75583601 3.16825652 -0.73297977 13 10 6778 8.41000000 1206723099 1206723099 -5.00000000
8.18827248 3.34157228 -0.46348724 17 12 6780 8.85600000 1206723104 1206723104 -3.00000000
8.25517368 3.36719346 2.05830216 66 13 6781 9.15000000 1206723106 1206723106 13.00000000
8.18091106 3.33523726 -0.15420946 16 14 6782 8.83600000 1206723108 1206723108 -1.00000000
7.22945642 2.94587159 2.09177542 42 15 6783 8.08200000 1206723111 1206723111 15.00000000
2.10852098 0.85618156 -0.60977769 4 0 6790 2.35600000 1206723131 1206723131 -15.00000000
8.19540501 3.32614255 0.15438399 12 1 6791 8.84600000 1206723134 1206723134 1.00000000
2.48480749 1.00796545 -0.61906528 4 2 6792 2.75200000 1206723136 1206723136 -13.00000000
8.19710445 3.32516623 0.46359190 13 3 6792 8.85800000 1206723138 1206723138 3.00000000
2.96743798 1.20314205 -0.62241894 6 4 6793 3.26200000 1206723141 1206723141 -11.00000000
8.19489384 3.32093906 0.77359438 78 5 6794 8.87600000 1206723143 1206723143 5.00000000
3.75881910 1.52247846 -0.64231992 6 6 6795 4.10600000 1206723145 1206723145 -9.00000000
8.20835590 3.32305884 1.08731830 99 7 6796 8.92200000 1206723148 1206723148 7.00000000
5.06410885 2.04911804 -0.67076886 6 8 6797 5.50400000 1206723150 1206723150 -7.00000000
7.76869488 3.14191151 -0.73315412 13 10 6798 8.41200000 1206723155 1206723155 -5.00000000
8.18322086 3.30623579 -0.46254519 17 12 6800 8.83800000 1206723159 1206723159 -3.00000000
8.26326370 3.33689761 2.05740237 64 13 6801 9.14600000 1206723161 1206723161 13.00000000
8.17210579 3.29842734 -0.15382551 18 14 6802 8.81400000 1206723164 1206723164 -1.00000000
7.23252916 2.91772723 2.08970499 42 15 6803 8.07400000 1206723166 1206723166 15.00000000
2.10432696 0.84593397 -0.60770714 4 0 6810 2.34800000 1206723187 1206723187 -15.00000000
8.18098736 3.28707743 0.15389532 12 1 6811 8.81800000 1206723189 1206723189 1.00000000
2.49735260 1.00291681 -0.62131482 4 2 6812 2.76200000 1206723191 1206723191 -13.00000000
8.20124722 3.29355550 0.46317321 13 3 6812 8.85000000 1206723194 1206723194 3.00000000
2.97708559 1.19497037 -0.62356383 6 4 6813 3.26800000 1206723196 1206723196 -11.00000000
8.18609619 3.28415298 0.77167696 78 5 6814 8.85400000 1206723198 1206723198 5.00000000
3.74210906 1.50052619 -0.63856548 6 6 6815 4.08200000 1206723201 1206723201 -9.00000000
8.20884991 3.28995514 1.08585584 100 7 6816 8.91000000 1206723203 1206723203 7.00000000
5.07123089 2.03142834 -0.67076886 6 8 6817 5.50400000 1206723205 1206723205 -7.00000000
7.77221632 3.11181235 -0.73245686 13 10 6818 8.40400000 1206723210 1206723210 -5.00000000
8.19656658 3.27839255 -0.46264985 17 12 6820 8.84000000 1206723214 1206723214 -3.00000000
8.26581383 3.30441618 2.05515289 62 13 6821 9.13600000 1206723217 1206723217 13.00000000
8.17428493 3.26617122 -0.15365098 16 14 6822 8.80400000 1206723219 1206723219 -1.00000000
7.22831726 2.88673139 2.08556390 45 15 6823 8.05800000 1206723221 1206723221 15.00000000
2.10726690 0.83858335 -0.60770714 4 0 6830 2.34800000 1206723242 1206723242 -15.00000000
8.17383099 3.25111008 0.15354627 12 1 6831 8.79800000 1206723244 1206723244 1.00000000
2.49178362 0.99059379 -0.61906528 4 2 6832 2.75200000 1206723247 1206723247 -13.00000000
8.19599056 3.25826716 0.46223116 10 3 6832 8.83200000 1206723249 1206723249 3.00000000
2.98853660 1.18747091 -0.62509024 5 4 6833 3.27600000 1206723251 1206723251 -11.00000000
8.18639946 3.25114584 0.77063107 82 5 6834 8.84200000 1206723254 1206723254 5.00000000
3.75650406 1.49109852 -0.64012980 6 6 6835 4.09200000 1206723256 1206723256 -9.00000000
8.19260597 3.25030017 1.08219981 97 7 6836 8.88000000 1206723258 1206723258 7.00000000
5.08198166 2.01517749 -0.67125636 6 8 6837 5.50800000 1206723261 1206723261 -7.00000000
7.78488350 3.08539724 -0.73263115 13 10 6838 8.40600000 1206723265 1206723265 -5.00000000
8.18939018 3.24240875 -0.46160313 17 12 6840 8.82000000 1206723270 1206723270 -3.00000000
8.28092194 3.27697730 2.05605268 64 13 6841 9.14000000 1206723272 1206723272 13.00000000
8.17633820 3.23394036 -0.15347646 18 14 6842 8.79400000 1206723274 1206723274 -1.00000000
7.24194288 2.86290264 2.08659911 45 15 6843 8.06200000 1206723277 1206723277 15.00000000
2.11377621 0.83263856 -0.60874242 4 0 6850 2.35200000 1206723297 1206723297 -15.00000000
8.17210484 3.21743011 0.15330194 15 1 6851 8.78400000 1206723300 1206723300 1.00000000
2.47890592 0.97546756 -0.61501616 4 2 6852 2.73400000 1206723302 1206723302 -13.00000000
8.19616318 3.22525001 0.46160313 10 3 6852 8.82000000 1206723304 1206723304 3.00000000
3.00727963 1.18278039 -0.62814319 6 4 6853 3.29200000 1206723307 1206723307 -11.00000000
8.19398975 3.22109222 0.77028245 82 5 6854 8.83800000 1206723309 1206723309 5.00000000
3.75800896 1.47653210 -0.63950408 6 6 6855 4.08800000 1206723311 1206723311 -9.00000000
8.18912029 3.21587801 1.08024991 97 7 6856 8.86400000 1206723313 1206723313 7.00000000
5.07789803 1.99307418 -0.66979390 6 8 6857 5.49600000 1206723316 1206723316 -7.00000000
7.80117035 3.06038713 -0.73315412 13 10 6858 8.41200000 1206723320 1206723320 -5.00000000
8.18206215 3.20651531 -0.46055642 17 12 6860 8.80000000 1206723325 1206723325 -3.00000000
8.28505230 3.24520850 2.05425310 56 13 6861 9.13200000 1206723327 1206723327 13.00000000
8.17826653 3.20173502 -0.15330194 18 14 6862 8.78400000 1206723330 1206723330 -1.00000000
7.25679350 2.84098458 2.08815217 42 15 6862 8.06800000 1206723332 1206723332 15.00000000
2.13106894 0.83086902 -0.61288351 4 0 6870 2.36800000 1206723353 1206723353 -15.00000000
8.17397022 3.18525434 0.15312742 15 1 6871 8.77400000 1206723355 1206723355 1.00000000
2.49500680 0.97175932 -0.61816549 4 2 6872 2.74800000 1206723357 1206723357 -13.00000000
8.18876076 3.18937182 0.46055642 10 3 6872 8.80000000 1206723360 1206723360 3.00000000
3.00041294 1.16800261 -0.62585348 6 4 6873 3.28000000 1206723362 1206723362 -11.00000000
8.19775677 3.18958044 0.76958519 82 5 6874 8.83000000 1206723364 1206723364 5.00000000
3.76866341 1.46555305 -0.64044273 6 6 6875 4.09400000 1206723366 1206723366 -9.00000000
8.18919373 3.18295813 1.07878745 95 7 6876 8.85200000 1206723369 1206723369 7.00000000
5.08112335 1.97389925 -0.66930646 9 8 6877 5.49200000 1206723371 1206723371 -7.00000000
7.83037853 3.04034877 -0.73489720 13 10 6878 8.43200000 1206723376 1206723376 -5.00000000
8.17830849 3.17215681 -0.45971903 17 12 6880 8.78400000 1206723380 1206723380 -3.00000000
8.28906155 3.21345091 2.05245352 56 13 6881 9.12400000 1206723383 1206723383 13.00000000
8.17634106 3.16811061 -0.15305761 14 14 6882 8.77000000 1206723385 1206723385 -1.00000000
7.26715755 2.81436801 2.08815217 42 15 6883 8.06800000 1206723387 1206723387 15.00000000
2.11593294 0.81647056 -0.60770714 4 0 6890 2.34800000 1206723408 1206723408 -15.00000000
8.17944145 3.15454364 0.15302271 15 1 6891 8.76800000 1206723410 1206723410 1.00000000
2.51111197 0.96795058 -0.62131482 4 2 6892 2.76200000 1206723413 1206723413 -13.00000000
8.19666767 3.15790105 0.46034706 10 3 6893 8.79600000 1206723415 1206723415 3.00000000
2.98981571 1.15187562 -0.62280059 5 4 6893 3.26400000 1206723417 1206723417 -11.00000000
8.18838787 3.15306997 0.76766777 78 5 6894 8.80800000 1206723419 1206723419 5.00000000
3.77006912 1.45096993 -0.63981694 4 6 6895 4.09000000 1206723422 1206723422 -9.00000000
8.19284344 3.15150237 1.07781243 95 7 6896 8.84400000 1206723424 1206723424 7.00000000
5.08427668 1.95472598 -0.66881895 6 8 6897 5.48800000 1206723426 1206723426 -7.00000000
7.80746746 3.00013328 -0.73175961 13 10 6898 8.39600000 1206723431 1206723431 -5.00000000
8.30777836 3.19072127 1.72987437 3 11 6899 9.06600000 1206723433 1206723433 11.00000000
8.19306087 3.14502144 -0.45992839 17 12 6900 8.78800000 1206723436 1206723436 -3.00000000
8.29477024 3.18240285 2.05110383 54 13 6901 9.11800000 1206723438 1206723438 13.00000000
8.16867828 3.13239074 -0.15270856 18 14 6902 8.75000000 1206723440 1206723440 -1.00000000
7.27103901 2.78817868 2.08659911 45 15 6902 8.06200000 1206723443 1206723443 15.00000000
2.11516047 0.80770123 -0.60667187 4 0 6910 2.34400000 1206723463 1206723463 -15.00000000
8.17732525 3.12098169 0.15277837 18 1 6911 8.75400000 1206723466 1206723466 1.00000000
2.50719237 0.95640105 -0.61951518 4 2 6912 2.75400000 1206723468 1206723468 -13.00000000
8.19830990 3.12571239 0.45982370 13 3 6913 8.78600000 1206723470 1206723470 3.00000000
2.99565268 1.14213169 -0.62318218 5 4 6913 3.26600000 1206723472 1206723472 -11.00000000
8.17700291 3.11595440 0.76557606 78 5 6914 8.78400000 1206723475 1206723475 5.00000000
3.76034284 1.43217647 -0.63731402 4 6 6915 4.07400000 1206723477 1206723477 -9.00000000
8.20379448 3.12288475 1.07781243 97 7 6916 8.84400000 1206723479 1206723479 7.00000000
5.10591173 1.94261384 -0.67076886 6 8 6917 5.50400000 1206723482 1206723482 -7.00000000
7.81230545 2.97073722 -0.73123670 13 10 6918 8.39000000 1206723486 1206723486 -5.00000000
8.19278717 3.11214781 -0.45930034 17 12 6920 8.77600000 1206723491 1206723491 -3.00000000
8.32769012 3.16172981 2.05650258 52 13 6921 9.14200000 1206723493 1206723493 13.00000000
8.17395401 3.10172939 -0.15260383 16 14 6922 8.74400000 1206723496 1206723496 -1.00000000
7.27579021 2.75945497 2.08504629 45 15 6923 8.05600000 1206723498 1206723498 15.00000000
2.12172127 0.80130845 -0.60770714 4 0 6931 2.34800000 1206723519 1206723519 -15.00000000
8.17000103 3.08392739 0.15242931 21 1 6932 8.73400000 1206723521 1206723521 1.00000000
2.50885773 0.94651741 -0.61906528 4 2 6933 2.75200000 1206723523 1206723523 -13.00000000
8.20223522 3.09282446 0.45940503 10 3 6934 8.77800000 1206723525 1206723525 3.00000000
3.00716662 1.13391507 -0.62470865 5 4 6934 3.27400000 1206723528 1206723528 -11.00000000
8.17718220 3.08174753 0.76453018 78 5 6935 8.77200000 1206723530 1206723530 5.00000000
3.77665806 1.42256236 -0.63919121 4 6 6936 4.08600000 1206723532 1206723532 -9.00000000
8.19289207 3.08440256 1.07488763 97 7 6937 8.82000000 1206723535 1206723535 7.00000000
5.11299753 1.92388666 -0.67076886 9 8 6938 5.50400000 1206723537 1206723537 -7.00000000
7.82873583 2.94418788 -0.73175961 13 10 6939 8.39600000 1206723542 1206723542 -5.00000000
8.17422390 3.07086062 -0.45762560 17 12 6941 8.74400000 1206723546 1206723546 -3.00000000
8.34834480 3.13461113 2.05875206 56 13 6942 9.15200000 1206723549 1206723549 13.00000000
8.17216206 3.06683135 -0.15235952 14 14 6943 8.73000000 1206723551 1206723551 -1.00000000
7.28176117 2.73268342 2.08401084 45 15 6943 8.05200000 1206723553 1206723553 15.00000000
2.12812471 0.79524988 -0.60874242 4 0 6951 2.35200000 1206723574 1206723574 -15.00000000
8.16947651 3.05119205 0.15221989 15 1 6952 8.72200000 1206723576 1206723576 1.00000000
2.50666928 0.93570960 -0.61771560 4 2 6953 2.74600000 1206723578 1206723578 -13.00000000
8.19052601 3.05579662 0.45814896 10 3 6954 8.75400000 1206723581 1206723581 3.00000000
3.02030349 1.12684250 -0.62661672 5 4 6954 3.28400000 1206723583 1206723583 -11.00000000
8.18789005 3.05318499 0.76453018 78 5 6955 8.77200000 1206723585 1206723585 5.00000000
3.78160071 1.40937066 -0.63919121 4 6 6956 4.08600000 1206723588 1206723588 -9.00000000
8.18872643 3.05024171 1.07293773 95 7 6957 8.80400000 1206723590 1206723590 7.00000000
5.10479927 1.90048647 -0.66881895 6 8 6958 5.48800000 1206723592 1206723592 -7.00000000
7.85016918 2.92101145 -0.73280549 13 10 6959 8.40800000 1206723597 1206723597 -5.00000000
8.28239346 3.08019447 1.71766257 3 11 6960 9.00200000 1206723599 1206723599 11.00000000
8.16617203 3.03534985 -0.45657888 17 12 6961 8.72400000 1206723601 1206723601 -3.00000000
8.32270050 3.09187794 2.04975390 56 13 6962 9.11200000 1206723604 1206723604 13.00000000
8.18656635 3.03967857 -0.15242931 14 14 6963 8.73400000 1206723606 1206723606 -1.00000000
7.28991652 2.70530391 2.08349323 45 15 6964 8.05000000 1206723608 1206723608 15.00000000
2.13423586 0.78990132 -0.60977769 4 0 6969 2.35600000 1206723629 1206723629 -15.00000000
8.17714596 3.02481818 0.15218498 12 1 6970 8.72000000 1206723631 1206723631 1.00000000
2.51325226 0.92918158 -0.61861539 9 2 6971 2.75000000 1206723634 1206723634 -13.00000000
8.18322468 3.02381992 0.45720690 10 3 6972 8.73600000 1206723636 1206723636 3.00000000
3.01093793 1.11258507 -0.62394542 5 4 6972 3.27000000 1206723638 1206723638 -11.00000000
8.17875099 3.02054453 0.76278704 75 5 6973 8.75200000 1206723641 1206723641 5.00000000
3.78230357 1.39611542 -0.63856548 4 6 6974 4.08200000 1206723643 1206723643 -9.00000000
8.19826889 3.02450109 1.07293773 90 7 6975 8.80400000 1206723645 1206723645 7.00000000
5.10329485 1.88169289 -0.66784400 6 8 6976 5.48000000 1206723648 1206723648 -7.00000000
7.87239313 2.90115762 -0.73402566 13 10 6977 8.42200000 1206723652 1206723652 -5.00000000
8.17379284 3.00899005 -0.45647421 12 12 6979 8.72200000 1206723657 1206723657 -3.00000000
8.20069313 3.01726770 2.01736116 90 13 6980 8.96800000 1206723659 1206723659 13.00000000
8.17730713 3.00704312 -0.15208027 12 14 6981 8.71400000 1206723661 1206723661 -1.00000000
7.31060362 2.68832970 2.08711672 42 15 6981 8.06400000 1206723664 1206723664 15.00000000
2.13335204 0.78111821 -0.60874242 4 0 6989 2.35200000 1206723684 1206723684 -15.00000000
8.17075348 2.99007130 0.15187085 12 1 6990 8.70200000 1206723687 1206723687 1.00000000
2.51648045 0.92040300 -0.61861539 10 2 6991 2.75000000 1206723689 1206723689 -13.00000000
8.18435097 2.99180818 0.45668355 13 3 6992 8.72600000 1206723691 1206723691 3.00000000
3.00005174 1.09667575 -0.62089247 5 4 6992 3.25400000 1206723694 1206723694 -11.00000000
8.18550205 2.99060941 0.76243842 78 5 6993 8.74800000 1206723696 1206723696 5.00000000
3.78344274 1.38154912 -0.63793975 4 6 6994 4.07800000 1206723698 1206723698 -9.00000000
8.19758797 2.99178195 1.07147527 92 7 6995 8.79200000 1206723701 1206723701 7.00000000
5.12102127 1.86794913 -0.66930646 6 8 6996 5.49200000 1206723703 1206723703 -7.00000000
8.19747925 2.98850012 1.38194203 100 9 6997 8.83400000 1206723705 1206723705 9.00000000
7.88060045 2.87297773 -0.73385137 13 10 6997 8.42000000 1206723707 1206723707 -5.00000000
8.21778679 2.99427891 1.70010817 90 11 6998 8.91000000 1206723710 1206723710 11.00000000
8.16735649 2.97428894 -0.45553216 12 12 6999 8.70400000 1206723712 1206723712 -3.00000000
8.20018864 2.98462462 2.01466155 106 13 7000 8.95600000 1206723714 1206723714 13.00000000
8.16332436 2.96959376 -0.15162651 12 14 7001 8.68800000 1206723717 1206723717 -1.00000000
7.30406713 2.65557623 2.08245802 45 15 7002 8.04600000 1206723719 1206723719 15.00000000
2.13256764 0.77197874 -0.60770714 4 0 7010 2.34800000 1206723740 1206723740 -15.00000000
8.16849518 2.95534158 0.15162651 12 1 7011 8.68800000 1206723742 1206723742 1.00000000
2.51983690 0.91117346 -0.61861539 9 2 7012 2.75000000 1206723744 1206723744 -13.00000000
8.19338322 2.96111202 0.45657888 13 3 7013 8.72400000 1206723747 1206723747 3.00000000
3.01143670 1.08834183 -0.62241894 5 4 7013 3.26200000 1206723749 1206723749 -11.00000000
8.18329144 2.95585012 0.76121825 75 5 7014 8.73400000 1206723751 1206723751 5.00000000
3.79219699 1.36901438 -0.63856548 6 6 7015 4.08200000 1206723754 1206723754 -9.00000000
8.20849800 2.96171618 1.07147527 92 7 7016 8.79200000 1206723756 1206723756 7.00000000
5.13530302 1.85186064 -0.67028141 6 8 7017 5.50000000 1206723758 1206723758 -7.00000000
8.20042801 2.95718694 1.38069057 84 9 7017 8.82600000 1206723760 1206723760 9.00000000
7.87983131 2.84002137 -0.73280549 13 10 7018 8.40800000 1206723763 1206723763 -5.00000000
8.21393013 2.95881629 1.69705522 81 11 7019 8.89400000 1206723765 1206723765 11.00000000
8.16504860 2.93959832 -0.45479947 12 12 7020 8.69000000 1206723767 1206723767 -3.00000000
8.20007038 2.95059061 2.01196218 106 13 7021 8.94400000 1206723770 1206723770 13.00000000
8.16098213 2.93491673 -0.15138218 14 14 7022 8.67400000 1206723772 1206723772 -1.00000000
7.30238533 2.62614155 2.07935214 45 15 7022 8.03400000 1206723774 1206723774 15.00000000
2.14798093 0.76908851 -0.61133057 4 0 7030 2.36200000 1206723795 1206723795 -15.00000000
8.16746426 2.92276764 0.15141708 15 1 7031 8.67600000 1206723797 1206723797 1.00000000
2.51382756 0.89909071 -0.61636591 5 2 7032 2.74000000 1206723800 1206723800 -13.00000000
8.19238472 2.92846012 0.45595086 13 3 7033 8.71200000 1206723802 1206723802 3.00000000
3.02261209 1.08046663 -0.62394542 5 4 7033 3.27000000 1206723804 1206723804 -11.00000000
8.18042564 2.92257476 0.75999808 78 5 7034 8.72000000 1206723807 1206723807 5.00000000
3.78206992 1.35045469 -0.63606256 4 6 7035 4.06600000 1206723809 1206723809 -9.00000000
8.19261169 2.92370415 1.06806290 97 7 7036 8.76400000 1206723811 1206723811 7.00000000
5.13799620 1.83259010 -0.66979390 6 8 7037 5.49600000 1206723813 1206723813 -7.00000000
8.20376873 2.92445779 1.37943912 91 9 7038 8.81800000 1206723816 1206723816 9.00000000
7.89157343 2.81316733 -0.73297977 13 10 7038 8.41000000 1206723818 1206723818 -5.00000000
8.19646740 2.92024279 1.69133091 84 11 7039 8.86400000 1206723820 1206723820 11.00000000
8.16397095 2.90705919 -0.45417142 12 12 7040 8.67800000 1206723823 1206723823 -3.00000000
8.20664883 2.92064214 2.01106238 104 13 7041 8.94000000 1206723825 1206723825 13.00000000
8.17494488 2.90775204 -0.15145199 14 14 7042 8.67800000 1206723827 1206723827 -1.00000000
7.31560230 2.60065341 2.08038759 45 15 7043 8.03800000 1206723830 1206723830 15.00000000
2.13959384 0.75809020 -0.60822475 4 0 7049 2.35000000 1206723850 1206723850 -15.00000000
8.16391659 2.89099455 0.15117274 12 1 7050 8.66200000 1206723853 1206723853 1.00000000
2.50209856 0.88554817 -0.61276668 4 2 7051 2.72400000 1206723855 1206723855 -13.00000000
8.18887043 2.89661479 0.45521814 15 3 7052 8.69800000 1206723857 1206723857 3.00000000
3.02617836 1.07043731 -0.62394542 5 4 7052 3.27000000 1206723860 1206723860 -11.00000000
8.17880154 2.89144683 0.75895220 78 5 7053 8.70800000 1206723862 1206723862 5.00000000
3.79025245 1.33922160 -0.63668829 4 6 7054 4.07000000 1206723864 1206723864 -9.00000000
8.18167210 2.88924932 1.06538177 100 7 7055 8.74200000 1206723866 1206723866 7.00000000
5.12906981 1.81025636 -0.66784400 6 8 7056 5.48000000 1206723869 1206723869 -7.00000000
8.20919037 2.89735556 1.37881339 89 9 7056 8.81400000 1206723871 1206723871 9.00000000
7.92340565 2.79493570 -0.73507154 13 10 7057 8.43400000 1206723873 1206723873 -5.00000000
8.20240307 2.89174080 1.69056773 75 11 7058 8.86000000 1206723876 1206723876 11.00000000
8.16226387 2.87598801 -0.45354339 12 12 7059 8.66600000 1206723878 1206723878 -3.00000000
8.19790745 2.88693905 2.00656343 104 13 7060 8.92000000 1206723880 1206723880 13.00000000
8.16567993 2.87398791 -0.15110293 14 14 7061 8.65800000 1206723883 1206723883 -1.00000000
7.32738066 2.57894063 2.08142281 45 15 7061 8.04200000 1206723885 1206723885 15.00000000
2.14040399 0.74997818 -0.60770714 4 0 7069 2.34800000 1206723906 1206723906 -15.00000000
8.17018414 2.86115789 0.15110293 12 1 7070 8.65800000 1206723908 1206723908 1.00000000
2.50885320 0.87809634 -0.61366647 4 2 7071 2.72800000 1206723910 1206723910 -13.00000000
8.18573475 2.86339641 0.45448545 13 3 7072 8.68400000 1206723913 1206723913 3.00000000
3.02619028 1.05857098 -0.62318218 5 4 7072 3.26600000 1206723915 1206723915 -11.00000000
8.18884468 2.86287999 0.75895220 78 5 7073 8.70800000 1206723917 1206723917 5.00000000
3.81355238 1.33249891 -0.63981694 4 6 7074 4.09000000 1206723919 1206723919 -9.00000000
8.19170761 2.86067247 1.06538177 100 7 7075 8.74200000 1206723922 1206723922 7.00000000
5.12411213 1.78841674 -0.66638160 6 8 7076 5.46800000 1206723924 1206723924 -7.00000000
8.20060349 2.86217308 1.37568474 91 9 7076 8.79400000 1206723926 1206723926 9.00000000
7.98202562 2.78432250 -0.73960364 13 10 7077 8.48600000 1206723929 1206723929 -5.00000000
8.20132446 2.85921359 1.68827796 84 11 7078 8.84800000 1206723931 1206723931 11.00000000
8.16848087 2.84616470 -0.45333406 12 12 7079 8.66200000 1206723933 1206723933 -3.00000000
8.19321251 2.85317826 2.00296426 106 13 7080 8.90400000 1206723936 1206723936 13.00000000
8.16999626 2.84349489 -0.15099822 12 14 7081 8.65200000 1206723938 1206723938 -1.00000000
7.34363651 2.55588770 2.08349323 45 15 7081 8.05000000 1206723940 1206723940 15.00000000
2.15396118 0.74629694 -0.61081296 4 0 7089 2.36000000 1206723961 1206723961 -15.00000000
8.17634201 2.83131242 0.15103312 12 1 7090 8.65400000 1206723963 1206723963 1.00000000
2.52663565 0.87443221 -0.61726570 3 2 7091 2.74400000 1206723966 1206723966 -13.00000000
8.19379330 2.83415246 0.45438078 13 3 7092 8.68200000 1206723968 1206723968 3.00000000
3.02615619 1.04671764 -0.62241894 5 4 7092 3.26200000 1206723970 1206723970 -11.00000000
8.17995739 2.82776856 0.75720912 78 5 7093 8.68800000 1206723972 1206723972 5.00000000
3.81444621 1.31788886 -0.63919121 4 6 7094 4.08600000 1206723975 1206723975 -9.00000000
8.19413853 2.82946897 1.06440687 100 7 7095 8.73400000 1206723977 1206723977 7.00000000
5.14908838 1.77699530 -0.66881895 6 8 7096 5.48800000 1206723979 1206723979 -7.00000000
8.19796658 2.82758856 1.37349463 94 9 7097 8.78000000 1206723982 1206723982 9.00000000
7.98416185 2.75384450 -0.73890638 13 10 7097 8.47800000 1206723984 1206723984 -5.00000000
8.20754242 2.82928848 1.68751478 75 11 7098 8.84400000 1206723986 1206723986 11.00000000
8.17081261 2.81503177 -0.45291537 17 12 7099 8.65400000 1206723989 1206723989 -3.00000000
8.19206619 2.82075453 2.00026488 101 13 7100 8.89200000 1206723991 1206723991 13.00000000
8.16474533 2.80975342 -0.15071899 12 14 7101 8.63600000 1206723993 1206723993 -1.00000000
7.33972645 2.52583766 2.07986975 47 15 7101 8.03600000 1206723995 1206723995 15.00000000
2.14558744 0.73501718 -0.60770714 4 0 7109 2.34800000 1206724016 1206724016 -15.00000000
8.15968895 2.79368615 0.15054446 12 1 7110 8.62600000 1206724019 1206724019 1.00000000
2.53336000 0.86686909 -0.61816549 3 2 7111 2.74800000 1206724021 1206724021 -13.00000000
8.19040775 2.80100942 0.45364806 15 3 7112 8.66800000 1206724023 1206724023 3.00000000
3.02793384 1.03551269 -0.62203735 5 4 7112 3.26000000 1206724025 1206724025 -11.00000000
8.17281055 2.79339838 0.75564027 78 5 7113 8.67000000 1206724028 1206724028 5.00000000
3.82650042 1.30712008 -0.64044273 4 6 7114 4.09400000 1206724030 1206724030 -9.00000000
8.20020771 2.79956603 1.06391943 99 7 7115 8.73000000 1206724032 1206724032 7.00000000
5.15526009 1.75901079 -0.66881895 6 8 7116 5.48800000 1206724035 1206724035 -7.00000000
8.18722057 2.79194164 1.37005305 91 9 7117 8.75800000 1206724037 1206724037 9.00000000
8.00881195 2.73110223 -0.74030089 13 10 7117 8.49400000 1206724039 1206724039 -5.00000000
8.20250225 2.79555488 1.68446183 84 11 7118 8.82800000 1206724042 1206724042 11.00000000
8.16735554 2.78198528 -0.45218265 12 12 7119 8.64000000 1206724044 1206724044 -3.00000000
8.19817257 2.79088569 1.99936497 103 13 7120 8.88800000 1206724046 1206724046 13.00000000
8.15557194 2.77479506 -0.15036993 12 14 7121 8.61600000 1206724048 1206724048 -1.00000000
7.32881546 2.49207807 2.07417583 47 15 7122 8.01400000 1206724051 1206724051 15.00000000
2.14996982 0.72814292 -0.60822475 4 0 7129 2.35000000 1206724072 1206724072 -15.00000000
8.15802670 2.76133966 0.15033503 12 1 7130 8.61400000 1206724074 1206724074 1.00000000
2.52898669 0.85552281 -0.61636591 3 2 7131 2.74000000 1206724076 1206724076 -13.00000000
8.20202732 2.77304220 0.45375273 15 3 7132 8.67000000 1206724078 1206724078 3.00000000
3.03524971 1.02619457 -0.62280059 4 4 7132 3.26400000 1206724081 1206724081 -11.00000000
8.17118645 2.76102614 0.75459445 76 5 7133 8.65800000 1206724083 1206724083 5.00000000
3.81606770 1.28869903 -0.63793975 4 6 7134 4.07800000 1206724085 1206724085 -9.00000000
8.18359756 2.76203775 1.06050706 99 7 7135 8.70200000 1206724088 1206724088 7.00000000
5.15008307 1.73719800 -0.66735655 6 8 7136 5.47600000 1206724090 1206724090 -7.00000000
8.20253181 2.76523900 1.37099171 94 9 7137 8.76400000 1206724092 1206724092 9.00000000
8.01829624 2.70312953 -0.74030089 13 10 7137 8.49400000 1206724095 1206724095 -5.00000000
8.19360542 2.76063728 1.68064559 84 11 7138 8.80800000 1206724097 1206724097 11.00000000
8.17323017 2.75218415 -0.45197332 12 12 7139 8.63600000 1206724099 1206724099 -3.00000000
8.19678307 2.75852227 1.99666560 101 13 7140 8.87600000 1206724101 1206724101 13.00000000
8.16899872 2.74758482 -0.15043974 12 14 7141 8.62000000 1206724104 1206724104 -1.00000000
7.34802580 2.47145629 2.07728171 45 15 7141 8.02600000 1206724106 1206724106 15.00000000
2.15066648 0.72002035 -0.60770714 4 0 7149 2.34800000 1206724127 1206724127 -15.00000000
8.16382313 2.73157692 0.15026522 12 1 7150 8.61000000 1206724129 1206724129 1.00000000
2.52456498 0.84421772 -0.61456627 4 2 7151 2.73200000 1206724131 1206724131 -13.00000000
8.19271374 2.73806405 0.45270601 15 3 7152 8.65000000 1206724134 1206724134 3.00000000
3.04439926 1.01746023 -0.62394542 5 4 7152 3.27000000 1206724136 1206724136 -11.00000000
8.17321491 2.72996187 0.75389719 79 5 7153 8.65000000 1206724138 1206724138 5.00000000
3.82054281 1.27537060 -0.63793975 4 6 7154 4.07800000 1206724141 1206724141 -9.00000000
8.17435932 2.72717237 1.05806959 99 7 7155 8.68200000 1206724143 1206724143 7.00000000
5.15611553 1.71921027 -0.66735655 6 8 7156 5.47600000 1206724145 1206724145 -7.00000000
8.20089054 2.73284292 1.36911440 97 9 7157 8.75200000 1206724148 1206724148 9.00000000
8.04658508 2.68142295 -0.74204397 13 10 7157 8.51400000 1206724150 1206724150 -5.00000000
8.19946671 2.73077893 1.67988241 87 11 7158 8.80400000 1206724152 1206724152 11.00000000
8.16952229 2.71922207 -0.45124063 17 12 7159 8.62200000 1206724154 1206724154 -3.00000000
8.19526768 2.72620273 1.99396610 92 13 7160 8.86400000 1206724157 1206724157 13.00000000
8.17094994 2.71652937 -0.15030013 12 14 7161 8.61200000 1206724159 1206724159 -1.00000000
7.35294151 2.44457293 2.07624626 45 15 7161 8.02200000 1206724161 1206724161 15.00000000
2.16037822 0.71531343 -0.60977769 4 0 7168 2.35600000 1206724182 1206724182 -15.00000000
8.16144562 2.70072055 0.15005580 12 1 7169 8.59800000 1206724184 1206724184 1.00000000
2.52180004 0.83400565 -0.61321658 4 2 7170 2.72600000 1206724187 1206724187 -13.00000000
8.17852020 2.70478702 0.45144996 13 3 7170 8.62600000 1206724189 1206724189 3.00000000
3.04216433 1.00551069 -0.62280059 5 4 7171 3.26400000 1206724191 1206724191 -11.00000000
8.17276382 2.69971871 0.75302559 76 5 7172 8.64000000 1206724194 1206724194 5.00000000
3.82099938 1.26145566 -0.63731402 4 6 7173 4.07400000 1206724196 1206724196 -9.00000000
8.18335724 2.70005035 1.05806959 100 7 7174 8.68200000 1206724198 1206724198 7.00000000
5.15047693 1.69837260 -0.66589409 6 8 7175 5.46400000 1206724200 1206724200 -7.00000000
8.19442654 2.70211673 1.36661148 99 9 7175 8.73600000 1206724203 1206724203 9.00000000
8.07435608 2.66096091 -0.74378711 17 10 7176 8.53400000 1206724205 1206724205 -5.00000000
8.19355965 2.69866014 1.67682946 87 11 7177 8.78800000 1206724207 1206724207 11.00000000
8.16711235 2.68836927 -0.45061257 17 12 7178 8.61000000 1206724210 1206724210 -3.00000000
8.19315624 2.69535732 1.99126673 92 13 7179 8.85200000 1206724212 1206724212 13.00000000
8.16091633 2.68317294 -0.14995107 14 14 7180 8.59200000 1206724214 1206724214 -1.00000000
7.37385416 2.42439985 2.07986975 47 15 7180 8.03600000 1206724217 1206724217 15.00000000
2.15551782 0.70536470 -0.60770714 4 0 7188 2.34800000 1206724237 1206724237 -15.00000000
8.17082310 2.67221522 0.15005580 12 1 7189 8.59800000 1206724240 1206724240 1.00000000
2.53395748 0.82822502 -0.61546606 4 2 7190 2.73600000 1206724242 1206724242 -13.00000000
8.17698765 2.67107201 0.45082194 13 3 7191 8.61400000 1206724244 1206724244 3.00000000
3.03819084 0.99244696 -0.62127411 5 4 7191 3.25600000 1206724247 1206724247 -11.00000000
8.17645550 2.66931915 0.75250268 79 5 7192 8.63400000 1206724249 1206724249 5.00000000
3.83289123 1.25056100 -0.63856548 6 6 7193 4.08200000 1206724251 1206724251 -9.00000000
8.18140888 2.66777611 1.05660725 99 7 7194 8.67000000 1206724253 1206724253 7.00000000
5.16014862 1.68161380 -0.66638160 9 8 7195 5.46800000 1206724256 1206724256 -7.00000000
8.18173695 2.66472363 1.36285710 99 9 7196 8.71200000 1206724258 1206724258 9.00000000
8.08738422 2.63399386 -0.74413574 17 10 7196 8.53800000 1206724260 1206724260 -5.00000000
8.20106316 2.66943502 1.67644787 90 11 7197 8.78600000 1206724263 1206724263 11.00000000
8.17454720 2.65922642 -0.45050791 17 12 7198 8.60800000 1206724265 1206724265 -3.00000000
8.19510174 2.66433144 1.98946714 101 13 7199 8.84400000 1206724267 1206724267 13.00000000
8.15692043 2.65034413 -0.14970674 14 14 7200 8.57800000 1206724270 1206724270 -1.00000000
7.37166595 2.39377713 2.07676411 47 15 7201 8.02400000 1206724272 1206724272 15.00000000
2.15796685 0.69783622 -0.60770714 4 0 7208 2.34800000 1206724293 1206724293 -15.00000000
8.14965630 2.63383818 0.14949732 12 1 7209 8.56600000 1206724295 1206724295 1.00000000
2.54981399 0.82356751 -0.61861539 4 2 7210 2.75000000 1206724297 1206724297 -13.00000000
8.17819786 2.64148593 0.45040324 13 3 7210 8.60600000 1206724300 1206724300 3.00000000
3.04724169 0.98364490 -0.62241894 5 4 7211 3.26200000 1206724302 1206724302 -11.00000000
8.16296959 2.63342118 0.75041097 79 5 7212 8.61000000 1206724304 1206724304 5.00000000
3.82595277 1.23353720 -0.63668829 6 6 7213 4.07000000 1206724306 1206724306 -9.00000000
8.19067097 2.63920140 1.05660725 99 7 7214 8.67000000 1206724309 1206724309 7.00000000
5.16787672 1.66419983 -0.66662532 6 8 7215 5.47000000 1206724311 1206724311 -7.00000000
8.18346691 2.63372731 1.36160553 99 9 7216 8.70400000 1206724313 1206724313 9.00000000
8.08514977 2.60208535 -0.74308985 17 10 7216 8.52600000 1206724316 1206724316 -5.00000000
8.19911766 2.63718510 1.67415810 96 11 7217 8.77400000 1206724318 1206724318 11.00000000
8.16096210 2.62334108 -0.44925186 12 12 7218 8.58400000 1206724320 1206724320 -3.00000000
8.20064163 2.63451695 1.98856735 103 13 7219 8.84000000 1206724323 1206724323 13.00000000
