# .PCD v0.7 - Point Cloud Data file format
VERSION 0.7
FIELDS x y z intensity laser_id azimuth distance_m adjustedtime timestamp vertical_angle
SIZE 4 4 4 1 1 2 8 8 4 8
TYPE F F F U U U F U U F
COUNT 1 1 1 1 1 1 1 1 1 1
WIDTH 527
HEIGHT 1
VIEWPOINT 0 0 0 1 0 0 0
POINTS 527
DATA ascii
8.13100719 -2.05293179 2.24706697 45 15 10417 8.68200000 1207533088 1207533088 15.00000000
2.13080287 -0.54115504 -0.58907217 4 0 10425 2.27600000 1207533109 1207533109 -15.00000000
8.05853939 -2.04810548 0.14513421 12 1 10426 8.31600000 1207533111 1207533111 1.00000000
2.48163557 -0.63117737 -0.59117138 4 2 10427 2.62800000 1207533113 1207533113 -13.00000000
8.07897568 -2.05630207 0.43690056 10 3 10428 8.34800000 1207533116 1207533116 3.00000000
2.97565627 -0.75737917 -0.59685051 4 4 10428 3.12800000 1207533118 1207533118 -11.00000000
8.09560299 -2.06203866 0.73088807 83 5 10429 8.38600000 1207533120 1207533120 5.00000000
3.69243598 -0.94119012 -0.60352415 4 6 10430 3.85800000 1207533123 1207533123 -9.00000000
8.08062363 -2.06122732 1.02394617 85 7 10431 8.40200000 1207533125 1207533125 7.00000000
4.90663004 -1.25250852 -0.62177742 8 8 10432 5.10200000 1207533127 1207533127 -7.00000000
8.15902138 -2.08425856 1.33376026 5 9 10433 8.52600000 1207533130 1207533130 9.00000000
6.57686853 -1.68009067 -0.59387922 12 10 10433 6.81400000 1207533132 1207533132 -5.00000000
8.15994644 -2.08601213 1.63714123 6 11 10434 8.58000000 1207533134 1207533134 11.00000000
8.05323792 -2.06023073 -0.43564451 17 12 10435 8.32400000 1207533136 1207533136 -3.00000000
8.06815243 -2.06704712 -0.14537854 12 14 10437 8.33000000 1207533141 1207533141 -1.00000000
8.13465691 -2.08559847 2.25017285 45 15 10438 8.69400000 1207533143 1207533143 15.00000000
2.11767650 -0.54569721 -0.58596629 4 0 10445 2.26400000 1207533164 1207533164 -15.00000000
8.07264042 -2.08171535 0.14551817 12 1 10446 8.33800000 1207533166 1207533166 1.00000000
2.48319125 -0.64080995 -0.59207118 4 2 10447 2.63200000 1207533169 1207533169 -13.00000000
8.06788063 -2.08349156 0.43669122 10 3 10448 8.34400000 1207533171 1207533171 3.00000000
2.96158910 -0.76481616 -0.59456080 4 4 10448 3.11600000 1207533173 1207533173 -11.00000000
8.09800148 -2.09277773 0.73175961 90 5 10449 8.39600000 1207533176 1207533176 5.00000000
3.68147826 -0.95209503 -0.60227269 4 6 10450 3.85000000 1207533178 1207533178 -9.00000000
8.08106709 -2.09141064 1.02492118 83 7 10451 8.41000000 1207533180 1207533180 7.00000000
4.89069796 -1.26664197 -0.62031496 8 8 10452 5.09000000 1207533183 1207533183 -7.00000000
8.15206432 -2.11130357 1.33376026 5 9 10452 8.52600000 1207533185 1207533185 9.00000000
6.56324911 -1.70103848 -0.59318197 12 10 10453 6.80600000 1207533187 1207533187 -5.00000000
8.15641594 -2.11546874 1.63790441 6 11 10454 8.58400000 1207533189 1207533189 11.00000000
8.05566311 -2.09083796 -0.43616787 17 12 10455 8.33400000 1207533192 1207533192 -3.00000000
8.05895233 -2.09469461 -0.14534365 12 14 10457 8.32800000 1207533196 1207533196 -1.00000000
8.12956524 -2.11304832 2.25069046 45 15 10457 8.69600000 1207533199 1207533199 15.00000000
2.11575890 -0.55308598 -0.58596629 4 0 10465 2.26400000 1207533219 1207533219 -15.00000000
8.07112885 -2.11139965 0.14562288 12 1 10466 8.34400000 1207533222 1207533222 1.00000000
2.48093915 -0.64947397 -0.59207118 4 2 10467 2.63200000 1207533224 1207533224 -13.00000000
8.07021904 -2.11417174 0.43721458 13 3 10468 8.35400000 1207533226 1207533226 3.00000000
2.94750619 -0.77216423 -0.59227115 4 4 10468 3.10400000 1207533229 1207533229 -11.00000000
8.07522869 -2.11699033 0.73036510 72 5 10469 8.38000000 1207533231 1207533231 5.00000000
3.68386459 -0.96644378 -0.60321128 6 6 10470 3.85600000 1207533233 1207533233 -9.00000000
8.08715725 -2.12313461 1.02662730 90 7 10471 8.42400000 1207533236 1207533236 7.00000000
4.89392662 -1.28572369 -0.62128991 8 8 10472 5.09800000 1207533238 1207533238 -7.00000000
8.15955544 -2.14518619 1.33626318 5 9 10473 8.54200000 1207533240 1207533240 9.00000000
6.55341768 -1.72292495 -0.59283334 12 10 10473 6.80200000 1207533242 1207533242 -5.00000000
8.16796780 -2.14892220 1.64172065 9 11 10474 8.60400000 1207533245 1207533245 11.00000000
8.04831600 -2.11894464 -0.43616787 12 12 10475 8.33400000 1207533247 1207533247 -3.00000000
8.04579067 -2.12128329 -0.14523892 12 14 10477 8.32200000 1207533252 1207533252 -1.00000000
8.13110542 -2.14529467 2.25327849 45 15 10478 8.70600000 1207533254 1207533254 15.00000000
2.10241652 -0.55823123 -0.58286047 4 0 10487 2.25200000 1207533275 1207533275 -15.00000000
8.05136681 -2.13929391 0.14541344 12 1 10488 8.33200000 1207533277 1207533277 1.00000000
2.48219371 -0.65999681 -0.59297097 4 2 10489 2.63600000 1207533279 1207533279 -13.00000000
8.08327293 -2.15079260 0.43836597 13 3 10490 8.37600000 1207533282 1207533282 3.00000000
2.95590305 -0.78650498 -0.59456080 4 4 10490 3.11600000 1207533284 1207533284 -11.00000000
8.06896591 -2.14849401 0.73053944 76 5 10491 8.38200000 1207533286 1207533286 5.00000000
3.68203545 -0.98109025 -0.60352415 6 6 10492 3.85800000 1207533289 1207533289 -9.00000000
8.08469963 -2.15570569 1.02735853 85 7 10493 8.43000000 1207533291 1207533291 7.00000000
4.88511753 -1.30348194 -0.62080246 8 8 10494 5.09400000 1207533293 1207533293 -7.00000000
8.14782047 -2.17405963 1.33563745 5 9 10494 8.53800000 1207533295 1207533295 9.00000000
6.55830336 -1.75115943 -0.59387922 16 10 10495 6.81400000 1207533298 1207533298 -5.00000000
8.17103672 -2.18330979 1.64401031 6 11 10496 8.61600000 1207533300 1207533300 11.00000000
8.06134415 -2.15550733 -0.43731925 12 12 10497 8.35600000 1207533302 1207533302 -3.00000000
8.05497074 -2.15681624 -0.14555307 12 14 10499 8.34000000 1207533307 1207533307 -1.00000000
8.12318802 -2.17508221 2.25327849 45 15 10499 8.70600000 1207533309 1207533309 15.00000000
2.11724401 -0.57008713 -0.58751923 4 0 10507 2.27000000 1207533330 1207533330 -15.00000000
8.05543518 -2.17050672 0.14562288 12 1 10508 8.34400000 1207533332 1207533332 1.00000000
2.48363781 -0.66967189 -0.59387076 4 2 10509 2.64000000 1207533335 1207533335 -13.00000000
8.08342934 -2.18107653 0.43878466 15 3 10510 8.38400000 1207533337 1207533337 3.00000000
2.94555783 -0.79477251 -0.59303439 4 4 10510 3.10800000 1207533339 1207533339 -11.00000000
8.07680511 -2.18080163 0.73193395 76 5 10511 8.39800000 1207533342 1207533342 5.00000000
3.66523933 -0.99033016 -0.60133410 6 6 10512 3.84400000 1207533344 1207533344 -9.00000000
8.07329273 -2.18287706 1.02687109 87 7 10513 8.42600000 1207533346 1207533346 7.00000000
4.89203501 -1.32363701 -0.62226486 8 8 10514 5.10600000 1207533348 1207533348 -7.00000000
8.14742470 -2.20597315 1.33688891 5 9 10515 8.54600000 1207533351 1207533351 9.00000000
6.56945896 -1.77872789 -0.59544802 36 10 10515 6.83200000 1207533353 1207533353 -5.00000000
8.15010166 -2.20822477 1.64133894 3 11 10516 8.60200000 1207533355 1207533355 11.00000000
8.05569935 -2.18415618 -0.43742391 12 12 10517 8.35800000 1207533358 1207533358 -3.00000000
8.16807365 -2.21615505 1.95392489 2 13 10518 8.68600000 1207533360 1207533360 13.00000000
8.05897236 -2.18806410 -0.14576250 12 14 10519 8.35200000 1207533362 1207533362 -1.00000000
8.12261868 -2.20686674 2.25534916 45 15 10520 8.71400000 1207533365 1207533365 15.00000000
2.10798717 -0.57470328 -0.58544868 4 0 10525 2.26200000 1207533385 1207533385 -15.00000000
8.05436420 -2.19738197 0.14572759 12 1 10526 8.35000000 1207533388 1207533388 1.00000000
2.46648216 -0.67336529 -0.59027159 4 2 10527 2.62400000 1207533390 1207533390 -13.00000000
8.07461071 -2.20593429 0.43867999 13 3 10528 8.38200000 1207533392 1207533392 3.00000000
2.95440960 -0.80712664 -0.59532404 4 4 10528 3.12000000 1207533395 1207533395 -11.00000000
8.07567978 -2.20774102 0.73245686 76 5 10529 8.40400000 1207533397 1207533397 5.00000000
3.66020465 -1.00131869 -0.60102123 4 6 10530 3.84200000 1207533399 1207533399 -9.00000000
8.07405376 -2.21032596 1.02784610 87 7 10531 8.43400000 1207533401 1207533401 7.00000000
4.86487818 -1.33270550 -0.61934000 8 8 10532 5.08200000 1207533404 1207533404 -7.00000000
8.17132664 -2.23848796 1.34189487 5 9 10532 8.57800000 1207533406 1207533406 9.00000000
8.16584396 -2.24005079 1.64591837 3 11 10534 8.62600000 1207533411 1207533411 11.00000000
8.04687119 -2.20892453 -0.43731925 12 12 10535 8.35600000 1207533413 1207533413 -3.00000000
8.06748390 -2.21761131 -0.14604174 12 14 10537 8.36800000 1207533418 1207533418 -1.00000000
8.12348652 -2.23300529 2.25741982 45 15 10537 8.72200000 1207533420 1207533420 15.00000000
2.11900258 -0.58566052 -0.58907217 4 0 10545 2.27600000 1207533441 1207533441 -15.00000000
8.06013584 -2.22921491 0.14597192 12 1 10546 8.36400000 1207533443 1207533443 1.00000000
2.46411681 -0.68197083 -0.59027159 4 2 10547 2.62400000 1207533445 1207533445 -13.00000000
8.06493664 -2.23357344 0.43857533 10 3 10548 8.38000000 1207533448 1207533448 3.00000000
2.94022202 -0.81429058 -0.59303439 4 4 10548 3.10800000 1207533450 1207533450 -11.00000000
8.08136463 -2.23964167 0.73367703 72 5 10549 8.41800000 1207533452 1207533452 5.00000000
3.66049409 -1.01514494 -0.60164696 4 6 10550 3.84600000 1207533454 1207533454 -9.00000000
8.07011509 -2.23955774 1.02833354 85 7 10551 8.43800000 1207533457 1207533457 7.00000000
4.86402178 -1.35074127 -0.61982751 8 8 10552 5.08600000 1207533459 1207533459 -7.00000000
10.14484882 -2.81722951 1.66759145 9 9 10552 10.66000000 1207533461 1207533461 9.00000000
8.15419197 -2.26748919 1.64515519 3 11 10554 8.62200000 1207533466 1207533466 11.00000000
8.06412601 -2.24396038 -0.43867999 12 12 10555 8.38200000 1207533468 1207533468 -3.00000000
8.05198860 -2.24361157 -0.14590211 14 14 10557 8.36000000 1207533473 1207533473 -1.00000000
8.13239098 -2.26601481 2.26207852 47 15 10557 8.74000000 1207533475 1207533475 15.00000000
2.09462261 -0.58679998 -0.58286047 4 0 10565 2.25200000 1207533496 1207533496 -15.00000000
8.06578350 -2.26111484 0.14621626 12 1 10566 8.37800000 1207533498 1207533498 1.00000000
2.47297907 -0.69372612 -0.59297097 4 2 10567 2.63600000 1207533501 1207533501 -13.00000000
8.06670570 -2.26441073 0.43909869 10 3 10568 8.39000000 1207533503 1207533503 3.00000000
2.93358135 -0.82348770 -0.59227115 4 4 10568 3.10400000 1207533505 1207533505 -11.00000000
8.07157898 -2.26729846 0.73350275 76 5 10569 8.41600000 1207533507 1207533507 5.00000000
3.66263342 -1.02951980 -0.60258555 6 6 10570 3.85200000 1207533510 1207533510 -9.00000000
8.07944679 -2.27255177 1.03052711 90 7 10571 8.45600000 1207533512 1207533512 7.00000000
4.84972286 -1.36502242 -0.61860877 8 8 10572 5.07600000 1207533514 1207533514 -7.00000000
10.03938484 -2.82761669 1.65194798 11 9 10573 10.56000000 1207533517 1207533517 9.00000000
8.15378571 -2.29806924 1.64668167 3 11 10574 8.63000000 1207533521 1207533521 11.00000000
8.05624390 -2.27209568 -0.43867999 12 12 10575 8.38200000 1207533524 1207533524 -3.00000000
8.05373001 -2.27442193 -0.14607663 14 14 10577 8.37000000 1207533528 1207533528 -1.00000000
8.12071323 -2.29333830 2.26104307 47 15 10577 8.73600000 1207533530 1207533530 15.00000000
2.08698630 -0.59252512 -0.58130759 4 0 10585 2.24600000 1207533551 1207533551 -15.00000000
8.04822350 -2.28652334 0.14604174 12 1 10586 8.36800000 1207533554 1207533554 1.00000000
2.46304464 -0.70022261 -0.59117138 4 2 10587 2.62800000 1207533556 1207533556 -13.00000000
8.07219887 -2.29638028 0.43983138 13 3 10588 8.40400000 1207533558 1207533558 3.00000000
2.93068886 -0.83372277 -0.59227115 4 4 10588 3.10400000 1207533560 1207533560 -11.00000000
8.06553173 -2.29600525 0.73367703 72 5 10589 8.41800000 1207533563 1207533563 5.00000000
3.64571881 -1.03851032 -0.60039550 4 6 10590 3.83800000 1207533565 1207533565 -9.00000000
8.07719231 -2.30237293 1.03125834 90 7 10591 8.46200000 1207533567 1207533567 7.00000000
4.84683752 -1.38248730 -0.61885250 8 8 10592 5.07800000 1207533570 1207533570 -7.00000000
9.94397545 -2.83824587 1.63786888 11 9 10593 10.47000000 1207533572 1207533572 9.00000000
10.42613602 -2.97783422 2.10767627 6 11 10594 11.04600000 1207533577 1207533577 11.00000000
8.07130814 -2.30678964 -0.43993604 17 12 10595 8.40600000 1207533579 1207533579 -3.00000000
8.04574203 -2.30252075 -0.14607663 16 14 10597 8.37000000 1207533583 1207533583 -1.00000000
8.11410999 -2.32361865 2.26156092 47 15 10598 8.73800000 1207533586 1207533586 15.00000000
2.09418797 -0.60247701 -0.58389574 4 0 10605 2.25600000 1207533607 1207533607 -15.00000000
8.04403687 -2.31570935 0.14611155 18 1 10606 8.37200000 1207533609 1207533609 1.00000000
2.45684028 -0.70773715 -0.59027159 4 2 10607 2.62400000 1207533611 1207533611 -13.00000000
8.08332539 -2.33007574 0.44087809 13 3 10608 8.42400000 1207533613 1207533613 3.00000000
2.92398787 -0.84286016 -0.59150791 4 4 10608 3.10000000 1207533616 1207533616 -11.00000000
8.07086849 -2.32801056 0.73489720 76 5 10609 8.43200000 1207533618 1207533618 5.00000000
3.64017367 -1.05068207 -0.60008264 6 6 10610 3.83600000 1207533620 1207533620 -9.00000000
8.06910610 -2.33055353 1.03125834 90 7 10611 8.46200000 1207533623 1207533623 7.00000000
4.84198236 -1.39939749 -0.61885250 8 8 10612 5.07800000 1207533625 1207533625 -7.00000000
9.86759090 -2.85373163 1.62691844 11 9 10613 10.40000000 1207533627 1207533627 9.00000000
10.30252552 -2.98146462 2.08477902 15 11 10614 10.92600000 1207533632 1207533632 11.00000000
8.05553341 -2.33272743 -0.43951735 17 12 10615 8.39800000 1207533634 1207533634 -3.00000000
8.05302048 -2.33504677 -0.14635588 16 14 10617 8.38600000 1207533639 1207533639 -1.00000000
8.11378193 -2.35266519 2.26363134 45 15 10617 8.74600000 1207533641 1207533641 15.00000000
2.08465338 -0.60762107 -0.58182520 4 0 10625 2.24800000 1207533662 1207533662 -15.00000000
8.05126190 -2.34825349 0.14639078 18 1 10626 8.38800000 1207533664 1207533664 1.00000000
2.45248413 -0.71576279 -0.58982164 4 2 10627 2.62200000 1207533666 1207533666 -13.00000000
8.06363964 -2.35491824 0.44025007 10 3 10628 8.41200000 1207533669 1207533669 3.00000000
2.93610430 -0.85746455 -0.59456080 4 4 10628 3.11600000 1207533671 1207533671 -11.00000000
8.07799244 -2.36063981 0.73629171 76 5 10629 8.44800000 1207533673 1207533673 5.00000000
3.64217186 -1.06504560 -0.60102123 6 6 10630 3.84200000 1207533676 1207533676 -9.00000000
8.06854248 -2.36093569 1.03223336 90 7 10631 8.47000000 1207533678 1207533678 7.00000000
4.83706808 -1.41629064 -0.61885250 8 8 10632 5.07800000 1207533680 1207533680 -7.00000000
9.80069923 -2.87149620 1.61753237 11 9 10633 10.34000000 1207533683 1207533683 9.00000000
6.54673195 -1.91811991 -0.59684253 12 10 10633 6.84800000 1207533685 1207533685 -5.00000000
10.20351028 -2.99144912 2.06684303 12 11 10634 10.83200000 1207533687 1207533687 11.00000000
8.04925728 -2.36139464 -0.43962204 12 12 10635 8.40000000 1207533689 1207533689 -3.00000000
8.05633163 -2.36652446 -0.14656530 14 14 10637 8.39800000 1207533694 1207533694 -1.00000000
8.12590885 -2.38696241 2.26932549 47 15 10637 8.76800000 1207533696 1207533696 15.00000000
2.10300875 -0.62054479 -0.58751923 4 0 10644 2.27000000 1207533717 1207533717 -15.00000000
8.06452656 -2.38116860 0.14677474 15 1 10645 8.41000000 1207533719 1207533719 1.00000000
2.45944142 -0.72665244 -0.59207118 4 2 10646 2.63200000 1207533722 1207533722 -13.00000000
8.06386375 -2.38250279 0.44066876 13 3 10646 8.42000000 1207533724 1207533724 3.00000000
2.92194843 -0.86385667 -0.59227115 4 4 10647 3.10400000 1207533726 1207533726 -11.00000000
8.08349323 -2.39137101 0.73751187 79 5 10648 8.46200000 1207533729 1207533729 5.00000000
3.63861990 -1.07711756 -0.60102123 4 6 10649 3.84200000 1207533731 1207533731 -9.00000000
8.07779884 -2.39275312 1.03442693 92 7 10650 8.48800000 1207533733 1207533733 7.00000000
4.81711864 -1.42781019 -0.61690259 8 8 10651 5.06200000 1207533735 1207533735 -7.00000000
9.70450878 -2.87644887 1.60314035 23 9 10651 10.24800000 1207533738 1207533738 9.00000000
6.56516695 -1.94718409 -0.59910858 40 10 10652 6.87400000 1207533740 1207533740 -5.00000000
10.11260319 -3.00124979 2.05043340 9 11 10653 10.74600000 1207533742 1207533742 11.00000000
8.05287075 -2.39148545 -0.44025007 12 12 10654 8.41200000 1207533745 1207533745 -3.00000000
8.03693962 -2.38980746 -0.14635588 18 14 10656 8.38600000 1207533749 1207533749 -1.00000000
8.12905884 -2.41719961 2.27243114 47 15 10656 8.78000000 1207533752 1207533752 15.00000000
2.09342599 -0.62566906 -0.58544868 4 0 10664 2.26200000 1207533772 1207533772 -15.00000000
8.07149315 -2.41388822 0.14705397 12 1 10665 8.42600000 1207533775 1207533775 1.00000000
2.46062374 -0.73635048 -0.59297097 4 2 10666 2.63600000 1207533777 1207533777 -13.00000000
8.07421017 -2.41777158 0.44171548 13 3 10667 8.44000000 1207533779 1207533779 3.00000000
2.90951157 -0.87123501 -0.59036303 5 4 10667 3.09400000 1207533782 1207533782 -11.00000000
8.07700539 -2.42014480 0.73768622 76 5 10668 8.46400000 1207533784 1207533784 5.00000000
3.64240670 -1.09208143 -0.60227269 6 6 10669 3.85000000 1207533786 1207533786 -9.00000000
8.08080578 -2.42435789 1.03588939 90 7 10670 8.50000000 1207533788 1207533788 7.00000000
4.81590796 -1.44575787 -0.61739010 8 8 10671 5.06600000 1207533791 1207533791 -7.00000000
9.65038776 -2.89892721 1.59594440 8 9 10672 10.20200000 1207533793 1207533793 9.00000000
6.56405449 -1.97180855 -0.59963149 64 10 10672 6.88000000 1207533795 1207533795 -5.00000000
8.15798664 -2.45216990 1.65584052 3 11 10673 8.67800000 1207533798 1207533798 11.00000000
8.06168747 -2.42475796 -0.44119212 12 12 10674 8.43000000 1207533800 1207533800 -3.00000000
8.05344009 -2.42534351 -0.14680964 16 14 10676 8.41200000 1207533805 1207533805 -1.00000000
8.12199497 -2.44753528 2.27294874 47 15 10677 8.78200000 1207533807 1207533807 15.00000000
2.08372307 -0.63109773 -0.58337814 4 0 10685 2.25400000 1207533828 1207533828 -15.00000000
8.05493641 -2.44113564 0.14691436 12 1 10686 8.41800000 1207533830 1207533830 1.00000000
2.45044899 -0.74310201 -0.59117138 4 2 10687 2.62800000 1207533832 1207533832 -13.00000000
8.08292294 -2.45115757 0.44265753 13 3 10687 8.45800000 1207533835 1207533835 3.00000000
2.91757059 -0.88531345 -0.59265274 5 4 10688 3.10600000 1207533837 1207533837 -11.00000000
8.06998730 -2.45031118 0.73786050 76 5 10689 8.46600000 1207533839 1207533839 5.00000000
3.61191845 -1.09738469 -0.59789252 4 6 10690 3.82200000 1207533841 1207533841 -9.00000000
8.07946301 -2.45626879 1.03686440 92 7 10691 8.50800000 1207533844 1207533844 7.00000000
4.79918146 -1.45993292 -0.61592764 8 8 10692 5.05400000 1207533846 1207533846 -7.00000000
8.16190052 -2.48444390 1.35128093 5 9 10693 8.63800000 1207533848 1207533848 9.00000000
6.55487728 -1.99527359 -0.59945720 49 10 10693 6.87800000 1207533851 1207533851 -5.00000000
9.88240242 -3.01004100 2.00807381 6 11 10694 10.52400000 1207533853 1207533853 11.00000000
8.05847740 -2.45603609 -0.44150612 17 12 10695 8.43600000 1207533855 1207533855 -3.00000000
8.03493404 -2.45192623 -0.14663512 18 14 10697 8.40200000 1207533860 1207533860 -1.00000000
8.11524963 -2.47643518 2.27346659 47 15 10697 8.78400000 1207533862 1207533862 15.00000000
2.08520126 -0.63950032 -0.58441341 4 0 10705 2.25800000 1207533883 1207533883 -15.00000000
8.05018902 -2.47041106 0.14698416 12 1 10706 8.42200000 1207533885 1207533885 1.00000000
2.44038844 -0.74936306 -0.58937174 4 2 10707 2.62000000 1207533887 1207533887 -13.00000000
8.08386421 -2.48228884 0.44318089 13 3 10707 8.46800000 1207533890 1207533890 3.00000000
2.91633940 -0.89606887 -0.59303439 5 4 10708 3.10800000 1207533892 1207533892 -11.00000000
8.07662010 -2.48314977 0.73925501 76 5 10709 8.48200000 1207533894 1207533894 5.00000000
3.61184192 -1.11114764 -0.59851825 6 6 10710 3.82600000 1207533897 1207533897 -9.00000000
8.07083988 -2.48445654 1.03686440 90 7 10711 8.50800000 1207533899 1207533899 7.00000000
4.80354214 -1.47959816 -0.61714637 8 8 10712 5.06400000 1207533901 1207533901 -7.00000000
9.53312111 -2.93823600 1.57998812 37 9 10713 10.10000000 1207533904 1207533904 9.00000000
9.76865101 -3.01269650 1.98708487 9 11 10714 10.41400000 1207533908 1207533908 11.00000000
8.04794693 -2.48356152 -0.44140145 17 12 10715 8.43400000 1207533911 1207533911 -3.00000000
8.05116367 -2.48763251 -0.14708889 18 14 10717 8.42800000 1207533915 1207533915 -1.00000000
8.12132168 -2.50931001 2.27760768 47 15 10717 8.80000000 1207533917 1207533917 15.00000000
2.08306909 -0.64641154 -0.58441341 4 0 10724 2.25800000 1207533938 1207533938 -15.00000000
8.04577255 -2.49827886 0.14705397 12 1 10725 8.42600000 1207533940 1207533940 1.00000000
2.44347310 -0.75918615 -0.59072149 4 2 10726 2.62600000 1207533943 1207533943 -13.00000000
8.07324314 -2.50989866 0.44307619 13 3 10727 8.46600000 1207533945 1207533945 3.00000000
2.90397811 -0.90282071 -0.59112626 5 4 10727 3.09800000 1207533947 1207533947 -11.00000000
8.08356094 -2.51465368 0.74064952 76 5 10728 8.49800000 1207533950 1207533950 5.00000000
3.61945415 -1.12664151 -0.60039550 4 6 10729 3.83800000 1207533952 1207533952 -9.00000000
8.06634712 -2.51238728 1.03735185 92 7 10730 8.51200000 1207533954 1207533954 7.00000000
4.79292345 -1.49374712 -0.61641514 8 8 10731 5.05800000 1207533957 1207533957 -7.00000000
9.51441383 -2.96523190 1.57842374 54 9 10731 10.09000000 1207533959 1207533959 9.00000000
9.68551636 -3.02226663 1.97220182 21 11 10733 10.33600000 1207533964 1207533964 11.00000000
8.04919910 -2.51321220 -0.44192481 12 12 10734 8.44400000 1207533966 1207533966 -3.00000000
8.05813885 -2.51909089 -0.14736812 16 14 10736 8.44400000 1207533970 1207533970 -1.00000000
8.12357521 -2.54110384 2.28071332 47 15 10737 8.81200000 1207533973 1207533973 15.00000000
2.09185839 -0.65715283 -0.58751923 4 0 10744 2.27000000 1207533993 1207533993 -15.00000000
8.04463387 -2.52874708 0.14719360 12 1 10745 8.43400000 1207533996 1207533996 1.00000000
2.44080806 -0.76771086 -0.59072149 4 2 10746 2.62600000 1207533998 1207533998 -13.00000000
8.06678009 -2.53725600 0.44318089 15 3 10746 8.46800000 1207534000 1207534000 3.00000000
2.90268159 -0.91354132 -0.59150791 4 4 10747 3.10000000 1207534003 1207534003 -11.00000000
8.08423615 -2.54584765 0.74152106 76 5 10748 8.50800000 1207534005 1207534005 5.00000000
3.61549926 -1.13926888 -0.60039550 4 6 10749 3.83800000 1207534007 1207534007 -9.00000000
8.07267380 -2.54530430 1.03930175 90 7 10750 8.52800000 1207534010 1207534010 7.00000000
4.77632141 -1.50688493 -0.61495268 8 8 10751 5.04600000 1207534012 1207534012 -7.00000000
9.48841190 -2.99532676 1.57592082 63 9 10752 10.07400000 1207534014 1207534014 9.00000000
9.65056992 -3.04836941 1.96724069 43 11 10753 10.31000000 1207534019 1207534019 11.00000000
8.04989910 -2.54430342 -0.44244817 17 12 10754 8.45400000 1207534021 1207534021 -3.00000000
8.04357719 -2.54539371 -0.14726341 16 14 10756 8.43800000 1207534026 1207534026 -1.00000000
8.12938976 -2.57411027 2.28485441 47 15 10757 8.82800000 1207534028 1207534028 15.00000000
2.07482362 -0.65976745 -0.58337814 4 0 10764 2.25400000 1207534049 1207534049 -15.00000000
8.06624603 -2.56651378 0.14775208 18 1 10765 8.46600000 1207534051 1207534051 1.00000000
2.43439960 -0.77504379 -0.58982164 4 2 10766 2.62200000 1207534053 1207534053 -13.00000000
8.07310009 -2.57024598 0.44401824 15 3 10766 8.48400000 1207534056 1207534056 3.00000000
2.89199257 -0.92128438 -0.58998144 4 4 10767 3.09200000 1207534058 1207534058 -11.00000000
8.07909679 -2.57526159 0.74186969 76 5 10768 8.51200000 1207534060 1207534060 5.00000000
3.60397267 -1.14948142 -0.59914398 4 6 10769 3.83000000 1207534063 1207534063 -9.00000000
8.06941319 -2.57527828 1.04003298 90 7 10770 8.53400000 1207534065 1207534065 7.00000000
4.77292347 -1.52415204 -0.61519647 6 8 10771 5.04800000 1207534067 1207534067 -7.00000000
6.54192734 -2.09031177 -0.60085171 36 10 10772 6.89400000 1207534072 1207534072 -5.00000000
9.62865067 -3.07845044 1.96495104 50 11 10773 10.29800000 1207534074 1207534074 11.00000000
8.05238247 -2.57603860 -0.44307619 17 12 10774 8.46600000 1207534076 1207534076 -3.00000000
8.04226017 -2.57589531 -0.14740303 14 14 10776 8.44600000 1207534081 1207534081 -1.00000000
8.12219429 -2.60306096 2.28537226 47 15 10777 8.83000000 1207534083 1207534083 15.00000000
2.06883001 -0.66582221 -0.58234286 4 0 10784 2.25000000 1207534104 1207534104 -15.00000000
8.05152798 -2.59281564 0.14764735 18 1 10785 8.46000000 1207534106 1207534106 1.00000000
2.42796969 -0.78234142 -0.58892184 4 2 10786 2.61800000 1207534109 1207534109 -13.00000000
8.07548523 -2.60208607 0.44464630 18 3 10786 8.49600000 1207534111 1207534111 3.00000000
2.88502192 -0.93016881 -0.58921820 4 4 10787 3.08800000 1207534113 1207534113 -11.00000000
8.07195377 -2.60405898 0.74204397 76 5 10788 8.51400000 1207534116 1207534116 5.00000000
3.61497712 -1.16690910 -0.60164696 4 6 10789 3.84600000 1207534118 1207534118 -9.00000000
8.08115387 -2.61014152 1.04271412 90 7 10790 8.55600000 1207534120 1207534120 7.00000000
4.76757383 -1.54080343 -0.61519647 6 8 10791 5.04800000 1207534123 1207534123 -7.00000000
6.52511215 -2.11006927 -0.59998012 40 10 10792 6.88400000 1207534127 1207534127 -5.00000000
9.59543133 -3.10478902 1.96037161 53 11 10793 10.27400000 1207534129 1207534129 11.00000000
8.05094242 -2.60659170 -0.44349489 17 12 10794 8.47400000 1207534132 1207534132 -3.00000000
8.04463291 -2.60765219 -0.14761245 16 14 10796 8.45800000 1207534136 1207534136 -1.00000000
8.11489677 -2.63199306 2.28588986 47 15 10797 8.83200000 1207534139 1207534139 15.00000000
2.05914569 -0.67064667 -0.58027232 4 0 10804 2.24200000 1207534159 1207534159 -15.00000000
8.04432964 -2.62152457 0.14768226 21 1 10805 8.46200000 1207534162 1207534162 1.00000000
2.43263507 -0.79322839 -0.59072149 4 2 10806 2.62600000 1207534164 1207534164 -13.00000000
8.08154392 -2.63521218 0.44548365 23 3 10806 8.51200000 1207534166 1207534166 3.00000000
2.88175750 -0.94023377 -0.58921820 4 4 10807 3.08800000 1207534169 1207534169 -11.00000000
8.06660271 -2.63345599 0.74239260 76 5 10808 8.51800000 1207534171 1207534171 5.00000000
3.58459353 -1.17093337 -0.59726679 4 6 10809 3.81800000 1207534173 1207534173 -9.00000000
8.07388020 -2.63895082 1.04295778 90 7 10810 8.55800000 1207534175 1207534175 7.00000000
4.77537394 -1.56175530 -0.61690259 8 8 10811 5.06200000 1207534178 1207534178 -7.00000000
9.45331097 -3.09164453 1.57529509 181 9 10811 10.07000000 1207534180 1207534180 9.00000000
6.52906847 -2.13655138 -0.60102600 12 10 10812 6.89600000 1207534182 1207534182 -5.00000000
9.57334042 -3.13459897 1.95808196 53 11 10813 10.26200000 1207534185 1207534185 11.00000000
8.03989601 -2.63405704 -0.44339022 17 12 10814 8.47200000 1207534187 1207534187 -3.00000000
8.04688263 -2.63945675 -0.14782189 16 14 10816 8.47000000 1207534192 1207534192 -1.00000000
8.11897278 -2.66310310 2.28951335 47 15 10816 8.84600000 1207534194 1207534194 15.00000000
2.06046176 -0.67903972 -0.58130759 4 0 10824 2.24600000 1207534215 1207534215 -15.00000000
8.04652500 -2.65334582 0.14789169 21 1 10825 8.47400000 1207534217 1207534217 1.00000000
2.42244887 -0.79927260 -0.58892184 4 2 10826 2.61800000 1207534219 1207534219 -13.00000000
8.07419205 -2.66403174 0.44558832 18 3 10826 8.51400000 1207534222 1207534222 3.00000000
2.88964367 -0.95398009 -0.59150791 4 4 10827 3.10000000 1207534224 1207534224 -11.00000000
8.07249641 -2.66659713 0.74378711 72 5 10828 8.53400000 1207534226 1207534226 5.00000000
3.58236003 -1.18405867 -0.59757966 2 6 10829 3.82000000 1207534228 1207534228 -9.00000000
8.07027340 -2.66898775 1.04368901 90 7 10830 8.56400000 1207534231 1207534231 7.00000000
4.74350882 -1.56968415 -0.61349028 6 8 10831 5.03400000 1207534233 1207534233 -7.00000000
9.44621181 -3.12586498 1.57592082 186 9 10831 10.07400000 1207534235 1207534235 9.00000000
6.54994154 -2.16872287 -0.60364068 28 10 10832 6.92600000 1207534238 1207534238 -5.00000000
9.55861282 -3.16676235 1.95731866 50 11 10833 10.25800000 1207534240 1207534240 11.00000000
8.03254890 -2.66273403 -0.44349489 21 12 10834 8.47400000 1207534242 1207534242 -3.00000000
8.05090523 -2.67193866 -0.14806622 18 14 10836 8.48400000 1207534247 1207534247 -1.00000000
8.12749195 -2.69893122 2.29468966 45 15 10837 8.86600000 1207534249 1207534249 15.00000000
2.06907487 -0.68989432 -0.58441341 4 0 10844 2.25800000 1207534270 1207534270 -15.00000000
8.04859543 -2.68521452 0.14810112 15 1 10845 8.48600000 1207534272 1207534272 1.00000000
2.41964412 -0.80772370 -0.58892184 4 2 10846 2.61800000 1207534275 1207534275 -13.00000000
8.05300808 -2.68981099 0.44496030 13 3 10847 8.50200000 1207534277 1207534277 3.00000000
2.87698531 -0.96095109 -0.58959979 4 4 10847 3.09000000 1207534279 1207534279 -11.00000000
8.06880760 -2.69665384 0.74431002 72 5 10848 8.54000000 1207534281 1207534281 5.00000000
3.59881258 -1.20344746 -0.60102123 4 6 10849 3.84200000 1207534284 1207534284 -9.00000000
8.07408524 -2.70155120 1.04539526 87 7 10850 8.57800000 1207534286 1207534286 7.00000000
4.74929523 -1.59001374 -0.61495268 6 8 10851 5.04600000 1207534288 1207534288 -7.00000000
9.43711662 -3.15944648 1.57623363 185 9 10851 10.07600000 1207534291 1207534291 9.00000000
6.56878042 -2.20043302 -0.60608101 100 10 10852 6.95400000 1207534293 1207534293 -5.00000000
9.54005527 -3.19761300 1.95579219 53 11 10853 10.25000000 1207534295 1207534295 11.00000000
8.03645992 -2.69520211 -0.44422761 21 12 10854 8.48800000 1207534298 1207534298 -3.00000000
8.04342556 -2.70066166 -0.14810112 16 14 10856 8.48600000 1207534302 1207534302 -1.00000000
8.12948513 -2.72955751 2.29779553 45 15 10856 8.87800000 1207534305 1207534305 15.00000000
2.05933213 -0.69464266 -0.58234286 4 0 10864 2.25000000 1207534325 1207534325 -15.00000000
8.05811977 -2.71968770 0.14845017 15 1 10865 8.50600000 1207534328 1207534328 1.00000000
2.42419505 -0.81865889 -0.59072149 4 2 10866 2.62600000 1207534330 1207534330 -13.00000000
8.06059837 -2.72365904 0.44590235 13 3 10867 8.52000000 1207534332 1207534332 3.00000000
2.87547350 -0.97161627 -0.58998144 4 4 10867 3.09200000 1207534334 1207534334 -11.00000000
8.07444477 -2.72990775 0.74570453 79 5 10868 8.55600000 1207534337 1207534337 5.00000000
3.59084749 -1.21473634 -0.60039550 4 6 10869 3.83800000 1207534339 1207534339 -9.00000000
8.07588768 -2.73353720 1.04685771 85 7 10870 8.59000000 1207534341 1207534341 7.00000000
4.73243523 -1.60276151 -0.61349028 4 8 10871 5.03400000 1207534344 1207534344 -7.00000000
9.41424751 -3.19021010 1.57435644 163 9 10872 10.06400000 1207534346 1207534346 9.00000000
9.53255367 -3.23215532 1.95655549 56 11 10873 10.25400000 1207534351 1207534351 11.00000000
8.04213428 -2.72837138 -0.44506496 25 12 10874 8.50400000 1207534353 1207534353 -3.00000000
8.03773594 -2.73000836 -0.14817093 16 14 10876 8.49000000 1207534358 1207534358 -1.00000000
8.12308502 -2.76057839 2.29883075 45 15 10877 8.88200000 1207534360 1207534360 15.00000000
2.05872297 -0.70245069 -0.58286047 4 0 10884 2.25200000 1207534381 1207534381 -15.00000000
8.04668522 -2.74715328 0.14841527 12 1 10885 8.50400000 1207534383 1207534383 1.00000000
2.42132258 -0.82711595 -0.59072149 4 2 10886 2.62600000 1207534385 1207534385 -13.00000000
8.08128071 -2.76211452 0.44757709 10 3 10887 8.55200000 1207534387 1207534387 3.00000000
2.87206435 -0.98164761 -0.58998144 4 4 10887 3.09200000 1207534390 1207534390 -11.00000000
8.07240772 -2.76065516 0.74640179 79 5 10888 8.56400000 1207534392 1207534392 5.00000000
3.57163334 -1.22214699 -0.59789252 4 6 10889 3.82200000 1207534394 1207534394 -9.00000000
8.08132172 -2.76685476 1.04880762 83 7 10890 8.60600000 1207534397 1207534397 7.00000000
4.73056746 -1.62055767 -0.61397773 6 8 10891 5.03800000 1207534399 1207534399 -7.00000000
9.42230415 -3.22781324 1.57748520 152 9 10891 10.08400000 1207534401 1207534401 9.00000000
6.53818035 -2.24106956 -0.60468656 147 10 10892 6.93800000 1207534404 1207534404 -5.00000000
9.52121353 -3.26541066 1.95655549 56 11 10893 10.25400000 1207534406 1207534406 11.00000000
8.04956341 -2.76226139 -0.44600701 17 12 10894 8.52200000 1207534408 1207534408 -3.00000000
8.04328728 -2.76324630 -0.14845017 14 14 10896 8.50600000 1207534413 1207534413 -1.00000000
8.11023140 -2.78624487 2.29779553 45 15 10896 8.87800000 1207534415 1207534415 15.00000000
2.05443239 -0.70900249 -0.58234286 4 0 10904 2.25000000 1207534436 1207534436 -15.00000000
8.03893661 -2.77587724 0.14845017 12 1 10905 8.50600000 1207534438 1207534438 1.00000000
2.41473699 -0.83429015 -0.58982164 4 2 10906 2.62200000 1207534440 1207534440 -13.00000000
8.07347775 -2.79095912 0.44768175 10 3 10907 8.55400000 1207534443 1207534443 3.00000000
2.87604237 -0.99423277 -0.59150791 4 4 10907 3.10000000 1207534445 1207534445 -11.00000000
8.06837082 -2.79077005 0.74692470 83 5 10908 8.57000000 1207534447 1207534447 5.00000000
3.57481241 -1.23719108 -0.59914398 6 6 10909 3.83000000 1207534450 1207534450 -9.00000000
8.07161427 -2.79504681 1.04880762 83 7 10910 8.60600000 1207534452 1207534452 7.00000000
4.73050880 -1.63901031 -0.61470896 4 8 10911 5.04400000 1207534454 1207534454 -7.00000000
9.41974258 -3.26556110 1.57904947 100 9 10912 10.09400000 1207534457 1207534457 9.00000000
9.50233746 -3.29605246 1.95502901 56 11 10913 10.24600000 1207534461 1207534461 11.00000000
8.03232479 -2.78772354 -0.44558832 17 12 10914 8.51400000 1207534463 1207534463 -3.00000000
8.04492569 -2.79524374 -0.14865960 14 14 10916 8.51800000 1207534468 1207534468 -1.00000000
8.11456299 -2.82102656 2.30193663 45 15 10917 8.89400000 1207534470 1207534470 15.00000000
2.05571795 -0.71708387 -0.58337814 4 0 10923 2.25400000 1207534491 1207534491 -15.00000000
8.03723907 -2.80515599 0.14858979 12 1 10924 8.51400000 1207534493 1207534493 1.00000000
2.40827751 -0.84100813 -0.58892184 4 2 10925 2.61800000 1207534496 1207534496 -13.00000000
8.06794930 -2.81903386 0.44789112 15 3 10926 8.55800000 1207534498 1207534498 3.00000000
2.85790253 -0.99858391 -0.58845496 4 4 10926 3.08400000 1207534500 1207534500 -11.00000000
8.06847572 -2.82079816 0.74779630 76 5 10927 8.58000000 1207534503 1207534503 5.00000000
3.55950260 -1.24512541 -0.59726679 8 6 10928 3.81800000 1207534505 1207534505 -9.00000000
8.06604767 -2.82310963 1.04929507 85 7 10929 8.61000000 1207534507 1207534507 7.00000000
4.71193314 -1.65009546 -0.61300278 4 8 10930 5.03000000 1207534510 1207534510 -7.00000000
9.40011501 -3.29187346 1.57748520 66 9 10930 10.08400000 1207534512 1207534512 9.00000000
9.49506092 -3.32884431 1.95579219 53 11 10932 10.25000000 1207534516 1207534516 11.00000000
8.02680588 -2.81566644 -0.44579768 17 12 10933 8.51800000 1207534519 1207534519 -3.00000000
8.05070686 -2.82720685 -0.14893883 14 14 10935 8.53400000 1207534523 1207534523 -1.00000000
8.12388802 -2.85290623 2.30711293 47 15 10935 8.91400000 1207534526 1207534526 15.00000000
2.05320239 -0.72425532 -0.58337814 4 0 10943 2.25400000 1207534546 1207534546 -15.00000000
8.05379868 -2.84251165 0.14907846 12 1 10944 8.54200000 1207534549 1207534549 1.00000000
2.40532708 -0.84940946 -0.58892184 4 2 10945 2.61800000 1207534551 1207534551 -13.00000000
8.05805969 -2.84717917 0.44789112 10 3 10946 8.55800000 1207534553 1207534553 3.00000000
2.86180377 -1.01117003 -0.58998144 4 4 10946 3.09200000 1207534556 1207534556 -11.00000000
8.07548618 -2.85492206 0.74936509 76 5 10947 8.59800000 1207534558 1207534558 5.00000000
3.55327225 -1.25688410 -0.59695393 8 6 10948 3.81600000 1207534560 1207534560 -9.00000000
8.06363010 -2.85389733 1.05026996 83 7 10949 8.61800000 1207534563 1207534563 7.00000000
4.72485685 -1.67315948 -0.61544019 4 8 10950 5.05000000 1207534565 1207534565 -7.00000000
9.38984871 -3.32696438 1.57779801 66 9 10951 10.08600000 1207534567 1207534567 9.00000000
6.54480505 -2.31892252 -0.60747552 12 10 10951 6.97000000 1207534569 1207534569 -5.00000000
9.49078465 -3.36459184 1.95731866 56 11 10952 10.25800000 1207534572 1207534572 11.00000000
8.03386974 -2.84967732 -0.44673973 17 12 10953 8.53600000 1207534574 1207534574 -3.00000000
8.04455757 -2.85663009 -0.14900865 18 14 10955 8.53800000 1207534579 1207534579 -1.00000000
8.12247849 -2.88589644 2.30970120 47 15 10956 8.92400000 1207534581 1207534581 15.00000000
2.04702258 -0.73011994 -0.58234286 4 0 10963 2.25000000 1207534602 1207534602 -15.00000000
8.05512714 -2.87463999 0.14928788 12 1 10964 8.55400000 1207534604 1207534604 1.00000000
2.39867687 -0.85648984 -0.58802205 4 2 10965 2.61400000 1207534606 1207534606 -13.00000000
8.06499958 -2.88133740 0.44883317 13 3 10966 8.57600000 1207534609 1207534609 3.00000000
2.84716392 -1.01719034 -0.58769172 4 4 10966 3.08000000 1207534611 1207534611 -11.00000000
8.06359482 -2.88242269 0.74919075 76 5 10967 8.59600000 1207534613 1207534613 5.00000000
3.54514337 -1.26794910 -0.59632820 8 6 10968 3.81200000 1207534616 1207534616 -9.00000000
8.06857109 -2.88737798 1.05221987 90 7 10969 8.63400000 1207534618 1207534618 7.00000000
4.70216751 -1.68361962 -0.61324656 4 8 10970 5.03200000 1207534620 1207534620 -7.00000000
9.37876415 -3.35808372 1.57779801 63 9 10970 10.08600000 1207534622 1207534622 9.00000000
6.53667068 -2.34175420 -0.60747552 12 10 10971 6.97000000 1207534625 1207534625 -5.00000000
9.49746323 -3.40432477 1.96113491 53 11 10972 10.27800000 1207534627 1207534627 11.00000000
8.03327370 -2.88107467 -0.44726309 17 12 10973 8.54600000 1207534629 1207534629 -3.00000000
8.17696381 -2.93421888 2.00566363 0 13 10974 8.91600000 1207534632 1207534632 13.00000000
8.02889061 -2.88266635 -0.14890394 16 14 10975 8.53200000 1207534634 1207534634 -1.00000000
8.11104584 -2.91216302 2.30918360 45 15 10975 8.92200000 1207534636 1207534636 15.00000000
2.03355789 -0.73332888 -0.57923704 4 0 10983 2.23800000 1207534657 1207534657 -15.00000000
8.02623367 -2.89595318 0.14893883 12 1 10984 8.53400000 1207534659 1207534659 1.00000000
2.40483737 -0.86816615 -0.59027159 4 2 10985 2.62400000 1207534662 1207534662 -13.00000000
8.06804180 -2.91422153 0.44956586 13 3 10986 8.59000000 1207534664 1207534664 3.00000000
2.83990288 -1.02578866 -0.58692849 4 4 10986 3.07600000 1207534666 1207534666 -11.00000000
8.05161095 -2.90987515 0.74901646 72 5 10987 8.59400000 1207534669 1207534669 5.00000000
3.54069591 -1.28031623 -0.59632820 8 6 10988 3.81200000 1207534671 1207534671 -9.00000000
8.06964302 -2.91957712 1.05368233 87 7 10989 8.64600000 1207534673 1207534673 7.00000000
4.68692875 -1.69664454 -0.61202782 6 8 10990 5.02200000 1207534675 1207534675 -7.00000000
9.37753773 -3.39647245 1.57967520 63 9 10991 10.09800000 1207534678 1207534678 9.00000000
6.52470970 -2.36320019 -0.60712689 12 10 10991 6.96600000 1207534680 1207534680 -5.00000000
9.47813892 -3.43478084 1.95960844 53 11 10992 10.27000000 1207534682 1207534682 11.00000000
8.04382133 -2.91658735 -0.44841447 17 12 10993 8.56800000 1207534685 1207534685 -3.00000000
8.16300774 -2.96141458 2.00476384 0 13 10994 8.91200000 1207534687 1207534687 13.00000000
8.03569698 -2.91681552 -0.14921808 18 14 10995 8.55000000 1207534689 1207534689 -1.00000000
8.10031796 -2.94187188 2.30918360 45 15 10996 8.92200000 1207534692 1207534692 15.00000000
2.04174566 -0.74474931 -0.58234286 4 0 11004 2.25000000 1207534712 1207534712 -15.00000000
8.02307987 -2.92809367 0.14907846 12 1 11005 8.54200000 1207534715 1207534715 1.00000000
2.39248681 -0.87363231 -0.58802205 4 2 11006 2.61400000 1207534717 1207534717 -13.00000000
8.06481075 -2.94651437 0.44998455 10 3 11007 8.59800000 1207534719 1207534719 3.00000000
2.83428001 -1.03551674 -0.58654684 4 4 11007 3.07400000 1207534722 1207534722 -11.00000000
8.05586147 -2.94483852 0.75041097 76 5 11008 8.61000000 1207534724 1207534724 5.00000000
3.53597951 -1.29328501 -0.59632820 8 6 11009 3.81200000 1207534726 1207534726 -9.00000000
8.05515957 -2.94776988 1.05319488 85 7 11010 8.64200000 1207534728 1207534728 7.00000000
4.68813515 -1.71654177 -0.61300278 8 8 11011 5.03000000 1207534731 1207534731 -7.00000000
9.39159393 -3.43869400 1.58405542 60 9 11011 10.12600000 1207534733 1207534733 9.00000000
7.01550865 -2.57008886 -0.65366805 12 10 11012 7.50000000 1207534735 1207534735 -5.00000000
9.46917248 -3.47084832 1.96037161 53 11 11013 10.27400000 1207534738 1207534738 11.00000000
8.02932739 -2.94467449 -0.44820514 17 12 11014 8.56400000 1207534740 1207534740 -3.00000000
8.16856384 -2.99735546 2.00881290 1 13 11015 8.93000000 1207534742 1207534742 13.00000000
8.03809261 -2.95107245 -0.14946240 16 14 11016 8.56400000 1207534745 1207534745 -1.00000000
8.10994720 -2.97745323 2.31487751 47 15 11016 8.94400000 1207534747 1207534747 15.00000000
2.03550839 -0.75053513 -0.58130759 4 0 11024 2.24600000 1207534768 1207534768 -15.00000000
8.03532314 -2.96438718 0.14949732 12 1 11025 8.56600000 1207534770 1207534770 1.00000000
2.38028169 -0.87860429 -0.58577257 4 2 11026 2.60400000 1207534772 1207534772 -13.00000000
8.06197071 -2.97741556 0.45040324 13 3 11027 8.60600000 1207534775 1207534775 3.00000000
2.84906483 -1.05220556 -0.59036303 4 4 11027 3.09400000 1207534777 1207534777 -11.00000000
8.05861568 -2.97777486 0.75163114 76 5 11028 8.62400000 1207534779 1207534779 5.00000000
3.52773786 -1.30425000 -0.59570247 8 6 11029 3.80800000 1207534781 1207534781 -9.00000000
8.05599213 -2.98000193 1.05465734 85 7 11030 8.65400000 1207534784 1207534784 7.00000000
4.67094469 -1.72876179 -0.61154038 6 8 11031 5.01800000 1207534786 1207534786 -7.00000000
9.39064884 -3.47556973 1.58593261 60 9 11031 10.13800000 1207534788 1207534788 9.00000000
7.09991455 -2.62915587 -0.66238362 17 10 11032 7.60000000 1207534791 1207534791 -5.00000000
9.46436310 -3.50660896 1.96189809 53 11 11033 10.28200000 1207534793 1207534793 11.00000000
8.02274513 -2.97407246 -0.44841447 17 12 11034 8.56800000 1207534795 1207534795 -3.00000000
8.15439701 -3.02449536 2.00791311 2 13 11035 8.92600000 1207534798 1207534798 13.00000000
8.04273987 -2.98467851 -0.14974165 18 14 11036 8.58000000 1207534800 1207534800 -1.00000000
8.11399460 -3.01112103 2.31901860 47 15 11036 8.96000000 1207534802 1207534802 15.00000000
2.03662896 -0.75862968 -0.58234286 4 0 11043 2.25000000 1207534823 1207534823 -15.00000000
8.04231262 -2.99730206 0.14981146 12 1 11044 8.58400000 1207534825 1207534825 1.00000000
2.39013648 -0.89125884 -0.58892184 4 2 11045 2.61800000 1207534828 1207534828 -13.00000000
8.05205250 -3.00413370 0.45040324 10 3 11046 8.60600000 1207534830 1207534830 3.00000000
2.83820248 -1.05890250 -0.58883655 4 4 11046 3.08600000 1207534832 1207534832 -11.00000000
8.06176281 -3.00935936 0.75285131 76 5 11047 8.63800000 1207534834 1207534834 5.00000000
3.52339339 -1.31594121 -0.59570247 8 6 11048 3.80800000 1207534837 1207534837 -9.00000000
8.05908203 -3.01156425 1.05636346 90 7 11049 8.66800000 1207534839 1207534839 7.00000000
4.65774870 -1.74146092 -0.61056542 8 8 11050 5.01000000 1207534841 1207534841 -7.00000000
9.38215923 -3.50971222 1.58655834 51 9 11051 10.14200000 1207534844 1207534844 9.00000000
7.09302282 -2.65338373 -0.66255796 17 10 11051 7.60200000 1207534846 1207534846 -5.00000000
8.03528404 -3.00906587 -0.44967052 17 12 11053 8.59200000 1207534851 1207534851 -3.00000000
8.14614773 -3.05220342 2.00836301 3 13 11054 8.92800000 1207534853 1207534853 13.00000000
8.03467083 -3.01203465 -0.14977655 18 14 11055 8.58200000 1207534855 1207534855 -1.00000000
8.11300945 -3.04140210 2.32160687 45 15 11055 8.97000000 1207534857 1207534857 15.00000000
2.03396845 -0.76573420 -0.58234286 4 0 11063 2.25000000 1207534878 1207534878 -15.00000000
8.05051422 -3.03240561 0.15016051 12 1 11064 8.60400000 1207534881 1207534881 1.00000000
2.38701081 -0.89959657 -0.58892184 4 2 11065 2.61800000 1207534883 1207534883 -13.00000000
8.05273056 -3.03645039 0.45103127 10 3 11066 8.61800000 1207534885 1207534885 3.00000000
2.83265185 -1.06811059 -0.58845496 4 4 11066 3.08400000 1207534887 1207534887 -11.00000000
8.05493736 -3.03888822 0.75319993 76 5 11067 8.64200000 1207534890 1207534890 5.00000000
3.51877856 -1.32823217 -0.59570247 8 6 11068 3.80800000 1207534892 1207534892 -9.00000000
8.05409145 -3.04178143 1.05709469 90 7 11069 8.67400000 1207534894 1207534894 7.00000000
4.64050007 -1.75349879 -0.60910296 6 8 11070 4.99800000 1207534897 1207534897 -7.00000000
7.08744526 -2.67953610 -0.66290659 12 10 11071 7.60600000 1207534901 1207534901 -5.00000000
8.18059254 -3.09445214 1.70010817 3 11 11072 8.91000000 1207534904 1207534904 11.00000000
8.03780651 -3.04204464 -0.45040324 17 12 11073 8.60600000 1207534906 1207534906 -3.00000000
8.14273357 -3.08338070 2.01016259 3 13 11074 8.93600000 1207534908 1207534908 13.00000000
8.03345776 -3.04360509 -0.14995107 16 14 11075 8.59200000 1207534910 1207534910 -1.00000000
8.10722637 -3.07317162 2.32315969 47 15 11076 8.97600000 1207534913 1207534913 15.00000000
2.02031541 -0.76906025 -0.57923704 4 0 11084 2.23800000 1207534934 1207534934 -15.00000000
8.03747749 -3.06118011 0.15012559 12 1 11085 8.60200000 1207534936 1207534936 1.00000000
2.38187671 -0.90764540 -0.58847195 3 2 11086 2.61600000 1207534938 1207534938 -13.00000000
8.06020927 -3.07305980 0.45207798 13 3 11087 8.63800000 1207534940 1207534940 3.00000000
2.82504916 -1.07708681 -0.58769172 4 4 11087 3.08000000 1207534943 1207534943 -11.00000000
8.04374504 -3.06839061 0.75319993 72 5 11088 8.64200000 1207534945 1207534945 5.00000000
3.51388669 -1.34112012 -0.59570247 8 6 11089 3.80800000 1207534947 1207534947 -9.00000000
8.06143379 -3.07836223 1.05953205 90 7 11090 8.69400000 1207534950 1207534950 7.00000000
4.63960505 -1.77262080 -0.60983419 4 8 11091 5.00400000 1207534952 1207534952 -7.00000000
9.38079166 -3.58592844 1.59062564 63 9 11092 10.16800000 1207534954 1207534954 9.00000000
7.04779959 -2.69411230 -0.66011757 12 10 11092 7.57400000 1207534957 1207534957 -5.00000000
8.04712200 -3.07933593 -0.45155463 17 12 11094 8.62800000 1207534961 1207534961 -3.00000000
8.14229679 -3.11738515 2.01286197 3 13 11095 8.94800000 1207534963 1207534963 13.00000000
8.03905487 -3.07946658 -0.15026522 14 14 11096 8.61000000 1207534966 1207534966 -1.00000000
8.10186195 -3.10352540 2.32471275 47 15 11096 8.98200000 1207534968 1207534968 15.00000000
2.01761866 -0.77610779 -0.57923704 4 0 11104 2.23800000 1207534989 1207534989 -15.00000000
8.03607464 -3.09280872 0.15030013 12 1 11105 8.61200000 1207534991 1207534991 1.00000000
2.37687540 -0.91525394 -0.58802205 4 2 11106 2.61400000 1207534993 1207534993 -13.00000000
8.06620693 -3.10763884 0.45302004 13 3 11107 8.65600000 1207534996 1207534996 3.00000000
2.82493615 -1.08835316 -0.58845496 4 4 11107 3.08400000 1207534998 1207534998 -11.00000000
8.05343533 -3.10433269 0.75511736 75 5 11108 8.66400000 1207535000 1207535000 5.00000000
3.50549769 -1.35195613 -0.59507668 8 6 11109 3.80400000 1207535003 1207535003 -9.00000000
8.05804729 -3.10934162 1.06050706 87 7 11110 8.70200000 1207535005 1207535005 7.00000000
4.65005589 -1.79523969 -0.61202782 4 8 11111 5.02200000 1207535007 1207535007 -7.00000000
9.37927341 -3.62292242 1.59250283 51 9 11112 10.18000000 1207535010 1207535010 9.00000000
6.74470043 -2.60526872 -0.63257641 4 10 11112 7.25800000 1207535012 1207535012 -5.00000000
9.44744301 -3.65114927 1.96876717 15 11 11113 10.31800000 1207535014 1207535014 11.00000000
8.03073597 -3.10524607 -0.45124063 12 12 11114 8.62200000 1207535016 1207535016 -3.00000000
8.15862751 -3.15633512 2.01961064 3 13 11115 8.97800000 1207535019 1207535019 13.00000000
8.03944588 -3.11184025 -0.15047465 14 14 11116 8.62200000 1207535021 1207535021 -1.00000000
8.09818554 -3.13457680 2.32678318 47 15 11116 8.99000000 1207535023 1207535023 15.00000000
2.02943993 -0.78839058 -0.58337814 4 0 11123 2.25400000 1207535044 1207535044 -15.00000000
8.03509331 -3.12306237 0.15047465 12 1 11124 8.62200000 1207535046 1207535046 1.00000000
2.35929728 -0.91748053 -0.58442283 4 2 11125 2.59800000 1207535049 1207535049 -13.00000000
8.06012726 -3.13441181 0.45322937 13 3 11125 8.66000000 1207535051 1207535051 3.00000000
2.81765223 -1.09629118 -0.58769172 4 4 11126 3.08000000 1207535053 1207535053 -11.00000000
8.05980587 -3.13752651 0.75668615 75 5 11127 8.68200000 1207535056 1207535056 5.00000000
3.48626971 -1.35783803 -0.59257376 8 6 11128 3.78800000 1207535058 1207535058 -9.00000000
8.04954147 -3.13676667 1.06075072 90 7 11129 8.70400000 1207535060 1207535060 7.00000000
