# .PCD v0.7 - Point Cloud Data file format
VERSION 0.7
FIELDS x y z intensity laser_id azimuth distance_m adjustedtime timestamp vertical_angle
SIZE 4 4 4 1 1 2 8 8 4 8
TYPE F F F U U U F U U F
COUNT 1 1 1 1 1 1 1 1 1 1
WIDTH 543
HEIGHT 1
VIEWPOINT 0 0 0 1 0 0 0
POINTS 543
DATA ascii
0.26678675 3.74017406 0.32805422 61 5 408 3.76400000 1207105295 1207105295 5.00000000
0.28699395 4.01359463 -0.63731402 2 6 409 4.07400000 1207105297 1207105297 -9.00000000
0.27065864 3.77588296 0.46480969 56 7 410 3.81400000 1207105299 1207105299 7.00000000
0.50706667 7.05667448 -0.86868471 4 8 411 7.12800000 1207105302 1207105302 -7.00000000
0.29702470 4.12352419 -0.36169633 2 10 412 4.15000000 1207105306 1207105306 -5.00000000
0.76691550 10.62103939 2.06989598 46 11 413 10.84800000 1207105309 1207105309 11.00000000
0.26862535 3.71118450 -0.19500378 4 12 414 3.72600000 1207105311 1207105311 -3.00000000
0.74870771 10.31873417 2.38853025 59 13 415 10.61800000 1207105313 1207105313 13.00000000
0.64548957 8.85335827 2.37854695 40 15 417 9.19000000 1207105318 1207105318 15.00000000
0.16654021 2.24637413 -0.60356599 4 0 424 2.33200000 1207105338 1207105338 -15.00000000
0.27415964 3.68926382 0.06457391 6 1 425 3.70000000 1207105341 1207105341 1.00000000
0.19744906 2.65073800 -0.61366647 3 2 426 2.72800000 1207105343 1207105343 -13.00000000
0.27877122 3.74248147 0.19667852 66 3 426 3.75800000 1207105345 1207105345 3.00000000
0.23929213 3.20492649 -0.62470865 4 4 427 3.27400000 1207105348 1207105348 -11.00000000
0.27998948 3.74120665 0.32822853 60 5 428 3.76600000 1207105350 1207105350 5.00000000
0.30011564 4.00074911 -0.63543677 2 6 429 4.06200000 1207105352 1207105352 -9.00000000
0.28324193 3.76699710 0.46383473 58 7 430 3.80600000 1207105355 1207105355 7.00000000
0.52438593 6.95786715 -0.85674149 4 8 431 7.03000000 1207105357 1207105357 -7.00000000
0.30601379 4.05094004 -0.35542113 2 10 432 4.07800000 1207105362 1207105362 -5.00000000
0.80250293 10.59872055 2.06607985 46 11 433 10.82800000 1207105364 1207105364 11.00000000
0.28188044 3.71420717 -0.19521312 4 12 434 3.73000000 1207105366 1207105366 -3.00000000
0.78472227 10.31605816 2.38853025 56 13 435 10.61800000 1207105368 1207105368 13.00000000
0.28352237 3.71863914 -0.06509747 100 14 436 3.73000000 1207105371 1207105371 -1.00000000
0.67624241 8.84912491 2.37802935 40 15 437 9.18800000 1207105373 1207105373 15.00000000
0.17443618 2.25158763 -0.60511893 3 0 443 2.33800000 1207105394 1207105394 -15.00000000
0.28732103 3.70029640 0.06478333 6 1 444 3.71200000 1207105396 1207105396 1.00000000
0.20442373 2.62675405 -0.60826766 3 2 445 2.70400000 1207105398 1207105398 -13.00000000
0.29025042 3.72958922 0.19605049 66 3 445 3.74600000 1207105401 1207105401 3.00000000
0.24869737 3.18845701 -0.62165570 2 4 446 3.25800000 1207105403 1207105403 -11.00000000
0.29286006 3.74621677 0.32875147 63 5 447 3.77200000 1207105405 1207105405 5.00000000
0.31353527 4.00170135 -0.63574964 2 6 448 4.06400000 1207105408 1207105408 -9.00000000
0.29542139 3.76207924 0.46334726 61 7 449 3.80200000 1207105410 1207105410 7.00000000
0.54776764 6.96004772 -0.85722893 2 8 450 7.03400000 1207105412 1207105412 -7.00000000
0.40341941 5.11451721 -0.44885206 3 10 451 5.15000000 1207105417 1207105417 -5.00000000
0.83795458 10.59991550 2.06684303 46 11 452 10.83200000 1207105419 1207105419 11.00000000
0.29277593 3.69533277 -0.19427107 4 12 453 3.71200000 1207105421 1207105421 -3.00000000
0.81831020 10.30562878 2.38673067 60 13 454 10.61000000 1207105424 1207105424 13.00000000
0.29601088 3.71967196 -0.06513238 100 14 455 3.73200000 1207105426 1207105426 -1.00000000
0.70558345 8.84683418 2.37802935 42 15 456 9.18800000 1207105428 1207105428 15.00000000
0.18229464 2.25096512 -0.60511893 3 0 463 2.33800000 1207105449 1207105449 -15.00000000
0.30055925 3.70325732 0.06485314 6 1 464 3.71600000 1207105451 1207105451 1.00000000
0.21485542 2.64156318 -0.61186689 3 2 465 2.72000000 1207105454 1207105454 -13.00000000
0.30326733 3.72855330 0.19605049 65 3 465 3.74600000 1207105456 1207105456 3.00000000
0.25982565 3.18756938 -0.62165570 2 4 466 3.25800000 1207105458 1207105458 -11.00000000
0.30593503 3.74517155 0.32875147 63 5 467 3.77200000 1207105461 1207105461 5.00000000
0.32717955 3.99664497 -0.63512391 2 6 468 4.06000000 1207105463 1207105463 -9.00000000
0.30887631 3.76498199 0.46383473 61 7 469 3.80600000 1207105465 1207105465 7.00000000
0.57043284 6.93830919 -0.85479158 2 8 470 7.01400000 1207105468 1207105468 -7.00000000
0.43043154 5.22427464 -0.45861351 3 10 471 5.26200000 1207105472 1207105472 -5.00000000
0.87527317 10.60083961 2.06760621 50 11 472 10.83600000 1207105474 1207105474 11.00000000
0.30583796 3.69627881 -0.19437574 4 12 473 3.71400000 1207105477 1207105477 -3.00000000
0.85363448 10.29494095 2.38493109 60 13 474 10.60200000 1207105479 1207105479 13.00000000
0.30932435 3.72260165 -0.06520219 100 14 475 3.73600000 1207105481 1207105481 -1.00000000
0.73806345 8.86356926 2.38320565 45 15 476 9.20800000 1207105484 1207105484 15.00000000
0.18972862 2.24065709 -0.60253072 3 0 484 2.32800000 1207105504 1207105504 -15.00000000
0.31548288 3.71807098 0.06513238 6 1 485 3.73200000 1207105507 1207105507 1.00000000
0.22552638 2.65240836 -0.61456627 3 2 486 2.73200000 1207105509 1207105509 -13.00000000
0.31710035 3.72940683 0.19615516 61 3 486 3.74800000 1207105511 1207105511 3.00000000
0.27184027 3.19050813 -0.62241894 2 4 487 3.26200000 1207105514 1207105514 -11.00000000
0.31999868 3.74799538 0.32910007 66 5 488 3.77600000 1207105516 1207105516 5.00000000
0.34401482 4.02100563 -0.63919121 2 6 489 4.08600000 1207105518 1207105518 -9.00000000
0.32284313 3.76580238 0.46407846 63 7 490 3.80800000 1207105520 1207105520 7.00000000
0.45959485 5.34996986 -0.65931314 2 8 491 5.41000000 1207105523 1207105523 -7.00000000
0.34961373 4.06140900 -0.35664129 2 10 492 4.09200000 1207105527 1207105527 -5.00000000
0.91445875 10.60147190 2.06836963 46 11 493 10.84000000 1207105530 1207105530 11.00000000
0.32024339 3.70508218 -0.19489910 6 12 494 3.72400000 1207105532 1207105532 -3.00000000
0.89136159 10.29174328 2.38493109 60 13 495 10.60200000 1207105534 1207105534 13.00000000
0.76732832 8.84169292 2.37802935 40 15 496 9.18800000 1207105539 1207105539 15.00000000
0.19788826 2.24382973 -0.60356599 4 0 504 2.33200000 1207105560 1207105560 -15.00000000
0.32669923 3.69702792 0.06478333 6 1 505 3.71200000 1207105562 1207105562 1.00000000
0.23547114 2.65936947 -0.61636591 3 2 506 2.74000000 1207105564 1207105564 -13.00000000
0.33082110 3.73623490 0.19657385 63 3 506 3.75600000 1207105567 1207105567 3.00000000
0.28262857 3.18562865 -0.62165570 2 4 507 3.25800000 1207105569 1207105569 -11.00000000
0.33237401 3.73891735 0.32840285 61 5 508 3.76800000 1207105571 1207105571 5.00000000
0.35629609 4.00010443 -0.63606256 2 6 509 4.06600000 1207105573 1207105573 -9.00000000
0.33651567 3.77058411 0.46480969 56 7 510 3.81400000 1207105576 1207105576 7.00000000
0.47685245 5.33251524 -0.65736324 2 8 511 5.39400000 1207105578 1207105578 -7.00000000
0.36076587 4.02642822 -0.35367802 4 10 512 4.05800000 1207105583 1207105583 -5.00000000
0.95181030 10.60212612 2.06913280 50 11 513 10.84400000 1207105585 1207105585 11.00000000
0.33550075 3.72980189 -0.19625984 3 12 514 3.75000000 1207105587 1207105587 -3.00000000
0.92798072 10.29633236 2.38673067 57 13 515 10.61000000 1207105590 1207105590 13.00000000
0.33487549 3.70834327 -0.06499276 100 14 516 3.72400000 1207105592 1207105592 -1.00000000
0.79868513 8.82727718 2.37492347 42 15 517 9.17600000 1207105594 1207105594 15.00000000
0.20532797 2.24316120 -0.60356599 4 0 523 2.33200000 1207105615 1207105615 -15.00000000
0.33895722 3.69592404 0.06478333 6 1 524 3.71200000 1207105617 1207105617 1.00000000
0.24250551 2.63916850 -0.61186689 3 2 525 2.72000000 1207105620 1207105620 -13.00000000
0.34514266 3.74897933 0.19730656 73 3 526 3.77000000 1207105622 1207105622 3.00000000
0.29391086 3.19249368 -0.62318218 2 4 526 3.26600000 1207105624 1207105624 -11.00000000
0.34513688 3.74176264 0.32875147 63 5 527 3.77200000 1207105626 1207105626 5.00000000
0.37137675 4.01857042 -0.63919121 2 6 528 4.08600000 1207105629 1207105629 -9.00000000
0.34865150 3.76549435 0.46432221 60 7 529 3.81000000 1207105631 1207105631 7.00000000
0.49746692 5.36253071 -0.66126305 2 8 530 5.42600000 1207105633 1207105633 -7.00000000
0.37300968 4.01330662 -0.35263214 6 10 531 4.04600000 1207105638 1207105638 -5.00000000
0.98532474 10.58131886 2.06569815 53 11 532 10.82600000 1207105640 1207105640 11.00000000
0.34638312 3.71275973 -0.19542246 1 12 533 3.73400000 1207105643 1207105643 -3.00000000
0.96211952 10.29319859 2.38673067 59 13 534 10.61000000 1207105645 1207105645 13.00000000
0.34903547 3.72712231 -0.06534181 21 14 535 3.74400000 1207105647 1207105647 -1.00000000
0.82677311 8.82857132 2.37595892 42 15 535 9.18000000 1207105650 1207105650 15.00000000
0.21297400 2.24050760 -0.60304838 4 0 543 2.33000000 1207105670 1207105670 -15.00000000
0.35185635 3.69471836 0.06478333 6 1 544 3.71200000 1207105673 1207105673 1.00000000
0.25245678 2.64606547 -0.61366647 3 2 545 2.72800000 1207105675 1207105675 -13.00000000
0.35689667 3.73383451 0.19657385 71 3 546 3.75600000 1207105677 1207105677 3.00000000
0.30542657 3.19535708 -0.62394542 2 4 546 3.27000000 1207105679 1207105679 -11.00000000
0.35876572 3.74648499 0.32927439 60 5 547 3.77800000 1207105682 1207105682 5.00000000
0.38577920 4.02118254 -0.63981694 2 6 548 4.09000000 1207105684 1207105684 -9.00000000
0.36141357 3.76030231 0.46383473 61 7 549 3.80600000 1207105686 1207105686 7.00000000
0.51313841 5.32914591 -0.65736324 2 8 550 5.39400000 1207105689 1207105689 -7.00000000
0.38586864 4.00008106 -0.35158625 6 10 551 4.03400000 1207105693 1207105693 -5.00000000
1.02225447 10.57781506 2.06569815 53 11 552 10.82600000 1207105696 1207105696 11.00000000
0.35703135 3.68767238 -0.19416639 1 12 553 3.71000000 1207105698 1207105698 -3.00000000
0.99804360 10.28977776 2.38673067 59 13 554 10.61000000 1207105700 1207105700 13.00000000
0.36243021 3.72986197 -0.06541162 100 14 555 3.74800000 1207105703 1207105703 -1.00000000
0.85987455 8.83317280 2.37802935 42 15 556 9.18800000 1207105705 1207105705 15.00000000
0.22174114 2.24936318 -0.60563654 4 0 563 2.34000000 1207105726 1207105726 -15.00000000
0.36730599 3.71933794 0.06523710 6 1 564 3.73800000 1207105728 1207105728 1.00000000
0.26207545 2.64904666 -0.61456627 3 2 565 2.73200000 1207105730 1207105730 -13.00000000
0.36914009 3.72461581 0.19615516 68 3 566 3.74800000 1207105732 1207105732 3.00000000
0.31657860 3.19427156 -0.62394542 2 4 566 3.27000000 1207105735 1207105735 -11.00000000
0.37243176 3.75115776 0.32979733 63 5 567 3.78400000 1207105737 1207105737 5.00000000
0.40137747 4.03553677 -0.64231992 2 6 568 4.10600000 1207105739 1207105739 -9.00000000
0.37453726 3.75901794 0.46383473 60 7 569 3.80600000 1207105742 1207105742 7.00000000
0.53489202 5.35892677 -0.66126305 2 8 570 5.42600000 1207105744 1207105744 -7.00000000
0.40042385 4.00465727 -0.35210919 6 10 571 4.04000000 1207105749 1207105749 -5.00000000
1.05956304 10.57808876 2.06646132 53 11 572 10.83000000 1207105751 1207105751 11.00000000
0.37169620 3.70428920 -0.19510844 3 12 573 3.72800000 1207105753 1207105753 -3.00000000
1.03239632 10.27071953 2.38313150 60 13 574 10.59400000 1207105756 1207105756 13.00000000
0.37404525 3.71464658 -0.06516729 52 14 575 3.73400000 1207105758 1207105758 -1.00000000
0.88916171 8.83027267 2.37802935 45 15 575 9.18800000 1207105760 1207105760 15.00000000
0.22978777 2.25049734 -0.60615420 3 0 583 2.34200000 1207105781 1207105781 -15.00000000
0.38028666 3.71803308 0.06523710 6 1 584 3.73800000 1207105783 1207105783 1.00000000
0.26893726 2.62485266 -0.60916746 3 2 585 2.70800000 1207105785 1207105785 -13.00000000
0.38336268 3.73522544 0.19678320 68 3 586 3.76000000 1207105788 1207105788 3.00000000
0.32692498 3.18533492 -0.62241894 2 4 586 3.26200000 1207105790 1207105790 -11.00000000
0.38511595 3.74587107 0.32944870 63 5 587 3.78000000 1207105792 1207105792 5.00000000
0.41505694 4.03018141 -0.64169419 2 6 588 4.10200000 1207105795 1207105795 -9.00000000
0.38786012 3.75966215 0.46407846 61 7 589 3.80800000 1207105797 1207105797 7.00000000
0.55237061 5.34517956 -0.65980065 2 8 590 5.41400000 1207105799 1207105799 -7.00000000
0.41419512 4.00125313 -0.35193488 6 10 591 4.03800000 1207105804 1207105804 -5.00000000
1.09648097 10.57432556 2.06646132 53 11 592 10.83000000 1207105806 1207105806 11.00000000
0.38544971 3.71091557 -0.19552714 1 12 593 3.73600000 1207105808 1207105808 -3.00000000
1.06864488 10.27092934 2.38403130 59 13 594 10.59800000 1207105811 1207105811 13.00000000
0.38555849 3.69939590 -0.06492295 82 14 595 3.72000000 1207105813 1207105813 -1.00000000
0.92011613 8.81350422 2.37440586 45 15 596 9.17400000 1207105815 1207105815 15.00000000
0.23544089 2.23631573 -0.60253072 4 0 601 2.32800000 1207105836 1207105836 -15.00000000
0.39070702 3.70488811 0.06502767 6 1 602 3.72600000 1207105838 1207105838 1.00000000
0.28250471 2.67438173 -0.62086493 3 2 603 2.76000000 1207105841 1207105841 -13.00000000
0.39488515 3.73201656 0.19667852 66 3 604 3.75800000 1207105843 1207105843 3.00000000
0.33651721 3.18038750 -0.62165570 2 4 604 3.25800000 1207105845 1207105845 -11.00000000
0.39646202 3.74067998 0.32910007 61 5 605 3.77600000 1207105848 1207105848 5.00000000
0.42563066 4.00921392 -0.63856548 2 6 606 4.08200000 1207105850 1207105850 -9.00000000
0.40071905 3.76829505 0.46529716 60 7 607 3.81800000 1207105852 1207105852 7.00000000
0.57042176 5.35526133 -0.66126305 2 8 608 5.42600000 1207105855 1207105855 -7.00000000
0.42464963 3.98012090 -0.35019177 4 10 609 4.01800000 1207105859 1207105859 -5.00000000
1.13011301 10.57473278 2.06722474 53 11 610 10.83400000 1207105861 1207105861 11.00000000
0.39476755 3.68784118 -0.19437574 3 12 611 3.71400000 1207105864 1207105864 -3.00000000
1.10090661 10.26752186 2.38403130 60 13 612 10.59800000 1207105866 1207105866 13.00000000
0.39845976 3.71009588 -0.06513238 66 14 613 3.73200000 1207105868 1207105868 -1.00000000
0.94605595 8.80881500 2.37388825 42 15 613 9.17200000 1207105871 1207105871 15.00000000
0.24491745 2.25084448 -0.60667187 4 0 621 2.34400000 1207105891 1207105891 -15.00000000
0.40342045 3.70151377 0.06499276 6 1 622 3.72400000 1207105894 1207105894 1.00000000
0.29014650 2.65788150 -0.61726570 3 2 623 2.74400000 1207105896 1207105896 -13.00000000
0.40942955 3.74451327 0.19741122 71 3 624 3.77200000 1207105898 1207105898 3.00000000
0.34889713 3.19090319 -0.62394542 2 4 624 3.27000000 1207105901 1207105901 -11.00000000
0.40951702 3.73927331 0.32910007 63 5 625 3.77600000 1207105903 1207105903 5.00000000
0.44048440 4.01555824 -0.63981694 2 6 626 4.09000000 1207105905 1207105905 -9.00000000
0.41387042 3.76687312 0.46529716 58 7 627 3.81800000 1207105908 1207105908 7.00000000
0.59084874 5.36902332 -0.66321295 2 8 628 5.44200000 1207105910 1207105910 -7.00000000
0.44225115 4.01228094 -0.35315508 2 10 629 4.05200000 1207105914 1207105914 -5.00000000
1.16529524 10.55511284 2.06417179 56 11 630 10.81800000 1207105917 1207105917 11.00000000
0.41071132 3.71423292 -0.19584115 3 12 631 3.74200000 1207105919 1207105919 -3.00000000
1.13716936 10.26749039 2.38493109 57 13 632 10.60200000 1207105921 1207105921 13.00000000
0.41228989 3.71663237 -0.06527200 46 14 633 3.74000000 1207105924 1207105924 -1.00000000
0.97790885 8.80144787 2.37285304 42 15 634 9.16800000 1207105926 1207105926 15.00000000
0.25255719 2.24805593 -0.60615420 4 0 641 2.34200000 1207105947 1207105947 -15.00000000
0.41656229 3.70207024 0.06502767 6 1 642 3.72600000 1207105949 1207105949 1.00000000
0.29636714 2.62974167 -0.61096704 3 2 643 2.71600000 1207105951 1207105951 -13.00000000
0.42137775 3.73313808 0.19688787 65 3 644 3.76200000 1207105954 1207105954 3.00000000
0.36135456 3.20137095 -0.62623513 2 4 644 3.28200000 1207105956 1207105956 -11.00000000
0.42323849 3.74376035 0.32962301 60 5 645 3.78200000 1207105958 1207105958 5.00000000
0.45761013 4.04147577 -0.64419711 2 6 646 4.11800000 1207105961 1207105961 -9.00000000
0.42612201 3.75751591 0.46432221 58 7 647 3.81000000 1207105963 1207105963 7.00000000
0.61003464 5.37087297 -0.66370046 2 8 648 5.44600000 1207105965 1207105965 -7.00000000
0.46728870 4.10771418 -0.36169633 2 10 649 4.15000000 1207105970 1207105970 -5.00000000
1.20302141 10.55878353 2.06569815 53 11 650 10.82600000 1207105972 1207105972 11.00000000
0.42027727 3.68301105 -0.19427107 3 12 651 3.71200000 1207105974 1207105974 -3.00000000
1.17167497 10.25184155 2.38223171 60 13 652 10.59000000 1207105977 1207105977 13.00000000
0.42435122 3.70722365 -0.06513238 93 14 653 3.73200000 1207105979 1207105979 -1.00000000
1.00752950 8.80199528 2.37388825 42 15 653 9.17200000 1207105981 1207105981 15.00000000
0.26018044 2.24524164 -0.60563654 4 0 661 2.34000000 1207106002 1207106002 -15.00000000
0.42948237 3.70059347 0.06502767 6 1 662 3.72600000 1207106004 1207106004 1.00000000
0.30779481 2.64804840 -0.61546606 3 2 663 2.73600000 1207106007 1207106007 -13.00000000
0.43394437 3.72767663 0.19667852 66 3 664 3.75800000 1207106009 1207106009 3.00000000
0.36980310 3.17668915 -0.62165570 2 4 664 3.25800000 1207106011 1207106011 -11.00000000
0.43630406 3.74226022 0.32962301 52 5 665 3.78200000 1207106014 1207106014 5.00000000
0.47125652 4.03592968 -0.64357138 2 6 666 4.11400000 1207106016 1207106016 -9.00000000
0.43923557 3.75600553 0.46432221 56 7 667 3.81000000 1207106018 1207106018 7.00000000
0.62508410 5.33716488 -0.65980065 2 8 668 5.41400000 1207106020 1207106020 -7.00000000
0.48301712 4.11793089 -0.36274222 2 10 669 4.16200000 1207106025 1207106025 -5.00000000
1.24078739 10.56231880 2.06722474 56 11 670 10.83400000 1207106027 1207106027 11.00000000
0.43499774 3.69739008 -0.19510844 3 12 671 3.72800000 1207106030 1207106030 -3.00000000
1.20745337 10.24768925 2.38223171 60 13 672 10.59000000 1207106032 1207106032 13.00000000
0.43752360 3.70770574 -0.06516729 100 14 673 3.73400000 1207106034 1207106034 -1.00000000
1.04046392 8.80399895 2.37544131 45 15 674 9.17800000 1207106037 1207106037 15.00000000
0.26893252 2.25199270 -0.60770714 4 0 681 2.34800000 1207106057 1207106057 -15.00000000
0.44453442 3.71694160 0.06534181 6 1 682 3.74400000 1207106060 1207106060 1.00000000
0.31703633 2.64695787 -0.61546606 3 2 683 2.73600000 1207106062 1207106062 -13.00000000
0.44647801 3.72217321 0.19646917 60 3 684 3.75400000 1207106064 1207106064 3.00000000
0.38135719 3.17927742 -0.62241894 2 4 684 3.26200000 1207106067 1207106067 -11.00000000
0.44960198 3.74269247 0.32979733 63 5 685 3.78400000 1207106069 1207106069 5.00000000
0.48534167 4.03426027 -0.64357138 2 6 686 4.11400000 1207106071 1207106071 -9.00000000
0.45329362 3.76233268 0.46529716 61 7 687 3.81800000 1207106073 1207106073 7.00000000
0.64323491 5.33100891 -0.65931314 2 8 688 5.41000000 1207106076 1207106076 -7.00000000
0.49619335 4.10632992 -0.36187065 9 10 689 4.15200000 1207106080 1207106080 -5.00000000
1.27812088 10.56182194 2.06798792 53 11 690 10.83800000 1207106083 1207106083 11.00000000
0.44838199 3.69981456 -0.19531779 3 12 691 3.73200000 1207106085 1207106085 -3.00000000
1.24321711 10.24341202 2.38223171 62 13 692 10.59000000 1207106087 1207106087 13.00000000
0.44925684 3.69623065 -0.06499276 67 14 693 3.72400000 1207106090 1207106090 -1.00000000
1.06988633 8.80241776 2.37595892 45 15 693 9.18000000 1207106092 1207106092 15.00000000
0.27490565 2.23570108 -0.60356599 4 0 701 2.33200000 1207106113 1207106113 -15.00000000
0.45506233 3.69552040 0.06499276 4 1 702 3.72400000 1207106115 1207106115 1.00000000
0.32675102 2.64970326 -0.61636591 3 2 703 2.74000000 1207106117 1207106117 -13.00000000
0.46044725 3.72852087 0.19688787 66 3 704 3.76200000 1207106120 1207106120 3.00000000
0.39341509 3.18572068 -0.62394542 2 4 704 3.27000000 1207106122 1207106122 -11.00000000
0.46217459 3.73714566 0.32944870 63 5 705 3.78000000 1207106124 1207106124 5.00000000
0.49699301 4.01293755 -0.64044273 2 6 706 4.09400000 1207106126 1207106126 -9.00000000
0.46666816 3.76269746 0.46554089 55 7 707 3.82000000 1207106129 1207106129 7.00000000
0.67113727 5.40358925 -0.66857523 2 8 708 5.48600000 1207106131 1207106131 -7.00000000
0.50732720 4.07886982 -0.35960460 18 10 709 4.12600000 1207106136 1207106136 -5.00000000
1.31546605 10.56119251 2.06875110 56 11 710 10.84200000 1207106138 1207106138 11.00000000
0.46327168 3.71408224 -0.19615516 3 12 711 3.74800000 1207106140 1207106140 -3.00000000
1.27848268 10.23514271 2.38133192 60 13 712 10.58600000 1207106143 1207106143 13.00000000
0.46265277 3.69860840 -0.06506257 100 14 713 3.72800000 1207106145 1207106145 -1.00000000
1.09964693 8.79096222 2.37388825 45 15 713 9.17200000 1207106147 1207106147 15.00000000
0.28377074 2.24627686 -0.60667187 4 0 720 2.34400000 1207106168 1207106168 -15.00000000
0.46731460 3.69399095 0.06499276 6 1 721 3.72400000 1207106170 1207106170 1.00000000
0.33455628 2.64087200 -0.61456627 3 2 722 2.73200000 1207106173 1207106173 -13.00000000
0.47381440 3.73489904 0.19730656 66 3 723 3.77000000 1207106175 1207106175 3.00000000
0.40447134 3.18829393 -0.62470865 2 4 723 3.27400000 1207106177 1207106177 -11.00000000
0.47481596 3.73756909 0.32962301 57 5 724 3.78200000 1207106179 1207106179 5.00000000
0.50780475 3.99167156 -0.63731402 2 6 725 4.07400000 1207106182 1207106182 -9.00000000
0.47914317 3.76112938 0.46554089 55 7 726 3.82000000 1207106184 1207106184 7.00000000
0.68151641 5.34225988 -0.66126305 2 8 727 5.42600000 1207106186 1207106186 -7.00000000
1.34898627 10.54508781 2.06646132 53 11 729 10.83000000 1207106193 1207106193 11.00000000
0.47254011 3.68875265 -0.19489910 3 12 730 3.72400000 1207106196 1207106196 -3.00000000
1.31340837 10.23857784 2.38313150 57 13 731 10.59400000 1207106198 1207106198 13.00000000
1.12879276 8.78726768 2.37388825 45 15 732 9.17200000 1207106202 1207106202 15.00000000
0.29210761 2.24910402 -0.60770714 4 0 740 2.34800000 1207106223 1207106223 -15.00000000
0.47969040 3.68837118 0.06492295 4 1 741 3.72000000 1207106226 1207106226 1.00000000
0.34226263 2.62809348 -0.61186689 3 2 742 2.72000000 1207106228 1207106228 -13.00000000
0.48555735 3.72331977 0.19678320 63 3 743 3.76000000 1207106230 1207106230 3.00000000
0.41661361 3.19464970 -0.62623513 2 4 743 3.28200000 1207106232 1207106232 -11.00000000
0.48863360 3.74181581 0.33014596 61 5 744 3.78800000 1207106235 1207106235 5.00000000
0.52429646 4.00946140 -0.64044273 2 6 745 4.09400000 1207106237 1207106237 -9.00000000
0.49098036 3.74959230 0.46432221 58 7 746 3.81000000 1207106239 1207106239 7.00000000
0.70222479 5.35559464 -0.66321295 2 8 747 5.44200000 1207106242 1207106242 -7.00000000
0.64116132 4.88327503 -0.43089798 15 10 748 4.94400000 1207106246 1207106246 -5.00000000
1.38681090 10.54810047 2.06798792 53 11 749 10.83800000 1207106249 1207106249 11.00000000
0.48567408 3.68906093 -0.19500378 3 12 750 3.72600000 1207106251 1207106251 -3.00000000
1.34659278 10.21461105 2.37863255 60 13 751 10.57400000 1207106253 1207106253 13.00000000
1.16149843 8.78690147 2.37492347 42 15 753 9.17600000 1207106258 1207106258 15.00000000
0.29995668 2.24807072 -0.60770714 4 0 760 2.34800000 1207106279 1207106279 -15.00000000
0.49521047 3.70649505 0.06527200 6 1 761 3.74000000 1207106281 1207106281 1.00000000
0.35298476 2.63847184 -0.61456627 3 2 762 2.73200000 1207106283 1207106283 -13.00000000
0.49828604 3.71962261 0.19667852 66 3 763 3.75800000 1207106285 1207106285 3.00000000
0.42671978 3.18539238 -0.62470865 2 4 763 3.27400000 1207106288 1207106288 -11.00000000
0.50275153 3.74798608 0.33084321 63 5 764 3.79600000 1207106290 1207106290 5.00000000
0.53776300 4.00369167 -0.63981694 2 6 765 4.09000000 1207106292 1207106292 -9.00000000
0.50565350 3.75966001 0.46578464 60 7 766 3.82200000 1207106295 1207106295 7.00000000
0.71296668 5.29409075 -0.65590084 2 8 767 5.38200000 1207106297 1207106297 -7.00000000
0.66033334 4.89680338 -0.43229249 15 10 768 4.96000000 1207106302 1207106302 -5.00000000
1.42362225 10.54319572 2.06798792 56 11 769 10.83800000 1207106304 1207106304 11.00000000
0.49908355 3.69130158 -0.19521312 3 12 770 3.73000000 1207106306 1207106306 -3.00000000
1.38119447 10.20212364 2.37683272 56 13 771 10.56600000 1207106308 1207106308 13.00000000
0.50340003 3.71346378 -0.06541162 67 14 772 3.74800000 1207106311 1207106311 -1.00000000
1.19063044 8.78300095 2.37492347 45 15 772 9.17600000 1207106313 1207106313 15.00000000
0.30622900 2.23552608 -0.60460126 4 0 780 2.33600000 1207106334 1207106334 -15.00000000
0.50977594 3.71663094 0.06548143 6 1 781 3.75200000 1207106336 1207106336 1.00000000
0.36537439 2.66039109 -0.61996508 3 2 782 2.75600000 1207106338 1207106338 -13.00000000
0.51317155 3.73171115 0.19741122 68 3 783 3.77200000 1207106341 1207106341 3.00000000
0.43676642 3.17610383 -0.62318218 2 4 783 3.26600000 1207106343 1207106343 -11.00000000
0.51528782 3.74226069 0.33049458 61 5 784 3.79200000 1207106345 1207106345 5.00000000
0.55281442 4.00961733 -0.64106846 2 6 785 4.09800000 1207106348 1207106348 -9.00000000
0.51931703 3.76180482 0.46627212 60 7 786 3.82600000 1207106350 1207106350 7.00000000
0.74014014 5.35449457 -0.66370046 2 8 787 5.44600000 1207106352 1207106352 -7.00000000
0.67496395 4.87670612 -0.43072367 12 10 788 4.94200000 1207106357 1207106357 -5.00000000
1.46203315 10.54982948 2.07027769 53 11 789 10.85000000 1207106359 1207106359 11.00000000
0.51196557 3.68953705 -0.19521312 3 12 790 3.73000000 1207106361 1207106361 -3.00000000
1.41787076 10.20496082 2.37863255 57 13 791 10.57400000 1207106364 1207106364 13.00000000
1.22128153 8.77879143 2.37492347 45 15 792 9.17600000 1207106368 1207106368 15.00000000
0.31429943 2.23635674 -0.60511893 3 0 800 2.33800000 1207106389 1207106389 -15.00000000
0.52163172 3.70690799 0.06534181 6 1 801 3.74400000 1207106391 1207106391 1.00000000
0.37411487 2.65524006 -0.61906528 3 2 802 2.75200000 1207106394 1207106394 -13.00000000
0.52526486 3.72801113 0.19730656 65 3 802 3.77000000 1207106396 1207106396 3.00000000
0.44785044 3.17455983 -0.62318218 2 4 803 3.26600000 1207106398 1207106398 -11.00000000
0.52779031 3.73649359 0.33014596 63 5 804 3.78800000 1207106401 1207106401 5.00000000
0.56791371 4.01548672 -0.64231992 2 6 805 4.10600000 1207106403 1207106403 -9.00000000
0.53328001 3.76586556 0.46700332 61 7 806 3.83200000 1207106405 1207106405 7.00000000
0.75381017 5.31650019 -0.65931314 2 8 807 5.41000000 1207106407 1207106407 -7.00000000
0.59172785 4.16812611 -0.36832017 9 10 808 4.22600000 1207106412 1207106412 -5.00000000
1.49940264 10.54854965 2.07104087 53 11 809 10.85400000 1207106414 1207106414 11.00000000
0.52765548 3.70750070 -0.19625984 3 12 810 3.75000000 1207106417 1207106417 -3.00000000
1.45348406 10.19994926 2.37863255 60 13 811 10.57400000 1207106419 1207106419 13.00000000
0.53015977 3.71579790 -0.06551633 8 14 812 3.75400000 1207106421 1207106421 -1.00000000
1.25082636 8.76682568 2.37285304 45 15 812 9.16800000 1207106424 1207106424 15.00000000
0.32155278 2.23142171 -0.60408366 3 0 820 2.33400000 1207106444 1207106444 -15.00000000
0.53285468 3.69318938 0.06513238 6 1 821 3.73200000 1207106447 1207106447 1.00000000
0.38170940 2.64234567 -0.61636591 3 2 822 2.74000000 1207106449 1207106449 -13.00000000
0.54064059 3.73792100 0.19793458 73 3 823 3.78200000 1207106451 1207106451 3.00000000
0.45949104 3.17686319 -0.62394542 2 4 823 3.27000000 1207106454 1207106454 -11.00000000
0.54197204 3.74251580 0.33084321 61 5 824 3.79600000 1207106456 1207106456 5.00000000
0.58135998 4.00957012 -0.64169419 2 6 825 4.10200000 1207106458 1207106458 -9.00000000
0.54556650 3.75808764 0.46627212 60 7 826 3.82600000 1207106460 1207106460 7.00000000
0.78207171 5.38062811 -0.66760027 2 8 827 5.47800000 1207106463 1207106463 -7.00000000
0.59823978 4.11082983 -0.36343944 9 10 828 4.17000000 1207106467 1207106467 -5.00000000
1.53508246 10.53548050 2.06951427 53 11 829 10.84600000 1207106470 1207106470 11.00000000
0.54030555 3.70366001 -0.19615516 3 12 830 3.74800000 1207106472 1207106472 -3.00000000
1.48964298 10.19867039 2.37953234 59 13 831 10.57800000 1207106474 1207106474 13.00000000
0.54602069 3.73371124 -0.06586538 9 14 832 3.77400000 1207106477 1207106477 -1.00000000
1.28378963 8.76791668 2.37440586 42 15 833 9.17400000 1207106479 1207106479 15.00000000
0.33142444 2.24169469 -0.60718948 3 0 841 2.34600000 1207106500 1207106500 -15.00000000
0.54902267 3.70901489 0.06544653 6 1 842 3.75000000 1207106502 1207106502 1.00000000
0.39024875 2.63321829 -0.61456627 3 2 843 2.73200000 1207106504 1207106504 -13.00000000
0.55251390 3.72810841 0.19751590 66 3 843 3.77400000 1207106507 1207106507 3.00000000
0.47055545 3.17127371 -0.62318218 2 4 844 3.26600000 1207106509 1207106509 -11.00000000
0.55627096 3.74444580 0.33119181 66 5 845 3.80000000 1207106511 1207106511 5.00000000
0.82273185 5.53144073 -0.88573194 6 6 846 5.66200000 1207106513 1207106513 -9.00000000
0.55875212 3.75213599 0.46578464 56 7 847 3.82200000 1207106516 1207106516 7.00000000
1.04094779 6.98181534 -0.86673474 4 8 848 7.11200000 1207106518 1207106518 -7.00000000
0.61624420 4.12831497 -0.36518255 76 10 849 4.19000000 1207106523 1207106523 -5.00000000
1.57484746 10.53754997 2.07104087 53 11 850 10.85400000 1207106525 1207106525 11.00000000
0.55358094 3.69967937 -0.19605049 3 12 851 3.74600000 1207106527 1207106527 -3.00000000
1.52412581 10.17386913 2.37503314 57 13 852 10.55800000 1207106530 1207106530 13.00000000
0.56059158 3.73761749 -0.06597009 6 14 853 3.78000000 1207106532 1207106532 -1.00000000
1.31381440 8.75956059 2.37337065 45 15 853 9.17000000 1207106534 1207106534 15.00000000
0.33953661 2.24243426 -0.60770714 4 0 861 2.34800000 1207106555 1207106555 -15.00000000
0.56316507 3.71498418 0.06558614 6 1 862 3.75800000 1207106557 1207106557 1.00000000
0.40177736 2.64725327 -0.61816549 3 2 863 2.74800000 1207106559 1207106559 -13.00000000
0.56402558 3.71628380 0.19699255 61 3 863 3.76400000 1207106562 1207106562 3.00000000
0.48398185 3.18513966 -0.62623513 2 4 864 3.28200000 1207106564 1207106564 -11.00000000
0.57053673 3.75036025 0.33188906 66 5 865 3.80800000 1207106566 1207106566 5.00000000
0.61182135 4.01702452 -0.64357138 2 6 866 4.11400000 1207106569 1207106569 -9.00000000
0.57244462 3.75408769 0.46627212 60 7 867 3.82600000 1207106571 1207106571 7.00000000
1.06740963 6.99187565 -0.86844093 6 8 868 7.12600000 1207106573 1207106573 -7.00000000
1.61221468 10.53586960 2.07180405 53 11 870 10.85800000 1207106580 1207106580 11.00000000
0.57012129 3.72141528 -0.19730656 1 12 871 3.77000000 1207106583 1207106583 -3.00000000
1.55903912 10.16463470 2.37413335 60 13 872 10.55400000 1207106585 1207106585 13.00000000
0.57333136 3.73366141 -0.06593519 8 14 873 3.77800000 1207106587 1207106587 -1.00000000
1.34643543 8.76828766 2.37699413 45 15 873 9.18400000 1207106589 1207106589 15.00000000
0.34706622 2.23932624 -0.60718948 4 0 881 2.34600000 1207106610 1207106610 -15.00000000
0.57735580 3.72090006 0.06572577 6 1 882 3.76600000 1207106612 1207106612 1.00000000
0.41041726 2.64198351 -0.61726570 3 2 883 2.74400000 1207106615 1207106615 -13.00000000
0.57887036 3.72208571 0.19741122 63 3 884 3.77200000 1207106617 1207106617 3.00000000
0.49268347 3.16791153 -0.62318218 2 4 884 3.26600000 1207106619 1207106619 -11.00000000
0.58301145 3.74440837 0.33154044 66 5 885 3.80400000 1207106622 1207106622 5.00000000
0.62401420 4.00315380 -0.64169419 2 6 886 4.10200000 1207106624 1207106624 -9.00000000
0.58676970 3.75991201 0.46724707 56 7 887 3.83400000 1207106626 1207106626 7.00000000
1.09089005 6.98222303 -0.86770970 4 8 888 7.12000000 1207106629 1207106629 -7.00000000
0.64135522 4.10029078 -0.36309081 100 10 889 4.16600000 1207106633 1207106633 -5.00000000
1.65080428 10.54181576 2.07409382 53 11 890 10.87000000 1207106636 1207106636 11.00000000
0.58187062 3.71150994 -0.19688787 1 12 891 3.76200000 1207106638 1207106638 -3.00000000
1.59390652 10.15528107 2.37323356 59 13 892 10.55000000 1207106640 1207106640 13.00000000
0.58356708 3.71385837 -0.06562105 6 14 893 3.76000000 1207106642 1207106642 -1.00000000
1.37676251 8.75184345 2.37388825 45 15 894 9.17200000 1207106645 1207106645 15.00000000
0.35246050 2.22283697 -0.60304838 4 0 901 2.33000000 1207106665 1207106665 -15.00000000
0.58908659 3.71096206 0.06558614 8 1 902 3.75800000 1207106668 1207106668 1.00000000
0.42208385 2.65593147 -0.62086493 3 2 903 2.76000000 1207106670 1207106670 -13.00000000
0.59277743 3.73000813 0.19793458 66 3 903 3.78200000 1207106672 1207106672 3.00000000
0.50558937 3.17780566 -0.62547189 2 4 904 3.27800000 1207106675 1207106675 -11.00000000
0.59545153 3.73841548 0.33119181 63 5 905 3.80000000 1207106677 1207106677 5.00000000
0.63549548 3.98534513 -0.63919121 2 6 906 4.08600000 1207106679 1207106679 -9.00000000
0.60114241 3.76568198 0.46822202 56 7 907 3.84200000 1207106682 1207106682 7.00000000
1.11494267 6.97641230 -0.86746597 2 8 908 7.11800000 1207106684 1207106684 -7.00000000
0.65534925 4.09605980 -0.36291650 100 10 909 4.16400000 1207106689 1207106689 -5.00000000
1.68697107 10.53211212 2.07333064 56 11 910 10.86600000 1207106691 1207106691 11.00000000
0.59893364 3.73509312 -0.19824859 3 12 911 3.78800000 1207106693 1207106693 -3.00000000
1.63058090 10.15735149 2.37503314 60 13 912 10.55800000 1207106695 1207106695 13.00000000
0.59970033 3.73154235 -0.06597009 6 14 913 3.78000000 1207106698 1207106698 -1.00000000
1.40515578 8.73363304 2.37026477 42 15 914 9.15800000 1207106700 1207106700 15.00000000
0.36098465 2.23125410 -0.60563654 4 0 919 2.34000000 1207106721 1207106721 -15.00000000
0.59914345 3.69922328 0.06541162 9 1 920 3.74800000 1207106723 1207106723 1.00000000
0.42917800 2.64689779 -0.61906528 3 2 921 2.75200000 1207106725 1207106725 -13.00000000
0.60545164 3.73404193 0.19824859 68 3 921 3.78800000 1207106728 1207106728 3.00000000
0.51494110 3.17232585 -0.62470865 2 4 922 3.27400000 1207106730 1207106730 -11.00000000
0.60783225 3.74045944 0.33154044 61 5 923 3.80400000 1207106732 1207106732 5.00000000
0.88558561 5.44368792 -0.87353003 2 6 924 5.58400000 1207106735 1207106735 -9.00000000
0.61233145 3.75985622 0.46773455 61 7 925 3.83800000 1207106737 1207106737 7.00000000
1.15058970 7.05712175 -0.87794673 2 8 926 7.20400000 1207106739 1207106739 -7.00000000
0.66885602 4.09791327 -0.36326513 85 10 927 4.16800000 1207106744 1207106744 -5.00000000
1.71815073 10.51513481 2.07104087 53 11 928 10.85400000 1207106746 1207106746 11.00000000
0.60776299 3.71545339 -0.19730656 1 12 929 3.77000000 1207106748 1207106748 -3.00000000
1.66185319 10.14833260 2.37413335 62 13 930 10.55400000 1207106751 1207106751 13.00000000
0.61142033 3.72963977 -0.06597009 6 14 931 3.78000000 1207106753 1207106753 -1.00000000
1.43352485 8.73489475 2.37181783 45 15 932 9.16400000 1207106755 1207106755 15.00000000
0.36908618 2.23188639 -0.60615420 3 0 939 2.34200000 1207106776 1207106776 -15.00000000
0.61499190 3.71486497 0.06572577 11 1 940 3.76600000 1207106778 1207106778 1.00000000
0.43522865 2.62615848 -0.61456627 3 2 941 2.73200000 1207106781 1207106781 -13.00000000
0.61815566 3.72993541 0.19814393 65 3 941 3.78600000 1207106783 1207106783 3.00000000
0.52986741 3.19375038 -0.62928808 2 4 942 3.29800000 1207106785 1207106785 -11.00000000
0.62186456 3.74421144 0.33206338 57 5 943 3.81000000 1207106788 1207106788 5.00000000
0.66256112 3.98494005 -0.63981694 2 6 944 4.09000000 1207106790 1207106790 -9.00000000
0.62414837 3.74986315 0.46675959 61 7 945 3.83000000 1207106792 1207106792 7.00000000
1.17260647 7.03739786 -0.87599683 2 8 946 7.18800000 1207106795 1207106795 -7.00000000
0.67430550 4.04249239 -0.35855871 20 10 947 4.11400000 1207106799 1207106799 -5.00000000
1.75678504 10.52069187 2.07333064 53 11 948 10.86600000 1207106801 1207106801 11.00000000
0.62204581 3.72118902 -0.19772524 3 12 949 3.77800000 1207106804 1207106804 -3.00000000
1.69598079 10.13478184 2.37233377 56 13 950 10.54600000 1207106806 1207106806 13.00000000
0.62575704 3.73537159 -0.06610972 6 14 951 3.78800000 1207106808 1207106808 -1.00000000
1.46592367 8.74126911 2.37492347 45 15 952 9.17600000 1207106811 1207106811 15.00000000
0.37880570 2.24201345 -0.60926002 4 0 959 2.35400000 1207106831 1207106831 -15.00000000
0.62795544 3.71269560 0.06572577 14 1 960 3.76600000 1207106834 1207106834 1.00000000
0.44829687 2.64768004 -0.61996508 3 2 961 2.75600000 1207106836 1207106836 -13.00000000
0.63117182 3.72775507 0.19814393 66 3 961 3.78600000 1207106838 1207106838 3.00000000
0.53838772 3.17639613 -0.62623513 2 4 962 3.28200000 1207106841 1207106841 -11.00000000
0.63659698 3.75183940 0.33293495 66 5 963 3.82000000 1207106843 1207106843 5.00000000
0.67911345 3.99818277 -0.64231992 2 6 964 4.10600000 1207106845 1207106845 -9.00000000
0.63856506 3.75548983 0.46773455 60 7 965 3.83800000 1207106847 1207106847 7.00000000
1.19583201 7.02543402 -0.87502187 2 8 966 7.18000000 1207106850 1207106850 -7.00000000
0.67167890 3.94190979 -0.34984314 13 10 967 4.01400000 1207106854 1207106854 -5.00000000
1.79547906 10.52610779 2.07562017 53 11 968 10.87800000 1207106857 1207106857 11.00000000
0.63234204 3.70324492 -0.19688787 1 12 969 3.76200000 1207106859 1207106859 -3.00000000
1.72872066 10.11343288 2.36873460 56 13 970 10.53000000 1207106861 1207106861 13.00000000
0.64014119 3.74104881 -0.06624933 6 14 971 3.79600000 1207106864 1207106864 -1.00000000
1.49588013 8.74207211 2.37647653 45 15 971 9.18200000 1207106866 1207106866 15.00000000
0.38465858 2.22925520 -0.60615420 3 0 979 2.34200000 1207106887 1207106887 -15.00000000
0.64091134 3.71048093 0.06572577 14 1 980 3.76600000 1207106889 1207106889 1.00000000
0.45620817 2.63841796 -0.61816549 3 2 981 2.74800000 1207106891 1207106891 -13.00000000
0.64418024 3.72552896 0.19814393 65 3 981 3.78600000 1207106894 1207106894 3.00000000
0.54880250 3.17062855 -0.62547189 2 4 982 3.27800000 1207106896 1207106896 -11.00000000
0.64866900 3.74370503 0.33241200 60 5 983 3.81400000 1207106898 1207106898 5.00000000
0.94186699 5.43022346 -0.87290430 2 6 984 5.58000000 1207106900 1207106900 -9.00000000
0.65302867 3.76106119 0.46870950 58 7 985 3.84600000 1207106903 1207106903 7.00000000
1.23836434 7.12487268 -0.88794005 2 8 986 7.28600000 1207106905 1207106905 -7.00000000
0.68441010 3.93365264 -0.34932020 15 10 987 4.00800000 1207106910 1207106910 -5.00000000
1.83288479 10.52364445 2.07638359 56 11 988 10.88200000 1207106912 1207106912 11.00000000
0.65178275 3.73839903 -0.19887663 1 12 989 3.80000000 1207106914 1207106914 -3.00000000
1.76468277 10.11117649 2.36963439 56 13 990 10.53400000 1207106917 1207106917 13.00000000
0.65147525 3.72894216 -0.06607481 6 14 991 3.78600000 1207106919 1207106919 -1.00000000
1.52691305 8.73082161 2.37492347 45 15 992 9.17600000 1207106921 1207106921 15.00000000
0.39109725 2.22028875 -0.60408366 3 0 999 2.33400000 1207106942 1207106942 -15.00000000
0.65629011 3.72200632 0.06597009 13 1 1000 3.78000000 1207106944 1207106944 1.00000000
0.46744758 2.64832401 -0.62086493 3 2 1001 2.76000000 1207106947 1207106947 -13.00000000
0.65956819 3.73297691 0.19866729 68 3 1002 3.79600000 1207106949 1207106949 3.00000000
0.55850035 3.16096020 -0.62394542 2 4 1002 3.27000000 1207106951 1207106951 -11.00000000
0.66138601 3.73945594 0.33223769 63 5 1003 3.81200000 1207106953 1207106953 5.00000000
0.96322691 5.44051838 -0.87509441 2 6 1004 5.59400000 1207106956 1207106956 -9.00000000
0.66753888 3.76657724 0.46968445 56 7 1005 3.85400000 1207106958 1207106958 7.00000000
0.69953042 3.93908620 -0.35001746 15 10 1007 4.01600000 1207106965 1207106965 -5.00000000
1.86960804 10.51718235 2.07638359 59 11 1008 10.88200000 1207106967 1207106967 11.00000000
0.66272879 3.72430301 -0.19824859 1 12 1009 3.78800000 1207106970 1207106970 -3.00000000
1.80065012 10.10879135 2.37053418 56 13 1010 10.53800000 1207106972 1207106972 13.00000000
0.66483873 3.72861409 -0.06610972 6 14 1011 3.78800000 1207106974 1207106974 -1.00000000
1.55450058 8.71810341 2.37285304 45 15 1011 9.16800000 1207106977 1207106977 15.00000000
0.40055397 2.22841692 -0.60667187 4 0 1019 2.34400000 1207106997 1207106997 -15.00000000
0.66857016 3.71575665 0.06590029 6 1 1020 3.77600000 1207107000 1207107000 1.00000000
0.47737995 2.65051174 -0.62176472 3 2 1021 2.76400000 1207107002 1207107002 -13.00000000
0.67542970 3.74637651 0.19950466 68 3 1022 3.81200000 1207107004 1207107004 3.00000000
0.56953073 3.15899134 -0.62394542 2 4 1022 3.27000000 1207107006 1207107006 -11.00000000
0.67585051 3.74496746 0.33293495 55 5 1023 3.82000000 1207107009 1207107009 5.00000000
0.97799802 5.41379595 -0.87133998 6 6 1024 5.57000000 1207107011 1207107011 -9.00000000
0.97197849 5.36975908 -0.67003763 2 8 1026 5.49800000 1207107016 1207107016 -7.00000000
0.74027264 4.08561611 -0.36326513 19 10 1027 4.16800000 1207107020 1207107020 -5.00000000
1.90560770 10.50672817 2.07562017 59 11 1028 10.87800000 1207107023 1207107023 11.00000000
0.67572498 3.72196674 -0.19824859 1 12 1029 3.78800000 1207107025 1207107025 -3.00000000
1.83592534 10.10244465 2.37053418 59 13 1030 10.53800000 1207107027 1207107027 13.00000000
0.68107104 3.74397731 -0.06642386 6 14 1031 3.80600000 1207107030 1207107030 -1.00000000
1.58609748 8.71044636 2.37233543 45 15 1032 9.16600000 1207107032 1207107032 15.00000000
0.41011378 2.23453426 -0.60874242 4 0 1040 2.35200000 1207107053 1207107053 -15.00000000
0.68760449 3.74278283 0.06642386 3 1 1041 3.80600000 1207107055 1207107055 1.00000000
0.48356682 2.62957835 -0.61726570 3 2 1042 2.74400000 1207107057 1207107057 -13.00000000
0.69024104 3.74976850 0.19981869 66 3 1043 3.81800000 1207107059 1207107059 3.00000000
0.58394855 3.17232919 -0.62699836 2 4 1043 3.28600000 1207107062 1207107062 -11.00000000
0.69282126 3.76009965 0.33450374 60 5 1044 3.83800000 1207107064 1207107064 5.00000000
0.99389285 5.38880634 -0.86789840 2 6 1045 5.54800000 1207107066 1207107066 -9.00000000
0.98948872 5.35444832 -0.66857523 2 8 1047 5.48600000 1207107071 1207107071 -7.00000000
0.85743904 4.63535643 -0.41242099 8 10 1048 4.73200000 1207107076 1207107076 -5.00000000
1.94553375 10.50739574 2.07714677 56 11 1049 10.88600000 1207107078 1207107078 11.00000000
0.69809747 3.76659679 -0.20076072 1 12 1050 3.83600000 1207107080 1207107080 -3.00000000
1.87151849 10.08798409 2.36873460 56 13 1051 10.53000000 1207107083 1207107083 13.00000000
0.69697946 3.75325251 -0.06663328 6 14 1052 3.81800000 1207107085 1207107085 -1.00000000
1.61860931 8.71625328 2.37544131 40 15 1052 9.17800000 1207107087 1207107087 15.00000000
0.41755590 2.23119020 -0.60822475 3 0 1060 2.35000000 1207107108 1207107108 -15.00000000
0.70508331 3.76394606 0.06684272 3 1 1061 3.83000000 1207107110 1207107110 1.00000000
0.49274281 2.62787437 -0.61726570 3 2 1062 2.74400000 1207107112 1207107112 -13.00000000
0.70295751 3.74537325 0.19971400 61 3 1063 3.81600000 1207107115 1207107115 3.00000000
0.59429413 3.16641259 -0.62623513 2 4 1063 3.28200000 1207107117 1207107117 -11.00000000
0.70704585 3.76353288 0.33502668 51 5 1064 3.84400000 1207107119 1207107119 5.00000000
0.75459450 4.01276970 -0.64670008 2 6 1065 4.13400000 1207107122 1207107122 -9.00000000
0.84824014 4.50642633 0.56303638 2 7 1066 4.62000000 1207107124 1207107124 7.00000000
1.00670302 5.34315872 -0.66760027 2 8 1067 5.47800000 1207107126 1207107126 -7.00000000
0.87730664 4.65191412 -0.41416410 11 10 1068 4.75200000 1207107131 1207107131 -5.00000000
1.98474884 10.51404476 2.07981801 59 11 1069 10.90000000 1207107133 1207107133 11.00000000
0.71346599 3.77591228 -0.20138876 1 12 1070 3.84800000 1207107135 1207107135 -3.00000000
1.90599644 10.07755947 2.36783481 55 13 1071 10.52600000 1207107138 1207107138 13.00000000
0.70821667 3.74097276 -0.06645876 4 14 1072 3.80800000 1207107140 1207107140 -1.00000000
1.65018535 8.70836353 2.37492347 45 15 1073 9.17600000 1207107142 1207107142 15.00000000
0.42386752 2.22410011 -0.60667187 4 0 1079 2.34400000 1207107163 1207107163 -15.00000000
0.71831053 3.76551580 0.06691252 3 1 1080 3.83400000 1207107165 1207107165 1.00000000
0.50364739 2.63771081 -0.61996508 3 2 1081 2.75600000 1207107168 1207107168 -13.00000000
0.71649855 3.74890685 0.20002803 60 3 1082 3.82200000 1207107170 1207107170 3.00000000
0.60331690 3.15671086 -0.62470865 4 4 1082 3.27400000 1207107172 1207107172 -11.00000000
0.72101974 3.76899505 0.33572391 55 5 1083 3.85200000 1207107175 1207107175 5.00000000
0.76641119 4.00248480 -0.64544863 2 6 1084 4.12600000 1207107177 1207107177 -9.00000000
0.87812614 4.58157301 0.57278591 2 7 1085 4.70000000 1207107179 1207107179 7.00000000
1.02666008 5.35148811 -0.66906267 2 8 1086 5.49000000 1207107182 1207107182 -7.00000000
0.88821936 4.62549973 -0.41207236 13 10 1087 4.72800000 1207107186 1207107186 -5.00000000
2.02182722 10.51897240 2.08210778 59 11 1088 10.91200000 1207107188 1207107188 11.00000000
0.72447413 3.76568031 -0.20097007 1 12 1089 3.84000000 1207107191 1207107191 -3.00000000
1.93756187 10.06161594 2.36558533 54 13 1090 10.51600000 1207107193 1207107193 13.00000000
0.71796894 3.72485876 -0.06621443 4 14 1091 3.79400000 1207107195 1207107195 -1.00000000
1.67570722 8.69365215 2.37233543 45 15 1091 9.16600000 1207107198 1207107198 15.00000000
0.43162850 2.22260714 -0.60667187 4 0 1099 2.34400000 1207107218 1207107218 -15.00000000
0.72916090 3.75120759 0.06670310 3 1 1100 3.82200000 1207107221 1207107221 1.00000000
0.51285166 2.63593674 -0.61996508 3 2 1101 2.75600000 1207107223 1207107223 -13.00000000
0.73225278 3.76010609 0.20076072 61 3 1102 3.83600000 1207107225 1207107225 3.00000000
0.61583328 3.16229391 -0.62623513 2 4 1102 3.28200000 1207107228 1207107228 -11.00000000
0.73226565 3.75667739 0.33485237 52 5 1103 3.84200000 1207107230 1207107230 5.00000000
0.77659506 3.98039722 -0.64231992 2 6 1104 4.10600000 1207107232 1207107232 -9.00000000
1.04914212 5.36735392 -0.67150009 2 8 1106 5.51000000 1207107237 1207107237 -7.00000000
0.90933317 4.64778996 -0.41433841 11 10 1107 4.75400000 1207107241 1207107241 -5.00000000
2.05740094 10.50607109 2.08096290 59 11 1108 10.90600000 1207107244 1207107244 11.00000000
0.73646188 3.75724864 -0.20065606 1 12 1109 3.83400000 1207107246 1207107246 -3.00000000
1.97229648 10.05287933 2.36513543 55 13 1110 10.51400000 1207107248 1207107248 13.00000000
0.73173743 3.72625422 -0.06628424 4 14 1111 3.79800000 1207107251 1207107251 -1.00000000
1.70755970 8.68745232 2.37233543 42 15 1112 9.16600000 1207107253 1207107253 15.00000000
0.43937111 2.22305870 -0.60718948 4 0 1118 2.34600000 1207107274 1207107274 -15.00000000
0.73887986 3.73503733 0.06645876 4 1 1119 3.80800000 1207107276 1207107276 1.00000000
0.52348250 2.64377975 -0.62221462 3 2 1120 2.76600000 1207107278 1207107278 -13.00000000
0.74665910 3.76745296 0.20128408 60 3 1121 3.84600000 1207107281 1207107281 3.00000000
0.62478977 3.15253115 -0.62470865 2 4 1121 3.27400000 1207107283 1207107283 -11.00000000
0.74588221 3.76009130 0.33537531 54 5 1122 3.84800000 1207107285 1207107285 5.00000000
0.79286784 3.99330044 -0.64482284 2 6 1123 4.12200000 1207107288 1207107288 -9.00000000
1.06228793 5.34048176 -0.66857523 2 8 1125 5.48600000 1207107292 1207107292 -7.00000000
0.93329960 4.68773794 -0.41817325 11 10 1126 4.79800000 1207107297 1207107297 -5.00000000
2.09222913 10.49919033 2.08096290 56 11 1127 10.90600000 1207107299 1207107299 11.00000000
0.75204271 3.77045512 -0.20149343 3 12 1128 3.85000000 1207107301 1207107301 -3.00000000
2.00943732 10.06539345 2.36963439 57 13 1129 10.53400000 1207107304 1207107304 13.00000000
0.74604928 3.73361182 -0.06645876 6 14 1130 3.80800000 1207107306 1207107306 -1.00000000
1.73484373 8.68204498 2.37233543 42 15 1130 9.16600000 1207107308 1207107308 15.00000000
0.44903427 2.23098087 -0.60977769 4 0 1138 2.35600000 1207107329 1207107329 -15.00000000
0.75270289 3.73635602 0.06652857 4 1 1139 3.81200000 1207107331 1207107331 1.00000000
0.52924114 2.62474370 -0.61816549 3 2 1140 2.74800000 1207107334 1207107334 -13.00000000
0.76020050 3.76678133 0.20138876 61 3 1141 3.84800000 1207107336 1207107336 3.00000000
0.63656718 3.15418005 -0.62547189 2 4 1141 3.27800000 1207107338 1207107338 -11.00000000
