# .PCD v0.7 - Point Cloud Data file format
VERSION 0.7
FIELDS x y z intensity laser_id azimuth distance_m adjustedtime timestamp vertical_angle
SIZE 4 4 4 1 1 2 8 8 4 8
TYPE F F F U U U F U U F
COUNT 1 1 1 1 1 1 1 1 1 1
WIDTH 528
HEIGHT 1
VIEWPOINT 0 0 0 1 0 0 0
POINTS 528
DATA ascii
7.71465778 -5.17622042 2.48932147 45 15 12386 9.61800000 1207738568 1207738568 15.00000000
1.76778686 -1.18969572 -0.57095480 4 0 12394 2.20600000 1207738589 1207738589 -15.00000000
4.17021751 -2.80755568 0.08775070 49 1 12395 5.02800000 1207738591 1207738591 1.00000000
2.05275083 -1.38251376 -0.57137567 3 2 12396 2.54000000 1207738593 1207738593 -13.00000000
4.79746199 -3.23105812 0.30312985 21 3 12396 5.79200000 1207738596 1207738596 3.00000000
2.45693302 -1.65535116 -0.57586157 5 4 12397 3.01800000 1207738598 1207738598 -11.00000000
4.19316816 -2.82619834 0.44240254 28 5 12398 5.07600000 1207738600 1207738600 5.00000000
3.02347898 -2.03859472 -0.57755607 5 6 12399 3.69200000 1207738602 1207738602 -9.00000000
3.96241784 -2.67369080 -0.58692276 8 8 12401 4.81600000 1207738607 1207738607 -7.00000000
4.17227030 -2.81529140 0.79719001 36 9 12401 5.09600000 1207738609 1207738609 9.00000000
4.23082685 -2.85587811 -0.44658601 12 10 12402 5.12400000 1207738612 1207738612 -5.00000000
4.19775438 -2.83462024 0.98457444 31 11 12403 5.16000000 1207738614 1207738614 11.00000000
4.20872259 -2.84309626 -0.26618066 10 12 12404 5.08600000 1207738616 1207738616 -3.00000000
4.22063541 -2.85221672 1.17604411 35 13 12405 5.22800000 1207738619 1207738619 13.00000000
7.68923283 -5.20013237 2.48725104 45 15 12407 9.61000000 1207738623 1207738623 15.00000000
1.76383197 -1.19555140 -0.57095480 4 0 12413 2.20600000 1207738644 1207738644 -15.00000000
4.14102364 -2.80790186 0.08733184 49 1 12414 5.00400000 1207738646 1207738646 1.00000000
2.05138040 -1.39150119 -0.57227546 3 2 12415 2.54400000 1207738649 1207738649 -13.00000000
4.10359812 -2.78461647 0.25990036 38 3 12416 4.96600000 1207738651 1207738651 3.00000000
2.44005847 -1.65577292 -0.57319021 5 4 12416 3.00400000 1207738653 1207738653 -11.00000000
4.12772560 -2.80204105 0.43647596 52 5 12417 5.00800000 1207738655 1207738655 5.00000000
3.00526285 -2.04084134 -0.57536596 5 6 12418 3.67800000 1207738658 1207738658 -9.00000000
4.12148523 -2.79990697 0.61178410 60 7 12419 5.02000000 1207738660 1207738660 7.00000000
3.95188785 -2.68570018 -0.58667904 8 8 12420 4.81400000 1207738662 1207738662 -7.00000000
4.14330578 -2.81578779 0.79343563 54 9 12420 5.07200000 1207738665 1207738665 9.00000000
4.19167519 -2.84972906 -0.44344842 12 10 12421 5.08800000 1207738667 1207738667 -5.00000000
4.18670797 -2.84742069 0.98419279 47 11 12422 5.15800000 1207738669 1207738669 11.00000000
4.21248198 -2.86602521 -0.26701805 31 12 12423 5.10200000 1207738672 1207738672 -3.00000000
4.22081995 -2.87277603 1.17874348 34 13 12424 5.24000000 1207738674 1207738674 13.00000000
4.40339947 -2.99816799 -0.09298642 2 14 12425 5.32800000 1207738676 1207738676 -1.00000000
7.64092159 -5.20251799 2.47689819 47 15 12425 9.57000000 1207738679 1207738679 15.00000000
1.74369478 -1.19080627 -0.56577843 4 0 12433 2.18600000 1207738699 1207738699 -15.00000000
4.10312700 -2.80316305 0.08673846 47 1 12434 4.97000000 1207738702 1207738702 1.00000000
2.05938172 -1.40744996 -0.57587469 3 2 12435 2.56000000 1207738704 1207738704 -13.00000000
4.07406807 -2.78539705 0.25864428 44 3 12436 4.94200000 1207738706 1207738706 3.00000000
2.43264318 -1.66317213 -0.57280862 5 4 12436 3.00200000 1207738708 1207738708 -11.00000000
4.06858349 -2.78268933 0.43124661 52 5 12437 4.94800000 1207738711 1207738711 5.00000000
3.00138116 -2.05355024 -0.57599169 5 6 12438 3.68200000 1207738713 1207738713 -9.00000000
4.09366751 -2.80194306 0.60910296 53 7 12439 4.99800000 1207738715 1207738715 7.00000000
3.94904065 -2.70396447 -0.58765399 8 8 12440 4.82200000 1207738718 1207738718 -7.00000000
4.11177111 -2.81644273 0.78936833 60 9 12441 5.04600000 1207738720 1207738720 9.00000000
4.17183971 -2.85758805 -0.44240254 12 10 12441 5.07600000 1207738722 1207738722 -5.00000000
4.15245008 -2.84537172 0.97846854 63 11 12442 5.12800000 1207738725 1207738725 11.00000000
4.19915724 -2.87845373 -0.26680872 18 12 12443 5.09800000 1207738727 1207738727 -3.00000000
4.21719503 -2.89190030 1.18054318 41 13 12444 5.24800000 1207738729 1207738729 13.00000000
4.35827827 -2.98976517 -0.09225342 2 14 12445 5.28600000 1207738732 1207738732 -1.00000000
7.58516645 -5.20534706 2.46499252 45 15 12446 9.52400000 1207738734 1207738734 15.00000000
1.75385106 -1.20674098 -0.57043719 4 0 12453 2.20400000 1207738755 1207738755 -15.00000000
4.07519817 -2.80499697 0.08635451 49 1 12454 4.94800000 1207738757 1207738757 1.00000000
2.04482603 -1.40799892 -0.57317531 3 2 12455 2.54800000 1207738759 1207738759 -13.00000000
4.05280685 -2.79167032 0.25791159 42 3 12456 4.92800000 1207738761 1207738761 3.00000000
2.44137406 -1.68167675 -0.57624316 5 4 12456 3.02000000 1207738764 1207738764 -11.00000000
4.04243898 -2.78556919 0.42950350 52 5 12457 4.92800000 1207738766 1207738766 5.00000000
2.98118353 -2.05504537 -0.57348877 3 6 12458 3.66600000 1207738768 1207738768 -9.00000000
4.05117798 -2.79367685 0.60422820 55 7 12459 4.95800000 1207738771 1207738771 7.00000000
3.93794394 -2.71660566 -0.58741021 8 8 12460 4.82000000 1207738773 1207738773 -7.00000000
4.09753084 -2.82669735 0.78842968 72 9 12460 5.04000000 1207738775 1207738775 9.00000000
4.11428499 -2.83931494 -0.43734753 12 10 12461 5.01800000 1207738778 1207738778 -5.00000000
4.15218687 -2.86654139 0.98075825 55 11 12462 5.14000000 1207738780 1207738780 11.00000000
4.17593670 -2.88401389 -0.26597133 10 12 12463 5.08200000 1207738782 1207738782 -3.00000000
4.32972002 -2.99245381 -0.09186947 2 14 12465 5.26400000 1207738787 1207738787 -1.00000000
7.53131104 -5.20520926 2.45308685 45 15 12465 9.47800000 1207738789 1207738789 15.00000000
1.75121570 -1.21395636 -0.57095480 4 0 12473 2.20600000 1207738810 1207738810 -15.00000000
4.04566288 -2.80553055 0.08593565 49 1 12474 4.92400000 1207738812 1207738812 1.00000000
2.03989863 -1.41512811 -0.57317531 3 2 12475 2.54800000 1207738814 1207738814 -13.00000000
4.01514292 -2.78644204 0.25613216 44 3 12476 4.89400000 1207738817 1207738817 3.00000000
2.41935992 -1.67899525 -0.57242697 5 4 12476 3.00000000 1207738819 1207738819 -11.00000000
4.01632452 -2.78830075 0.42776039 69 5 12477 4.90800000 1207738821 1207738821 5.00000000
2.97399187 -2.06543899 -0.57348877 3 6 12478 3.66600000 1207738824 1207738824 -9.00000000
4.03814077 -2.80553579 0.60374075 65 7 12479 4.95400000 1207738826 1207738826 7.00000000
3.91865706 -2.72353745 -0.58594781 8 8 12480 4.80800000 1207738828 1207738828 -7.00000000
4.09525251 -2.84733486 0.78999406 42 9 12481 5.05000000 1207738831 1207738831 9.00000000
4.10434866 -2.85365939 -0.43734753 9 10 12481 5.01800000 1207738833 1207738833 -5.00000000
5.28326273 -3.67469883 1.25094378 15 11 12482 6.55600000 1207738835 1207738835 11.00000000
4.05600071 -2.82214475 -0.25895831 7 12 12483 4.94800000 1207738837 1207738837 -3.00000000
4.16827154 -2.90242195 -0.08865822 2 14 12485 5.08000000 1207738842 1207738842 -1.00000000
7.48364925 -5.21290255 2.44376945 45 15 12486 9.44200000 1207738844 1207738844 15.00000000
1.74833822 -1.22147310 -0.57147247 4 0 12494 2.20800000 1207738865 1207738865 -15.00000000
4.02224064 -2.81117535 0.08565641 51 1 12495 4.90800000 1207738867 1207738867 1.00000000
2.03469825 -1.42259514 -0.57317531 3 2 12496 2.54800000 1207738870 1207738870 -13.00000000
3.98853660 -2.78969216 0.25508544 64 3 12497 4.87400000 1207738872 1207738872 3.00000000
2.41801620 -1.69122708 -0.57357186 5 4 12497 3.00600000 1207738874 1207738874 -11.00000000
4.01260805 -2.80757141 0.42845762 74 5 12498 4.91600000 1207738877 1207738877 5.00000000
2.97287512 -2.08085632 -0.57474023 3 6 12499 3.67400000 1207738879 1207738879 -9.00000000
4.04409170 -2.83170366 0.60617810 31 7 12500 4.97400000 1207738881 1207738881 7.00000000
3.90214491 -2.73332620 -0.58497286 8 8 12501 4.80000000 1207738884 1207738884 -7.00000000
5.64174318 -3.95185876 1.09097397 45 9 12501 6.97400000 1207738886 1207738886 9.00000000
4.12486410 -2.89040709 -0.44065943 12 10 12502 5.05600000 1207738888 1207738888 -5.00000000
5.27618933 -3.69854593 1.25247025 25 11 12503 6.56400000 1207738890 1207738890 11.00000000
4.04562998 -2.83699179 -0.25895831 20 12 12504 4.94800000 1207738893 1207738893 -3.00000000
4.22286081 -2.96237421 1.19089091 2 13 12505 5.29400000 1207738895 1207738895 13.00000000
4.08558416 -2.86713743 -0.08712241 2 14 12506 4.99200000 1207738897 1207738897 -1.00000000
7.42113018 -5.20792150 2.42927551 45 15 12506 9.38600000 1207738900 1207738900 15.00000000
1.73932457 -1.22423267 -0.56991953 4 0 12514 2.20200000 1207738920 1207738920 -15.00000000
4.00422812 -2.81944227 0.08548189 54 1 12515 4.89800000 1207738923 1207738923 1.00000000
2.03927922 -1.43642211 -0.57587469 3 2 12516 2.56000000 1207738925 1207738925 -13.00000000
3.97877455 -2.80359793 0.25508544 72 3 12517 4.87400000 1207738927 1207738927 3.00000000
2.39283967 -1.68608713 -0.56899244 5 4 12517 2.98200000 1207738930 1207738930 -11.00000000
4.05977964 -2.86173773 0.43455854 47 5 12518 4.98600000 1207738932 1207738932 5.00000000
2.95267844 -2.08211398 -0.57223725 3 6 12519 3.65800000 1207738934 1207738934 -9.00000000
7.58659935 -5.35175705 1.13996589 42 7 12520 9.35400000 1207738937 1207738937 7.00000000
3.88609242 -2.74235249 -0.58399791 8 8 12521 4.79200000 1207738939 1207738939 -7.00000000
5.59494543 -3.94972539 1.08471656 45 9 12522 6.93400000 1207738941 1207738941 9.00000000
4.04313183 -2.85422993 -0.43298972 9 10 12522 4.96800000 1207738943 1207738943 -5.00000000
5.24400282 -3.70335054 1.24789083 25 11 12523 6.54000000 1207738946 1207738946 11.00000000
4.04385853 -2.85685849 -0.25948167 10 12 12524 4.95800000 1207738948 1207738948 -3.00000000
4.22522593 -2.98609447 1.19449008 2 13 12525 5.31000000 1207738950 1207738950 13.00000000
4.03309727 -2.85136700 -0.08621489 2 14 12526 4.94000000 1207738953 1207738953 -1.00000000
7.36729288 -5.21054506 2.41788745 45 15 12527 9.34200000 1207738955 1207738955 15.00000000
1.73210311 -1.22775948 -0.56888425 4 0 12533 2.19800000 1207738976 1207738976 -15.00000000
3.97038817 -2.81535506 0.08495831 53 1 12534 4.86800000 1207738978 1207738978 1.00000000
2.02814674 -1.43866682 -0.57407510 3 2 12535 2.55200000 1207738980 1207738980 -13.00000000
3.96456909 -2.81330895 0.25477144 28 3 12536 4.86800000 1207738983 1207738983 3.00000000
2.39043760 -1.69628513 -0.56975567 5 4 12536 2.98600000 1207738985 1207738985 -11.00000000
4.15749502 -2.95130277 0.44606310 37 5 12537 5.11800000 1207738987 1207738987 5.00000000
2.95220017 -2.09646869 -0.57348877 3 6 12538 3.66600000 1207738990 1207738990 -9.00000000
3.88506746 -2.76097369 -0.58521658 8 8 12540 4.80200000 1207738994 1207738994 -7.00000000
5.57445860 -3.96156144 1.08315229 50 9 12540 6.92400000 1207738996 1207738996 9.00000000
3.99629617 -2.84106970 -0.42898056 11 10 12541 4.92200000 1207738999 1207738999 -5.00000000
5.21889400 -3.71161723 1.24483788 25 11 12542 6.52400000 1207739001 1207739001 11.00000000
3.98228550 -2.83320236 -0.25613216 4 12 12543 4.89400000 1207739003 1207739003 -3.00000000
4.21688795 -3.00121927 1.19493997 3 13 12544 5.31200000 1207739006 1207739006 13.00000000
4.04642534 -2.88096285 -0.08670355 2 14 12545 4.96800000 1207739008 1207739008 -1.00000000
7.30524921 -5.20117092 2.40287590 45 15 12545 9.28400000 1207739010 1207739010 15.00000000
1.73095119 -1.23604345 -0.56991953 4 0 12553 2.20200000 1207739031 1207739031 -15.00000000
3.93775606 -2.81292391 0.08446965 51 1 12554 4.84000000 1207739033 1207739033 1.00000000
2.01994157 -1.44347155 -0.57317531 4 2 12555 2.54800000 1207739036 1207739036 -13.00000000
4.80611134 -3.43576527 0.30961952 19 3 12556 5.91600000 1207739038 1207739038 3.00000000
2.39568162 -1.71261108 -0.57242697 5 4 12556 3.00000000 1207739040 1207739040 -11.00000000
4.15527058 -2.97159195 0.44693464 32 5 12557 5.12800000 1207739043 1207739043 5.00000000
2.94486403 -2.10676122 -0.57348877 3 6 12558 3.66600000 1207739045 1207739045 -9.00000000
3.97113299 -2.84200382 0.59959716 17 7 12559 4.92000000 1207739047 1207739047 7.00000000
3.87056398 -2.77105165 -0.58448535 8 8 12560 4.79600000 1207739049 1207739049 -7.00000000
5.54384136 -3.97046447 1.08002353 52 9 12561 6.90400000 1207739052 1207739052 9.00000000
3.98959422 -2.85732222 -0.42932919 30 10 12561 4.92600000 1207739054 1207739054 -5.00000000
5.19313860 -3.72066474 1.24178493 25 11 12562 6.50800000 1207739056 1207739056 11.00000000
3.95289111 -2.83312368 -0.25487611 9 12 12563 4.87000000 1207739059 1207739059 -3.00000000
4.21747208 -3.02386928 1.19808936 2 13 12564 5.32600000 1207739061 1207739061 13.00000000
4.02984476 -2.89040804 -0.08656394 2 14 12565 4.96000000 1207739063 1207739063 -1.00000000
7.24689627 -5.19975567 2.38993502 45 15 12566 9.23400000 1207739066 1207739066 15.00000000
1.72662616 -1.24207807 -0.56991953 4 0 12573 2.20200000 1207739086 1207739086 -15.00000000
3.92142081 -2.82198000 0.08433003 51 1 12574 4.83200000 1207739089 1207739089 1.00000000
2.00856447 -1.44595945 -0.57137567 3 2 12575 2.54000000 1207739091 1207739091 -13.00000000
4.80867577 -3.46302557 0.31056157 21 3 12576 5.93400000 1207739093 1207739093 3.00000000
2.38490963 -1.71752119 -0.57128215 5 4 12576 2.99400000 1207739096 1207739096 -11.00000000
4.07697678 -2.93716455 0.43961358 35 5 12577 5.04400000 1207739098 1207739098 5.00000000
2.92467165 -2.10778809 -0.57098579 3 6 12578 3.65000000 1207739100 1207739100 -9.00000000
3.94830656 -2.84656096 0.59764725 21 7 12579 4.90400000 1207739102 1207739102 7.00000000
3.85603762 -2.78106189 -0.58375418 8 8 12580 4.79000000 1207739105 1207739105 -7.00000000
5.51942921 -3.98073792 1.07783341 45 9 12580 6.89000000 1207739107 1207739107 9.00000000
5.18011951 -3.73876953 1.24178493 25 11 12582 6.50800000 1207739112 1207739112 11.00000000
3.94297743 -2.84690475 -0.25487611 9 12 12583 4.87000000 1207739114 1207739114 -3.00000000
4.21005058 -3.04085469 1.19898915 2 13 12584 5.33000000 1207739116 1207739116 13.00000000
3.99703884 -2.88806105 -0.08607527 2 14 12585 4.93200000 1207739119 1207739119 -1.00000000
7.19046688 -5.19547319 2.37699413 45 15 12585 9.18400000 1207739121 1207739121 15.00000000
1.72540855 -1.25036478 -0.57095480 4 0 12593 2.20600000 1207739142 1207739142 -15.00000000
3.91478443 -2.83799863 0.08439983 44 1 12594 4.83600000 1207739144 1207739144 1.00000000
2.00665998 -1.45525002 -0.57227546 3 2 12595 2.54400000 1207739146 1207739146 -13.00000000
4.80464125 -3.48565388 0.31108493 23 3 12596 5.94400000 1207739149 1207739149 3.00000000
2.38525629 -1.73044717 -0.57280862 5 4 12596 3.00200000 1207739151 1207739151 -11.00000000
3.94737506 -2.86477923 0.42671451 22 5 12597 4.89600000 1207739153 1207739153 5.00000000
2.92049336 -2.12030530 -0.57161152 3 6 12598 3.65400000 1207739155 1207739155 -9.00000000
3.93192148 -2.85565972 0.59667230 21 7 12599 4.89600000 1207739158 1207739158 7.00000000
3.84470034 -2.79333830 -0.58351040 8 8 12600 4.78800000 1207739160 1207739160 -7.00000000
5.48472500 -3.98488593 1.07376611 32 9 12600 6.86400000 1207739162 1207739162 9.00000000
4.01145267 -2.91556096 -0.43386129 3 10 12601 4.97800000 1207739165 1207739165 -5.00000000
5.15750980 -3.74990153 1.23949528 25 11 12602 6.49600000 1207739167 1207739167 11.00000000
3.90555763 -2.84067917 -0.25309667 2 12 12603 4.83600000 1207739169 1207739169 -3.00000000
4.19625902 -3.05323887 1.19808936 2 13 12604 5.32600000 1207739172 1207739172 13.00000000
3.95136452 -2.87610602 -0.08530736 2 14 12605 4.88800000 1207739174 1207739174 -1.00000000
7.13480186 -5.19325590 2.36457086 42 15 12605 9.13600000 1207739176 1207739176 15.00000000
1.71167147 -1.24954557 -0.56784898 4 0 12613 2.19400000 1207739197 1207739197 -15.00000000
3.90323925 -2.85046697 0.08436494 31 1 12614 4.83400000 1207739199 1207739199 1.00000000
2.00943565 -1.46799350 -0.57452500 4 2 12615 2.55400000 1207739202 1207739202 -13.00000000
4.80373240 -3.51065326 0.31181762 19 3 12616 5.95800000 1207739204 1207739204 3.00000000
2.37444615 -1.73528743 -0.57166374 5 4 12616 2.99600000 1207739206 1207739206 -11.00000000
3.91805029 -2.86443019 0.42462277 22 5 12617 4.87200000 1207739208 1207739208 5.00000000
2.92901874 -2.14214802 -0.57474023 3 6 12618 3.67400000 1207739211 1207739211 -9.00000000
3.92353129 -2.87053943 0.59691602 27 7 12619 4.89800000 1207739213 1207739213 7.00000000
3.81730556 -2.79384542 -0.58082926 8 8 12620 4.76600000 1207739215 1207739215 -7.00000000
7.28866196 -5.33644819 1.43074965 23 9 12621 9.14600000 1207739218 1207739218 9.00000000
3.89836645 -2.85421777 -0.42270535 8 10 12621 4.85000000 1207739220 1207739220 -5.00000000
5.13963699 -3.76440144 1.23835039 28 11 12622 6.49000000 1207739222 1207739222 11.00000000
3.89078474 -2.85075355 -0.25278267 9 12 12623 4.83000000 1207739225 1207739225 -3.00000000
4.20286512 -3.08054042 1.20303822 2 13 12624 5.34800000 1207739227 1207739227 13.00000000
3.83486629 -2.81184030 -0.08300365 18 14 12625 4.75600000 1207739229 1207739229 -1.00000000
7.08547163 -5.19528294 2.35421801 42 15 12625 9.09600000 1207739231 1207739231 15.00000000
1.70263028 -1.25207937 -0.56629604 4 0 12633 2.18800000 1207739252 1207739252 -15.00000000
3.89970851 -2.86881447 0.08450455 25 1 12634 4.84200000 1207739255 1207739255 1.00000000
1.99488211 -1.46806848 -0.57182556 4 2 12635 2.54200000 1207739257 1207739257 -13.00000000
4.80592442 -3.53805685 0.31275967 9 3 12636 5.97600000 1207739259 1207739259 3.00000000
2.36363125 -1.74007344 -0.57051891 5 4 12636 2.99000000 1207739261 1207739261 -11.00000000
3.90642357 -2.87690783 0.42444846 27 5 12637 4.87000000 1207739264 1207739264 5.00000000
2.90880060 -2.14298582 -0.57223725 3 6 12638 3.65800000 1207739266 1207739266 -9.00000000
3.92307544 -2.89128399 0.59837848 27 7 12639 4.91000000 1207739268 1207739268 7.00000000
3.81551886 -2.81304312 -0.58204800 6 8 12640 4.77600000 1207739271 1207739271 -7.00000000
7.24773312 -5.34544277 1.42636943 49 9 12641 9.11800000 1207739273 1207739273 9.00000000
3.86593127 -2.85125184 -0.42026499 11 10 12641 4.82200000 1207739275 1207739275 -5.00000000
5.11224747 -3.77182889 1.23491585 28 11 12642 6.47200000 1207739278 1207739278 11.00000000
3.85509849 -2.84534073 -0.25110793 7 12 12643 4.79800000 1207739280 1207739280 -3.00000000
4.19678926 -3.09866476 1.20438790 2 13 12644 5.35400000 1207739282 1207739282 13.00000000
3.80894279 -2.81332874 -0.08265460 33 14 12645 4.73600000 1207739284 1207739284 -1.00000000
7.02443171 -5.19022083 2.34024191 45 15 12646 9.04200000 1207739287 1207739287 15.00000000
1.70445871 -1.26261473 -0.56836665 4 0 12653 2.19600000 1207739308 1207739308 -15.00000000
3.89127731 -2.88360000 0.08453946 23 1 12654 4.84400000 1207739310 1207739310 1.00000000
1.98974538 -1.47502303 -0.57182556 4 2 12655 2.54200000 1207739312 1207739312 -13.00000000
4.17590284 -3.09677815 0.27246100 8 3 12656 5.20600000 1207739314 1207739314 3.00000000
2.35754275 -1.74831343 -0.57051891 5 4 12656 2.99000000 1207739317 1207739317 -11.00000000
3.91555929 -2.90477109 0.42654020 29 5 12657 4.89400000 1207739319 1207739319 5.00000000
2.89495730 -2.14841747 -0.57098579 3 6 12658 3.65000000 1207739321 1207739321 -9.00000000
3.91614676 -2.90732694 0.59886593 29 7 12659 4.91400000 1207739324 1207739324 7.00000000
3.81364465 -2.83226252 -0.58326668 6 8 12660 4.78600000 1207739326 1207739326 -7.00000000
7.18146038 -5.33536816 1.41698337 47 9 12661 9.05800000 1207739328 1207739328 9.00000000
3.84635901 -2.85759997 -0.41921914 11 10 12661 4.81000000 1207739331 1207739331 -5.00000000
5.08801985 -3.78145337 1.23224449 28 11 12662 6.45800000 1207739333 1207739333 11.00000000
3.82911491 -2.84686375 -0.25006118 7 12 12663 4.77800000 1207739335 1207739335 -3.00000000
4.20471144 -3.12725115 1.20978677 2 13 12664 5.37800000 1207739337 1207739337 13.00000000
3.79589057 -2.82421994 -0.08258479 41 14 12665 4.73200000 1207739340 1207739340 -1.00000000
6.97618341 -5.19042253 2.32988906 45 15 12665 9.00200000 1207739342 1207739342 15.00000000
1.70468593 -1.27202272 -0.56991953 4 0 12673 2.20200000 1207739363 1207739363 -15.00000000
3.89240527 -2.90553880 0.08478379 23 1 12674 4.85800000 1207739365 1207739365 1.00000000
1.96740866 -1.46913373 -0.56687665 3 2 12675 2.52000000 1207739367 1207739367 -13.00000000
2.35142565 -1.75653219 -0.57051891 5 4 12676 2.99000000 1207739372 1207739372 -11.00000000
3.91018391 -2.92199922 0.42706314 29 5 12677 4.90000000 1207739374 1207739374 5.00000000
2.89060450 -2.16087508 -0.57161152 3 6 12678 3.65400000 1207739377 1207739377 -9.00000000
3.91233349 -2.92573452 0.59984088 27 7 12679 4.92200000 1207739379 1207739379 7.00000000
3.80850363 -2.84912467 -0.58399791 6 8 12680 4.79200000 1207739381 1207739381 -7.00000000
7.13748789 -5.34146643 1.41197753 49 9 12681 9.02600000 1207739384 1207739384 9.00000000
3.82678962 -2.86384630 -0.41817325 8 10 12681 4.79800000 1207739386 1207739386 -5.00000000
5.06221628 -3.78977823 1.22919154 31 11 12682 6.44200000 1207739388 1207739388 11.00000000
3.81435823 -2.85662055 -0.24974719 4 12 12683 4.77200000 1207739390 1207739390 -3.00000000
4.19376993 -3.14190936 1.20978677 2 13 12684 5.37800000 1207739393 1207739393 13.00000000
3.77480793 -2.82905817 -0.08234046 58 14 12685 4.71800000 1207739395 1207739395 -1.00000000
6.92092180 -5.18693686 2.31746578 45 15 12685 8.95400000 1207739397 1207739397 15.00000000
1.69714677 -1.27564394 -0.56888425 4 0 12693 2.19800000 1207739418 1207739418 -15.00000000
3.89342737 -2.92752075 0.08502813 23 1 12694 4.87200000 1207739420 1207739420 1.00000000
1.97939932 -1.48887801 -0.57182556 4 2 12695 2.54200000 1207739423 1207739423 -13.00000000
3.80517483 -2.86220193 0.24953784 2 3 12695 4.76800000 1207739425 1207739425 3.00000000
2.34057379 -1.76118827 -0.56937402 5 4 12696 2.98400000 1207739427 1207739427 -11.00000000
3.90791941 -2.94162154 0.42793471 29 5 12697 4.91000000 1207739430 1207739430 5.00000000
2.88935614 -2.17570519 -0.57286298 3 6 12698 3.66200000 1207739432 1207739432 -9.00000000
3.90843916 -2.94415069 0.60081589 27 7 12699 4.93000000 1207739434 1207739434 7.00000000
3.78268147 -2.85045481 -0.58156049 4 8 12700 4.77200000 1207739436 1207739436 -7.00000000
7.07556295 -5.33181906 1.40321720 49 9 12700 8.97000000 1207739439 1207739439 9.00000000
3.81358767 -2.87478828 -0.41782463 2 10 12701 4.79400000 1207739441 1207739441 -5.00000000
5.04582167 -3.80506158 1.22842836 31 11 12702 6.43800000 1207739443 1207739443 11.00000000
3.81871367 -2.88074327 -0.25068924 2 12 12703 4.79000000 1207739446 1207739446 -3.00000000
4.19055462 -3.16239858 1.21203625 2 13 12704 5.38800000 1207739448 1207739448 13.00000000
3.76012158 -2.83860278 -0.08223574 63 14 12705 4.71200000 1207739450 1207739450 -1.00000000
6.87656260 -5.19127607 2.30866599 45 15 12705 8.92000000 1207739453 1207739453 15.00000000
1.68960321 -1.27922809 -0.56784898 4 0 12713 2.19400000 1207739473 1207739473 -15.00000000
3.89115524 -2.94713020 0.08520265 25 1 12714 4.88200000 1207739476 1207739476 1.00000000
1.96953034 -1.49224770 -0.57047588 3 2 12715 2.53600000 1207739478 1207739478 -13.00000000
3.77078295 -2.85803294 0.24796776 8 3 12716 4.73800000 1207739480 1207739480 3.00000000
2.32815337 -1.76460409 -0.56784755 5 4 12716 2.97600000 1207739483 1207739483 -11.00000000
3.89762735 -2.95524502 0.42793471 9 5 12717 4.91000000 1207739485 1207739485 5.00000000
2.88174391 -2.18577766 -0.57286298 3 6 12718 3.66200000 1207739487 1207739487 -9.00000000
3.91553378 -2.97097492 0.60349697 21 7 12719 4.95200000 1207739489 1207739489 7.00000000
3.79010153 -2.87684345 -0.58424163 6 8 12720 4.79400000 1207739492 1207739492 -7.00000000
7.00562954 -5.31948948 1.39320540 52 9 12721 8.90600000 1207739494 1207739494 9.00000000
3.80670309 -2.89049220 -0.41817325 2 10 12721 4.79800000 1207739496 1207739496 -5.00000000
5.02625513 -3.81790137 1.22690189 31 11 12722 6.43000000 1207739499 1207739499 11.00000000
3.79750299 -2.88559675 -0.24995653 2 12 12723 4.77600000 1207739501 1207739501 -3.00000000
4.19655561 -3.18997931 1.21698523 2 13 12724 5.41000000 1207739503 1207739503 13.00000000
3.73108912 -2.83718610 -0.08181688 56 14 12725 4.68800000 1207739506 1207739506 -1.00000000
6.82673836 -5.19305325 2.29831314 45 15 12726 8.88000000 1207739508 1207739508 15.00000000
1.67942989 -1.27984607 -0.56577843 4 0 12731 2.18600000 1207739529 1207739529 -15.00000000
3.89300919 -2.96782637 0.08544698 27 1 12732 4.89600000 1207739531 1207739531 1.00000000
1.97103083 -1.50315475 -0.57227546 3 2 12733 2.54400000 1207739533 1207739533 -13.00000000
3.73052359 -2.84498549 0.24587432 12 3 12733 4.69800000 1207739536 1207739536 3.00000000
2.32884169 -1.77667260 -0.56937402 5 4 12734 2.98400000 1207739538 1207739538 -11.00000000
2.86858249 -2.19002533 -0.57161152 5 6 12736 3.65400000 1207739542 1207739542 -9.00000000
3.91880178 -2.99290013 0.60544688 21 7 12737 4.96800000 1207739545 1207739545 7.00000000
3.77315784 -2.88271046 -0.58302295 4 8 12738 4.78400000 1207739547 1207739547 -7.00000000
6.96220207 -5.32108021 1.38788652 55 9 12739 8.87200000 1207739549 1207739549 9.00000000
3.80710173 -2.90969634 -0.41921914 2 10 12739 4.81000000 1207739552 1207739552 -5.00000000
5.00175905 -3.82413340 1.22384894 40 11 12740 6.41400000 1207739554 1207739554 11.00000000
3.80586982 -2.91085982 -0.25110793 2 12 12741 4.79800000 1207739556 1207739556 -3.00000000
4.28866100 -3.28130174 1.24667871 3 13 12742 5.54200000 1207739559 1207739559 13.00000000
3.72533321 -2.85132432 -0.08188669 48 14 12743 4.69200000 1207739561 1207739561 -1.00000000
6.76681185 -5.17923498 2.28330159 45 15 12743 8.82200000 1207739563 1207739563 15.00000000
1.68414676 -1.29275835 -0.56888425 4 0 12751 2.19800000 1207739584 1207739584 -15.00000000
3.88262582 -2.98139739 0.08544698 29 1 12752 4.89600000 1207739586 1207739586 1.00000000
1.95340848 -1.50052869 -0.56867629 3 2 12753 2.52800000 1207739588 1207739588 -13.00000000
3.70156336 -2.84338999 0.24461827 10 3 12753 4.67400000 1207739591 1207739591 3.00000000
2.32729578 -1.78837967 -0.57051891 5 4 12754 2.99000000 1207739593 1207739593 -11.00000000
3.52884817 -2.71267629 0.38941187 2 5 12755 4.46800000 1207739595 1207739595 5.00000000
2.85465670 -2.19520855 -0.57036006 5 6 12756 3.64600000 1207739598 1207739598 -9.00000000
3.91462421 -3.01140261 0.60642183 21 7 12757 4.97600000 1207739600 1207739600 7.00000000
3.76464558 -2.89707446 -0.58326668 6 8 12758 4.78600000 1207739602 1207739602 -7.00000000
6.92010641 -5.32727575 1.38319349 47 9 12759 8.84200000 1207739605 1207739605 9.00000000
3.79692173 -2.92296791 -0.41921914 2 10 12759 4.81000000 1207739607 1207739607 -5.00000000
4.97282505 -3.82959080 1.22003269 59 11 12760 6.39400000 1207739609 1207739609 11.00000000
3.78619266 -2.91681361 -0.25047988 2 12 12761 4.78600000 1207739612 1207739612 -3.00000000
3.70585537 -2.85698533 -0.08167727 45 14 12763 4.68000000 1207739616 1207739616 -1.00000000
6.71503258 -5.17687464 2.27191353 47 15 12763 8.77800000 1207739618 1207739618 15.00000000
1.67503905 -1.29508436 -0.56733137 4 0 12771 2.19200000 1207739639 1207739639 -15.00000000
3.88484955 -3.00471950 0.08572622 27 1 12772 4.91200000 1207739641 1207739641 1.00000000
1.95432389 -1.51210833 -0.57047588 3 2 12773 2.53600000 1207739644 1207739644 -13.00000000
3.56476283 -2.75913930 0.23624450 3 3 12774 4.51400000 1207739646 1207739646 3.00000000
2.31482887 -1.79168594 -0.56899244 5 4 12774 2.98200000 1207739648 1207739648 -11.00000000
3.58552289 -2.77620840 0.39673293 2 5 12775 4.55200000 1207739651 1207739651 5.00000000
2.84072995 -2.20032120 -0.56910861 3 6 12776 3.63800000 1207739653 1207739653 -9.00000000
3.91036534 -3.02991223 0.60739678 21 7 12777 4.98400000 1207739655 1207739655 7.00000000
3.73882031 -2.89803648 -0.58082926 6 8 12778 4.76600000 1207739658 1207739658 -7.00000000
6.87117720 -5.32599068 1.37693620 52 9 12778 8.80200000 1207739660 1207739660 9.00000000
3.80716419 -2.95207500 -0.42148519 2 10 12779 4.83600000 1207739662 1207739662 -5.00000000
4.95322180 -3.84211278 1.21850622 37 11 12780 6.38600000 1207739665 1207739665 11.00000000
3.78545547 -2.93735862 -0.25110793 2 12 12781 4.79800000 1207739667 1207739667 -3.00000000
4.54273939 -3.52625012 1.32766116 11 13 12782 5.90200000 1207739669 1207739669 13.00000000
3.70849538 -2.87971520 -0.08195650 41 14 12783 4.69600000 1207739671 1207739671 -1.00000000
6.66855192 -5.18011951 2.26259613 45 15 12784 8.74200000 1207739674 1207739674 15.00000000
1.67660487 -1.30567133 -0.56940192 4 0 12791 2.20000000 1207739694 1207739694 -15.00000000
3.87906981 -3.02194881 0.08583093 27 1 12792 4.91800000 1207739697 1207739697 1.00000000
1.94903374 -1.51892102 -0.57047588 3 2 12793 2.53600000 1207739699 1207739699 -13.00000000
3.55401826 -2.76971769 0.23613983 7 3 12793 4.51200000 1207739701 1207739701 3.00000000
2.30546403 -1.79734111 -0.56822920 5 4 12794 2.97800000 1207739704 1207739704 -11.00000000
3.89317131 -3.03621125 0.43194386 9 5 12795 4.95600000 1207739706 1207739706 5.00000000
2.83303189 -2.21022367 -0.56910861 3 6 12796 3.63800000 1207739708 1207739708 -9.00000000
3.91854405 -3.05819941 0.61032170 22 7 12797 5.00800000 1207739711 1207739711 7.00000000
3.71929336 -2.90374017 -0.57936686 6 8 12798 4.75400000 1207739713 1207739713 -7.00000000
6.81891680 -5.32560539 1.37036586 52 9 12799 8.76000000 1207739715 1207739715 9.00000000
3.81724930 -2.98128939 -0.42375124 2 10 12799 4.86200000 1207739718 1207739718 -5.00000000
4.93668604 -3.85696197 1.21774304 31 11 12800 6.38200000 1207739720 1207739720 11.00000000
4.06000900 -3.17316818 -0.27005354 2 12 12801 5.16000000 1207739722 1207739722 -3.00000000
4.53040266 -3.54208589 1.32766116 16 13 12802 5.90200000 1207739724 1207739724 13.00000000
6.62760687 -5.18550920 2.25483155 45 15 12804 8.71200000 1207739729 1207739729 15.00000000
1.66139674 -1.30316985 -0.56577843 4 0 12811 2.18600000 1207739750 1207739750 -15.00000000
3.88894916 -3.05151844 0.08628470 22 1 12812 4.94400000 1207739752 1207739752 1.00000000
1.93758821 -1.52090216 -0.56867629 3 2 12813 2.52800000 1207739754 1207739754 -13.00000000
3.58674741 -2.81540298 0.23896597 18 3 12813 4.56600000 1207739757 1207739757 3.00000000
2.29763198 -1.80416524 -0.56784755 3 4 12814 2.97600000 1207739759 1207739759 -11.00000000
3.90761805 -3.06947422 0.43473285 28 5 12815 4.98800000 1207739761 1207739761 5.00000000
2.83772540 -2.22986341 -0.57161152 5 6 12816 3.65400000 1207739764 1207739764 -9.00000000
3.92345142 -3.08412695 0.61275905 22 7 12817 5.02800000 1207739766 1207739766 7.00000000
3.71381593 -2.92038655 -0.58009809 6 8 12818 4.76000000 1207739768 1207739768 -7.00000000
6.75774097 -5.31399918 1.36160553 55 9 12818 8.70400000 1207739771 1207739771 9.00000000
5.32265711 -4.18701410 -0.59248471 12 10 12819 6.79800000 1207739773 1207739773 -5.00000000
4.92164993 -3.87295651 1.21736133 34 11 12820 6.38000000 1207739775 1207739775 11.00000000
4.18701029 -3.29603577 -0.27926466 2 12 12821 5.33600000 1207739777 1207739777 -3.00000000
4.52719688 -3.56511235 1.33036053 18 13 12822 5.91400000 1207739780 1207739780 13.00000000
3.69772601 -2.91295981 -0.08216593 7 14 12823 4.70800000 1207739782 1207739782 -1.00000000
6.58367109 -5.18828487 2.24603176 45 15 12824 8.67800000 1207739784 1207739784 15.00000000
1.65986943 -1.31135643 -0.56681371 4 0 12831 2.19000000 1207739805 1207739805 -15.00000000
3.92377138 -3.10103250 0.08729694 31 1 12832 5.00200000 1207739807 1207739807 1.00000000
1.94449699 -1.53732502 -0.57227546 3 2 12833 2.54400000 1207739810 1207739810 -13.00000000
3.56436396 -2.81799650 0.23812860 26 3 12833 4.55000000 1207739812 1207739812 3.00000000
2.28208113 -1.80486739 -0.56555784 3 4 12834 2.96400000 1207739814 1207739814 -11.00000000
3.89844227 -3.08433199 0.43490717 28 5 12835 4.99000000 1207739817 1207739817 5.00000000
2.81443501 -2.22749615 -0.56848282 5 6 12836 3.63400000 1207739819 1207739819 -9.00000000
3.92200017 -3.10519671 0.61422151 22 7 12837 5.04000000 1207739821 1207739821 7.00000000
3.68803787 -2.92100739 -0.57766068 4 8 12838 4.74000000 1207739824 1207739824 -7.00000000
6.71282530 -5.31670570 1.35628676 52 9 12838 8.67000000 1207739826 1207739826 9.00000000
5.29707766 -4.19690704 -0.59126455 12 10 12839 6.78400000 1207739828 1207739828 -5.00000000
4.89271498 -3.87791800 1.21354520 34 11 12840 6.36000000 1207739830 1207739830 11.00000000
4.14730930 -3.28829551 -0.27738056 2 12 12841 5.30000000 1207739833 1207739833 -3.00000000
4.51167107 -3.57847142 1.32946074 19 13 12842 5.91000000 1207739835 1207739835 13.00000000
3.69536781 -2.93206429 -0.08234046 7 14 12843 4.71800000 1207739837 1207739837 -1.00000000
6.53223133 -5.18481207 2.23464370 45 15 12844 8.63400000 1207739840 1207739840 15.00000000
1.65853548 -1.31925869 -0.56784898 4 0 12850 2.19400000 1207739860 1207739860 -15.00000000
3.97918630 -3.16632175 0.08876294 65 1 12851 5.08600000 1207739863 1207739863 1.00000000
1.92719090 -1.53405559 -0.56867629 3 2 12852 2.52800000 1207739865 1207739865 -13.00000000
3.54093575 -2.81860614 0.23718655 24 3 12852 4.53200000 1207739867 1207739867 3.00000000
2.28529835 -1.81976283 -0.56784755 3 4 12853 2.97600000 1207739870 1207739870 -11.00000000
3.89286804 -3.10096669 0.43543008 26 5 12854 4.99600000 1207739872 1207739872 5.00000000
2.80703282 -2.23681688 -0.56848282 5 6 12855 3.63400000 1207739874 1207739874 -9.00000000
3.91478586 -3.12066031 0.61470896 22 7 12856 5.04400000 1207739876 1207739876 7.00000000
3.70316386 -2.95302367 -0.58156049 4 8 12857 4.77200000 1207739879 1207739879 -7.00000000
6.66735792 -5.31676865 1.35065520 47 9 12857 8.63400000 1207739881 1207739881 9.00000000
5.27534342 -4.20823717 -0.59039301 12 10 12858 6.77400000 1207739883 1207739883 -5.00000000
4.86294842 -3.88065124 1.20934737 34 11 12859 6.33800000 1207739886 1207739886 11.00000000
4.05833721 -3.23972797 -0.27214697 2 12 12860 5.20000000 1207739888 1207739888 -3.00000000
4.50434780 -3.59706116 1.33081043 19 13 12861 5.91600000 1207739890 1207739890 13.00000000
3.68874931 -2.94679856 -0.08241026 5 14 12862 4.72200000 1207739893 1207739893 -1.00000000
6.49176073 -5.18601561 2.22636151 45 15 12862 8.60200000 1207739895 1207739895 15.00000000
1.65241265 -1.32383215 -0.56733137 4 0 12870 2.19200000 1207739916 1207739916 -15.00000000
3.99151564 -3.19895101 0.08928651 45 1 12871 5.11600000 1207739918 1207739918 1.00000000
1.91878343 -1.53833544 -0.56777644 3 2 12872 2.52400000 1207739920 1207739920 -13.00000000
3.51705074 -2.81970525 0.23624450 26 3 12872 4.51400000 1207739923 1207739923 3.00000000
2.28505850 -1.83264220 -0.56937402 3 4 12873 2.98400000 1207739925 1207739925 -11.00000000
3.89289832 -3.12326431 0.43665028 26 5 12874 5.01000000 1207739927 1207739927 5.00000000
2.80845118 -2.25402021 -0.57036006 5 6 12875 3.64600000 1207739929 1207739929 -9.00000000
3.90696478 -3.13679194 0.61519647 22 7 12876 5.04800000 1207739932 1207739932 7.00000000
3.67580867 -2.95225835 -0.57887936 6 8 12877 4.75000000 1207739934 1207739934 -7.00000000
6.63027668 -5.32516575 1.34690070 47 9 12877 8.61000000 1207739936 1207739936 9.00000000
5.26372814 -4.22912216 -0.59074163 12 10 12878 6.77800000 1207739939 1207739939 -5.00000000
4.83713102 -3.88776326 1.20629442 34 11 12879 6.32200000 1207739941 1207739941 11.00000000
4.04700375 -3.25387430 -0.27214697 2 12 12880 5.20000000 1207739943 1207739943 -3.00000000
4.48569059 -3.60787678 1.32901084 20 13 12881 5.90800000 1207739946 1207739946 13.00000000
3.70181060 -2.97846007 -0.08293384 7 14 12882 4.75200000 1207739948 1207739948 -1.00000000
6.45916510 -5.19887257 2.22170258 45 15 12883 8.58400000 1207739950 1207739950 15.00000000
1.65379536 -1.33444464 -0.56940192 4 0 12890 2.20000000 1207739971 1207739971 -15.00000000
3.99588513 -3.22542453 0.08963556 61 1 12891 5.13600000 1207739973 1207739973 1.00000000
1.91188586 -1.54379964 -0.56732655 4 2 12892 2.52200000 1207739976 1207739976 -13.00000000
3.49892402 -2.82630181 0.23572114 31 3 12893 4.50400000 1207739978 1207739978 3.00000000
2.26795673 -1.83197176 -0.56670272 3 4 12893 2.97000000 1207739980 1207739980 -11.00000000
3.89591956 -3.14810395 0.43821907 26 5 12894 5.02800000 1207739982 1207739982 5.00000000
2.79442096 -2.25884271 -0.56910861 5 6 12895 3.63800000 1207739985 1207739985 -9.00000000
3.91451430 -3.16538882 0.61812133 22 7 12896 5.07200000 1207739987 1207739987 7.00000000
3.65467739 -2.95633221 -0.57717323 4 8 12897 4.73600000 1207739989 1207739989 -7.00000000
6.57018089 -5.31473398 1.33845329 52 9 12897 8.55600000 1207739992 1207739992 9.00000000
5.25203133 -4.24997663 -0.59109026 12 10 12898 6.78200000 1207739994 1207739994 -5.00000000
4.82353067 -3.90462422 1.20629442 25 11 12899 6.32200000 1207739996 1207739996 11.00000000
4.02009916 -3.25541210 -0.27110025 2 12 12900 5.18000000 1207739999 1207739999 -3.00000000
4.46398401 -3.61615300 1.32631147 21 13 12901 5.89600000 1207740001 1207740001 13.00000000
3.70537376 -3.00269461 -0.08324798 5 14 12902 4.77000000 1207740003 1207740003 -1.00000000
6.42988253 -5.21053314 2.21756148 42 15 12902 8.56800000 1207740006 1207740006 15.00000000
1.63413513 -1.32802558 -0.56422549 4 0 12910 2.18000000 1207740026 1207740026 -15.00000000
4.00322151 -3.25449038 0.09005442 59 1 12911 5.16000000 1207740029 1207740029 1.00000000
1.91253281 -1.55538213 -0.56912619 4 2 12912 2.53000000 1207740031 1207740031 -13.00000000
3.48593855 -2.83597732 0.23551181 33 3 12913 4.50000000 1207740033 1207740033 3.00000000
2.25850224 -1.83739936 -0.56593949 3 4 12913 2.96600000 1207740035 1207740035 -11.00000000
3.90499592 -3.17803335 0.44048512 28 5 12914 5.05400000 1207740038 1207740038 5.00000000
2.79571056 -2.27606630 -0.57098579 5 6 12915 3.65000000 1207740040 1207740040 -9.00000000
3.90959811 -3.18404818 0.61909628 22 7 12916 5.08000000 1207740042 1207740042 7.00000000
3.64433551 -2.96907139 -0.57717323 4 8 12917 4.73600000 1207740045 1207740045 -7.00000000
6.51697016 -5.31132412 1.33157015 52 9 12918 8.51200000 1207740047 1207740047 9.00000000
5.21245337 -4.24814463 -0.58830124 12 10 12918 6.75000000 1207740049 1207740049 -5.00000000
4.76878738 -3.88794231 1.19599080 6 11 12919 6.26800000 1207740052 1207740052 11.00000000
3.84464812 -3.13561845 -0.26000503 2 12 12920 4.96800000 1207740054 1207740054 -3.00000000
4.45133400 -3.63171315 1.32631147 19 13 12921 5.89600000 1207740056 1207740056 13.00000000
3.69486976 -3.01561046 -0.08324798 5 14 12922 4.77000000 1207740059 1207740059 -1.00000000
6.40625238 -5.23039961 2.21600866 45 15 12923 8.56200000 1207740061 1207740061 15.00000000
1.62799454 -1.33249807 -0.56370789 4 0 12930 2.17800000 1207740082 1207740082 -15.00000000
3.99183702 -3.26844430 0.09005442 59 1 12931 5.16000000 1207740084 1207740084 1.00000000
1.91161466 -1.56575310 -0.57047588 3 2 12932 2.53600000 1207740086 1207740086 -13.00000000
3.48065257 -2.85192585 0.23582582 33 3 12933 4.50600000 1207740088 1207740088 3.00000000
2.25511193 -1.84776032 -0.56670272 3 4 12933 2.97000000 1207740091 1207740091 -11.00000000
3.89387870 -3.19164491 0.44048512 26 5 12934 5.05400000 1207740093 1207740093 5.00000000
2.78011084 -2.27954865 -0.56942147 5 6 12935 3.64000000 1207740095 1207740095 -9.00000000
3.91380811 -3.21026492 0.62153363 22 7 12936 5.10000000 1207740098 1207740098 7.00000000
3.64622617 -2.99184799 -0.57912314 4 8 12937 4.75200000 1207740100 1207740100 -7.00000000
6.47183371 -5.31035137 1.32593858 50 9 12937 8.47600000 1207740102 1207740102 9.00000000
5.17757273 -4.24988031 -0.58603519 12 10 12938 6.72400000 1207740105 1207740105 -5.00000000
4.63683844 -3.80738688 1.16622460 12 11 12939 6.11200000 1207740107 1207740107 11.00000000
3.80898571 -3.12873602 -0.25833029 2 12 12940 4.93600000 1207740109 1207740109 -3.00000000
4.43561840 -3.64475465 1.32541156 13 13 12941 5.89200000 1207740112 1207740112 13.00000000
3.71367192 -3.05261612 -0.08391117 8 14 12942 4.80800000 1207740114 1207740114 -1.00000000
6.37693357 -5.24180126 2.21186757 38 15 12942 8.54600000 1207740116 1207740116 15.00000000
1.62184262 -1.33694398 -0.56319022 4 0 12950 2.17600000 1207740137 1207740137 -15.00000000
3.98657489 -3.28744745 0.09019404 61 1 12951 5.16800000 1207740139 1207740139 1.00000000
1.90162766 -1.56869614 -0.56912619 4 2 12952 2.53000000 1207740141 1207740141 -13.00000000
3.47067618 -2.86405802 0.23582582 33 3 12953 4.50600000 1207740144 1207740144 3.00000000
2.24561977 -1.85312176 -0.56593949 3 4 12953 2.96600000 1207740146 1207740146 -11.00000000
3.89807892 -3.21790147 0.44222823 28 5 12954 5.07400000 1207740148 1207740148 5.00000000
2.76604438 -2.28420806 -0.56816995 5 6 12955 3.63200000 1207740151 1207740151 -9.00000000
3.91176105 -3.23149276 0.62299609 22 7 12956 5.11200000 1207740153 1207740153 7.00000000
3.62504911 -2.99570584 -0.57741696 6 8 12957 4.73800000 1207740155 1207740155 -7.00000000
6.43253422 -5.31767416 1.32187128 50 9 12958 8.45000000 1207740158 1207740158 9.00000000
5.17038393 -4.27427483 -0.58690679 12 10 12958 6.73400000 1207740160 1207740160 -5.00000000
4.60687780 -3.80978656 1.16202676 21 11 12959 6.09000000 1207740162 1207740162 11.00000000
3.75495148 -3.10636616 -0.25539947 2 12 12960 4.88000000 1207740164 1207740164 -3.00000000
4.41536236 -3.65400362 1.32316208 11 13 12961 5.88200000 1207740167 1207740167 13.00000000
3.69837260 -3.06173491 -0.08380646 18 14 12962 4.80200000 1207740169 1207740169 -1.00000000
6.33536053 -5.24665546 2.20410299 33 15 12963 8.51600000 1207740171 1207740171 15.00000000
1.63179314 -1.35522199 -0.56836665 4 0 12971 2.19600000 1207740192 1207740192 -15.00000000
3.98680377 -3.31225991 0.09047327 57 1 12972 5.18400000 1207740194 1207740194 1.00000000
1.88237703 -1.56444514 -0.56507707 3 2 12973 2.51200000 1207740197 1207740197 -13.00000000
3.46015549 -2.87675953 0.23582582 31 3 12974 4.50600000 1207740199 1207740199 3.00000000
2.23881269 -1.86133993 -0.56593949 3 4 12974 2.96600000 1207740201 1207740201 -11.00000000
3.90464067 -3.24745536 0.44431996 30 5 12975 5.09800000 1207740204 1207740204 5.00000000
2.76372766 -2.29938436 -0.56942147 5 6 12976 3.64000000 1207740206 1207740206 -9.00000000
3.90294218 -3.24834824 0.62348354 20 7 12977 5.11600000 1207740208 1207740208 7.00000000
3.61404490 -3.00897217 -0.57741696 6 8 12978 4.73800000 1207740211 1207740211 -7.00000000
6.38964367 -5.31987286 1.31686532 50 9 12978 8.41800000 1207740213 1207740213 9.00000000
5.15162134 -4.29064608 -0.58655816 12 10 12979 6.73000000 1207740215 1207740215 -5.00000000
4.61249161 -3.84298301 1.16698778 15 11 12980 6.11600000 1207740217 1207740217 11.00000000
3.72973275 -3.10859919 -0.25445741 14 12 12981 4.86200000 1207740220 1207740220 -3.00000000
4.38697243 -3.65768290 1.31866312 12 13 12982 5.86200000 1207740222 1207740222 13.00000000
3.69787550 -3.08423543 -0.08405079 32 14 12983 4.81600000 1207740224 1207740224 -1.00000000
6.29327059 -5.24894047 2.19582081 31 15 12983 8.48400000 1207740227 1207740227 15.00000000
1.62705255 -1.36090970 -0.56836665 4 0 12991 2.19600000 1207740247 1207740247 -15.00000000
3.99362135 -3.34155512 0.09089214 57 1 12992 5.20800000 1207740250 1207740250 1.00000000
1.88587070 -1.57851112 -0.56777644 3 2 12993 2.52400000 1207740252 1207740252 -13.00000000
3.44396734 -2.88369131 0.23540713 31 3 12994 4.49800000 1207740254 1207740254 3.00000000
3.64574170 -3.05264020 -0.92427880 4 4 12994 4.84400000 1207740257 1207740257 -11.00000000
3.90091801 -3.26746202 0.44519153 27 5 12995 5.10800000 1207740259 1207740259 5.00000000
2.74508572 -2.30013657 -0.56723136 5 6 12996 3.62600000 1207740261 1207740261 -9.00000000
3.90983558 -3.27725458 0.62640840 22 7 12997 5.14000000 1207740264 1207740264 7.00000000
3.58526635 -3.00626349 -0.57449210 6 8 12998 4.71400000 1207740266 1207740266 -7.00000000
6.33529282 -5.31405783 1.30966938 52 9 12999 8.37200000 1207740268 1207740268 9.00000000
5.13050699 -4.30348110 -0.58586091 12 10 12999 6.72200000 1207740270 1207740270 -5.00000000
4.69379711 -3.93856335 1.19102979 21 11 13000 6.24200000 1207740273 1207740273 11.00000000
3.75710320 -3.15370154 -0.25707421 2 12 13001 4.91200000 1207740275 1207740275 -3.00000000
4.35626936 -3.65793610 1.31326425 13 13 13002 5.83800000 1207740277 1207740277 13.00000000
3.69474292 -3.10355544 -0.08422531 30 14 13003 4.82600000 1207740280 1207740280 -1.00000000
6.25328350 -5.25457191 2.18857384 33 15 13004 8.45600000 1207740282 1207740282 15.00000000
1.61809754 -1.36256468 -0.56681371 4 0 13010 2.19000000 1207740303 1207740303 -15.00000000
4.00087118 -3.37023997 0.09131099 61 1 13011 5.23200000 1207740305 1207740305 1.00000000
1.87764537 -1.58224475 -0.56687665 3 2 13012 2.52000000 1207740307 1207740307 -13.00000000
3.45118356 -2.90925622 0.23655853 33 3 13013 4.52000000 1207740310 1207740310 3.00000000
3.64460516 -3.07230544 -0.92656851 4 4 13013 4.85600000 1207740312 1207740312 -11.00000000
3.89919996 -3.28808641 0.44623742 25 5 13014 5.12000000 1207740314 1207740314 5.00000000
2.73895311 -2.31050062 -0.56754422 5 6 13015 3.62800000 1207740317 1207740317 -9.00000000
3.91260028 -3.30172420 0.62860209 20 7 13016 5.15800000 1207740319 1207740319 7.00000000
3.55555797 -3.00148964 -0.57132345 4 8 13017 4.68800000 1207740321 1207740321 -7.00000000
6.28988743 -5.30972433 1.30372488 52 9 13017 8.33400000 1207740323 1207740323 9.00000000
5.09641886 -4.30375957 -0.58359486 12 10 13018 6.69600000 1207740326 1207740326 -5.00000000
4.67771101 -3.95157313 1.19026649 31 11 13019 6.23800000 1207740328 1207740328 11.00000000
3.97697473 -3.36080408 -0.27287969 5 12 13020 5.21400000 1207740330 1207740330 -3.00000000
4.32625675 -3.65726495 1.30786538 12 13 13021 5.81400000 1207740333 1207740333 13.00000000
3.68595767 -3.11708188 -0.08426022 28 14 13022 4.82800000 1207740335 1207740335 -1.00000000
6.20281744 -5.24550009 2.17666817 36 15 13022 8.41000000 1207740337 1207740337 15.00000000
1.60154462 -1.35820854 -0.56267262 4 0 13030 2.17400000 1207740358 1207740358 -15.00000000
3.99518180 -3.38935971 0.09145061 59 1 13031 5.24000000 1207740360 1207740360 1.00000000
1.87805414 -1.59383309 -0.56867629 3 2 13032 2.52800000 1207740363 1207740363 -13.00000000
3.44100738 -2.92128539 0.23655853 31 3 13033 4.52000000 1207740365 1207740365 3.00000000
3.64882493 -3.09771466 -0.93038464 4 4 13033 4.87600000 1207740367 1207740367 -11.00000000
3.88921714 -3.30296683 0.44641173 27 5 13034 5.12200000 1207740370 1207740370 5.00000000
2.73689294 -2.32516313 -0.56879574 5 6 13035 3.63600000 1207740372 1207740372 -9.00000000
3.91769004 -3.32950234 0.63128322 20 7 13036 5.18000000 1207740374 1207740374 7.00000000
3.54052210 -3.01002526 -0.57059228 4 8 13037 4.68200000 1207740376 1207740376 -7.00000000
6.24630785 -5.31226635 1.29871893 52 9 13038 8.30200000 1207740379 1207740379 9.00000000
5.07377625 -4.31506920 -0.58272332 12 10 13038 6.68600000 1207740381 1207740381 -5.00000000
4.66089821 -3.96533298 1.18950331 34 11 13039 6.23400000 1207740383 1207740383 11.00000000
3.96521902 -3.37466598 -0.27287969 26 12 13040 5.21400000 1207740386 1207740386 -3.00000000
4.30456114 -3.66476440 1.30516601 12 13 13041 5.80200000 1207740388 1207740388 13.00000000
3.69027853 -3.14289498 -0.08460927 28 14 13042 4.84800000 1207740390 1207740390 -1.00000000
6.15266943 -5.24188948 2.16579771 33 15 13043 8.36800000 1207740393 1207740393 15.00000000
1.60290861 -1.36852956 -0.56474316 4 0 13049 2.18200000 1207740413 1207740413 -15.00000000
3.99304390 -3.41038156 0.09166004 35 1 13050 5.25200000 1207740416 1207740416 1.00000000
1.86683202 -1.59498870 -0.56687665 3 2 13051 2.52000000 1207740418 1207740418 -13.00000000
3.44344735 -2.94306135 0.23739590 30 3 13052 4.53600000 1207740420 1207740420 3.00000000
3.64450216 -3.11489987 -0.93191111 4 4 13052 4.88400000 1207740423 1207740423 -11.00000000
3.89187193 -3.32749844 0.44798052 27 5 13053 5.14000000 1207740425 1207740425 5.00000000
2.72616506 -2.33165836 -0.56816995 5 6 13054 3.63200000 1207740427 1207740427 -9.00000000
3.92020273 -3.35409021 0.63347685 20 7 13055 5.19800000 1207740429 1207740429 7.00000000
3.53655338 -3.02691269 -0.57156724 4 8 13056 4.69000000 1207740432 1207740432 -7.00000000
