# .PCD v0.7 - Point Cloud Data file format
VERSION 0.7
FIELDS x y z intensity laser_id azimuth distance_m adjustedtime timestamp vertical_angle
SIZE 4 4 4 1 1 2 8 8 4 8
TYPE F F F U U U F U U F
COUNT 1 1 1 1 1 1 1 1 1 1
WIDTH 542
HEIGHT 1
VIEWPOINT 0 0 0 1 0 0 0
POINTS 542
DATA ascii
3.11702156 2.52051330 1.07409906 8 15 5104 4.15000000 1206318454 1206318454 15.00000000
1.78334320 1.43846273 -0.61391878 4 0 5111 2.37200000 1206318475 1206318475 -15.00000000
3.10092139 2.50034142 0.06953039 6 1 5112 3.98400000 1206318477 1206318477 1.00000000
2.11502457 1.70478189 -0.62716353 3 2 5113 2.78800000 1206318480 1206318480 -13.00000000
3.12245941 2.51680899 0.21018121 7 3 5113 4.01600000 1206318482 1206318482 3.00000000
2.53925300 2.04599357 -0.63386750 5 4 5114 3.32200000 1206318484 1206318484 -11.00000000
3.12348080 2.51583409 0.35088903 6 5 5115 4.02600000 1206318487 1206318487 5.00000000
3.09416795 2.49133348 -0.62917942 9 6 5116 4.02200000 1206318489 1206318489 -9.00000000
3.12837982 2.51798010 0.49308336 7 7 5117 4.04600000 1206318491 1206318491 7.00000000
3.12108636 2.51121211 -0.49186468 8 8 5118 4.03600000 1206318494 1206318494 -7.00000000
3.13197470 2.51997280 0.63668829 8 9 5118 4.07000000 1206318496 1206318496 9.00000000
3.11126375 2.50241446 -0.34932020 9 10 5119 4.00800000 1206318498 1206318498 -5.00000000
3.12892914 2.51572347 0.78040880 8 11 5120 4.09000000 1206318500 1206318500 11.00000000
3.11507320 2.50368810 -0.20944850 7 12 5121 4.00200000 1206318503 1206318503 -3.00000000
3.13401318 2.51801062 0.92814803 7 13 5122 4.12600000 1206318505 1206318505 13.00000000
3.11507058 2.50189686 -0.06973982 6 14 5123 3.99600000 1206318507 1206318507 -1.00000000
3.13333297 2.51566482 1.07668722 8 15 5124 4.16000000 1206318510 1206318510 15.00000000
1.78634596 1.43164492 -0.61340111 4 0 5129 2.37000000 1206318530 1206318530 -15.00000000
3.11812496 2.49808908 0.06973982 6 1 5130 3.99600000 1206318533 1206318533 1.00000000
2.10515904 1.68594730 -0.62266451 3 2 5131 2.76800000 1206318535 1206318535 -13.00000000
3.14126348 2.51572657 0.21091390 7 3 5131 4.03000000 1206318537 1206318537 3.00000000
2.54720092 2.03923321 -0.63424909 5 4 5132 3.32400000 1206318540 1206318540 -11.00000000
3.14381361 2.51596808 0.35228351 6 5 5133 4.04200000 1206318542 1206318542 5.00000000
3.11431932 2.49147272 -0.63168240 9 6 5134 4.03800000 1206318544 1206318544 -9.00000000
3.14092588 2.51185894 0.49381459 7 7 5135 4.05200000 1206318546 1206318546 7.00000000
3.13206100 2.50387359 -0.49235216 8 8 5136 4.04000000 1206318549 1206318549 -7.00000000
3.15221930 2.51998878 0.63919121 8 9 5136 4.08600000 1206318551 1206318551 9.00000000
3.13467431 2.50506592 -0.35106334 9 10 5137 4.02800000 1206318553 1206318553 -5.00000000
3.15062213 2.51690960 0.78384334 8 11 5138 4.10800000 1206318556 1206318556 11.00000000
3.13228750 2.50136733 -0.21007653 7 12 5139 4.01400000 1206318558 1206318558 -3.00000000
3.15561509 2.51909447 0.93219715 8 13 5140 4.14400000 1206318560 1206318560 13.00000000
3.15417552 2.51704407 -0.07043792 7 14 5141 4.03600000 1206318563 1206318563 -1.00000000
3.16192317 2.52322674 1.08393419 8 15 5141 4.18800000 1206318565 1206318565 15.00000000
1.79586744 1.42900932 -0.61495405 4 0 5149 2.37600000 1206318586 1206318586 -15.00000000
3.14091063 2.49839306 0.07005396 8 1 5150 4.01400000 1206318588 1206318588 1.00000000
2.12018323 1.68586576 -0.62536395 3 2 5151 2.78000000 1206318590 1206318590 -13.00000000
3.15627885 2.50971842 0.21133259 7 3 5151 4.03800000 1206318593 1206318593 3.00000000
2.56198788 2.03643751 -0.63615721 5 4 5152 3.33400000 1206318595 1206318595 -11.00000000
3.17753553 2.52481055 0.35507250 6 5 5153 4.07400000 1206318597 1206318597 5.00000000
3.13846540 2.49287271 -0.63481104 11 6 5154 4.05800000 1206318599 1206318599 -9.00000000
3.16522098 2.51322389 0.49625197 7 7 5155 4.07200000 1206318602 1206318602 7.00000000
3.14855647 2.49909592 -0.49357083 8 8 5156 4.05000000 1206318604 1206318604 -7.00000000
3.17027998 2.51633859 0.64106846 8 9 5156 4.09800000 1206318606 1206318606 9.00000000
3.16212869 2.50896931 -0.35315508 9 10 5157 4.05200000 1206318609 1206318609 -5.00000000
3.17477012 2.51809669 0.78765953 8 11 5158 4.12800000 1206318611 1206318611 11.00000000
3.16447520 2.50903153 -0.21164660 7 12 5159 4.04400000 1206318613 1206318613 -3.00000000
3.17049813 2.51290584 0.93399680 8 13 5160 4.15200000 1206318616 1206318616 13.00000000
3.16764450 2.50974417 -0.07054263 7 14 5161 4.04200000 1206318618 1206318618 -1.00000000
3.19235158 2.52841282 1.09118104 8 15 5162 4.21600000 1206318620 1206318620 15.00000000
1.79629707 1.41913915 -0.61340111 4 0 5169 2.37000000 1206318641 1206318641 -15.00000000
3.17158294 2.50476527 0.07054263 7 1 5170 4.04200000 1206318643 1206318643 1.00000000
2.13217306 1.68328476 -0.62716353 4 2 5171 2.78800000 1206318646 1206318646 -13.00000000
3.18113470 2.51050615 0.21237931 7 3 5172 4.05800000 1206318648 1206318648 3.00000000
2.55521059 2.01653576 -0.63272262 5 4 5172 3.31600000 1206318650 1206318650 -11.00000000
3.19415045 2.51987362 0.35594407 6 5 5173 4.08400000 1206318652 1206318652 5.00000000
3.15955663 2.49168801 -0.63731402 9 6 5174 4.07400000 1206318655 1206318655 -9.00000000
3.19735837 2.52059412 0.49990806 7 7 5175 4.10200000 1206318657 1206318657 7.00000000
3.17441130 2.50160575 -0.49625197 10 8 5176 4.07200000 1206318659 1206318659 -7.00000000
3.18525028 2.51014757 0.64231992 8 9 5176 4.10600000 1206318662 1206318662 9.00000000
3.17556262 2.50161481 -0.35367802 9 10 5177 4.05800000 1206318664 1206318664 -5.00000000
3.20359206 2.52278948 0.79262054 8 11 5178 4.15400000 1206318666 1206318666 11.00000000
3.17949128 2.50291157 -0.21206529 7 12 5179 4.05200000 1206318669 1206318669 -3.00000000
3.18997049 2.51025915 0.93714607 8 13 5180 4.16600000 1206318671 1206318671 13.00000000
3.18110108 2.50238085 -0.07064734 7 14 5181 4.04800000 1206318673 1206318673 -1.00000000
3.20527363 2.52139592 1.09273398 8 15 5181 4.22200000 1206318676 1206318676 15.00000000
1.79515970 1.40809107 -0.61133057 4 0 5189 2.36200000 1206318696 1206318696 -15.00000000
3.19132233 2.50231624 0.07078696 7 1 5190 4.05600000 1206318699 1206318699 1.00000000
2.14110351 1.67823613 -0.62806332 3 2 5191 2.79200000 1206318701 1206318701 -13.00000000
3.20560002 2.51170492 0.21342602 7 3 5192 4.07800000 1206318703 1206318703 3.00000000
2.56532478 2.01002598 -0.63348585 5 4 5192 3.32000000 1206318705 1206318705 -11.00000000
3.20135856 2.50747991 0.35576975 6 5 5193 4.08200000 1206318708 1206318708 5.00000000
3.17445636 2.48551488 -0.63856548 9 6 5194 4.08200000 1206318710 1206318710 -9.00000000
3.22176957 2.52165294 0.50234544 7 7 5195 4.12200000 1206318712 1206318712 7.00000000
3.20188522 2.50518870 -0.49917683 8 8 5196 4.09600000 1206318715 1206318715 -7.00000000
3.20998907 2.51062608 0.64544863 8 9 5197 4.12600000 1206318717 1206318717 9.00000000
3.19369197 2.49787974 -0.35472387 9 10 5197 4.07000000 1206318719 1206318719 -5.00000000
3.22475171 2.52126551 0.79567349 8 11 5198 4.17000000 1206318722 1206318722 11.00000000
3.19922423 2.50040722 -0.21279800 7 12 5199 4.06600000 1206318724 1206318724 -3.00000000
3.22635484 2.52070475 0.94524431 8 13 5200 4.20200000 1206318726 1206318726 13.00000000
3.20084858 2.49987745 -0.07089168 7 14 5201 4.06200000 1206318729 1206318729 -1.00000000
3.22362995 2.51676416 1.09583986 8 15 5202 4.23400000 1206318731 1206318731 15.00000000
1.80183303 1.40268874 -0.61184824 4 0 5210 2.36400000 1206318752 1206318752 -15.00000000
3.20362854 2.49305892 0.07085677 7 1 5211 4.06000000 1206318754 1206318754 1.00000000
2.14724016 1.67037737 -0.62806332 3 2 5212 2.79200000 1206318756 1206318756 -13.00000000
3.23055077 2.51219964 0.21447276 7 3 5213 4.09800000 1206318758 1206318758 3.00000000
2.57732415 2.00422573 -0.63463074 5 4 5213 3.32600000 1206318761 1206318761 -11.00000000
3.23097658 2.51162601 0.35803580 6 5 5214 4.10800000 1206318763 1206318763 5.00000000
3.18822432 2.47749949 -0.63950408 9 6 5215 4.08800000 1206318765 1206318765 -9.00000000
3.23726106 2.51469874 0.50332040 7 7 5216 4.13000000 1206318768 1206318768 7.00000000
3.22829247 2.50682878 -0.50185794 10 8 5217 4.11800000 1206318770 1206318770 -7.00000000
3.23433542 2.51152110 0.64857727 8 9 5217 4.14600000 1206318772 1206318772 9.00000000
3.21541667 2.49593091 -0.35611835 9 10 5218 4.08600000 1206318775 1206318775 -5.00000000
3.24017525 2.51424336 0.79719996 8 11 5219 4.17800000 1206318777 1206318777 11.00000000
3.21941423 2.49723363 -0.21353070 7 12 5220 4.08000000 1206318779 1206318779 -3.00000000
3.24789214 2.51841545 0.94884354 8 13 5221 4.21800000 1206318782 1206318782 13.00000000
3.23527741 2.50773025 -0.07145015 7 14 5222 4.09400000 1206318784 1206318784 -1.00000000
3.25682545 2.52443242 1.10412204 8 15 5222 4.26600000 1206318786 1206318786 15.00000000
1.81894648 1.40584159 -0.61598933 4 0 5230 2.38000000 1206318807 1206318807 -15.00000000
3.23288298 2.49775481 0.07131054 7 1 5231 4.08600000 1206318809 1206318809 1.00000000
2.14071918 1.65334260 -0.62446415 3 2 5232 2.77600000 1206318811 1206318811 -13.00000000
3.25036669 2.50945139 0.21520545 7 3 5233 4.11200000 1206318814 1206318814 3.00000000
2.58896637 1.99881625 -0.63577557 5 4 5233 3.33200000 1206318816 1206318816 -11.00000000
3.25865149 2.51494002 0.36012754 6 5 5234 4.13200000 1206318818 1206318818 5.00000000
3.21092916 2.47721529 -0.64231992 9 6 5235 4.10600000 1206318821 1206318821 -9.00000000
3.26173830 2.51550627 0.50575775 7 7 5236 4.15000000 1206318823 1206318823 7.00000000
3.24331188 2.50039268 -0.50283289 8 8 5237 4.12600000 1206318825 1206318825 -7.00000000
3.27168250 2.52135444 0.65420896 8 9 5238 4.18200000 1206318828 1206318828 9.00000000
3.24304700 2.49928617 -0.35821012 9 10 5238 4.11000000 1206318830 1206318830 -5.00000000
3.26137400 2.51250291 0.80025291 8 11 5239 4.19400000 1206318832 1206318832 11.00000000
3.24235344 2.49694824 -0.21447276 7 12 5240 4.09800000 1206318834 1206318834 -3.00000000
3.26592827 2.51419544 0.95154297 8 13 5241 4.23000000 1206318837 1206318837 13.00000000
3.24718094 2.49886084 -0.07151996 7 14 5242 4.09800000 1206318839 1206318839 -1.00000000
3.28136802 2.52425766 1.10929847 8 15 5243 4.28600000 1206318841 1206318841 15.00000000
1.82666337 1.40215468 -0.61702460 4 0 5249 2.38400000 1206318862 1206318862 -15.00000000
3.25542617 2.49797630 0.07162467 7 1 5250 4.10400000 1206318864 1206318864 1.00000000
2.16165257 1.65809512 -0.62896317 3 2 5251 2.79600000 1206318867 1206318867 -13.00000000
3.26501036 2.50352025 0.21562414 7 3 5252 4.12000000 1206318869 1206318869 3.00000000
2.59246469 1.98783064 -0.63501233 5 4 5252 3.32800000 1206318871 1206318871 -11.00000000
3.28753018 2.51987696 0.36239359 7 5 5253 4.15800000 1206318874 1206318874 5.00000000
3.22696638 2.47256088 -0.64388424 9 6 5254 4.11600000 1206318876 1206318876 -9.00000000
3.28266954 2.51433277 0.50770766 7 7 5255 4.16600000 1206318878 1206318878 7.00000000
3.26577091 2.50048494 -0.50502658 8 8 5256 4.14400000 1206318881 1206318881 -7.00000000
3.29056644 2.51946998 0.65639901 8 9 5256 4.19600000 1206318883 1206318883 9.00000000
3.28137803 2.51152635 -0.36152202 9 10 5257 4.14800000 1206318885 1206318885 -5.00000000
3.29307604 2.51956868 0.80597723 8 11 5258 4.22400000 1206318887 1206318887 11.00000000
3.26330709 2.49588943 -0.21531013 7 12 5259 4.11400000 1206318890 1206318890 -3.00000000
3.29127693 2.51637125 0.95649189 9 13 5260 4.25200000 1206318892 1206318892 13.00000000
3.26657128 2.49657893 -0.07176430 7 14 5261 4.11200000 1206318894 1206318894 -1.00000000
3.31077051 2.53035975 1.11654532 8 15 5261 4.31400000 1206318897 1206318897 15.00000000
1.82540047 1.39108610 -0.61495405 4 0 5269 2.37600000 1206318917 1206318917 -15.00000000
3.28480506 2.50235081 0.07207844 7 1 5270 4.13000000 1206318920 1206318920 1.00000000
2.16432643 1.64817810 -0.62806332 3 2 5271 2.79200000 1206318922 1206318922 -13.00000000
3.29597807 2.50904465 0.21708955 7 3 5272 4.14800000 1206318924 1206318924 3.00000000
2.59626341 1.97639084 -0.63424909 6 4 5272 3.32400000 1206318927 1206318927 -11.00000000
3.30423379 2.51441860 0.36326513 7 5 5273 4.16800000 1206318929 1206318929 5.00000000
3.24658275 2.46965337 -0.64607435 11 6 5274 4.13000000 1206318931 1206318931 -9.00000000
3.31354833 2.51968074 0.51112002 7 7 5275 4.19400000 1206318934 1206318934 7.00000000
3.29028273 2.50108290 -0.50746393 8 8 5276 4.16400000 1206318936 1206318936 -7.00000000
3.30921555 2.51456332 0.65827620 8 9 5277 4.20800000 1206318938 1206318938 9.00000000
3.28060651 2.49282432 -0.36047617 9 10 5277 4.13600000 1206318940 1206318940 -5.00000000
3.31748486 2.51993370 0.80979335 8 11 5278 4.24400000 1206318943 1206318943 11.00000000
3.29108763 2.49897695 -0.21656619 7 12 5279 4.13800000 1206318945 1206318945 -3.00000000
3.31866741 2.51900554 0.96189070 9 13 5280 4.27600000 1206318947 1206318947 13.00000000
3.27845192 2.48757887 -0.07183410 7 14 5281 4.11600000 1206318950 1206318950 -1.00000000
3.32464004 2.52171063 1.11809826 8 15 5282 4.32000000 1206318952 1206318952 15.00000000
1.81329846 1.37188447 -0.60926002 3 0 5289 2.35400000 1206318973 1206318973 -15.00000000
3.30308938 2.49810696 0.07228786 7 1 5290 4.14200000 1206318975 1206318975 1.00000000
2.16073966 1.63356185 -0.62536395 3 2 5291 2.78000000 1206318977 1206318977 -13.00000000
3.32543039 2.51317906 0.21845028 7 3 5292 4.17400000 1206318980 1206318980 3.00000000
2.60001397 1.96494877 -0.63348585 6 4 5292 3.32000000 1206318982 1206318982 -11.00000000
3.32252908 2.51007533 0.36431101 7 5 5293 4.18000000 1206318984 1206318984 5.00000000
3.25518370 2.45830560 -0.64607435 11 6 5294 4.13000000 1206318987 1206318987 -9.00000000
3.34133530 2.52245140 0.51404488 7 7 5295 4.21800000 1206318989 1206318989 7.00000000
3.31166935 2.49914861 -0.50941384 8 8 5296 4.18000000 1206318991 1206318991 -7.00000000
3.34118748 2.52142453 0.66296929 8 9 5296 4.23800000 1206318993 1206318993 9.00000000
3.30519390 2.49335647 -0.36221927 9 10 5297 4.15600000 1206318996 1206318996 -5.00000000
3.34507084 2.52252293 0.81437278 8 11 5298 4.26800000 1206318998 1206318998 11.00000000
3.31733418 2.50069857 -0.21771757 7 12 5299 4.16000000 1206319000 1206319000 -3.00000000
3.34767246 2.52265215 0.96773946 8 13 5300 4.30200000 1206319003 1206319003 13.00000000
3.31107378 2.49416733 -0.07235768 7 14 5301 4.14600000 1206319005 1206319005 -1.00000000
3.34378552 2.51880813 1.12172174 8 15 5301 4.33400000 1206319007 1206319007 15.00000000
1.83352292 1.37714839 -0.61443639 3 0 5309 2.37400000 1206319028 1206319028 -15.00000000
3.32138419 2.49376583 0.07249729 7 1 5310 4.15400000 1206319030 1206319030 1.00000000
2.16954589 1.62834907 -0.62626374 3 2 5311 2.78400000 1206319033 1206319033 -13.00000000
3.35175633 2.51474071 0.21960168 7 3 5312 4.19600000 1206319035 1206319035 3.00000000
2.60999775 1.95821750 -0.63424909 6 4 5312 3.32400000 1206319037 1206319037 -11.00000000
3.35199142 2.51400304 0.36657706 7 5 5313 4.20600000 1206319040 1206319040 5.00000000
3.26690602 2.44929790 -0.64670008 11 6 5314 4.13400000 1206319042 1206319042 -9.00000000
3.35806227 2.51672506 0.51526356 7 7 5315 4.22800000 1206319044 1206319044 7.00000000
3.33625984 2.49947572 -0.51185125 8 8 5316 4.20000000 1206319046 1206319046 -7.00000000
3.36305571 2.51863456 0.66547221 8 9 5317 4.25400000 1206319049 1206319049 9.00000000
3.33620358 2.49852467 -0.36465964 9 10 5317 4.18400000 1206319051 1206319051 -5.00000000
3.35699892 2.51318431 0.81513602 8 11 5318 4.27200000 1206319053 1206319053 11.00000000
3.33723640 2.49748039 -0.21845028 7 12 5319 4.17400000 1206319056 1206319056 -3.00000000
3.36894107 2.52028990 0.97133863 8 13 5320 4.31800000 1206319058 1206319058 13.00000000
3.34218001 2.49936032 -0.07284635 7 14 5321 4.17400000 1206319060 1206319060 -1.00000000
3.36073136 2.51231909 1.12430990 8 15 5322 4.34400000 1206319063 1206319063 15.00000000
1.83343410 1.36759543 -0.61288351 4 0 5328 2.36800000 1206319083 1206319083 -15.00000000
3.34566641 2.49469137 0.07284635 7 1 5329 4.17400000 1206319086 1206319086 1.00000000
2.17180872 1.61881638 -0.62536395 3 2 5330 2.78000000 1206319088 1206319088 -13.00000000
3.36648321 2.50838542 0.22002035 7 3 5331 4.20400000 1206319090 1206319090 3.00000000
2.61962581 1.95189762 -0.63501233 5 4 5331 3.32800000 1206319093 1206319093 -11.00000000
3.37469053 2.51358485 0.36814585 7 5 5332 4.22400000 1206319095 1206319095 5.00000000
3.28134799 2.44316983 -0.64795154 9 6 5333 4.14200000 1206319097 1206319097 -9.00000000
3.37594414 2.51268673 0.51672602 7 7 5334 4.24000000 1206319099 1206319099 7.00000000
3.36364150 2.50261807 -0.51477611 8 8 5335 4.22400000 1206319102 1206319102 -7.00000000
3.38521504 2.51866913 0.66828805 8 9 5335 4.27200000 1206319104 1206319104 9.00000000
3.36365485 2.50171590 -0.36675137 9 10 5336 4.20800000 1206319106 1206319106 -5.00000000
3.38106990 2.51375175 0.81895220 8 11 5337 4.29200000 1206319109 1206319109 11.00000000
3.36153030 2.49831367 -0.21949700 8 12 5338 4.19400000 1206319111 1206319111 -3.00000000
3.38823009 2.51723933 0.97448796 7 13 5339 4.33200000 1206319113 1206319113 13.00000000
3.38416290 2.51330113 -0.07357935 7 14 5340 4.21600000 1206319116 1206319116 -1.00000000
3.38256574 2.51211500 1.12896872 8 15 5340 4.36200000 1206319118 1206319118 15.00000000
1.84440684 1.36578584 -0.61495405 4 0 5348 2.37600000 1206319139 1206319139 -15.00000000
3.37685585 2.49965405 0.07333501 7 1 5349 4.20200000 1206319141 1206319141 1.00000000
2.16804719 1.60427058 -0.62266451 3 2 5350 2.76800000 1206319143 1206319143 -13.00000000
3.38164163 2.50136995 0.22043905 7 3 5351 4.21200000 1206319146 1206319146 3.00000000
2.61853123 1.93690407 -0.63310426 8 4 5351 3.31800000 1206319148 1206319148 -11.00000000
3.39626002 2.51126599 0.36954036 7 5 5352 4.24000000 1206319150 1206319150 5.00000000
3.29938745 2.43874574 -0.64982879 9 6 5353 4.15400000 1206319152 1206319152 -9.00000000
3.40385318 2.51504326 0.51965088 7 7 5354 4.26400000 1206319155 1206319155 7.00000000
3.37555051 2.49322009 -0.51526356 8 8 5355 4.22800000 1206319157 1206319157 -7.00000000
3.40669775 2.51622605 0.67079097 8 9 5355 4.28800000 1206319159 1206319159 9.00000000
3.38679266 2.50061035 -0.36832017 9 10 5356 4.22600000 1206319162 1206319162 -5.00000000
3.40719938 2.51475883 0.82314998 8 11 5357 4.31400000 1206319164 1206319164 11.00000000
3.37826633 2.49249339 -0.22002035 8 12 5358 4.20400000 1206319166 1206319166 -3.00000000
3.40797448 2.51349378 0.97763729 8 13 5359 4.34600000 1206319169 1206319169 13.00000000
3.40257263 2.50859284 -0.07378878 7 14 5360 4.22800000 1206319171 1206319171 -1.00000000
3.41774797 2.51978111 1.13776851 8 15 5360 4.39600000 1206319173 1206319173 15.00000000
1.85071957 1.36048353 -0.61547166 3 0 5368 2.37800000 1206319194 1206319194 -15.00000000
3.40489745 2.50206089 0.07375387 7 1 5369 4.22600000 1206319196 1206319196 1.00000000
2.18305731 1.60361493 -0.62536395 3 2 5370 2.78000000 1206319199 1206319199 -13.00000000
3.41771984 2.50964665 0.22221847 7 3 5371 4.24600000 1206319201 1206319201 3.00000000
2.62052894 1.92426586 -0.63195938 5 4 5371 3.31200000 1206319203 1206319203 -11.00000000
3.42267275 2.51236415 0.37145779 7 5 5372 4.26200000 1206319205 1206319205 5.00000000
3.30310225 2.42370820 -0.64889014 9 6 5373 4.14800000 1206319208 1206319208 -9.00000000
3.42701745 2.51371312 0.52184451 7 7 5374 4.28200000 1206319210 1206319210 7.00000000
3.40024137 2.49316025 -0.51770097 8 8 5375 4.24800000 1206319212 1206319212 -7.00000000
3.42067695 2.50722623 0.67172956 8 9 5376 4.29400000 1206319215 1206319215 9.00000000
3.40996337 2.49937367 -0.36988896 9 10 5376 4.24400000 1206319217 1206319217 -5.00000000
3.43337703 2.51561379 0.82734782 8 11 5377 4.33600000 1206319219 1206319219 11.00000000
3.41272688 2.49956846 -0.22169511 8 12 5378 4.23600000 1206319222 1206319222 -3.00000000
3.43559575 2.51539683 0.98303610 9 13 5379 4.37000000 1206319224 1206319224 13.00000000
3.40969491 2.49551940 -0.07375387 7 14 5380 4.22600000 1206319226 1206319226 -1.00000000
3.43899441 2.51696324 1.14190960 8 15 5380 4.41200000 1206319228 1206319228 15.00000000
1.83985209 1.34262717 -0.61029530 3 0 5388 2.35800000 1206319249 1206319249 -15.00000000
3.42007279 2.49487448 0.07389349 7 1 5389 4.23400000 1206319252 1206319252 1.00000000
2.19493985 1.60057771 -0.62716353 3 2 5390 2.78800000 1206319254 1206319254 -13.00000000
3.44259906 2.50946617 0.22326519 7 3 5391 4.26600000 1206319256 1206319256 3.00000000
2.63198948 1.91857612 -0.63310426 5 4 5391 3.31800000 1206319258 1206319258 -11.00000000
3.43947291 2.50626826 0.37232932 7 5 5392 4.27200000 1206319261 1206319261 5.00000000
3.31473589 2.41448951 -0.64951593 9 6 5393 4.15200000 1206319263 1206319263 -9.00000000
3.45342350 2.51458859 0.52452564 7 7 5394 4.30400000 1206319265 1206319265 7.00000000
3.42497301 2.49295807 -0.52013838 8 8 5395 4.26800000 1206319268 1206319268 -7.00000000
3.45017290 2.51037931 0.67579687 8 9 5396 4.32000000 1206319270 1206319270 9.00000000
3.42350006 2.49097204 -0.37041190 9 10 5396 4.25000000 1206319272 1206319272 -5.00000000
3.46118975 2.51747155 0.83192724 8 11 5397 4.36000000 1206319275 1206319275 11.00000000
3.44081616 2.50173473 -0.22295117 8 12 5398 4.26000000 1206319277 1206319277 -3.00000000
3.45854259 2.51370049 0.98708522 9 13 5399 4.38800000 1206319279 1206319279 13.00000000
3.43779850 2.49770689 -0.07417273 7 14 5400 4.25000000 1206319281 1206319281 -1.00000000
3.44819641 2.50434184 1.14190960 8 15 5401 4.41200000 1206319284 1206319284 15.00000000
1.85704339 1.34526336 -0.61443639 3 0 5408 2.37400000 1206319305 1206319305 -15.00000000
3.44333744 2.49347663 0.07420763 7 1 5409 4.25200000 1206319307 1206319307 1.00000000
2.19104218 1.58605003 -0.62446415 3 2 5410 2.77600000 1206319309 1206319309 -13.00000000
3.47399068 2.51382589 0.22473060 7 3 5411 4.29400000 1206319311 1206319311 3.00000000
2.64662313 1.91513169 -0.63501233 5 4 5411 3.32800000 1206319314 1206319314 -11.00000000
3.46434379 2.50592422 0.37407246 7 5 5412 4.29200000 1206319316 1206319316 5.00000000
3.31033778 2.39364433 -0.64701295 9 6 5413 4.13600000 1206319318 1206319318 -9.00000000
3.47183275 2.50949574 0.52598810 7 7 5414 4.31600000 1206319321 1206319321 7.00000000
3.45618057 2.49726391 -0.52355069 8 8 5415 4.29600000 1206319323 1206319323 -7.00000000
3.48453641 2.51682687 0.68080276 8 9 5416 4.35200000 1206319325 1206319325 9.00000000
3.45640159 2.49650550 -0.37302658 9 10 5416 4.28000000 1206319328 1206319328 -5.00000000
3.47473145 2.50882220 0.83307207 8 11 5417 4.36600000 1206319330 1206319330 11.00000000
3.45438647 2.49321556 -0.22326519 8 12 5418 4.26600000 1206319332 1206319332 -3.00000000
3.49100113 2.51871586 0.99383378 9 13 5419 4.41800000 1206319334 1206319334 13.00000000
3.46271515 2.49738884 -0.07452177 7 14 5420 4.27000000 1206319337 1206319337 -1.00000000
3.48625231 2.51436448 1.15174472 8 15 5420 4.45000000 1206319339 1206319339 15.00000000
1.86015952 1.33764505 -0.61391878 4 0 5428 2.37200000 1206319360 1206319360 -15.00000000
3.47150469 2.49544811 0.07462649 7 1 5429 4.27600000 1206319362 1206319362 1.00000000
2.19973016 1.58066654 -0.62536395 3 2 5430 2.78000000 1206319364 1206319364 -13.00000000
3.48923302 2.50634503 0.22514929 7 3 5431 4.30200000 1206319367 1206319367 3.00000000
2.64850855 1.90244555 -0.63386750 5 4 5431 3.32200000 1206319369 1206319369 -11.00000000
3.50220108 2.51473355 0.37721005 7 5 5432 4.32800000 1206319371 1206319371 5.00000000
3.32830167 2.38898587 -0.64889014 9 6 5433 4.14800000 1206319374 1206319374 -9.00000000
3.49831295 2.51009130 0.52866924 7 7 5434 4.33800000 1206319376 1206319376 7.00000000
3.47616816 2.49328303 -0.52525687 8 8 5435 4.31000000 1206319378 1206319378 -7.00000000
3.50614357 2.51385641 0.68330574 8 9 5436 4.36800000 1206319381 1206319381 9.00000000
3.47804856 2.49371266 -0.37442106 9 10 5436 4.29600000 1206319383 1206319383 -5.00000000
3.50102067 2.50925827 0.83726984 8 11 5437 4.38800000 1206319385 1206319385 11.00000000
3.46956253 2.48579502 -0.22368388 8 12 5438 4.27400000 1206319387 1206319387 -3.00000000
3.51086211 2.51445746 0.99698305 9 13 5439 4.43200000 1206319390 1206319390 13.00000000
3.48767090 2.49692726 -0.07487082 7 14 5440 4.29000000 1206319392 1206319392 -1.00000000
3.52328205 2.52242231 1.16106224 8 15 5440 4.48600000 1206319394 1206319394 15.00000000
1.86906862 1.33516335 -0.61547166 4 0 5446 2.37800000 1206319415 1206319415 -15.00000000
3.49722838 2.49731255 0.07501044 7 1 5447 4.29800000 1206319417 1206319417 1.00000000
2.20151305 1.57148373 -0.62446415 3 2 5448 2.77600000 1206319420 1206319420 -13.00000000
3.51453567 2.50874543 0.22630067 7 3 5448 4.32400000 1206319422 1206319422 3.00000000
2.64807963 1.88955426 -0.63234103 5 4 5449 3.31400000 1206319424 1206319424 -11.00000000
3.52306032 2.51297450 0.37860456 7 5 5450 4.34400000 1206319427 1206319427 5.00000000
3.33579040 2.37851787 -0.64889014 9 6 5451 4.14800000 1206319429 1206319429 -9.00000000
3.52234650 2.51061058 0.53110659 7 7 5452 4.35800000 1206319431 1206319431 7.00000000
3.49045062 2.48695779 -0.52623183 8 8 5453 4.31800000 1206319433 1206319433 -7.00000000
3.52645707 2.51261258 0.68580872 8 9 5453 4.38400000 1206319436 1206319436 9.00000000
3.50533962 2.49664402 -0.37651280 10 10 5454 4.32000000 1206319438 1206319438 -5.00000000
3.54087257 2.52102065 0.84490222 8 11 5455 4.42800000 1206319440 1206319440 11.00000000
3.49688125 2.48878026 -0.22493994 8 12 5456 4.29800000 1206319443 1206319443 -3.00000000
3.53621078 2.51584196 1.00193202 9 13 5457 4.45400000 1206319445 1206319445 13.00000000
3.50690532 2.49407077 -0.07511516 7 14 5458 4.30400000 1206319447 1206319447 -1.00000000
3.54693222 2.52253747 1.16623867 8 15 5458 4.50600000 1206319450 1206319450 15.00000000
1.86899018 1.32527864 -0.61391878 4 0 5466 2.37200000 1206319470 1206319470 -15.00000000
3.52876425 2.50127935 0.07549911 7 1 5467 4.32600000 1206319473 1206319473 1.00000000
2.21652532 1.57054937 -0.62716353 3 2 5468 2.78800000 1206319475 1206319475 -13.00000000
3.54000545 2.50739121 0.22734739 7 3 5469 4.34400000 1206319477 1206319477 3.00000000
2.64985299 1.87689495 -0.63119614 5 4 5469 3.30800000 1206319480 1206319480 -11.00000000
3.54481936 2.50987196 0.37999904 7 5 5470 4.36000000 1206319482 1206319482 5.00000000
3.34246039 2.36571813 -0.64857727 9 6 5471 4.14600000 1206319484 1206319484 -9.00000000
3.55053473 2.51205850 0.53403145 7 7 5472 4.38200000 1206319486 1206319486 7.00000000
3.52990389 2.49653745 -0.53086287 8 8 5473 4.35600000 1206319489 1206319489 -7.00000000
3.53725576 2.50081110 0.68612158 8 9 5474 4.38600000 1206319491 1206319491 9.00000000
3.52379441 2.49129415 -0.37755868 10 10 5474 4.33200000 1206319493 1206319493 -5.00000000
3.56247735 2.51770997 0.84795517 8 11 5475 4.44400000 1206319496 1206319496 11.00000000
3.52512240 2.49038768 -0.22619601 8 12 5476 4.32200000 1206319498 1206319498 -3.00000000
3.56407309 2.51697278 1.00733078 8 13 5477 4.47800000 1206319500 1206319500 13.00000000
3.52212453 2.48642707 -0.07525478 7 14 5478 4.31200000 1206319503 1206319503 -1.00000000
3.56088924 2.51286197 1.16779149 8 15 5479 4.51200000 1206319505 1206319505 15.00000000
1.86728573 1.31429887 -0.61184824 4 0 5486 2.36400000 1206319526 1206319526 -15.00000000
3.54565120 2.49469995 0.07567363 7 1 5487 4.33600000 1206319528 1206319528 1.00000000
2.22199416 1.56280267 -0.62716353 3 2 5488 2.78800000 1206319530 1206319530 -13.00000000
3.56627107 2.50827742 0.22849879 7 3 5488 4.36600000 1206319533 1206319533 3.00000000
2.66763067 1.87553787 -0.63386750 5 4 5489 3.32200000 1206319535 1206319535 -11.00000000
3.55355883 2.49748302 0.37999904 7 5 5490 4.36000000 1206319537 1206319537 5.00000000
3.33615065 2.34381628 -0.64576149 9 6 5491 4.12800000 1206319539 1206319539 -9.00000000
3.58364940 2.51676250 0.53768754 7 7 5492 4.41200000 1206319542 1206319542 7.00000000
3.55484390 2.49560642 -0.53330022 8 8 5493 4.37600000 1206319544 1206319544 -7.00000000
3.57506871 2.50887346 0.69175321 8 9 5494 4.42200000 1206319546 1206319546 9.00000000
3.54877806 2.49042344 -0.37930179 10 10 5494 4.35200000 1206319549 1206319549 -5.00000000
3.59374499 2.52104402 0.85329783 9 11 5495 4.47200000 1206319551 1206319551 11.00000000
3.55995822 2.49641514 -0.22787075 8 12 5496 4.35400000 1206319553 1206319553 -3.00000000
3.58879447 2.51570249 1.01182985 8 13 5497 4.49800000 1206319556 1206319556 13.00000000
3.55534697 2.49133086 -0.07577835 7 14 5498 4.34200000 1206319558 1206319558 -1.00000000
3.58185935 2.50990868 1.17193258 8 15 5498 4.52800000 1206319560 1206319560 15.00000000
1.87027848 1.30666649 -0.61133057 4 0 5506 2.36200000 1206319581 1206319581 -15.00000000
3.56581378 2.49032283 0.07591797 7 1 5507 4.35000000 1206319583 1206319583 1.00000000
2.22424006 1.55280590 -0.62626374 3 2 5508 2.78400000 1206319585 1206319585 -13.00000000
3.59629440 2.51067638 0.22985952 7 3 5508 4.39200000 1206319588 1206319588 3.00000000
2.67094135 1.86396766 -0.63310426 5 4 5509 3.31800000 1206319590 1206319590 -11.00000000
3.59493613 2.50786233 0.38348526 7 5 5510 4.40000000 1206319592 1206319592 5.00000000
3.33783054 2.32763696 -0.64450997 9 6 5511 4.12000000 1206319595 1206319595 -9.00000000
3.60218334 2.51104903 0.53915000 7 7 5512 4.42400000 1206319597 1206319597 7.00000000
3.58470631 2.49793649 -0.53646886 8 8 5513 4.40200000 1206319599 1206319599 -7.00000000
3.59839249 2.50654054 0.69456905 8 9 5514 4.44000000 1206319602 1206319602 9.00000000
3.57052851 2.48713112 -0.38069630 10 10 5514 4.36800000 1206319604 1206319604 -5.00000000
3.60896778 2.51297164 0.85482430 9 11 5515 4.48000000 1206319606 1206319606 11.00000000
3.57848620 2.49081945 -0.22849879 8 12 5516 4.36600000 1206319609 1206319609 -3.00000000
3.62154841 2.51985502 1.01857841 8 13 5517 4.52800000 1206319611 1206319611 13.00000000
3.58700490 2.49489069 -0.07626702 7 14 5518 4.37000000 1206319613 1206319613 -1.00000000
3.60804415 2.50952435 1.17762661 8 15 5518 4.55000000 1206319615 1206319615 15.00000000
1.88594067 1.30783606 -0.61495405 4 0 5526 2.37600000 1206319636 1206319636 -15.00000000
3.60406685 2.49836707 0.07654625 7 1 5527 4.38600000 1206319638 1206319638 1.00000000
2.21683264 1.53615284 -0.62266451 3 2 5528 2.76800000 1206319641 1206319641 -13.00000000
3.61696506 2.50543952 0.23059222 7 3 5529 4.40600000 1206319643 1206319643 3.00000000
2.68065929 1.85686874 -0.63386750 5 4 5529 3.32200000 1206319645 1206319645 -11.00000000
3.62168670 2.50777483 0.38540271 7 5 5530 4.42200000 1206319648 1206319648 5.00000000
3.35568070 2.32271719 -0.64638722 9 6 5531 4.13200000 1206319650 1206319650 -9.00000000
3.62398601 2.50749588 0.54109991 7 7 5532 4.44000000 1206319652 1206319652 7.00000000
3.60483217 2.49331260 -0.53817505 8 8 5533 4.41600000 1206319655 1206319655 -7.00000000
3.63105416 2.51144934 0.69926208 8 9 5533 4.47000000 1206319657 1206319657 9.00000000
3.61032605 2.49618101 -0.38400820 10 10 5534 4.40600000 1206319659 1206319659 -5.00000000
3.63548326 2.51263714 0.85902208 9 11 5535 4.50200000 1206319662 1206319662 11.00000000
3.60687757 2.49193645 -0.22975485 8 12 5536 4.39000000 1206319664 1206319664 -3.00000000
3.64315033 2.51605749 1.02217758 8 13 5537 4.54400000 1206319666 1206319666 13.00000000
3.63354111 2.50848460 -0.07706983 7 14 5538 4.41600000 1206319668 1206319668 -1.00000000
3.63788772 2.51054788 1.18435597 8 15 5539 4.57600000 1206319671 1206319671 15.00000000
1.89208567 1.30234027 -0.61547166 4 0 5546 2.37800000 1206319691 1206319691 -15.00000000
3.62759256 2.49597287 0.07686040 7 1 5547 4.40400000 1206319694 1206319694 1.00000000
2.23342085 1.53613567 -0.62581384 4 2 5548 2.78200000 1206319696 1206319696 -13.00000000
3.63348150 2.49909043 0.23111558 7 3 5548 4.41600000 1206319698 1206319698 3.00000000
2.67903590 1.84193885 -0.63195938 5 4 5549 3.31200000 1206319701 1206319701 -11.00000000
3.64683819 2.50640249 0.38714582 7 5 5550 4.44200000 1206319703 1206319703 5.00000000
3.36213994 2.30987096 -0.64607435 6 6 5551 4.13000000 1206319705 1206319705 -9.00000000
3.64580774 2.50382090 0.54304981 7 7 5552 4.45600000 1206319708 1206319708 7.00000000
3.62333298 2.48745537 -0.53963745 8 8 5553 4.42800000 1206319710 1206319710 -7.00000000
3.64674973 2.50259495 0.70051354 8 9 5554 4.47800000 1206319712 1206319712 9.00000000
3.63708782 2.49596429 -0.38592562 10 10 5554 4.42800000 1206319715 1206319715 -5.00000000
3.66365933 2.51325870 0.86360151 9 11 5555 4.52600000 1206319717 1206319717 11.00000000
3.64026165 2.49627399 -0.23132493 8 12 5556 4.42000000 1206319719 1206319719 -3.00000000
3.65834022 2.50773239 1.02397716 8 13 5557 4.55200000 1206319721 1206319721 13.00000000
3.64887357 2.50030708 -0.07720944 7 14 5558 4.42400000 1206319724 1206319724 -1.00000000
3.67053604 2.51420951 1.19212055 8 15 5559 4.60600000 1206319726 1206319726 15.00000000
1.89798903 1.29714882 -0.61598933 4 0 5565 2.38000000 1206319747 1206319747 -15.00000000
3.66391921 2.50310612 0.07745378 7 1 5566 4.43800000 1206319749 1206319749 1.00000000
2.23045611 1.52322590 -0.62356430 4 2 5567 2.77200000 1206319751 1206319751 -13.00000000
3.66483974 2.50279689 0.23258099 7 3 5567 4.44400000 1206319754 1206319754 3.00000000
2.68026471 1.82972395 -0.63081455 5 4 5568 3.30600000 1206319756 1206319756 -11.00000000
3.67158675 2.50552583 0.38888893 8 5 5569 4.46200000 1206319758 1206319758 5.00000000
3.37957239 2.30538797 -0.64795154 6 6 5570 4.14200000 1206319761 1206319761 -9.00000000
3.68033195 2.50961113 0.54694963 7 7 5571 4.48800000 1206319763 1206319763 7.00000000
3.65780592 2.49331546 -0.54353726 8 8 5572 4.46000000 1206319765 1206319765 -7.00000000
3.66765189 2.50002694 0.70301646 8 9 5572 4.49400000 1206319768 1206319768 9.00000000
3.65851665 2.49286485 -0.38732013 10 10 5573 4.44400000 1206319770 1206319770 -5.00000000
3.69631267 2.51767397 0.86932576 9 11 5574 4.55600000 1206319772 1206319772 11.00000000
3.66502881 2.49542928 -0.23237164 8 12 5575 4.44000000 1206319774 1206319774 -3.00000000
3.68918991 2.51093769 1.03027582 9 13 5576 4.58000000 1206319777 1206319777 13.00000000
3.66045141 2.49044299 -0.07727925 7 14 5577 4.42800000 1206319779 1206319779 -1.00000000
3.70121717 2.51723361 1.19936740 8 15 5578 4.63400000 1206319781 1206319781 15.00000000
1.89291286 1.28400886 -0.61288351 4 0 5585 2.36800000 1206319802 1206319802 -15.00000000
3.67925477 2.49479055 0.07759340 8 1 5586 4.44600000 1206319804 1206319804 1.00000000
2.24221206 1.51980448 -0.62536395 3 2 5587 2.78000000 1206319807 1206319807 -13.00000000
3.69504619 2.50455689 0.23394172 7 3 5587 4.47000000 1206319809 1206319809 3.00000000
2.68826079 1.82145822 -0.63119614 5 4 5588 3.30800000 1206319811 1206319811 -11.00000000
3.69515705 2.50274992 0.39045772 8 5 5589 4.48000000 1206319814 1206319814 5.00000000
3.38105607 2.28914714 -0.64670008 6 6 5590 4.13400000 1206319816 1206319816 -9.00000000
3.70879722 2.51010060 0.54987448 8 7 5591 4.51200000 1206319818 1206319818 7.00000000
3.68292856 2.49165583 -0.54597467 8 8 5592 4.48000000 1206319821 1206319821 -7.00000000
3.69762564 2.50159883 0.70708376 8 9 5592 4.52000000 1206319823 1206319823 9.00000000
3.67379761 2.48454356 -0.38801736 10 10 5593 4.45200000 1206319825 1206319825 -5.00000000
3.70345187 2.50365663 0.86894417 9 11 5594 4.55400000 1206319827 1206319827 11.00000000
3.69357514 2.49604034 -0.23362771 8 12 5595 4.46400000 1206319830 1206319830 -3.00000000
3.72215462 2.51440763 1.03702438 10 13 5596 4.61000000 1206319832 1206319832 13.00000000
3.69563818 2.49555588 -0.07783774 7 14 5597 4.46000000 1206319834 1206319834 -1.00000000
3.71958852 2.51078367 1.20247328 8 15 5598 4.64600000 1206319837 1206319837 15.00000000
1.89417827 1.27523577 -0.61184824 4 0 5605 2.36400000 1206319857 1206319857 -15.00000000
3.70121264 2.49086428 0.07787263 8 1 5606 4.46200000 1206319860 1206319860 1.00000000
2.24103570 1.50761735 -0.62356430 4 2 5607 2.77200000 1206319862 1206319862 -13.00000000
3.72862363 2.50836587 0.23551181 7 3 5607 4.50000000 1206319864 1206319864 3.00000000
2.69623160 1.81315887 -0.63157779 5 4 5608 3.31000000 1206319867 1206319867 -11.00000000
3.72536635 2.50428629 0.39272377 8 5 5609 4.50600000 1206319869 1206319869 5.00000000
3.38082814 2.27182221 -0.64513576 9 6 5610 4.12400000 1206319871 1206319871 -9.00000000
3.73071933 2.50599432 0.55182439 8 7 5611 4.52800000 1206319873 1206319873 7.00000000
3.71467614 2.49427700 -0.54938698 8 8 5612 4.50800000 1206319876 1206319876 -7.00000000
3.72929502 2.50409317 0.71146393 8 9 5612 4.54800000 1206319878 1206319878 9.00000000
3.69733667 2.48169804 -0.38958618 10 10 5613 4.47000000 1206319880 1206319880 -5.00000000
3.74477458 2.51259089 0.87657654 9 11 5614 4.59400000 1206319883 1206319883 11.00000000
3.71553516 2.49203229 -0.23446508 8 12 5615 4.48000000 1206319885 1206319885 -3.00000000
3.75680661 2.51876283 1.04422283 9 13 5616 4.64200000 1206319887 1206319887 13.00000000
3.71761584 2.49154687 -0.07811697 7 14 5617 4.47600000 1206319890 1206319890 -1.00000000
3.76319933 2.52209687 1.21386135 8 15 5617 4.69000000 1206319892 1206319892 15.00000000
1.90504324 1.27290916 -0.61391878 4 0 5625 2.37200000 1206319913 1206319913 -15.00000000
3.73316526 2.49347901 0.07836130 8 1 5626 4.49000000 1206319915 1206319915 1.00000000
2.23980188 1.49545717 -0.62176472 4 2 5627 2.76400000 1206319917 1206319917 -13.00000000
3.74898410 2.50309873 0.23624450 7 3 5627 4.51400000 1206319920 1206319920 3.00000000
2.70581007 1.80591595 -0.63234103 5 4 5628 3.31400000 1206319922 1206319922 -11.00000000
3.76060343 2.50895905 0.39551276 8 5 5629 4.53800000 1206319924 1206319924 5.00000000
3.39531136 2.26439118 -0.64638722 9 6 5630 4.13200000 1206319926 1206319926 -9.00000000
3.74770260 2.49846196 0.55304307 8 7 5631 4.53800000 1206319929 1206319929 7.00000000
3.73657537 2.49010205 -0.55133688 8 8 5632 4.52400000 1206319931 1206319931 -7.00000000
3.76431394 2.50858736 0.71646982 8 9 5632 4.58000000 1206319933 1206319933 9.00000000
3.73250723 2.48645043 -0.39237514 10 10 5633 4.50200000 1206319936 1206319936 -5.00000000
3.77149725 2.51147366 0.88077432 9 11 5634 4.61600000 1206319938 1206319938 11.00000000
3.73252439 2.48458099 -0.23498844 8 12 5635 4.49000000 1206319940 1206319940 -3.00000000
3.77693272 2.51319051 1.04737210 8 13 5636 4.65600000 1206319943 1206319943 13.00000000
3.75459552 2.49738193 -0.07871035 7 14 5637 4.51000000 1206319945 1206319945 -1.00000000
3.78528762 2.51684403 1.21800244 8 15 5638 4.70600000 1206319947 1206319947 15.00000000
1.91591501 1.27052224 -0.61598933 4 0 5645 2.38000000 1206319968 1206319968 -15.00000000
3.75851369 2.49148130 0.07871035 8 1 5646 4.51000000 1206319970 1206319970 1.00000000
2.25150633 1.49193537 -0.62356430 3 2 5647 2.77200000 1206319973 1206319973 -13.00000000
3.76812387 2.49595881 0.23687254 7 3 5648 4.52600000 1206319975 1206319975 3.00000000
2.70718718 1.79320741 -0.63119614 5 4 5648 3.30800000 1206319977 1206319977 -11.00000000
3.78262830 2.50461650 0.39690724 6 5 5649 4.55400000 1206319979 1206319979 5.00000000
3.40319490 2.25252557 -0.64638722 9 6 5650 4.13200000 1206319982 1206319982 -9.00000000
3.77461195 2.49741387 0.55572420 8 7 5651 4.56000000 1206319984 1206319984 7.00000000
3.75517893 2.48361421 -0.55279934 8 8 5652 4.53600000 1206319986 1206319986 -7.00000000
3.78787637 2.50523949 0.71928567 8 9 5652 4.59800000 1206319989 1206319989 9.00000000
3.77107978 2.49318480 -0.39551276 10 10 5653 4.53800000 1206319991 1206319991 -5.00000000
8.64967632 5.71641588 2.01532459 21 11 5654 10.56200000 1206319993 1206319993 11.00000000
3.76450467 2.48694968 -0.23645385 8 12 5655 4.51800000 1206319996 1206319996 -3.00000000
3.76829672 2.48756576 -0.07881507 7 14 5657 4.51600000 1206320000 1206320000 -1.00000000
6.24261332 4.12093639 2.00429463 9 15 5657 7.74400000 1206320003 1206320003 15.00000000
1.91065586 1.25745451 -0.61288351 4 0 5665 2.36800000 1206320023 1206320023 -15.00000000
8.24437809 5.42378664 0.17225525 13 1 5666 9.87000000 1206320026 1206320026 1.00000000
2.25670028 1.48406708 -0.62356430 3 2 5667 2.77200000 1206320028 1206320028 -13.00000000
2.70850849 1.78051126 -0.63005131 6 4 5668 3.30200000 1206320032 1206320032 -11.00000000
8.28202248 5.44234133 0.86702532 85 5 5669 9.94800000 1206320035 1206320035 5.00000000
3.40938592 2.23954797 -0.64607435 6 6 5670 4.13000000 1206320037 1206320037 -9.00000000
8.33323002 5.47182751 1.22405565 2 7 5671 10.04400000 1206320039 1206320039 7.00000000
3.78208041 2.48247313 -0.55548048 4 8 5672 4.55800000 1206320042 1206320042 -7.00000000
3.80141544 2.49421501 -0.39777881 5 10 5673 4.56400000 1206320046 1206320046 -5.00000000
8.68435287 5.69587851 2.01875925 40 11 5674 10.58000000 1206320049 1206320049 11.00000000
8.23949146 5.40204763 -0.51634657 12 12 5675 9.86600000 1206320051 1206320051 -3.00000000
8.29125500 5.43391609 2.28865194 60 13 5676 10.17400000 1206320053 1206320053 13.00000000
8.23470306 5.39479876 -0.17183639 14 14 5677 9.84600000 1206320056 1206320056 -1.00000000
6.28030109 4.11284590 2.01154160 9 15 5678 7.77200000 1206320058 1206320058 15.00000000
1.91179872 1.24866462 -0.61184824 4 0 5685 2.36400000 1206320079 1206320079 -15.00000000
8.23646927 5.37748432 0.17169677 13 1 5686 9.83800000 1206320081 1206320081 1.00000000
2.26513076 1.47831082 -0.62446415 3 2 5687 2.77600000 1206320083 1206320083 -13.00000000
8.26678181 5.39316034 0.51728857 89 3 5688 9.88400000 1206320085 1206320085 3.00000000
2.72786140 1.77962768 -0.63310426 11 4 5688 3.31800000 1206320088 1206320088 -11.00000000
8.25090313 5.38074827 0.86179596 65 5 5689 9.88800000 1206320090 1206320090 5.00000000
3.40890861 2.22223949 -0.64450997 9 6 5690 4.12000000 1206320092 1206320092 -9.00000000
8.35227966 5.44270563 1.22405565 2 7 5691 10.04400000 1206320095 1206320095 7.00000000
4.60076332 2.99691200 -0.67418122 4 8 5692 5.53200000 1206320097 1206320097 -7.00000000
7.06087112 4.59765768 -0.73716325 13 10 5693 8.45800000 1206320102 1206320102 -5.00000000
8.68608284 5.65374899 2.01456141 40 11 5694 10.55800000 1206320104 1206320104 11.00000000
8.24992752 5.36780739 -0.51582319 12 12 5695 9.85600000 1206320106 1206320106 -3.00000000
8.30527115 5.40175343 2.28730226 78 13 5696 10.16800000 1206320109 1206320109 13.00000000
8.23168945 5.35185146 -0.17138264 12 14 5697 9.82000000 1206320111 1206320111 -1.00000000
7.40335608 4.81330872 2.36612368 40 15 5697 9.14200000 1206320113 1206320113 15.00000000
1.91776681 1.24303436 -0.61236584 4 0 5705 2.36600000 1206320134 1206320134 -15.00000000
8.22833824 5.33130312 0.17113830 13 1 5706 9.80600000 1206320136 1206320136 1.00000000
2.27027726 1.47039509 -0.62446415 3 2 5707 2.77600000 1206320138 1206320138 -13.00000000
8.26879215 5.35341644 0.51624185 100 3 5708 9.86400000 1206320141 1206320141 3.00000000
2.72416878 1.76369309 -0.63081455 9 4 5708 3.30600000 1206320143 1206320143 -11.00000000
8.25123596 5.34000683 0.85987854 81 5 5709 9.86600000 1206320145 1206320145 5.00000000
3.41166925 2.20710778 -0.64357138 6 6 5710 4.11400000 1206320148 1206320148 -9.00000000
8.33788967 5.39195824 1.21918094 2 7 5711 10.00400000 1206320150 1206320150 7.00000000
4.59952688 2.97329021 -0.67247504 6 8 5712 5.51800000 1206320152 1206320152 -7.00000000
7.06348944 4.56433153 -0.73576880 13 10 5713 8.44200000 1206320157 1206320157 -5.00000000
8.68597507 5.61061144 2.00998187 46 11 5714 10.53400000 1206320159 1206320159 11.00000000
8.23505688 5.31730890 -0.51372975 12 12 5715 9.81600000 1206320161 1206320161 -3.00000000
8.30770302 5.36216164 2.28280330 76 13 5716 10.14800000 1206320164 1206320164 13.00000000
8.24023914 5.31658030 -0.17117320 12 14 5717 9.80800000 1206320166 1206320166 -1.00000000
7.42094803 4.78614187 2.36612368 40 15 5718 9.14200000 1206320168 1206320168 15.00000000
1.92350292 1.23771334 -0.61288351 4 0 5724 2.36800000 1206320189 1206320189 -15.00000000
8.23419952 5.29641533 0.17089397 13 1 5725 9.79200000 1206320191 1206320191 1.00000000
2.26530600 1.45653486 -0.62176472 3 2 5726 2.76400000 1206320194 1206320194 -13.00000000
8.25961685 5.30868864 0.51456714 100 3 5727 9.83200000 1206320196 1206320196 3.00000000
2.73000240 1.75464964 -0.63081455 9 4 5727 3.30600000 1206320198 1206320198 -11.00000000
8.24878407 5.29969215 0.85778683 81 5 5728 9.84200000 1206320201 1206320201 5.00000000
3.42229366 2.19791722 -0.64419711 6 6 5729 4.11800000 1206320203 1206320203 -9.00000000
8.34068966 5.35462761 1.21698725 2 7 5730 9.98600000 1206320205 1206320205 7.00000000
4.62439728 2.96767068 -0.67466867 4 8 5731 5.53600000 1206320208 1206320208 -7.00000000
7.09200239 4.54948950 -0.73716325 13 10 5732 8.45800000 1206320212 1206320212 -5.00000000
8.70287991 5.58071709 2.00960040 43 11 5733 10.53200000 1206320214 1206320214 11.00000000
8.22405910 5.27164841 -0.51195031 12 12 5734 9.78200000 1206320217 1206320217 -3.00000000
8.29918671 5.31776142 2.27560496 78 13 5735 10.11600000 1206320219 1206320219 13.00000000
8.23761749 5.27628279 -0.17075434 14 14 5736 9.78400000 1206320221 1206320221 -1.00000000
7.42944050 4.75863695 2.36405325 42 15 5736 9.13400000 1206320224 1206320224 15.00000000
1.93106806 1.23307085 -0.61391878 4 0 5744 2.37200000 1206320244 1206320244 -15.00000000
8.24083805 5.26010895 0.17064963 13 1 5745 9.77800000 1206320247 1206320247 1.00000000
2.27037644 1.44861853 -0.62176472 3 2 5746 2.76400000 1206320249 1206320249 -13.00000000
8.23936749 5.25512266 0.51215965 94 3 5747 9.78600000 1206320251 1206320251 3.00000000
2.73114491 1.74194229 -0.62966967 6 4 5747 3.30000000 1206320254 1206320254 -11.00000000
8.25715256 5.26443958 0.85674095 85 5 5748 9.83000000 1206320256 1206320256 5.00000000
3.42827916 2.18489599 -0.64388424 6 6 5749 4.11600000 1206320258 1206320258 -9.00000000
8.33756542 5.31161499 1.21381867 2 7 5750 9.96000000 1206320261 1206320261 7.00000000
4.61630964 2.93978119 -0.67198753 6 8 5751 5.51400000 1206320263 1206320263 -7.00000000
7.10447836 4.52256632 -0.73681468 13 10 5752 8.45400000 1206320267 1206320267 -5.00000000
8.71402550 5.54503441 2.00769234 40 11 5753 10.52200000 1206320270 1206320270 11.00000000
8.22050285 5.22897339 -0.51058960 17 12 5754 9.75600000 1206320272 1206320272 -3.00000000
8.29631996 5.27516603 2.26975608 73 13 5755 10.09000000 1206320274 1206320274 13.00000000
8.23404503 5.23355103 -0.17030059 16 14 5756 9.75800000 1206320277 1206320277 -1.00000000
7.45824575 4.73862648 2.36767673 45 15 5757 9.14800000 1206320279 1206320279 15.00000000
1.93536055 1.22632265 -0.61391878 4 0 5764 2.37200000 1206320300 1206320300 -15.00000000
8.23549843 5.21633053 0.17016096 13 1 5765 9.75000000 1206320302 1206320302 1.00000000
2.28529787 1.44693947 -0.62446415 3 2 5766 2.77600000 1206320304 1206320304 -13.00000000
8.24415970 5.21778488 0.51132232 94 3 5767 9.77000000 1206320307 1206320307 3.00000000
2.73223209 1.72924840 -0.62852484 5 4 5767 3.29400000 1206320309 1206320309 -11.00000000
8.25359058 5.22173643 0.85447490 89 5 5768 9.80400000 1206320311 1206320311 5.00000000
3.44089365 2.17608333 -0.64482284 6 6 5769 4.12200000 1206320314 1206320314 -9.00000000
8.35269928 5.28035736 1.21333122 2 7 5770 9.95600000 1206320316 1206320316 7.00000000
4.62486506 2.92258883 -0.67174381 4 8 5771 5.51200000 1206320318 1206320318 -7.00000000
7.10337734 4.48709917 -0.73507154 13 10 5772 8.43400000 1206320323 1206320323 -5.00000000
8.73000908 5.51248646 2.00692892 25 11 5773 10.51800000 1206320325 1206320325 11.00000000
8.21674919 5.18638802 -0.50922883 17 12 5774 9.73000000 1206320327 1206320327 -3.00000000
8.29985046 5.23681545 2.26570702 68 13 5775 10.07200000 1206320330 1206320330 13.00000000
8.23027611 5.19090939 -0.16984682 16 14 5776 9.73200000 1206320332 1206320332 -1.00000000
7.46901655 4.71077633 2.36612368 45 15 5776 9.14200000 1206320334 1206320334 15.00000000
1.92981672 1.21338975 -0.61081296 4 0 5784 2.36000000 1206320355 1206320355 -15.00000000
8.23503304 5.17584658 0.16977701 13 1 5785 9.72800000 1206320357 1206320357 1.00000000
2.29363489 1.44102681 -0.62536395 3 2 5786 2.78000000 1206320360 1206320360 -13.00000000
8.24710083 5.17941570 0.51038027 89 3 5787 9.75200000 1206320362 1206320362 3.00000000
2.73991418 1.72074473 -0.62890643 5 4 5787 3.29600000 1206320364 1206320364 -11.00000000
