# .PCD v0.7 - Point Cloud Data file format
VERSION 0.7
FIELDS x y z intensity laser_id azimuth distance_m adjustedtime timestamp vertical_angle
SIZE 4 4 4 1 1 2 8 8 4 8
TYPE F F F U U U F U U F
COUNT 1 1 1 1 1 1 1 1 1 1
WIDTH 543
HEIGHT 1
VIEWPOINT 0 0 0 1 0 0 0
POINTS 543
DATA ascii
0.26599255 3.73823309 0.32787991 57 5 407 3.76200000 1206205351 1206205351 5.00000000
0.28573126 4.00576305 -0.63606256 2 6 408 4.06600000 1206205353 1206205353 -9.00000000
0.26943329 3.76800990 0.46383473 60 7 409 3.80600000 1206205355 1206205355 7.00000000
0.50597697 7.05874300 -0.86892843 4 8 410 7.13000000 1206205358 1206205358 -7.00000000
0.29630500 4.12357616 -0.36169633 2 10 411 4.15000000 1206205362 1206205362 -5.00000000
0.76477969 10.61725616 2.06913280 46 11 412 10.84400000 1206205365 1206205365 11.00000000
0.26898453 3.72517586 -0.19573648 4 12 413 3.74000000 1206205367 1206205367 -3.00000000
0.74690676 10.31886482 2.38853025 56 13 414 10.61800000 1206205369 1206205369 13.00000000
0.64338380 8.84576416 2.37647653 42 15 416 9.18200000 1206205374 1206205374 15.00000000
0.16600564 2.24447656 -0.60304838 3 0 423 2.33000000 1206205395 1206205395 -15.00000000
0.27395928 3.69529414 0.06467862 6 1 424 3.70600000 1206205397 1206205397 1.00000000
0.19741966 2.65660238 -0.61501616 3 2 425 2.73400000 1206205399 1206205399 -13.00000000
0.27856207 3.74850535 0.19699255 68 3 425 3.76400000 1206205402 1206205402 3.00000000
0.23669106 3.17755866 -0.61936599 2 4 426 3.24600000 1206205404 1206205404 -11.00000000
0.27948484 3.74324250 0.32840285 61 5 427 3.76800000 1206205406 1206205406 5.00000000
0.30030191 4.01262093 -0.63731402 2 6 428 4.07400000 1206205408 1206205408 -9.00000000
0.28228748 3.76308751 0.46334726 60 7 429 3.80200000 1206205411 1206205411 7.00000000
0.52242732 6.94806099 -0.85552281 4 8 430 7.02000000 1206205413 1206205413 -7.00000000
0.30530676 4.05099344 -0.35542113 2 10 431 4.07800000 1206205418 1206205418 -5.00000000
0.80109674 10.60473442 2.06722474 50 11 432 10.83400000 1206205420 1206205420 11.00000000
0.28047821 3.70429850 -0.19468975 4 12 433 3.72000000 1206205422 1206205422 -3.00000000
0.78292179 10.31619549 2.38853025 59 13 434 10.61800000 1206205425 1206205425 13.00000000
0.28241831 3.71270680 -0.06499276 100 14 435 3.72400000 1206205427 1206205427 -1.00000000
0.67271388 8.84358215 2.37647653 42 15 435 9.18200000 1206205429 1206205429 15.00000000
0.17354088 2.24003124 -0.60201311 3 0 443 2.32600000 1206205450 1206205450 -15.00000000
0.28732103 3.70029640 0.06478333 6 1 444 3.71200000 1206205452 1206205452 1.00000000
0.20593573 2.64618278 -0.61276668 3 2 445 2.72400000 1206205454 1206205454 -13.00000000
0.29102525 3.73954535 0.19657385 68 3 445 3.75600000 1206205457 1206205457 3.00000000
0.24930805 3.19628620 -0.62318218 2 4 446 3.26600000 1206205459 1206205459 -11.00000000
0.29317063 3.75018930 0.32910007 61 5 447 3.77600000 1206205461 1206205461 5.00000000
0.31446105 4.01351738 -0.63762689 2 6 448 4.07600000 1206205464 1206205464 -9.00000000
0.29542139 3.76207924 0.46334726 61 7 449 3.80200000 1206205466 1206205466 7.00000000
0.54449689 6.91848946 -0.85211045 2 8 450 6.99200000 1206205468 1206205468 -7.00000000
0.83857346 10.60774422 2.06836963 46 11 452 10.84000000 1206205475 1206205475 11.00000000
0.29309145 3.69931483 -0.19448042 4 12 453 3.71600000 1206205478 1206205478 -3.00000000
0.81831020 10.30562878 2.38673067 62 13 454 10.61000000 1206205480 1206205480 13.00000000
0.29632816 3.72365880 -0.06520219 100 14 455 3.73600000 1206205482 1206205482 -1.00000000
0.70373291 8.84310532 2.37699413 40 15 455 9.18400000 1206205484 1206205484 15.00000000
0.18245058 2.25289059 -0.60563654 4 0 463 2.34000000 1206205505 1206205505 -15.00000000
0.29991218 3.69528461 0.06471352 6 1 464 3.70800000 1206205507 1206205507 1.00000000
0.21517138 2.64544773 -0.61276668 3 2 465 2.72400000 1206205510 1206205510 -13.00000000
0.30408037 3.73049092 0.19615516 63 3 466 3.74800000 1206205512 1206205512 3.00000000
0.26014465 3.19148302 -0.62241894 2 4 466 3.26200000 1206205514 1206205514 -11.00000000
0.30625945 3.74914312 0.32910007 63 5 467 3.77600000 1206205517 1206205517 5.00000000
0.32782423 4.00451994 -0.63637543 2 6 468 4.06800000 1206205519 1206205519 -9.00000000
0.30855170 3.76102495 0.46334726 58 7 469 3.80200000 1206205521 1206205521 7.00000000
0.57352328 6.97589922 -0.85942262 2 8 470 7.05200000 1206205524 1206205524 -7.00000000
0.42944995 5.21236086 -0.45756766 3 10 471 5.25000000 1206205528 1206205528 -5.00000000
0.87543470 10.60279560 2.06798792 50 11 472 10.83800000 1206205531 1206205531 11.00000000
0.30600268 3.69826937 -0.19448042 4 12 473 3.71600000 1206205533 1206205533 -3.00000000
0.85363448 10.29494095 2.38493109 62 13 474 10.60200000 1206205535 1206205535 13.00000000
0.30932435 3.72260165 -0.06520219 100 14 475 3.73600000 1206205537 1206205537 -1.00000000
0.73758256 8.85779381 2.38165283 45 15 476 9.20200000 1206205540 1206205540 15.00000000
0.19015086 2.25031495 -0.60511893 4 0 483 2.33800000 1206205560 1206205560 -15.00000000
0.31483397 3.71812606 0.06513238 6 1 484 3.73200000 1206205563 1206205563 1.00000000
0.22473392 2.64856410 -0.61366647 3 2 485 2.72800000 1206205565 1206205565 -13.00000000
0.31695601 3.73543239 0.19646917 66 3 485 3.75400000 1206205567 1206205567 3.00000000
0.26928747 3.16708112 -0.61783952 2 4 486 3.23800000 1206205570 1206205570 -11.00000000
0.31900623 3.74408078 0.32875147 63 5 487 3.77200000 1206205572 1206205572 5.00000000
0.34364909 4.02500200 -0.63981694 2 6 488 4.09000000 1206205574 1206205574 -9.00000000
0.32167825 3.75992513 0.46334726 61 7 489 3.80200000 1206205577 1206205577 7.00000000
0.45984802 5.36389494 -0.66101933 2 8 490 5.42400000 1206205579 1206205579 -7.00000000
0.34805220 4.05154419 -0.35576975 2 10 491 4.08200000 1206205584 1206205584 -5.00000000
0.91277683 10.60358810 2.06875110 50 11 492 10.84200000 1206205586 1206205586 11.00000000
0.32028329 3.71309757 -0.19531779 6 12 493 3.73200000 1206205588 1206205588 -3.00000000
0.88922971 10.28801537 2.38403130 56 13 494 10.59800000 1206205590 1206205590 13.00000000
0.76749533 8.84361744 2.37854695 40 15 496 9.19000000 1206205595 1206205595 15.00000000
0.19715786 2.24001551 -0.60253072 4 0 503 2.32800000 1206205616 1206205616 -15.00000000
0.32570264 3.69310093 0.06471352 6 1 504 3.70800000 1206205618 1206205618 1.00000000
0.23535007 2.66329288 -0.61726570 3 2 505 2.74400000 1206205620 1206205620 -13.00000000
0.33016899 3.73629260 0.19657385 63 3 505 3.75600000 1206205623 1206205623 3.00000000
0.28207257 3.18567777 -0.62165570 2 4 506 3.25800000 1206205625 1206205625 -11.00000000
0.33172143 3.73897529 0.32840285 63 5 507 3.76800000 1206205627 1206205627 5.00000000
0.35804671 4.02771282 -0.64044273 2 6 508 4.09400000 1206205630 1206205630 -9.00000000
0.33620980 3.77459741 0.46529716 60 7 509 3.81800000 1206205632 1206205632 7.00000000
0.47574529 5.33062124 -0.65711951 2 8 510 5.39200000 1206205634 1206205634 -7.00000000
0.35935327 4.01855326 -0.35298076 4 10 511 4.05000000 1206205639 1206205639 -5.00000000
0.94908386 10.59251499 2.06722474 50 11 512 10.83400000 1206205641 1206205641 11.00000000
0.33467117 3.72787094 -0.19615516 3 12 513 3.74800000 1206205643 1206205643 -3.00000000
0.92600912 10.29455376 2.38628078 57 13 514 10.60800000 1206205646 1206205646 13.00000000
0.33368975 3.70242691 -0.06488805 100 14 515 3.71800000 1206205648 1206205648 -1.00000000
0.79644948 8.81972027 2.37285304 45 15 516 9.16800000 1206205650 1206205650 15.00000000
0.20479968 2.23738980 -0.60201311 4 0 523 2.32600000 1206205671 1206205671 -15.00000000
0.33859196 3.69194150 0.06471352 6 1 524 3.70800000 1206205673 1206205673 1.00000000
0.24428864 2.65857410 -0.61636591 3 2 525 2.74000000 1206205676 1206205676 -13.00000000
0.34357458 3.73909521 0.19678320 68 3 525 3.76000000 1206205678 1206205678 3.00000000
0.29319096 3.18467379 -0.62165570 2 4 526 3.25800000 1206205680 1206205680 -11.00000000
0.34495386 3.73977852 0.32857716 60 5 527 3.77000000 1206205683 1206205683 5.00000000
0.37101319 4.01463652 -0.63856548 2 6 528 4.08200000 1206205685 1206205685 -9.00000000
0.34865150 3.76549435 0.46432221 60 7 529 3.81000000 1206205687 1206205687 7.00000000
0.49508318 5.33683491 -0.65809447 2 8 530 5.40000000 1206205690 1206205690 -7.00000000
0.37227216 4.00537109 -0.35193488 4 10 531 4.03800000 1206205694 1206205694 -5.00000000
0.98496068 10.57740879 2.06493497 50 11 532 10.82200000 1206205696 1206205696 11.00000000
0.34693971 3.71872568 -0.19573648 1 12 533 3.74000000 1206205699 1206205699 -3.00000000
0.96302629 10.30290031 2.38898015 62 13 534 10.62000000 1206205701 1206205701 13.00000000
0.34940836 3.73110437 -0.06541162 21 14 535 3.74800000 1206205703 1206205703 -1.00000000
0.82849443 8.83034992 2.37647653 42 15 536 9.18200000 1206205706 1206205706 15.00000000
0.21331285 2.24823761 -0.60511893 3 0 542 2.33800000 1206205726 1206205726 -15.00000000
0.35121149 3.69477987 0.06478333 6 1 543 3.71200000 1206205729 1206205729 1.00000000
0.25088647 2.63446975 -0.61096704 3 2 544 2.71600000 1206205731 1206205731 -13.00000000
0.35616133 3.73992348 0.19688787 73 3 544 3.76200000 1206205733 1206205733 3.00000000
0.30412301 3.18759274 -0.62241894 2 4 545 3.26200000 1206205736 1206205736 -11.00000000
0.35735354 3.73861408 0.32857716 60 5 546 3.77000000 1206205738 1206205738 5.00000000
0.38206455 3.98978758 -0.63481104 2 6 547 4.05800000 1206205740 1206205740 -9.00000000
0.35999897 3.75246119 0.46285978 61 7 548 3.79800000 1206205742 1206205742 7.00000000
0.51201838 5.32725954 -0.65711951 2 8 549 5.39200000 1206205745 1206205745 -7.00000000
0.38440663 3.99221539 -0.35088903 6 10 550 4.02600000 1206205749 1206205749 -5.00000000
1.02003121 10.57408428 2.06493497 53 11 551 10.82200000 1206205752 1206205752 11.00000000
0.35888529 3.71357870 -0.19552714 1 12 552 3.73600000 1206205754 1206205754 -3.00000000
0.99568433 10.28413296 2.38538098 56 13 553 10.60400000 1206205756 1206205756 13.00000000
0.36216533 3.73390579 -0.06548143 100 14 554 3.75200000 1206205759 1206205759 -1.00000000
0.85697764 8.83539486 2.37854695 45 15 554 9.19000000 1206205761 1206205761 15.00000000
0.22229449 2.25901484 -0.60822475 3 0 562 2.35000000 1206205782 1206205782 -15.00000000
0.36587214 3.71144176 0.06509747 6 1 563 3.73000000 1206205784 1206205784 1.00000000
0.26008096 2.63357806 -0.61096704 3 2 564 2.71600000 1206205786 1206205786 -13.00000000
0.36823249 3.72871971 0.19636451 68 3 564 3.75200000 1206205789 1206205789 3.00000000
0.31408823 3.17478943 -0.62012923 2 4 565 3.25000000 1206205791 1206205791 -11.00000000
0.37138405 3.74725723 0.32944870 66 5 566 3.78000000 1206205793 1206205793 5.00000000
0.39755049 4.00415564 -0.63731402 2 6 567 4.07400000 1206205795 1206205795 -9.00000000
0.37388119 3.75908327 0.46383473 58 7 568 3.80600000 1206205798 1206205798 7.00000000
0.53218538 5.34124231 -0.65906942 2 8 569 5.40800000 1206205800 1206205800 -7.00000000
0.39893338 3.99679685 -0.35141197 6 10 570 4.03200000 1206205805 1206205805 -5.00000000
1.05732608 10.57436657 2.06569815 53 11 571 10.82600000 1206205807 1206205807 11.00000000
0.37164685 3.71031594 -0.19542246 1 12 572 3.73400000 1206205809 1206205809 -3.00000000
1.03118742 10.27671623 2.38448119 62 13 573 10.60000000 1206205812 1206205812 13.00000000
0.37299693 3.71073246 -0.06509747 60 14 574 3.73000000 1206205814 1206205814 -1.00000000
0.88896811 8.82835007 2.37751174 42 15 575 9.18600000 1206205816 1206205816 15.00000000
0.22919908 2.24861550 -0.60563654 4 0 582 2.34000000 1206205837 1206205837 -15.00000000
0.37963775 3.71809936 0.06523710 6 1 583 3.73800000 1206205839 1206205839 1.00000000
0.27006543 2.64040852 -0.61276668 3 2 584 2.72400000 1206205842 1206205842 -13.00000000
0.38230360 3.73131871 0.19657385 68 3 585 3.75600000 1206205844 1206205844 3.00000000
0.32636902 3.18539190 -0.62241894 2 4 585 3.26200000 1206205846 1206205846 -11.00000000
0.38425875 3.74395609 0.32927439 60 5 586 3.77800000 1206205848 1206205848 5.00000000
0.41394949 4.02632332 -0.64106846 2 6 587 4.09800000 1206205851 1206205851 -9.00000000
0.38761064 3.76367903 0.46456593 63 7 588 3.81200000 1206205853 1206205853 7.00000000
0.55245620 5.35514927 -0.66101933 2 8 589 5.42400000 1206205855 1206205855 -7.00000000
0.41247275 3.99141645 -0.35106334 6 10 590 4.02800000 1206205860 1206205860 -5.00000000
1.09463537 10.57451725 2.06646132 53 11 591 10.83000000 1206205862 1206205862 11.00000000
0.38459602 3.70899606 -0.19542246 1 12 592 3.73400000 1206205865 1206205865 -3.00000000
1.06624830 10.26530075 2.38268161 59 13 593 10.59200000 1206205867 1206205867 13.00000000
0.38491279 3.69946313 -0.06492295 82 14 594 3.72000000 1206205869 1206205869 -1.00000000
0.91703957 8.81382465 2.37440586 45 15 594 9.17400000 1206205872 1206205872 15.00000000
0.23542599 2.23243237 -0.60149544 4 0 602 2.32400000 1206205892 1206205892 -15.00000000
0.39135364 3.70481992 0.06502767 6 1 603 3.72600000 1206205895 1206205895 1.00000000
0.28174114 2.66270494 -0.61816549 3 2 604 2.74800000 1206205897 1206205897 -13.00000000
0.39574701 3.73393369 0.19678320 63 3 605 3.76000000 1206205899 1206205899 3.00000000
0.33707228 3.18032861 -0.62165570 2 4 605 3.25800000 1206205901 1206205901 -11.00000000
0.39606321 3.73070455 0.32822853 60 5 606 3.76600000 1206205904 1206205904 5.00000000
0.42883700 4.03271103 -0.64231992 2 6 607 4.10600000 1206205906 1206205906 -9.00000000
0.40179726 3.77217269 0.46578464 58 7 608 3.82200000 1206205908 1206205908 7.00000000
0.57114577 5.35318804 -0.66101933 2 8 609 5.42400000 1206205911 1206205911 -7.00000000
0.42534429 3.98004675 -0.35019177 6 10 610 4.01800000 1206205915 1206205915 -5.00000000
1.13112271 10.56672764 2.06569815 56 11 611 10.82600000 1206205918 1206205918 11.00000000
0.39732754 3.70564508 -0.19531779 3 12 612 3.73200000 1206205920 1206205920 -3.00000000
1.10249054 10.26539230 2.38358140 60 13 613 10.59600000 1206205922 1206205922 13.00000000
0.39910731 3.71002626 -0.06513238 75 14 614 3.73200000 1206205925 1206205925 -1.00000000
0.94809592 8.79888058 2.37129998 42 15 615 9.16200000 1206205927 1206205927 15.00000000
0.24452460 2.25088716 -0.60667187 4 0 620 2.34400000 1206205948 1206205948 -15.00000000
0.40277439 3.70158410 0.06499276 6 1 621 3.72400000 1206205950 1206205950 1.00000000
0.28799349 2.64243388 -0.61366647 3 2 622 2.72800000 1206205952 1206205952 -13.00000000
0.40877599 3.74458480 0.19741122 71 3 623 3.77200000 1206205954 1206205954 3.00000000
0.34706190 3.17925406 -0.62165570 2 4 623 3.25800000 1206205957 1206205957 -11.00000000
0.40886441 3.73934484 0.32910007 61 5 624 3.77600000 1206205959 1206205959 5.00000000
0.43892336 4.00778055 -0.63856548 2 6 625 4.08200000 1206205961 1206205961 -9.00000000
0.41234714 3.75905228 0.46432221 60 7 626 3.81000000 1206205964 1206205964 7.00000000
0.58796048 5.35136747 -0.66101933 2 8 627 5.42400000 1206205966 1206205966 -7.00000000
0.43632028 3.96482778 -0.34897161 2 10 628 4.00400000 1206205971 1206205971 -5.00000000
1.16388321 10.55921841 2.06493497 56 11 629 10.82200000 1206205973 1206205973 11.00000000
0.40743303 3.69048214 -0.19458508 3 12 630 3.71800000 1206205975 1206205975 -3.00000000
1.13559151 10.26962566 2.38538098 62 13 631 10.60400000 1206205978 1206205978 13.00000000
0.41164121 3.71670437 -0.06527200 42 14 632 3.74000000 1206205980 1206205980 -1.00000000
0.97547448 8.80754948 2.37440586 42 15 632 9.17400000 1206205982 1206205982 15.00000000
0.25194949 2.24618030 -0.60563654 4 0 640 2.34000000 1206206003 1206206003 -15.00000000
0.41502315 3.69419408 0.06488805 6 1 641 3.71800000 1206206005 1206206005 1.00000000
0.29721555 2.64141250 -0.61366647 3 2 642 2.72800000 1206206007 1206206007 -13.00000000
0.42094985 3.73519635 0.19699255 63 3 643 3.76400000 1206206010 1206206010 3.00000000
0.36035609 3.19753218 -0.62547189 2 4 643 3.27800000 1206206012 1206206012 -11.00000000
0.42258507 3.74383426 0.32962301 57 5 644 3.78200000 1206206014 1206206014 5.00000000
0.45424187 4.01800108 -0.64044273 2 6 645 4.09400000 1206206017 1206206017 -9.00000000
0.42546618 3.75759006 0.46432221 58 7 646 3.81000000 1206206019 1206206019 7.00000000
0.60484719 5.33350277 -0.65906942 2 8 647 5.40800000 1206206021 1206206021 -7.00000000
0.46657178 4.10779572 -0.36169633 2 10 648 4.15000000 1206206026 1206206026 -5.00000000
1.20117855 10.55899334 2.06569815 53 11 649 10.82600000 1206206028 1206206028 11.00000000
0.42166930 3.70094395 -0.19521312 3 12 650 3.73000000 1206206030 1206206030 -3.00000000
1.17054844 10.25785446 2.38358140 60 13 651 10.59600000 1206206033 1206206033 13.00000000
0.42393124 3.70928454 -0.06516729 88 14 652 3.73400000 1206206035 1206206035 -1.00000000
1.00774920 8.80391502 2.37440586 45 15 653 9.17400000 1206206037 1206206037 15.00000000
0.26023266 2.24912524 -0.60667187 4 0 660 2.34400000 1206206058 1206206058 -15.00000000
0.43021759 3.71258688 0.06523710 6 1 661 3.73800000 1206206060 1206206060 1.00000000
0.30598468 2.63648748 -0.61276668 3 2 662 2.72400000 1206206063 1206206063 -13.00000000
0.43421617 3.73568797 0.19709721 73 3 663 3.76600000 1206206065 1206206065 3.00000000
0.37015533 3.18455410 -0.62318218 2 4 663 3.26600000 1206206067 1206206067 -11.00000000
0.43588129 3.74431539 0.32979733 54 5 664 3.78400000 1206206070 1206206070 5.00000000
0.46963710 4.02816343 -0.64231992 2 6 665 4.10600000 1206206072 1206206072 -9.00000000
0.43927070 3.76199722 0.46505341 55 7 666 3.81600000 1206206074 1206206074 7.00000000
0.62346089 5.33135891 -0.65906942 2 8 667 5.40800000 1206206077 1206206077 -7.00000000
0.48229837 4.11801529 -0.36274222 2 10 668 4.16200000 1206206081 1206206081 -5.00000000
1.23894382 10.56253529 2.06722474 56 11 669 10.83400000 1206206083 1206206083 11.00000000
0.43551752 3.70738411 -0.19563180 3 12 670 3.73800000 1206206086 1206206086 -3.00000000
1.20452631 10.23822212 2.37998223 59 13 671 10.58000000 1206206088 1206206088 13.00000000
0.43687648 3.70778203 -0.06516729 100 14 672 3.73400000 1206206090 1206206090 -1.00000000
1.03852093 8.81395435 2.37802935 45 15 672 9.18800000 1206206093 1206206093 15.00000000
0.26762453 2.24436665 -0.60563654 4 0 680 2.34000000 1206206113 1206206113 -15.00000000
0.44341144 3.71304798 0.06527200 6 1 681 3.74000000 1206206116 1206206116 1.00000000
0.31703719 2.65088296 -0.61636591 3 2 682 2.74000000 1206206118 1206206118 -13.00000000
0.44582838 3.72225094 0.19646917 65 3 683 3.75400000 1206206120 1206206120 3.00000000
0.38173622 3.18714118 -0.62394542 2 4 683 3.27000000 1206206123 1206206123 -11.00000000
0.44894874 3.74277091 0.32979733 66 5 684 3.78400000 1206206125 1206206125 5.00000000
0.48275274 4.01865482 -0.64106846 2 6 685 4.09800000 1206206127 1206206127 -9.00000000
0.45263696 3.76241183 0.46529716 56 7 686 3.81800000 1206206130 1206206130 7.00000000
0.64396662 5.34491682 -0.66101933 2 8 687 5.42400000 1206206132 1206206132 -7.00000000
0.49643132 4.11432886 -0.36256790 9 10 688 4.16000000 1206206136 1206206136 -5.00000000
1.27580643 10.55814648 2.06722474 53 11 689 10.83400000 1206206139 1206206139 11.00000000
0.44701639 3.69394445 -0.19500378 3 12 690 3.72600000 1206206141 1206206141 -3.00000000
1.23978817 10.23008633 2.37908244 59 13 691 10.57600000 1206206143 1206206143 13.00000000
0.45005730 3.70821977 -0.06520219 67 14 692 3.73600000 1206206146 1206206146 -1.00000000
1.06988633 8.80241776 2.37595892 45 15 693 9.18000000 1206206148 1206206148 15.00000000
0.27451545 2.23574901 -0.60356599 4 0 700 2.33200000 1206206169 1206206169 -15.00000000
0.45685780 3.71544719 0.06534181 4 1 701 3.74400000 1206206171 1206206171 1.00000000
0.32676488 2.65362835 -0.61726570 3 2 702 2.74400000 1206206173 1206206173 -13.00000000
0.46052983 3.73454785 0.19720188 68 3 703 3.76800000 1206206176 1206206176 3.00000000
0.39237851 3.18189240 -0.62318218 2 4 703 3.26600000 1206206178 1206206178 -11.00000000
0.46152234 3.73722625 0.32944870 66 5 704 3.78000000 1206206180 1206206180 5.00000000
0.49677750 4.01694489 -0.64106846 2 6 705 4.09800000 1206206183 1206206183 -9.00000000
0.46723136 3.77262902 0.46675959 58 7 706 3.83000000 1206206185 1206206185 7.00000000
0.66506320 5.36233664 -0.66345668 2 8 707 5.44400000 1206206187 1206206187 -7.00000000
0.50710642 4.08291292 -0.35995322 18 10 708 4.13000000 1206206192 1206206192 -5.00000000
1.31265342 10.55362892 2.06722474 56 11 709 10.83400000 1206206194 1206206194 11.00000000
0.46138912 3.70425320 -0.19563180 3 12 710 3.73800000 1206206196 1206206196 -3.00000000
1.27645504 10.23343182 2.38088202 64 13 711 10.58400000 1206206199 1206206199 13.00000000
0.46250296 3.70265746 -0.06513238 100 14 712 3.73200000 1206206201 1206206201 -1.00000000
1.09787309 8.78923702 2.37337065 42 15 712 9.17000000 1206206203 1206206203 15.00000000
0.28280225 2.23861027 -0.60460126 4 0 720 2.33600000 1206206224 1206206224 -15.00000000
0.46631071 3.68605542 0.06485314 4 1 721 3.71600000 1206206226 1206206226 1.00000000
0.33553597 2.64860511 -0.61636591 3 2 722 2.74000000 1206206229 1206206229 -13.00000000
0.47356302 3.73291755 0.19720188 61 3 723 3.76800000 1206206231 1206206231 3.00000000
0.40348300 3.18050337 -0.62318218 2 4 723 3.26600000 1206206233 1206206233 -11.00000000
0.47356051 3.72768664 0.32875147 54 5 724 3.77200000 1206206236 1206206236 5.00000000
0.50880194 3.99950981 -0.63856548 2 6 725 4.08200000 1206206238 1206206238 -9.00000000
0.47889230 3.75916004 0.46529716 56 7 726 3.81800000 1206206240 1206206240 7.00000000
0.68000919 5.33044529 -0.65980065 2 8 727 5.41400000 1206206242 1206206242 -7.00000000
1.34948444 10.54898262 2.06722474 53 11 729 10.83400000 1206206249 1206206249 11.00000000
0.47482413 3.70658231 -0.19584115 3 12 730 3.74200000 1206206252 1206206252 -3.00000000
1.31316042 10.23664474 2.38268161 64 13 731 10.59200000 1206206254 1206206254 13.00000000
1.13032639 8.78707027 2.37388825 45 15 733 9.17200000 1206206259 1206206259 15.00000000
0.29250017 2.24905300 -0.60770714 4 0 741 2.34800000 1206206279 1206206279 -15.00000000
0.48240009 3.70415092 0.06520219 4 1 742 3.73600000 1206206282 1206206282 1.00000000
0.34272131 2.62803364 -0.61186689 3 2 743 2.72000000 1206206284 1206206284 -13.00000000
0.48750031 3.73313713 0.19730656 65 3 744 3.77000000 1206206286 1206206286 3.00000000
0.41666272 3.19068336 -0.62547189 2 4 744 3.27800000 1206206289 1206206289 -11.00000000
0.48928666 3.74173045 0.33014596 66 5 745 3.78800000 1206206291 1206206291 5.00000000
0.52397037 4.00153542 -0.63919121 2 6 746 4.08600000 1206206293 1206206293 -9.00000000
0.49215093 3.75344324 0.46480969 56 7 747 3.81400000 1206206295 1206206295 7.00000000
0.70109218 5.33972645 -0.66126305 2 8 748 5.42600000 1206206298 1206206298 -7.00000000
0.64305246 4.89106464 -0.43159524 15 10 749 4.95200000 1206206302 1206206302 -5.00000000
1.38865185 10.54785824 2.06798792 56 11 750 10.83800000 1206206305 1206206305 11.00000000
0.48475170 3.67709541 -0.19437574 3 12 751 3.71400000 1206206307 1206206307 -3.00000000
1.34914064 10.22017193 2.37998223 64 13 752 10.58000000 1206206309 1206206309 13.00000000
1.16124523 8.78498650 2.37440586 45 15 753 9.17400000 1206206314 1206206314 15.00000000
0.30034903 2.24801826 -0.60770714 4 0 761 2.34800000 1206206335 1206206335 -15.00000000
0.49638769 3.71037269 0.06534181 4 1 762 3.74400000 1206206337 1206206337 1.00000000
0.35344526 2.63841033 -0.61456627 3 2 763 2.73200000 1206206339 1206206339 -13.00000000
0.49973181 3.72547412 0.19699255 68 3 764 3.76400000 1206206342 1206206342 3.00000000
0.42466563 3.16585970 -0.62089247 2 4 764 3.25400000 1206206344 1206206344 -11.00000000
0.50287521 3.74394894 0.33049458 61 5 765 3.79200000 1206206346 1206206346 5.00000000
0.53846174 4.00359774 -0.63981694 2 6 766 4.09000000 1206206348 1206206348 -9.00000000
0.50577980 3.75563693 0.46529716 60 7 767 3.81800000 1206206351 1206206351 7.00000000
0.71760470 5.32150841 -0.65931314 2 8 768 5.41000000 1206206353 1206206353 -7.00000000
0.66172117 4.90063715 -0.43264112 15 10 769 4.96400000 1206206358 1206206358 -5.00000000
1.42651451 10.55072880 2.06951427 53 11 770 10.84600000 1206206360 1206206360 11.00000000
0.49919191 3.68725610 -0.19500378 3 12 771 3.72600000 1206206362 1206206362 -3.00000000
1.38271320 10.19995117 2.37638283 57 13 772 10.56400000 1206206365 1206206365 13.00000000
0.50458604 3.71733904 -0.06548143 78 14 773 3.75200000 1206206367 1206206367 -1.00000000
1.19190347 8.78087902 2.37440586 42 15 773 9.17400000 1206206369 1206206369 15.00000000
0.30688167 2.23738647 -0.60511893 3 0 781 2.33800000 1206206390 1206206390 -15.00000000
0.51096880 3.72050405 0.06555124 6 1 782 3.75600000 1206206392 1206206392 1.00000000
0.36371481 2.64488268 -0.61636591 3 2 783 2.74000000 1206206395 1206206395 -13.00000000
0.51355040 3.72964287 0.19730656 66 3 784 3.77000000 1206206397 1206206397 3.00000000
0.43678516 3.17213774 -0.62241894 2 4 784 3.26200000 1206206399 1206206399 -11.00000000
0.51594096 3.74217081 0.33049458 63 5 785 3.79200000 1206206401 1206206401 5.00000000
0.55459476 4.01734829 -0.64231992 2 6 786 4.10600000 1206206404 1206206404 -9.00000000
0.51997358 3.76171422 0.46627212 58 7 787 3.82600000 1206206406 1206206406 7.00000000
0.73617589 5.31897068 -0.65931314 2 8 788 5.41000000 1206206408 1206206408 -7.00000000
0.67636210 4.88053560 -0.43107229 12 10 789 4.94600000 1206206413 1206206413 -5.00000000
1.46441412 10.55346394 2.07104087 53 11 790 10.85400000 1206206415 1206206415 11.00000000
0.51535809 3.70923018 -0.19625984 3 12 791 3.75000000 1206206418 1206206418 -3.00000000
1.41830921 10.19506264 2.37638283 59 13 792 10.56400000 1206206420 1206206420 13.00000000
1.22281373 8.77857876 2.37492347 45 15 793 9.17600000 1206206424 1206206424 15.00000000
0.31495893 2.23821473 -0.60563654 4 0 801 2.34000000 1206206445 1206206445 -15.00000000
0.52339464 3.71473742 0.06548143 6 1 802 3.75200000 1206206448 1206206448 1.00000000
0.37457830 2.65517473 -0.61906528 3 2 803 2.75200000 1206206450 1206206450 -13.00000000
0.52656615 3.72782755 0.19730656 66 3 804 3.77000000 1206206452 1206206452 3.00000000
0.44840449 3.17448163 -0.62318218 2 4 804 3.26600000 1206206454 1206206454 -11.00000000
0.52816343 3.73442864 0.32997164 60 5 805 3.78600000 1206206457 1206206457 5.00000000
0.57138419 4.03494644 -0.64544863 2 6 806 4.12600000 1206206459 1206206459 -9.00000000
0.53393728 3.76577258 0.46700332 61 7 807 3.83200000 1206206461 1206206461 7.00000000
0.75697017 5.33209181 -0.66126305 2 8 808 5.42600000 1206206464 1206206464 -7.00000000
0.59301609 4.17196798 -0.36866879 9 10 809 4.23000000 1206206468 1206206468 -5.00000000
1.50124371 10.54828739 2.07104087 53 11 810 10.85400000 1206206471 1206206471 11.00000000
0.52717555 3.69949937 -0.19584115 3 12 811 3.74200000 1206206473 1206206473 -3.00000000
1.45553958 10.20162487 2.37908244 57 13 812 10.57600000 1206206475 1206206475 13.00000000
0.53080827 3.71570539 -0.06551633 8 14 813 3.75400000 1206206477 1206206477 -1.00000000
1.25361300 8.76447582 2.37233543 45 15 814 9.16600000 1206206480 1206206480 15.00000000
0.32226413 2.23912644 -0.60615420 3 0 819 2.34200000 1206206501 1206206501 -15.00000000
0.53278053 3.69724083 0.06520219 6 1 820 3.73600000 1206206503 1206206503 1.00000000
0.38124821 2.64241242 -0.61636591 3 2 821 2.74000000 1206206505 1206206505 -13.00000000
0.53970265 3.73603868 0.19782992 71 3 822 3.78000000 1206206507 1206206507 3.00000000
0.45781380 3.16917109 -0.62241894 2 4 822 3.26200000 1206206510 1206206510 -11.00000000
0.54017806 3.73472285 0.33014596 61 5 823 3.78800000 1206206512 1206206512 5.00000000
0.58235884 4.02140141 -0.64357138 2 6 824 4.11400000 1206206514 1206206514 -9.00000000
0.54462576 3.75621843 0.46602836 55 7 825 3.82400000 1206206517 1206206517 7.00000000
0.77942145 5.36897755 -0.66613781 2 8 826 5.46600000 1206206519 1206206519 -7.00000000
0.59809548 4.11487722 -0.36378807 9 10 827 4.17400000 1206206524 1206206524 -5.00000000
1.53324366 10.53574848 2.06951427 53 11 828 10.84600000 1206206526 1206206526 11.00000000
0.53937119 3.70177770 -0.19605049 3 12 829 3.74600000 1206206528 1206206528 -3.00000000
1.48701906 10.19314480 2.37818265 56 13 830 10.57200000 1206206530 1206206530 13.00000000
0.54479098 3.72984910 -0.06579557 8 14 831 3.77000000 1206206533 1206206533 -1.00000000
1.28017056 8.76454067 2.37337065 42 15 831 9.17000000 1206206535 1206206535 15.00000000
0.32951441 2.23416543 -0.60511893 3 0 839 2.33800000 1206206556 1206206556 -15.00000000
0.54772794 3.70920634 0.06544653 6 1 840 3.75000000 1206206558 1206206558 1.00000000
0.38875955 2.62949872 -0.61366647 3 2 841 2.72800000 1206206560 1206206560 -13.00000000
0.55215567 3.73018050 0.19762057 68 3 842 3.77600000 1206206563 1206206563 3.00000000
0.47117329 3.18309045 -0.62547189 2 4 842 3.27800000 1206206565 1206206565 -11.00000000
0.55496389 3.74463987 0.33119181 67 5 843 3.80000000 1206206567 1206206567 5.00000000
0.82196069 5.53954363 -0.88698339 6 6 844 5.67000000 1206206570 1206206570 -9.00000000
0.55685896 3.74840379 0.46529716 56 7 845 3.81800000 1206206572 1206206572 7.00000000
1.03880274 6.98414135 -0.86697853 4 8 846 7.11400000 1206206574 1206206574 -7.00000000
0.61392272 4.12261772 -0.36465964 71 10 847 4.18400000 1206206579 1206206579 -5.00000000
1.57059002 10.53421593 2.07027769 53 11 848 10.85000000 1206206581 1206206581 11.00000000
0.55346894 3.70777392 -0.19646917 3 12 849 3.75400000 1206206583 1206206583 -3.00000000
1.52028632 10.17247391 2.37458324 59 13 850 10.55600000 1206206586 1206206586 13.00000000
0.55928683 3.73781300 -0.06597009 8 14 851 3.78000000 1206206588 1206206588 -1.00000000
1.31075668 8.76001835 2.37337065 45 15 851 9.17000000 1206206590 1206206590 15.00000000
0.33943412 2.24440360 -0.60822475 4 0 860 2.35000000 1206206611 1206206611 -15.00000000
0.56221730 3.71310520 0.06555124 6 1 861 3.75600000 1206206613 1206206613 1.00000000
0.40073115 2.64347005 -0.61726570 3 2 862 2.74400000 1206206616 1206206616 -13.00000000
0.56487370 3.72625566 0.19751590 66 3 862 3.77400000 1206206618 1206206618 3.00000000
0.48106918 3.16969585 -0.62318218 2 4 863 3.26600000 1206206620 1206206620 -11.00000000
0.56928355 3.74652004 0.33154044 61 5 864 3.80400000 1206206623 1206206623 5.00000000
0.61112022 4.01713133 -0.64357138 2 6 865 4.11400000 1206206625 1206206625 -9.00000000
0.57208830 3.75614977 0.46651584 55 7 866 3.82800000 1206206627 1206206627 7.00000000
1.06559086 6.98813677 -0.86795348 6 8 867 7.12200000 1206206629 1206206629 -7.00000000
1.60978258 10.53226948 2.07104087 53 11 869 10.85400000 1206206636 1206206636 11.00000000
0.56614858 3.69979763 -0.19615516 3 12 870 3.74800000 1206206639 1206206639 -3.00000000
1.55637968 10.15912819 2.37278366 60 13 871 10.54800000 1206206641 1206206641 13.00000000
0.57116389 3.72387862 -0.06576066 6 14 872 3.76800000 1206206643 1206206643 -1.00000000
1.34402645 8.76279354 2.37544131 45 15 872 9.17800000 1206206646 1206206646 15.00000000
0.34697095 2.24129581 -0.60770714 3 0 880 2.34800000 1206206666 1206206666 -15.00000000
0.57548130 3.71309614 0.06558614 6 1 881 3.75800000 1206206669 1206206669 1.00000000
0.40995613 2.64205503 -0.61726570 3 2 882 2.74400000 1206206671 1206206671 -13.00000000
0.57883394 3.72613382 0.19762057 63 3 883 3.77600000 1206206673 1206206673 3.00000000
0.49152783 3.16411734 -0.62241894 2 4 883 3.26200000 1206206676 1206206676 -11.00000000
0.58174551 3.74057269 0.33119181 63 5 884 3.80000000 1206206678 1206206678 5.00000000
0.62392330 4.00716639 -0.64231992 2 6 885 4.10600000 1206206680 1206206680 -9.00000000
0.58550197 3.75609136 0.46675959 60 7 886 3.83000000 1206206682 1206206682 7.00000000
1.09089577 6.99025869 -0.86868471 4 8 887 7.12800000 1206206685 1206206685 -7.00000000
0.64125472 4.10433960 -0.36343944 100 10 888 4.17000000 1206206689 1206206689 -5.00000000
1.64896441 10.54210377 2.07409382 53 11 889 10.87000000 1206206692 1206206692 11.00000000
0.58153182 3.71358466 -0.19699255 3 12 890 3.76400000 1206206694 1206206694 -3.00000000
1.59183216 10.15363312 2.37278366 57 13 891 10.54800000 1206206696 1206206696 13.00000000
0.58446920 3.72383761 -0.06579557 8 14 892 3.77000000 1206206699 1206206699 -1.00000000
1.37493515 8.75017548 2.37337065 45 15 893 9.17000000 1206206701 1206206701 15.00000000
0.35267696 2.22671461 -0.60408366 3 0 900 2.33400000 1206206722 1206206722 -15.00000000
0.58843887 3.71106482 0.06558614 8 1 901 3.75800000 1206206724 1206206724 1.00000000
0.41978717 2.64445734 -0.61816549 3 2 902 2.74800000 1206206726 1206206726 -13.00000000
0.59181327 3.72813892 0.19782992 63 3 902 3.78000000 1206206729 1206206729 3.00000000
0.50318593 3.16626024 -0.62318218 2 4 903 3.26600000 1206206731 1206206731 -11.00000000
0.59542513 3.74245453 0.33154044 63 5 904 3.80400000 1206206733 1206206733 5.00000000
0.63821787 4.00691462 -0.64263278 2 6 905 4.10800000 1206206735 1206206735 -9.00000000
0.59985995 3.76186609 0.46773455 56 7 906 3.83800000 1206206738 1206206738 7.00000000
1.11466384 6.98248768 -0.86819720 2 8 907 7.12400000 1206206740 1206206740 -7.00000000
0.65463436 4.09617424 -0.36291650 100 10 908 4.16400000 1206206745 1206206745 -5.00000000
1.68513286 10.53240681 2.07333064 53 11 909 10.86600000 1206206747 1206206747 11.00000000
0.59701818 3.72730899 -0.19782992 1 12 910 3.78000000 1206206749 1206206749 -3.00000000
1.62911654 10.15956020 2.37548304 57 13 911 10.56000000 1206206752 1206206752 13.00000000
0.59714735 3.71980023 -0.06576066 6 14 912 3.76800000 1206206754 1206206754 -1.00000000
1.40363801 8.74365997 2.37285304 45 15 912 9.16800000 1206206756 1206206756 15.00000000
0.36168295 2.23309803 -0.60615420 3 0 920 2.34200000 1206206777 1206206777 -15.00000000
0.60106927 3.70701432 0.06555124 9 1 921 3.75600000 1206206779 1206206779 1.00000000
0.42963997 2.64682293 -0.61906528 3 2 922 2.75200000 1206206781 1206206781 -13.00000000
0.60578334 3.73196483 0.19814393 66 3 922 3.78600000 1206206784 1206206784 3.00000000
0.51612461 3.17611146 -0.62547189 2 4 923 3.27800000 1206206786 1206206786 -11.00000000
0.60848510 3.74035335 0.33154044 63 5 924 3.80400000 1206206788 1206206788 5.00000000
0.88113773 5.41038847 -0.86821127 2 6 925 5.55000000 1206206791 1206206791 -9.00000000
0.61234879 3.75583076 0.46724707 60 7 926 3.83400000 1206206793 1206206793 7.00000000
1.14958298 7.04320669 -0.87624055 2 8 927 7.19000000 1206206795 1206206795 -7.00000000
0.66957122 4.09779644 -0.36326513 92 10 928 4.16800000 1206206800 1206206800 -5.00000000
1.72061980 10.51871014 2.07180405 53 11 929 10.85800000 1206206802 1206206802 11.00000000
0.60905701 3.71928930 -0.19751590 1 12 930 3.77400000 1206206805 1206206805 -3.00000000
1.66393960 10.14996529 2.37458324 62 13 931 10.55600000 1206206807 1206206807 13.00000000
0.61142361 3.72558641 -0.06590029 6 14 932 3.77600000 1206206809 1206206809 -1.00000000
1.43383765 8.73680115 2.37233543 45 15 932 9.16600000 1206206811 1206206811 15.00000000
0.36971655 2.23569822 -0.60718948 3 0 939 2.34600000 1206206832 1206206832 -15.00000000
0.61303228 3.70302773 0.06551633 11 1 940 3.75400000 1206206834 1206206834 1.00000000
0.43650311 2.63384843 -0.61636591 3 2 941 2.74000000 1206206837 1206206837 -13.00000000
0.61782598 3.72391653 0.19782992 61 3 942 3.78000000 1206206839 1206206839 3.00000000
0.52601147 3.17050886 -0.62470865 2 4 942 3.27400000 1206206841 1206206841 -11.00000000
0.62121165 3.74028039 0.33171475 60 5 943 3.80600000 1206206844 1206206844 5.00000000
0.66709703 4.01222086 -0.64419711 2 6 944 4.11800000 1206206846 1206206846 -9.00000000
0.62480021 3.75377965 0.46724707 61 7 945 3.83400000 1206206848 1206206848 7.00000000
1.17423785 7.04718828 -0.87721550 2 8 946 7.19800000 1206206851 1206206851 -7.00000000
0.67692798 4.05821419 -0.35995322 20 10 947 4.13000000 1206206855 1206206855 -5.00000000
1.75549161 10.51294613 2.07180405 53 11 948 10.85800000 1206206858 1206206858 11.00000000
0.62138724 3.71724916 -0.19751590 3 12 949 3.77400000 1206206860 1206206860 -3.00000000
1.69437265 10.12517166 2.37008429 57 13 950 10.53600000 1206206862 1206206862 13.00000000
0.62608743 3.73734379 -0.06614462 6 14 951 3.79000000 1206206864 1206206864 -1.00000000
1.46528459 8.73745823 2.37388825 45 15 952 9.17200000 1206206867 1206206867 15.00000000
0.37719652 2.23248911 -0.60667187 3 0 959 2.34400000 1206206887 1206206887 -15.00000000
0.62795544 3.71269560 0.06572577 14 1 960 3.76600000 1206206890 1206206890 1.00000000
0.44634494 2.63615155 -0.61726570 3 2 961 2.74400000 1206206892 1206206892 -13.00000000
0.63083839 3.72578573 0.19803926 71 3 961 3.78400000 1206206894 1206206894 3.00000000
0.53641921 3.16478229 -0.62394542 2 4 962 3.27000000 1206206897 1206206897 -11.00000000
0.63659698 3.75183940 0.33293495 67 5 963 3.82000000 1206206899 1206206899 5.00000000
0.67712873 3.98649788 -0.64044273 2 6 964 4.09400000 1206206901 1206206901 -9.00000000
0.63856506 3.75548983 0.46773455 61 7 965 3.83800000 1206206904 1206206904 7.00000000
1.19916308 7.04500341 -0.87745929 2 8 966 7.20000000 1206206906 1206206906 -7.00000000
0.67368692 3.95369434 -0.35088903 11 10 967 4.02600000 1206206911 1206206911 -5.00000000
1.79481888 10.52223682 2.07485700 56 11 968 10.87400000 1206206913 1206206913 11.00000000
0.63536757 3.72096372 -0.19782992 1 12 969 3.78000000 1206206915 1206206915 -3.00000000
1.72904909 10.11535358 2.36918449 56 13 970 10.53200000 1206206917 1206206917 13.00000000
0.63778031 3.72725153 -0.06600500 6 14 971 3.78200000 1206206920 1206206920 -1.00000000
1.49805820 8.74561882 2.37751174 45 15 972 9.18600000 1206206922 1206206922 15.00000000
0.38465858 2.22925520 -0.60615420 4 0 979 2.34200000 1206206943 1206206943 -15.00000000
0.64261317 3.72033358 0.06590029 14 1 980 3.77600000 1206206945 1206206945 1.00000000
0.45620817 2.63841796 -0.61816549 3 2 981 2.74800000 1206206947 1206206947 -13.00000000
0.64588171 3.73536944 0.19866729 71 3 981 3.79600000 1206206950 1206206950 3.00000000
0.54545408 3.15128350 -0.62165570 2 4 982 3.25800000 1206206952 1206206952 -11.00000000
0.64900917 3.74566817 0.33258632 61 5 983 3.81600000 1206206954 1206206954 5.00000000
0.93984151 5.41854525 -0.87102711 2 6 984 5.56800000 1206206957 1206206957 -9.00000000
0.65234947 3.75714946 0.46822202 60 7 985 3.84200000 1206206959 1206206959 7.00000000
0.93106782 5.35685587 -0.66760027 2 8 986 5.47800000 1206206961 1206206961 -7.00000000
0.68304396 3.92580104 -0.34862298 15 10 987 4.00000000 1206206966 1206206966 -5.00000000
1.83355856 10.52751255 2.07714677 56 11 988 10.88600000 1206206968 1206206968 11.00000000
0.64595103 3.70495009 -0.19709721 1 12 989 3.76600000 1206206970 1206206970 -3.00000000
1.76367760 10.10541725 2.36828470 56 13 990 10.52800000 1206206973 1206206973 13.00000000
0.65078700 3.72500253 -0.06600500 6 14 991 3.78200000 1206206975 1206206975 -1.00000000
1.52691305 8.73082161 2.37492347 45 15 992 9.17600000 1206206977 1206206977 15.00000000
0.39243779 2.22789884 -0.60615420 3 0 999 2.34200000 1206206998 1206206998 -15.00000000
0.65420669 3.71019053 0.06576066 13 1 1000 3.76800000 1206207000 1206207000 1.00000000
0.46744758 2.64832401 -0.62086493 3 2 1001 2.76000000 1206207003 1206207003 -13.00000000
0.65856951 3.73112512 0.19856262 66 3 1001 3.79400000 1206207005 1206207005 3.00000000
0.55986667 3.16869354 -0.62547189 2 4 1002 3.27800000 1206207007 1206207007 -11.00000000
0.66034502 3.73357010 0.33171475 60 5 1003 3.80600000 1206207010 1206207010 5.00000000
0.96253818 5.43662786 -0.87446868 2 6 1004 5.59000000 1206207012 1206207012 -9.00000000
0.66684604 3.76266789 0.46919698 58 7 1005 3.85000000 1206207014 1206207014 7.00000000
0.69883364 3.93516302 -0.34966883 15 10 1007 4.01200000 1206207021 1206207021 -5.00000000
1.87029529 10.52104855 2.07714677 59 11 1008 10.88600000 1206207023 1206207023 11.00000000
0.66727757 3.74986577 -0.19960934 1 12 1009 3.81400000 1206207026 1206207026 -3.00000000
1.79962480 10.10303593 2.36918449 56 13 1010 10.53200000 1206207028 1206207028 13.00000000
0.66554081 3.73255134 -0.06617953 6 14 1011 3.79200000 1206207030 1206207030 -1.00000000
1.55500388 8.71212578 2.37129998 42 15 1012 9.16200000 1206207033 1206207033 15.00000000
0.40021220 2.22651553 -0.60615420 3 0 1019 2.34200000 1206207053 1206207053 -15.00000000
0.66715366 3.70788431 0.06576066 8 1 1020 3.76800000 1206207056 1206207056 1.00000000
0.47461653 2.63516879 -0.61816549 3 2 1021 2.74800000 1206207058 1206207058 -13.00000000
0.67371374 3.74059749 0.19919065 65 3 1021 3.80600000 1206207060 1206207060 3.00000000
0.57162076 3.17058396 -0.62623513 2 4 1022 3.28200000 1206207063 1206207063 -11.00000000
0.67585051 3.74496746 0.33293495 54 5 1023 3.82000000 1206207065 1206207065 5.00000000
0.97870034 5.41768360 -0.87196571 6 6 1024 5.57400000 1206207067 1206207067 -9.00000000
0.96985704 5.35803890 -0.66857523 2 8 1026 5.48600000 1206207072 1206207072 -7.00000000
0.73885173 4.07777405 -0.36256790 21 10 1027 4.16000000 1206207076 1206207076 -5.00000000
1.90700924 10.51445580 2.07714677 56 11 1028 10.88600000 1206207079 1206207079 11.00000000
0.68107653 3.75144386 -0.19981869 1 12 1029 3.81800000 1206207081 1206207081 -3.00000000
1.83418322 10.09285831 2.36828470 56 13 1030 10.52800000 1206207083 1206207083 13.00000000
0.67963946 3.73610759 -0.06628424 6 14 1031 3.79800000 1206207086 1206207086 -1.00000000
1.58526874 8.71452427 2.37337065 45 15 1031 9.17000000 1206207088 1206207088 15.00000000
0.40902698 2.23080540 -0.60770714 4 0 1039 2.34800000 1206207109 1206207109 -15.00000000
0.68839514 3.75077033 0.06656348 3 1 1040 3.81400000 1206207111 1206207111 1.00000000
0.48099515 2.61816263 -0.61456627 3 2 1041 2.73200000 1206207113 1206207113 -13.00000000
0.68929297 3.75197363 0.19992335 63 3 1041 3.82000000 1206207116 1206207116 3.00000000
0.58410501 3.17629290 -0.62776160 2 4 1042 3.29000000 1206207118 1206207118 -11.00000000
0.69072223 3.75238276 0.33380648 52 5 1043 3.83000000 1206207120 1206207120 5.00000000
0.74131370 4.02327919 -0.64795154 2 6 1044 4.14200000 1206207122 1206207122 -9.00000000
0.98999572 5.36242914 -0.66955018 2 8 1046 5.49400000 1206207127 1206207127 -7.00000000
0.85590589 4.63158798 -0.41207236 8 10 1047 4.72800000 1206207132 1206207132 -5.00000000
1.94369984 10.50773430 2.07714677 59 11 1048 10.88600000 1206207134 1206207134 11.00000000
0.69125837 3.73333263 -0.19898130 1 12 1049 3.80200000 1206207136 1206207136 -3.00000000
1.86940265 10.08639431 2.36828470 55 13 1050 10.52800000 1206207139 1206207139 13.00000000
0.69413579 3.74157715 -0.06642386 4 14 1051 3.80600000 1206207141 1206207141 -1.00000000
1.61860931 8.71625328 2.37544131 42 15 1052 9.17800000 1206207143 1206207143 15.00000000
0.41716647 2.23126316 -0.60822475 4 0 1059 2.35000000 1206207164 1206207164 -15.00000000
0.70442635 3.76406908 0.06684272 3 1 1060 3.83000000 1206207166 1206207166 1.00000000
0.49156654 2.62412953 -0.61636591 3 2 1061 2.74000000 1206207169 1206207169 -13.00000000
0.70340806 3.75138497 0.20002803 65 3 1062 3.82200000 1206207171 1206207171 3.00000000
0.59157062 3.15493846 -0.62394542 2 4 1062 3.27000000 1206207173 1206207173 -11.00000000
0.70602143 3.76169801 0.33485237 52 5 1063 3.84200000 1206207175 1206207175 5.00000000
0.75097632 3.99737024 -0.64419711 2 6 1064 4.11800000 1206207178 1206207178 -9.00000000
0.84745359 4.50657415 0.56303638 2 7 1065 4.62000000 1206207180 1206207180 7.00000000
1.00870812 5.35894060 -0.66955018 2 8 1066 5.49400000 1206207182 1206207182 -7.00000000
0.87723249 4.65598297 -0.41451272 11 10 1067 4.75600000 1206207187 1206207187 -5.00000000
1.98182225 10.50860310 2.07867312 59 11 1068 10.89400000 1206207189 1206207189 11.00000000
0.70354491 3.72697163 -0.19877197 1 12 1069 3.79800000 1206207192 1206207192 -3.00000000
1.90315211 10.07214737 2.36648512 59 13 1070 10.52000000 1206207194 1206207194 13.00000000
0.70607728 3.73323679 -0.06631915 4 14 1071 3.80000000 1206207196 1206207196 -1.00000000
1.64822257 8.71463394 2.37647653 45 15 1071 9.18200000 1206207199 1206207199 15.00000000
0.42350584 2.22220254 -0.60615420 3 0 1079 2.34200000 1206207219 1206207219 -15.00000000
0.71905994 3.76944423 0.06698234 3 1 1080 3.83800000 1206207222 1206207222 1.00000000
0.50291640 2.63388252 -0.61906528 3 2 1081 2.75200000 1206207224 1206207224 -13.00000000
0.71687347 3.75086856 0.20013270 61 3 1082 3.82400000 1206207226 1206207226 3.00000000
0.60257977 3.15285420 -0.62394542 2 4 1082 3.27000000 1206207228 1206207228 -11.00000000
0.71914792 3.75921059 0.33485237 52 5 1083 3.84200000 1206207231 1206207231 5.00000000
0.76789719 4.01024532 -0.64670008 2 6 1084 4.13400000 1206207233 1206207233 -9.00000000
0.87513679 4.56597614 0.57083601 2 7 1085 4.68400000 1206207235 1206207235 7.00000000
1.02591205 5.34758902 -0.66857523 2 8 1086 5.48600000 1206207238 1206207238 -7.00000000
0.88897079 4.62941313 -0.41242099 13 10 1087 4.73200000 1206207242 1206207242 -5.00000000
2.02293897 10.52475643 2.08325267 56 11 1088 10.91800000 1206207245 1206207245 11.00000000
0.71919155 3.73822212 -0.19950466 1 12 1089 3.81200000 1206207247 1206207247 -3.00000000
1.93756187 10.06161594 2.36558533 56 13 1090 10.51600000 1206207249 1206207249 13.00000000
0.71872592 3.72878575 -0.06628424 4 14 1091 3.79800000 1206207252 1206207252 -1.00000000
1.67722452 8.69335938 2.37233543 42 15 1092 9.16600000 1206207254 1206207254 15.00000000
0.43124056 2.22268224 -0.60667187 3 0 1098 2.34400000 1206207275 1206207275 -15.00000000
0.72698134 3.74348283 0.06656348 3 1 1099 3.81400000 1206207277 1206207277 1.00000000
0.51387894 2.64367795 -0.62176472 3 2 1100 2.76400000 1206207279 1206207279 -13.00000000
0.73159647 3.76023364 0.20076072 61 3 1101 3.83600000 1206207281 1206207281 3.00000000
0.61603123 3.16625571 -0.62699836 2 4 1101 3.28600000 1206207284 1206207284 -11.00000000
0.73351419 3.76658344 0.33572391 54 5 1102 3.85200000 1206207286 1206207286 5.00000000
0.78043556 4.00379944 -0.64607435 2 6 1103 4.13000000 1206207288 1206207288 -9.00000000
1.04135680 5.33246756 -0.66711277 2 8 1105 5.47400000 1206207293 1206207293 -7.00000000
0.90737534 4.64208269 -0.41381547 11 10 1106 4.74800000 1206207298 1206207298 -5.00000000
2.05707526 10.51413727 2.08248949 56 11 1107 10.91400000 1206207300 1206207300 11.00000000
0.73964441 3.77697730 -0.20170277 1 12 1108 3.85400000 1206207302 1206207302 -3.00000000
1.96904254 10.04557419 2.36333585 54 13 1109 10.50600000 1206207305 1206207305 13.00000000
0.73262703 3.73423100 -0.06642386 4 14 1110 3.80600000 1206207307 1206207307 -1.00000000
1.70378327 8.68425560 2.37129998 45 15 1110 9.16200000 1206207309 1206207309 15.00000000
0.44012025 2.22684908 -0.60822475 4 0 1118 2.35000000 1206207330 1206207330 -15.00000000
0.73887986 3.73503733 0.06645876 4 1 1119 3.80800000 1206207332 1206207332 1.00000000
0.52234691 2.63804483 -0.62086493 3 2 1120 2.76000000 1206207334 1206207334 -13.00000000
0.74588257 3.76353455 0.20107475 58 3 1121 3.84200000 1206207337 1206207337 3.00000000
0.62631649 3.16023445 -0.62623513 2 4 1121 3.28200000 1206207339 1206207339 -11.00000000
0.74704522 3.76595426 0.33589822 52 5 1122 3.85400000 1206207341 1206207341 5.00000000
0.79055965 3.98167515 -0.64294565 2 6 1123 4.11000000 1206207344 1206207344 -9.00000000
1.06693518 5.36384535 -0.67150009 2 8 1125 5.51000000 1206207348 1206207348 -7.00000000
0.93252152 4.68382978 -0.41782463 11 10 1126 4.79400000 1206207353 1206207353 -5.00000000
2.09299636 10.50304127 2.08172607 56 11 1127 10.91000000 1206207355 1206207355 11.00000000
0.75008935 3.76066184 -0.20097007 3 12 1128 3.84000000 1206207357 1206207357 -3.00000000
2.00905585 10.06348228 2.36918449 57 13 1129 10.53200000 1206207360 1206207360 13.00000000
0.74526560 3.72969007 -0.06638896 6 14 1130 3.80400000 1206207362 1206207362 -1.00000000
1.73749554 8.68742466 2.37388825 40 15 1131 9.17200000 1206207364 1206207364 15.00000000
0.44674718 2.21961761 -0.60667187 4 0 1138 2.34400000 1206207385 1206207385 -15.00000000
0.75112325 3.72851467 0.06638896 4 1 1139 3.80400000 1206207387 1206207387 1.00000000
0.52693003 2.61328197 -0.61546606 3 2 1140 2.73600000 1206207390 1206207390 -13.00000000
0.75941032 3.76286578 0.20117941 61 3 1141 3.84400000 1206207392 1206207392 3.00000000
0.63656718 3.15418005 -0.62547189 2 4 1141 3.27800000 1206207394 1206207394 -11.00000000
0.76334226 3.77894735 0.33729273 57 5 1142 3.87000000 1206207397 1206207397 5.00000000
