# .PCD v0.7 - Point Cloud Data file format
VERSION 0.7
FIELDS x y z intensity laser_id azimuth distance_m adjustedtime timestamp vertical_angle
SIZE 4 4 4 1 1 2 8 8 4 8
TYPE F F F U U U F U U F
COUNT 1 1 1 1 1 1 1 1 1 1
WIDTH 528
HEIGHT 1
VIEWPOINT 0 0 0 1 0 0 0
POINTS 528
DATA ascii
3.15776682 -4.95288515 0.72122276 10 7 14748 5.91800000 1208145253 1208145253 7.00000000
2.39514899 -3.75818324 -0.54719335 4 8 14749 4.49000000 1208145255 1208145255 -7.00000000
3.15631485 -4.95251417 0.93015933 9 9 14749 5.94600000 1208145257 1208145257 9.00000000
3.16763926 -4.97219753 -0.51578766 15 10 14750 5.91800000 1208145260 1208145260 -5.00000000
3.16077089 -4.96524048 -0.30846813 12 12 14752 5.89400000 1208145264 1208145264 -3.00000000
3.14486694 -4.94216108 1.35240579 9 13 14753 6.01200000 1208145267 1208145267 13.00000000
3.16396427 -4.97408867 -0.10289939 9 14 14754 5.89600000 1208145269 1208145269 -1.00000000
3.13956785 -4.93573523 1.56740808 9 15 14754 6.05600000 1208145271 1208145271 15.00000000
1.13699067 -1.79299378 -0.56888425 5 0 14762 2.19800000 1208145292 1208145292 -15.00000000
3.14222908 -4.95709610 0.10244562 11 1 14763 5.87000000 1208145294 1208145294 1.00000000
1.28919530 -2.03458500 -0.55607903 4 2 14764 2.47200000 1208145297 1208145297 -13.00000000
3.13987851 -4.95721340 0.30752608 9 3 14765 5.87600000 1208145299 1208145299 3.00000000
1.48858309 -2.35016227 -0.54075271 6 4 14765 2.83400000 1208145301 1208145301 -11.00000000
3.14201784 -4.96250725 0.51387024 12 5 14766 5.89600000 1208145303 1208145303 5.00000000
1.84451151 -2.91434908 -0.54626918 1 6 14767 3.49200000 1208145306 1208145306 -9.00000000
3.13196826 -4.95045710 0.71927285 10 7 14768 5.90200000 1208145308 1208145308 7.00000000
2.38201594 -3.76652098 -0.54719335 4 8 14769 4.49000000 1208145310 1208145310 -7.00000000
3.13180852 -4.95403099 0.92828214 23 9 14770 5.93400000 1208145313 1208145313 9.00000000
3.14600515 -4.97648811 -0.51509047 15 10 14770 5.91000000 1208145315 1208145315 -5.00000000
3.12221789 -4.94076920 1.13607681 60 11 14771 5.95400000 1208145317 1208145317 11.00000000
3.13595319 -4.96442318 -0.30773541 9 12 14772 5.88000000 1208145320 1208145320 -3.00000000
3.11303020 -4.93003988 1.34610713 8 13 14773 5.98400000 1208145322 1208145322 13.00000000
3.13804317 -4.97157478 -0.10262015 9 14 14774 5.88000000 1208145324 1208145324 -1.00000000
3.12128878 -4.94503069 1.56689048 9 15 14774 6.05400000 1208145326 1208145326 15.00000000
1.09883022 -1.74626422 -0.55283749 4 0 14782 2.13600000 1208145347 1208145347 -15.00000000
3.12064767 -4.96126366 0.10230601 11 1 14783 5.86200000 1208145350 1208145350 1.00000000
1.28208542 -2.03907275 -0.55607903 4 2 14784 2.47200000 1208145352 1208145352 -13.00000000
3.11511588 -4.95630646 0.30679336 9 3 14785 5.86200000 1208145354 1208145354 3.00000000
1.44902873 -2.30547810 -0.52930415 18 4 14785 2.77400000 1208145356 1208145356 -11.00000000
3.11513710 -4.95826101 0.51230145 12 5 14786 5.87800000 1208145359 1208145359 5.00000000
1.82592261 -2.90738726 -0.54376620 1 6 14787 3.47600000 1208145361 1208145361 -9.00000000
3.11466885 -4.96135950 0.71927285 10 7 14788 5.90200000 1208145363 1208145363 7.00000000
2.36674333 -3.77144980 -0.54670590 4 8 14789 4.48600000 1208145366 1208145366 -7.00000000
3.09980059 -4.94150543 0.92390198 11 9 14790 5.90600000 1208145368 1208145368 9.00000000
3.11167479 -4.96043444 -0.51230145 15 10 14790 5.87800000 1208145370 1208145370 -5.00000000
3.10599542 -4.95330095 1.13645840 63 11 14791 5.95600000 1208145373 1208145373 11.00000000
3.11754417 -4.97364712 -0.30763075 12 12 14792 5.87800000 1208145375 1208145375 -3.00000000
3.09062862 -4.93261957 1.34385765 10 13 14793 5.97400000 1208145377 1208145377 13.00000000
3.10793257 -4.96216154 -0.10220129 9 14 14794 5.85600000 1208145379 1208145379 -1.00000000
3.08674073 -4.93023872 1.55860829 9 15 14795 6.02200000 1208145382 1208145382 15.00000000
1.08863533 -1.74353468 -0.55076694 4 0 14802 2.12800000 1208145403 1208145403 -15.00000000
3.09589911 -4.96025181 0.10206167 11 1 14803 5.84800000 1208145405 1208145405 1.00000000
1.27289689 -2.04022884 -0.55517918 4 2 14804 2.46800000 1208145407 1208145407 -13.00000000
3.09885287 -4.96884489 0.30689806 9 3 14805 5.86400000 1208145409 1208145409 3.00000000
1.48876226 -2.38715076 -0.54685861 5 4 14805 2.86600000 1208145412 1208145412 -11.00000000
3.08727026 -4.95219707 0.51055837 12 5 14806 5.85800000 1208145414 1208145414 5.00000000
1.82412076 -2.92715526 -0.54626918 1 6 14807 3.49200000 1208145416 1208145416 -9.00000000
3.09313321 -4.96546173 0.71829790 10 7 14808 5.89400000 1208145419 1208145419 7.00000000
2.35566282 -3.78305864 -0.54719335 4 8 14809 4.49000000 1208145421 1208145421 -7.00000000
3.07940102 -4.94726467 0.92296332 9 9 14810 5.90000000 1208145423 1208145423 9.00000000
3.08802342 -4.96111727 -0.51125556 15 10 14810 5.86600000 1208145426 1208145426 -5.00000000
3.07520294 -4.94244289 1.13149738 27 11 14811 5.93000000 1208145428 1208145428 11.00000000
3.09699941 -4.97941113 -0.30731672 9 12 14812 5.87200000 1208145430 1208145430 -3.00000000
3.06824708 -4.93510294 1.34160805 9 13 14813 5.96400000 1208145432 1208145432 13.00000000
3.08848143 -4.96958303 -0.10213149 9 14 14814 5.85200000 1208145435 1208145435 -1.00000000
3.06017733 -4.92403984 1.55343187 9 15 14814 6.00200000 1208145437 1208145437 15.00000000
1.08355999 -1.74896622 -0.55128455 4 0 14822 2.13000000 1208145458 1208145458 -15.00000000
3.06908989 -4.95572758 0.10174753 11 1 14823 5.83000000 1208145460 1208145460 1.00000000
1.27192175 -2.05460119 -0.55787861 7 2 14824 2.48000000 1208145462 1208145462 -13.00000000
3.07413268 -4.96774292 0.30616534 9 3 14825 5.85000000 1208145465 1208145465 3.00000000
1.50418162 -2.43073034 -0.55563581 5 4 14825 2.91200000 1208145467 1208145467 -11.00000000
3.06367612 -4.95277691 0.50951248 12 5 14826 5.84600000 1208145469 1208145469 5.00000000
1.80558097 -2.92006373 -0.54376620 1 6 14827 3.47600000 1208145472 1208145472 -9.00000000
3.06116986 -4.95258856 0.71488559 10 7 14828 5.86600000 1208145474 1208145474 7.00000000
2.33618259 -3.78112578 -0.54573095 4 8 14829 4.47800000 1208145476 1208145476 -7.00000000
3.05796099 -4.95126104 0.92171186 9 9 14830 5.89200000 1208145479 1208145479 9.00000000
3.07068729 -4.97186613 -0.51125556 15 10 14830 5.86600000 1208145481 1208145481 -5.00000000
3.04658723 -4.93477106 1.12729955 9 11 14831 5.90800000 1208145483 1208145483 11.00000000
3.06701231 -4.96979523 -0.30606067 12 12 14832 5.84800000 1208145485 1208145485 -3.00000000
3.04486299 -4.93583202 1.33890867 8 13 14833 5.95200000 1208145488 1208145488 13.00000000
3.06376839 -4.96841908 -0.10188715 9 14 14834 5.83800000 1208145490 1208145490 -1.00000000
3.03688669 -4.92482567 1.55032611 8 15 14834 5.99000000 1208145492 1208145492 15.00000000
1.08109689 -1.75729799 -0.55283749 4 0 14840 2.13600000 1208145513 1208145513 -15.00000000
3.04722095 -4.95512438 0.10153810 11 1 14841 5.81800000 1208145515 1208145515 1.00000000
1.25729656 -2.04530573 -0.55427939 4 2 14842 2.46400000 1208145518 1208145518 -13.00000000
3.04996610 -4.96152878 0.30522329 9 3 14842 5.83200000 1208145520 1208145520 3.00000000
1.49448216 -2.43209863 -0.55487257 12 4 14843 2.90800000 1208145522 1208145522 -11.00000000
3.04705858 -4.96068001 0.50933814 12 5 14844 5.84400000 1208145525 1208145525 5.00000000
1.77365911 -2.88868713 -0.53688306 3 6 14845 3.43200000 1208145527 1208145527 -9.00000000
3.03832698 -4.95033836 0.71317941 10 7 14846 5.85200000 1208145529 1208145529 7.00000000
2.32740664 -3.79352260 -0.54646212 4 8 14847 4.48400000 1208145531 1208145531 -7.00000000
3.03809190 -4.95189381 0.92014754 9 9 14847 5.88200000 1208145534 1208145534 9.00000000
3.04671955 -4.96790123 -0.50986111 15 10 14848 5.85000000 1208145536 1208145536 -5.00000000
3.03004289 -4.94264412 1.12691796 12 11 14849 5.90600000 1208145538 1208145538 11.00000000
3.04720974 -4.97259426 -0.30564198 12 12 14850 5.84000000 1208145541 1208145541 -3.00000000
3.02221608 -4.93374109 1.33575940 8 13 14851 5.93800000 1208145543 1208145543 13.00000000
3.04814458 -4.97801924 -0.10188715 9 14 14852 5.83800000 1208145545 1208145545 -1.00000000
3.01736474 -4.92775202 1.54825556 8 15 14852 5.98200000 1208145548 1208145548 15.00000000
1.07394969 -1.75941205 -0.55231982 4 0 14860 2.13400000 1208145568 1208145568 -15.00000000
3.02886415 -4.96402407 0.10150319 11 1 14861 5.81600000 1208145571 1208145571 1.00000000
1.24000216 -2.03304505 -0.54978037 3 2 14862 2.44400000 1208145573 1208145573 -13.00000000
3.01824474 -4.95050526 0.30386257 9 3 14863 5.80600000 1208145575 1208145575 3.00000000
1.48802745 -2.44065309 -0.55563581 6 4 14863 2.91200000 1208145578 1208145578 -11.00000000
3.02039242 -4.95597363 0.50776935 9 5 14864 5.82600000 1208145580 1208145580 5.00000000
1.72759485 -2.83581638 -0.52593267 8 6 14865 3.36200000 1208145582 1208145582 -9.00000000
3.01483369 -4.95074081 0.71171695 10 7 14866 5.84000000 1208145584 1208145584 7.00000000
2.31105399 -3.79653668 -0.54573095 2 8 14867 4.47800000 1208145587 1208145587 -7.00000000
3.01068044 -4.94780779 0.91733170 9 9 14868 5.86400000 1208145589 1208145589 9.00000000
3.02728844 -4.97510195 -0.50951248 14 10 14868 5.84600000 1208145591 1208145591 -5.00000000
3.01277137 -4.95319080 1.12691796 12 11 14869 5.90600000 1208145594 1208145594 11.00000000
3.02983356 -4.98320103 -0.30564198 12 12 14870 5.84000000 1208145596 1208145596 -3.00000000
2.99687886 -4.93093824 1.33216012 8 13 14871 5.92200000 1208145598 1208145598 13.00000000
3.01725173 -4.96641207 -0.10143339 9 14 14872 5.81200000 1208145601 1208145601 -1.00000000
2.99727774 -4.93547583 1.54722023 8 15 14873 5.97800000 1208145603 1208145603 15.00000000
1.06980312 -1.76645505 -0.55335510 4 0 14880 2.13800000 1208145624 1208145624 -15.00000000
3.00426888 -4.96259212 0.10125886 11 1 14881 5.80200000 1208145626 1208145626 1.00000000
1.24298716 -2.05403352 -0.55427939 3 2 14882 2.46400000 1208145628 1208145628 -13.00000000
2.99870944 -4.95536089 0.30354854 9 3 14882 5.80000000 1208145631 1208145631 3.00000000
1.45612776 -2.40719628 -0.54685861 3 4 14883 2.86600000 1208145633 1208145633 -11.00000000
2.99070334 -4.94602728 0.50567764 9 5 14884 5.80200000 1208145635 1208145635 5.00000000
1.73199093 -2.86549735 -0.53031284 9 6 14885 3.39000000 1208145637 1208145637 -9.00000000
2.99958706 -4.96463251 0.71220446 10 7 14886 5.84400000 1208145640 1208145640 7.00000000
2.30805016 -3.82157302 -0.54816830 2 8 14887 4.49800000 1208145642 1208145642 -7.00000000
2.98522353 -4.94475794 0.91482878 9 9 14888 5.84800000 1208145644 1208145644 9.00000000
3.00166583 -4.97199345 -0.50811797 14 10 14888 5.83000000 1208145647 1208145647 -5.00000000
2.98836255 -4.95191097 1.12424660 12 11 14889 5.89200000 1208145649 1208145649 11.00000000
3.00313568 -4.97835493 -0.30469993 12 12 14890 5.82200000 1208145651 1208145651 -3.00000000
2.97562313 -4.93469381 1.33036053 8 13 14891 5.91400000 1208145654 1208145654 13.00000000
2.98544502 -4.95293713 -0.10094472 9 14 14892 5.78400000 1208145656 1208145656 -1.00000000
2.96992445 -4.92718792 1.54152620 8 15 14892 5.95600000 1208145658 1208145658 15.00000000
1.05965066 -1.76355481 -0.55128455 4 0 14900 2.13000000 1208145679 1208145679 -15.00000000
2.97766137 -4.95762014 0.10094472 11 1 14901 5.78400000 1208145681 1208145681 1.00000000
1.23179722 -2.05167675 -0.55247980 3 2 14902 2.45600000 1208145683 1208145683 -13.00000000
2.98242188 -4.96751022 0.30365321 9 3 14902 5.80200000 1208145686 1208145686 3.00000000
1.44973671 -2.41563106 -0.54762185 3 4 14903 2.87000000 1208145688 1208145688 -11.00000000
2.96522045 -4.94276857 0.50428313 9 5 14904 5.78600000 1208145690 1208145690 5.00000000
1.75550318 -2.92743158 -0.54063749 3 6 14905 3.45600000 1208145693 1208145693 -9.00000000
2.97713590 -4.96655989 0.71098572 10 7 14906 5.83400000 1208145695 1208145695 7.00000000
2.29061508 -3.82279515 -0.54719335 2 8 14907 4.49000000 1208145697 1208145697 -7.00000000
2.95982456 -4.94159126 0.91232580 9 9 14908 5.83200000 1208145700 1208145700 9.00000000
2.97917318 -4.97389460 -0.50724643 14 10 14908 5.82000000 1208145702 1208145702 -5.00000000
2.95996547 -4.94378328 1.12004876 12 11 14909 5.87000000 1208145704 1208145704 11.00000000
2.97958565 -4.97852468 -0.30407190 12 12 14910 5.81000000 1208145707 1208145707 -3.00000000
2.95237684 -4.93501663 1.32766116 8 13 14911 5.90200000 1208145709 1208145709 13.00000000
2.96403265 -4.95646286 -0.10080510 9 14 14912 5.77600000 1208145711 1208145711 -1.00000000
2.94279218 -4.92094469 1.53634989 8 15 14912 5.93600000 1208145713 1208145713 15.00000000
1.05484855 -1.77093005 -0.55231982 4 0 14922 2.13400000 1208145734 1208145734 -15.00000000
2.94530416 -4.94668055 0.10049096 10 1 14923 5.75800000 1208145736 1208145736 1.00000000
1.21593702 -2.04299474 -0.54888058 3 2 14924 2.44000000 1208145739 1208145739 -13.00000000
2.96143579 -4.97772598 0.30354854 9 3 14925 5.80000000 1208145741 1208145741 3.00000000
1.44045067 -2.42118001 -0.54762185 2 4 14925 2.87000000 1208145743 1208145743 -11.00000000
2.94214630 -4.94726801 0.50358588 12 5 14926 5.77800000 1208145746 1208145746 5.00000000
1.75636256 -2.95452666 -0.54439193 3 6 14927 3.48000000 1208145748 1208145748 -9.00000000
2.94891715 -4.96259594 0.70879209 10 7 14928 5.81600000 1208145750 1208145750 7.00000000
2.27794719 -3.83497572 -0.54768085 2 8 14929 4.49400000 1208145753 1208145753 -7.00000000
2.94169283 -4.95240641 0.91232580 9 9 14929 5.83200000 1208145755 1208145755 9.00000000
2.95700121 -4.98015785 -0.50672346 14 10 14930 5.81400000 1208145757 1208145757 -5.00000000
2.92893648 -4.93485308 1.11546934 12 11 14931 5.84600000 1208145760 1208145760 11.00000000
2.94821858 -4.96931648 -0.30281585 12 12 14932 5.78600000 1208145762 1208145762 -3.00000000
2.93141794 -4.94296455 1.32676136 8 13 14933 5.89800000 1208145764 1208145764 13.00000000
2.93784118 -4.95576620 -0.10056077 9 14 14934 5.76200000 1208145766 1208145766 -1.00000000
2.92301464 -4.93271828 1.53634989 8 15 14935 5.93600000 1208145769 1208145769 15.00000000
1.04866040 -1.77460146 -0.55231982 4 0 14942 2.13400000 1208145789 1208145789 -15.00000000
2.92089987 -4.94487906 0.10024662 10 1 14943 5.74400000 1208145792 1208145792 1.00000000
1.20879817 -2.04722667 -0.54888058 3 2 14944 2.44000000 1208145794 1208145794 -13.00000000
2.93171144 -4.96516132 0.30218780 9 3 14944 5.77400000 1208145796 1208145796 3.00000000
1.43398619 -2.42957473 -0.54838502 3 4 14945 2.87400000 1208145799 1208145799 -11.00000000
2.92283440 -4.95407581 0.50323725 12 5 14946 5.77400000 1208145801 1208145801 5.00000000
1.75005257 -2.96744561 -0.54564339 5 6 14947 3.48800000 1208145803 1208145803 -9.00000000
2.92149544 -4.95575857 0.70635474 10 7 14948 5.79600000 1208145806 1208145806 7.00000000
2.25850010 -3.83264232 -0.54621840 2 8 14949 4.48200000 1208145808 1208145808 -7.00000000
2.91951132 -4.95634651 0.91107434 9 9 14950 5.82400000 1208145810 1208145810 9.00000000
2.93150949 -4.97671556 -0.50532901 14 10 14950 5.79800000 1208145813 1208145813 -5.00000000
2.90671206 -4.93658829 1.11356127 12 11 14951 5.83600000 1208145815 1208145815 11.00000000
2.91971040 -4.96064377 -0.30166444 12 12 14952 5.76400000 1208145817 1208145817 -3.00000000
2.90228772 -4.93301153 1.32136250 8 13 14953 5.87400000 1208145819 1208145819 13.00000000
2.92153811 -4.96771479 -0.10059567 9 14 14954 5.76400000 1208145822 1208145822 -1.00000000
2.89990425 -4.93289900 1.53324401 8 15 14955 5.92400000 1208145824 1208145824 15.00000000
1.04210258 -1.77622080 -0.55180222 4 0 14960 2.13200000 1208145845 1208145845 -15.00000000
2.90433908 -4.95230627 0.10021172 10 1 14961 5.74200000 1208145847 1208145847 1.00000000
1.20433176 -2.05437636 -0.54978037 3 2 14962 2.44400000 1208145849 1208145849 -13.00000000
2.90599775 -4.95711708 0.30114108 9 3 14962 5.75400000 1208145852 1208145852 3.00000000
1.42436123 -2.43068004 -0.54762185 3 4 14963 2.87000000 1208145854 1208145854 -11.00000000
2.90624928 -4.96151447 0.50306296 12 5 14964 5.77200000 1208145856 1208145856 5.00000000
1.74671018 -2.98315692 -0.54752064 5 6 14965 3.50000000 1208145859 1208145859 -9.00000000
2.90190125 -4.95805931 0.70537978 10 7 14966 5.78800000 1208145861 1208145861 7.00000000
2.24243855 -3.83286524 -0.54524344 2 8 14967 4.47400000 1208145863 1208145863 -7.00000000
2.89681244 -4.95134735 0.90857136 9 9 14967 5.80800000 1208145866 1208145866 9.00000000
2.91183710 -4.97902107 -0.50463176 14 10 14968 5.79000000 1208145868 1208145868 -5.00000000
2.89019823 -4.94400072 1.11317968 12 11 14969 5.83400000 1208145870 1208145870 11.00000000
2.89605045 -4.95599651 -0.30082709 12 12 14970 5.74800000 1208145872 1208145872 -3.00000000
2.88186145 -4.93369150 1.31911302 8 13 14971 5.86400000 1208145875 1208145875 13.00000000
2.89381766 -4.95614624 -0.10017681 9 14 14972 5.74000000 1208145877 1208145877 -1.00000000
2.88147140 -4.93697977 1.53169107 8 15 14973 5.91800000 1208145879 1208145879 15.00000000
1.03589606 -1.77984762 -0.55180222 4 0 14980 2.13200000 1208145900 1208145900 -15.00000000
2.88804007 -4.96414232 0.10024662 10 1 14981 5.74400000 1208145902 1208145902 1.00000000
1.19519401 -2.05519867 -0.54888058 3 2 14982 2.44000000 1208145905 1208145905 -13.00000000
2.88968039 -4.96895695 0.30124578 7 3 14982 5.75600000 1208145907 1208145907 3.00000000
1.40994787 -2.42545342 -0.54533213 3 4 14983 2.85800000 1208145909 1208145909 -11.00000000
2.87289643 -4.94406652 0.50027394 6 5 14984 5.74000000 1208145912 1208145912 5.00000000
1.73430204 -2.98581958 -0.54689491 3 6 14985 3.49600000 1208145914 1208145914 -9.00000000
2.88258314 -4.96472549 0.70489228 10 7 14986 5.78400000 1208145916 1208145916 7.00000000
2.23203492 -3.84581995 -0.54597467 4 8 14987 4.48000000 1208145919 1208145919 -7.00000000
2.86562943 -4.93751001 0.90419120 9 9 14987 5.78000000 1208145921 1208145921 9.00000000
2.88244152 -4.96847439 -0.50253999 14 10 14988 5.76600000 1208145923 1208145923 -5.00000000
2.86996818 -4.94896412 1.11203480 12 11 14989 5.82800000 1208145925 1208145925 11.00000000
2.87873316 -4.96607542 -0.30082709 12 12 14990 5.74800000 1208145928 1208145928 -3.00000000
2.85876012 -4.93360424 1.31641352 8 13 14991 5.85200000 1208145930 1208145930 13.00000000
2.86246824 -4.94199181 -0.09968814 6 14 14992 5.71200000 1208145932 1208145932 -1.00000000
2.85647678 -4.93363285 1.52754998 8 15 14993 5.90200000 1208145935 1208145935 15.00000000
1.02194953 -1.77006853 -0.54766113 4 0 15000 2.11600000 1208145955 1208145955 -15.00000000
2.84970403 -4.93782234 0.09951362 5 1 15001 5.70200000 1208145958 1208145958 1.00000000
1.19385540 -2.06948614 -0.55158001 3 2 15002 2.45200000 1208145960 1208145960 -13.00000000
2.85235739 -4.94441319 0.29915231 16 3 15002 5.71600000 1208145962 1208145962 3.00000000
1.40343440 -2.43376160 -0.54609537 3 4 15003 2.86200000 1208145965 1208145965 -11.00000000
2.84467602 -4.93507671 0.49835655 36 5 15004 5.71800000 1208145967 1208145967 5.00000000
1.71302080 -2.97302771 -0.54345334 1 6 15005 3.47400000 1208145969 1208145969 -9.00000000
2.85334659 -4.95411491 0.70196742 10 7 15006 5.76000000 1208145971 1208145971 7.00000000
2.21562576 -3.84842682 -0.54524344 2 8 15007 4.47400000 1208145974 1208145974 -7.00000000
2.84443450 -4.94063520 0.90293974 9 9 15007 5.77200000 1208145976 1208145976 9.00000000
2.85216165 -4.95605707 -0.50027394 14 10 15008 5.74000000 1208145978 1208145978 -5.00000000
2.83897018 -4.93512726 1.10669219 12 11 15009 5.80000000 1208145981 1208145981 11.00000000
2.85839391 -4.97089911 -0.30051306 6 12 15010 5.74200000 1208145983 1208145983 -3.00000000
2.83083868 -4.92496824 1.31146467 15 13 15011 5.83000000 1208145985 1208145985 13.00000000
2.83822632 -4.93981647 -0.09944381 18 14 15012 5.69800000 1208145988 1208145988 -1.00000000
2.82566428 -4.91795254 1.51978540 25 15 15012 5.87200000 1208145990 1208145990 15.00000000
1.01960492 -1.78033054 -0.54973167 4 0 15020 2.12400000 1208146011 1208146011 -15.00000000
2.82847643 -4.94079781 0.09937400 28 1 15021 5.69400000 1208146013 1208146013 1.00000000
1.18275273 -2.06687522 -0.54978037 3 2 15022 2.44400000 1208146015 1208146015 -13.00000000
2.83805680 -4.95953989 0.29946634 16 3 15022 5.72200000 1208146018 1208146018 3.00000000
1.39298081 -2.43523741 -0.54533213 3 4 15023 2.85800000 1208146020 1208146020 -11.00000000
1.68890965 -2.95497894 -0.53907317 1 6 15025 3.44600000 1208146024 1208146024 -9.00000000
2.83012772 -4.95370293 0.70050496 10 7 15026 5.74800000 1208146027 1208146027 7.00000000
2.19528770 -3.84407067 -0.54353726 4 8 15027 4.46000000 1208146029 1208146029 -7.00000000
2.82619166 -4.94881868 0.90262687 9 9 15027 5.77000000 1208146031 1208146031 9.00000000
2.82891774 -4.95560074 -0.49922809 14 10 15028 5.72800000 1208146034 1208146034 -5.00000000
2.81588817 -4.93477583 1.10440242 21 11 15029 5.78800000 1208146036 1208146036 11.00000000
2.82618141 -4.95482349 -0.29894298 33 12 15030 5.71200000 1208146038 1208146038 -3.00000000
2.82231712 -4.95005608 1.31551373 39 13 15031 5.84800000 1208146041 1208146041 13.00000000
2.81799555 -4.94448137 -0.09933910 15 14 15032 5.69200000 1208146043 1208146043 -1.00000000
2.82483315 -4.95849037 1.52910292 36 15 15033 5.90800000 1208146045 1208146045 15.00000000
1.01529264 -1.78723824 -0.55076694 4 0 15040 2.12800000 1208146066 1208146066 -15.00000000
1.17360687 -2.06760168 -0.54888058 3 2 15042 2.44000000 1208146071 1208146071 -13.00000000
2.82319856 -4.97579241 -1.11203480 3 4 15043 5.82800000 1208146075 1208146075 -11.00000000
2.80622196 -4.94788361 0.49765930 9 5 15044 5.71000000 1208146077 1208146077 5.00000000
1.68930089 -2.97975898 -0.54251474 1 6 15045 3.46800000 1208146080 1208146080 -9.00000000
2.80988264 -4.95837069 0.69977379 10 7 15046 5.74200000 1208146082 1208146082 7.00000000
2.19066167 -3.86725521 -0.54573095 2 8 15047 4.47800000 1208146084 1208146084 -7.00000000
2.81863594 -4.97584152 0.90575558 45 9 15047 5.79000000 1208146087 1208146087 9.00000000
2.81356573 -4.96891308 -0.49957672 14 10 15048 5.73200000 1208146089 1208146089 -5.00000000
2.80734873 -4.95995235 1.10783708 36 11 15049 5.80600000 1208146091 1208146091 11.00000000
2.82228851 -4.99041033 1.32361197 40 13 15051 5.88400000 1208146096 1208146096 13.00000000
2.79087782 -4.93688011 -0.09899005 2 14 15052 5.67200000 1208146098 1208146098 -1.00000000
2.82928991 -5.00482845 1.54049098 40 15 15052 5.95200000 1208146101 1208146101 15.00000000
1.01094449 -1.79413748 -0.55180222 4 0 15060 2.13200000 1208146121 1208146121 -15.00000000
2.78311968 -4.94125795 0.09899005 10 1 15061 5.67200000 1208146124 1208146124 1.00000000
1.16829455 -2.07508206 -0.54978037 3 2 15062 2.44400000 1208146126 1208146126 -13.00000000
2.78192425 -4.94317007 0.29726824 2 3 15063 5.68000000 1208146128 1208146128 3.00000000
1.37594581 -2.44490290 -0.54533213 3 4 15063 2.85800000 1208146130 1208146130 -11.00000000
2.82507730 -5.02189875 0.50410879 3 5 15064 5.78400000 1208146133 1208146133 5.00000000
1.67888939 -2.98563766 -0.54251474 1 6 15065 3.46800000 1208146135 1208146135 -9.00000000
2.80617499 -4.99237537 0.70318609 7 7 15066 5.77000000 1208146137 1208146137 7.00000000
2.16936994 -3.86103344 -0.54378098 2 8 15067 4.46200000 1208146140 1208146140 -7.00000000
2.80908561 -5.00163984 0.90857136 40 9 15068 5.80800000 1208146142 1208146142 9.00000000
2.79132557 -4.97001791 -0.49870515 14 10 15068 5.72200000 1208146144 1208146144 -5.00000000
2.81308413 -5.01080751 1.11699581 39 11 15069 5.85400000 1208146147 1208146147 11.00000000
2.77881503 -4.95179033 -0.29758224 6 12 15070 5.68600000 1208146149 1208146149 -3.00000000
2.81819892 -5.02402592 1.32991064 41 13 15071 5.91200000 1208146151 1208146151 13.00000000
2.76776004 -4.93612671 -0.09878062 2 14 15072 5.66000000 1208146154 1208146154 -1.00000000
2.82604003 -5.04212809 1.54877317 38 15 15073 5.98400000 1208146156 1208146156 15.00000000
1.00404811 -1.79800606 -0.55180222 4 0 15082 2.13200000 1208146177 1208146177 -15.00000000
2.79336572 -5.00429058 0.10003719 2 1 15083 5.73200000 1208146179 1208146179 1.00000000
1.16601527 -2.08976316 -0.55247980 3 2 15084 2.45600000 1208146181 1208146181 -13.00000000
2.78724480 -4.99742270 0.29988503 7 3 15085 5.73000000 1208146183 1208146183 3.00000000
1.36463535 -2.44673896 -0.54456890 3 4 15085 2.85400000 1208146186 1208146186 -11.00000000
2.78831053 -5.00138521 0.50097120 12 5 15086 5.74800000 1208146188 1208146188 5.00000000
1.67606735 -3.00759196 -0.54533052 1 6 15087 3.48600000 1208146190 1208146190 -9.00000000
2.81789780 -5.05860710 0.71098572 7 7 15088 5.83400000 1208146193 1208146193 7.00000000
2.16418600 -3.88667822 -0.54621840 2 8 15089 4.48200000 1208146195 1208146195 -7.00000000
2.80226660 -5.03261232 0.91232580 40 9 15089 5.83200000 1208146197 1208146197 9.00000000
2.76640773 -4.97025394 -0.49765930 10 10 15090 5.71000000 1208146200 1208146200 -5.00000000
2.81577682 -5.06103086 1.12577307 42 11 15091 5.90000000 1208146202 1208146202 11.00000000
2.77822495 -4.99558783 -0.29957101 3 12 15092 5.72400000 1208146204 1208146204 -3.00000000
2.81782436 -5.06887484 1.33890867 43 13 15093 5.95200000 1208146207 1208146207 13.00000000
2.76918364 -4.98342466 -0.09951362 6 14 15094 5.70200000 1208146209 1208146209 -1.00000000
2.82443094 -5.08284807 1.55809069 38 15 15094 6.02000000 1208146211 1208146211 15.00000000
0.99214983 -1.79136014 -0.54869640 4 0 15102 2.12000000 1208146232 1208146232 -15.00000000
2.76813221 -5.00001478 0.09975795 13 1 15103 5.71600000 1208146234 1208146234 1.00000000
1.15493929 -2.08700037 -0.55068016 3 2 15104 2.44800000 1208146236 1208146236 -13.00000000
2.79201913 -5.04731846 0.30229250 7 3 15105 5.77600000 1208146239 1208146239 3.00000000
1.35988760 -2.45835924 -0.54609537 2 4 15105 2.86200000 1208146241 1208146241 -11.00000000
2.79397392 -5.05293417 0.50515467 9 5 15106 5.79600000 1208146243 1208146243 5.00000000
1.64931405 -2.98403335 -0.54001176 1 6 15107 3.45200000 1208146246 1208146246 -9.00000000
2.80982256 -5.08578825 0.71342313 7 7 15108 5.85400000 1208146248 1208146248 7.00000000
2.14868641 -3.89073372 -0.54573095 2 8 15109 4.47800000 1208146250 1208146250 -7.00000000
2.80289578 -5.07743692 0.91858315 42 9 15110 5.87200000 1208146253 1208146253 9.00000000
2.76637340 -5.01127672 -0.50079691 10 10 15110 5.74600000 1208146255 1208146255 -5.00000000
2.81326962 -5.09833193 1.13187897 42 11 15111 5.93200000 1208146257 1208146257 11.00000000
2.77041650 -5.02274418 -0.30061772 12 12 15112 5.74400000 1208146259 1208146259 -3.00000000
2.82081318 -5.11622429 1.34880650 35 13 15113 5.99600000 1208146262 1208146262 13.00000000
2.76528406 -5.01757956 -0.10000229 9 14 15114 5.73000000 1208146264 1208146264 -1.00000000
2.82069683 -5.12023926 1.56637287 40 15 15115 6.05200000 1208146266 1208146266 15.00000000
0.98775095 -1.79819882 -0.54973167 4 0 15122 2.12400000 1208146287 1208146287 -15.00000000
2.78723478 -5.07625532 0.10108434 8 1 15123 5.79200000 1208146289 1208146289 1.00000000
1.14389670 -2.08418584 -0.54888058 3 2 15124 2.44000000 1208146292 1208146292 -13.00000000
2.79263616 -5.09030390 0.30428123 7 3 15125 5.81400000 1208146294 1208146294 3.00000000
1.35507524 -2.46997595 -0.54762185 3 4 15125 2.87000000 1208146296 1208146296 -11.00000000
2.79356313 -5.09410143 0.50829232 9 5 15126 5.83200000 1208146299 1208146299 5.00000000
1.64363539 -2.99843335 -0.54157615 1 6 15127 3.46200000 1208146301 1208146301 -9.00000000
2.80540729 -5.11993742 0.71683550 7 7 15128 5.88200000 1208146303 1208146303 7.00000000
2.10362363 -3.84075570 -0.53768754 4 8 15129 4.41200000 1208146306 1208146306 -7.00000000
2.80786824 -5.12655163 0.92577916 42 9 15129 5.91800000 1208146308 1208146308 9.00000000
2.77087021 -5.06109810 -0.50480604 10 10 15130 5.79200000 1208146310 1208146310 -5.00000000
2.80865097 -5.13223219 1.13722157 48 11 15131 5.96000000 1208146312 1208146312 11.00000000
2.77778840 -5.07794189 -0.30333921 9 12 15132 5.79600000 1208146315 1208146315 -3.00000000
2.81696129 -5.15168667 1.35555506 9 13 15133 6.02600000 1208146317 1208146317 13.00000000
2.78419757 -5.09388018 -0.10132867 6 14 15134 5.80600000 1208146319 1208146319 -1.00000000
2.82501245 -5.16855335 1.57827854 38 15 15134 6.09800000 1208146322 1208146322 15.00000000
0.98239219 -1.80333221 -0.55024928 4 0 15142 2.12600000 1208146342 1208146342 -15.00000000
2.78862476 -5.12107754 0.10178243 8 1 15143 5.83200000 1208146345 1208146345 1.00000000
1.13475132 -2.08474278 -0.54798079 3 2 15144 2.43600000 1208146347 1208146347 -13.00000000
2.78630519 -5.12107372 0.30553731 7 3 15145 5.83800000 1208146349 1208146349 3.00000000
1.34269202 -2.46779299 -0.54609537 2 4 15145 2.86200000 1208146352 1208146352 -11.00000000
2.80241776 -5.15282965 0.51317298 9 5 15146 5.88800000 1208146354 1208146354 5.00000000
1.63410234 -3.00588775 -0.54188901 1 6 15147 3.46400000 1208146356 1208146356 -9.00000000
2.80268335 -5.15760612 0.72073531 7 7 15148 5.91400000 1208146359 1208146359 7.00000000
2.05893636 -3.79051113 -0.52964419 12 8 15149 4.34600000 1208146361 1208146361 -7.00000000
2.81073856 -5.17673635 0.93297517 9 9 15150 5.96400000 1208146363 1208146363 9.00000000
2.78075671 -5.12151670 -0.50986111 11 10 15150 5.85000000 1208146365 1208146365 -5.00000000
2.80944872 -5.17651510 1.14485395 46 11 15151 6.00000000 1208146368 1208146368 11.00000000
2.78480864 -5.13325167 -0.30606067 9 12 15152 5.84800000 1208146370 1208146370 -3.00000000
2.81568265 -5.19232368 1.36365330 32 13 15153 6.06200000 1208146372 1208146372 13.00000000
2.79022312 -5.14751816 -0.10220129 6 14 15154 5.85600000 1208146375 1208146375 -1.00000000
2.82169509 -5.20774841 1.58707833 38 15 15155 6.13200000 1208146377 1208146377 15.00000000
0.97672206 -1.80640960 -0.55024928 4 0 15160 2.12600000 1208146398 1208146398 -15.00000000
2.78203058 -5.14740515 0.10213149 8 1 15161 5.85200000 1208146400 1208146400 1.00000000
1.12634373 -2.08486843 -0.54708099 3 2 15162 2.43200000 1208146402 1208146402 -13.00000000
2.78728557 -5.16143465 0.30742142 7 3 15163 5.87400000 1208146405 1208146405 3.00000000
1.33120108 -2.46508908 -0.54456890 2 4 15163 2.85400000 1208146407 1208146407 -11.00000000
2.80230474 -5.19141340 0.51613629 9 5 15164 5.92200000 1208146409 1208146409 5.00000000
1.62371302 -3.00926828 -0.54157615 1 6 15165 3.46200000 1208146412 1208146412 -9.00000000
2.81096697 -5.21181202 0.72707248 7 7 15166 5.96600000 1208146414 1208146414 7.00000000
2.07527852 -3.84938073 -0.53695631 12 8 15167 4.40600000 1208146416 1208146416 -7.00000000
2.81036520 -5.21287394 0.93798107 9 9 15167 5.99600000 1208146418 1208146418 9.00000000
2.77599549 -5.15127468 -0.51195282 11 10 15168 5.87400000 1208146421 1208146421 -5.00000000
2.81551766 -5.22679806 1.15401280 46 11 15169 6.04800000 1208146423 1208146423 11.00000000
2.78665900 -5.17538738 -0.30804944 18 12 15170 5.88600000 1208146425 1208146425 -3.00000000
2.81505728 -5.23031569 1.37130165 43 13 15171 6.09600000 1208146428 1208146428 13.00000000
2.78635454 -5.17915201 -0.10265505 15 14 15172 5.88200000 1208146430 1208146430 -1.00000000
2.82545185 -5.25182438 1.59794879 38 15 15172 6.17400000 1208146432 1208146432 15.00000000
0.96675897 -1.80299783 -0.54817873 4 0 15180 2.11800000 1208146453 1208146453 -15.00000000
2.78482819 -5.19585991 0.10289939 8 1 15181 5.89600000 1208146455 1208146455 1.00000000
1.12274051 -2.09565830 -0.54888058 3 2 15182 2.44000000 1208146458 1208146458 -13.00000000
2.79093814 -5.21162844 0.30982885 7 3 15183 5.92000000 1208146460 1208146460 3.00000000
1.32444191 -2.47318220 -0.54533213 3 4 15183 2.85800000 1208146462 1208146462 -11.00000000
2.80109119 -5.23278189 0.51927394 9 5 15184 5.95800000 1208146465 1208146465 5.00000000
1.62065446 -3.02885151 -0.54407907 1 6 15185 3.47800000 1208146467 1208146467 -9.00000000
2.80960917 -5.25310087 0.73145980 7 7 15186 6.00200000 1208146469 1208146469 7.00000000
2.10862517 -3.94413209 -0.54914325 6 8 15187 4.50600000 1208146471 1208146471 -7.00000000
2.80520582 -5.24927235 0.94267410 25 9 15188 6.02600000 1208146474 1208146474 9.00000000
2.77208304 -5.18729162 -0.51456749 11 10 15188 5.90400000 1208146476 1208146476 -5.00000000
2.81760597 -5.27469110 1.16240835 31 11 15189 6.09200000 1208146478 1208146478 11.00000000
2.77516150 -5.19741583 -0.30878213 15 12 15190 5.90000000 1208146481 1208146481 -3.00000000
2.81513453 -5.27449417 1.38029969 48 13 15191 6.13600000 1208146483 1208146483 13.00000000
2.77014136 -5.19237518 -0.10272487 22 14 15192 5.88600000 1208146485 1208146485 -1.00000000
2.82163739 -5.29112339 1.60674858 40 15 15193 6.20800000 1208146488 1208146488 15.00000000
0.95683163 -1.79953861 -0.54610819 4 0 15200 2.11000000 1208146508 1208146508 -15.00000000
2.78356719 -5.23733330 0.10352767 11 1 15201 5.93200000 1208146511 1208146511 1.00000000
1.11724699 -2.10300660 -0.54978037 3 2 15202 2.44400000 1208146513 1208146513 -13.00000000
2.79989457 -5.27249384 0.31286433 7 3 15203 5.97800000 1208146515 1208146515 3.00000000
1.31395924 -2.47432256 -0.54456890 2 4 15203 2.85400000 1208146518 1208146518 -11.00000000
2.78934741 -5.25484657 0.52049410 9 5 15204 5.97200000 1208146520 1208146520 5.00000000
1.61099768 -3.03623509 -0.54439193 1 6 15205 3.48000000 1208146522 1208146522 -9.00000000
2.81357789 -5.30496502 0.73730952 7 7 15206 6.05000000 1208146524 1208146524 7.00000000
2.11715984 -3.99356151 -0.55499297 6 8 15207 4.55400000 1208146527 1208146527 -7.00000000
2.81091428 -5.30217838 0.95049584 10 9 15207 6.07600000 1208146529 1208146529 9.00000000
2.76328826 -5.21454096 -0.51631063 11 10 15208 5.92400000 1208146531 1208146531 -5.00000000
2.81296134 -5.31051779 1.16813266 43 11 15209 6.12200000 1208146534 1208146534 11.00000000
2.76167512 -5.21589708 -0.30930549 31 12 15210 5.91000000 1208146536 1208146536 -3.00000000
2.81858373 -5.32562590 1.39109731 13 13 15211 6.18400000 1208146538 1208146538 13.00000000
2.74825931 -5.19494295 -0.10258525 24 14 15212 5.87800000 1208146541 1208146541 -1.00000000
2.82123995 -5.33289576 1.61658370 36 15 15212 6.24600000 1208146543 1208146543 15.00000000
0.95234621 -1.80628538 -0.54714346 4 0 15220 2.11400000 1208146564 1208146564 -15.00000000
2.77832103 -5.27178478 0.10401634 8 1 15221 5.96000000 1208146566 1208146566 1.00000000
1.10989928 -2.10689378 -0.54978037 3 2 15222 2.44400000 1208146568 1208146568 -13.00000000
2.79543161 -5.30874348 0.31443444 7 3 15223 6.00800000 1208146571 1208146571 3.00000000
1.30714369 -2.48236823 -0.54533213 3 4 15223 2.85800000 1208146573 1208146573 -11.00000000
2.79325938 -5.30686474 0.52467757 9 5 15224 6.02000000 1208146575 1208146575 5.00000000
2.74641562 -5.22007704 -0.93422663 2 6 15225 5.97200000 1208146577 1208146577 -9.00000000
2.80613089 -5.33583736 0.74023438 7 7 15226 6.07400000 1208146580 1208146580 7.00000000
2.06810713 -3.93415737 -0.54573095 2 8 15227 4.47800000 1208146582 1208146582 -7.00000000
2.80341911 -5.33294010 0.95425022 10 9 15227 6.10000000 1208146584 1208146584 9.00000000
2.77194548 -5.27530289 -0.52136564 11 10 15228 5.98200000 1208146587 1208146587 -5.00000000
2.80810046 -5.34637594 1.17385697 46 11 15229 6.15200000 1208146589 1208146589 11.00000000
2.73416734 -5.20782137 -0.30825877 31 12 15230 5.89000000 1208146591 1208146591 -3.00000000
2.82442665 -5.38202238 1.40324473 15 13 15231 6.23800000 1208146594 1208146594 13.00000000
2.72639322 -5.19742107 -0.10244562 24 14 15232 5.87000000 1208146596 1208146596 -1.00000000
2.81965828 -5.37521601 1.62641883 38 15 15232 6.28400000 1208146598 1208146598 15.00000000
0.95140541 -1.81987071 -0.55024928 4 0 15240 2.12600000 1208146619 1208146619 -15.00000000
2.78398180 -5.32753038 0.10492387 8 1 15241 6.01200000 1208146621 1208146621 1.00000000
1.09351575 -2.09348226 -0.54528135 3 2 15242 2.42400000 1208146624 1208146624 -13.00000000
2.79167390 -5.34679651 0.31610918 7 3 15243 6.04000000 1208146626 1208146626 3.00000000
1.29847062 -2.48691583 -0.54533213 3 4 15243 2.85800000 1208146628 1208146628 -11.00000000
2.79407644 -5.35367537 0.52833813 9 5 15244 6.06200000 1208146630 1208146630 5.00000000
1.57971156 -3.02814269 -0.54095036 1 6 15245 3.45800000 1208146633 1208146633 -9.00000000
2.79850221 -5.36672163 0.74315923 7 7 15246 6.09800000 1208146635 1208146635 7.00000000
2.04151630 -3.91670799 -0.54231858 2 8 15247 4.45000000 1208146637 1208146637 -7.00000000
2.81488705 -5.40274239 0.96488780 10 9 15248 6.16800000 1208146640 1208146640 9.00000000
2.77284694 -5.32205248 -0.52502620 11 10 15248 6.02400000 1208146642 1208146642 -5.00000000
2.80937147 -5.39445353 1.18225253 46 11 15249 6.19600000 1208146644 1208146644 11.00000000
2.70306087 -5.19253159 -0.30679336 31 12 15250 5.86200000 1208146647 1208146647 -3.00000000
2.80742168 -5.39530611 1.40414453 33 13 15251 6.24200000 1208146649 1208146649 13.00000000
2.70638871 -5.20335817 -0.10237581 24 14 15252 5.86600000 1208146651 1208146651 -1.00000000
2.82138109 -5.42444468 1.63832450 40 15 15252 6.33000000 1208146653 1208146653 15.00000000
0.94326901 -1.81975043 -0.54921401 4 0 15260 2.12200000 1208146674 1208146674 -15.00000000
2.78008747 -5.36562443 0.10548235 8 1 15261 6.04400000 1208146677 1208146677 1.00000000
1.09516346 -2.11459088 -0.54978037 3 2 15262 2.44400000 1208146679 1208146679 -13.00000000
2.78492975 -5.37956619 0.31746992 7 3 15263 6.06600000 1208146681 1208146681 3.00000000
1.28797662 -2.48794627 -0.54456890 3 4 15263 2.85400000 1208146683 1208146683 -11.00000000
2.80101013 -5.41294241 0.53321886 9 5 15264 6.11800000 1208146686 1208146686 5.00000000
2.70446062 -5.22859621 -0.93234938 2 6 15265 5.96000000 1208146688 1208146688 -9.00000000
2.80345583 -5.42230511 0.74949646 7 7 15266 6.15000000 1208146690 1208146690 7.00000000
2.02783203 -3.92381024 -0.54231858 2 8 15267 4.45000000 1208146693 1208146693 -7.00000000
2.77162671 -5.36533213 -0.52833813 11 10 15268 6.06200000 1208146697 1208146697 -5.00000000
2.81574512 -5.45307112 1.19293785 43 11 15269 6.25200000 1208146700 1208146700 11.00000000
2.68308687 -5.19838572 -0.30658403 31 12 15270 5.85800000 1208146702 1208146702 -3.00000000
2.80912161 -5.44490528 1.41449225 44 13 15271 6.28800000 1208146704 1208146704 13.00000000
2.67721057 -5.19144583 -0.10195696 24 14 15272 5.84200000 1208146706 1208146706 -1.00000000
2.81829834 -5.46737480 1.64815962 38 15 15273 6.36800000 1208146709 1208146709 15.00000000
0.93659294 -1.82319546 -0.54921401 4 0 15281 2.12200000 1208146730 1208146730 -15.00000000
2.77867150 -5.41135550 0.10618044 8 1 15282 6.08400000 1208146732 1208146732 1.00000000
1.08562601 -2.11512327 -0.54888058 3 2 15283 2.44000000 1208146734 1208146734 -13.00000000
2.79072165 -5.43949461 0.32040071 7 3 15284 6.12200000 1208146736 1208146736 3.00000000
1.27526450 -2.48566318 -0.54304242 3 4 15284 2.84600000 1208146739 1208146739 -11.00000000
2.79569864 -5.45153761 0.53600782 9 5 15285 6.15000000 1208146741 1208146741 5.00000000
2.67716885 -5.22265244 -0.92953360 4 6 15286 5.94200000 1208146743 1208146743 -9.00000000
2.80528879 -5.47494411 0.75534618 7 7 15287 6.19800000 1208146746 1208146746 7.00000000
2.01705670 -3.93828368 -0.54329354 2 8 15288 4.45800000 1208146748 1208146748 -7.00000000
2.79865861 -5.46670580 0.97270948 37 9 15289 6.21800000 1208146750 1208146750 9.00000000
2.76374626 -5.39850998 -0.53060418 11 10 15289 6.08800000 1208146753 1208146753 -5.00000000
2.81183815 -5.49481344 1.19980693 43 11 15290 6.28800000 1208146755 1208146755 11.00000000
2.65946817 -5.19929409 -0.30606067 31 12 15291 5.84800000 1208146757 1208146757 -3.00000000
2.80866313 -5.49333668 1.42439008 46 13 15292 6.33200000 1208146759 1208146759 13.00000000
2.65270495 -5.19053984 -0.10174753 24 14 15293 5.83000000 1208146762 1208146762 -1.00000000
2.81765842 -5.51330376 1.65903008 40 15 15293 6.41000000 1208146764 1208146764 15.00000000
0.92496264 -1.81612492 -0.54610819 4 0 15301 2.11000000 1208146785 1208146785 -15.00000000
2.77790976 -5.45666313 0.10687853 8 1 15302 6.12400000 1208146787 1208146787 1.00000000
1.07646871 -2.11542630 -0.54798079 3 2 15303 2.43600000 1208146789 1208146789 -13.00000000
2.79163814 -5.48836708 0.32270351 7 3 15304 6.16600000 1208146792 1208146792 3.00000000
1.26658010 -2.49009943 -0.54304242 3 4 15304 2.84600000 1208146794 1208146794 -11.00000000
2.78748798 -5.48257589 0.53809953 9 5 15305 6.17400000 1208146796 1208146796 5.00000000
1.55454314 -3.05887723 -0.54345334 1 6 15306 3.47400000 1208146799 1208146799 -9.00000000
2.80414152 -5.52009964 0.76022094 7 7 15307 6.23800000 1208146801 1208146801 7.00000000
2.00689220 -3.95238042 -0.54426849 2 8 15308 4.46600000 1208146803 1208146803 -7.00000000
2.79833412 -5.51343250 0.97927976 40 9 15309 6.26000000 1208146806 1208146806 9.00000000
2.45272255 -4.83248949 -0.47412723 13 10 15309 5.44000000 1208146808 1208146808 -5.00000000
2.80862880 -5.53610992 1.20667613 46 11 15310 6.32400000 1208146810 1208146810 11.00000000
2.61872005 -5.16401291 -0.30344388 30 12 15311 5.79800000 1208146812 1208146812 -3.00000000
2.80709219 -5.53787088 1.43338811 47 13 15312 6.37200000 1208146815 1208146815 13.00000000
2.63095522 -5.19263268 -0.10160791 24 14 15313 5.82200000 1208146817 1208146817 -1.00000000
2.81323957 -5.55240154 1.66782987 24 15 15313 6.44400000 1208146819 1208146819 15.00000000
0.92035902 -1.82279158 -0.54714346 4 0 15321 2.11400000 1208146840 1208146840 -15.00000000
2.77506351 -5.49846029 0.10750683 8 1 15322 6.16000000 1208146842 1208146842 1.00000000
1.07083333 -2.12265062 -0.54888058 3 2 15323 2.44000000 1208146845 1208146845 -13.00000000
2.78871560 -5.52790880 0.32448292 5 3 15323 6.20000000 1208146847 1208146847 3.00000000
1.25611246 -2.49099970 -0.54227918 3 4 15324 2.84200000 1208146849 1208146849 -11.00000000
2.78088808 -5.51718044 0.54053992 3 5 15325 6.20200000 1208146852 1208146852 5.00000000
1.53496814 -3.04664373 -0.54032463 1 6 15326 3.45400000 1208146854 1208146854 -9.00000000
2.80271316 -5.56531334 0.76509571 10 7 15327 6.27800000 1208146856 1208146856 7.00000000
1.98058772 -3.93453813 -0.54085612 2 8 15328 4.43800000 1208146858 1208146858 -7.00000000
2.79868746 -5.55973482 0.98584998 35 9 15328 6.30200000 1208146861 1208146861 9.00000000
2.75912499 -5.48352480 -0.53705370 11 10 15329 6.16200000 1208146863 1208146863 -5.00000000
5.21072721 -10.36037731 2.25421739 28 11 15330 11.81400000 1208146865 1208146865 11.00000000
2.68410826 -5.33907652 -0.31317836 25 12 15331 5.98400000 1208146868 1208146868 -3.00000000
4.64536524 -9.24431896 2.38853025 51 13 15332 10.61800000 1208146870 1208146870 13.00000000
2.75283384 -5.48054743 -0.10705306 24 14 15333 6.13400000 1208146872 1208146872 -1.00000000
3.58551598 -7.13831377 2.14043355 20 15 15333 8.27000000 1208146875 1208146875 15.00000000
0.91572011 -1.82944822 -0.54817873 4 0 15341 2.11800000 1208146895 1208146895 -15.00000000
2.77553797 -5.54745722 0.10827473 2 1 15342 6.20400000 1208146898 1208146898 1.00000000
1.05644417 -2.11243224 -0.54528135 3 2 15343 2.42400000 1208146900 1208146900 -13.00000000
2.77468753 -5.55059814 0.32521564 7 3 15344 6.21400000 1208146902 1208146902 3.00000000
1.25179875 -2.50414944 -0.54418725 3 4 15344 2.85200000 1208146905 1208146905 -11.00000000
2.78031421 -5.56428194 0.54420048 13 5 15345 6.24400000 1208146907 1208146907 5.00000000
1.52079344 -3.04491448 -0.53907317 1 6 15346 3.44600000 1208146909 1208146909 -9.00000000
2.73709178 -5.48496103 -0.75266504 4 8 15348 6.17600000 1208146914 1208146914 -7.00000000
2.60657048 -5.22568750 -0.51090693 11 10 15349 5.86200000 1208146918 1208146918 -5.00000000
5.17453098 -10.37850285 2.25421739 34 11 15350 11.81400000 1208146921 1208146921 11.00000000
2.73850560 -5.49499416 -0.32176146 32 12 15351 6.14800000 1208146923 1208146923 -3.00000000
4.62088871 -9.27617645 2.39257932 52 13 15352 10.63600000 1208146925 1208146925 13.00000000
2.73725152 -5.49728346 -0.10719268 24 14 15353 6.14200000 1208146928 1208146928 -1.00000000
3.55760694 -7.14794827 2.13939834 15 15 15354 8.26600000 1208146930 1208146930 15.00000000
0.90996820 -1.83231604 -0.54817873 4 0 15359 2.11800000 1208146951 1208146951 -15.00000000
2.76787710 -5.57585192 0.10865868 11 1 15360 6.22600000 1208146953 1208146953 1.00000000
1.05153489 -2.11923194 -0.54618114 3 2 15361 2.42800000 1208146955 1208146955 -13.00000000
1.24305320 -2.50631094 -0.54380566 3 4 15362 2.85000000 1208146960 1208146960 -11.00000000
1.51209712 -3.05144691 -0.53938603 1 6 15364 3.44800000 1208146964 1208146964 -9.00000000
2.71896601 -5.49175406 -0.75242132 6 8 15366 6.17400000 1208146969 1208146969 -7.00000000
2.74920774 -5.55527401 -0.54228306 15 10 15367 6.22200000 1208146974 1208146974 -5.00000000
5.16105080 -10.43342209 2.26261306 34 11 15368 11.85800000 1208146976 1208146976 11.00000000
2.72034383 -5.50178003 -0.32165679 32 12 15369 6.14600000 1208146978 1208146978 -3.00000000
4.59517765 -9.29763603 2.39437914 48 13 15370 10.64400000 1208146981 1208146981 13.00000000
2.71111083 -5.48792744 -0.10684364 24 14 15371 6.12200000 1208146983 1208146983 -1.00000000
3.53210473 -7.14981222 2.13681006 13 15 15371 8.25600000 1208146985 1208146985 15.00000000
0.90527314 -1.83894765 -0.54921401 4 0 15379 2.12200000 1208147006 1208147006 -15.00000000
1.04585123 -2.12638712 -0.54708099 3 2 15381 2.43200000 1208147010 1208147010 -13.00000000
1.23256469 -2.50711083 -0.54304242 3 4 15382 2.84600000 1208147015 1208147015 -11.00000000
1.50579083 -3.06557178 -0.54095036 1 6 15384 3.45800000 1208147020 1208147020 -9.00000000
2.70502710 -5.51190376 -0.75388378 6 8 15386 6.18600000 1208147024 1208147024 -7.00000000
2.76489806 -5.63638735 -0.54925549 31 10 15387 6.30200000 1208147029 1208147029 -5.00000000
5.14102221 -10.48486614 2.26986384 37 11 15388 11.89600000 1208147031 1208147031 11.00000000
2.69233274 -5.49330759 -0.32061008 32 12 15389 6.12600000 1208147034 1208147034 -3.00000000
4.57298279 -9.33461952 2.39977789 47 13 15390 10.66800000 1208147036 1208147036 13.00000000
2.68666148 -5.48658180 -0.10663420 27 14 15391 6.11000000 1208147038 1208147038 -1.00000000
3.50032902 -7.14821815 2.13266897 9 15 15391 8.24000000 1208147040 1208147040 15.00000000
0.89344579 -1.83183527 -0.54610819 4 0 15400 2.11000000 1208147061 1208147061 -15.00000000
1.04658711 -2.14772415 -0.55158001 3 2 15402 2.45200000 1208147066 1208147066 -13.00000000
1.22336733 -2.51161170 -0.54304242 3 4 15403 2.84600000 1208147070 1208147070 -11.00000000
1.48849416 -3.05863667 -0.53876030 1 6 15405 3.44400000 1208147075 1208147075 -9.00000000
2.67959857 -5.51106977 -0.75242132 9 8 15407 6.17400000 1208147080 1208147080 -7.00000000
2.74509192 -5.64827538 -0.54942977 31 10 15408 6.30400000 1208147084 1208147084 -5.00000000
4.52178669 -9.30811691 2.01150846 12 11 15409 10.54200000 1208147087 1208147087 11.00000000
2.66869092 -5.49595213 -0.32019138 32 12 15410 6.11800000 1208147089 1208147089 -3.00000000
4.54894972 -9.37235546 2.40517664 47 13 15411 10.69200000 1208147091 1208147091 13.00000000
2.65955138 -5.48199892 -0.10635497 24 14 15412 6.09400000 1208147093 1208147093 -1.00000000
3.46105504 -7.13726997 2.12542200 9 15 15413 8.21200000 1208147096 1208147096 15.00000000
0.88872761 -1.83842134 -0.54714346 4 0 15420 2.11400000 1208147116 1208147116 -15.00000000
1.03399861 -2.14083552 -0.54888058 3 2 15422 2.44000000 1208147121 1208147121 -13.00000000
1.21459281 -2.51586676 -0.54304242 3 4 15423 2.84600000 1208147126 1208147126 -11.00000000
1.47695017 -3.06203461 -0.53844744 1 6 15425 3.44200000 1208147130 1208147130 -9.00000000
2.64827991 -5.49535370 -0.74900901 6 8 15427 6.14600000 1208147135 1208147135 -7.00000000
2.73487020 -5.67756796 -0.55134726 23 10 15428 6.32600000 1208147140 1208147140 -5.00000000
5.08289671 -10.55676365 2.27749610 31 11 15429 11.93600000 1208147142 1208147142 11.00000000
2.63389993 -5.47283983 -0.31830728 42 12 15430 6.08200000 1208147144 1208147144 -3.00000000
4.52803373 -9.41276264 2.41147542 50 13 15431 10.72000000 1208147146 1208147146 13.00000000
2.62566781 -5.46061182 -0.10576158 40 14 15432 6.06000000 1208147149 1208147149 -1.00000000
3.43612027 -7.14930773 2.12542200 9 15 15433 8.21200000 1208147151 1208147151 15.00000000
0.88230491 -1.84151244 -0.54714346 4 0 15440 2.11400000 1208147172 1208147172 -15.00000000
1.01978815 -2.13037014 -0.54528135 3 2 15442 2.42400000 1208147176 1208147176 -13.00000000
