# .PCD v0.7 - Point Cloud Data file format
VERSION 0.7
FIELDS x y z intensity laser_id azimuth distance_m adjustedtime timestamp vertical_angle
SIZE 4 4 4 1 1 2 8 8 4 8
TYPE F F F U U U F U U F
COUNT 1 1 1 1 1 1 1 1 1 1
WIDTH 536
HEIGHT 1
VIEWPOINT 0 0 0 1 0 0 0
POINTS 536
DATA ascii
1.73440492 3.71605611 -0.64951593 2 6 2502 4.15200000 1632810017 1632810017 -9.00000000
2.32733202 4.98189640 -0.67515618 2 8 2504 5.54000000 1632810022 1632810022 -7.00000000
3.49248576 7.47262764 -0.72164953 4 10 2505 8.28000000 1632810027 1632810027 -5.00000000
4.87882090 10.43412399 2.23895264 46 11 2506 11.73400000 1632810029 1632810029 11.00000000
3.78408194 8.08549595 2.06100154 59 13 2508 9.16200000 1632810033 1632810033 13.00000000
3.29558134 7.03851032 2.08245802 45 15 2509 8.04600000 1632810038 1632810038 15.00000000
0.97609293 2.07712531 -0.61495405 4 0 2517 2.37600000 1632810059 1632810059 -15.00000000
1.14709532 2.43880653 -0.62221462 3 2 2519 2.76600000 1632810063 1632810063 -13.00000000
1.38092840 2.93462205 -0.63043290 2 4 2520 3.30400000 1632810068 1632810068 -11.00000000
1.75578272 3.72784996 -0.65264457 2 6 2522 4.17200000 1632810073 1632810073 -9.00000000
2.35147953 4.98810673 -0.67710608 2 8 2524 5.55600000 1632810077 1632810077 -7.00000000
3.52789760 7.48021364 -0.72356695 8 10 2525 8.30200000 1632810082 1632810082 -5.00000000
4.92694187 10.44188786 2.24429536 56 11 2526 11.76200000 1632810084 1632810084 11.00000000
3.80728936 8.06166458 2.05830216 62 13 2528 9.15000000 1632810089 1632810089 13.00000000
3.32013011 7.02696371 2.08245802 42 15 2529 8.04600000 1632810093 1632810093 15.00000000
0.98002660 2.06672335 -0.61288351 4 0 2537 2.36800000 1632810115 1632810115 -15.00000000
1.16061485 2.44535065 -0.62491405 3 2 2539 2.77800000 1632810120 1632810120 -13.00000000
1.39284790 2.93333077 -0.63119614 4 4 2540 3.30800000 1632810124 1632810124 -11.00000000
1.76708877 3.71813035 -0.65201885 2 6 2542 4.16800000 1632810129 1632810129 -9.00000000
2.37655163 4.99600124 -0.67929971 2 8 2544 5.57400000 1632810133 1632810133 -7.00000000
3.55056238 7.46065712 -0.72286975 8 10 2545 8.29400000 1632810138 1632810138 -5.00000000
4.97264481 10.44412422 2.24849319 59 11 2546 11.78400000 1632810140 1632810140 11.00000000
3.83372974 8.04480743 2.05740237 59 13 2548 9.14600000 1632810145 1632810145 13.00000000
3.34297585 7.01184416 2.08142281 45 15 2549 8.04200000 1632810150 1632810150 15.00000000
0.97889674 2.04586339 -0.60770714 4 0 2557 2.34800000 1632810170 1632810170 -15.00000000
1.16914368 2.44128442 -0.62491405 3 2 2559 2.77800000 1632810175 1632810175 -13.00000000
1.40647185 2.93553329 -0.63272262 4 4 2560 3.31600000 1632810180 1632810180 -11.00000000
1.77322352 3.69769001 -0.64951593 2 6 2562 4.15200000 1632810184 1632810184 -9.00000000
2.38452768 4.96798944 -0.67661858 2 8 2564 5.55200000 1632810189 1632810189 -7.00000000
3.57658315 7.44821787 -0.72286975 8 10 2565 8.29400000 1632810193 1632810193 -5.00000000
5.02182341 10.45324802 2.25421739 65 11 2566 11.81400000 1632810196 1632810196 11.00000000
3.86347699 8.03488922 2.05830216 59 13 2568 9.15000000 1632810200 1632810200 13.00000000
3.36446428 6.99084044 2.07883453 45 15 2570 8.03200000 1632810205 1632810205 15.00000000
0.99359119 2.05809140 -0.61236584 4 0 2577 2.36600000 1632810226 1632810226 -15.00000000
1.17596257 2.43367910 -0.62401420 3 2 2579 2.77400000 1632810230 1632810230 -13.00000000
1.41158342 2.92000055 -0.63043290 2 4 2580 3.30400000 1632810235 1632810235 -11.00000000
1.79300296 3.70570302 -0.65201885 2 6 2582 4.16800000 1632810239 1632810239 -9.00000000
2.41829371 4.99358130 -0.68124962 2 8 2584 5.59000000 1632810244 1632810244 -7.00000000
3.61385393 7.45899725 -0.72513580 8 10 2585 8.32000000 1632810249 1632810249 -5.00000000
5.05828142 10.43565464 2.25421739 62 11 2586 11.81400000 1632810251 1632810251 11.00000000
3.88979936 8.01784706 2.05740237 60 13 2588 9.14600000 1632810256 1632810256 13.00000000
3.39015889 6.98485899 2.08038759 45 15 2589 8.03800000 1632810260 1632810260 15.00000000
1.00076926 2.05461073 -0.61236584 4 0 2597 2.36600000 1632810281 1632810281 -15.00000000
1.18274260 2.42605615 -0.62311441 4 2 2599 2.77000000 1632810285 1632810285 -13.00000000
1.42348874 2.91858435 -0.63119614 2 4 2600 3.30800000 1632810290 1632810290 -11.00000000
1.80766046 3.70297217 -0.65264457 2 6 2602 4.17200000 1632810295 1632810295 -9.00000000
2.42089534 4.95478868 -0.67710608 2 8 2604 5.55600000 1632810299 1632810299 -7.00000000
3.63111901 7.42843723 -0.72339267 8 10 2605 8.30000000 1632810304 1632810304 -5.00000000
5.10502768 10.43909836 2.25879693 59 11 2606 11.83800000 1632810306 1632810306 11.00000000
3.91090941 7.99021769 2.05380321 60 13 2608 9.13000000 1632810311 1632810311 13.00000000
3.41621923 6.97645235 2.08142281 42 15 2609 8.04200000 1632810315 1632810315 15.00000000
1.00708306 2.04937100 -0.61184824 4 0 2617 2.36400000 1632810336 1632810336 -15.00000000
1.18948376 2.41841555 -0.62221462 4 2 2619 2.76600000 1632810341 1632810341 -13.00000000
1.43540144 2.91712093 -0.63195938 4 4 2620 3.31200000 1632810345 1632810345 -11.00000000
1.81882977 3.69309545 -0.65201885 2 6 2622 4.16800000 1632810350 1632810350 -9.00000000
2.44431973 4.95877171 -0.67881227 2 8 2624 5.57000000 1632810355 1632810355 -7.00000000
3.66583896 7.43358612 -0.72513580 8 10 2625 8.32000000 1632810359 1632810359 -5.00000000
5.15359688 10.44586372 2.26413965 59 11 2626 11.86600000 1632810362 1632810362 11.00000000
3.93532538 7.96952820 2.05200362 56 13 2628 9.12200000 1632810366 1632810366 13.00000000
3.44433403 6.96908045 2.08297563 45 15 2630 8.04800000 1632810371 1632810371 15.00000000
1.01423049 2.04584312 -0.61184824 4 0 2637 2.36400000 1632810391 1632810391 -15.00000000
1.19965065 2.41774011 -0.62311441 3 2 2639 2.77000000 1632810396 1632810396 -13.00000000
1.44208360 2.90505862 -0.63043290 4 4 2640 3.30400000 1632810401 1632810401 -11.00000000
1.83874154 3.70087647 -0.65452182 2 6 2642 4.18400000 1632810405 1632810405 -9.00000000
2.46249795 4.95198631 -0.67905599 2 8 2644 5.57200000 1632810410 1632810410 -7.00000000
3.69797683 7.43323135 -0.72635597 8 10 2645 8.33400000 1632810415 1632810415 -5.00000000
5.19352722 10.43484116 2.26566601 56 11 2646 11.87400000 1632810417 1632810417 11.00000000
3.96485806 7.95923138 2.05290341 46 13 2648 9.12600000 1632810421 1632810421 13.00000000
3.46691561 6.95355701 2.08194041 45 15 2650 8.04400000 1632810426 1632810426 15.00000000
1.01582646 2.03210068 -0.60874242 4 0 2656 2.35200000 1632810447 1632810447 -15.00000000
1.20766151 2.41374850 -0.62311441 3 2 2658 2.77000000 1632810451 1632810451 -13.00000000
1.45346665 2.90377164 -0.63119614 4 4 2659 3.30800000 1632810456 1632810456 -11.00000000
1.84038639 3.67356491 -0.65076739 2 6 2661 4.16000000 1632810461 1632810461 -9.00000000
2.48869324 4.96331310 -0.68173712 2 8 2663 5.59400000 1632810465 1632810465 -7.00000000
3.71903253 7.41380405 -0.72565871 8 10 2664 8.32600000 1632810470 1632810470 -5.00000000
5.23690796 10.43510818 2.26948214 62 11 2665 11.89400000 1632810472 1632810472 11.00000000
4.55453300 9.06750584 2.34264016 51 13 2667 10.41400000 1632810477 1632810477 13.00000000
3.48735237 6.93684387 2.08038759 45 15 2669 8.03800000 1632810481 1632810481 15.00000000
1.02639294 2.03544235 -0.61081296 4 0 2676 2.36000000 1632810502 1632810502 -15.00000000
1.22310400 2.42343616 -0.62671363 3 2 2678 2.78600000 1632810507 1632810507 -13.00000000
1.46536362 2.90218544 -0.63195938 4 4 2679 3.31200000 1632810511 1632810511 -11.00000000
1.85230732 3.66535544 -0.65045452 2 6 2681 4.15800000 1632810516 1632810516 -9.00000000
2.50241947 4.94751024 -0.68076217 4 8 2683 5.58600000 1632810521 1632810521 -7.00000000
3.74398923 7.39899921 -0.72548443 8 10 2684 8.32400000 1632810525 1632810525 -5.00000000
5.27684832 10.42377090 2.27100873 62 11 2685 11.90200000 1632810527 1632810527 11.00000000
4.59056091 9.06024361 2.34488988 55 13 2687 10.42400000 1632810532 1632810532 13.00000000
3.51241899 6.92635155 2.08090520 45 15 2689 8.04000000 1632810537 1632810537 15.00000000
1.03349161 2.03184700 -0.61081296 4 0 2696 2.36000000 1632810557 1632810557 -15.00000000
1.22625136 2.40873194 -0.62401420 3 2 2698 2.77400000 1632810562 1632810562 -13.00000000
1.47548521 2.89705276 -0.63195938 4 4 2699 3.31200000 1632810567 1632810567 -11.00000000
1.86239922 3.65358758 -0.64951593 2 6 2701 4.15200000 1632810571 1632810571 -9.00000000
2.51516366 4.92990351 -0.67954344 4 8 2703 5.57600000 1632810576 1632810576 -7.00000000
3.77160549 7.38943434 -0.72583300 8 10 2704 8.32800000 1632810580 1632810580 -5.00000000
5.32212973 10.42277241 2.27482486 62 11 2705 11.92200000 1632810583 1632810583 11.00000000
4.62304592 9.04590034 2.34533978 57 13 2707 10.42600000 1632810587 1632810587 13.00000000
3.53712702 6.91810608 2.08194041 45 15 2708 8.04400000 1632810592 1632810592 15.00000000
1.04234159 2.03166485 -0.61184824 4 0 2716 2.36400000 1632810613 1632810613 -15.00000000
1.23287165 2.40096974 -0.62311441 3 2 2718 2.77000000 1632810617 1632810617 -13.00000000
1.48200047 2.88489938 -0.63043290 4 4 2719 3.30400000 1632810622 1632810622 -11.00000000
1.88507688 3.66638899 -0.65295744 2 6 2721 4.17400000 1632810626 1632810626 -9.00000000
2.53417349 4.92462397 -0.68003094 4 8 2723 5.58000000 1632810631 1632810631 -7.00000000
3.80011225 7.38153839 -0.72635597 17 10 2724 8.33400000 1632810636 1632810636 -5.00000000
5.37016582 10.42682076 2.27978587 65 11 2725 11.94800000 1632810638 1632810638 11.00000000
4.64923620 9.01931477 2.34264016 59 13 2727 10.41400000 1632810643 1632810643 13.00000000
3.56865954 6.91711330 2.08556390 45 15 2729 8.05800000 1632810647 1632810647 15.00000000
1.05084813 2.03162885 -0.61288351 4 0 2735 2.36800000 1632810668 1632810668 -15.00000000
1.24799395 2.41071296 -0.62671363 3 2 2737 2.78600000 1632810673 1632810673 -13.00000000
1.49878204 2.89391565 -0.63348585 4 4 2738 3.32000000 1632810677 1632810677 -11.00000000
1.90086102 3.66713262 -0.65420896 4 6 2740 4.18200000 1632810682 1632810682 -9.00000000
2.54683352 4.90914488 -0.67905599 4 8 2742 5.57200000 1632810686 1632810686 -7.00000000
3.82456946 7.36889648 -0.72635597 8 10 2743 8.33400000 1632810691 1632810691 -5.00000000
5.41918802 10.43683338 2.28589177 71 11 2744 11.98000000 1632810693 1632810693 11.00000000
4.68091726 9.00730610 2.34354019 59 13 2746 10.41800000 1632810698 1632810698 13.00000000
3.58235264 6.89044142 2.08090520 45 15 2747 8.04000000 1632810703 1632810703 15.00000000
1.05435932 2.02109718 -0.61081296 4 0 2755 2.36000000 1632810723 1632810723 -15.00000000
1.25820518 2.40979695 -0.62761343 3 2 2757 2.79000000 1632810728 1632810728 -13.00000000
1.50523877 2.88170576 -0.63195938 4 4 2758 3.31200000 1632810732 1632810732 -11.00000000
1.90449834 3.64296913 -0.65108025 2 6 2760 4.16200000 1632810737 1632810737 -9.00000000
2.56763530 4.90726042 -0.68003094 4 8 2762 5.58000000 1632810742 1632810742 -7.00000000
3.84842038 7.35197067 -0.72600734 8 10 2763 8.33000000 1632810746 1632810746 -5.00000000
4.71594858 8.99781609 2.34533978 60 13 2766 10.42600000 1632810753 1632810753 13.00000000
3.60578847 6.87384367 2.07986975 45 15 2768 8.03600000 1632810758 1632810758 15.00000000
1.06285417 2.02100945 -0.61184824 4 0 2774 2.36400000 1632810779 1632810779 -15.00000000
1.25711286 2.38836670 -0.62311441 3 2 2776 2.77000000 1632810783 1632810783 -13.00000000
1.52027488 2.88712120 -0.63424909 4 4 2777 3.32400000 1632810788 1632810788 -11.00000000
1.92025232 3.64362383 -0.65233171 2 6 2779 4.17000000 1632810792 1632810792 -9.00000000
2.58759880 4.90574217 -0.68100590 4 8 2781 5.58800000 1632810797 1632810797 -7.00000000
3.87463880 7.34269285 -0.72635597 8 10 2782 8.33400000 1632810802 1632810802 -5.00000000
4.74758148 8.98557377 2.34623957 57 13 2785 10.43000000 1632810809 1632810809 13.00000000
3.62555981 6.85906601 2.07883453 45 15 2786 8.03200000 1632810813 1632810813 15.00000000
1.07352293 2.02411366 -0.61391878 4 0 2794 2.37200000 1632810834 1632810834 -15.00000000
1.26909685 2.39084911 -0.62491405 3 2 2796 2.77800000 1632810838 1632810838 -13.00000000
1.52666044 2.87486100 -0.63272262 4 4 2797 3.31600000 1632810843 1632810843 -11.00000000
1.93759453 3.64562035 -0.65389609 2 6 2799 4.18000000 1632810848 1632810848 -9.00000000
2.59724927 4.88265944 -0.67905599 4 8 2801 5.57200000 1632810852 1632810852 -7.00000000
3.91147780 7.35022926 -0.72844768 8 10 2802 8.35800000 1632810857 1632810857 -5.00000000
4.77341938 8.95862770 2.34354019 60 13 2805 10.41800000 1632810864 1632810864 13.00000000
3.65431142 6.85255003 2.08090520 45 15 2807 8.04000000 1632810868 1632810868 15.00000000
1.08093452 2.02016544 -0.61391878 4 0 2815 2.37200000 1632810889 1632810889 -15.00000000
1.27601123 2.38274574 -0.62401420 3 2 2817 2.77400000 1632810894 1632810894 -13.00000000
1.53533280 2.86578512 -0.63195938 4 4 2818 3.31200000 1632810898 1632810898 -11.00000000
1.94907653 3.63501239 -0.65327030 2 6 2820 4.17600000 1632810903 1632810903 -9.00000000
2.61794376 4.87835455 -0.67978722 4 8 2822 5.57800000 1632810908 1632810908 -7.00000000
3.93839145 7.33584356 -0.72844768 8 10 2823 8.35800000 1632810912 1632810912 -5.00000000
4.80068636 8.93077278 2.34084058 62 13 2826 10.40600000 1632810919 1632810919 13.00000000
3.68095398 6.84485674 2.08245802 45 15 2827 8.04600000 1632810924 1632810924 15.00000000
1.08431017 2.00957942 -0.61184824 4 0 2835 2.36400000 1632810944 1632810944 -15.00000000
1.28987658 2.38856530 -0.62671363 3 2 2837 2.78600000 1632810949 1632810949 -13.00000000
1.55279231 2.87422681 -0.63501233 4 4 2838 3.32800000 1632810954 1632810954 -11.00000000
1.96457183 3.63339949 -0.65420896 2 6 2840 4.18200000 1632810958 1632810958 -9.00000000
2.63212204 4.86394882 -0.67905599 4 8 2842 5.57200000 1632810963 1632810963 -7.00000000
3.96587157 7.32555532 -0.72879630 8 10 2843 8.36200000 1632810967 1632810967 -5.00000000
4.83368874 8.91738796 2.34174037 59 13 2846 10.41000000 1632810974 1632810974 13.00000000
3.70141077 6.82282925 2.07986975 45 15 2848 8.03600000 1632810979 1632810979 15.00000000
1.08912230 2.00257850 -0.61081296 4 0 2854 2.36000000 1632811000 1632811000 -15.00000000
1.29779029 2.38427472 -0.62671363 3 2 2856 2.78600000 1632811004 1632811004 -13.00000000
1.55480385 2.85526824 -0.63195938 2 4 2857 3.31200000 1632811009 1632811009 -11.00000000
1.97282863 3.61992669 -0.65295744 2 6 2859 4.17400000 1632811014 1632811014 -9.00000000
2.65869308 4.87436390 -0.68173712 4 8 2861 5.59400000 1632811018 1632811018 -7.00000000
3.99491382 7.32110882 -0.72966790 4 10 2862 8.37200000 1632811023 1632811023 -5.00000000
4.86510181 8.90472984 2.34264016 56 13 2865 10.41400000 1632811030 1632811030 13.00000000
3.72097397 6.80777693 2.07883453 45 15 2866 8.03200000 1632811034 1632811034 15.00000000
1.09796369 2.00215220 -0.61184824 4 0 2874 2.36400000 1632811055 1632811055 -15.00000000
1.29860413 2.36606336 -0.62311441 3 2 2876 2.77000000 1632811060 1632811060 -13.00000000
1.57043052 2.86014891 -0.63424909 2 4 2877 3.32400000 1632811064 1632811064 -11.00000000
1.97689044 3.59743738 -0.65014166 2 6 2879 4.15600000 1632811069 1632811069 -9.00000000
2.67664814 4.86679268 -0.68198085 6 8 2881 5.59600000 1632811073 1632811073 -7.00000000
4.00891972 7.28617191 -0.72757614 8 10 2882 8.34800000 1632811078 1632811078 -5.00000000
4.89991665 8.89452076 2.34443998 56 13 2885 10.42200000 1632811085 1632811085 13.00000000
3.74310255 6.78901768 2.07728171 42 15 2887 8.02600000 1632811090 1632811090 15.00000000
1.10775030 2.00337934 -0.61340111 3 0 2894 2.37000000 1632811110 1632811110 -15.00000000
1.30496812 2.35810590 -0.62221462 3 2 2896 2.76600000 1632811115 1632811115 -13.00000000
1.58420837 2.86152005 -0.63577557 2 4 2897 3.33200000 1632811120 1632811120 -11.00000000
1.99709487 3.60433793 -0.65264457 2 6 2899 4.17200000 1632811124 1632811124 -9.00000000
2.69362020 4.85741997 -0.68198085 6 8 2901 5.59600000 1632811129 1632811129 -7.00000000
4.04689360 7.29478312 -0.72984219 8 10 2902 8.37400000 1632811133 1632811133 -5.00000000
4.92525721 8.86714077 2.34174037 59 13 2905 10.41000000 1632811140 1632811140 13.00000000
3.77497864 6.79345417 2.08245802 42 15 2906 8.04600000 1632811145 1632811145 15.00000000
1.11285520 1.99612558 -0.61236584 4 0 2914 2.36600000 1632811166 1632811166 -15.00000000
1.31509054 2.35693979 -0.62311441 3 2 2916 2.77000000 1632811170 1632811170 -13.00000000
1.59227347 2.85254431 -0.63501233 2 4 2917 3.32800000 1632811175 1632811175 -11.00000000
2.00677395 3.59217119 -0.65170598 2 6 2919 4.16600000 1632811179 1632811179 -9.00000000
2.70474696 4.83759165 -0.68051839 6 8 2921 5.58400000 1632811184 1632811184 -7.00000000
4.07427788 7.28409004 -0.73019081 4 10 2922 8.37800000 1632811189 1632811189 -5.00000000
4.95237064 8.84309387 2.33994079 59 13 2925 10.40200000 1632811196 1632811196 13.00000000
3.79678059 6.77686501 2.08142281 42 15 2926 8.04200000 1632811200 1632811200 15.00000000
1.12076283 1.99391282 -0.61288351 4 0 2934 2.36800000 1632811221 1632811221 -15.00000000
1.32713163 2.35912871 -0.62491405 3 2 2936 2.77800000 1632811226 1632811226 -13.00000000
1.59644377 2.83670330 -0.63272262 2 4 2937 3.31600000 1632811230 1632811230 -11.00000000
2.02317834 3.59202886 -0.65295744 2 6 2939 4.17400000 1632811235 1632811235 -9.00000000
2.72551584 4.83503819 -0.68149334 6 8 2941 5.59200000 1632811239 1632811239 -7.00000000
4.09184980 7.25593996 -0.72879630 8 10 2942 8.36200000 1632811244 1632811244 -5.00000000
4.98895741 8.83593464 2.34264016 56 13 2945 10.41400000 1632811251 1632811251 13.00000000
3.81661272 6.75684214 2.07935214 42 15 2946 8.03400000 1632811255 1632811255 15.00000000
1.11914384 1.97486198 -0.60822475 3 0 2954 2.35000000 1632811276 1632811276 -15.00000000
1.33920395 2.36126208 -0.62671363 3 2 2956 2.78600000 1632811281 1632811281 -13.00000000
1.60439837 2.82769823 -0.63195938 2 4 2957 3.31200000 1632811285 1632811285 -11.00000000
2.04545879 3.60212231 -0.65608615 2 6 2959 4.19400000 1632811290 1632811290 -9.00000000
2.74629998 4.83239841 -0.68246830 6 8 2961 5.60000000 1632811295 1632811295 -7.00000000
4.12010670 7.24680853 -0.72931927 8 10 2962 8.36800000 1632811299 1632811299 -5.00000000
5.01977015 8.81846619 2.34264016 57 13 2965 10.41400000 1632811306 1632811306 13.00000000
3.83657074 6.73441553 2.07676411 40 15 2967 8.02400000 1632811311 1632811311 15.00000000
1.13430893 1.98623800 -0.61288351 4 0 2973 2.36800000 1632811332 1632811332 -15.00000000
1.34702682 2.35680819 -0.62671363 4 2 2975 2.78600000 1632811336 1632811336 -13.00000000
1.61766446 2.82917953 -0.63348585 2 4 2976 3.32000000 1632811341 1632811341 -11.00000000
2.04660034 3.57645988 -0.65264457 2 6 2978 4.17200000 1632811345 1632811345 -9.00000000
2.76625586 4.83015490 -0.68344325 6 8 2980 5.60800000 1632811350 1632811350 -7.00000000
4.13619184 7.21927595 -0.72792476 8 10 2981 8.35200000 1632811355 1632811355 -5.00000000
5.04898548 8.80177116 2.34264016 57 13 2984 10.41400000 1632811361 1632811361 13.00000000
3.85770869 6.72232914 2.07676411 38 15 2985 8.02400000 1632811366 1632811366 15.00000000
1.14123523 1.98226643 -0.61288351 4 0 2993 2.36800000 1632811387 1632811387 -15.00000000
1.35135388 2.34533787 -0.62491405 3 2 2995 2.77800000 1632811391 1632811391 -13.00000000
1.63733470 2.84052467 -0.63730204 4 4 2996 3.34000000 1632811396 1632811396 -11.00000000
2.06302047 3.57613850 -0.65389609 2 6 2998 4.18000000 1632811401 1632811401 -9.00000000
2.77515912 4.80671644 -0.68149334 6 8 3000 5.59200000 1632811405 1632811405 -7.00000000
4.16734552 7.21514559 -0.72897065 8 10 3001 8.36400000 1632811410 1632811410 -5.00000000
5.07772732 8.78071976 2.34174037 59 13 3004 10.41000000 1632811417 1632811417 13.00000000
3.87921572 6.70547819 2.07572865 40 15 3005 8.02000000 1632811421 1632811421 15.00000000
1.15008712 1.98161232 -0.61391878 4 0 3013 2.37200000 1632811442 1632811442 -15.00000000
1.35561728 2.33386588 -0.62311441 3 2 3015 2.77000000 1632811447 1632811447 -13.00000000
1.63737631 2.81781721 -0.63348585 2 4 3016 3.32000000 1632811451 1632811451 -11.00000000
2.07151866 3.56208491 -0.65264457 2 6 3018 4.17200000 1632811456 1632811456 -9.00000000
2.79391789 4.80043125 -0.68198085 6 8 3020 5.59600000 1632811460 1632811460 -7.00000000
4.19150305 7.19883347 -0.72879630 4 10 3021 8.36200000 1632811465 1632811465 -5.00000000
5.10147715 8.75115681 2.33859110 54 13 3024 10.39600000 1632811472 1632811472 13.00000000
3.91135740 6.70691538 2.08038759 42 15 3025 8.03800000 1632811477 1632811477 15.00000000
1.15309501 1.97091591 -0.61184824 4 0 3033 2.36400000 1632811497 1632811497 -15.00000000
1.37360227 2.34593654 -0.62761343 3 2 3035 2.79000000 1632811502 1632811502 -13.00000000
1.64323318 2.80530858 -0.63195938 2 4 3036 3.31200000 1632811507 1632811507 -11.00000000
2.09193230 3.56846547 -0.65514755 2 6 3038 4.18800000 1632811511 1632811511 -9.00000000
2.81266642 4.79407406 -0.68246830 6 8 3040 5.60000000 1632811516 1632811516 -7.00000000
4.22164869 7.19274998 -0.72966790 8 10 3041 8.37200000 1632811520 1632811520 -5.00000000
5.13890409 8.74505615 2.34174037 59 13 3044 10.41000000 1632811527 1632811527 13.00000000
3.92220283 6.66922140 2.07314062 42 15 3046 8.01000000 1632811532 1632811532 15.00000000
1.15731966 1.96395493 -0.61081296 4 0 3051 2.36000000 1632811553 1632811553 -15.00000000
1.38393533 2.34664536 -0.62896317 4 2 3053 2.79600000 1632811557 1632811557 -13.00000000
1.66001904 2.81365943 -0.63501233 2 4 3054 3.32800000 1632811562 1632811562 -11.00000000
2.09509754 3.54826784 -0.65264457 2 6 3056 4.17200000 1632811566 1632811566 -9.00000000
2.83579278 4.79888582 -0.68441826 6 8 3058 5.61600000 1632811571 1632811571 -7.00000000
4.23611355 7.16573095 -0.72827339 8 10 3059 8.35600000 1632811576 1632811576 -5.00000000
5.17032242 8.73557758 2.34354019 57 13 3062 10.41800000 1632811583 1632811583 13.00000000
3.94394183 6.66087914 2.07417583 6 15 3063 8.01400000 1632811587 1632811587 15.00000000
1.16614115 1.96322501 -0.61184824 4 0 3071 2.36400000 1632811608 1632811608 -15.00000000
1.38713920 2.33342481 -0.62671363 3 2 3073 2.78600000 1632811612 1632811612 -13.00000000
1.67384446 2.81459737 -0.63653880 2 4 3074 3.33600000 1632811617 1632811617 -11.00000000
2.11151171 3.54772282 -0.65389609 2 6 3076 4.18000000 1632811622 1632811622 -9.00000000
2.85049510 4.78554726 -0.68393075 6 8 3078 5.61200000 1632811626 1632811626 -7.00000000
4.27231932 7.16972733 -0.73019081 8 10 3079 8.37800000 1632811631 1632811631 -5.00000000
5.20078373 8.71747589 2.34354019 57 13 3082 10.41800000 1632811638 1632811638 13.00000000
4.50972128 7.55612993 2.35784149 38 15 3083 9.11000000 1632811642 1632811642 15.00000000
1.17134356 1.95562303 -0.61081296 4 0 3092 2.36000000 1632811663 1632811663 -15.00000000
1.38967073 2.31829619 -0.62401420 3 2 3094 2.77400000 1632811668 1632811668 -13.00000000
1.68616867 2.81181097 -0.63730204 2 4 3095 3.34000000 1632811672 1632811672 -11.00000000
2.13059974 3.55012250 -0.65577328 2 6 3097 4.19200000 1632811677 1632811677 -9.00000000
2.86494946 4.76996231 -0.68319952 6 8 3099 5.60600000 1632811682 1632811682 -7.00000000
4.30575228 7.16597509 -0.73141098 8 10 3100 8.39200000 1632811686 1632811686 -5.00000000
5.22466373 8.68499660 2.33994079 57 13 3103 10.40200000 1632811693 1632811693 13.00000000
4.54169083 7.54372311 2.35939431 40 15 3105 9.11600000 1632811698 1632811698 15.00000000
1.18415356 1.96144545 -0.61391878 4 0 3112 2.37200000 1632811718 1632811718 -15.00000000
1.40380120 2.32343888 -0.62671363 3 2 3114 2.78600000 1632811723 1632811723 -13.00000000
1.68784893 2.79246664 -0.63424909 2 4 3115 3.32400000 1632811728 1632811728 -11.00000000
2.13479972 3.52914214 -0.65327030 2 6 3117 4.17600000 1632811732 1632811732 -9.00000000
2.87849808 4.75483799 -0.68246830 6 8 3119 5.60000000 1632811737 1632811737 -7.00000000
4.33899689 7.16453552 -0.73280549 8 10 3120 8.40800000 1632811742 1632811742 -5.00000000
5.25292730 8.66337395 2.33904099 60 13 3123 10.39800000 1632811748 1632811748 13.00000000
4.56498909 7.52286911 2.35784149 40 15 3125 9.11000000 1632811753 1632811753 15.00000000
1.18629527 1.95111287 -0.61184824 4 0 3130 2.36400000 1632811774 1632811774 -15.00000000
1.41109359 2.31901717 -0.62671363 3 2 3132 2.78600000 1632811778 1632811778 -13.00000000
1.69253016 2.78044248 -0.63272262 2 4 3133 3.31600000 1632811783 1632811783 -11.00000000
2.15204263 3.53254008 -0.65514755 2 6 3135 4.18800000 1632811788 1632811788 -9.00000000
2.89342165 4.74577141 -0.68246830 9 8 3137 5.60000000 1632811792 1632811792 -7.00000000
4.36252069 7.15256977 -0.73297977 8 10 3138 8.41000000 1632811797 1632811797 -5.00000000
5.28011847 8.64682865 2.33904099 56 13 3141 10.39800000 1632811804 1632811804 13.00000000
4.58860016 7.50849056 2.35784149 40 15 3143 9.11000000 1632811808 1632811808 15.00000000
1.18704236 1.93707705 -0.60874242 4 0 3150 2.35200000 1632811829 1632811829 -15.00000000
1.42733014 2.32736731 -0.63031286 3 2 3152 2.80200000 1632811834 1632811834 -13.00000000
1.71043873 2.78790474 -0.63577557 2 4 3153 3.33200000 1632811838 1632811838 -11.00000000
2.16746116 3.53005648 -0.65608615 2 6 3155 4.19400000 1632811843 1632811843 -9.00000000
2.91620564 4.74579048 -0.68393075 6 8 3157 5.61200000 1632811848 1632811848 -7.00000000
4.37807083 7.12202215 -0.73141098 8 10 3158 8.39200000 1632811852 1632811852 -5.00000000
5.31639767 8.63830280 2.34174037 55 13 3161 10.41000000 1632811859 1632811859 13.00000000
4.61174250 7.48749304 2.35628867 38 15 3163 9.10400000 1632811864 1632811864 15.00000000
1.19988751 1.94278347 -0.61184824 4 0 3170 2.36400000 1632811884 1632811884 -15.00000000
1.42929804 2.31242490 -0.62761343 3 2 3172 2.79000000 1632811889 1632811889 -13.00000000
1.72635496 2.79193616 -0.63806528 2 4 3173 3.34400000 1632811894 1632811894 -11.00000000
2.93693447 4.74233294 -0.68490571 6 8 3177 5.62000000 1632811903 1632811903 -7.00000000
4.40500355 7.11008358 -0.73175961 4 10 3178 8.39600000 1632811907 1632811907 -5.00000000
5.34446430 8.61637974 2.34084058 55 13 3181 10.40600000 1632811914 1632811914 13.00000000
4.63654661 7.47215891 2.35628867 42 15 3182 9.10400000 1632811919 1632811919 15.00000000
1.20564091 1.93694317 -0.61133057 3 0 3190 2.36200000 1632811940 1632811940 -15.00000000
1.43736112 2.30742145 -0.62761343 3 2 3192 2.79000000 1632811944 1632811944 -13.00000000
1.73816681 2.78922534 -0.63882852 2 4 3193 3.34800000 1632811949 1632811949 -11.00000000
2.18473530 3.50310612 -0.65389609 2 6 3195 4.18000000 1632811953 1632811953 -9.00000000
2.94716406 4.72194815 -0.68344325 6 8 3197 5.60800000 1632811958 1632811958 -7.00000000
4.43718195 7.10649395 -0.73297977 4 10 3198 8.41000000 1632811963 1632811963 -5.00000000
5.36831045 8.58775711 2.33814120 56 13 3201 10.39400000 1632811970 1632811970 13.00000000
4.66595125 7.45839024 2.35732388 40 15 3203 9.10800000 1632811974 1632811974 15.00000000
1.21820509 1.94048035 -0.61391878 4 0 3212 2.37200000 1632811995 1632811995 -15.00000000
1.43999016 2.29198480 -0.62491405 3 2 3214 2.77800000 1632812000 1632812000 -13.00000000
1.73632717 2.76258421 -0.63424909 2 4 3215 3.32400000 1632812004 1632812004 -11.00000000
2.20763588 3.50974035 -0.65671188 2 6 3217 4.19800000 1632812009 1632812009 -9.00000000
2.96315813 4.70723724 -0.68295580 6 8 3219 5.60400000 1632812013 1632812013 -7.00000000
4.47399139 7.10457754 -0.73454863 4 10 3220 8.42800000 1632812018 1632812018 -5.00000000
5.39708853 8.56048679 2.33634162 57 13 3223 10.38600000 1632812025 1632812025 13.00000000
4.69531775 7.44450665 2.35835910 38 15 3224 9.11200000 1632812030 1632812030 15.00000000
1.22290552 1.93295109 -0.61288351 4 0 3232 2.36800000 1632812050 1632812050 -15.00000000
1.45632160 2.30011630 -0.62851322 3 2 3234 2.79400000 1632812055 1632812055 -13.00000000
1.74385881 2.75318956 -0.63348585 2 4 3235 3.32000000 1632812059 1632812059 -11.00000000
2.21775842 3.49867606 -0.65608615 2 6 3237 4.19400000 1632812064 1632812064 -9.00000000
2.97957134 4.69686508 -0.68295580 4 8 3239 5.60400000 1632812069 1632812069 -7.00000000
4.49129057 7.07714176 -0.73332840 4 10 3240 8.41400000 1632812073 1632812073 -5.00000000
5.42693710 8.54159546 2.33634162 57 13 3243 10.38600000 1632812080 1632812080 13.00000000
4.72049856 7.42398691 2.35732388 40 15 3245 9.10800000 1632812085 1632812085 15.00000000
1.22100258 1.91585219 -0.60874242 4 0 3251 2.35200000 1632812106 1632812106 -15.00000000
1.46394110 2.29527426 -0.62851322 3 2 3253 2.79400000 1632812110 1632812110 -13.00000000
1.75297916 2.74739146 -0.63348585 2 4 3254 3.32000000 1632812115 1632812115 -11.00000000
2.22934842 3.49130249 -0.65608615 2 6 3256 4.19400000 1632812119 1632812119 -9.00000000
3.00475073 4.70201302 -0.68514943 4 8 3258 5.62200000 1632812124 1632812124 -7.00000000
4.50722265 7.05045843 -0.73210824 4 10 3259 8.40000000 1632812129 1632812129 -5.00000000
5.45523214 8.52355194 2.33634162 57 13 3262 10.38600000 1632812136 1632812136 13.00000000
4.73546457 7.39610481 2.35318279 31 15 3263 9.09200000 1632812140 1632812140 15.00000000
1.23185849 1.91808033 -0.61081296 4 0 3271 2.36000000 1632812161 1632812161 -15.00000000
1.47194409 2.29015017 -0.62851322 3 2 3273 2.79400000 1632812165 1632812165 -13.00000000
1.76680577 2.74786115 -0.63501233 2 4 3274 3.32800000 1632812170 1632812170 -11.00000000
2.23083258 3.46688747 -0.65295744 2 6 3276 4.17400000 1632812175 1632812175 -9.00000000
3.02759409 4.70150995 -0.68661189 4 8 3278 5.63400000 1632812179 1632812179 -7.00000000
4.52317381 7.02128267 -0.73071373 4 10 3279 8.38400000 1632812184 1632812184 -5.00000000
5.48706436 8.50773335 2.33724141 59 13 3282 10.39000000 1632812191 1632812191 13.00000000
4.70387363 7.28780413 2.32419491 42 15 3284 8.98000000 1632812195 1632812195 15.00000000
1.24450827 1.92371690 -0.61391878 4 0 3290 2.37200000 1632812216 1632812216 -15.00000000
1.47317600 2.27544141 -0.62581384 3 2 3292 2.78200000 1632812221 1632812221 -13.00000000
1.78444624 2.75516963 -0.63806528 2 4 3293 3.34400000 1632812225 1632812225 -11.00000000
2.24983788 3.47107410 -0.65514755 2 6 3295 4.18800000 1632812230 1632812230 -9.00000000
3.03452587 4.67812061 -0.68466198 4 8 3297 5.61800000 1632812235 1632812235 -7.00000000
4.55944681 7.02630091 -0.73280549 4 10 3298 8.40800000 1632812239 1632812239 -5.00000000
5.51100016 8.48295403 2.33544183 56 13 3301 10.38200000 1632812246 1632812246 13.00000000
4.79622555 7.37989855 2.35835910 40 15 3302 9.11200000 1632812251 1632812251 15.00000000
1.24699581 1.91288769 -0.61184824 4 0 3310 2.36400000 1632812271 1632812271 -15.00000000
1.47898018 2.26702094 -0.62491405 3 2 3312 2.77800000 1632812276 1632812276 -13.00000000
1.77903080 2.72590685 -0.63272262 2 4 3313 3.31600000 1632812281 1632812281 -11.00000000
2.26302052 3.46485353 -0.65546042 4 6 3315 4.19000000 1632812285 1632812285 -9.00000000
3.04975104 4.66583824 -0.68441826 6 8 3317 5.61600000 1632812290 1632812290 -7.00000000
4.59593964 7.02868557 -0.73472291 4 10 3318 8.43000000 1632812294 1632812294 -5.00000000
5.53524065 8.45551300 2.33319235 53 13 3321 10.37200000 1632812301 1632812301 13.00000000
4.82112455 7.35903835 2.35732388 38 15 3323 9.10800000 1632812306 1632812306 15.00000000
1.25121164 1.90551233 -0.61081296 4 0 3329 2.36000000 1632812327 1632812327 -15.00000000
1.49505126 2.27513266 -0.62851322 3 2 3331 2.79400000 1632812331 1632812331 -13.00000000
1.79668796 2.73311639 -0.63577557 2 4 3332 3.33200000 1632812336 1632812336 -11.00000000
2.28644061 3.47548294 -0.65890199 2 6 3334 4.21200000 1632812341 1632812341 -9.00000000
3.06520677 4.65569925 -0.68441826 6 8 3336 5.61600000 1632812345 1632812345 -7.00000000
4.60716724 6.99510336 -0.73280549 4 10 3337 8.40800000 1632812350 1632812350 -5.00000000
5.56646824 8.44199181 2.33454204 56 13 3340 10.37800000 1632812357 1632812357 13.00000000
4.83996534 7.33740568 2.35525322 40 15 3341 9.10000000 1632812361 1632812361 15.00000000
1.25465751 1.89629972 -0.60926002 4 0 3349 2.35400000 1632812382 1632812382 -15.00000000
1.49868047 2.26340079 -0.62671363 3 2 3351 2.78600000 1632812387 1632812387 -13.00000000
1.80404902 2.72355461 -0.63501233 2 4 3352 3.32800000 1632812391 1632812391 -11.00000000
2.29419255 3.46089482 -0.65765047 2 6 3354 4.20400000 1632812396 1632812396 -9.00000000
3.08692646 4.65324211 -0.68563694 6 8 3356 5.62600000 1632812400 1632812400 -7.00000000
4.63596344 6.98561907 -0.73350275 4 10 3357 8.41600000 1632812405 1632812405 -5.00000000
5.60021591 8.42900276 2.33634162 57 13 3360 10.38600000 1632812412 1632812412 13.00000000
4.86896467 7.32283449 2.35628867 40 15 3362 9.10400000 1632812417 1632812417 15.00000000
1.26448393 1.89673078 -0.61081296 4 0 3369 2.36000000 1632812437 1632812437 -15.00000000
1.50657201 2.25815558 -0.62671363 3 2 3371 2.78600000 1632812442 1632812442 -13.00000000
1.80482602 2.70417714 -0.63195938 2 4 3372 3.31200000 1632812447 1632812447 -11.00000000
2.29748201 3.43972421 -0.65514755 2 6 3374 4.18800000 1632812451 1632812451 -9.00000000
3.10315037 4.64243841 -0.68563694 6 8 3376 5.62600000 1632812456 1632812456 -7.00000000
4.67139482 6.98595619 -0.73524582 4 10 3377 8.43600000 1632812460 1632812460 -5.00000000
5.63610888 8.41911888 2.33904099 55 13 3380 10.39800000 1632812467 1632812467 13.00000000
4.89214659 7.30504274 2.35577106 40 15 3381 9.10200000 1632812472 1632812472 15.00000000
1.27540588 1.89872003 -0.61288351 4 0 3389 2.36800000 1632812493 1632812493 -15.00000000
1.51879406 2.25935197 -0.62851322 3 2 3391 2.79400000 1632812497 1632812497 -13.00000000
1.82959235 2.72066879 -0.63730204 2 4 3392 3.34000000 1632812502 1632812502 -11.00000000
2.30616617 3.42676711 -0.65420896 2 6 3394 4.18200000 1632812506 1632812506 -9.00000000
3.11379218 4.62334585 -0.68441826 6 8 3396 5.61600000 1632812511 1632812511 -7.00000000
4.70243120 6.97952127 -0.73629171 4 10 3397 8.44800000 1632812516 1632812516 -5.00000000
5.66110420 8.39293194 2.33724141 56 13 3400 10.39000000 1632812523 1632812523 13.00000000
4.91869640 7.28952312 2.35628867 40 15 3401 9.10400000 1632812527 1632812527 15.00000000
1.28635705 1.90065598 -0.61495405 4 0 3409 2.37600000 1632812548 1632812548 -15.00000000
1.52011442 2.24435592 -0.62581384 3 2 3411 2.78200000 1632812553 1632812553 -13.00000000
1.84128058 2.71751618 -0.63806528 2 4 3412 3.34400000 1632812557 1632812557 -11.00000000
2.32587409 3.43014097 -0.65639901 2 6 3414 4.19600000 1632812562 1632812562 -9.00000000
3.13548493 4.62066174 -0.68563694 6 8 3416 5.62600000 1632812566 1632812566 -7.00000000
4.71557570 6.94657993 -0.73454863 4 10 3417 8.42800000 1632812571 1632812571 -5.00000000
5.68160343 8.36022568 2.33364224 59 13 3420 10.37400000 1632812578 1632812578 13.00000000
4.95171499 7.28349209 2.35991216 42 15 3421 9.11800000 1632812582 1632812582 15.00000000
1.28645360 1.88657761 -0.61184824 4 0 3429 2.36400000 1632812603 1632812603 -15.00000000
1.52793944 2.23903584 -0.62581384 3 2 3431 2.78200000 1632812608 1632812608 -13.00000000
1.83304465 2.68512917 -0.63195938 4 4 3432 3.31200000 1632812612 1632812612 -11.00000000
2.33114743 3.41221476 -0.65452182 2 6 3434 4.18400000 1632812617 1632812617 -9.00000000
3.14711332 4.60313368 -0.68466198 6 8 3436 5.61800000 1632812622 1632812622 -7.00000000
4.73079681 6.91692066 -0.73315412 4 10 3437 8.41200000 1632812626 1632812626 -5.00000000
5.71295357 8.34355831 2.33454204 56 13 3440 10.37800000 1632812633 1632812633 13.00000000
4.97291708 7.25732613 2.35732388 40 15 3442 9.10800000 1632812638 1632812638 15.00000000
1.29303110 1.88207555 -0.61184824 4 0 3449 2.36400000 1632812659 1632812659 -15.00000000
1.54457831 2.24653530 -0.62941307 3 2 3451 2.79800000 1632812663 1632812663 -13.00000000
1.84908175 2.68841982 -0.63424909 2 4 3452 3.32400000 1632812668 1632812668 -11.00000000
2.34304404 3.40405679 -0.65452182 2 6 3454 4.18400000 1632812672 1632812672 -9.00000000
3.16541433 4.59538984 -0.68514943 6 8 3456 5.62200000 1632812677 1632812677 -7.00000000
4.75265121 6.89708376 -0.73280549 8 10 3457 8.40800000 1632812682 1632812682 -5.00000000
5.74868250 8.33318996 2.33724141 62 13 3460 10.39000000 1632812688 1632812688 13.00000000
4.99366379 7.23602581 2.35577106 42 15 3461 9.10200000 1632812693 1632812693 15.00000000
1.29959285 1.87755060 -0.61184824 4 0 3469 2.36400000 1632812714 1632812714 -15.00000000
1.54575288 2.23151827 -0.62671363 3 2 3471 2.78600000 1632812718 1632812718 -13.00000000
1.86292768 2.68840361 -0.63577557 4 4 3472 3.33200000 1632812723 1632812723 -11.00000000
3.19275379 4.60062075 -0.68758684 6 8 3476 5.64200000 1632812732 1632812732 -7.00000000
4.78578758 6.89354515 -0.73420000 8 10 3477 8.42400000 1632812737 1632812737 -5.00000000
5.77773571 8.31307220 2.33724141 59 13 3480 10.39000000 1632812744 1632812744 13.00000000
5.01889181 7.21855068 2.35577106 40 15 3481 9.10200000 1632812748 1632812748 15.00000000
1.30834889 1.87617195 -0.61288351 4 0 3489 2.36800000 1632812769 1632812769 -15.00000000
1.55130243 2.22291303 -0.62581384 3 2 3491 2.78200000 1632812774 1632812774 -13.00000000
1.87904358 2.69154310 -0.63806528 4 4 3492 3.34400000 1632812778 1632812778 -11.00000000
2.35883212 3.37628102 -0.65233171 2 6 3494 4.17000000 1632812783 1632812783 -9.00000000
3.19741869 4.57317924 -0.68514943 6 8 3496 5.62200000 1632812787 1632812787 -7.00000000
4.81438923 6.88332844 -0.73489720 8 10 3497 8.43200000 1632812792 1632812792 -5.00000000
5.80224752 8.28646851 2.33544183 57 13 3500 10.38200000 1632812799 1632812799 13.00000000
5.04627562 7.20415163 2.35680628 42 15 3501 9.10600000 1632812804 1632812804 15.00000000
1.31933212 1.87791646 -0.61495405 4 0 3509 2.37600000 1632812824 1632812824 -15.00000000
1.55568993 2.21270180 -0.62446415 4 2 3511 2.77600000 1632812829 1632812829 -13.00000000
1.88390958 2.67854428 -0.63653880 2 4 3512 3.33600000 1632812834 1632812834 -11.00000000
2.38993192 3.39548779 -0.65765047 4 6 3514 4.20400000 1632812838 1632812838 -9.00000000
3.21793532 4.56848192 -0.68612438 6 8 3516 5.63000000 1632812843 1632812843 -7.00000000
4.84068251 6.86973810 -0.73524582 13 10 3517 8.43600000 1632812847 1632812847 -5.00000000
5.82889080 8.26297951 2.33454204 59 13 3520 10.37800000 1632812854 1632812854 13.00000000
5.07710266 7.19192076 2.35887671 42 15 3522 9.11400000 1632812859 1632812859 15.00000000
1.32220495 1.86879992 -0.61340111 4 0 3528 2.37000000 1632812880 1632812880 -15.00000000
1.56752336 2.21389270 -0.62626374 4 2 3530 2.78400000 1632812884 1632812884 -13.00000000
1.88370347 2.65946555 -0.63348585 4 4 3531 3.32000000 1632812889 1632812889 -11.00000000
2.39889407 3.38432074 -0.65702474 2 6 3533 4.20000000 1632812893 1632812893 -9.00000000
3.22847319 4.55130911 -0.68514943 6 8 3535 5.62200000 1632812898 1632812898 -7.00000000
4.86343670 6.85364819 -0.73524582 13 10 3536 8.43600000 1632812903 1632812903 -5.00000000
5.86077404 8.24995899 2.33634162 57 13 3539 10.38600000 1632812910 1632812910 13.00000000
5.09967184 7.17593527 2.35887671 42 15 3540 9.11400000 1632812914 1632812914 15.00000000
1.32087123 1.85316122 -0.60977769 4 0 3548 2.35600000 1632812935 1632812935 -15.00000000
1.58089995 2.21633983 -0.62851322 3 2 3550 2.79400000 1632812939 1632812939 -13.00000000
1.90209806 2.66565895 -0.63653880 2 4 3551 3.33600000 1632812944 1632812944 -11.00000000
2.40150928 3.36306572 -0.65452182 2 6 3553 4.18400000 1632812949 1632812949 -9.00000000
3.24895716 4.54647255 -0.68612438 6 8 3555 5.63000000 1632812953 1632812953 -7.00000000
4.88964796 6.83987141 -0.73559445 13 10 3556 8.44000000 1632812958 1632812958 -5.00000000
5.88840199 8.22786617 2.33589172 54 13 3559 10.38400000 1632812965 1632812965 13.00000000
5.11794186 7.14866543 2.35577106 40 15 3560 9.10200000 1632812969 1632812969 15.00000000
1.33183897 1.85481608 -0.61184824 4 0 3568 2.36400000 1632812990 1632812990 -15.00000000
1.57952940 2.19814777 -0.62491405 3 2 3570 2.77800000 1632812995 1632812995 -13.00000000
1.91368318 2.66219139 -0.63730204 2 4 3571 3.34000000 1632812999 1632812999 -11.00000000
2.42246222 3.36749077 -0.65702474 2 6 3573 4.20000000 1632813004 1632813004 -9.00000000
3.27176619 4.54476976 -0.68758684 6 8 3575 5.64200000 1632813009 1632813009 -7.00000000
4.91815138 6.82922888 -0.73629171 13 10 3576 8.44800000 1632813013 1632813013 -5.00000000
5.92506456 8.21832752 2.33904099 37 13 3579 10.39800000 1632813020 1632813020 13.00000000
5.14297819 7.12829256 2.35525322 38 15 3581 9.10000000 1632813025 1632813025 15.00000000
1.33943760 1.85172105 -0.61236584 3 0 3588 2.36600000 1632813045 1632813045 -15.00000000
1.58490729 2.18946362 -0.62401420 3 2 3590 2.77400000 1632813050 1632813050 -13.00000000
1.92757022 2.66185570 -0.63882852 2 4 3591 3.34800000 1632813055 1632813055 -11.00000000
2.42840648 3.35101676 -0.65546042 2 6 3593 4.19000000 1632813059 1632813059 -9.00000000
3.28294897 4.52689362 -0.68661189 6 8 3595 5.63400000 1632813064 1632813064 -7.00000000
4.93961954 6.80879450 -0.73594308 8 10 3596 8.44400000 1632813069 1632813069 -5.00000000
5.94913483 8.19128799 2.33724141 9 13 3599 10.39000000 1632813075 1632813075 13.00000000
5.17691565 7.12279844 2.35939431 42 15 3601 9.11600000 1632813080 1632813080 15.00000000
1.35158169 1.85484087 -0.61495405 4 0 3608 2.37600000 1632813101 1632813101 -15.00000000
1.60172582 2.19651437 -0.62761343 3 2 3610 2.79000000 1632813105 1632813105 -13.00000000
1.92759395 2.64242220 -0.63577557 2 4 3611 3.33200000 1632813110 1632813110 -11.00000000
2.45523047 3.36326075 -0.65952772 6 6 3613 4.21600000 1632813115 1632813115 -9.00000000
3.29053354 4.50418615 -0.68490571 4 8 3615 5.62000000 1632813119 1632813119 -7.00000000
4.96100569 6.78829336 -0.73559445 8 10 3616 8.44000000 1632813124 1632813124 -5.00000000
5.00077915 6.83520126 1.95527458 17 13 3619 8.69200000 1632813131 1632813131 13.00000000
5.20060587 7.10312557 2.35887671 42 15 3621 9.11400000 1632813135 1632813135 15.00000000
1.35576177 1.84699690 -0.61391878 4 0 3628 2.37200000 1632813156 1632813156 -15.00000000
1.60938334 2.19090986 -0.62761343 3 2 3630 2.79000000 1632813161 1632813161 -13.00000000
1.93913102 2.63884163 -0.63653880 2 4 3631 3.33600000 1632813165 1632813165 -11.00000000
2.46461487 3.35148716 -0.65890199 6 6 3633 4.21200000 1632813170 1632813170 -9.00000000
3.30976582 4.49746895 -0.68563694 6 8 3635 5.62600000 1632813175 1632813175 -7.00000000
4.99175835 6.78056145 -0.73664033 8 10 3636 8.45200000 1632813179 1632813179 -5.00000000
5.03616953 6.83339071 1.95977354 21 13 3639 8.71200000 1632813186 1632813186 13.00000000
5.22766209 7.08803844 2.35991216 40 15 3641 9.11800000 1632813191 1632813191 15.00000000
1.35466945 1.83340621 -0.61081296 4 0 3646 2.36000000 1632813211 1632813211 -15.00000000
1.62205136 2.19367766 -0.62986296 3 2 3648 2.80000000 1632813216 1632813216 -13.00000000
1.94741166 2.63273668 -0.63653880 4 4 3649 3.33600000 1632813221 1632813221 -11.00000000
2.47043061 3.33737683 -0.65765047 6 6 3651 4.20400000 1632813225 1632813225 -9.00000000
3.32860518 4.49342918 -0.68661189 6 8 3653 5.63400000 1632813230 1632813230 -7.00000000
5.01066256 6.76164436 -0.73629171 8 10 3654 8.44800000 1632813234 1632813234 -5.00000000
5.07038403 6.83475161 1.96472251 23 13 3657 8.73400000 1632813241 1632813241 13.00000000
5.24176216 7.06318855 2.35680628 45 15 3658 9.10600000 1632813246 1632813246 15.00000000
1.36452127 1.83331549 -0.61236584 3 0 3666 2.36600000 1632813267 1632813267 -15.00000000
1.62504256 2.18175077 -0.62806332 3 2 3668 2.79200000 1632813271 1632813271 -13.00000000
1.96128178 2.63222003 -0.63806528 2 4 3669 3.34400000 1632813276 1632813276 -11.00000000
2.46907616 3.31131363 -0.65420896 6 6 3671 4.18200000 1632813280 1632813280 -9.00000000
2.91807437 3.91062212 -0.59910971 4 8 3673 4.91600000 1632813285 1632813285 -7.00000000
5.03661823 6.74730635 -0.73664033 8 10 3674 8.45200000 1632813290 1632813290 -5.00000000
5.11404181 6.84354830 1.97237086 21 13 3677 8.76800000 1632813297 1632813297 13.00000000
5.26992893 7.04702330 2.35784149 45 15 3679 9.11000000 1632813301 1632813301 15.00000000
1.37438893 1.83317828 -0.61391878 4 0 3686 2.37200000 1632813322 1632813322 -15.00000000
1.62446177 2.16515374 -0.62491405 3 2 3688 2.77800000 1632813327 1632813327 -13.00000000
1.96810102 2.62221742 -0.63730204 2 4 3689 3.34000000 1632813331 1632813331 -11.00000000
2.48655152 3.31057215 -0.65577328 6 6 3691 4.19200000 1632813336 1632813336 -9.00000000
2.87684202 3.82741857 -0.58789772 14 8 3693 4.82400000 1632813340 1632813340 -7.00000000
5.06492996 6.73605394 -0.73733759 4 10 3694 8.46000000 1632813345 1632813345 -5.00000000
5.14610291 6.83655405 1.97552013 19 13 3697 8.78200000 1632813352 1632813352 13.00000000
5.29559278 7.03259516 2.35887671 42 15 3698 9.11400000 1632813357 1632813357 15.00000000
1.38077962 1.82836962 -0.61391878 4 0 3706 2.37200000 1632813377 1632813377 -15.00000000
1.63905942 2.16879821 -0.62761343 3 2 3708 2.79000000 1632813382 1632813382 -13.00000000
1.98079419 2.62002969 -0.63844693 4 4 3709 3.34600000 1632813386 1632813386 -11.00000000
2.50524330 3.31132412 -0.65765047 4 6 3711 4.20400000 1632813391 1632813391 -9.00000000
2.86621976 3.78570008 -0.58302295 21 8 3713 4.78400000 1632813396 1632813396 -7.00000000
2.90147758 3.83087921 -0.42043930 5 10 3714 4.82400000 1632813400 1632813400 -5.00000000
2.88095522 3.80102563 -0.24995653 7 12 3716 4.77600000 1632813405 1632813405 -3.00000000
5.18406439 6.83718300 1.98091900 11 13 3717 8.80600000 1632813407 1632813407 13.00000000
5.32366848 7.01621628 2.35991216 45 15 3719 9.11800000 1632813412 1632813412 15.00000000
1.38162231 1.81560981 -0.61133057 4 0 3727 2.36200000 1632813433 1632813433 -15.00000000
2.88431168 3.78757143 -1.09911084 35 2 3729 4.88600000 1632813437 1632813437 -13.00000000
1.97610724 2.59401155 -0.63386750 4 4 3730 3.32200000 1632813442 1632813442 -11.00000000
2.51257277 3.29583597 -0.65639901 4 6 3732 4.19600000 1632813446 1632813446 -9.00000000
2.86683130 3.75780869 -0.58034182 21 8 3734 4.76200000 1632813451 1632813451 -7.00000000
2.89857650 3.79804516 -0.41799894 20 10 3735 4.79600000 1632813456 1632813456 -5.00000000
5.22328568 6.83671904 1.98631775 2 13 3738 8.83000000 1632813463 1632813463 13.00000000
2.88879442 3.77975321 -0.08303855 16 14 3739 4.75800000 1632813465 1632813465 -1.00000000
5.34343481 6.99145126 2.35784149 40 15 3739 9.11000000 1632813467 1632813467 15.00000000
1.38912678 1.81230927 -0.61184824 4 0 3747 2.36400000 1632813488 1632813488 -15.00000000
1.99112582 2.59488559 -0.63577557 4 4 3750 3.33200000 1632813497 1632813497 -11.00000000
2.53128052 3.29644585 -0.65827620 4 6 3752 4.20800000 1632813502 1632813502 -9.00000000
2.88597870 3.75564885 -0.58156049 23 8 3754 4.77200000 1632813506 1632813506 -7.00000000
2.89360237 3.76420999 -0.41538426 24 10 3755 4.76600000 1632813511 1632813511 -5.00000000
5.36548758 6.96722794 2.35628867 40 15 3760 9.10400000 1632813522 1632813522 15.00000000
2.88179350 3.73264265 -1.26355457 33 0 3767 4.88200000 1632813543 1632813543 -15.00000000
2.00737500 2.59723973 -0.63806528 4 4 3770 3.34400000 1632813552 1632813552 -11.00000000
2.54277182 3.28759003 -0.65827620 6 6 3772 4.20800000 1632813557 1632813557 -9.00000000
2.89056563 3.73456335 -0.57985431 25 8 3774 4.75800000 1632813562 1632813562 -7.00000000
2.90550447 3.75251126 -0.41520995 24 10 3775 4.76400000 1632813566 1632813566 -5.00000000
5.38974619 6.95092344 2.35680628 40 15 3779 9.10600000 1632813578 1632813578 15.00000000
2.90107679 3.72793913 -1.09056270 162 2 3789 4.84800000 1632813603 1632813603 -13.00000000
2.01884079 2.59331512 -0.63882852 4 4 3790 3.34800000 1632813608 1632813608 -11.00000000
2.56151605 3.28804398 -0.66015345 6 6 3792 4.22000000 1632813612 1632813612 -9.00000000
2.89992237 3.71975398 -0.57912314 29 8 3794 4.75200000 1632813617 1632813617 -7.00000000
2.91000867 3.73134851 -0.41398978 27 10 3795 4.75000000 1632813621 1632813621 -5.00000000
2.91842675 3.73944998 -0.24859579 188 12 3797 4.75000000 1632813626 1632813626 -3.00000000
6.23718548 7.98897982 2.33994079 60 13 3798 10.40200000 1632813628 1632813628 13.00000000
5.42589045 6.94482327 2.36146498 45 15 3800 9.12400000 1632813633 1632813633 15.00000000
2.91037083 3.71573853 -1.08966291 162 2 3807 4.84400000 1632813658 1632813658 -13.00000000
2.01486945 2.57150626 -0.63501233 4 4 3808 3.32800000 1632813663 1632813663 -11.00000000
