# .PCD v0.7 - Point Cloud Data file format
VERSION 0.7
FIELDS x y z intensity laser_id azimuth distance_m adjustedtime timestamp vertical_angle
SIZE 4 4 4 1 1 2 8 8 4 8
TYPE F F F U U U F U U F
COUNT 1 1 1 1 1 1 1 1 1 1
WIDTH 525
HEIGHT 1
VIEWPOINT 0 0 0 1 0 0 0
POINTS 525
DATA ascii
0.97834408 -1.80113602 -0.54921401 4 0 15149 2.12200000 1631145316 1631145316 -15.00000000
2.77950358 -5.11920881 0.10167772 8 1 15150 5.82600000 1631145318 1631145318 1.00000000
1.13499212 -2.09126592 -0.54933047 3 2 15151 2.44200000 1631145320 1631145320 -13.00000000
2.79052305 -5.14378500 0.30668870 7 3 15152 5.86000000 1631145323 1631145323 3.00000000
1.34248459 -2.47460842 -0.54724020 2 4 15152 2.86800000 1631145325 1631145325 -11.00000000
2.79991937 -5.16325521 0.51387024 9 5 15153 5.89600000 1631145327 1631145327 5.00000000
1.62289798 -2.99398875 -0.53938603 1 6 15154 3.44800000 1631145330 1631145330 -9.00000000
2.80678248 -5.18022537 0.72341645 7 7 15155 5.93600000 1631145332 1631145332 7.00000000
2.07699275 -3.83491635 -0.53549391 10 8 15156 4.39400000 1631145334 1631145334 -7.00000000
2.82039952 -5.20969820 0.93829393 7 9 15157 5.99800000 1631145337 1631145337 9.00000000
2.77165198 -5.11965418 -0.50933814 10 10 15157 5.84400000 1631145339 1631145339 -5.00000000
2.81620336 -5.20411682 1.15019667 43 11 15158 6.02800000 1631145341 1631145341 11.00000000
2.77853513 -5.13665009 -0.30606067 9 12 15159 5.84800000 1631145343 1631145343 -3.00000000
2.79153848 -5.16499710 -0.10248053 9 14 15161 5.87200000 1631145348 1631145348 -1.00000000
2.82267642 -5.22478914 1.59121954 38 15 15162 6.14800000 1631145350 1631145350 15.00000000
0.97571570 -1.81134319 -0.55128455 4 0 15169 2.13000000 1631145371 1631145371 -15.00000000
2.78626609 -5.17465782 0.10258525 8 1 15170 5.87800000 1631145373 1631145373 1.00000000
1.12583816 -2.09178305 -0.54843068 3 2 15171 2.43800000 1631145376 1631145376 -13.00000000
2.78863716 -5.18339539 0.30846813 7 3 15172 5.89400000 1631145378 1631145378 3.00000000
1.33011782 -2.47236395 -0.54571372 3 4 15172 2.86000000 1631145380 1631145380 -11.00000000
2.79980850 -5.20633745 0.51718217 9 5 15173 5.93400000 1631145383 1631145383 5.00000000
1.62178993 -3.01703477 -0.54251474 1 6 15174 3.46800000 1631145385 1631145385 -9.00000000
2.80747461 -5.22496462 0.72829121 7 7 15175 5.97600000 1631145387 1631145387 7.00000000
2.07956147 -3.87187290 -0.53963745 8 8 15176 4.42800000 1631145390 1631145390 -7.00000000
2.81152010 -5.23468447 0.94110972 10 9 15176 6.01600000 1631145392 1631145392 9.00000000
2.76978517 -5.15913963 -0.51230145 11 10 15177 5.87800000 1631145394 1631145394 -5.00000000
2.81937242 -5.25370312 1.15897381 37 11 15178 6.07400000 1631145396 1631145396 11.00000000
2.78041434 -5.18327808 -0.30825877 18 12 15179 5.89000000 1631145399 1631145399 -3.00000000
2.81420517 -5.24847031 1.37490082 46 13 15180 6.11200000 1631145401 1631145401 13.00000000
2.78293896 -5.19233465 -0.10282958 11 14 15181 5.89200000 1631145403 1631145403 -1.00000000
2.82449961 -5.26987743 1.60208988 40 15 15181 6.19000000 1631145406 1631145406 15.00000000
0.96574605 -1.80792212 -0.54921401 4 0 15189 2.12200000 1631145426 1631145426 -15.00000000
2.79079127 -5.22668743 0.10342296 8 1 15190 5.92600000 1631145429 1631145429 1.00000000
1.11852968 -2.09570026 -0.54843068 3 2 15191 2.43800000 1631145431 1631145431 -13.00000000
2.79591012 -5.24067640 0.31129426 7 3 15192 5.94800000 1631145433 1631145433 3.00000000
1.31593490 -2.46659875 -0.54342401 2 4 15192 2.84800000 1631145436 1631145436 -11.00000000
2.79568076 -5.24244928 0.51979685 9 5 15193 5.96400000 1631145438 1631145438 5.00000000
1.61403632 -3.02790713 -0.54345334 1 6 15194 3.47400000 1631145440 1631145440 -9.00000000
2.80975556 -5.27327490 0.73365343 7 7 15195 6.02000000 1631145443 1631145443 7.00000000
2.12855577 -3.99649763 -0.55596793 6 8 15196 4.56200000 1631145445 1631145445 -7.00000000
2.80159831 -5.26239061 0.94423842 25 9 15197 6.03600000 1631145447 1631145447 9.00000000
2.76861286 -5.20043278 -0.51543903 11 10 15197 5.91400000 1631145449 1631145449 -5.00000000
2.81577325 -5.29124260 1.16507971 37 11 15198 6.10600000 1631145452 1631145452 11.00000000
2.76793218 -5.20353174 -0.30888683 25 12 15199 5.90200000 1631145454 1631145454 -3.00000000
2.80959058 -5.28407145 1.38164937 35 13 15200 6.14200000 1631145456 1631145456 13.00000000
2.76385880 -5.20025158 -0.10279468 24 14 15201 5.89000000 1631145459 1631145459 -1.00000000
2.82601166 -5.31943369 1.61399555 38 15 15202 6.23600000 1631145461 1631145461 15.00000000
0.95581228 -1.80445361 -0.54714346 4 0 15209 2.11400000 1631145482 1631145482 -15.00000000
2.78562975 -5.26113892 0.10391163 8 1 15210 5.95400000 1631145484 1631145484 1.00000000
1.11667693 -2.10992622 -0.55113006 3 2 15211 2.45000000 1631145486 1631145486 -13.00000000
2.79721284 -5.28747797 0.31349239 7 3 15212 5.99000000 1631145489 1631145489 3.00000000
1.30548072 -2.46770644 -0.54266077 2 4 15212 2.84400000 1631145491 1631145491 -11.00000000
2.79040337 -5.27683449 0.52223718 9 5 15213 5.99200000 1631145493 1631145493 5.00000000
2.76658654 -5.23400545 -0.93766820 4 6 15214 5.99400000 1631145496 1631145496 -9.00000000
2.80895090 -5.31639862 0.73828447 7 7 15215 6.05800000 1631145498 1631145498 7.00000000
2.07843757 -3.93544555 -0.54646212 2 8 15216 4.48400000 1631145500 1631145500 -7.00000000
2.80258226 -5.30658722 0.95049584 7 9 15216 6.07600000 1631145502 1631145502 9.00000000
2.77462697 -5.25587606 -0.51997113 11 10 15217 5.96600000 1631145505 1631145505 -5.00000000
2.81561089 -5.33576584 1.17271209 43 11 15218 6.14600000 1631145507 1631145507 11.00000000
2.74975157 -5.21316195 -0.30888683 34 12 15219 5.90200000 1631145509 1631145509 -3.00000000
2.81112361 -5.33177042 1.39154720 9 13 15220 6.18600000 1631145512 1631145512 13.00000000
2.73543406 -5.19040823 -0.10241072 24 14 15221 5.86800000 1631145514 1631145514 -1.00000000
2.81826377 -5.34757519 1.61968958 33 15 15221 6.25800000 1631145516 1631145516 15.00000000
0.94950771 -1.80777907 -0.54714346 4 0 15229 2.11400000 1631145537 1631145537 -15.00000000
2.78212070 -5.29915905 0.10447010 8 1 15230 5.98600000 1631145539 1631145539 1.00000000
1.10024953 -2.09655571 -0.54663104 3 2 15231 2.43000000 1631145542 1631145542 -13.00000000
2.79451156 -5.32727766 0.31527179 7 3 15232 6.02400000 1631145544 1631145544 3.00000000
1.30597878 -2.48963428 -0.54647696 3 4 15232 2.86400000 1631145546 1631145546 -11.00000000
2.79232168 -5.32536221 0.52607208 9 5 15233 6.03600000 1631145549 1631145549 5.00000000
2.74279761 -5.23313284 -0.93579096 2 6 15234 5.98200000 1631145551 1631145551 -9.00000000
2.79774594 -5.34023857 0.74023438 7 7 15235 6.07400000 1631145553 1631145553 7.00000000
2.05271578 -3.91981554 -0.54329354 2 8 15236 4.45800000 1631145555 1631145555 -7.00000000
2.80326796 -5.35532570 0.95737892 10 9 15237 6.12000000 1631145558 1631145558 9.00000000
2.77474332 -5.30083275 -0.52345741 11 10 15237 6.00600000 1631145560 1631145560 -5.00000000
2.80516005 -5.36121750 1.17614663 46 11 15238 6.16400000 1631145562 1631145562 11.00000000
2.71857858 -5.19795132 -0.30742142 31 12 15239 5.87400000 1631145565 1631145565 -3.00000000
2.81326056 -5.38127136 1.40189493 29 13 15240 6.23200000 1631145567 1631145567 13.00000000
2.71359491 -5.19283581 -0.10227110 24 14 15241 5.86000000 1631145569 1631145569 -1.00000000
2.81563902 -5.39040279 1.62952471 38 15 15242 6.29600000 1631145572 1631145572 15.00000000
0.94529295 -1.81434429 -0.54817873 4 0 15248 2.11800000 1631145592 1631145592 -15.00000000
2.77931142 -5.33673334 0.10502858 8 1 15249 6.01800000 1631145595 1631145595 1.00000000
1.09509075 -2.10364985 -0.54753089 3 2 15250 2.43400000 1631145597 1631145597 -13.00000000
2.79065919 -5.36309147 0.31684187 7 3 15251 6.05400000 1631145599 1631145599 3.00000000
1.29227829 -2.48350167 -0.54418725 2 4 15251 2.85200000 1631145602 1631145602 -11.00000000
2.79487300 -5.37347984 0.52990693 9 5 15252 6.08000000 1631145604 1631145604 5.00000000
2.72087264 -5.23343658 -0.93422663 2 6 15253 5.97200000 1631145606 1631145606 -9.00000000
2.80015993 -5.38823843 0.74559665 7 7 15254 6.11800000 1631145608 1631145608 7.00000000
2.03421545 -3.91603136 -0.54183108 2 8 15255 4.44600000 1631145611 1631145611 -7.00000000
2.81101608 -5.41143656 0.96582639 20 9 15255 6.17400000 1631145613 1631145613 9.00000000
2.77092195 -5.33652830 -0.52607208 11 10 15256 6.03600000 1631145615 1631145615 -5.00000000
2.81449819 -5.42276621 1.18759513 40 11 15257 6.22400000 1631145618 1631145618 11.00000000
2.69396853 -5.19275475 -0.30658403 31 12 15258 5.85800000 1631145620 1631145620 -3.00000000
2.81334233 -5.42516994 1.41089296 43 13 15259 6.27200000 1631145622 1631145622 13.00000000
2.69636011 -5.20180559 -0.10227110 24 14 15260 5.86000000 1631145625 1631145625 -1.00000000
2.82091665 -5.44210005 1.64246571 38 15 15260 6.34600000 1631145627 1631145627 15.00000000
0.94072723 -1.82106566 -0.54921401 4 0 15268 2.12200000 1631145648 1631145648 -15.00000000
2.77901530 -5.38193846 0.10572668 8 1 15269 6.05800000 1631145650 1631145650 1.00000000
1.08595335 -2.10399604 -0.54663104 3 2 15270 2.43000000 1631145652 1631145652 -13.00000000
2.78932023 -5.40652418 0.31883064 7 3 15271 6.09200000 1631145655 1631145655 3.00000000
1.28360140 -2.48799753 -0.54418725 2 4 15271 2.85200000 1631145657 1631145657 -11.00000000
2.79710221 -5.42393112 0.53391606 9 5 15272 6.12600000 1631145659 1631145659 5.00000000
2.69082189 -5.22007656 -0.93015933 2 6 15273 5.94600000 1631145661 1631145661 -9.00000000
2.80133748 -5.43680191 0.75095892 7 7 15274 6.16200000 1631145664 1631145664 7.00000000
2.01871562 -3.91957879 -0.54134363 2 8 15275 4.44200000 1631145666 1631145666 -7.00000000
2.80748558 -5.45107031 0.97114515 42 9 15275 6.20800000 1631145668 1631145668 9.00000000
2.77142811 -5.38336802 -0.52973258 11 10 15276 6.07800000 1631145671 1631145671 -5.00000000
2.81172180 -5.46397972 1.19446433 37 11 15277 6.26000000 1631145673 1631145673 11.00000000
2.67399883 -5.19857502 -0.30637470 31 12 15278 5.85400000 1631145675 1631145675 -3.00000000
2.80864501 -5.46268654 1.41809142 44 13 15279 6.30400000 1631145678 1631145678 13.00000000
2.66904521 -5.19340038 -0.10192205 24 14 15280 5.84000000 1631145680 1631145680 -1.00000000
2.81868076 -5.48456001 1.65230083 40 15 15280 6.38400000 1631145682 1631145682 15.00000000
0.93260354 -1.82089949 -0.54817873 4 0 15288 2.11800000 1631145703 1631145703 -15.00000000
2.78390455 -5.43788624 0.10663420 8 1 15289 6.11000000 1631145705 1631145705 1.00000000
1.08392882 -2.11818266 -0.54933047 3 2 15290 2.44200000 1631145708 1631145708 -13.00000000
2.78771210 -5.45001268 0.32081941 7 3 15291 6.13000000 1631145710 1631145710 3.00000000
1.27312076 -2.48896718 -0.54342401 2 4 15291 2.84800000 1631145712 1631145712 -11.00000000
2.79266429 -5.46204519 0.53670508 9 5 15292 6.15800000 1631145714 1631145714 5.00000000
2.67887664 -5.24175024 -0.93234938 2 6 15293 5.96000000 1631145717 1631145717 -9.00000000
2.81304669 -5.50665188 0.75924599 7 7 15294 6.23000000 1631145719 1631145719 7.00000000
2.01043797 -3.93720913 -0.54280603 2 8 15295 4.45400000 1631145721 1631145721 -7.00000000
2.80006003 -5.48595572 0.97552532 37 9 15296 6.23600000 1631145724 1631145724 9.00000000
2.45371723 -4.80739164 -0.47220981 3 10 15296 5.41800000 1631145726 1631145726 -5.00000000
2.81404495 -5.51573277 1.20362318 40 11 15297 6.30800000 1631145728 1631145728 11.00000000
2.64857745 -5.19364309 -0.30553731 31 12 15298 5.83800000 1631145731 1631145731 -3.00000000
2.80725980 -5.50718117 1.42708945 47 13 15299 6.34400000 1631145733 1631145733 13.00000000
2.64182234 -5.18486834 -0.10157301 24 14 15300 5.82000000 1631145735 1631145735 -1.00000000
2.81705976 -5.52879143 1.66265357 38 15 15300 6.42400000 1631145737 1631145737 15.00000000
0.92274314 -1.81725371 -0.54610819 4 0 15308 2.11000000 1631145758 1631145758 -15.00000000
2.78119659 -5.47966766 0.10726249 8 1 15309 6.14600000 1631145761 1631145761 1.00000000
1.07829177 -2.12542915 -0.55023026 3 2 15310 2.44600000 1631145763 1631145763 -13.00000000
2.79125404 -5.50424290 0.32343620 7 3 15311 6.18000000 1631145765 1631145765 3.00000000
1.26442492 -2.49339604 -0.54342401 3 4 15311 2.84800000 1631145767 1631145767 -11.00000000
2.78439093 -5.49308538 0.53879678 6 5 15312 6.18200000 1631145770 1631145770 5.00000000
2.64717126 -5.22463751 -0.92765635 2 6 15313 5.93000000 1631145772 1631145772 -9.00000000
2.80636430 -5.54123068 0.76265836 7 7 15314 6.25800000 1631145774 1631145774 7.00000000
2.01102757 -3.97254038 -0.54670590 2 8 15315 4.48600000 1631145777 1631145777 -7.00000000
2.79962301 -5.53271055 0.98209560 42 9 15316 6.27800000 1631145779 1631145779 9.00000000
2.47200441 -4.88525963 -0.47900796 10 10 15316 5.49600000 1631145781 1631145781 -5.00000000
2.81072426 -5.55705643 1.21049225 43 11 15317 6.34400000 1631145784 1631145784 11.00000000
2.61961842 -5.18146801 -0.30428123 30 12 15318 5.81400000 1631145786 1631145786 -3.00000000
4.66984415 -9.24071217 2.39032984 35 13 15319 10.62600000 1631145788 1631145788 13.00000000
2.65977240 -5.26545429 -0.10296920 27 14 15320 5.90000000 1631145790 1631145790 -1.00000000
3.59697556 -7.12389040 2.13836288 11 15 15321 8.26200000 1631145793 1631145793 15.00000000
0.91639411 -1.82046354 -0.54610819 4 0 15328 2.11000000 1631145814 1631145814 -15.00000000
2.78002834 -5.52506876 0.10796059 8 1 15329 6.18600000 1631145816 1631145816 1.00000000
1.06561244 -2.11873460 -0.54753089 3 2 15330 2.43400000 1631145818 1631145818 -13.00000000
2.78906846 -5.54785728 0.32542497 2 3 15331 6.21800000 1631145820 1631145820 3.00000000
1.25395000 -2.49428654 -0.54266077 3 4 15331 2.84400000 1631145823 1631145823 -11.00000000
2.77772379 -5.52769518 0.54123718 9 5 15332 6.21000000 1631145825 1631145825 5.00000000
1.51528513 -3.01674294 -0.53469300 1 6 15333 3.41800000 1631145827 1631145827 -9.00000000
2.70857167 -5.39712334 -0.74145311 4 8 15335 6.08400000 1631145832 1631145832 -7.00000000
2.75153017 -5.48511076 -0.53687936 11 10 15336 6.16000000 1631145837 1631145837 -5.00000000
5.20158529 -10.37375546 2.25574398 40 11 15337 11.82200000 1631145839 1631145839 11.00000000
2.75186133 -5.49055195 -0.32186612 32 12 15338 6.15000000 1631145841 1631145841 -3.00000000
4.63144922 -9.24476051 2.38718057 44 13 15339 10.61200000 1631145843 1631145843 13.00000000
2.75061274 -5.49284697 -0.10722759 27 14 15340 6.14400000 1631145846 1631145846 -1.00000000
3.56987214 -7.12887001 2.13629246 18 15 15340 8.25400000 1631145848 1631145848 15.00000000
0.91175914 -1.82710850 -0.54714346 4 0 15348 2.11400000 1631145869 1631145869 -15.00000000
2.76697326 -5.54726505 0.10820492 8 1 15349 6.20000000 1631145871 1631145871 1.00000000
1.05647111 -2.11895323 -0.54663104 3 2 15350 2.43000000 1631145873 1631145873 -13.00000000
2.77503085 -5.56828451 0.32605299 10 3 15351 6.23000000 1631145876 1631145876 3.00000000
1.24873841 -2.50567698 -0.54418725 3 4 15351 2.85200000 1631145878 1631145878 -11.00000000
1.51707220 -3.04677010 -0.53907317 1 6 15353 3.44600000 1631145883 1631145883 -9.00000000
2.72154665 -5.47052813 -0.75022769 4 8 15355 6.15600000 1631145887 1631145887 -7.00000000
2.58865142 -5.20567608 -0.50864089 14 10 15356 5.83600000 1631145892 1631145892 -5.00000000
5.17233372 -10.40591431 2.25879693 34 11 15357 11.83800000 1631145894 1631145894 11.00000000
2.72734690 -5.48939228 -0.32123810 32 12 15358 6.13800000 1631145896 1631145896 -3.00000000
4.61128569 -9.28530598 2.39347911 46 13 15359 10.64000000 1631145899 1631145899 13.00000000
2.73142242 -5.50241470 -0.10722759 24 14 15360 6.14400000 1631145901 1631145901 -1.00000000
3.54754281 -7.14647865 2.13784528 15 15 15360 8.26000000 1631145903 1631145903 15.00000000
0.90708888 -1.83374310 -0.54817873 4 0 15368 2.11800000 1631145924 1631145924 -15.00000000
2.76354671 -5.58915567 0.10883321 5 1 15369 6.23600000 1631145926 1631145926 1.00000000
1.04906821 -2.12262821 -0.54663104 3 2 15370 2.43000000 1631145929 1631145929 -13.00000000
1.23650610 -2.50297976 -0.54266077 3 4 15371 2.84400000 1631145933 1631145933 -11.00000000
1.50817633 -3.05558991 -0.53969890 1 6 15373 3.45000000 1631145938 1631145938 -9.00000000
2.71209216 -5.49957895 -0.75290883 6 8 15375 6.17800000 1631145942 1631145942 -7.00000000
2.76161957 -5.60247564 -0.54646653 15 10 15376 6.27000000 1631145947 1631145947 -5.00000000
5.15506840 -10.46264935 2.26719260 34 11 15377 11.88200000 1631145949 1631145949 11.00000000
2.70816875 -5.49887943 -0.32123810 32 12 15378 6.13800000 1631145952 1631145952 -3.00000000
4.58228874 -9.30833912 2.39527893 47 13 15379 10.64800000 1631145954 1631145954 13.00000000
2.70425296 -5.49576759 -0.10691344 27 14 15380 6.12600000 1631145956 1631145956 -1.00000000
3.52001667 -7.15361834 2.13629246 11 15 15380 8.25400000 1631145959 1631145959 15.00000000
0.90068239 -1.83689833 -0.54817873 4 0 15388 2.11800000 1631145979 1631145979 -15.00000000
1.04336715 -2.12977719 -0.54753089 3 2 15390 2.43400000 1631145984 1631145984 -13.00000000
1.22603476 -2.50375438 -0.54189754 3 4 15391 2.84000000 1631145989 1631145989 -11.00000000
1.49576497 -3.05728698 -0.53907317 1 6 15393 3.44600000 1631145993 1631145993 -9.00000000
2.69462204 -5.51257944 -0.75339627 6 8 15395 6.18200000 1631145998 1631145998 -7.00000000
2.75779033 -5.64430380 -0.54960412 34 10 15396 6.30600000 1631146002 1631146002 -5.00000000
5.12971544 -10.50351334 2.27215362 28 11 15397 11.90800000 1631146005 1631146005 11.00000000
2.68895745 -5.50829887 -0.32123810 32 12 15398 6.13800000 1631146007 1631146007 -3.00000000
4.56002378 -9.34529400 2.40067768 48 13 15399 10.67200000 1631146009 1631146009 13.00000000
2.67716312 -5.48899794 -0.10659930 27 14 15400 6.10800000 1631146012 1631146012 -1.00000000
3.48530793 -7.14910698 2.13111591 9 15 15401 8.23400000 1631146014 1631146014 15.00000000
0.88919830 -1.82960594 -0.54507291 4 0 15408 2.10600000 1631146035 1631146035 -15.00000000
1.03933132 -2.14041829 -0.54933047 3 2 15410 2.44200000 1631146039 1631146039 -13.00000000
1.21900201 -2.51155114 -0.54266077 3 4 15411 2.84400000 1631146044 1631146044 -11.00000000
1.48766971 -3.06782174 -0.54001176 1 6 15413 3.45200000 1631146048 1631146048 -9.00000000
2.67017007 -5.51123285 -0.75193387 6 8 15415 6.17000000 1631146053 1631146053 -7.00000000
2.74328160 -5.66465473 -0.55065000 27 10 15416 6.31800000 1631146058 1631146058 -5.00000000
4.50878572 -9.31442165 2.01150846 9 11 15417 10.54200000 1631146060 1631146060 11.00000000
2.65927482 -5.49607706 -0.31998202 32 12 15418 6.11400000 1631146062 1631146062 -3.00000000
4.54094982 -9.38922405 2.40787601 48 13 15419 10.70400000 1631146065 1631146065 13.00000000
2.64319110 -5.46770334 -0.10600591 29 14 15420 6.07400000 1631146067 1631146067 -1.00000000
3.45149183 -7.13975382 2.12490439 9 15 15420 8.21000000 1631146069 1631146069 15.00000000
0.88280636 -1.83269870 -0.54507291 4 0 15428 2.10600000 1631146090 1631146090 -15.00000000
1.02847314 -2.13700938 -0.54753089 3 2 15430 2.43400000 1631146094 1631146094 -13.00000000
1.46925056 -3.05697227 -0.53719598 1 6 15433 3.43400000 1631146104 1631146104 -9.00000000
2.63373017 -5.48473072 -0.74705905 9 8 15435 6.13000000 1631146108 1631146108 -7.00000000
2.73038864 -5.68856573 -0.55204445 19 10 15436 6.33400000 1631146113 1631146113 -5.00000000
5.06985044 -10.56739140 2.27825952 25 11 15437 11.94000000 1631146115 1631146115 11.00000000
2.62280130 -5.46930838 -0.31788859 48 12 15438 6.07400000 1631146118 1631146118 -3.00000000
4.51994038 -9.42961979 2.41417480 50 13 15439 10.73200000 1631146120 1631146120 13.00000000
2.61890483 -5.46607637 -0.10579649 33 14 15440 6.06200000 1631146122 1631146122 -1.00000000
3.42654848 -7.15175819 2.12490439 6 15 15440 8.21000000 1631146124 1631146124 15.00000000
0.88273913 -1.84987020 -0.54921401 4 0 15449 2.12200000 1631146145 1631146145 -15.00000000
1.01560187 -2.13021016 -0.54483145 3 2 15451 2.42200000 1631146150 1631146150 -13.00000000
1.46228218 -3.07125449 -0.53876030 3 6 15454 3.44400000 1631146159 1631146159 -9.00000000
2.61190438 -5.49076176 -0.74657160 9 8 15456 6.12600000 1631146164 1631146164 -7.00000000
2.71636510 -5.71292973 -0.55343896 15 10 15457 6.35000000 1631146168 1631146168 -5.00000000
5.04625416 -10.61781883 2.28512859 34 11 15458 11.97600000 1631146171 1631146171 11.00000000
2.59845281 -5.46986485 -0.31736523 35 12 15459 6.06400000 1631146173 1631146173 -3.00000000
4.49287176 -9.46196556 2.41822386 53 13 15460 10.75000000 1631146175 1631146175 13.00000000
2.59885311 -5.47563839 -0.10579649 29 14 15461 6.06200000 1631146177 1631146177 -1.00000000
3.39326620 -7.15264463 2.12128091 6 15 15462 8.19600000 1631146180 1631146180 15.00000000
0.87462473 -1.84944737 -0.54817873 4 0 15469 2.11800000 1631146200 1631146200 -15.00000000
1.00982487 -2.13726640 -0.54573125 3 2 15471 2.42600000 1631146205 1631146205 -13.00000000
1.18884063 -2.51728582 -0.54113430 3 4 15472 2.83600000 1631146210 1631146210 -11.00000000
1.44480908 -3.06204820 -0.53625733 3 6 15474 3.42800000 1631146214 1631146214 -9.00000000
2.59272218 -5.49984550 -0.74657160 9 8 15476 6.12600000 1631146219 1631146219 -7.00000000
2.69300961 -5.71516752 -0.55274171 15 10 15477 6.34200000 1631146224 1631146224 -5.00000000
2.57934356 -5.47890139 -0.31736523 35 12 15479 6.06400000 1631146228 1631146228 -3.00000000
4.46728373 -9.49346066 2.42227292 52 13 15480 10.76800000 1631146230 1631146230 13.00000000
2.57972383 -5.48467636 -0.10579649 33 14 15481 6.06200000 1631146233 1631146233 -1.00000000
3.36581230 -7.15920115 2.11972809 6 15 15482 8.19000000 1631146235 1631146235 15.00000000
0.86684674 -1.84883928 -0.54714346 4 0 15488 2.11400000 1631146256 1631146256 -15.00000000
1.00438511 -2.14413261 -0.54663104 3 2 15490 2.43000000 1631146260 1631146260 -13.00000000
1.44050610 -3.07934737 -0.53844744 1 6 15493 3.44200000 1631146270 1631146270 -9.00000000
2.56774569 -5.49402571 -0.74462169 6 8 15495 6.11000000 1631146274 1631146274 -7.00000000
2.66307998 -5.70059967 -0.55047566 15 10 15496 6.31600000 1631146279 1631146279 -5.00000000
2.56116056 -5.48742485 -0.31736523 35 12 15498 6.06400000 1631146283 1631146283 -3.00000000
4.44813585 -9.53471279 2.42902160 51 13 15499 10.79800000 1631146286 1631146286 13.00000000
2.55645108 -5.48232698 -0.10558706 31 14 15500 6.05000000 1631146288 1631146288 -1.00000000
3.56648898 -7.65184689 2.26207852 6 15 15501 8.74000000 1631146290 1631146290 15.00000000
0.85631782 -1.84309399 -0.54455525 4 0 15508 2.10400000 1631146311 1631146311 -15.00000000
0.99853557 -2.15116072 -0.54753089 3 2 15510 2.43400000 1631146316 1631146316 -13.00000000
1.42808688 -3.08077264 -0.53782171 1 6 15513 3.43800000 1631146325 1631146325 -9.00000000
2.55022073 -5.50655794 -0.74510914 9 8 15515 6.11400000 1631146330 1631146330 -7.00000000
2.63814306 -5.69901228 -0.54942977 11 10 15516 6.30400000 1631146334 1631146334 -5.00000000
2.54785895 -5.50902081 -0.31809795 42 12 15518 6.07800000 1631146339 1631146339 -3.00000000
4.42382097 -9.56963921 2.43397045 48 13 15519 10.82000000 1631146341 1631146341 13.00000000
2.53897619 -5.49484777 -0.10565687 31 14 15520 6.05400000 1631146343 1631146343 -1.00000000
3.57701778 -7.74492598 2.28588986 27 15 15521 8.83200000 1631146346 1631146346 15.00000000
0.85311049 -1.85309112 -0.54662585 4 0 15528 2.11200000 1631146366 1631146366 -15.00000000
0.98939192 -2.15109229 -0.54663104 3 2 15530 2.43000000 1631146371 1631146371 -13.00000000
1.16449666 -2.53296161 -0.54189754 3 4 15531 2.84000000 1631146376 1631146376 -11.00000000
1.41897321 -3.08932900 -0.53844744 1 6 15533 3.44200000 1631146380 1631146380 -9.00000000
2.52932787 -5.51181793 -0.74462169 9 8 15535 6.11000000 1631146385 1631146385 -7.00000000
2.61657238 -5.70456457 -0.54908121 11 10 15536 6.30000000 1631146389 1631146389 -5.00000000
2.52112484 -5.50153971 -0.31715590 35 12 15538 6.06000000 1631146394 1631146394 -3.00000000
4.39850521 -9.60274029 2.43846941 50 13 15539 10.84000000 1631146396 1631146396 13.00000000
2.51811528 -5.50004053 -0.10558706 31 14 15540 6.05000000 1631146399 1631146399 -1.00000000
3.55372763 -7.76201439 2.28744268 29 15 15540 8.83800000 1631146401 1631146401 15.00000000
0.84583509 -1.85430014 -0.54610819 4 0 15548 2.11000000 1631146422 1631146422 -15.00000000
0.97702843 -2.14389324 -0.54393166 3 2 15550 2.41800000 1631146426 1631146426 -13.00000000
1.40736258 -3.09246540 -0.53813457 3 6 15553 3.44000000 1631146435 1631146435 -9.00000000
2.51089430 -5.52242041 -0.74486542 9 8 15555 6.11200000 1631146440 1631146440 -7.00000000
2.59994125 -5.72091913 -0.54977840 11 10 15556 6.30800000 1631146445 1631146445 -5.00000000
2.49860287 -5.50303221 -0.31673720 39 12 15558 6.05200000 1631146449 1631146449 -3.00000000
4.37462282 -9.63932991 2.44386816 46 13 15559 10.86400000 1631146452 1631146452 13.00000000
2.49972725 -5.51061821 -0.10562196 33 14 15560 6.05200000 1631146454 1631146454 -1.00000000
3.53323221 -7.79258204 2.29261899 33 15 15561 8.85800000 1631146456 1631146456 15.00000000
0.84319031 -1.86398876 -0.54817873 4 0 15566 2.11800000 1631146477 1631146477 -15.00000000
0.97349858 -2.15405512 -0.54573125 3 2 15568 2.42600000 1631146482 1631146482 -13.00000000
1.14767194 -2.54062915 -0.54189754 3 4 15569 2.84000000 1631146486 1631146486 -11.00000000
1.40089071 -3.10407352 -0.53938603 3 6 15571 3.44800000 1631146491 1631146491 -9.00000000
2.49026895 -5.52304316 -0.74389046 9 8 15573 6.10400000 1631146495 1631146495 -7.00000000
2.58604884 -5.73814106 -0.55065000 11 10 15574 6.31800000 1631146500 1631146500 -5.00000000
2.48130226 -5.51085472 -0.31673720 35 12 15576 6.05200000 1631146505 1631146505 -3.00000000
4.34591770 -9.65657997 2.44476795 46 13 15577 10.86800000 1631146507 1631146507 13.00000000
2.47994184 -5.51297283 -0.10551725 31 14 15578 6.04600000 1631146509 1631146509 -1.00000000
3.51168060 -7.80655432 2.29365444 33 15 15578 8.86200000 1631146512 1631146512 15.00000000
0.83193827 -1.85634327 -0.54507291 4 0 15586 2.10600000 1631146532 1631146532 -15.00000000
0.96278816 -2.15032578 -0.54393166 3 2 15588 2.41800000 1631146537 1631146537 -13.00000000
1.13879645 -2.54461980 -0.54189754 3 4 15589 2.84000000 1631146541 1631146541 -11.00000000
1.38279033 -3.09271455 -0.53657019 1 6 15591 3.43000000 1631146546 1631146546 -9.00000000
2.47097468 -5.53170204 -0.74389046 9 8 15593 6.10400000 1631146551 1631146551 -7.00000000
2.55788040 -5.72894001 -0.54890686 11 10 15594 6.29800000 1631146555 1631146555 -5.00000000
2.46367788 -5.52313089 -0.31694654 35 12 15596 6.05600000 1631146560 1631146560 -3.00000000
4.32011938 -9.68948936 2.44926715 50 13 15597 10.88800000 1631146562 1631146562 13.00000000
2.45579886 -5.51063681 -0.10530782 33 14 15598 6.03400000 1631146565 1631146565 -1.00000000
3.48304462 -7.81937313 2.29365444 31 15 15599 8.86200000 1631146567 1631146567 15.00000000
0.82388550 -1.85570467 -0.54403764 4 0 15606 2.10200000 1631146588 1631146588 -15.00000000
0.96159738 -2.16792440 -0.54753089 3 2 15608 2.43400000 1631146592 1631146592 -13.00000000
1.12592864 -2.53960562 -0.53998947 3 4 15609 2.83000000 1631146597 1631146597 -11.00000000
1.37918627 -3.11377788 -0.53938603 3 6 15611 3.44800000 1631146601 1631146601 -9.00000000
2.45245385 -5.54210901 -0.74413419 9 8 15613 6.10600000 1631146606 1631146606 -7.00000000
2.53867292 -5.73965597 -0.54908121 11 10 15614 6.30000000 1631146611 1631146611 -5.00000000
2.44438362 -5.53169680 -0.31694654 35 12 15616 6.05600000 1631146615 1631146615 -3.00000000
4.12722778 -9.34442425 2.35838675 59 13 15617 10.48400000 1631146618 1631146618 13.00000000
2.43897104 -5.52466345 -0.10541254 33 14 15618 6.04000000 1631146620 1631146620 -1.00000000
3.45631528 -7.82911301 2.29313684 31 15 15618 8.86000000 1631146622 1631146622 15.00000000
0.82051384 -1.86564279 -0.54610819 4 0 15626 2.11000000 1631146643 1631146643 -15.00000000
0.95088840 -2.16413140 -0.54573125 3 2 15628 2.42600000 1631146647 1631146647 -13.00000000
1.11626744 -2.54172277 -0.53960782 3 4 15629 2.82800000 1631146652 1631146652 -11.00000000
1.36037195 -3.10048389 -0.53625733 1 6 15631 3.42800000 1631146657 1631146657 -9.00000000
2.43149924 -5.54699945 -0.74364674 9 8 15633 6.10200000 1631146661 1631146661 -7.00000000
2.51142621 -5.73205805 -0.54751235 7 10 15634 6.28200000 1631146666 1631146666 -5.00000000
2.42025423 -5.52921772 -0.31631851 35 12 15636 6.04400000 1631146670 1631146670 -3.00000000
4.27502108 -9.77118778 2.46231413 50 13 15637 10.94600000 1631146673 1631146673 13.00000000
2.41967154 -5.53314352 -0.10541254 36 14 15638 6.04000000 1631146675 1631146675 -1.00000000
3.42837071 -7.84349871 2.29365444 31 15 15639 8.86200000 1631146677 1631146677 15.00000000
0.81367040 -1.86863756 -0.54610819 4 0 15647 2.11000000 1631146698 1631146698 -15.00000000
0.93984056 -2.16045403 -0.54393166 3 2 15649 2.41800000 1631146703 1631146703 -13.00000000
1.11007547 -2.55299878 -0.54113430 3 4 15650 2.83600000 1631146707 1631146707 -11.00000000
1.34270251 -3.09095454 -0.53375441 1 6 15652 3.41200000 1631146712 1631146712 -9.00000000
2.40641046 -5.54494810 -0.74218428 9 8 15654 6.09000000 1631146717 1631146717 -7.00000000
2.48960757 -5.73939657 -0.54733807 7 10 15655 6.28000000 1631146721 1631146721 -5.00000000
2.39679551 -5.53072071 -0.31589982 35 12 15657 6.03600000 1631146726 1631146726 -3.00000000
4.25079775 -9.81361389 2.46906281 55 13 15658 10.97600000 1631146728 1631146728 13.00000000
2.39858079 -5.54013968 -0.10537763 24 14 15659 6.03800000 1631146730 1631146730 -1.00000000
3.40327334 -7.86073637 2.29520726 36 15 15659 8.86800000 1631146733 1631146733 15.00000000
0.81020296 -1.87856197 -0.54817873 4 0 15667 2.11800000 1631146753 1631146753 -15.00000000
0.92920893 -2.15656281 -0.54213202 3 2 15669 2.41000000 1631146758 1631146758 -13.00000000
1.09805083 -2.54964542 -0.53960782 3 4 15670 2.82800000 1631146763 1631146763 -11.00000000
1.33736992 -3.10832453 -0.53594446 1 6 15672 3.42600000 1631146767 1631146767 -9.00000000
2.37841725 -5.53325319 -0.73950320 4 8 15674 6.06800000 1631146772 1631146772 -7.00000000
2.47270393 -5.75537443 -0.54803532 7 10 15675 6.28800000 1631146776 1631146776 -5.00000000
4.22573566 -9.84988308 2.47446156 53 13 15678 11.00000000 1631146783 1631146783 13.00000000
3.37824464 -7.88203526 2.29779553 31 15 15680 8.87800000 1631146788 1631146788 15.00000000
0.80396897 -1.88123846 -0.54817873 4 0 15686 2.11800000 1631146809 1631146809 -15.00000000
0.92970431 -2.17755461 -0.54663104 3 2 15688 2.43000000 1631146813 1631146813 -13.00000000
1.08650756 -2.54604983 -0.53808135 3 4 15689 2.82000000 1631146818 1631146818 -11.00000000
1.33325255 -3.12727928 -0.53844744 3 6 15691 3.44200000 1631146823 1631146823 -9.00000000
1.71909094 -4.03620720 -0.53866249 2 8 15693 4.42000000 1631146827 1631146827 -7.00000000
2.44658136 -5.74704409 -0.54646653 7 10 15694 6.27000000 1631146832 1631146832 -5.00000000
3.89508462 -9.15846157 -0.52158016 4 12 15696 9.96600000 1631146836 1631146836 -3.00000000
4.20143509 -9.88356972 2.47941041 49 13 15697 11.02200000 1631146839 1631146839 13.00000000
3.35044408 -7.88549757 2.29572487 31 15 15698 8.87000000 1631146843 1631146843 15.00000000
0.78836161 -1.86268449 -0.54196709 4 0 15706 2.09400000 1631146864 1631146864 -15.00000000
0.92361540 -2.18437648 -0.54753089 3 2 15708 2.43400000 1631146869 1631146869 -13.00000000
1.31464469 -3.11371589 -0.53531873 1 6 15711 3.42200000 1631146878 1631146878 -9.00000000
1.71579242 -4.06779003 -0.54207486 2 8 15713 4.44800000 1631146882 1631146882 -7.00000000
2.41953945 -5.73902607 -0.54489768 7 10 15714 6.25200000 1631146887 1631146887 -5.00000000
3.85611463 -9.15543652 -0.52063811 8 12 15716 9.94800000 1631146892 1631146892 -3.00000000
4.17825127 -9.92511654 2.48615909 45 13 15717 11.05200000 1631146894 1631146894 13.00000000
3.32002187 -7.89416313 2.29468966 31 15 15719 8.86600000 1631146899 1631146899 15.00000000
0.78558862 -1.87433350 -0.54455525 4 0 15726 2.10400000 1631146919 1631146919 -15.00000000
0.90845829 -2.16961193 -0.54303187 3 2 15728 2.41400000 1631146924 1631146924 -13.00000000
1.30986381 -3.13286591 -0.53782171 1 6 15731 3.43800000 1631146933 1631146933 -9.00000000
1.69546187 -4.05910063 -0.54012495 2 8 15733 4.43200000 1631146938 1631146938 -7.00000000
2.40102696 -5.75111389 -0.54524630 7 10 15734 6.25600000 1631146942 1631146942 -5.00000000
3.80491209 -9.12275696 -0.51802129 4 12 15736 9.89800000 1631146947 1631146947 -3.00000000
4.15632772 -9.97021866 2.49380732 51 13 15737 11.08600000 1631146949 1631146949 13.00000000
3.29679775 -7.91226196 2.29676032 33 15 15738 8.87400000 1631146954 1631146954 15.00000000
0.78274387 -1.88598573 -0.54714346 4 0 15746 2.11400000 1631146975 1631146975 -15.00000000
0.90237218 -2.17637014 -0.54393166 3 2 15748 2.41800000 1631146979 1631146979 -13.00000000
1.06279278 -2.56454253 -0.53960782 3 4 15749 2.82800000 1631146984 1631146984 -11.00000000
1.29438627 -3.12646818 -0.53594446 1 6 15751 3.42600000 1631146988 1631146988 -9.00000000
1.68583488 -4.07600069 -0.54158735 2 8 15753 4.44400000 1631146993 1631146993 -7.00000000
2.38550425 -5.77050781 -0.54629219 7 10 15754 6.26800000 1631146998 1631146998 -5.00000000
3.76542068 -9.11752319 -0.51697457 4 12 15756 9.87800000 1631147002 1631147002 -3.00000000
4.12373066 -9.99007034 2.49515700 50 13 15757 11.09200000 1631147005 1631147005 13.00000000
3.27357960 -7.93443680 2.29986596 31 15 15758 8.88600000 1631147009 1631147009 15.00000000
0.77575082 -1.88678432 -0.54662585 4 0 15765 2.11200000 1631147030 1631147030 -15.00000000
0.89663094 -2.18295574 -0.54483145 3 2 15767 2.42200000 1631147035 1631147035 -13.00000000
1.05577385 -2.57168531 -0.54037106 3 4 15768 2.83200000 1631147039 1631147039 -11.00000000
1.28326190 -3.12891579 -0.53563160 1 6 15770 3.42400000 1631147044 1631147044 -9.00000000
1.65575159 -4.04115677 -0.53622514 2 8 15772 4.40000000 1631147048 1631147048 -7.00000000
2.36182499 -5.76732397 -0.54524630 7 10 15773 6.25600000 1631147053 1631147053 -5.00000000
3.73592138 -9.13180828 -0.51707923 4 12 15775 9.88000000 1631147058 1631147058 -3.00000000
4.09943056 -10.02533531 2.50055599 50 13 15776 11.11600000 1631147060 1631147060 13.00000000
3.25017357 -7.95240211 2.30193663 33 15 15777 8.89400000 1631147064 1631147064 15.00000000
0.76624650 -1.88232350 -0.54455525 4 0 15785 2.10400000 1631147085 1631147085 -15.00000000
0.88900554 -2.18607235 -0.54483145 3 2 15787 2.42200000 1631147090 1631147090 -13.00000000
1.27976394 -3.15167856 -0.53876030 1 6 15790 3.44400000 1631147099 1631147099 -9.00000000
1.64462006 -4.05426979 -0.53720009 2 8 15792 4.40800000 1631147104 1631147104 -7.00000000
2.33569002 -5.76076174 -0.54385185 7 10 15793 6.24000000 1631147108 1631147108 -5.00000000
3.70627213 -9.15034676 -0.51739329 4 12 15795 9.88600000 1631147113 1631147113 -3.00000000
4.07684231 -10.07029152 2.50820422 53 13 15796 11.15000000 1631147115 1631147115 13.00000000
3.22028041 -7.96247005 2.30141902 36 15 15798 8.89200000 1631147120 1631147120 15.00000000
0.76045626 -1.88883591 -0.54559052 4 0 15807 2.10800000 1631147141 1631147141 -15.00000000
0.88060510 -2.18946958 -0.54483145 3 2 15809 2.42200000 1631147145 1631147145 -13.00000000
1.03250051 -2.56842589 -0.53808135 3 4 15810 2.82000000 1631147150 1631147150 -11.00000000
1.25587451 -3.12723994 -0.53375441 3 6 15812 3.41200000 1631147154 1631147154 -9.00000000
1.63791025 -4.08266306 -0.54012495 2 8 15814 4.43200000 1631147159 1631147159 -7.00000000
2.30762076 -5.75489378 -0.54245734 7 10 15815 6.22400000 1631147164 1631147164 -5.00000000
3.65922689 -9.13484573 -0.51571852 4 12 15817 9.85400000 1631147168 1631147168 -3.00000000
4.05045891 -10.11662579 2.51585269 52 13 15818 11.18400000 1631147170 1631147170 13.00000000
3.19035697 -7.97242594 2.30090141 33 15 15819 8.89000000 1631147175 1631147175 15.00000000
0.75314313 -1.88968432 -0.54507291 4 0 15827 2.10600000 1631147196 1631147196 -15.00000000
0.87295705 -2.19253016 -0.54483145 3 2 15829 2.42200000 1631147200 1631147200 -13.00000000
1.03223968 -2.59390378 -0.54266077 3 4 15830 2.84400000 1631147205 1631147205 -11.00000000
1.24130201 -3.12242651 -0.53219002 3 6 15832 3.40200000 1631147210 1631147210 -9.00000000
2.28825355 -5.76476574 -0.54263163 7 10 15835 6.22600000 1631147219 1631147219 -5.00000000
3.62437320 -9.14013672 -0.51529980 4 12 15837 9.84600000 1631147223 1631147223 -3.00000000
4.02804470 -10.16331291 2.52395082 51 13 15838 11.22000000 1631147226 1631147226 13.00000000
3.16606593 -7.99249411 2.30348945 36 15 15839 8.90000000 1631147230 1631147230 15.00000000
0.74862194 -1.89563477 -0.54610819 4 0 15845 2.11000000 1631147251 1631147251 -15.00000000
0.86034340 -2.18075967 -0.54123223 3 2 15847 2.40600000 1631147256 1631147256 -13.00000000
1.02120495 -2.58982825 -0.54113430 3 4 15848 2.83600000 1631147260 1631147260 -11.00000000
1.23872638 -3.14469004 -0.53531873 3 6 15850 3.42200000 1631147265 1631147265 -9.00000000
2.27086091 -5.77377987 -0.54280597 7 10 15853 6.22800000 1631147274 1631147274 -5.00000000
3.58614588 -9.12731171 -0.51393908 8 12 15855 9.82000000 1631147279 1631147279 -3.00000000
4.00179434 -10.19042873 2.52754998 46 13 15856 11.23600000 1631147281 1631147281 13.00000000
3.14235282 -8.00599766 2.30452466 36 15 15857 8.90400000 1631147286 1631147286 15.00000000
0.74200040 -1.89823639 -0.54610819 4 0 15865 2.11000000 1631147306 1631147306 -15.00000000
0.85697889 -2.19464111 -0.54393166 3 2 15867 2.41800000 1631147311 1631147311 -13.00000000
1.00502062 -2.57508802 -0.53731811 3 4 15868 2.81600000 1631147316 1631147316 -11.00000000
1.22774172 -3.14899468 -0.53531873 1 6 15870 3.42200000 1631147320 1631147320 -9.00000000
1.57776701 -4.05094099 -0.53378773 2 8 15872 4.38000000 1631147325 1631147325 -7.00000000
2.25358391 -5.78909826 -0.54350322 7 10 15873 6.23600000 1631147329 1631147329 -5.00000000
3.54847288 -9.12488270 -0.51310170 8 12 15875 9.80400000 1631147334 1631147334 -3.00000000
3.97184658 -10.21886635 2.53114915 48 13 15876 11.25200000 1631147336 1631147336 13.00000000
3.11648464 -8.02646542 2.30711293 33 15 15878 8.91400000 1631147341 1631147341 15.00000000
0.73397577 -1.89721143 -0.54507291 4 0 15885 2.10600000 1631147362 1631147362 -15.00000000
0.84931290 -2.19761920 -0.54393166 3 2 15887 2.41800000 1631147366 1631147366 -13.00000000
0.99178129 -2.56759238 -0.53502840 3 4 15888 2.80400000 1631147371 1631147371 -11.00000000
1.21887565 -3.15879011 -0.53625733 1 6 15890 3.42800000 1631147375 1631147375 -9.00000000
1.57075679 -4.07494593 -0.53622514 2 8 15892 4.40000000 1631147380 1631147380 -7.00000000
2.22834849 -5.78391552 -0.54228306 7 10 15893 6.22200000 1631147385 1631147385 -5.00000000
3.51301241 -9.12789345 -0.51257837 8 12 15895 9.79400000 1631147389 1631147389 -3.00000000
3.59333014 -9.34144783 2.31069732 8 13 15896 10.27200000 1631147392 1631147392 13.00000000
3.08915734 -8.03495312 2.30659533 36 15 15897 8.91200000 1631147396 1631147396 15.00000000
0.72458583 -1.89254534 -0.54300237 4 0 15905 2.09800000 1631147417 1631147417 -15.00000000
0.84442121 -2.20785093 -0.54573125 3 2 15907 2.42600000 1631147421 1631147421 -13.00000000
0.98561668 -2.57837391 -0.53655487 3 4 15908 2.81200000 1631147426 1631147426 -11.00000000
1.20784199 -3.16302538 -0.53625733 1 6 15910 3.42800000 1631147431 1631147431 -9.00000000
2.19678879 -5.76187181 -0.53949404 7 10 15913 6.19000000 1631147440 1631147440 -5.00000000
3.47615266 -9.12703514 -0.51184565 8 12 15915 9.78000000 1631147445 1631147445 -3.00000000
3.06040454 -8.04388142 2.30607772 33 15 15917 8.91000000 1631147451 1631147451 15.00000000
0.72002846 -1.90048265 -0.54455525 4 0 15925 2.10400000 1631147472 1631147472 -15.00000000
0.83395004 -2.20349479 -0.54393166 3 2 15927 2.41800000 1631147477 1631147477 -13.00000000
0.97661048 -2.58179879 -0.53655487 3 4 15928 2.81200000 1631147481 1631147481 -11.00000000
1.19539714 -3.16352654 -0.53563160 1 6 15930 3.42400000 1631147486 1631147486 -9.00000000
1.54507446 -4.09324121 -0.53720009 2 8 15932 4.40800000 1631147491 1631147491 -7.00000000
2.17736602 -5.77136898 -0.53966838 3 10 15933 6.19200000 1631147495 1631147495 -5.00000000
3.44215918 -9.13350677 -0.51153165 4 12 15935 9.77400000 1631147500 1631147500 -3.00000000
3.53352284 -9.38089466 2.31429648 48 13 15936 10.28800000 1631147502 1631147502 13.00000000
3.03498363 -8.06589317 2.30918360 33 15 15938 8.92200000 1631147507 1631147507 15.00000000
0.71135581 -1.89755774 -0.54300237 4 0 15945 2.09800000 1631147527 1631147527 -15.00000000
0.82488650 -2.20274258 -0.54303187 3 2 15947 2.41400000 1631147532 1631147532 -13.00000000
0.97034514 -2.59254670 -0.53808135 3 4 15948 2.82000000 1631147537 1631147537 -11.00000000
1.18019629 -3.15657830 -0.53375441 1 6 15950 3.41200000 1631147541 1631147541 -9.00000000
1.51549697 -4.05769825 -0.53183782 2 8 15952 4.36400000 1631147546 1631147546 -7.00000000
2.15651011 -5.77706766 -0.53949404 7 10 15953 6.19000000 1631147551 1631147551 -5.00000000
3.39141512 -9.09493923 -0.50870550 8 12 15955 9.72000000 1631147555 1631147555 -3.00000000
3.49803376 -9.38586807 2.31249690 50 13 15956 10.28000000 1631147557 1631147557 13.00000000
3.00748396 -8.07824802 2.30970120 36 15 15958 8.92400000 1631147562 1631147562 15.00000000
0.70808679 -1.90908563 -0.54559052 4 0 15965 2.10800000 1631147583 1631147583 -15.00000000
0.81719249 -2.20560861 -0.54303187 3 2 15967 2.41400000 1631147587 1631147587 -13.00000000
0.96197128 -2.59775925 -0.53846300 3 4 15968 2.82200000 1631147592 1631147592 -11.00000000
1.16985595 -3.16253138 -0.53406727 1 6 15970 3.41400000 1631147597 1631147597 -9.00000000
1.50407588 -4.07041168 -0.53281277 2 8 15972 4.37200000 1631147601 1631147601 -7.00000000
2.13495064 -5.78082228 -0.53914541 7 10 15973 6.18600000 1631147606 1631147606 -5.00000000
3.35619068 -9.09735298 -0.50818211 8 12 15975 9.71000000 1631147610 1631147610 -3.00000000
3.46457553 -9.39619255 2.31204700 51 13 15976 10.27800000 1631147613 1631147613 13.00000000
2.98327351 -8.09957409 2.31280708 36 15 15978 8.93600000 1631147617 1631147617 15.00000000
0.69875658 -1.90429127 -0.54351997 4 0 15985 2.10000000 1631147638 1631147638 -15.00000000
0.80948848 -2.20844769 -0.54303187 3 2 15987 2.41400000 1631147643 1631147643 -13.00000000
0.94681954 -2.58451033 -0.53502840 3 4 15988 2.80400000 1631147647 1631147647 -11.00000000
1.16152489 -3.17401600 -0.53531873 1 6 15990 3.42200000 1631147652 1631147652 -9.00000000
1.49122143 -4.07936573 -0.53330022 2 8 15992 4.37600000 1631147657 1631147657 -7.00000000
2.11202383 -5.78075361 -0.53844815 7 10 15993 6.17800000 1631147661 1631147661 -5.00000000
3.32509947 -9.11088943 -0.50828683 8 12 15995 9.71200000 1631147666 1631147666 -3.00000000
3.43576241 -9.41921329 2.31474638 51 13 15996 10.29000000 1631147668 1631147668 13.00000000
2.95233703 -8.10267735 2.31073642 36 15 15998 8.92800000 1631147673 1631147673 15.00000000
0.68880939 -1.89763916 -0.54093182 4 0 16005 2.09000000 1631147693 1631147693 -15.00000000
0.80177462 -2.21125984 -0.54303187 3 2 16007 2.41400000 1631147698 1631147698 -13.00000000
0.93912995 -2.59149122 -0.53579164 3 4 16008 2.80800000 1631147703 1631147703 -11.00000000
1.14236999 -3.15576220 -0.53156430 1 6 16010 3.39800000 1631147707 1631147707 -9.00000000
1.47562265 -4.08081293 -0.53281277 2 8 16012 4.37200000 1631147712 1631147712 -7.00000000
2.08506060 -5.76935291 -0.53670508 7 10 16013 6.15800000 1631147716 1631147716 -5.00000000
3.29327607 -9.12244034 -0.50828683 4 12 16015 9.71200000 1631147721 1631147721 -3.00000000
3.40286207 -9.43114948 2.31474638 53 13 16016 10.29000000 1631147723 1631147723 13.00000000
2.92414069 -8.10878849 2.30970120 36 15 16017 8.92400000 1631147728 1631147728 15.00000000
0.68609804 -1.91094124 -0.54403764 3 0 16025 2.10200000 1631147749 1631147749 -15.00000000
0.79405105 -2.21404505 -0.54303187 3 2 16027 2.41400000 1631147753 1631147753 -13.00000000
0.93537784 -2.60953832 -0.53884459 3 4 16028 2.82400000 1631147758 1631147758 -11.00000000
1.13334501 -3.16530967 -0.53250289 1 6 16030 3.40400000 1631147762 1631147762 -9.00000000
1.46738553 -4.10276079 -0.53500640 2 8 16032 4.39000000 1631147767 1631147767 -7.00000000
2.07161546 -5.79535723 -0.53844815 3 10 16033 6.17800000 1631147772 1631147772 -5.00000000
3.24932361 -9.10002327 -0.50640273 8 12 16035 9.67600000 1631147776 1631147776 -3.00000000
3.37123060 -9.44664097 2.31564617 50 13 16036 10.29400000 1631147779 1631147779 13.00000000
2.89829278 -8.13037014 2.31280708 36 15 16038 8.93600000 1631147783 1631147783 15.00000000
0.68006986 -1.91514504 -0.54455525 1 0 16045 2.10400000 1631147804 1631147804 -15.00000000
0.78371185 -2.20945692 -0.54123223 3 2 16047 2.40600000 1631147809 1631147809 -13.00000000
0.92495114 -2.60908675 -0.53808135 3 4 16048 2.82000000 1631147813 1631147813 -11.00000000
1.12360787 -3.17297077 -0.53312868 1 6 16050 3.40800000 1631147818 1631147818 -9.00000000
1.44842148 -4.09475803 -0.53330022 2 8 16052 4.37600000 1631147822 1631147822 -7.00000000
2.04738879 -5.79128265 -0.53740233 3 10 16053 6.16600000 1631147827 1631147827 -5.00000000
3.20955801 -9.08871078 -0.50514662 8 12 16055 9.65200000 1631147832 1631147832 -3.00000000
3.34082937 -9.46570206 2.31744576 51 13 16056 10.30200000 1631147834 1631147834 13.00000000
2.87260103 -8.14358044 2.31384230 36 15 16057 8.94000000 1631147839 1631147839 15.00000000
0.77470458 -2.20850134 -0.54033244 3 2 16067 2.40200000 1631147864 1631147864 -13.00000000
0.91064185 -2.59747791 -0.53502840 3 4 16068 2.80400000 1631147868 1631147868 -11.00000000
1.11383104 -3.18060231 -0.53375441 1 6 16070 3.41200000 1631147873 1631147873 -9.00000000
1.41969943 -4.05856609 -0.52793801 2 8 16072 4.33200000 1631147878 1631147878 -7.00000000
2.02518845 -5.79275179 -0.53687936 3 10 16073 6.16000000 1631147882 1631147882 -5.00000000
3.17913008 -9.10363007 -0.50535601 8 12 16075 9.65600000 1631147887 1631147887 -3.00000000
3.30648327 -9.47362614 2.31654596 53 13 16076 10.29800000 1631147889 1631147889 13.00000000
2.84909344 -8.17229557 2.31901860 38 15 16078 8.96000000 1631147894 1631147894 15.00000000
0.41086295 -1.18249512 -0.33542949 2 0 16084 1.29600000 1631147915 1631147915 -15.00000000
0.77248824 -2.22578621 -0.54393166 3 2 16086 2.41800000 1631147919 1631147919 -13.00000000
0.90137994 -2.59862876 -0.53464681 3 4 16087 2.80200000 1631147924 1631147924 -11.00000000
1.10457110 -3.18801141 -0.53438014 1 6 16089 3.41600000 1631147928 1631147928 -9.00000000
1.41921747 -4.10077000 -0.53281277 2 8 16091 4.37200000 1631147933 1631147933 -7.00000000
1.99684978 -5.77307463 -0.53443903 3 10 16092 6.13200000 1631147938 1631147938 -5.00000000
3.14240170 -9.09524536 -0.50430930 4 12 16094 9.63600000 1631147942 1631147942 -3.00000000
3.27695751 -9.49006462 2.31789565 53 13 16095 10.30400000 1631147945 1631147945 13.00000000
2.82151484 -8.17572784 2.31746578 38 15 16096 8.95400000 1631147949 1631147949 15.00000000
0.41300949 -1.20219254 -0.34060585 2 0 16104 1.31600000 1631147970 1631147970 -15.00000000
0.76597911 -2.23215556 -0.54483145 3 2 16106 2.42200000 1631147974 1631147974 -13.00000000
0.89102972 -2.59804511 -0.53388357 3 4 16107 2.79800000 1631147979 1631147979 -11.00000000
1.08959496 -3.18063498 -0.53250289 1 6 16109 3.40400000 1631147984 1631147984 -9.00000000
1.39332628 -4.07189178 -0.52842546 2 8 16111 4.33600000 1631147988 1631147988 -7.00000000
1.97926462 -5.78755045 -0.53513628 3 10 16112 6.14000000 1631147993 1631147993 -5.00000000
3.10546899 -9.09103870 -0.50347191 4 12 16114 9.62000000 1631147997 1631147997 -3.00000000
3.24758887 -9.51251030 2.32059503 52 13 16115 10.31600000 1631148000 1631148000 13.00000000
2.78965974 -8.18052864 2.31591272 38 15 16117 8.94800000 1631148004 1631148004 15.00000000
0.75278664 -2.22018385 -0.54123223 3 2 16127 2.40600000 1631148030 1631148030 -13.00000000
0.88402182 -2.60873103 -0.53541005 3 4 16128 2.80600000 1631148034 1631148034 -11.00000000
1.07603014 -3.17899394 -0.53156430 1 6 16130 3.39800000 1631148039 1631148039 -9.00000000
1.95612550 -5.78910351 -0.53461331 3 10 16133 6.13400000 1631148048 1631148048 -5.00000000
3.07276654 -9.10425186 -0.50357658 8 12 16135 9.62200000 1631148053 1631148053 -3.00000000
3.21955347 -9.54466152 2.32554412 53 13 16136 10.33800000 1631148055 1631148055 13.00000000
