# .PCD v0.7 - Point Cloud Data file format
VERSION 0.7
FIELDS x y z intensity laser_id azimuth distance_m adjustedtime timestamp vertical_angle
SIZE 4 4 4 1 1 2 8 8 4 8
TYPE F F F U U U F U U F
COUNT 1 1 1 1 1 1 1 1 1 1
WIDTH 536
HEIGHT 1
VIEWPOINT 0 0 0 1 0 0 0
POINTS 536
DATA ascii
1.98560417 5.12981224 -0.67539990 2 8 2116 5.54200000 1631509072 1631509072 -7.00000000
2.96012282 7.64352036 -0.71711743 4 10 2117 8.22800000 1631509076 1631509076 -5.00000000
3.78210521 9.76095390 2.03478718 43 11 2118 10.66400000 1631509079 1631509079 11.00000000
3.23674369 8.34482288 2.06640029 60 13 2120 9.18600000 1631509083 1631509083 13.00000000
2.67666650 6.89372015 1.98151863 20 15 2122 7.65600000 1631509088 1631509088 15.00000000
0.82628846 2.12041378 -0.60977769 4 0 2129 2.35600000 1631509109 1631509109 -15.00000000
0.97802299 2.50720620 -0.62131482 3 2 2131 2.76200000 1631509113 1631509113 -13.00000000
1.17633092 3.01402354 -0.62890643 2 4 2132 3.29600000 1631509118 1631509118 -11.00000000
1.48369133 3.79763556 -0.64576149 4 6 2134 4.12800000 1631509123 1631509123 -9.00000000
2.00566745 5.12839651 -0.67613113 2 8 2136 5.54800000 1631509127 1631509127 -7.00000000
3.00057960 7.66839361 -0.72042936 4 10 2137 8.26600000 1631509132 1631509132 -5.00000000
3.81185985 9.73672295 2.03249741 46 11 2138 10.65200000 1631509134 1631509134 11.00000000
3.27154112 8.34798908 2.06999969 59 13 2140 9.20200000 1631509139 1631509139 13.00000000
2.70162773 6.89020157 1.98307157 15 15 2141 7.66200000 1631509143 1631509143 15.00000000
0.83368504 2.11751652 -0.60977769 4 0 2149 2.35600000 1631509164 1631509164 -15.00000000
0.98533976 2.50015092 -0.62041503 3 2 2151 2.75800000 1631509169 1631509169 -13.00000000
1.18972528 3.01720476 -0.63043290 2 4 2152 3.30400000 1631509173 1631509173 -11.00000000
1.49621332 3.79059601 -0.64544863 2 6 2154 4.12600000 1631509178 1631509178 -9.00000000
2.01480293 5.09920979 -0.67320627 2 8 2156 5.52400000 1631509182 1631509182 -7.00000000
3.02220178 7.64490271 -0.71920919 4 10 2157 8.25200000 1631509187 1631509187 -5.00000000
3.84726834 9.72700977 2.03326058 46 11 2158 10.65600000 1631509189 1631509189 11.00000000
3.29348731 8.31839943 2.06550050 62 13 2160 9.18200000 1631509194 1631509194 13.00000000
2.73255777 6.89462090 1.98721266 13 15 2162 7.67800000 1631509199 1631509199 15.00000000
0.84355712 2.12192106 -0.61184824 4 0 2168 2.36400000 1631509219 1631509219 -15.00000000
0.99650729 2.50411224 -0.62221462 3 2 2170 2.76600000 1631509224 1631509224 -13.00000000
1.19536686 3.00229883 -0.62814319 2 4 2171 3.29200000 1631509229 1631509229 -11.00000000
1.51681995 3.80579853 -0.64889014 4 6 2173 4.14800000 1631509233 1631509233 -9.00000000
2.04199982 5.11831284 -0.67661858 2 8 2175 5.55200000 1631509238 1631509238 -7.00000000
3.05344558 7.64964199 -0.72060370 4 10 2176 8.26800000 1631509242 1631509242 -5.00000000
3.88095951 9.71784401 2.03402400 46 11 2177 10.66000000 1631509245 1631509245 11.00000000
3.32105398 8.30743217 2.06550050 59 13 2179 9.18200000 1631509249 1631509249 13.00000000
2.76137877 6.90393925 1.99238896 11 15 2180 7.69800000 1631509254 1631509254 15.00000000
0.84807914 2.11179280 -0.60977769 4 0 2188 2.35600000 1631509275 1631509275 -15.00000000
1.00814962 2.50785089 -0.62401420 3 2 2190 2.77400000 1631509279 1631509279 -13.00000000
1.20583951 2.99810791 -0.62814319 2 4 2191 3.29200000 1631509284 1631509284 -11.00000000
1.53157091 3.80414557 -0.64951593 4 6 2193 4.15200000 1631509288 1631509288 -9.00000000
2.05836964 5.10747147 -0.67613113 2 8 2195 5.54800000 1631509293 1631509293 -7.00000000
3.07193327 7.61861086 -0.71868628 4 10 2196 8.24600000 1631509298 1631509298 -5.00000000
3.91632628 9.70787907 2.03478718 46 11 2197 10.66400000 1631509300 1631509300 11.00000000
3.35003233 8.29578876 2.06550050 60 13 2199 9.18200000 1631509305 1631509305 13.00000000
2.78473735 6.89246702 1.99187136 9 15 2200 7.69600000 1631509309 1631509309 15.00000000
0.85544550 2.10881972 -0.60977769 4 0 2208 2.35600000 1631509330 1631509330 -15.00000000
1.01543117 2.50070548 -0.62311441 3 2 2210 2.77000000 1631509335 1631509335 -13.00000000
1.21777546 2.99751830 -0.62890643 4 4 2211 3.29600000 1631509339 1631509339 -11.00000000
1.54781711 3.80609560 -0.65076739 2 6 2213 4.16000000 1631509344 1631509344 -9.00000000
2.07843089 5.10577106 -0.67686236 2 8 2215 5.55400000 1631509348 1631509348 -7.00000000
3.09775710 7.60599613 -0.71851194 4 10 2216 8.24400000 1631509353 1631509353 -5.00000000
3.94648504 9.68505955 2.03287911 43 11 2217 10.65400000 1631509355 1631509355 11.00000000
3.38338542 8.29487133 2.06820011 62 13 2219 9.19400000 1631509360 1631509360 13.00000000
3.02775931 7.41929770 2.14716291 29 15 2220 8.29600000 1631509364 1631509364 15.00000000
0.86719602 2.11654639 -0.61288351 4 0 2228 2.36800000 1631509385 1631509385 -15.00000000
1.01823843 2.48272181 -0.61951518 3 2 2230 2.75400000 1631509390 1631509390 -13.00000000
1.23270297 3.00414681 -0.63119614 4 4 2231 3.30800000 1631509394 1631509394 -11.00000000
1.55133665 3.77691531 -0.64670008 4 6 2233 4.13400000 1631509399 1631509399 -9.00000000
2.10303426 5.11500883 -0.67905599 2 8 2235 5.57200000 1631509404 1631509404 -7.00000000
3.12883568 7.60619211 -0.71955782 4 10 2236 8.25600000 1631509408 1631509408 -5.00000000
3.97578502 9.66033173 2.03058934 50 11 2237 10.64200000 1631509411 1631509411 11.00000000
3.41083479 8.27940655 2.06730008 64 13 2239 9.19000000 1631509415 1631509415 13.00000000
3.06376982 7.42958212 2.15337443 27 15 2241 8.32000000 1631509420 1631509420 15.00000000
0.87162417 2.10636616 -0.61081296 4 0 2248 2.36000000 1631509441 1631509441 -15.00000000
1.02839005 2.48275304 -0.62041503 3 2 2250 2.75800000 1631509445 1631509445 -13.00000000
1.24167871 2.99619842 -0.63043290 4 4 2251 3.30400000 1631509450 1631509450 -11.00000000
1.57737839 3.80249572 -0.65201885 2 6 2253 4.16800000 1631509454 1631509454 -9.00000000
2.10945725 5.08013678 -0.67539990 2 8 2255 5.54200000 1631509459 1631509459 -7.00000000
3.17218375 7.63570261 -0.72339267 4 10 2256 8.30000000 1631509464 1631509464 -5.00000000
4.01249599 9.65364647 2.03211570 43 11 2257 10.65000000 1631509466 1631509466 11.00000000
3.43522310 8.25665474 2.06460071 59 13 2259 9.17800000 1631509470 1631509470 13.00000000
2.97034860 7.13580418 2.07106996 6 15 2260 8.00200000 1631509475 1631509475 15.00000000
0.88195103 2.11044073 -0.61288351 4 0 2268 2.36800000 1631509496 1631509496 -15.00000000
1.03554606 2.47555280 -0.61951518 3 2 2270 2.75400000 1631509500 1631509500 -13.00000000
1.25061393 2.98822379 -0.62966967 4 4 2271 3.30000000 1631509505 1631509505 -11.00000000
1.58606231 3.78603458 -0.65014166 2 6 2273 4.15600000 1631509510 1631509510 -9.00000000
2.12640977 5.07091188 -0.67515618 2 8 2275 5.54000000 1631509514 1631509514 -7.00000000
3.18648505 7.59518719 -0.72060370 4 10 2276 8.26800000 1631509519 1631509519 -5.00000000
3.46100378 8.23742676 2.06280112 62 13 2279 9.17000000 1631509526 1631509526 13.00000000
3.02069235 7.18594313 2.08866978 13 15 2280 8.07000000 1631509530 1631509530 15.00000000
0.88330358 2.09311056 -0.60874242 4 0 2288 2.35200000 1631509551 1631509551 -15.00000000
1.04569769 2.47551322 -0.62041503 3 2 2290 2.75800000 1631509556 1631509556 -13.00000000
1.25798011 2.97660661 -0.62814319 4 4 2291 3.29200000 1631509560 1631509560 -11.00000000
1.59926844 3.78047514 -0.65014166 2 6 2293 4.15600000 1631509565 1631509565 -9.00000000
2.14641976 5.06894207 -0.67588741 2 8 2295 5.54600000 1631509569 1631509569 -7.00000000
3.20986891 7.57667971 -0.71990645 4 10 2296 8.26000000 1631509574 1631509574 -5.00000000
3.49125910 8.22888374 2.06370091 59 13 2299 9.17400000 1631509581 1631509581 13.00000000
3.03971887 7.16112900 2.08452868 9 15 2300 8.05400000 1631509586 1631509586 15.00000000
0.89060456 2.09001446 -0.60874242 4 0 2308 2.35200000 1631509606 1631509606 -15.00000000
1.06197810 2.48977280 -0.62491405 3 2 2310 2.77800000 1631509611 1631509611 -13.00000000
1.26990390 2.97580862 -0.62890643 4 4 2311 3.29600000 1631509616 1631509616 -11.00000000
1.60779917 3.76397014 -0.64826441 2 6 2313 4.14400000 1631509620 1631509620 -9.00000000
2.16956353 5.07419586 -0.67759353 2 8 2315 5.56000000 1631509625 1631509625 -7.00000000
3.23472977 7.56176519 -0.71955782 4 10 2316 8.25600000 1631509629 1631509629 -5.00000000
4.47024488 10.44496346 2.20842338 59 11 2317 11.57400000 1631509632 1631509632 11.00000000
3.51996183 8.21664715 2.06370091 57 13 2319 9.17400000 1631509636 1631509636 13.00000000
3.05833173 7.13218451 2.07935214 27 15 2321 8.03400000 1631509641 1631509641 15.00000000
0.89716613 2.08720613 -0.60874242 4 0 2326 2.35200000 1631509662 1631509662 -15.00000000
1.06671393 2.47926402 -0.62311441 3 2 2328 2.77000000 1631509666 1631509666 -13.00000000
1.27769387 2.96819782 -0.62814319 4 4 2329 3.29200000 1631509671 1631509671 -11.00000000
1.62274277 3.76615715 -0.64951593 2 6 2331 4.15200000 1631509675 1631509675 -9.00000000
2.18156314 5.05824089 -0.67637485 2 8 2333 5.55000000 1631509680 1631509680 -7.00000000
3.25846982 7.55156612 -0.71955782 4 10 2334 8.25600000 1631509685 1631509685 -5.00000000
4.51159573 10.45069504 2.21262121 62 11 2335 11.59600000 1631509687 1631509687 11.00000000
3.54884982 8.21270370 2.06550050 62 13 2337 9.18200000 1631509692 1631509692 13.00000000
3.07718015 7.11775923 2.07779932 38 15 2338 8.02800000 1631509696 1631509696 15.00000000
0.90598452 2.08760619 -0.60977769 4 0 2346 2.35600000 1631509717 1631509717 -15.00000000
1.07536173 2.47552538 -0.62311441 3 2 2348 2.77000000 1631509721 1631509721 -13.00000000
1.28961205 2.96732092 -0.62890643 4 4 2349 3.29600000 1631509726 1631509726 -11.00000000
1.63115120 3.74960136 -0.64763868 2 6 2351 4.14000000 1631509731 1631509731 -9.00000000
2.18890381 5.02693462 -0.67320627 2 8 2353 5.52400000 1631509735 1631509735 -7.00000000
3.29674578 7.56754446 -0.72217250 4 10 2354 8.28600000 1631509740 1631509740 -5.00000000
4.55589247 10.45287991 2.21643734 62 11 2355 11.61600000 1631509742 1631509742 11.00000000
3.57437897 8.19312096 2.06370091 59 13 2357 9.17400000 1631509747 1631509747 13.00000000
3.10432529 7.11228609 2.07935214 38 15 2358 8.03400000 1631509751 1631509751 15.00000000
0.91326612 2.08443093 -0.60977769 4 0 2366 2.35600000 1631509772 1631509772 -15.00000000
1.08086562 2.46461797 -0.62131482 3 2 2368 2.76200000 1631509777 1631509777 -13.00000000
1.30469501 2.97358823 -0.63119614 4 4 2369 3.30800000 1631509781 1631509781 -11.00000000
1.64899576 3.75473642 -0.64951593 2 6 2371 4.15200000 1631509786 1631509786 -9.00000000
2.21921945 5.04833937 -0.67710608 2 8 2373 5.55600000 1631509791 1631509791 -7.00000000
3.32153726 7.55234289 -0.72182387 4 10 2374 8.28200000 1631509795 1631509795 -5.00000000
4.60184002 10.45847702 2.22101665 59 11 2375 11.64000000 1631509798 1631509798 11.00000000
3.59667277 8.16632652 2.06010175 60 13 2377 9.15800000 1631509802 1631509802 13.00000000
3.13271022 7.10616350 2.08090520 38 15 2379 8.04000000 1631509807 1631509807 15.00000000
0.92209947 2.08476377 -0.61081296 4 0 2386 2.36000000 1631509827 1631509827 -15.00000000
1.09577334 2.47508526 -0.62491405 3 2 2388 2.77800000 1631509832 1631509832 -13.00000000
1.31347668 2.96542573 -0.63043290 4 4 2389 3.30400000 1631509837 1631509837 -11.00000000
1.66529465 3.75618100 -0.65076739 2 6 2391 4.16000000 1631509841 1631509841 -9.00000000
2.23360705 5.03330421 -0.67613113 2 8 2393 5.54800000 1631509846 1631509846 -7.00000000
3.34868813 7.54252386 -0.72199816 4 10 2394 8.28400000 1631509851 1631509851 -5.00000000
4.64310074 10.45311546 2.22330642 56 11 2395 11.65200000 1631509853 1631509853 11.00000000
3.62673998 8.15728378 2.06100154 60 13 2397 9.16200000 1631509857 1631509857 13.00000000
3.15513992 7.08989000 2.07935214 40 15 2399 8.03400000 1631509862 1631509862 15.00000000
0.92900771 2.08169460 -0.61081296 4 0 2405 2.36000000 1631509883 1631509883 -15.00000000
1.09920621 2.46076226 -0.62221462 3 2 2407 2.76600000 1631509887 1631509887 -13.00000000
1.32490516 2.96463847 -0.63119614 4 4 2408 3.30800000 1631509892 1631509892 -11.00000000
1.67774141 3.75063801 -0.65076739 2 6 2410 4.16000000 1631509897 1631509897 -9.00000000
2.25028586 5.02586937 -0.67613113 2 8 2412 5.54800000 1631509901 1631509901 -7.00000000
3.37286711 7.52955914 -0.72182387 4 10 2413 8.28200000 1631509906 1631509906 -5.00000000
4.68014765 10.44303608 2.22445130 59 11 2414 11.65800000 1631509908 1631509908 11.00000000
3.65536571 8.14876842 2.06190133 60 13 2416 9.16600000 1631509913 1631509913 13.00000000
3.18021607 7.08291292 2.08038759 40 15 2418 8.03800000 1631509917 1631509917 15.00000000
0.93944228 2.08548450 -0.61288351 4 0 2425 2.36800000 1631509938 1631509938 -15.00000000
1.10939121 2.46046329 -0.62311441 3 2 2427 2.77000000 1631509943 1631509943 -13.00000000
1.33120918 2.95104766 -0.62928808 4 4 2428 3.29800000 1631509947 1631509947 -11.00000000
2.27680850 5.03788233 -0.67881227 2 8 2432 5.57000000 1631509957 1631509957 -7.00000000
3.40323377 7.52681684 -0.72269541 4 10 2433 8.29200000 1631509961 1631509961 -5.00000000
4.71980906 10.43379021 2.22597766 59 11 2434 11.66600000 1631509963 1631509963 11.00000000
3.68861079 8.14661026 2.06460071 62 13 2436 9.17800000 1631509968 1631509968 13.00000000
3.20731306 7.07704782 2.08194041 45 15 2438 8.04400000 1631509973 1631509973 15.00000000
0.94831544 2.08570981 -0.61391878 4 0 2445 2.37200000 1631509993 1631509993 -15.00000000
1.11474431 2.44948101 -0.62131482 3 2 2447 2.76200000 1631509998 1631509998 -13.00000000
1.34312928 2.94995642 -0.63005131 4 4 2448 3.30200000 1631510003 1631510003 -11.00000000
1.69896972 3.72804880 -0.64889014 2 6 2450 4.14800000 1631510007 1631510007 -9.00000000
2.29190850 5.02448559 -0.67808104 2 8 2452 5.56400000 1631510012 1631510012 -7.00000000
3.41625166 7.48589087 -0.71990645 4 10 2453 8.26000000 1631510016 1631510016 -5.00000000
4.76680088 10.44046879 2.23093867 62 11 2454 11.69200000 1631510019 1631510019 11.00000000
3.71054530 8.11950588 2.06100154 60 13 2456 9.16200000 1631510023 1631510023 13.00000000
3.23156691 7.06813002 2.08245802 42 15 2457 8.04600000 1631510028 1631510028 15.00000000
0.95236725 2.07536364 -0.61184824 4 0 2465 2.36400000 1631510049 1631510049 -15.00000000
1.12816811 2.45620012 -0.62401420 3 2 2467 2.77400000 1631510053 1631510053 -13.00000000
1.35587764 2.95060182 -0.63119614 4 4 2468 3.30800000 1631510058 1631510058 -11.00000000
1.71692538 3.73286343 -0.65076739 2 6 2470 4.16000000 1631510062 1631510062 -9.00000000
2.30528259 5.00743914 -0.67686236 2 8 2472 5.55400000 1631510067 1631510067 -7.00000000
3.45486403 7.50106525 -0.72252113 4 10 2473 8.29000000 1631510072 1631510072 -5.00000000
3.73396802 8.09588623 2.05830216 62 13 2476 9.15000000 1631510079 1631510079 13.00000000
3.25826097 7.05799198 2.08297563 45 15 2478 8.04800000 1631510083 1631510083 15.00000000
0.95635843 2.06501460 -0.60977769 4 0 2485 2.35600000 1631510104 1631510104 -15.00000000
1.13345671 2.44517493 -0.62221462 3 2 2487 2.76600000 1631510109 1631510109 -13.00000000
1.35956097 2.93160272 -0.62814319 4 4 2488 3.29200000 1631510113 1631510113 -11.00000000
1.72994494 3.72684741 -0.65076739 2 6 2490 4.16000000 1631510118 1631510118 -9.00000000
2.32191133 4.99756145 -0.67661858 2 8 2492 5.55200000 1631510122 1631510122 -7.00000000
3.47934699 7.48534632 -0.72217250 4 10 2493 8.28600000 1631510127 1631510127 -5.00000000
3.76384997 8.08633614 2.05920196 62 13 2496 9.15400000 1631510134 1631510134 13.00000000
3.28083277 7.04539728 2.08245802 42 15 2497 8.04600000 1631510139 1631510139 15.00000000
0.96356088 2.06166387 -0.60977769 4 0 2505 2.35600000 1631510159 1631510159 -15.00000000
1.15024233 2.45885515 -0.62671363 3 2 2507 2.78600000 1631510164 1631510164 -13.00000000
1.37644351 2.94106412 -0.63119614 2 4 2508 3.30800000 1631510168 1631510168 -11.00000000
1.74964726 3.73509693 -0.65327030 2 6 2510 4.17600000 1631510173 1631510173 -9.00000000
2.34692621 5.00560188 -0.67881227 2 8 2512 5.57000000 1631510178 1631510178 -7.00000000
3.50714684 7.47676277 -0.72252113 4 10 2513 8.29000000 1631510182 1631510182 -5.00000000
3.79536772 8.08020401 2.06100154 64 13 2516 9.16200000 1631510189 1631510189 13.00000000
3.30005789 7.01933861 2.07831693 45 15 2518 8.03000000 1631510194 1631510194 15.00000000
0.97203982 2.06195211 -0.61081296 4 0 2524 2.36000000 1631510215 1631510215 -15.00000000
1.15340042 2.44445276 -0.62401420 3 2 2526 2.77400000 1631510219 1631510219 -13.00000000
1.38786495 2.94003439 -0.63195938 4 4 2527 3.31200000 1631510224 1631510224 -11.00000000
1.74683380 3.69712543 -0.64763868 2 6 2529 4.14000000 1631510228 1631510228 -9.00000000
2.36096668 4.99240828 -0.67808104 2 8 2531 5.56400000 1631510233 1631510233 -7.00000000
3.53703380 7.47589779 -0.72356695 4 10 2532 8.30200000 1631510238 1631510238 -5.00000000
4.93969536 10.43586063 2.24429536 59 11 2533 11.76200000 1631510240 1631510240 11.00000000
3.82381034 8.07109642 2.06190133 57 13 2535 9.16600000 1631510245 1631510245 13.00000000
3.32540321 7.01591969 2.08038759 42 15 2536 8.03800000 1631510249 1631510249 15.00000000
0.97923148 2.05854630 -0.61081296 4 0 2544 2.36000000 1631510270 1631510270 -15.00000000
1.16025066 2.43689299 -0.62311441 3 2 2546 2.77000000 1631510274 1631510274 -13.00000000
1.39474201 2.92808223 -0.63043290 4 4 2547 3.30400000 1631510279 1631510279 -11.00000000
1.76992977 3.71240234 -0.65139312 2 6 2549 4.16400000 1631510284 1631510284 -9.00000000
2.37837911 4.98413658 -0.67808104 2 8 2551 5.56400000 1631510288 1631510288 -7.00000000
3.56654143 7.47069740 -0.72426420 8 10 2552 8.31000000 1631510293 1631510293 -5.00000000
4.98540068 10.43804169 2.24849319 62 11 2553 11.78400000 1631510295 1631510295 11.00000000
3.84523654 8.04363441 2.05830216 62 13 2555 9.15000000 1631510300 1631510300 13.00000000
3.35526443 7.01239729 2.08297563 45 15 2557 8.04800000 1631510304 1631510304 15.00000000
0.98891896 2.06034064 -0.61236584 4 0 2564 2.36600000 1631510325 1631510325 -15.00000000
1.16706216 2.42931485 -0.62221462 3 2 2566 2.76600000 1631510330 1631510330 -13.00000000
1.40835631 2.93027377 -0.63195938 4 4 2567 3.31200000 1631510334 1631510334 -11.00000000
1.77945244 3.69908118 -0.65014166 2 6 2569 4.15600000 1631510339 1631510339 -9.00000000
2.39231777 4.96864986 -0.67710608 2 8 2571 5.55600000 1631510344 1631510344 -7.00000000
3.59000349 7.45281744 -0.72374129 8 10 2572 8.30400000 1631510348 1631510348 -5.00000000
5.03373861 10.44533634 2.25383592 62 11 2573 11.81200000 1631510350 1631510350 11.00000000
3.86651778 8.01612091 2.05470300 60 13 2575 9.13400000 1631510355 1631510355 13.00000000
3.37933946 7.00297213 2.08349323 42 15 2576 8.05000000 1631510360 1631510360 15.00000000
0.99778891 2.06035352 -0.61340111 4 0 2584 2.37000000 1631510380 1631510380 -15.00000000
1.18063486 2.43574786 -0.62491405 3 2 2586 2.77800000 1631510385 1631510385 -13.00000000
1.41514981 2.91827369 -0.63043290 4 4 2587 3.30400000 1631510390 1631510390 -11.00000000
1.79925406 3.70706415 -0.65264457 2 6 2589 4.17200000 1631510394 1631510394 -9.00000000
2.40791225 4.95669746 -0.67661858 2 8 2591 5.55200000 1631510399 1631510399 -7.00000000
3.62557673 7.45995235 -0.72565871 8 10 2592 8.32600000 1631510403 1631510403 -5.00000000
5.08047056 10.44888878 2.25841522 59 11 2593 11.83600000 1631510406 1631510406 11.00000000
3.89106464 7.99556637 2.05290341 64 13 2595 9.12600000 1631510410 1631510410 13.00000000
3.40244627 6.98532915 2.08194041 45 15 2597 8.04400000 1631510415 1631510415 15.00000000
0.99903828 2.04470778 -0.60977769 4 0 2604 2.35600000 1631510436 1631510436 -15.00000000
1.18827391 2.42986131 -0.62446415 4 2 2606 2.77600000 1631510440 1631510440 -13.00000000
1.42532778 2.91331625 -0.63043290 2 4 2607 3.30400000 1631510445 1631510445 -11.00000000
1.80697083 3.69011641 -0.65076739 2 6 2609 4.16000000 1631510450 1631510450 -9.00000000
2.42869401 4.95539236 -0.67759353 2 8 2611 5.56000000 1631510454 1631510454 -7.00000000
3.64106894 7.42578411 -0.72356695 8 10 2612 8.30200000 1631510459 1631510459 -5.00000000
5.12210083 10.44166660 2.26070499 62 11 2613 11.84800000 1631510461 1631510461 11.00000000
3.91723299 7.97843647 2.05200362 60 13 2615 9.12200000 1631510466 1631510466 13.00000000
3.42388821 6.97053957 2.08090520 45 15 2616 8.04000000 1631510470 1631510470 15.00000000
1.00616956 2.04120803 -0.60977769 4 0 2624 2.35600000 1631510491 1631510491 -15.00000000
1.19588625 2.42395091 -0.62401420 3 2 2626 2.77400000 1631510496 1631510496 -13.00000000
1.43548846 2.90832305 -0.63043290 4 4 2627 3.30400000 1631510500 1631510500 -11.00000000
1.82159054 3.68732834 -0.65139312 2 6 2629 4.16400000 1631510505 1631510505 -9.00000000
2.45301557 4.96112013 -0.67954344 2 8 2631 5.57600000 1631510509 1631510509 -7.00000000
3.67933512 7.43803120 -0.72600734 8 10 2632 8.33000000 1631510514 1631510514 -5.00000000
5.16025925 10.42724228 2.26146817 59 11 2633 11.85200000 1631510516 1631510516 11.00000000
3.95197868 7.97868443 2.05560279 57 13 2635 9.13800000 1631510521 1631510521 13.00000000
3.44941354 6.95794392 2.08090520 45 15 2637 8.04000000 1631510526 1631510526 15.00000000
1.01809216 2.04823971 -0.61288351 4 0 2643 2.36800000 1631510546 1631510546 -15.00000000
1.19870985 2.40950346 -0.62131482 3 2 2645 2.76200000 1631510551 1631510551 -13.00000000
1.45212317 2.91760755 -0.63348585 2 4 2646 3.32000000 1631510556 1631510556 -11.00000000
1.83380818 3.68126750 -0.65139312 2 6 2648 4.16400000 1631510560 1631510560 -9.00000000
2.46768236 4.94940519 -0.67905599 2 8 2650 5.57200000 1631510565 1631510565 -7.00000000
3.70220160 7.42222309 -0.72565871 8 10 2651 8.32600000 1631510569 1631510569 -5.00000000
5.20269871 10.42588329 2.26490283 56 11 2652 11.87000000 1631510572 1631510572 11.00000000
3.97057843 7.94984484 2.05155373 20 13 2654 9.12000000 1631510576 1631510576 13.00000000
3.47211885 6.94880104 2.08142281 45 15 2655 8.04200000 1631510581 1631510581 15.00000000
1.02523565 2.04467344 -0.61288351 4 0 2663 2.36800000 1631510602 1631510602 -15.00000000
1.21235776 2.41575480 -0.62401420 3 2 2665 2.77400000 1631510606 1631510606 -13.00000000
1.46229863 2.91252089 -0.63348585 4 4 2666 3.32000000 1631510611 1631510611 -11.00000000
1.84487307 3.67131376 -0.65076739 2 6 2668 4.16000000 1631510615 1631510615 -9.00000000
2.47334886 4.91770649 -0.67588741 4 8 2670 5.54600000 1631510620 1631510620 -7.00000000
3.73256516 7.41815376 -0.72653025 8 10 2671 8.33600000 1631510625 1631510625 -5.00000000
5.24877024 10.42694855 2.26910067 62 11 2672 11.89200000 1631510627 1631510627 11.00000000
4.55245543 9.03582954 2.33589172 45 13 2674 10.38400000 1631510632 1631510632 13.00000000
3.49809265 6.94008875 2.08245802 45 15 2675 8.04600000 1631510636 1631510636 15.00000000
1.03236663 2.04108238 -0.61288351 4 0 2683 2.36800000 1631510657 1631510657 -15.00000000
1.22254324 2.41498542 -0.62491405 3 2 2685 2.77800000 1631510662 1631510662 -13.00000000
1.46890831 2.90039301 -0.63195938 4 4 2686 3.31200000 1631510666 1631510666 -11.00000000
1.86571515 3.68070912 -0.65358317 2 6 2688 4.17800000 1631510671 1631510671 -9.00000000
2.50846219 4.94444895 -0.68076217 4 8 2690 5.58600000 1631510675 1631510675 -7.00000000
3.75392795 7.39619637 -0.72565871 8 10 2691 8.32600000 1631510680 1631510680 -5.00000000
5.29580116 10.42957020 2.27367997 62 11 2692 11.91600000 1631510682 1631510682 11.00000000
4.59456348 9.04073048 2.34129047 55 13 2694 10.40800000 1631510687 1631510687 13.00000000
3.52142119 6.92611361 2.08194041 45 15 2695 8.04400000 1631510691 1631510691 15.00000000
1.03772914 2.03402448 -0.61184824 4 0 2703 2.36400000 1631510712 1631510712 -15.00000000
1.23628306 2.42111659 -0.62761343 3 2 2705 2.79000000 1631510717 1631510717 -13.00000000
1.47902358 2.89524794 -0.63195938 4 4 2706 3.31200000 1631510721 1631510721 -11.00000000
1.87675333 3.67065644 -0.65295744 2 6 2708 4.17400000 1631510726 1631510726 -9.00000000
2.52661061 4.93742990 -0.68100590 4 8 2710 5.58800000 1631510731 1631510731 -7.00000000
3.76791930 7.35999250 -0.72339267 17 10 2711 8.30000000 1631510735 1631510735 -5.00000000
5.34380960 10.43373680 2.27864099 68 11 2712 11.94200000 1631510738 1631510738 11.00000000
4.63231611 9.03677654 2.34443998 62 13 2714 10.42200000 1631510742 1631510742 13.00000000
3.54501939 6.90972281 2.08090520 45 15 2716 8.04000000 1631510747 1631510747 15.00000000
1.04570687 2.03210759 -0.61236584 4 0 2723 2.36600000 1631510768 1631510768 -15.00000000
1.23937309 2.40639162 -0.62491405 3 2 2725 2.77800000 1631510772 1631510772 -13.00000000
1.48732245 2.88657713 -0.63119614 4 4 2726 3.30800000 1631510777 1631510777 -11.00000000
1.88321710 3.65179348 -0.65076739 4 6 2728 4.16000000 1631510781 1631510781 -9.00000000
2.54656148 4.93387222 -0.68173712 4 8 2730 5.59400000 1631510786 1631510786 -7.00000000
3.80547118 7.36980915 -0.72565871 13 10 2731 8.32600000 1631510791 1631510791 -5.00000000
5.38560390 10.42548561 2.28093076 68 11 2732 11.95400000 1631510793 1631510793 11.00000000
4.66741228 9.02747631 2.34623957 57 13 2734 10.43000000 1631510797 1631510797 13.00000000
3.56791329 6.89792919 2.08090520 45 15 2735 8.04000000 1631510802 1631510802 15.00000000
1.05546367 2.03358889 -0.61391878 4 0 2743 2.37200000 1631510823 1631510823 -15.00000000
1.24417222 2.39513350 -0.62311441 3 2 2745 2.77000000 1631510827 1631510827 -13.00000000
1.51006377 2.90575671 -0.63653880 4 4 2746 3.33600000 1631510832 1631510832 -11.00000000
1.90233338 3.65746498 -0.65295744 2 6 2748 4.17400000 1631510837 1631510837 -9.00000000
2.55643535 4.91086674 -0.67978722 4 8 2750 5.57800000 1631510841 1631510841 -7.00000000
3.83485460 7.36354876 -0.72635597 8 10 2751 8.33400000 1631510846 1631510846 -5.00000000
5.42740536 10.41706944 2.28322053 71 11 2752 11.96600000 1631510848 1631510848 11.00000000
4.69529104 9.00421715 2.34443998 59 13 2754 10.42200000 1631510853 1631510853 13.00000000
3.59375691 6.88885832 2.08194041 45 15 2755 8.04400000 1631510857 1631510857 15.00000000
1.06255579 2.02989244 -0.61391878 4 0 2763 2.37200000 1631510878 1631510878 -15.00000000
1.25614262 2.39768052 -0.62491405 3 2 2765 2.77800000 1631510883 1631510883 -13.00000000
1.50196981 2.86568999 -0.62890643 4 4 2766 3.29600000 1631510887 1631510887 -11.00000000
1.91784167 3.65605021 -0.65389609 2 6 2768 4.18000000 1631510892 1631510892 -9.00000000
2.56433439 4.88433743 -0.67734981 4 8 2770 5.55800000 1631510896 1631510896 -7.00000000
3.86979938 7.36775684 -0.72809905 8 10 2771 8.35400000 1631510901 1631510901 -5.00000000
4.72306490 8.98087311 2.34264016 60 13 2774 10.41400000 1631510908 1631510908 13.00000000
3.62137961 6.88311052 2.08401084 45 15 2775 8.05200000 1631510913 1631510913 15.00000000
1.06602740 2.01933742 -0.61184824 4 0 2783 2.36400000 1631510933 1631510933 -15.00000000
1.26814592 2.40017343 -0.62671363 3 2 2785 2.78600000 1631510938 1631510938 -13.00000000
1.51838589 2.87257957 -0.63157779 4 4 2786 3.31000000 1631510943 1631510943 -11.00000000
1.91950715 3.62838030 -0.65014166 2 6 2788 4.15600000 1631510947 1631510947 -9.00000000
2.59994602 4.91044331 -0.68222457 4 8 2790 5.59800000 1631510952 1631510952 -7.00000000
3.89269614 7.34892178 -0.72757614 8 10 2791 8.34800000 1631510956 1631510956 -5.00000000
4.75255919 8.96088886 2.34174037 59 13 2794 10.41000000 1631510963 1631510963 13.00000000
3.63933706 6.85614061 2.07986975 45 15 2796 8.03600000 1631510968 1631510968 15.00000000
1.06873715 2.00915599 -0.60977769 4 0 2801 2.35600000 1631510989 1631510989 -15.00000000
1.27567995 2.39617753 -0.62671363 3 2 2803 2.78600000 1631510993 1631510993 -13.00000000
1.52832580 2.86952806 -0.63195938 4 4 2804 3.31200000 1631510998 1631510998 -11.00000000
1.93647182 3.63279128 -0.65201885 2 6 2806 4.16800000 1631511002 1631511002 -9.00000000
2.60975337 4.89174271 -0.68076217 4 8 2808 5.58600000 1631511007 1631511007 -7.00000000
3.91576433 7.33665657 -0.72757614 8 10 2809 8.34800000 1631511012 1631511012 -5.00000000
4.78436089 8.95278931 2.34354019 60 13 2812 10.41800000 1631511019 1631511019 13.00000000
3.65602040 6.83849764 2.07779932 45 15 2813 8.02800000 1631511023 1631511023 15.00000000
1.08122301 2.01562762 -0.61288351 4 0 2821 2.36800000 1631511044 1631511044 -15.00000000
1.28403640 2.39171004 -0.62671363 3 2 2823 2.78600000 1631511048 1631511048 -13.00000000
1.54576457 2.87801242 -0.63501233 4 4 2824 3.32800000 1631511053 1631511053 -11.00000000
1.94820559 3.62426972 -0.65170598 2 6 2826 4.16600000 1631511058 1631511058 -9.00000000
2.62587237 4.88085508 -0.68051839 4 8 2828 5.58400000 1631511062 1631511062 -7.00000000
3.94890428 7.33697844 -0.72897065 8 10 2829 8.36400000 1631511067 1631511067 -5.00000000
4.81928062 8.94289589 2.34533978 60 13 2832 10.42600000 1631511074 1631511074 13.00000000
3.68170238 6.82909489 2.07883453 45 15 2833 8.03200000 1631511078 1631511078 15.00000000
1.09192884 2.01863790 -0.61495405 4 0 2841 2.37600000 1631511099 1631511099 -15.00000000
1.28495514 2.37350345 -0.62311441 3 2 2843 2.77000000 1631511104 1631511104 -13.00000000
1.54832149 2.85878849 -0.63195938 4 4 2844 3.31200000 1631511108 1631511108 -11.00000000
1.96743429 3.62960362 -0.65389609 2 6 2846 4.18000000 1631511113 1631511113 -9.00000000
2.64478683 4.87514877 -0.68100590 4 8 2848 5.58800000 1631511118 1631511118 -7.00000000
3.96973920 7.31439400 -0.72809905 8 10 2849 8.35400000 1631511122 1631511122 -5.00000000
4.84488535 8.91574574 2.34264016 57 13 2852 10.41400000 1631511129 1631511129 13.00000000
3.71039963 6.82234335 2.08090520 45 15 2854 8.04000000 1631511134 1631511134 15.00000000
1.09896851 2.01481414 -0.61495405 4 0 2861 2.37600000 1631511154 1631511154 -15.00000000
1.29696727 2.37584567 -0.62491405 3 2 2863 2.77800000 1631511159 1631511159 -13.00000000
1.56017303 2.85681248 -0.63272262 2 4 2864 3.31600000 1631511164 1631511164 -11.00000000
1.97914457 3.62098050 -0.65358317 2 6 2866 4.17800000 1631511168 1631511168 -9.00000000
2.65893030 4.86066246 -0.68027467 4 8 2868 5.58200000 1631511173 1631511173 -7.00000000
3.99715996 7.30398798 -0.72844768 4 10 2869 8.35800000 1631511178 1631511178 -5.00000000
4.87035894 8.88852501 2.33994079 59 13 2872 10.40200000 1631511184 1631511184 13.00000000
3.74069381 6.82120705 2.08452868 42 15 2874 8.05400000 1631511189 1631511189 15.00000000
1.09889567 1.99723208 -0.61081296 4 0 2882 2.36000000 1631511210 1631511210 -15.00000000
1.30754650 2.37449002 -0.62581384 4 2 2884 2.78200000 1631511214 1631511214 -13.00000000
1.56116033 2.83387923 -0.62890643 2 4 2885 3.29600000 1631511219 1631511219 -11.00000000
1.99812531 3.62408161 -0.65546042 2 6 2887 4.19000000 1631511224 1631511224 -9.00000000
2.68152285 4.85957479 -0.68149334 6 8 2889 5.59200000 1631511228 1631511228 -7.00000000
4.02101469 7.28405571 -0.72792476 8 10 2890 8.35200000 1631511233 1631511233 -5.00000000
4.90667486 8.87743759 2.34174037 59 13 2893 10.41000000 1631511240 1631511240 13.00000000
3.75631857 6.79054642 2.07935214 42 15 2895 8.03400000 1631511244 1631511244 15.00000000
1.10960925 2.00014114 -0.61288351 4 0 2902 2.36800000 1631511265 1631511265 -15.00000000
1.31582701 2.36991143 -0.62581384 3 2 2904 2.78200000 1631511270 1631511270 -13.00000000
1.58248246 2.84900761 -0.63348585 2 4 2905 3.32000000 1631511274 1631511274 -11.00000000
2.00500488 3.60672545 -0.65358317 2 6 2907 4.17800000 1631511279 1631511279 -9.00000000
2.69943476 4.85191965 -0.68173712 6 8 2909 5.59400000 1631511284 1631511284 -7.00000000
4.04641628 7.26997566 -0.72792476 8 10 2910 8.35200000 1631511288 1631511288 -5.00000000
4.94142771 8.86706448 2.34354019 59 13 2913 10.41800000 1631511295 1631511295 13.00000000
3.77623510 6.77064419 2.07728171 42 15 2915 8.02600000 1631511300 1631511300 15.00000000
1.11658430 1.99625576 -0.61288351 4 0 2922 2.36800000 1631511320 1631511320 -15.00000000
1.32028401 2.35850215 -0.62401420 3 2 2924 2.77400000 1631511325 1631511325 -13.00000000
1.59433627 2.84689236 -0.63424909 2 4 2925 3.32400000 1631511330 1631511330 -11.00000000
2.01178765 3.58936572 -0.65170598 2 6 2927 4.16600000 1631511334 1631511334 -9.00000000
2.71926808 4.84766102 -0.68246830 6 8 2929 5.60000000 1631511339 1631511339 -7.00000000
4.07079363 7.25406885 -0.72775048 4 10 2930 8.35000000 1631511343 1631511343 -5.00000000
4.97616768 8.85655785 2.34533978 57 13 2933 10.42600000 1631511350 1631511350 13.00000000
3.79771996 6.75640059 2.07676411 45 15 2934 8.02400000 1631511355 1631511355 15.00000000
1.12544358 1.99571145 -0.61391878 4 0 2942 2.37200000 1631511376 1631511376 -15.00000000
1.32850862 2.35387921 -0.62401420 3 2 2944 2.77400000 1631511380 1631511380 -13.00000000
1.61005569 2.85156703 -0.63653880 2 4 2945 3.33600000 1631511385 1631511385 -11.00000000
2.03402281 3.59951925 -0.65483469 2 6 2947 4.18600000 1631511389 1631511389 -9.00000000
2.73030972 4.82777214 -0.68100590 6 8 2949 5.58800000 1631511394 1631511394 -7.00000000
4.09314680 7.23461294 -0.72722751 8 10 2950 8.34400000 1631511399 1631511399 -5.00000000
5.00128984 8.82896042 2.34264016 59 13 2953 10.41400000 1631511406 1631511406 13.00000000
3.82912707 6.75419998 2.08038759 42 15 2955 8.03800000 1631511410 1631511410 15.00000000
1.12667429 1.98169434 -0.61081296 4 0 2962 2.36000000 1631511431 1631511431 -15.00000000
1.33671713 2.34922743 -0.62401420 3 2 2964 2.77400000 1631511436 1631511436 -13.00000000
1.60834503 2.82545519 -0.63195938 4 4 2965 3.31200000 1631511440 1631511440 -11.00000000
2.03484130 3.57180071 -0.65108025 2 6 2967 4.16200000 1631511445 1631511445 -9.00000000
2.74517870 4.81476307 -0.68051839 6 8 2969 5.58400000 1631511449 1631511449 -7.00000000
4.13022137 7.24104881 -0.72931927 8 10 2970 8.36800000 1631511454 1631511454 -5.00000000
5.02627945 8.80129528 2.33994079 59 13 2973 10.40200000 1631511461 1631511461 13.00000000
3.84862900 6.73643255 2.07883453 40 15 2974 8.03200000 1631511466 1631511466 15.00000000
1.13550615 1.98110163 -0.61184824 4 0 2982 2.36400000 1631511486 1631511486 -15.00000000
1.34684861 2.34792781 -0.62491405 3 2 2984 2.77800000 1631511491 1631511491 -13.00000000
1.61819792 2.81982398 -0.63195938 2 4 2985 3.31200000 1631511495 1631511495 -11.00000000
2.06303763 3.59208345 -0.65608615 2 6 2987 4.19400000 1631511500 1631511500 -9.00000000
2.77186108 4.82236195 -0.68295580 6 8 2989 5.60400000 1631511505 1631511505 -7.00000000
4.15149927 7.21967888 -0.72862202 8 10 2990 8.36000000 1631511509 1631511509 -5.00000000
5.05891562 8.78707409 2.34084058 57 13 2993 10.40600000 1631511516 1631511516 13.00000000
3.87039995 6.71725988 2.07728171 45 15 2995 8.02600000 1631511521 1631511521 15.00000000
1.13979244 1.97417843 -0.61081296 4 0 3000 2.36000000 1631511542 1631511542 -15.00000000
1.36006796 2.35380888 -0.62761343 3 2 3002 2.79000000 1631511546 1631511546 -13.00000000
1.63490880 2.82832408 -0.63501233 2 4 3003 3.32800000 1631511551 1631511551 -11.00000000
2.06046367 3.56164622 -0.65170598 2 6 3005 4.16600000 1631511555 1631511555 -9.00000000
2.78301883 4.80675840 -0.68198085 6 8 3007 5.59600000 1631511560 1631511560 -7.00000000
4.17016602 7.19970465 -0.72792476 8 10 3008 8.35200000 1631511565 1631511565 -5.00000000
5.08845139 8.77450943 2.34174037 59 13 3011 10.41000000 1631511572 1631511572 13.00000000
3.88449669 6.69572067 2.07417583 40 15 3012 8.01400000 1631511576 1631511576 15.00000000
1.14667666 1.97018778 -0.61081296 4 0 3020 2.36000000 1631511597 1631511597 -15.00000000
1.36631429 2.34567928 -0.62671363 3 2 3022 2.78600000 1631511601 1631511601 -13.00000000
1.64674842 2.82599235 -0.63577557 2 4 3023 3.33200000 1631511606 1631511606 -11.00000000
2.07487392 3.55784512 -0.65233171 2 6 3025 4.17000000 1631511611 1631511611 -9.00000000
2.80578446 4.80730104 -0.68344325 6 8 3027 5.60800000 1631511615 1631511615 -7.00000000
4.20431376 7.20058918 -0.72949356 8 10 3028 8.37000000 1631511620 1631511620 -5.00000000
5.12494993 8.76678848 2.34443998 59 13 3031 10.42200000 1631511627 1631511627 13.00000000
3.90706062 6.67810345 2.07314062 45 15 3033 8.01000000 1631511631 1631511631 15.00000000
1.15941250 1.97617066 -0.61391878 4 0 3040 2.37200000 1631511652 1631511652 -15.00000000
1.37054706 2.33417368 -0.62491405 3 2 3042 2.77800000 1631511657 1631511657 -13.00000000
1.65859163 2.82361269 -0.63653880 2 4 3043 3.33600000 1631511661 1631511661 -11.00000000
2.09328699 3.56079817 -0.65420896 2 6 3045 4.18200000 1631511666 1631511666 -9.00000000
2.81449485 4.78379011 -0.68149334 6 8 3047 5.59200000 1631511671 1631511671 -7.00000000
4.23750782 7.19960594 -0.73088807 4 10 3048 8.38600000 1631511675 1631511675 -5.00000000
5.15156317 8.74212933 2.34264016 55 13 3051 10.41400000 1631511682 1631511682 13.00000000
3.93507099 6.67509556 2.07624626 36 15 3052 8.02200000 1631511687 1631511687 15.00000000
1.17023706 1.97876287 -0.61598933 4 0 3060 2.38000000 1631511707 1631511707 -15.00000000
1.38067162 2.33272958 -0.62581384 3 2 3062 2.78200000 1631511712 1631511712 -13.00000000
1.66043568 2.80429125 -0.63348585 2 4 3063 3.32000000 1631511717 1631511717 -11.00000000
2.10671091 3.55516911 -0.65452182 2 6 3065 4.18400000 1631511721 1631511721 -9.00000000
2.83320141 4.77735138 -0.68198085 6 8 3067 5.59600000 1631511726 1631511726 -7.00000000
4.27176237 7.20019197 -0.73245686 8 10 3068 8.40400000 1631511730 1631511730 -5.00000000
5.17408609 8.71069050 2.33904099 56 13 3071 10.39800000 1631511737 1631511737 13.00000000
1.17283690 1.96823311 -0.61391878 4 0 3079 2.37200000 1631511763 1631511763 -15.00000000
1.39039600 2.33148551 -0.62671363 3 2 3081 2.78600000 1631511767 1631511767 -13.00000000
1.66771424 2.79539752 -0.63272262 2 4 3082 3.31600000 1631511772 1631511772 -11.00000000
2.11443806 3.54137921 -0.65327030 2 6 3084 4.17600000 1631511777 1631511777 -9.00000000
2.84902811 4.76793003 -0.68198085 6 8 3086 5.59600000 1631511781 1631511781 -7.00000000
4.28334856 7.16546535 -0.73036510 8 10 3087 8.38000000 1631511786 1631511786 -5.00000000
5.20294333 8.69348431 2.33904099 57 13 3090 10.39800000 1631511793 1631511793 13.00000000
4.52423668 7.55645561 2.35991216 38 15 3091 9.11800000 1631511797 1631511797 15.00000000
1.17373204 1.95419061 -0.61081296 4 0 3099 2.36000000 1631511818 1631511818 -15.00000000
1.39852583 2.32661796 -0.62671363 3 2 3101 2.78600000 1631511823 1631511823 -13.00000000
1.68150878 2.79628897 -0.63424909 2 4 3102 3.32400000 1631511827 1631511827 -11.00000000
2.13086104 3.54074693 -0.65452182 2 6 3104 4.18400000 1631511832 1631511832 -9.00000000
2.86770248 4.76135683 -0.68246830 6 8 3106 5.60000000 1631511836 1631511836 -7.00000000
4.30627775 7.14705706 -0.73001653 8 10 3107 8.37600000 1631511841 1631511841 -5.00000000
5.23728371 8.68194485 2.34084058 57 13 3110 10.40600000 1631511848 1631511848 13.00000000
4.54690981 7.53155327 2.35732388 40 15 3112 9.10800000 1631511853 1631511853 15.00000000
1.18288803 1.95318031 -0.61184824 4 0 3120 2.36400000 1631511873 1631511873 -15.00000000
1.40906417 2.32480955 -0.62761343 3 2 3122 2.79000000 1631511878 1631511878 -13.00000000
1.68971062 2.78674960 -0.63348585 2 4 3123 3.32000000 1631511883 1631511883 -11.00000000
2.13562608 3.51940298 -0.65201885 2 6 3125 4.16800000 1631511887 1631511887 -9.00000000
2.89749932 4.77117491 -0.68539321 9 8 3127 5.62400000 1631511892 1631511892 -7.00000000
4.33658218 7.13803673 -0.73071373 8 10 3128 8.38400000 1631511896 1631511896 -5.00000000
5.27109480 8.66602039 2.34174037 59 13 3131 10.41000000 1631511903 1631511903 13.00000000
4.57317209 7.51563597 2.35732388 40 15 3132 9.10800000 1631511908 1631511908 15.00000000
1.18969870 1.94903946 -0.61184824 4 0 3140 2.36400000 1631511929 1631511929 -15.00000000
1.40701175 2.30324697 -0.62311441 3 2 3142 2.77000000 1631511933 1631511933 -13.00000000
1.70966530 2.79758644 -0.63730204 2 4 3143 3.34000000 1631511938 1631511938 -11.00000000
2.14789820 3.51192665 -0.65201885 2 6 3145 4.16800000 1631511942 1631511942 -9.00000000
2.90377283 4.74410057 -0.68295580 9 8 3147 5.60400000 1631511947 1631511947 -7.00000000
4.37187672 7.13984728 -0.73245686 8 10 3148 8.40400000 1631511952 1631511952 -5.00000000
5.29927588 8.64424515 2.34084058 57 13 3151 10.40600000 1631511959 1631511959 13.00000000
4.60240889 7.50456715 2.35887671 40 15 3152 9.11400000 1631511963 1631511963 15.00000000
1.19851947 1.94816554 -0.61288351 4 0 3160 2.36800000 1631511984 1631511984 -15.00000000
1.42321646 2.31159711 -0.62671363 3 2 3162 2.78600000 1631511989 1631511989 -13.00000000
1.71736109 2.78825831 -0.63653880 2 4 3163 3.33600000 1631511993 1631511993 -11.00000000
2.16947269 3.51954198 -0.65483469 2 6 3165 4.18600000 1631511998 1631511998 -9.00000000
2.92239952 4.73731470 -0.68344325 6 8 3167 5.60800000 1631512002 1631512002 -7.00000000
4.40514326 7.13810730 -0.73385137 8 10 3168 8.42000000 1631512007 1631512007 -5.00000000
5.31610155 8.60414314 2.33499193 54 13 3171 10.38000000 1631512014 1631512014 13.00000000
4.63162374 7.49338579 2.36042976 40 15 3172 9.12000000 1631512018 1631512018 15.00000000
1.20327652 1.94068635 -0.61184824 4 0 3180 2.36400000 1631512039 1631512039 -15.00000000
1.43744171 2.31655025 -0.62941307 3 2 3182 2.79800000 1631512044 1631512044 -13.00000000
1.72087097 2.77223873 -0.63424909 2 4 3183 3.32400000 1631512048 1631512048 -11.00000000
2.18487215 3.51698136 -0.65577328 2 6 3185 4.19200000 1631512053 1631512053 -9.00000000
2.93891811 4.72708464 -0.68344325 6 8 3187 5.60800000 1631512058 1631512058 -7.00000000
4.42687654 7.11761141 -0.73332840 4 10 3188 8.41400000 1631512062 1631512062 -5.00000000
5.35125399 8.59380531 2.33724141 57 13 3191 10.39000000 1631512069 1631512069 13.00000000
4.65088367 7.46324348 2.35628867 38 15 3193 9.10400000 1631512074 1631512074 15.00000000
1.20254135 1.92521608 -0.60822475 4 0 3199 2.35000000 1631512095 1631512095 -15.00000000
1.44511569 2.31177068 -0.62941307 3 2 3201 2.79800000 1631512099 1631512099 -13.00000000
1.72797275 2.76318765 -0.63348585 2 4 3202 3.32000000 1631512104 1631512104 -11.00000000
2.19547510 3.50804234 -0.65546042 2 6 3204 4.19000000 1631512108 1631512108 -9.00000000
2.95457745 4.71731281 -0.68344325 6 8 3206 5.60800000 1631512113 1631512113 -7.00000000
4.44939709 7.10120392 -0.73315412 8 10 3207 8.41200000 1631512118 1631512118 -5.00000000
5.37972260 8.57601261 2.33724141 60 13 3210 10.39000000 1631512124 1631512124 13.00000000
4.66917276 7.44041395 2.35370040 40 15 3211 9.09400000 1631512129 1631512129 15.00000000
1.21131265 1.92427647 -0.60926002 3 0 3219 2.35400000 1631512150 1631512150 -15.00000000
1.45317650 2.30671215 -0.62941307 3 2 3221 2.79800000 1631512154 1631512154 -13.00000000
1.74179447 2.76378274 -0.63501233 2 4 3222 3.32800000 1631512159 1631512159 -11.00000000
2.21192217 3.50704050 -0.65671188 2 6 3224 4.19800000 1631512164 1631512164 -9.00000000
2.98056221 4.72207880 -0.68563694 4 8 3226 5.62600000 1631512168 1631512168 -7.00000000
4.47096634 7.08057547 -0.73263115 4 10 3227 8.40600000 1631512173 1631512173 -5.00000000
5.41379070 8.56377029 2.33904099 56 13 3230 10.39800000 1631512180 1631512180 13.00000000
4.70234394 7.43549919 2.35732388 40 15 3231 9.10800000 1631512184 1631512184 15.00000000
1.22319651 1.92819297 -0.61184824 4 0 3239 2.36400000 1631512205 1631512205 -15.00000000
1.45286381 2.28846407 -0.62581384 3 2 3241 2.78200000 1631512210 1631512210 -13.00000000
1.76195669 2.77425861 -0.63882852 2 4 3242 3.34800000 1631512214 1631512214 -11.00000000
2.21673322 3.48762822 -0.65452182 2 6 3244 4.18400000 1631512219 1631512219 -9.00000000
2.98211122 4.68819666 -0.68222457 4 8 3246 5.59800000 1631512223 1631512223 -7.00000000
4.49458551 7.06324482 -0.73245686 4 10 3247 8.40400000 1631512228 1631512228 -5.00000000
5.43736839 8.53495884 2.33634162 59 13 3250 10.38600000 1631512235 1631512235 13.00000000
4.72930861 7.42066860 2.35784149 40 15 3251 9.11000000 1631512240 1631512240 15.00000000
1.23720348 1.93530524 -0.61547166 4 0 3259 2.37800000 1631512260 1631512260 -15.00000000
1.45874274 2.28009558 -0.62491405 3 2 3261 2.77800000 1631512265 1631512265 -13.00000000
1.75469685 2.74163413 -0.63272262 2 4 3262 3.31600000 1631512270 1631512270 -11.00000000
2.22676277 3.47654247 -0.65389609 2 6 3264 4.18000000 1631512274 1631512274 -9.00000000
3.00702810 4.69112825 -0.68417448 4 8 3266 5.61400000 1631512279 1631512279 -7.00000000
4.52351522 7.05422115 -0.73315412 4 10 3267 8.41200000 1631512283 1631512283 -5.00000000
5.45870590 8.50280762 2.33274245 57 13 3270 10.37000000 1631512290 1631512290 13.00000000
4.41814375 6.87668467 2.19012666 27 15 3272 8.46200000 1631512295 1631512295 15.00000000
1.23872030 1.92285466 -0.61288351 4 0 3279 2.36800000 1631512316 1631512316 -15.00000000
1.47091663 2.28154111 -0.62671363 3 2 3281 2.78600000 1631512320 1631512320 -13.00000000
1.77489710 2.75199103 -0.63653880 2 4 3282 3.33600000 1631512325 1631512325 -11.00000000
2.24745464 3.48202586 -0.65639901 2 6 3284 4.19600000 1631512329 1631512329 -9.00000000
3.02769303 4.68727303 -0.68514943 4 8 3286 5.62200000 1631512334 1631512334 -7.00000000
4.54594898 7.03504133 -0.73280549 4 10 3287 8.40800000 1631512339 1631512339 -5.00000000
5.49046993 8.48697376 2.33364224 56 13 3290 10.37400000 1631512346 1631512346 13.00000000
4.78204823 7.38909340 2.35835910 42 15 3291 9.11200000 1631512350 1631512350 15.00000000
1.24121726 1.91203749 -0.61081296 4 0 3299 2.36000000 1631512371 1631512371 -15.00000000
1.48099506 2.27966118 -0.62761343 3 2 3301 2.79000000 1631512375 1631512375 -13.00000000
1.78449249 2.74577880 -0.63653880 2 4 3302 3.33600000 1631512380 1631512380 -11.00000000
2.25744152 3.47084761 -0.65577328 2 6 3304 4.19200000 1631512385 1631512385 -9.00000000
3.03753901 4.66669369 -0.68368703 4 8 3306 5.61000000 1631512389 1631512389 -7.00000000
4.56939125 7.01746082 -0.73263115 4 10 3307 8.40600000 1631512394 1631512394 -5.00000000
5.52431822 8.47428703 2.33544183 56 13 3310 10.38200000 1631512401 1631512401 13.00000000
4.80148029 7.36264658 2.35525322 40 15 3311 9.10000000 1631512405 1631512405 15.00000000
1.25211406 1.91415989 -0.61288351 4 0 3319 2.36800000 1631512426 1631512426 -15.00000000
1.49107814 2.27773857 -0.62851322 3 2 3321 2.79400000 1631512431 1631512431 -13.00000000
1.79836857 2.74610257 -0.63806528 2 4 3322 3.34400000 1631512435 1631512435 -11.00000000
2.25546670 3.44146848 -0.65170598 4 6 3324 4.16600000 1631512440 1631512440 -9.00000000
3.05816507 4.66270208 -0.68466198 9 8 3326 5.61800000 1631512445 1631512445 -7.00000000
4.59385872 7.00146770 -0.73263115 4 10 3327 8.40600000 1631512449 1631512449 -5.00000000
5.55600500 8.45820999 2.33634162 59 13 3330 10.38600000 1631512456 1631512456 13.00000000
4.83161736 7.34984207 2.35680628 42 15 3332 9.10600000 1631512461 1631512461 15.00000000
1.25666177 1.90655160 -0.61184824 4 0 3339 2.36400000 1631512481 1631512481 -15.00000000
1.49258173 2.26275945 -0.62581384 3 2 3341 2.78200000 1631512486 1631512486 -13.00000000
1.81875634 2.75619483 -0.64188147 2 4 3342 3.36400000 1631512491 1631512491 -11.00000000
2.27835155 3.45005822 -0.65483469 2 6 3344 4.18600000 1631512495 1631512495 -9.00000000
3.07332778 4.65034246 -0.68441826 6 8 3346 5.61600000 1631512500 1631512500 -7.00000000
4.62815952 7.00034761 -0.73420000 4 10 3347 8.42400000 1631512505 1631512505 -5.00000000
5.58119392 8.43226433 2.33454204 55 13 3350 10.37800000 1631512511 1631512511 13.00000000
4.86044407 7.33776331 2.35835910 40 15 3352 9.11200000 1631512516 1631512516 15.00000000
1.26725125 1.90881169 -0.61391878 4 0 3358 2.37200000 1631512537 1631512537 -15.00000000
1.50870442 2.27078271 -0.62941307 3 2 3360 2.79800000 1631512541 1631512541 -13.00000000
1.80832493 2.72071767 -0.63501233 2 4 3361 3.32800000 1631512546 1631512546 -11.00000000
2.29087400 3.44412875 -0.65514755 2 6 3363 4.18800000 1631512551 1631512551 -9.00000000
3.09093189 4.64343023 -0.68490571 6 8 3365 5.62000000 1631512555 1631512555 -7.00000000
4.64913940 6.98164463 -0.73385137 4 10 3366 8.42000000 1631512560 1631512560 -5.00000000
5.61128712 8.41695213 2.33544183 57 13 3369 10.38200000 1631512567 1631512567 13.00000000
4.88153362 7.31678391 2.35680628 42 15 3371 9.10600000 1631512571 1631512571 15.00000000
1.26746178 1.89474225 -0.61081296 4 0 3378 2.36000000 1631512592 1631512592 -15.00000000
1.51228547 2.25902510 -0.62761343 3 2 3380 2.79000000 1631512597 1631512597 -13.00000000
