# .PCD v0.7 - Point Cloud Data file format
VERSION 0.7
FIELDS x y z intensity laser_id azimuth distance_m adjustedtime timestamp vertical_angle
SIZE 4 4 4 1 1 2 8 8 4 8
TYPE F F F U U U F U U F
COUNT 1 1 1 1 1 1 1 1 1 1
WIDTH 535
HEIGHT 1
VIEWPOINT 0 0 0 1 0 0 0
POINTS 535
DATA ascii
-7.48528576 5.84814644 -0.49781960 8 12 30800 9.51200000 884690522 884690522 -3.00000000
-8.95609760 6.99978781 2.62427902 42 13 30801 11.66600000 884690525 884690525 13.00000000
-7.67848253 6.00556517 2.61200190 45 15 30803 10.09200000 884690529 884690529 15.00000000
-1.63296306 1.27994645 -0.55594331 4 0 30809 2.14800000 884690550 884690550 -15.00000000
-1.89058602 1.48294163 -0.55472928 3 2 30811 2.46600000 884690555 884690555 -13.00000000
-2.23184681 1.75124979 -0.55143797 3 4 30812 2.89000000 884690559 884690559 -11.00000000
-2.71265864 2.13005590 -0.54626918 1 6 30814 3.49200000 884690564 884690564 -9.00000000
-3.45885491 2.71794248 -0.54012495 2 8 30816 4.43200000 884690568 884690568 -7.00000000
-4.75082397 3.73450351 -0.52868676 3 10 30817 6.06600000 884690573 884690573 -5.00000000
-7.47840977 5.88281488 -0.49865699 4 12 30819 9.52800000 884690578 884690578 -3.00000000
-8.91445923 7.01498747 2.61888027 48 13 30820 11.64200000 884690580 884690580 13.00000000
-7.66564941 6.03443813 2.61407232 45 15 30821 10.10000000 884690585 884690585 15.00000000
-1.62545264 1.28324461 -0.55490804 4 0 30829 2.14400000 884690605 884690605 -15.00000000
-1.88386893 1.48832393 -0.55427939 3 2 30831 2.46400000 884690610 884690610 -13.00000000
-2.21955895 1.75416052 -0.54991150 3 4 30832 2.88200000 884690614 884690614 -11.00000000
-2.70830560 2.14196253 -0.54689491 1 6 30834 3.49600000 884690619 884690619 -9.00000000
-3.44623327 2.72753572 -0.53963745 2 8 30836 4.42800000 884690624 884690624 -7.00000000
-4.73307323 3.74735403 -0.52816379 3 10 30837 6.06000000 884690628 884690628 -5.00000000
-7.48287678 5.92872858 -0.50033176 4 12 30839 9.56000000 884690633 884690633 -3.00000000
-8.88228226 7.04000998 2.61663055 53 13 30840 11.63200000 884690635 884690635 13.00000000
-7.64348078 6.06249332 2.61407232 45 15 30842 10.10000000 884690640 884690640 15.00000000
-1.62549973 1.29251766 -0.55646098 4 0 30849 2.15000000 884690661 884690661 -15.00000000
-1.88171196 1.49731755 -0.55517918 3 2 30851 2.46800000 884690665 884690665 -13.00000000
-2.21649432 1.76434290 -0.55067474 3 4 30852 2.88600000 884690670 884690670 -11.00000000
-2.69772196 2.14894176 -0.54626918 1 6 30854 3.49200000 884690674 884690674 -9.00000000
-3.42737794 2.73212457 -0.53817505 2 8 30856 4.41600000 884690679 884690679 -7.00000000
-4.71061707 3.75639963 -0.52711791 3 10 30857 6.04800000 884690684 884690684 -5.00000000
-7.46994162 5.96104145 -0.50085509 8 12 30859 9.57000000 884690688 884690688 -3.00000000
-8.86374569 7.07583475 2.61843038 57 13 30860 11.64000000 884690691 884690691 13.00000000
-7.61729670 6.08298492 2.61200190 42 15 30861 10.09200000 884690695 884690695 15.00000000
-1.61343861 1.29214585 -0.55387276 4 0 30869 2.14000000 884690716 884690716 -15.00000000
-1.87647390 1.50387692 -0.55517918 3 2 30871 2.46800000 884690720 884690720 -13.00000000
-2.20725870 1.76961303 -0.54991150 3 4 30872 2.88200000 884690725 884690725 -11.00000000
-2.69636750 2.16329002 -0.54752064 1 6 30874 3.50000000 884690730 884690730 -9.00000000
-3.44258690 2.76395607 -0.54207486 2 8 30876 4.44800000 884690734 884690734 -7.00000000
-4.71145678 3.78404856 -0.52868676 3 10 30877 6.06600000 884690739 884690739 -5.00000000
-7.46309900 5.99834108 -0.50179714 8 12 30879 9.58800000 884690743 884690743 -3.00000000
-8.84202957 7.10917425 2.61933017 57 13 30880 11.64400000 884690746 884690746 13.00000000
-7.59495020 6.11086273 2.61200190 42 15 30882 10.09200000 884690750 884690750 15.00000000
-1.61169875 1.30047691 -0.55490804 4 0 30890 2.14400000 884690771 884690771 -15.00000000
-1.87701404 1.51564145 -0.55697882 3 2 30892 2.47600000 884690776 884690776 -13.00000000
-2.19770336 1.77522385 -0.54914826 2 4 30893 2.87800000 884690780 884690780 -11.00000000
-2.68381166 2.16943288 -0.54658204 1 6 30895 3.49400000 884690785 884690785 -9.00000000
-3.43243337 2.77655530 -0.54207486 2 8 30897 4.44800000 884690790 884690790 -7.00000000
-4.70065355 3.80379796 -0.52903533 3 10 30898 6.07000000 884690794 884690794 -5.00000000
-7.45192909 6.03445292 -0.50252986 8 12 30900 9.60200000 884690799 884690799 -3.00000000
-8.80985641 7.13662767 2.61753058 56 13 30901 11.63600000 884690801 884690801 13.00000000
-7.57057095 6.13490438 2.61096644 42 15 30902 10.08800000 884690806 884690806 15.00000000
-1.61614466 1.31340516 -0.55801386 4 0 30910 2.15600000 884690826 884690826 -15.00000000
-1.86264074 1.51480699 -0.55427939 3 2 30912 2.46400000 884690831 884690831 -13.00000000
-2.20672274 1.79527426 -0.55296445 3 4 30913 2.89800000 884690836 884690836 -11.00000000
-2.68847775 2.18876505 -0.54908496 1 6 30915 3.51000000 884690840 884690840 -9.00000000
-3.42425966 2.78977370 -0.54231858 2 8 30917 4.45000000 884690845 884690845 -7.00000000
-4.69661379 3.82773542 -0.53008121 3 10 30918 6.08200000 884690849 884690849 -5.00000000
-7.43391466 6.06295300 -0.50273919 8 12 30920 9.60600000 884690854 884690854 -3.00000000
-8.76375198 7.15008926 2.61123180 41 13 30921 11.60800000 884690856 884690856 13.00000000
-7.55551672 6.16871929 2.61355472 42 15 30923 10.09800000 884690861 884690861 15.00000000
-1.61477065 1.32120395 -0.55904913 4 0 30929 2.16000000 884690882 884690882 -15.00000000
-1.85760713 1.52097535 -0.55427939 3 2 30931 2.46400000 884690886 884690886 -13.00000000
-2.18860674 1.79262996 -0.54991150 3 4 30932 2.88200000 884690891 884690891 -11.00000000
-2.67356610 2.19140720 -0.54752064 1 6 30934 3.50000000 884690896 884690896 -9.00000000
-3.39196706 2.78222966 -0.53866249 2 8 30936 4.42000000 884690900 884690900 -7.00000000
-4.70853853 3.86351013 -0.53287023 3 10 30937 6.11400000 884690905 884690905 -5.00000000
-7.43074799 6.10151339 -0.50389057 8 12 30939 9.62800000 884690909 884690909 -3.00000000
-7.51272011 6.17101812 2.24456167 13 13 30940 9.97800000 884690912 884690912 13.00000000
-7.53609991 6.19242525 2.61355472 42 15 30941 10.09800000 884690916 884690916 15.00000000
-1.60120368 1.31946111 -0.55594331 4 0 30949 2.14800000 884690937 884690937 -15.00000000
-1.86130750 1.53488922 -0.55697882 3 2 30951 2.47600000 884690942 884690942 -13.00000000
-2.18536472 1.80275726 -0.55067474 3 4 30952 2.88600000 884690946 884690946 -11.00000000
-2.67047048 2.20449901 -0.54845923 1 6 30954 3.50600000 884690951 884690951 -9.00000000
-3.40978217 2.81680989 -0.54304981 2 8 30956 4.45600000 884690955 884690955 -7.00000000
-4.68273687 3.86976886 -0.53147572 3 10 30957 6.09800000 884690960 884690960 -5.00000000
-7.44018698 6.15287113 -0.50598401 8 12 30959 9.66800000 884690965 884690965 -3.00000000
-7.46560764 6.17608786 2.23691320 17 13 30960 9.94400000 884690967 884690967 13.00000000
-7.51484108 6.22123671 2.61407232 42 15 30962 10.10000000 884690972 884690972 15.00000000
-1.59384584 1.32229674 -0.55490804 4 0 30968 2.14400000 884690992 884690992 -15.00000000
-1.85920608 1.54354262 -0.55787861 4 2 30970 2.48000000 884690997 884690997 -13.00000000
-2.18541598 1.81501162 -0.55220121 2 4 30971 2.89400000 884691002 884691002 -11.00000000
-2.68137574 2.22849369 -0.55221367 1 6 30973 3.53000000 884691006 884691006 -9.00000000
-3.40347505 2.83064032 -0.54353726 2 8 30975 4.46000000 884691011 884691011 -7.00000000
-4.67906857 3.89292169 -0.53252161 3 10 30976 6.11000000 884691015 884691015 -5.00000000
-7.43509150 6.19028902 -0.50703073 8 12 30978 9.68800000 884691020 884691020 -3.00000000
-7.42412233 6.18335056 2.23061466 19 13 30979 9.91600000 884691022 884691022 13.00000000
-7.48783827 6.23863173 2.61148405 42 15 30980 10.09000000 884691027 884691027 15.00000000
-1.59515035 1.33280694 -0.55697858 4 0 30988 2.15200000 884691048 884691048 -15.00000000
-1.84633183 1.54377306 -0.55562907 4 2 30990 2.47000000 884691052 884691052 -13.00000000
-2.17906690 1.82262909 -0.55220121 3 4 30991 2.89400000 884691057 884691057 -11.00000000
-2.65843272 2.22516084 -0.54908496 1 6 30993 3.51000000 884691061 884691061 -9.00000000
-3.39966059 2.84760213 -0.54451221 2 8 30995 4.46800000 884691066 884691066 -7.00000000
-4.67461395 3.91690874 -0.53356743 3 10 30996 6.12200000 884691071 884691071 -5.00000000
-7.42109013 6.22262096 -0.50755411 8 12 30998 9.69800000 884691075 884691075 -3.00000000
-7.38308334 6.19294691 2.22476602 21 13 30999 9.89000000 884691078 884691078 13.00000000
-7.45861626 6.25852251 2.60889602 42 15 31000 10.08000000 884691082 884691082 15.00000000
-1.58457565 1.33339155 -0.55490804 4 0 31008 2.14400000 884691103 884691103 -15.00000000
-1.83049738 1.54142189 -0.55247980 3 2 31010 2.45600000 884691108 884691108 -13.00000000
-2.17269158 1.83022439 -0.55220121 3 4 31011 2.89400000 884691112 884691112 -11.00000000
-2.64762855 2.23188066 -0.54845923 1 6 31013 3.50600000 884691117 884691117 -9.00000000
-3.36238813 2.83641243 -0.54012495 2 8 31015 4.43200000 884691121 884691121 -7.00000000
-4.66091299 3.93320227 -0.53356743 3 10 31016 6.12200000 884691126 884691126 -5.00000000
-7.41153145 6.25879669 -0.50839150 8 12 31018 9.71400000 884691131 884691131 -3.00000000
-7.32718182 6.18975687 2.21441817 25 13 31019 9.84400000 884691133 884691133 13.00000000
-7.44262695 6.28950739 2.61096644 45 15 31020 10.08800000 884691137 884691137 15.00000000
-1.59170198 1.34890652 -0.55904913 4 0 31028 2.16000000 884691158 884691158 -15.00000000
-1.83550930 1.55662513 -0.55562907 4 2 31030 2.47000000 884691163 884691163 -13.00000000
-2.16628957 1.83779728 -0.55220121 3 4 31031 2.89400000 884691167 884691167 -11.00000000
-2.64433932 2.24494433 -0.54939783 1 6 31033 3.51200000 884691172 884691172 -9.00000000
-3.37062097 2.86355495 -0.54304981 2 8 31035 4.45600000 884691177 884691177 -7.00000000
-4.65930033 3.95976996 -0.53496194 3 10 31036 6.13800000 884691181 884691181 -5.00000000
-7.39572477 6.28980494 -0.50881016 8 12 31038 9.72200000 884691186 884691186 -3.00000000
-7.28178310 6.19509172 2.20721984 27 13 31039 9.81200000 884691188 884691188 13.00000000
-7.42540836 6.32175303 2.61303711 42 15 31041 10.09600000 884691193 884691193 15.00000000
-1.58698368 1.35445440 -0.55904913 4 0 31048 2.16000000 884691214 884691214 -15.00000000
-1.83154631 1.56428838 -0.55607903 3 2 31050 2.47200000 884691218 884691218 -13.00000000
-2.15687609 1.84279728 -0.55143797 3 4 31051 2.89000000 884691223 884691223 -11.00000000
-2.64099121 2.25801229 -0.55033642 1 6 31053 3.51800000 884691227 884691227 -9.00000000
-3.36060476 2.87530327 -0.54304981 2 8 31055 4.45600000 884691232 884691232 -7.00000000
-4.63939524 3.97082782 -0.53426468 3 10 31056 6.13000000 884691237 884691237 -5.00000000
-7.39344406 6.33247280 -0.51017088 8 12 31058 9.74800000 884691241 884691241 -3.00000000
-7.23939562 6.20272112 2.20092106 24 13 31059 9.78400000 884691243 884691243 13.00000000
-7.38973618 6.33376980 2.60786080 45 15 31060 10.07600000 884691248 884691248 15.00000000
-1.57638597 1.35494876 -0.55697858 4 0 31068 2.15200000 884691269 884691269 -15.00000000
-1.82607484 1.57067215 -0.55607903 4 2 31070 2.47200000 884691273 884691273 -13.00000000
-2.15043044 1.85031497 -0.55143797 3 4 31071 2.89000000 884691278 884691278 -11.00000000
-2.65105629 2.28268433 -0.55409086 1 6 31073 3.54200000 884691283 884691283 -9.00000000
-3.35656285 2.89219952 -0.54402477 2 8 31075 4.46400000 884691287 884691287 -7.00000000
-4.64059782 4.00000620 -0.53600782 3 10 31076 6.15000000 884691292 884691292 -5.00000000
-7.39851761 6.38172340 -0.51205498 8 12 31078 9.78400000 884691296 884691296 -3.00000000
-7.20442152 6.21649599 2.19687200 17 13 31079 9.76600000 884691299 884691299 13.00000000
-7.36319494 6.35573912 2.60630774 47 15 31080 10.07000000 884691303 884691303 15.00000000
-1.57164669 1.36044312 -0.55697858 4 0 31088 2.15200000 884691324 884691324 -15.00000000
-1.82352698 1.57958853 -0.55697882 3 2 31090 2.47600000 884691329 884691329 -13.00000000
-2.14099097 1.85523880 -0.55067474 3 4 31091 2.88600000 884691333 884691333 -11.00000000
-2.60874653 2.26215911 -0.54689491 1 6 31093 3.49600000 884691338 884691338 -9.00000000
-3.35844111 2.91430688 -0.54597467 2 8 31095 4.48000000 884691342 884691342 -7.00000000
-4.62510204 4.01487446 -0.53583348 3 10 31096 6.14800000 884691347 884691347 -5.00000000
-7.37921143 6.41013002 -0.51226431 8 12 31098 9.78800000 884691352 884691352 -3.00000000
-6.94732523 6.03708887 2.12488770 49 13 31099 9.44600000 884691354 884691354 13.00000000
-7.27681303 6.32563686 2.58353162 45 15 31100 9.98200000 884691359 884691359 15.00000000
-1.56980073 1.36845982 -0.55801386 4 0 31108 2.15600000 884691379 884691379 -15.00000000
-1.81212807 1.58082008 -0.55517918 4 2 31110 2.46800000 884691384 884691384 -13.00000000
-2.14337730 1.87044597 -0.55296445 3 4 31111 2.89800000 884691389 884691389 -11.00000000
-2.62612844 2.29334044 -0.55221367 1 6 31113 3.53000000 884691393 884691393 -9.00000000
-3.34675312 2.92470598 -0.54573095 2 8 31115 4.47800000 884691398 884691398 -7.00000000
-4.63205957 4.04935312 -0.53827387 3 10 31116 6.17600000 884691402 884691402 -5.00000000
-7.36881685 6.44636965 -0.51310170 8 12 31118 9.80400000 884691407 884691407 -3.00000000
-8.51001358 7.44733047 2.61078191 13 13 31119 11.60600000 884691409 884691409 13.00000000
-6.97599316 6.10917139 2.48466277 36 15 31121 9.60000000 884691414 884691414 15.00000000
-1.57082140 1.37902915 -0.56008440 4 0 31128 2.16400000 884691435 884691435 -15.00000000
-1.81245494 1.59228063 -0.55697882 3 2 31130 2.47600000 884691439 884691439 -13.00000000
-2.13683510 1.87791646 -0.55296445 3 4 31131 2.89800000 884691444 884691444 -11.00000000
-2.61662388 2.30118871 -0.55190080 1 6 31133 3.52800000 884691448 884691448 -9.00000000
-3.33801389 2.93768191 -0.54597467 2 8 31135 4.48000000 884691453 884691453 -7.00000000
-4.62836456 4.07471323 -0.53949404 7 10 31136 6.19000000 884691458 884691458 -5.00000000
-7.37024784 6.49317694 -0.51477647 8 12 31138 9.83600000 884691462 884691462 -3.00000000
-8.45033932 7.44735575 2.60043430 32 13 31139 11.56000000 884691465 884691465 13.00000000
-7.28754044 6.42483139 2.60320187 42 15 31140 10.05800000 884691469 884691469 15.00000000
-1.55876160 1.37810600 -0.55749625 4 0 31148 2.15400000 884691490 884691490 -15.00000000
-1.80834532 1.59988880 -0.55742872 3 2 31150 2.47800000 884691494 884691494 -13.00000000
-2.12438631 1.88015926 -0.55143797 3 4 31151 2.89000000 884691499 884691499 -11.00000000
-2.61005402 2.31161809 -0.55221367 1 6 31153 3.53000000 884691504 884691504 -9.00000000
-3.32328224 2.94536591 -0.54524344 4 8 31155 4.47400000 884691508 884691508 -7.00000000
-4.61262226 4.08952236 -0.53931975 7 10 31156 6.18800000 884691513 884691513 -5.00000000
-7.35052586 6.52151537 -0.51498580 8 12 31158 9.84000000 884691518 884691518 -3.00000000
-8.42574978 7.47810078 2.60088420 55 13 31159 11.56200000 884691520 884691520 13.00000000
-7.27229261 6.45664358 2.60579014 45 15 31160 10.06800000 884691524 884691524 15.00000000
-1.55009460 1.37914383 -0.55594331 4 0 31166 2.14800000 884691545 884691545 -15.00000000
-1.80039930 1.60297036 -0.55652893 3 2 31168 2.47400000 884691550 884691550 -13.00000000
-2.12433338 1.89204705 -0.55296445 3 4 31169 2.89800000 884691554 884691554 -11.00000000
-2.59540558 2.31323481 -0.55064934 1 6 31171 3.52000000 884691559 884691559 -9.00000000
-3.32141995 2.96239829 -0.54646212 2 8 31173 4.48400000 884691564 884691564 -7.00000000
-4.59826517 4.10266685 -0.53914541 7 10 31174 6.18600000 884691568 884691568 -5.00000000
-7.35979843 6.57117939 -0.51707923 8 12 31176 9.88000000 884691573 884691573 -3.00000000
-8.39785480 7.50063992 2.59953427 56 13 31177 11.55600000 884691575 884691575 13.00000000
-7.24363947 6.47428656 2.60320187 47 15 31179 10.05800000 884691580 884691580 15.00000000
-1.55390382 1.39228117 -0.55904913 4 0 31186 2.16000000 884691600 884691600 -15.00000000
-1.79624391 1.61054599 -0.55697882 4 2 31188 2.47600000 884691605 884691605 -13.00000000
-2.12063909 1.90207255 -0.55372769 3 4 31189 2.90200000 884691610 884691610 -11.00000000
-2.58878517 2.32359982 -0.55096221 1 6 31191 3.52200000 884691614 884691614 -9.00000000
-3.31401277 2.97662711 -0.54694963 2 8 31193 4.48800000 884691619 884691619 -7.00000000
-4.58391619 4.11869287 -0.53914541 7 10 31194 6.18600000 884691624 884691624 -5.00000000
-7.32939005 6.59015274 -0.51655591 8 12 31196 9.87000000 884691628 884691628 -3.00000000
-8.37451935 7.53251457 2.60043430 55 13 31197 11.56000000 884691630 884691630 13.00000000
-7.21812439 6.49694729 2.60216665 47 15 31199 10.05400000 884691635 884691635 15.00000000
-1.54760015 1.39640272 -0.55853152 4 0 31206 2.15800000 884691656 884691656 -15.00000000
-1.78482556 1.61158240 -0.55517918 4 2 31208 2.46800000 884691660 884691660 -13.00000000
-2.13146949 1.92525494 -0.55830711 3 4 31209 2.92600000 884691665 884691665 -11.00000000
-2.59238219 2.34321904 -0.55346513 1 6 31211 3.53800000 884691670 884691670 -9.00000000
-3.30360222 2.98817706 -0.54694963 2 8 31213 4.48800000 884691674 884691674 -7.00000000
-4.58280754 4.14669943 -0.54071420 7 10 31214 6.20400000 884691679 884691679 -5.00000000
-7.30486059 6.61435652 -0.51645124 4 12 31216 9.86800000 884691683 884691683 -3.00000000
-8.34239674 7.55646801 2.59863448 56 13 31217 11.55200000 884691686 884691686 13.00000000
-7.19826460 6.52469873 2.60320187 47 15 31219 10.05800000 884691690 884691690 15.00000000
-1.55272472 1.41089046 -0.56215495 4 0 31226 2.17200000 884691711 884691711 -15.00000000
-1.78495646 1.62304688 -0.55697882 4 2 31228 2.47600000 884691716 884691716 -13.00000000
-2.11311769 1.92211509 -0.55525416 3 4 31229 2.91000000 884691720 884691720 -11.00000000
-2.58710861 2.35491323 -0.55409086 1 6 31231 3.54200000 884691725 884691725 -9.00000000
-3.31076193 3.01573181 -0.54987448 2 8 31233 4.51200000 884691730 884691730 -7.00000000
-4.59334087 4.18548441 -0.54367751 7 10 31234 6.23800000 884691734 884691734 -5.00000000
-7.30091381 6.65730953 -0.51781195 4 12 31236 9.89400000 884691739 884691739 -3.00000000
-6.95972919 6.34842682 2.17482686 44 13 31237 9.66800000 884691741 884691741 13.00000000
-7.02562952 6.41303301 2.54885006 49 15 31239 9.84800000 884691746 884691746 15.00000000
-1.53923893 1.40847707 -0.55904913 4 0 31246 2.16000000 884691766 884691766 -15.00000000
-1.78502893 1.63453174 -0.55877841 4 2 31248 2.48400000 884691771 884691771 -13.00000000
-2.09770918 1.92152297 -0.55296445 3 4 31249 2.89800000 884691776 884691776 -11.00000000
-2.57450414 2.35992527 -0.55315226 1 6 31251 3.53600000 884691780 884691780 -9.00000000
-3.29143763 3.01921892 -0.54841202 2 8 31253 4.50000000 884691785 884691785 -7.00000000
-4.56989479 4.19340992 -0.54263163 7 10 31254 6.22600000 884691789 884691789 -5.00000000
-6.98999166 6.41637802 1.84435976 12 11 31255 9.66600000 884691792 884691792 11.00000000
-7.27910185 6.68410444 -0.51791662 4 12 31256 9.89600000 884691794 884691794 -3.00000000
-8.27508831 7.60134125 2.59413552 51 13 31257 11.53200000 884691796 884691796 13.00000000
-7.13661575 6.55785847 2.59699035 47 15 31258 10.03400000 884691801 884691801 15.00000000
-1.53431308 1.41384137 -0.55904913 4 0 31266 2.16000000 884691822 884691822 -15.00000000
-1.78504300 1.64603698 -0.56057805 4 2 31268 2.49200000 884691826 884691826 -13.00000000
-2.10253358 1.93948281 -0.55601740 3 4 31269 2.91400000 884691831 884691831 -11.00000000
-2.57641125 2.37827659 -0.55534238 1 6 31271 3.55000000 884691835 884691835 -9.00000000
-3.29108572 3.04011846 -0.55011821 2 8 31273 4.51400000 884691840 884691840 -7.00000000
-4.56547213 4.21880150 -0.54385185 3 10 31274 6.24000000 884691845 884691845 -5.00000000
-6.97043514 6.44340420 1.84512293 21 11 31275 9.67000000 884691847 884691847 11.00000000
-7.32464647 6.77320433 -0.52283621 4 12 31276 9.99000000 884691849 884691849 -3.00000000
-8.25279617 7.63415051 2.59548521 57 13 31277 11.53800000 884691852 884691852 13.00000000
-7.12812662 6.59840727 2.60268426 45 15 31279 10.05600000 884691856 884691856 15.00000000
-1.52653635 1.41656041 -0.55801386 4 0 31286 2.15600000 884691877 884691877 -15.00000000
-1.77643037 1.64960587 -0.55967820 4 2 31288 2.48800000 884691882 884691882 -13.00000000
-2.09287381 1.94413781 -0.55525416 2 4 31289 2.91000000 884691886 884691886 -11.00000000
-2.55217886 2.37246132 -0.55190080 3 6 31291 3.52800000 884691891 884691891 -9.00000000
-3.28190708 3.05294013 -0.55036193 2 8 31293 4.51600000 884691895 884691895 -7.00000000
-4.54780102 4.23199797 -0.54350322 7 10 31294 6.23600000 884691900 884691900 -5.00000000
-6.97233009 6.49043655 1.85161054 12 11 31295 9.70400000 884691902 884691902 11.00000000
-7.28341913 6.78239775 -0.52158016 4 12 31296 9.96600000 884691905 884691905 -3.00000000
-8.22324562 7.66025496 2.59458542 54 13 31297 11.53400000 884691907 884691907 13.00000000
-7.09631300 6.61278963 2.59906077 47 15 31298 10.04200000 884691912 884691912 15.00000000
-1.52440524 1.42451835 -0.55904913 4 0 31306 2.16000000 884691932 884691932 -15.00000000
-1.76496792 1.65047252 -0.55787861 4 2 31308 2.48000000 884691937 884691937 -13.00000000
-2.09180975 1.95679617 -0.55678064 3 4 31309 2.91800000 884691941 884691941 -11.00000000
-2.56118727 2.39755535 -0.55565524 3 6 31311 3.55200000 884691946 884691946 -9.00000000
-3.28282022 3.07523441 -0.55231184 2 8 31313 4.53200000 884691951 884691951 -7.00000000
-4.54026985 4.25465870 -0.54437476 3 10 31314 6.24600000 884691955 884691955 -5.00000000
-7.29175138 6.83783674 -0.52388293 4 12 31316 10.01000000 884691960 884691960 -3.00000000
-8.18935013 7.68224669 2.59233594 55 13 31317 11.52400000 884691962 884691962 13.00000000
-7.08047962 6.64668751 2.60216665 47 15 31319 10.05400000 884691967 884691967 15.00000000
-1.52786469 1.43777430 -0.56215495 4 0 31326 2.17200000 884691988 884691988 -15.00000000
-1.75919592 1.65662336 -0.55787861 4 2 31328 2.48000000 884691992 884691992 -13.00000000
-2.08496642 1.96408606 -0.55678064 3 4 31329 2.91800000 884691997 884691997 -11.00000000
-2.54849052 2.40241575 -0.55471659 1 6 31331 3.54600000 884692001 884692001 -9.00000000
-3.26628971 3.08122635 -0.55133688 2 8 31333 4.52400000 884692006 884692006 -7.00000000
-4.54133034 4.28552294 -0.54629219 3 10 31334 6.26800000 884692011 884692011 -5.00000000
-7.28526354 6.87970352 -0.52513897 4 12 31336 10.03400000 884692015 884692015 -3.00000000
-8.16248417 7.71078587 2.59233594 55 13 31337 11.52400000 884692018 884692018 13.00000000
-7.05980349 6.67145777 2.60268426 47 15 31338 10.05600000 884692022 884692022 15.00000000
-1.51722765 1.43778360 -0.56008440 4 0 31346 2.16400000 884692043 884692043 -15.00000000
-1.75905871 1.66811776 -0.55967820 4 2 31348 2.48800000 884692047 884692047 -13.00000000
-2.06955194 1.96324503 -0.55449092 3 4 31349 2.90600000 884692052 884692052 -11.00000000
-2.55155015 2.42217708 -0.55721956 1 6 31351 3.56200000 884692057 884692057 -9.00000000
-3.26990652 3.10628104 -0.55377430 2 8 31353 4.54400000 884692061 884692061 -7.00000000
-4.53212070 4.30683899 -0.54698944 3 10 31354 6.27600000 884692066 884692066 -5.00000000
-7.27567768 6.91885519 -0.52618569 4 12 31356 10.05400000 884692070 884692070 -3.00000000
-8.13410664 7.73788834 2.59188604 54 13 31357 11.52200000 884692073 884692073 13.00000000
-7.03110600 6.69329214 2.60113144 47 15 31359 10.05000000 884692077 884692077 15.00000000
-1.50686014 1.43747306 -0.55801386 4 0 31365 2.15600000 884692098 884692098 -15.00000000
-1.76479399 1.68470669 -0.56327742 4 2 31367 2.50400000 884692103 884692103 -13.00000000
-2.06586981 1.97280884 -0.55525416 3 4 31368 2.91000000 884692107 884692107 -11.00000000
-2.53207874 2.41970706 -0.55471659 1 6 31370 3.54600000 884692112 884692112 -9.00000000
-3.26819587 3.12533903 -0.55523676 2 8 31372 4.55600000 884692117 884692117 -7.00000000
-4.51205492 4.31633520 -0.54629219 7 10 31373 6.26800000 884692121 884692121 -5.00000000
-7.22383928 6.91532135 -0.52409226 4 12 31375 10.01400000 884692126 884692126 -3.00000000
-8.11121750 7.76751518 2.59278584 53 13 31376 11.52600000 884692128 884692128 13.00000000
-7.00167370 6.70732975 2.59802556 47 15 31377 10.03800000 884692133 884692133 15.00000000
-1.50461960 1.44540095 -0.55904913 4 0 31385 2.16000000 884692153 884692153 -15.00000000
-1.74766350 1.68005252 -0.55967820 4 2 31387 2.48800000 884692158 884692158 -13.00000000
-2.06746149 1.98817301 -0.55754387 3 4 31388 2.92200000 884692163 884692163 -11.00000000
-2.53927398 2.44359803 -0.55815816 1 6 31390 3.56800000 884692167 884692167 -9.00000000
-3.25583649 3.13535118 -0.55499297 2 8 31392 4.55400000 884692172 884692172 -7.00000000
-4.50126505 4.33620596 -0.54681516 7 10 31393 6.27400000 884692176 884692176 -5.00000000
-7.20828342 6.94881248 -0.52472031 4 12 31395 10.02600000 884692181 884692181 -3.00000000
-8.08826256 7.79983950 2.59413552 56 13 31396 11.53200000 884692183 884692183 13.00000000
-6.97426271 6.73026419 2.59699035 49 15 31398 10.03400000 884692188 884692188 15.00000000
-1.49956501 1.45064425 -0.55904913 4 0 31405 2.16000000 884692209 884692209 -15.00000000
-1.74458861 1.68885362 -0.56057805 4 2 31407 2.49200000 884692213 884692213 -13.00000000
-2.06050873 1.99537778 -0.55754387 3 4 31408 2.92200000 884692218 884692218 -11.00000000
-2.51654315 2.43869996 -0.55502951 3 6 31410 3.54800000 884692223 884692223 -9.00000000
-3.24344730 3.14531517 -0.55474925 2 8 31412 4.55200000 884692227 884692227 -7.00000000
-4.48324156 4.34911728 -0.54646653 7 10 31413 6.27000000 884692232 884692232 -5.00000000
-7.22124386 7.01010180 -0.52744174 4 12 31415 10.07800000 884692236 884692236 -3.00000000
-8.05539513 7.82259464 2.59233594 59 13 31416 11.52400000 884692239 884692239 13.00000000
-6.95467758 6.75604677 2.59802556 47 15 31417 10.03800000 884692243 884692243 15.00000000
-1.50417876 1.46530604 -0.56267262 4 0 31425 2.17400000 884692264 884692264 -15.00000000
-1.73449659 1.69085217 -0.55922830 4 2 31427 2.48600000 884692269 884692269 -13.00000000
-2.05071998 1.99981678 -0.55678064 3 4 31428 2.91800000 884692273 884692273 -11.00000000
-2.52215266 2.46126580 -0.55815816 1 6 31430 3.56800000 884692278 884692278 -9.00000000
-3.22392678 3.14829636 -0.55328679 2 8 31432 4.54000000 884692282 884692282 -7.00000000
-4.48513508 4.38144732 -0.54855824 7 10 31433 6.29400000 884692287 884692287 -5.00000000
-7.21101189 7.04922771 -0.52848846 4 12 31435 10.09800000 884692292 884692292 -3.00000000
-8.02246666 7.84521532 2.59053636 56 13 31436 11.51600000 884692294 884692294 13.00000000
-6.94091463 6.79230070 2.60216665 47 15 31438 10.05400000 884692299 884692299 15.00000000
-1.49491751 1.46648920 -0.56111968 4 0 31445 2.16800000 884692319 884692319 -15.00000000
-1.73553717 1.70372224 -0.56147784 4 2 31447 2.49600000 884692324 884692324 -13.00000000
-2.03812361 2.00146055 -0.55525416 3 4 31448 2.91000000 884692329 884692329 -11.00000000
-2.51636386 2.47282386 -0.55878389 1 6 31450 3.57200000 884692333 884692333 -9.00000000
-3.22707152 3.17344928 -0.55572420 2 8 31452 4.56000000 884692338 884692338 -7.00000000
-4.46129179 4.38869333 -0.54751235 7 10 31453 6.28200000 884692342 884692342 -5.00000000
-7.20059490 7.08836746 -0.52953523 4 12 31455 10.11800000 884692347 884692347 -3.00000000
-8.00058651 7.87864065 2.59233594 56 13 31456 11.52400000 884692349 884692349 13.00000000
-6.91147089 6.80850172 2.59957838 47 15 31457 10.04400000 884692354 884692354 15.00000000
-1.48566639 1.46762550 -0.55956680 4 0 31465 2.16200000 884692375 884692375 -15.00000000
-1.73235118 1.71250999 -0.56237763 4 2 31467 2.50000000 884692379 884692379 -13.00000000
-2.03670883 2.01408458 -0.55678064 2 4 31468 2.91800000 884692384 884692384 -11.00000000
-2.50350451 2.47742414 -0.55784529 1 6 31470 3.56600000 884692388 884692388 -9.00000000
-3.21738482 3.18609142 -0.55596793 2 8 31472 4.56200000 884692393 884692393 -7.00000000
-4.44877625 4.40704393 -0.54786098 7 10 31473 6.28600000 884692398 884692398 -5.00000000
-7.21268702 7.15001726 -0.53225666 4 12 31475 10.17000000 884692402 884692402 -3.00000000
-7.97165298 7.90514803 2.59188604 54 13 31476 11.52200000 884692405 884692405 13.00000000
-6.87943363 6.82442284 2.59647274 47 15 31477 10.03200000 884692409 884692409 15.00000000
-1.47916472 1.47144008 -0.55904913 4 0 31485 2.16000000 884692430 884692430 -15.00000000
-1.72083855 1.71304727 -0.56057805 4 2 31487 2.49200000 884692435 884692435 -13.00000000
-2.02688360 2.01841116 -0.55601740 2 4 31488 2.91400000 884692439 884692439 -11.00000000
-2.49064374 2.48196483 -0.55690670 1 6 31490 3.56000000 884692444 884692444 -9.00000000
-3.20624375 3.19730282 -0.55596793 2 8 31492 4.56200000 884692448 884692448 -7.00000000
-4.46439791 4.45350266 -0.55169582 15 10 31493 6.33000000 884692453 884692453 -5.00000000
-7.20181990 7.18926144 -0.53330338 4 12 31495 10.19000000 884692458 884692458 -3.00000000
-7.94401026 7.93292570 2.59188604 53 13 31496 11.52200000 884692460 884692460 13.00000000
-6.85830355 6.85112524 2.59750795 49 15 31497 10.03600000 884692464 884692464 15.00000000
-1.47947872 1.48206317 -0.56111968 4 0 31505 2.16800000 884692485 884692485 -15.00000000
-1.71760094 1.72180295 -0.56147784 4 2 31507 2.49600000 884692490 884692490 -13.00000000
-2.02814341 2.03381491 -0.55830711 3 4 31508 2.92600000 884692494 884692494 -11.00000000
-2.48754215 2.49624062 -0.55815816 1 6 31510 3.56800000 884692499 884692499 -9.00000000
-3.18946052 3.20284867 -0.55499297 2 8 31512 4.55400000 884692504 884692504 -7.00000000
-4.44882488 4.46905899 -0.55169582 7 10 31513 6.33000000 884692508 884692508 -5.00000000
-7.14146662 7.17895746 -0.53068662 4 12 31515 10.14000000 884692513 884692513 -3.00000000
-7.91352224 7.95784378 2.59098625 52 13 31516 11.51800000 884692515 884692515 13.00000000
-6.83859396 6.88169765 2.59957838 47 15 31518 10.04400000 884692520 884692520 15.00000000
-1.47863674 1.49107635 -0.56267262 4 0 31524 2.17400000 884692541 884692541 -15.00000000
-1.71188188 1.72748935 -0.56147784 4 2 31526 2.49600000 884692545 884692545 -13.00000000
-2.02415133 2.04331899 -0.55907035 2 4 31527 2.93000000 884692550 884692550 -11.00000000
-2.48203015 2.50728345 -0.55878389 1 6 31529 3.57200000 884692554 884692554 -9.00000000
-3.18301034 3.21764135 -0.55572420 2 8 31531 4.56000000 884692559 884692559 -7.00000000
-4.44939089 4.49937057 -0.55361331 7 10 31532 6.35200000 884692564 884692564 -5.00000000
-7.14569855 7.23101234 -0.53278005 4 12 31534 10.18000000 884692568 884692568 -3.00000000
-7.87887239 7.97572422 2.58828688 57 13 31535 11.50600000 884692570 884692570 13.00000000
-6.81558323 6.90177298 2.59906077 47 15 31536 10.04200000 884692575 884692575 15.00000000
-1.46935642 1.49209929 -0.56111968 4 0 31544 2.16800000 884692596 884692596 -15.00000000
-1.71404254 1.74178827 -0.56417722 4 2 31546 2.50800000 884692600 884692600 -13.00000000
-2.01149917 2.04477382 -0.55754387 3 4 31547 2.92200000 884692605 884692605 -11.00000000
-2.47741747 2.52015829 -0.55972254 1 6 31549 3.57800000 884692610 884692610 -9.00000000
-3.17732358 3.23439717 -0.55669916 2 8 31551 4.56800000 884692614 884692614 -7.00000000
-4.42528200 4.50634527 -0.55256742 3 10 31552 6.34000000 884692619 884692619 -5.00000000
-7.13160515 7.26731586 -0.53361744 4 12 31554 10.19600000 884692623 884692623 -3.00000000
-7.85780764 8.01013374 2.59053636 55 13 31555 11.51600000 884692626 884692626 13.00000000
-6.78468704 6.91862535 2.59647274 47 15 31556 10.03200000 884692630 884692630 15.00000000
-1.46819115 1.50136280 -0.56267262 4 0 31564 2.17400000 884692651 884692651 -15.00000000
-1.71067607 1.75054824 -0.56507707 4 2 31566 2.51200000 884692656 884692656 -13.00000000
-2.00434947 2.05178285 -0.55754387 3 4 31567 2.92200000 884692660 884692660 -11.00000000
-2.47826457 2.53868532 -0.56191260 1 6 31569 3.59200000 884692665 884692665 -9.00000000
-3.17294502 3.25257301 -0.55791783 2 8 31571 4.57800000 884692669 884692669 -7.00000000
-4.39978790 4.51177979 -0.55134726 7 10 31572 6.32600000 884692674 884692674 -5.00000000
-7.12989044 7.31648207 -0.53539681 4 12 31574 10.23000000 884692679 884692679 -3.00000000
-7.83523846 8.04309750 2.59233594 55 13 31575 11.52400000 884692681 884692681 13.00000000
-6.75106049 6.93257809 2.59284925 47 15 31576 10.01800000 884692686 884692686 15.00000000
-1.45486641 1.49816310 -0.55956680 4 0 31584 2.16200000 884692706 884692706 -15.00000000
-1.69641232 1.74811804 -0.56237763 4 2 31586 2.50000000 884692711 884692711 -13.00000000
-1.99444115 2.05594850 -0.55678064 3 4 31587 2.91800000 884692716 884692716 -11.00000000
-2.45288849 2.53030062 -0.55815816 1 6 31589 3.56800000 884692720 884692720 -9.00000000
-3.16019082 3.26220322 -0.55767411 2 8 31591 4.57600000 884692725 884692725 -7.00000000
-4.39787245 4.54142332 -0.55309033 7 10 31592 6.34600000 884692729 884692729 -5.00000000
-7.10153008 7.33845520 -0.53518748 4 12 31594 10.22600000 884692734 884692734 -3.00000000
-7.80711508 8.07039833 2.59233594 55 13 31595 11.52400000 884692736 884692736 13.00000000
-6.72560596 6.95727539 2.59284925 47 15 31597 10.01800000 884692741 884692741 15.00000000
-1.45767403 1.51157606 -0.56267262 4 0 31604 2.17400000 884692762 884692762 -15.00000000
-1.68759549 1.75122249 -0.56147784 4 2 31606 2.49600000 884692766 884692766 -13.00000000
-2.00904536 2.08552051 -0.56288654 3 4 31607 2.95000000 884692771 884692771 -11.00000000
-2.46322083 2.55877113 -0.56253833 1 6 31609 3.59600000 884692775 884692775 -9.00000000
-3.14878440 3.27321434 -0.55767411 2 8 31611 4.57600000 884692780 884692780 -7.00000000
-4.36956406 4.54382229 -0.55152154 3 10 31612 6.32800000 884692785 884692785 -5.00000000
-7.10078096 7.38912106 -0.53707159 4 12 31614 10.26200000 884692789 884692789 -3.00000000
-7.77079630 8.08916855 2.58963656 55 13 31615 11.51200000 884692792 884692792 13.00000000
-6.70918846 6.98650694 2.59543729 47 15 31616 10.02800000 884692796 884692796 15.00000000
-1.46040559 1.52502668 -0.56577843 4 0 31624 2.18600000 884692817 884692817 -15.00000000
-1.68416691 1.75991857 -0.56237763 4 2 31626 2.50000000 884692821 884692821 -13.00000000
-1.98275363 2.07265925 -0.55754387 2 4 31627 2.92200000 884692826 884692826 -11.00000000
-2.44335389 2.55593061 -0.56003541 1 6 31629 3.58000000 884692831 884692831 -9.00000000
-3.13185477 3.27844405 -0.55669916 2 8 31631 4.56800000 884692835 884692835 -7.00000000
-4.36743641 4.57345629 -0.55326468 3 10 31632 6.34800000 884692840 884692840 -5.00000000
-7.06253481 7.40085793 -0.53612953 4 12 31634 10.24400000 884692845 884692845 -3.00000000
-7.73982239 8.11342430 2.58873677 55 13 31635 11.50800000 884692847 884692847 13.00000000
-6.69009304 7.01547623 2.59750795 47 15 31636 10.03600000 884692851 884692851 15.00000000
-1.45241082 1.52731526 -0.56474316 4 0 31644 2.18200000 884692872 884692872 -15.00000000
-1.68338299 1.77143717 -0.56417722 4 2 31646 2.50800000 884692877 884692877 -13.00000000
-1.97821093 2.08241463 -0.55830711 3 4 31647 2.92600000 884692881 884692881 -11.00000000
-2.45073748 2.58163571 -0.56378978 1 6 31649 3.60400000 884692886 884692886 -9.00000000
-3.14498329 3.31527948 -0.56108648 2 8 31651 4.60400000 884692891 884692891 -7.00000000
-4.35830021 4.59590197 -0.55413622 7 10 31652 6.35800000 884692895 884692895 -5.00000000
-7.05451775 7.44431210 -0.53749025 4 12 31654 10.27000000 884692900 884692900 -3.00000000
-7.71145391 8.14039230 2.58873677 55 13 31655 11.50800000 884692902 884692902 13.00000000
-6.65371037 7.02872562 2.59336686 47 15 31657 10.02000000 884692907 884692907 15.00000000
-1.44309151 1.52816212 -0.56319022 4 0 31664 2.17600000 884692927 884692927 -15.00000000
-1.67986429 1.78013706 -0.56507707 4 2 31666 2.51200000 884692932 884692932 -13.00000000
-1.97631860 2.09501958 -0.55983359 3 4 31667 2.93400000 884692937 884692937 -11.00000000
-2.42951584 2.57723832 -0.56097400 1 6 31669 3.58600000 884692941 884692941 -9.00000000
-3.13611388 3.32912731 -0.56157392 2 8 31671 4.60800000 884692946 884692946 -7.00000000
-4.34906054 4.61834002 -0.55500776 7 10 31672 6.36800000 884692951 884692951 -5.00000000
-7.02848911 7.46889162 -0.53749025 4 12 31674 10.27000000 884692955 884692955 -3.00000000
-7.68299150 8.16726017 2.58873677 55 13 31675 11.50800000 884692957 884692957 13.00000000
-6.61722660 7.03924084 2.58870816 47 15 31677 10.00200000 884692962 884692962 15.00000000
-1.44303429 1.53882694 -0.56526077 4 0 31684 2.18400000 884692983 884692983 -15.00000000
-1.66564512 1.77745831 -0.56237763 4 2 31686 2.50000000 884692987 884692987 -13.00000000
-1.96630919 2.09903979 -0.55907035 3 4 31687 2.93000000 884692992 884692992 -11.00000000
-2.43400455 2.60012412 -0.56410271 1 6 31689 3.60600000 884692997 884692997 -9.00000000
-3.12447405 3.34005404 -0.56157392 2 8 31691 4.60800000 884693001 884693001 -7.00000000
-4.33427382 4.63494778 -0.55518210 7 10 31692 6.37000000 884693006 884693006 -5.00000000
-7.00510263 7.49629879 -0.53769964 4 12 31694 10.27400000 884693010 884693010 -3.00000000
-7.65842676 8.19830132 2.59008646 51 13 31695 11.51400000 884693013 884693013 13.00000000
-6.60184240 7.07218170 2.59233165 47 15 31697 10.01600000 884693017 884693017 15.00000000
-1.43502092 1.54102707 -0.56422549 4 0 31704 2.18000000 884693038 884693038 -15.00000000
-1.65412033 1.77755523 -0.56057805 4 2 31706 2.49200000 884693043 884693043 -13.00000000
-1.97501647 2.12314034 -0.56364977 2 4 31707 2.95400000 884693047 884693047 -11.00000000
-2.41684389 2.59992385 -0.56222546 1 6 31709 3.59400000 884693052 884693052 -9.00000000
-3.11549807 3.35384893 -0.56206143 2 8 31711 4.61200000 884693057 884693057 -7.00000000
-4.33162594 4.66464901 -0.55692518 7 10 31712 6.39000000 884693061 884693061 -5.00000000
-7.00062990 7.54412985 -0.53937435 4 12 31714 10.30600000 884693066 884693066 -3.00000000
-7.61916018 8.21355534 2.58648729 55 13 31715 11.49800000 884693068 884693068 13.00000000
-6.57448912 7.09234953 2.59129620 47 15 31717 10.01200000 884693073 884693073 15.00000000
-1.43515015 1.55144989 -0.56629604 4 0 31723 2.18800000 884693093 884693093 -15.00000000
-1.65615344 1.79161668 -0.56327742 4 2 31725 2.50400000 884693098 884693098 -13.00000000
-1.95464087 2.11525917 -0.55983359 3 4 31726 2.93400000 884693103 884693103 -11.00000000
-2.41490960 2.61518025 -0.56378978 1 6 31728 3.60400000 884693107 884693107 -9.00000000
-3.08820462 3.34665537 -0.55913657 2 8 31730 4.58800000 884693112 884693112 -7.00000000
-4.32153749 4.68484545 -0.55762243 7 10 31731 6.39800000 884693116 884693116 -5.00000000
-7.01347733 7.60842180 -0.54230517 4 12 31733 10.36200000 884693121 884693121 -3.00000000
-7.59188128 8.23877621 2.58648729 54 13 31734 11.49800000 884693123 884693123 13.00000000
-5.77078342 6.26469851 2.28226638 20 15 31735 8.81800000 884693128 884693128 15.00000000
-1.42711210 1.55360460 -0.56526077 4 0 31743 2.18400000 884693149 884693149 -15.00000000
-1.65779626 1.80600047 -0.56597686 4 2 31745 2.51600000 884693153 884693153 -13.00000000
-1.94193590 2.11628318 -0.55830711 3 4 31746 2.92600000 884693158 884693158 -11.00000000
-2.40576625 2.62359405 -0.56378978 1 6 31748 3.60400000 884693162 884693162 -9.00000000
-3.10600829 3.38961315 -0.56449878 2 8 31750 4.63200000 884693167 884693167 -7.00000000
-4.29708290 4.69108677 -0.55657655 11 10 31751 6.38600000 884693172 884693172 -5.00000000
-6.99496746 7.64169645 -0.54293323 4 12 31753 10.37400000 884693176 884693176 -3.00000000
-7.56439161 8.26666451 2.58693719 55 13 31754 11.50000000 884693179 884693179 13.00000000
-5.74647951 6.28438139 2.28174877 40 15 31756 8.81600000 884693183 884693183 15.00000000
-1.42428410 1.56143129 -0.56629604 4 0 31763 2.18800000 884693204 884693204 -15.00000000
-1.64623094 1.80601549 -0.56417722 4 2 31765 2.50800000 884693209 884693209 -13.00000000
-1.93982613 2.12885356 -0.55983359 2 4 31766 2.93400000 884693213 884693213 -11.00000000
-2.39925361 2.63489699 -0.56441557 1 6 31768 3.60800000 884693218 884693218 -9.00000000
-3.06476545 3.36813331 -0.55913657 2 8 31770 4.58800000 884693222 884693222 -7.00000000
-4.29140711 4.71784878 -0.55797106 7 10 31771 6.40200000 884693227 884693227 -5.00000000
-6.98705816 7.68675804 -0.54439861 4 12 31773 10.40200000 884693232 884693232 -3.00000000
-7.53679991 8.29446030 2.58738708 53 13 31774 11.50200000 884693234 884693234 13.00000000
-5.70872211 6.28481293 2.27501941 42 15 31775 8.79000000 884693239 884693239 15.00000000
-1.41882503 1.56639338 -0.56629604 4 0 31783 2.18800000 884693259 884693259 -15.00000000
-1.64383996 1.81608522 -0.56552696 4 2 31785 2.51400000 884693264 884693264 -13.00000000
-1.93765211 2.14143491 -0.56136006 2 4 31786 2.94200000 884693268 884693268 -11.00000000
-2.37281823 2.62420797 -0.56034827 1 6 31788 3.58200000 884693273 884693273 -9.00000000
-3.06896019 3.39648557 -0.56206143 2 8 31790 4.61200000 884693278 884693278 -7.00000000
-4.28025436 4.73871422 -0.55866832 3 10 31791 6.41000000 884693282 884693282 -5.00000000
-6.92137480 7.66810465 -0.54136312 4 12 31793 10.34400000 884693287 884693287 -3.00000000
-7.51041222 8.32361221 2.58828688 54 13 31794 11.50600000 884693289 884693289 13.00000000
-5.69211721 6.31286812 2.27760768 45 15 31796 8.80000000 884693294 884693294 15.00000000
-1.41334867 1.57133651 -0.56629604 4 0 31803 2.18800000 884693315 884693315 -15.00000000
-1.63227987 1.81601489 -0.56372732 3 2 31805 2.50600000 884693319 884693319 -13.00000000
-1.93803823 2.15694761 -0.56364977 3 4 31806 2.95400000 884693324 884693324 -11.00000000
-2.37024236 2.63982391 -0.56191260 1 6 31808 3.59200000 884693328 884693328 -9.00000000
-3.06106281 3.41161013 -0.56279260 2 8 31810 4.61800000 884693333 884693333 -7.00000000
-4.27033901 4.76104212 -0.55953985 3 10 31811 6.42000000 884693338 884693338 -5.00000000
-6.94122314 7.74427319 -0.54502666 4 12 31813 10.41400000 884693342 884693342 -3.00000000
-7.47871065 8.34687519 2.58738708 54 13 31814 11.50200000 884693345 884693345 13.00000000
-5.66857386 6.32883120 2.27657223 45 15 31815 8.79600000 884693349 884693349 15.00000000
-1.40528131 1.57337880 -0.56526077 4 0 31823 2.18400000 884693370 884693370 -15.00000000
-1.62982368 1.82606316 -0.56507707 4 2 31825 2.51200000 884693374 884693374 -13.00000000
-1.91481280 2.14612031 -0.55907035 3 4 31826 2.93000000 884693379 884693379 -11.00000000
-2.37941742 2.66872358 -0.56629276 1 6 31828 3.62000000 884693384 884693384 -9.00000000
-3.05573797 3.42968512 -0.56401134 2 8 31830 4.62800000 884693388 884693388 -7.00000000
-4.26694536 4.79079723 -0.56128299 3 10 31831 6.44000000 884693393 884693393 -5.00000000
-6.94070530 7.79829359 -0.54712009 4 12 31833 10.45400000 884693397 884693397 -3.00000000
-7.45341492 8.37729740 2.58873677 55 13 31834 11.50800000 884693400 884693400 13.00000000
-5.65047407 6.35534000 2.27864289 45 15 31836 8.80400000 884693404 884693404 15.00000000
-1.40234435 1.58116519 -0.56629604 4 0 31843 2.18800000 884693425 884693425 -15.00000000
-1.62343955 1.83174121 -0.56507707 4 2 31845 2.51200000 884693430 884693430 -13.00000000
-1.90991354 2.15573025 -0.55983359 3 4 31846 2.93400000 884693434 884693434 -11.00000000
-2.36484957 2.67109680 -0.56504130 1 6 31848 3.61200000 884693439 884693439 -9.00000000
-3.04374766 3.44033074 -0.56401134 2 8 31850 4.62800000 884693444 884693444 -7.00000000
-4.25019598 4.80566263 -0.56128299 3 10 31851 6.44000000 884693448 884693448 -5.00000000
-6.91344166 7.82247400 -0.54712009 4 12 31853 10.45400000 884693453 884693453 -3.00000000
-7.42670774 8.40618420 2.58963656 55 13 31854 11.51200000 884693455 884693455 13.00000000
-5.62425280 6.36825085 2.27657223 45 15 31855 8.79600000 884693460 884693460 15.00000000
-1.39170933 1.58025157 -0.56422549 4 0 31863 2.18000000 884693480 884693480 -15.00000000
-1.61832321 1.83885980 -0.56552696 3 2 31865 2.51400000 884693485 884693485 -13.00000000
-1.90497065 2.16533184 -0.56059682 3 4 31866 2.93800000 884693490 884693490 -11.00000000
-2.36464119 2.68972039 -0.56723136 1 6 31868 3.62600000 884693494 884693494 -9.00000000
-3.01599813 3.43303847 -0.56108648 2 8 31870 4.60400000 884693499 884693499 -7.00000000
-4.22419214 4.80998993 -0.56006283 3 10 31871 6.42600000 884693503 884693503 -5.00000000
-6.88345957 7.84355640 -0.54691076 4 12 31873 10.45000000 884693508 884693508 -3.00000000
-7.39603472 8.43059254 2.58918667 53 13 31874 11.51000000 884693510 884693510 13.00000000
-5.59577990 6.38301134 2.27450180 47 15 31876 8.78800000 884693515 884693515 15.00000000
-1.38618469 1.58509982 -0.56422549 4 0 31883 2.18000000 884693536 884693536 -15.00000000
-1.60804749 1.84009540 -0.56417722 4 2 31885 2.50800000 884693540 884693540 -13.00000000
-1.90773356 2.18379664 -0.56364977 3 4 31886 2.95400000 884693545 884693545 -11.00000000
-2.33964896 2.68010092 -0.56347692 1 6 31888 3.60200000 884693550 884693550 -9.00000000
-3.02748537 3.47047162 -0.56547374 2 8 31890 4.64000000 884693554 884693554 -7.00000000
-4.21523333 4.83371592 -0.56110865 3 10 31891 6.43800000 884693559 884693559 -5.00000000
-6.87965727 7.89463997 -0.54879487 4 12 31893 10.48600000 884693563 884693563 -3.00000000
-7.37296152 8.46370506 2.59143615 57 13 31894 11.52000000 884693566 884693566 13.00000000
-5.57204485 6.39861870 2.27346659 45 15 31895 8.78400000 884693570 884693570 15.00000000
-1.38824308 1.59868085 -0.56733137 4 0 31903 2.19200000 884693591 884693591 -15.00000000
-1.60033739 1.84422553 -0.56372732 3 2 31905 2.50600000 884693596 884693596 -13.00000000
-1.90009916 2.19044256 -0.56364977 3 4 31906 2.95400000 884693600 884693600 -11.00000000
-2.33933663 2.69869995 -0.56566703 1 6 31908 3.61600000 884693605 884693605 -9.00000000
-3.00235534 3.46601391 -0.56303638 2 8 31910 4.62000000 884693609 884693609 -7.00000000
-4.19833517 4.84840012 -0.56110865 3 10 31911 6.43800000 884693614 884693614 -5.00000000
-6.85205793 7.91860628 -0.54879487 4 12 31913 10.48600000 884693619 884693619 -3.00000000
-7.33827305 8.48349476 2.58963656 57 13 31914 11.51200000 884693621 884693621 13.00000000
-5.55108213 6.42192125 2.27450180 45 15 31916 8.78800000 884693626 884693626 15.00000000
-1.38770032 1.60936916 -0.56940192 4 0 31923 2.20000000 884693646 884693646 -15.00000000
-1.59134591 1.84684789 -0.56282753 4 2 31925 2.50200000 884693651 884693651 -13.00000000
-1.89116013 2.19557428 -0.56326813 3 4 31926 2.95200000 884693656 884693656 -11.00000000
-2.33634543 2.71433496 -0.56723136 1 6 31928 3.62600000 884693660 884693660 -9.00000000
-2.99671078 3.48399782 -0.56425506 2 8 31930 4.63000000 884693665 884693665 -7.00000000
-4.19957113 4.88417578 -0.56354904 3 10 31931 6.46600000 884693669 884693669 -5.00000000
-6.83478785 7.95459509 -0.54963219 4 12 31933 10.50200000 884693674 884693674 -3.00000000
-7.30607605 8.50610161 2.58873677 55 13 31934 11.50800000 884693676 884693676 13.00000000
-5.53227282 6.44322538 2.27553701 47 15 31935 8.79200000 884693681 884693681 15.00000000
-1.37453556 1.60539865 -0.56629604 4 0 31943 2.18800000 884693702 884693702 -15.00000000
-1.59502470 1.86423731 -0.56642675 4 2 31945 2.51800000 884693706 884693706 -13.00000000
-1.88220859 2.20067024 -0.56288654 3 4 31946 2.95000000 884693711 884693711 -11.00000000
-2.32685637 2.72247386 -0.56723136 1 6 31948 3.62600000 884693715 884693715 -9.00000000
-2.98324203 3.49292755 -0.56401134 2 8 31950 4.62800000 884693720 884693720 -7.00000000
-4.18767118 4.90486622 -0.56424630 3 10 31951 6.47400000 884693725 884693725 -5.00000000
-6.83809137 8.01487064 -0.55214435 4 12 31953 10.55000000 884693729 884693729 -3.00000000
-7.27886868 8.53451824 2.58963656 55 13 31954 11.51200000 884693732 884693732 13.00000000
-5.50598812 6.45808697 2.27398419 47 15 31955 8.78600000 884693736 884693736 15.00000000
-1.36197436 1.60088050 -0.56319022 4 0 31961 2.17600000 884693757 884693757 -15.00000000
-1.59420919 1.87517786 -0.56822634 3 2 31963 2.52600000 884693762 884693762 -13.00000000
-1.87782848 2.20956445 -0.56364977 3 4 31964 2.95400000 884693766 884693766 -11.00000000
-2.31445599 2.72525334 -0.56629276 1 6 31966 3.62000000 884693771 884693771 -9.00000000
-2.99023652 3.52347159 -0.56742364 2 8 31968 4.65600000 884693775 884693775 -7.00000000
-4.16708565 4.91192055 -0.56354904 3 10 31969 6.46600000 884693780 884693780 -5.00000000
-6.83095980 8.05764198 -0.55360973 4 12 31971 10.57800000 884693785 884693785 -3.00000000
