# .PCD v0.7 - Point Cloud Data file format
VERSION 0.7
FIELDS x y z intensity laser_id azimuth distance_m adjustedtime timestamp vertical_angle
SIZE 4 4 4 1 1 2 8 8 4 8
TYPE F F F U U U F U U F
COUNT 1 1 1 1 1 1 1 1 1 1
WIDTH 551
HEIGHT 1
VIEWPOINT 0 0 0 1 0 0 0
POINTS 551
DATA ascii
7.82859612 2.86021233 0.14548326 15 1 6993 8.33600000 884724503 884724503 1.00000000
2.50597882 0.91507471 -0.61591601 7 2 6994 2.73800000 884724506 884724506 -13.00000000
7.85895443 2.86974931 0.43847063 13 3 6994 8.37800000 884724508 884724508 3.00000000
3.05042076 1.11327803 -0.63119614 5 4 6995 3.30800000 884724510 884724510 -11.00000000
7.83704853 2.85864997 0.72984219 72 5 6996 8.37400000 884724513 884724513 5.00000000
3.80643630 1.38768697 -0.64169419 6 6 6997 4.10200000 884724515 884724515 -9.00000000
7.85783243 2.86312389 1.02687109 97 7 6998 8.42600000 884724517 884724517 7.00000000
5.16676474 1.88156986 -0.67515618 9 8 6999 5.54000000 884724519 884724519 -7.00000000
6.40865564 2.33255982 -0.59666824 16 10 7000 6.84600000 884724524 884724524 -5.00000000
7.82729006 2.84580684 -0.43648186 17 12 7002 8.34000000 884724529 884724529 -3.00000000
7.83407307 2.84517717 -0.14548326 18 14 7004 8.33600000 884724533 884724533 -1.00000000
7.90239477 2.86999035 2.25276089 47 15 7004 8.70400000 884724536 884724536 15.00000000
2.14192057 0.77451891 -0.61029530 4 0 7012 2.35800000 884724556 884724556 -15.00000000
7.83853245 2.83286786 0.14548326 15 1 7013 8.33600000 884724559 884724559 1.00000000
2.50549197 0.90499759 -0.61501616 7 2 7014 2.73400000 884724561 884724561 -13.00000000
7.85439110 2.83550000 0.43763328 15 3 7015 8.36200000 884724563 884724563 3.00000000
3.05982828 1.10462320 -0.63234103 6 4 7015 3.31400000 884724566 884724566 -11.00000000
7.85072756 2.83262849 0.73019081 76 5 7016 8.37800000 884724568 884724568 5.00000000
3.80196571 1.37104106 -0.64012980 6 6 7017 4.09200000 884724570 884724570 -9.00000000
7.84910393 2.82894659 1.02443373 95 7 7018 8.40600000 884724572 884724572 7.00000000
5.16583061 1.86083210 -0.67418122 9 8 7019 5.53200000 884724575 884724575 -7.00000000
6.45425081 2.32367325 -0.60015446 8 10 7020 6.88600000 884724579 884724579 -5.00000000
7.82589960 2.81441164 -0.43585384 17 12 7022 8.32800000 884724584 884724584 -3.00000000
7.84583855 2.81848979 -0.14551817 16 14 7024 8.33800000 884724589 884724589 -1.00000000
7.90922403 2.83970165 2.25172567 47 15 7025 8.70000000 884724591 884724591 15.00000000
2.15370631 0.77029043 -0.61288351 4 0 7032 2.36800000 884724612 884724612 -15.00000000
7.84460735 2.80414295 0.14541344 21 1 7033 8.33200000 884724614 884724614 1.00000000
2.50680065 0.89559066 -0.61456627 6 2 7034 2.73200000 884724616 884724616 -13.00000000
7.84870434 2.80406260 0.43679589 18 3 7034 8.34600000 884724619 884724619 3.00000000
3.04517627 1.08733380 -0.62852484 5 4 7035 3.29400000 884724621 884724621 -11.00000000
7.85118484 2.80185890 0.72931927 76 5 7036 8.36800000 884724623 884724623 5.00000000
3.82347369 1.36373389 -0.64294565 6 6 7037 4.11000000 884724625 884724625 -9.00000000
7.86267042 2.80286407 1.02492118 92 7 7038 8.41000000 884724628 884724628 7.00000000
5.16294527 1.83945751 -0.67296249 9 8 7039 5.52200000 884724630 884724630 -7.00000000
7.82686186 2.78702021 -0.72687888 17 10 7040 8.34000000 884724635 884724635 -5.00000000
7.83567572 2.78707719 -0.43585384 17 12 7042 8.32800000 884724639 884724639 -3.00000000
7.83867073 2.78506017 -0.14520402 18 14 7044 8.32000000 884724644 884724644 -1.00000000
7.92041779 2.81410480 2.25224328 47 15 7044 8.70200000 884724646 884724646 15.00000000
2.14545441 0.75890249 -0.60977769 4 0 7052 2.35600000 884724667 884724667 -15.00000000
7.85434771 2.77674294 0.14541344 21 1 7053 8.33200000 884724669 884724669 1.00000000
2.51542377 0.88878250 -0.61591601 7 2 7054 2.73800000 884724671 884724671 -13.00000000
7.85467815 2.77531767 0.43658656 23 3 7054 8.34200000 884724674 884724674 3.00000000
3.05265546 1.07800496 -0.62928808 5 4 7055 3.29800000 884724676 884724676 -11.00000000
7.84964466 2.77045751 0.72827339 76 5 7056 8.35600000 884724678 884724678 5.00000000
3.82075906 1.34775078 -0.64169419 6 6 7057 4.10200000 884724681 884724681 -9.00000000
7.86866236 2.77408099 1.02443373 90 7 7058 8.40600000 884724683 884724683 7.00000000
5.17495155 1.82340336 -0.67369372 9 8 7059 5.52800000 884724685 884724685 -7.00000000
7.83090496 2.75769687 -0.72635597 17 10 7060 8.33400000 884724690 884724690 -5.00000000
7.83970451 2.75772023 -0.43553984 17 12 7062 8.32200000 884724695 884724695 -3.00000000
7.83513784 2.75304079 -0.14495969 18 14 7064 8.30600000 884724699 884724699 -1.00000000
7.92107964 2.78323817 2.24965525 47 15 7064 8.69200000 884724701 884724701 15.00000000
2.14809036 0.75140887 -0.60977769 4 0 7072 2.35600000 884724722 884724722 -15.00000000
7.84511566 2.74270988 0.14506440 15 1 7073 8.31200000 884724724 884724724 1.00000000
2.52219033 0.88128221 -0.61681581 7 2 7074 2.74200000 884724727 884724727 -13.00000000
7.86291170 2.74585176 0.43648186 26 3 7075 8.34000000 884724729 884724729 3.00000000
3.05639982 1.06734264 -0.62928808 5 4 7075 3.29800000 884724731 884724731 -11.00000000
7.84986210 2.73975754 0.72740185 76 5 7076 8.34600000 884724734 884724734 5.00000000
3.81984496 1.33245373 -0.64075559 6 6 7077 4.09600000 884724736 884724736 -9.00000000
7.87454891 2.74529052 1.02394617 95 7 7078 8.40200000 884724738 884724738 7.00000000
5.17940998 1.80467510 -0.67344999 9 8 7079 5.52600000 884724741 884724741 -7.00000000
7.81414127 2.72117186 -0.72391558 17 10 7080 8.30600000 884724745 884724745 -5.00000000
7.84928322 2.73033786 -0.43553984 17 12 7082 8.32200000 884724750 884724750 -3.00000000
7.84092236 2.72436166 -0.14488988 18 14 7084 8.30200000 884724754 884724754 -1.00000000
7.91845274 2.74975109 2.24603176 47 15 7085 8.67800000 884724757 884724757 15.00000000
2.14704871 0.74264306 -0.60874242 4 0 7092 2.35200000 884724777 884724777 -15.00000000
7.84141207 2.71073508 0.14482006 12 1 7093 8.29800000 884724780 884724780 1.00000000
2.52525115 0.87247276 -0.61681581 7 2 7094 2.74200000 884724782 884724782 -13.00000000
7.87574959 2.72106671 0.43669122 47 3 7094 8.34400000 884724784 884724784 3.00000000
3.05639553 1.05538571 -0.62852484 5 4 7095 3.29400000 884724787 884724787 -11.00000000
7.85372734 2.71038961 0.72687888 76 5 7096 8.34000000 884724789 884724789 5.00000000
3.83007503 1.32104421 -0.64169419 6 6 7097 4.10200000 884724791 884724791 -9.00000000
7.87282324 2.71390486 1.02248383 95 7 7098 8.39000000 884724794 884724794 7.00000000
5.19130850 1.78852439 -0.67418122 9 8 7099 5.53200000 884724796 884724796 -7.00000000
7.71056175 2.65495944 -0.71345693 17 10 7100 8.18600000 884724801 884724801 -5.00000000
7.84365654 2.69772530 -0.43470246 17 12 7102 8.30600000 884724805 884724805 -3.00000000
7.85227585 2.69762492 -0.14492479 20 14 7104 8.30400000 884724810 884724810 -1.00000000
7.92434883 2.72083926 2.24499631 47 15 7105 8.67400000 884724812 884724812 15.00000000
2.15315509 0.73676997 -0.60977769 4 0 7111 2.35600000 884724833 884724833 -15.00000000
7.85035801 2.68471718 0.14482006 15 1 7112 8.29800000 884724835 884724835 1.00000000
2.51337838 0.85905176 -0.61321658 7 2 7113 2.72600000 884724837 884724837 -13.00000000
7.86394072 2.68782926 0.43553984 39 3 7113 8.32200000 884724840 884724840 3.00000000
3.06730986 1.04778302 -0.63005131 5 4 7114 3.30200000 884724842 884724842 -11.00000000
7.86832905 2.68626213 0.72740185 76 5 7115 8.34600000 884724844 884724844 5.00000000
3.83817387 1.30961180 -0.64231992 6 6 7116 4.10600000 884724847 884724847 -9.00000000
7.87050676 2.68393850 1.02102137 95 7 7117 8.37800000 884724849 884724849 7.00000000
5.19533205 1.77065921 -0.67393744 9 8 7118 5.53000000 884724851 884724851 -7.00000000
7.62125254 2.59597039 -0.70439273 26 10 7119 8.08200000 884724856 884724856 -5.00000000
7.85255957 2.67170000 -0.43470246 21 12 7121 8.30600000 884724860 884724860 -3.00000000
7.85739136 2.67028403 -0.14485498 16 14 7123 8.30000000 884724865 884724865 -1.00000000
7.93332767 2.69454622 2.24499631 47 15 7124 8.67400000 884724867 884724867 15.00000000
2.15571380 0.72924954 -0.60977769 4 0 7131 2.35600000 884724888 884724888 -15.00000000
7.86536503 2.65921950 0.14492479 18 1 7132 8.30400000 884724890 884724890 1.00000000
2.52374649 0.85276854 -0.61501616 7 2 7133 2.73400000 884724893 884724893 -13.00000000
7.87138271 2.65972328 0.43543515 39 3 7133 8.32000000 884724895 884724895 3.00000000
3.06536841 1.03518534 -0.62890643 6 4 7134 3.29600000 884724897 884724897 -11.00000000
7.86633110 2.65495729 0.72635597 76 5 7135 8.33400000 884724900 884724900 5.00000000
3.84459352 1.29683745 -0.64263278 6 6 7136 4.10800000 884724902 884724902 -9.00000000
7.87794638 2.65581465 1.02077758 99 7 7137 8.37600000 884724904 884724904 7.00000000
5.18078804 1.74554133 -0.67125636 9 8 7138 5.50800000 884724907 884724907 -7.00000000
7.64726162 2.57507396 -0.70596153 35 10 7139 8.10000000 884724911 884724911 -5.00000000
7.85426521 2.64172626 -0.43428376 17 12 7141 8.29800000 884724916 884724916 -3.00000000
7.95946074 2.67556167 1.93862820 4 13 7142 8.61800000 884724918 884724918 13.00000000
7.85339546 2.63838267 -0.14461064 16 14 7143 8.28600000 884724920 884724920 -1.00000000
7.93902254 2.66560745 2.24396110 47 15 7144 8.67000000 884724923 884724923 15.00000000
2.15470767 0.72011888 -0.60874242 4 0 7152 2.35200000 884724943 884724943 -15.00000000
7.87126541 2.62910652 0.14485498 21 1 7153 8.30000000 884724946 884724946 1.00000000
2.52870369 0.84412986 -0.61546606 10 2 7154 2.73600000 884724948 884724948 -13.00000000
7.87918377 2.63022304 0.43533048 47 3 7154 8.31800000 884724950 884724950 3.00000000
3.06355500 1.02207923 -0.62776160 5 4 7155 3.29000000 884724953 884724953 -11.00000000
7.86844873 2.62358713 0.72565871 76 5 7156 8.32600000 884724955 884724955 5.00000000
3.84932089 1.28273761 -0.64263278 6 6 7157 4.10800000 884724957 884724957 -9.00000000
7.88386059 2.62566829 1.02029014 99 7 7158 8.37200000 884724959 884724959 7.00000000
5.18526745 1.72591412 -0.67101258 9 8 7159 5.50600000 884724962 884724962 -7.00000000
7.77008057 2.58476162 -0.71642023 17 10 7160 8.22000000 884724966 884724966 -5.00000000
7.86199951 2.61229157 -0.43417910 17 12 7162 8.29600000 884724971 884724971 -3.00000000
7.96181583 2.64391422 1.93682861 4 13 7163 8.61000000 884724973 884724973 13.00000000
7.85542107 2.60706139 -0.14447102 16 14 7164 8.27800000 884724976 884724976 -1.00000000
7.93361044 2.63301086 2.23982000 47 15 7164 8.65400000 884724978 884724978 15.00000000
2.16087699 0.71380508 -0.60977769 4 0 7172 2.35600000 884724999 884724999 -15.00000000
7.86710215 2.59722638 0.14461064 12 1 7173 8.28600000 884725001 884725001 1.00000000
2.55014086 0.84140390 -0.61996508 11 2 7174 2.75600000 884725003 884725003 -13.00000000
7.88262701 2.60082603 0.43501648 55 3 7174 8.31200000 884725006 884725006 3.00000000
3.07083297 1.01260889 -0.62852484 5 4 7175 3.29400000 884725008 884725008 -11.00000000
7.87188196 2.59423423 0.72513580 76 5 7176 8.32000000 884725010 884725010 5.00000000
3.86127996 1.27176499 -0.64388424 6 6 7177 4.11600000 884725012 884725012 -9.00000000
7.89297771 2.59813237 1.02029014 99 7 7178 8.37200000 884725015 884725015 7.00000000
5.17806053 1.70346129 -0.66930646 9 8 7179 5.49200000 884725017 884725017 -7.00000000
7.83205175 2.57504749 -0.72130090 17 10 7180 8.27600000 884725022 884725022 -5.00000000
7.86917257 2.58420897 -0.43407443 17 12 7182 8.29400000 884725026 884725026 -3.00000000
7.97099638 2.61610627 1.93682861 5 13 7183 8.61000000 884725029 884725029 13.00000000
7.85877371 2.57775521 -0.14436631 18 14 7184 8.27200000 884725031 884725031 -1.00000000
7.93219328 2.60030437 2.23671412 49 15 7185 8.64200000 884725033 884725033 15.00000000
2.15576386 0.70461226 -0.60770714 4 0 7190 2.34800000 884725054 884725054 -15.00000000
7.85811520 2.56691003 0.14429650 15 1 7191 8.26800000 884725056 884725056 1.00000000
2.53054142 0.82613087 -0.61456627 7 2 7192 2.73200000 884725059 884725059 -13.00000000
7.89310694 2.57529140 0.43512115 57 3 7193 8.31400000 884725061 884725061 3.00000000
3.07399917 1.00295663 -0.62852484 5 4 7193 3.29400000 884725063 884725063 -11.00000000
7.87809896 2.56887364 0.72496146 76 5 7194 8.31800000 884725065 884725065 5.00000000
3.86525631 1.25962818 -0.64388424 6 6 7195 4.11600000 884725068 884725068 -9.00000000
7.88600111 2.56840515 1.01834023 100 7 7196 8.35600000 884725070 884725070 7.00000000
5.19848776 1.69210076 -0.67125636 9 8 7197 5.50800000 884725072 884725072 -7.00000000
7.84389210 2.55166245 -0.72164953 17 10 7198 8.28000000 884725077 884725077 -5.00000000
7.86205626 2.55453706 -0.43323705 17 12 7200 8.27800000 884725082 884725082 -3.00000000
7.97546864 2.58984804 1.93592882 4 13 7201 8.60600000 884725084 884725084 13.00000000
7.87253904 2.55490518 -0.14447102 16 14 7202 8.27800000 884725086 884725086 -1.00000000
7.93803596 2.57616115 2.23619652 51 15 7202 8.64000000 884725089 884725089 15.00000000
2.17659354 0.70302057 -0.61288351 4 0 7210 2.36800000 884725109 884725109 -15.00000000
7.87083340 2.54069304 0.14436631 15 1 7211 8.27200000 884725112 884725112 1.00000000
2.53340983 0.81729257 -0.61456627 7 2 7212 2.73200000 884725114 884725114 -13.00000000
7.89254379 2.54465938 0.43459779 70 3 7213 8.30400000 884725116 884725116 3.00000000
3.08121848 0.99342513 -0.62928808 5 4 7213 3.29800000 884725118 884725118 -11.00000000
7.88891459 2.54196930 0.72513580 76 5 7214 8.32000000 884725121 884725121 5.00000000
3.87151003 1.24673367 -0.64419711 6 6 7215 4.11800000 884725123 884725123 -9.00000000
7.87602186 2.53478074 1.01590288 100 7 7216 8.33600000 884725125 884725125 7.00000000
5.18357515 1.66725838 -0.66857523 9 8 7217 5.48600000 884725128 884725128 -7.00000000
7.84895754 2.52304721 -0.72130090 17 10 7218 8.27600000 884725132 884725132 -5.00000000
7.86522055 2.52524614 -0.43292302 17 12 7220 8.27200000 884725137 884725137 -3.00000000
7.97518253 2.55901575 1.93367922 5 13 7221 8.59600000 884725139 884725139 13.00000000
7.88331366 2.52801991 -0.14450592 14 14 7222 8.28000000 884725142 884725142 -1.00000000
7.94374561 2.54587030 2.23516130 51 15 7223 8.63600000 884725144 884725144 15.00000000
2.17535353 0.69424391 -0.61184824 4 0 7230 2.36400000 884725165 884725165 -15.00000000
7.87965441 2.51320314 0.14436631 18 1 7231 8.27200000 884725167 884725167 1.00000000
2.53996062 0.80962801 -0.61546606 7 2 7232 2.73600000 884725169 884725169 -13.00000000
7.88044500 2.51042509 0.43344638 76 3 7233 8.28200000 884725171 884725171 3.00000000
3.08092618 0.98147178 -0.62852484 5 4 7233 3.29400000 884725174 884725174 -11.00000000
7.89394236 2.51320744 0.72478718 79 5 7234 8.31600000 884725176 884725176 5.00000000
3.86830878 1.23081625 -0.64294565 6 6 7235 4.11000000 884725178 884725178 -9.00000000
7.89238930 2.50967908 1.01687777 100 7 7236 8.34400000 884725181 884725181 7.00000000
5.19314718 1.65035653 -0.66906267 9 8 7237 5.49000000 884725183 884725183 -7.00000000
7.86341333 2.49744320 -0.72182387 17 10 7238 8.28200000 884725188 884725188 -5.00000000
7.87398720 2.49777603 -0.43292302 17 12 7240 8.27200000 884725192 884725192 -3.00000000
7.96363306 2.52468348 1.92873037 5 13 7241 8.57400000 884725195 884725195 13.00000000
7.86921453 2.49323893 -0.14408706 14 14 7242 8.25600000 884725197 884725197 -1.00000000
7.95214415 2.51951385 2.23516130 51 15 7242 8.63600000 884725199 884725199 15.00000000
2.17039394 0.68432260 -0.60977769 4 0 7250 2.35600000 884725220 884725220 -15.00000000
7.88647175 2.48508191 0.14433140 21 1 7251 8.27000000 884725222 884725222 1.00000000
2.54648876 0.80192769 -0.61636591 7 2 7252 2.74000000 884725224 884725224 -13.00000000
7.89868593 2.48589993 0.43396974 89 3 7253 8.29200000 884725227 884725227 3.00000000
3.08620596 0.97130072 -0.62890643 5 4 7253 3.29600000 884725229 884725229 -11.00000000
7.89126348 2.48205042 0.72374129 90 5 7254 8.30400000 884725231 884725231 5.00000000
3.87446594 1.21789825 -0.64325851 6 6 7255 4.11200000 884725234 884725234 -9.00000000
7.90110159 2.48211408 1.01687777 100 7 7256 8.34400000 884725236 884725236 7.00000000
5.20645237 1.63459754 -0.67003763 9 8 7257 5.49800000 884725238 884725238 -7.00000000
7.86257839 2.46699715 -0.72095233 17 10 7258 8.27200000 884725243 884725243 -5.00000000
7.87884665 2.46908092 -0.43271369 17 12 7260 8.26800000 884725247 884725247 -3.00000000
7.97797632 2.49861717 1.93008006 6 13 7261 8.58000000 884725250 884725250 13.00000000
7.87214422 2.46396303 -0.14398235 16 14 7262 8.25000000 884725252 884725252 -1.00000000
7.94657516 2.48573709 2.23102021 56 15 7263 8.62000000 884725254 884725254 15.00000000
2.16539168 0.67444438 -0.60770714 4 0 7270 2.34800000 884725275 884725275 -15.00000000
7.87791443 2.45218873 0.14401726 15 1 7271 8.25200000 884725277 884725277 1.00000000
2.55485487 0.79477048 -0.61771560 6 2 7272 2.74600000 884725280 884725280 -13.00000000
7.90350056 2.45712733 0.43376040 81 3 7273 8.28800000 884725282 884725282 3.00000000
3.08770299 0.95993912 -0.62852484 5 4 7273 3.29400000 884725284 884725284 -11.00000000
7.89036608 2.45153379 0.72286975 83 5 7274 8.29400000 884725287 884725287 5.00000000
3.87492061 1.20319486 -0.64263278 6 6 7275 4.10800000 884725289 884725289 -9.00000000
7.90592575 2.45334244 1.01639032 100 7 7276 8.34000000 884725291 884725291 7.00000000
5.20833445 1.61523771 -0.66955018 9 8 7277 5.49400000 884725294 884725294 -7.00000000
7.85401392 2.43422818 -0.71938348 17 10 7278 8.25400000 884725298 884725298 -5.00000000
7.87406158 2.43742919 -0.43198100 17 12 7280 8.25400000 884725303 884725303 -3.00000000
7.98478746 2.47017765 1.92963016 5 13 7281 8.57800000 884725305 884725305 13.00000000
7.87114477 2.43351579 -0.14380783 18 14 7282 8.24000000 884725307 884725307 -1.00000000
7.93631792 2.45366549 2.22584391 58 15 7282 8.60000000 884725310 884725310 15.00000000
2.17142558 0.66801775 -0.60874242 4 0 7290 2.35200000 884725330 884725330 -15.00000000
7.87113476 2.41997361 0.14373802 15 1 7291 8.23600000 884725333 884725333 1.00000000
2.54829955 0.78298569 -0.61546606 7 2 7292 2.73600000 884725335 884725335 -13.00000000
7.91393852 2.43011022 0.43386507 94 3 7293 8.29000000 884725337 884725337 3.00000000
3.08728147 0.94800258 -0.62776160 5 4 7293 3.29000000 884725340 884725340 -11.00000000
7.89506626 2.42280722 0.72252113 83 5 7294 8.29000000 884725342 884725342 5.00000000
3.86776543 1.18618631 -0.64075559 6 6 7295 4.09600000 884725344 884725344 -9.00000000
7.90305376 2.42224026 1.01492786 99 7 7296 8.32800000 884725347 884725347 7.00000000
5.21773672 1.59821010 -0.67003763 9 8 7297 5.49800000 884725349 884725349 -7.00000000
7.87008381 2.40913033 -0.72008073 17 10 7298 8.26200000 884725353 884725353 -5.00000000
7.88634205 2.41109657 -0.43219033 17 12 7300 8.25800000 884725358 884725358 -3.00000000
7.99336147 2.44229054 1.92963016 3 13 7301 8.57800000 884725360 884725360 13.00000000
7.87767887 2.40544152 -0.14377293 16 14 7302 8.23800000 884725363 884725363 -1.00000000
7.95264912 2.42681623 2.22791433 60 15 7303 8.60800000 884725365 884725365 15.00000000
2.17547727 0.66137528 -0.60926002 4 0 7309 2.35400000 884725386 884725386 -15.00000000
7.89250994 2.39792776 0.14398235 12 1 7310 8.25000000 884725388 884725388 1.00000000
2.53969407 0.77113390 -0.61276668 7 2 7311 2.72400000 884725390 884725390 -13.00000000
7.91430902 2.40153360 0.43344638 99 3 7312 8.28200000 884725393 884725393 3.00000000
3.09040809 0.93775958 -0.62776160 5 4 7312 3.29000000 884725395 884725395 -11.00000000
7.90115023 2.39603472 0.72234678 79 5 7313 8.28800000 884725397 884725397 5.00000000
3.86789680 1.17220795 -0.64012980 6 6 7314 4.09200000 884725400 884725400 -9.00000000
7.89964342 2.39256716 1.01346540 100 7 7315 8.31600000 884725402 884725402 7.00000000
5.21920824 1.57974851 -0.66955018 9 8 7316 5.49400000 884725404 884725404 -7.00000000
7.87993670 2.38359594 -0.72025508 17 10 7317 8.26400000 884725409 884725409 -5.00000000
7.88091040 2.38088822 -0.43145761 17 12 7319 8.24400000 884725413 884725413 -3.00000000
7.99022293 2.41239071 1.92693079 3 13 7320 8.56600000 884725416 884725416 13.00000000
7.89518452 2.38219333 -0.14394745 14 14 7321 8.24800000 884725418 884725418 -1.00000000
7.96023369 2.40182042 2.22791433 58 15 7321 8.60800000 884725420 884725420 15.00000000
2.18702388 0.65655470 -0.61184824 4 0 7329 2.36400000 884725441 884725441 -15.00000000
7.88933992 2.36691546 0.14377293 15 1 7330 8.23800000 884725443 884725443 1.00000000
2.54610348 0.76338333 -0.61366647 7 2 7331 2.72800000 884725446 884725446 -13.00000000
7.90925121 2.36987996 0.43271369 89 3 7332 8.26800000 884725448 884725448 3.00000000
3.08990145 0.92583930 -0.62699836 5 4 7332 3.28600000 884725450 884725450 -11.00000000
7.90946579 2.36844015 0.72234678 90 5 7333 8.28800000 884725453 884725453 5.00000000
3.88331985 1.16209733 -0.64200705 4 6 7334 4.10400000 884725455 884725455 -9.00000000
7.90794706 2.36497760 1.01346540 100 7 7335 8.31600000 884725457 884725457 7.00000000
5.21137714 1.55754137 -0.66784400 6 8 7336 5.48000000 884725459 884725459 -7.00000000
7.88629961 2.35550499 -0.72008073 17 10 7337 8.26200000 884725464 884725464 -5.00000000
7.88534546 2.35222220 -0.43124828 17 12 7339 8.24000000 884725469 884725469 -3.00000000
7.98925781 2.38170123 1.92468119 2 13 7340 8.55600000 884725471 884725471 13.00000000
7.89578581 2.35233545 -0.14380783 14 14 7341 8.24000000 884725473 884725473 -1.00000000
7.96898317 2.37262845 2.22791433 56 15 7342 8.60800000 884725476 884725476 15.00000000
2.18189359 0.64672059 -0.60977769 4 0 7349 2.35600000 884725496 884725496 -15.00000000
7.90330601 2.34106588 0.14387764 15 1 7350 8.24400000 884725499 884725499 1.00000000
2.55622721 0.75670367 -0.61546606 7 2 7351 2.73600000 884725501 884725501 -13.00000000
7.92130566 2.34339023 0.43292302 100 3 7352 8.27200000 884725503 884725503 3.00000000
3.08934903 0.91393405 -0.62623513 5 4 7352 3.28200000 884725506 884725506 -11.00000000
7.90240002 2.33629751 0.72095233 79 5 7353 8.27200000 884725508 884725508 5.00000000
3.89493036 1.15077376 -0.64325851 4 6 7354 4.11200000 884725510 884725510 -9.00000000
7.91234636 2.33623505 1.01297796 99 7 7355 8.31200000 884725512 884725512 7.00000000
5.22439766 1.54158795 -0.66881895 6 8 7356 5.48800000 884725515 884725515 -7.00000000
7.87727451 2.32289052 -0.71851194 17 10 7357 8.24400000 884725519 884725519 -5.00000000
7.90117216 2.32693982 -0.43166697 17 12 7359 8.24800000 884725524 884725524 -3.00000000
7.99939203 2.35434914 1.92513108 1 13 7360 8.55800000 884725526 884725526 13.00000000
7.88668299 2.31968141 -0.14349368 16 14 7361 8.22200000 884725529 884725529 -1.00000000
7.96198082 2.34182835 2.22377324 58 15 7361 8.59200000 884725531 884725531 15.00000000
2.18042946 0.63801533 -0.60874242 4 0 7369 2.35200000 884725552 884725552 -15.00000000
7.89991379 2.31009650 0.14366820 18 1 7370 8.23200000 884725554 884725554 1.00000000
2.56633496 0.74996269 -0.61726570 7 2 7371 2.74400000 884725556 884725556 -13.00000000
7.91601706 2.31180620 0.43219033 100 3 7372 8.25800000 884725559 884725559 3.00000000
3.10005879 0.90534604 -0.62776160 5 4 7372 3.29000000 884725561 884725561 -11.00000000
7.90285683 2.30646586 0.72025508 90 5 7373 8.26400000 884725563 884725563 5.00000000
3.88754535 1.13385236 -0.64138132 4 6 7374 4.10000000 884725565 884725565 -9.00000000
7.92426491 2.30971265 1.01346540 100 7 7375 8.31600000 884725568 884725568 7.00000000
5.23355865 1.52445233 -0.66930646 9 8 7376 5.49200000 884725570 884725570 -7.00000000
7.87194395 2.29148149 -0.71729177 17 10 7377 8.23000000 884725575 884725575 -5.00000000
7.89773941 2.29600024 -0.43103895 17 12 7379 8.23600000 884725579 884725579 -3.00000000
8.01504707 2.32858634 1.92693079 0 13 7380 8.56600000 884725582 884725582 13.00000000
7.89089155 2.29102254 -0.14342387 18 14 7381 8.21800000 884725584 884725584 -1.00000000
7.95897532 2.31078982 2.22066736 56 15 7381 8.58000000 884725586 884725586 15.00000000
2.18635535 0.63147247 -0.60977769 4 0 7389 2.35600000 884725607 884725607 -15.00000000
7.89640188 2.27917933 0.14345878 15 1 7390 8.22000000 884725609 884725609 1.00000000
2.55770278 0.73775941 -0.61456627 7 2 7391 2.73200000 884725612 884725612 -13.00000000
7.92020035 2.28305364 0.43198100 100 3 7392 8.25400000 884725614 884725614 3.00000000
3.10319996 0.89451933 -0.62776160 5 4 7392 3.29000000 884725616 884725616 -11.00000000
7.90894508 2.27831435 0.72008073 100 5 7393 8.26200000 884725618 884725618 5.00000000
3.87249684 1.11481059 -0.63825262 6 6 7394 4.08000000 884725621 884725621 -9.00000000
7.91701698 2.27764702 1.01151550 99 7 7395 8.30000000 884725623 884725623 7.00000000
5.23121691 1.50398052 -0.66833150 9 8 7396 5.48400000 884725625 884725625 -7.00000000
8.01575661 2.30302405 1.32093263 5 9 7397 8.44400000 884725628 884725628 9.00000000
7.88180971 2.26453948 -0.71746606 17 10 7397 8.23200000 884725630 884725630 -5.00000000
7.90954542 2.26951957 -0.43124828 17 12 7399 8.24000000 884725635 884725635 -3.00000000
7.89307356 2.26181173 -0.14331916 18 14 7401 8.21200000 884725639 884725639 -1.00000000
7.96327877 2.28192925 2.21963215 56 15 7401 8.57600000 884725641 884725641 15.00000000
2.19597769 0.62595510 -0.61184824 4 0 7409 2.36400000 884725662 884725662 -15.00000000
7.90046310 2.25050616 0.14338897 15 1 7410 8.21600000 884725665 884725665 1.00000000
2.55463958 0.72722620 -0.61321658 9 2 7411 2.72600000 884725667 884725667 -13.00000000
7.92620039 2.25484657 0.43187630 100 3 7412 8.25200000 884725669 884725669 3.00000000
3.11008024 0.88475609 -0.62852484 5 4 7412 3.29400000 884725671 884725671 -11.00000000
7.91876602 2.25123787 0.72025508 94 5 7413 8.26400000 884725674 884725674 5.00000000
3.89916658 1.10776436 -0.64200705 9 6 7414 4.10400000 884725676 884725676 -9.00000000
7.91728067 2.24782896 1.01054060 100 7 7415 8.29200000 884725678 884725678 7.00000000
5.23643494 1.48571098 -0.66833150 9 8 7416 5.48400000 884725681 884725681 -7.00000000
7.90116739 2.24027395 -0.71851194 17 10 7417 8.24400000 884725685 884725685 -5.00000000
7.89820194 2.23645496 -0.43020156 17 12 7419 8.22000000 884725690 884725690 -3.00000000
8.05173397 2.27841115 1.93187964 0 13 7420 8.58800000 884725692 884725692 13.00000000
7.90861750 2.23642254 -0.14345878 18 14 7421 8.22000000 884725694 884725694 -1.00000000
7.97530699 2.25377798 2.22066736 49 15 7422 8.58000000 884725697 884725697 15.00000000
2.19639730 0.61737949 -0.61133057 4 0 7430 2.36200000 884725718 884725718 -15.00000000
7.90288305 2.21991205 0.14328426 15 1 7431 8.21000000 884725720 884725720 1.00000000
2.56291652 0.71943814 -0.61456627 7 2 7432 2.73200000 884725722 884725722 -13.00000000
7.92287350 2.22254372 0.43124828 100 3 7433 8.24000000 884725724 884725724 3.00000000
3.10763121 0.87176031 -0.62737995 5 4 7433 3.28800000 884725727 884725727 -11.00000000
7.91929054 2.22004771 0.71955782 79 5 7434 8.25600000 884725729 884725729 5.00000000
3.92032003 1.09826171 -0.64482284 15 6 7435 4.12200000 884725731 884725731 -9.00000000
7.92164326 2.21772528 1.01005316 100 7 7436 8.28800000 884725734 884725734 7.00000000
5.24375677 1.46704340 -0.66857523 9 8 7437 5.48600000 884725736 884725736 -7.00000000
7.90356922 2.20969033 -0.71798903 17 10 7438 8.23800000 884725741 884725741 -5.00000000
7.91019344 2.20856571 -0.43041089 17 12 7440 8.22400000 884725745 884725745 -3.00000000
7.90135193 2.20312428 -0.14317954 18 14 7442 8.20400000 884725750 884725750 -1.00000000
7.99056911 2.22800064 2.22273803 51 15 7442 8.58800000 884725752 884725752 15.00000000
2.18736959 0.60661125 -0.60822475 4 0 7450 2.35000000 884725773 884725773 -15.00000000
7.91636515 2.19391441 0.14338897 18 1 7451 8.21600000 884725775 884725775 1.00000000
2.56916833 0.71152776 -0.61546606 7 2 7452 2.73600000 884725777 884725777 -13.00000000
7.92288351 2.19274330 0.43082958 100 3 7453 8.23200000 884725780 884725780 3.00000000
3.10119486 0.85828900 -0.62547189 5 4 7453 3.27800000 884725782 884725782 -11.00000000
7.91738987 2.18973517 0.71868628 83 5 7454 8.24600000 884725784 884725784 5.00000000
3.91651368 1.08246565 -0.64357138 9 6 7455 4.11400000 884725787 884725787 -9.00000000
7.92933607 2.19005990 1.01005316 99 7 7456 8.28800000 884725789 884725789 7.00000000
5.23736477 1.44556129 -0.66711277 9 8 7457 5.47400000 884725791 884725791 -7.00000000
7.89971018 2.17890978 -0.71694314 17 10 7458 8.22600000 884725796 884725796 -5.00000000
7.91978025 2.18147087 -0.43051559 17 12 7460 8.22600000 884725800 884725800 -3.00000000
7.90128183 2.17340851 -0.14303993 18 14 7462 8.19600000 884725805 884725805 -1.00000000
7.97780800 2.19445872 2.21704388 49 15 7462 8.56600000 884725807 884725807 15.00000000
2.18936920 0.59935433 -0.60822475 4 0 7469 2.35000000 884725829 884725829 -15.00000000
7.91202402 2.16448474 0.14317954 12 1 7470 8.20400000 884725831 884725831 1.00000000
2.57715297 0.70454586 -0.61681581 9 2 7471 2.74200000 884725834 884725834 -13.00000000
7.93165970 2.16836882 0.43093425 100 3 7471 8.23400000 884725836 884725836 3.00000000
3.09076691 0.84437865 -0.62280059 6 4 7472 3.26400000 884725838 884725838 -11.00000000
7.91884184 2.16189408 0.71816331 94 5 7473 8.24000000 884725841 884725841 5.00000000
3.90293026 1.06479275 -0.64075559 9 6 7474 4.09600000 884725843 884725843 -9.00000000
7.93655539 2.16375327 1.01005316 99 7 7475 8.28800000 884725845 884725845 7.00000000
5.24404478 1.42870748 -0.66735655 9 8 7476 5.47600000 884725847 884725847 -7.00000000
7.89151287 2.14851427 -0.71554863 17 10 7477 8.21000000 884725852 884725852 -5.00000000
7.92697048 2.15519595 -0.43051559 17 12 7479 8.22600000 884725857 884725857 -3.00000000
7.91423512 2.14876676 -0.14314464 16 14 7481 8.20200000 884725861 884725861 -1.00000000
7.97199106 2.16444802 2.21342039 47 15 7481 8.55200000 884725864 884725864 15.00000000
2.19890809 0.59372270 -0.61029530 4 0 7489 2.35800000 884725884 884725884 -15.00000000
7.90794706 2.13372803 0.14297011 15 1 7490 8.19200000 884725887 884725887 1.00000000
2.57583356 0.69453096 -0.61591601 10 2 7491 2.73800000 884725889 884725889 -13.00000000
7.93376875 2.13772440 0.43062025 100 3 7492 8.22800000 884725891 884725891 3.00000000
3.09938240 0.83511704 -0.62394542 6 4 7492 3.27000000 884725894 884725894 -11.00000000
7.92634010 2.13423896 0.71816331 94 5 7493 8.24000000 884725896 884725896 5.00000000
3.90471578 1.05064929 -0.64044273 9 6 7494 4.09400000 884725898 884725898 -9.00000000
7.93255758 2.13294363 1.00859070 100 7 7495 8.27600000 884725900 884725900 7.00000000
5.25666857 1.41245413 -0.66833150 9 8 7496 5.48400000 884725903 884725903 -7.00000000
7.90088892 2.12147141 -0.71572298 17 10 7497 8.21200000 884725907 884725907 -5.00000000
7.91322517 2.12182260 -0.42936417 25 12 7499 8.20400000 884725912 884725912 -3.00000000
7.91589260 2.11957622 -0.14303993 18 14 7501 8.19600000 884725917 884725917 -1.00000000
7.97240543 2.13321733 2.21134996 47 15 7502 8.54400000 884725919 884725919 15.00000000
2.19899821 0.58593017 -0.60977769 4 0 7508 2.35600000 884725940 884725940 -15.00000000
7.91497946 2.10749245 0.14297011 12 1 7509 8.19200000 884725942 884725942 1.00000000
2.55929041 0.68097448 -0.61141694 9 2 7510 2.71800000 884725944 884725944 -13.00000000
7.93272495 2.11073494 0.43020156 100 3 7510 8.22000000 884725947 884725947 3.00000000
3.09834003 0.82382554 -0.62318218 6 4 7511 3.26600000 884725949 884725949 -11.00000000
7.92759705 2.10640764 0.71764040 83 5 7512 8.23400000 884725951 884725951 5.00000000
3.90054154 1.03566718 -0.63919121 9 6 7513 4.08600000 884725953 884725953 -9.00000000
7.92807484 2.10357213 1.00712824 100 7 7514 8.26400000 884725956 884725956 7.00000000
5.24597311 1.39094460 -0.66638160 9 8 7515 5.46800000 884725958 884725958 -7.00000000
7.91173220 2.09627986 -0.71607161 17 10 7516 8.21600000 884725963 884725963 -5.00000000
7.91635609 2.09454799 -0.42915484 21 12 7518 8.20000000 884725967 884725967 -3.00000000
7.92674446 2.09433627 -0.14310974 18 14 7520 8.20000000 884725972 884725972 -1.00000000
7.99214220 2.11161518 2.21497345 51 15 7520 8.55800000 884725974 884725974 15.00000000
2.20289850 0.57874155 -0.61029530 4 0 7528 2.35800000 884725995 884725995 -15.00000000
7.91841936 2.07883573 0.14290030 15 1 7529 8.18800000 884725997 884725997 1.00000000
2.56919169 0.67401481 -0.61321658 9 2 7530 2.72600000 884725999 884725999 -13.00000000
7.92265749 2.07847023 0.42925951 100 3 7530 8.20200000 884726002 884726002 3.00000000
3.10499501 0.81400102 -0.62394542 5 4 7531 3.27000000 884726004 884726004 -11.00000000
7.94068336 2.08023691 0.71816331 90 5 7532 8.24000000 884726006 884726006 5.00000000
3.91177678 1.02404654 -0.64044273 11 6 7533 4.09400000 884726009 884726009 -9.00000000
7.93536949 2.07588506 1.00712824 99 7 7534 8.26400000 884726011 884726011 7.00000000
5.25655794 1.37413037 -0.66711277 9 8 7535 5.47400000 884726013 884726013 -7.00000000
7.91707373 2.06814647 -0.71589726 17 10 7536 8.21400000 884726018 884726018 -5.00000000
7.92555189 2.06740618 -0.42925951 17 12 7538 8.20200000 884726023 884726023 -3.00000000
7.91659069 2.06211734 -0.14279559 20 14 7540 8.18200000 884726027 884726027 -1.00000000
7.99572563 2.08273053 2.21393800 51 15 7540 8.55400000 884726029 884726029 15.00000000
2.20116496 0.57007980 -0.60926002 4 0 7548 2.35400000 884726050 884726050 -15.00000000
7.92756367 2.05168366 0.14293520 15 1 7549 8.19000000 884726052 884726052 1.00000000
2.57152867 0.66504252 -0.61321658 7 2 7550 2.72600000 884726055 884726055 -13.00000000
7.94182444 2.05241680 0.42988753 100 3 7551 8.21400000 884726057 884726057 3.00000000
3.10021424 0.80119270 -0.62241894 5 4 7551 3.26200000 884726059 884726059 -11.00000000
7.94018030 2.05051351 0.71746606 90 5 7552 8.23200000 884726062 884726062 5.00000000
3.92297840 1.01236010 -0.64169419 11 6 7553 4.10200000 884726064 884726064 -9.00000000
7.95025635 2.05015564 1.00810325 100 7 7554 8.27200000 884726066 884726066 7.00000000
5.25940037 1.35527790 -0.66686904 9 8 7555 5.47200000 884726069 884726069 -7.00000000
7.91266823 2.03751707 -0.71485138 17 10 7556 8.20200000 884726073 884726073 -5.00000000
7.93658876 2.04072285 -0.42946887 17 12 7558 8.20600000 884726078 884726078 -3.00000000
7.91792965 2.03297877 -0.14269088 22 14 7560 8.17600000 884726082 884726082 -1.00000000
7.99582052 2.05149031 2.21186757 56 15 7561 8.54600000 884726085 884726085 15.00000000
2.19939780 0.56143719 -0.60822475 4 0 7568 2.35000000 884726105 884726105 -15.00000000
7.92111349 2.02053881 0.14269088 18 1 7569 8.17600000 884726108 884726108 1.00000000
2.58705306 0.65943152 -0.61636591 6 2 7570 2.74000000 884726110 884726110 -13.00000000
7.95245790 2.02705598 0.43009689 100 3 7570 8.21800000 884726112 884726112 3.00000000
3.09918714 0.78939688 -0.62165570 5 4 7571 3.25800000 884726115 884726115 -11.00000000
7.93184280 2.01885295 0.71607161 79 5 7572 8.21600000 884726117 884726117 5.00000000
3.92074513 0.99719942 -0.64075559 15 6 7573 4.09600000 884726119 884726119 -9.00000000
7.95736408 2.02239156 1.00810325 100 7 7574 8.27200000 884726122 884726122 7.00000000
5.27179527 1.33886540 -0.66784400 6 8 7575 5.48000000 884726124 884726124 -7.00000000
7.92166328 2.01037455 -0.71502572 17 10 7576 8.20400000 884726129 884726129 -5.00000000
7.93204737 2.01006293 -0.42884082 17 12 7578 8.19400000 884726133 884726133 -3.00000000
7.93079376 2.00679922 -0.14279559 16 14 7580 8.18200000 884726138 884726138 -1.00000000
7.98607683 2.01930499 2.20720887 49 15 7581 8.52800000 884726140 884726140 15.00000000
2.20509124 0.55469900 -0.60926002 4 0 7588 2.35400000 884726161 884726161 -15.00000000
7.92811823 1.99287677 0.14269088 21 1 7589 8.17600000 884726163 884726163 1.00000000
2.57799888 0.64754856 -0.61366647 5 2 7590 2.72800000 884726165 884726165 -13.00000000
7.95367384 1.99782479 0.42978287 100 3 7590 8.21200000 884726168 884726168 3.00000000
3.11715722 0.78239745 -0.62470865 5 4 7591 3.27400000 884726170 884726170 -11.00000000
7.94270658 1.99212277 0.71642023 94 5 7592 8.22000000 884726172 884726172 5.00000000
3.91270542 0.98062599 -0.63887835 20 6 7593 4.08400000 884726175 884726175 -9.00000000
7.94897032 1.99074483 1.00615335 99 7 7594 8.25600000 884726177 884726177 7.00000000
5.28028774 1.32141912 -0.66833150 9 8 7595 5.48400000 884726179 884726179 -7.00000000
7.91123676 1.97836030 -0.71345693 17 10 7596 8.18600000 884726184 884726184 -5.00000000
7.93514013 1.98139501 -0.42863148 17 12 7598 8.19000000 884726188 884726188 -3.00000000
7.93386984 1.97813594 -0.14272578 16 14 7600 8.17800000 884726193 884726193 -1.00000000
7.99682570 1.99235022 2.20824409 47 15 7601 8.53200000 884726195 884726195 15.00000000
2.21451449 0.54885733 -0.61133057 4 0 7608 2.36200000 884726216 884726216 -15.00000000
7.93308544 1.96470952 0.14265597 18 1 7609 8.17400000 884726218 884726218 1.00000000
2.57646012 0.63760942 -0.61276668 5 2 7610 2.72400000 884726221 884726221 -13.00000000
7.95284414 1.96812987 0.42936417 100 3 7610 8.20400000 884726223 884726223 3.00000000
3.11415172 0.77009785 -0.62356383 5 4 7611 3.26800000 884726225 884726225 -11.00000000
7.94574356 1.96342957 0.71607161 90 5 7612 8.21600000 884726228 884726228 5.00000000
3.94295335 0.97359163 -0.64325851 9 6 7613 4.11200000 884726230 884726230 -9.00000000
7.94623423 1.96060789 1.00493455 97 7 7614 8.24600000 884726232 884726232 7.00000000
5.28101349 1.30202901 -0.66784400 9 8 7615 5.48000000 884726235 884726235 -7.00000000
7.93743992 1.95549893 -0.71520001 13 10 7616 8.20600000 884726239 884726239 -5.00000000
7.93618965 1.95225286 -0.42831746 17 12 7618 8.18400000 884726244 884726244 -3.00000000
7.94266844 1.95090652 -0.14276068 18 14 7620 8.18000000 884726248 884726248 -1.00000000
8.00373173 1.96442389 2.20824409 47 15 7621 8.53200000 884726251 884726251 15.00000000
2.20872164 0.54006219 -0.60926002 4 0 7626 2.35400000 884726271 884726271 -15.00000000
7.94504595 1.94120121 0.14276068 15 1 7627 8.18000000 884726274 884726274 1.00000000
2.58980942 0.63228530 -0.61546606 5 2 7628 2.73600000 884726276 884726276 -13.00000000
7.95122671 1.94124079 0.42894551 100 3 7628 8.19600000 884726278 884726278 3.00000000
3.12037039 0.76124132 -0.62432700 4 4 7629 3.27200000 884726281 884726281 -11.00000000
7.95961571 1.94034517 0.71676880 76 5 7630 8.22400000 884726283 884726283 5.00000000
3.94407344 0.96073222 -0.64294565 9 6 7631 4.11000000 884726285 884726285 -9.00000000
7.95814085 1.93704283 1.00566578 100 7 7632 8.25200000 884726287 884726287 7.00000000
5.27736235 1.28355527 -0.66686904 9 8 7633 5.47200000 884726290 884726290 -7.00000000
6.47990274 1.57483816 -0.58342052 8 10 7634 6.69400000 884726294 884726294 -5.00000000
7.92481565 1.92307198 -0.42737541 17 12 7636 8.16600000 884726299 884726299 -3.00000000
7.93904114 1.92358983 -0.14258616 16 14 7638 8.17000000 884726304 884726304 -1.00000000
8.01327991 1.94157755 2.20927930 49 15 7638 8.53600000 884726306 884726306 15.00000000
2.20683694 0.53144443 -0.60822475 4 0 7646 2.35000000 884726327 884726327 -15.00000000
7.94205284 1.91111684 0.14258616 15 1 7647 8.17000000 884726329 884726329 1.00000000
2.58821130 0.62233013 -0.61456627 6 2 7648 2.73200000 884726331 884726331 -13.00000000
7.94824505 1.91113937 0.42842212 100 3 7648 8.18600000 884726334 884726334 3.00000000
3.11346388 0.74805129 -0.62241894 5 4 7649 3.26200000 884726336 884726336 -11.00000000
7.94696665 1.90789795 0.71502572 79 5 7650 8.20400000 884726338 884726338 5.00000000
3.95892811 0.94972378 -0.64482284 9 6 7651 4.12200000 884726340 884726340 -9.00000000
7.96871471 1.91017747 1.00615335 100 7 7652 8.25600000 884726343 884726343 7.00000000
5.27408886 1.26327646 -0.66589409 6 8 7653 5.46400000 884726345 884726345 -7.00000000
6.48923588 1.55313706 -0.58376914 16 10 7654 6.69800000 884726350 884726350 -5.00000000
7.94313526 1.89818287 -0.42800346 17 12 7656 8.17800000 884726354 884726354 -3.00000000
7.92820120 1.89168870 -0.14227201 14 14 7658 8.15200000 884726359 884726359 -1.00000000
8.01282597 1.91040230 2.20720887 49 15 7659 8.52800000 884726361 884726361 15.00000000
2.20303941 0.52240068 -0.60667187 4 0 7666 2.34400000 884726382 884726382 -15.00000000
7.93505478 1.88015497 0.14234182 18 1 7667 8.15600000 884726384 884726384 1.00000000
2.59036779 0.61329180 -0.61456627 5 2 7668 2.73200000 884726387 884726387 -13.00000000
7.95519638 1.88199472 0.42842212 100 3 7669 8.18600000 884726389 884726389 3.00000000
3.12178779 0.73853469 -0.62356383 4 4 7669 3.26800000 884726391 884726391 -11.00000000
7.94776106 1.87877119 0.71450275 83 5 7670 8.19800000 884726393 884726393 5.00000000
3.94683933 0.93226600 -0.64231992 9 6 7671 4.10600000 884726396 884726396 -9.00000000
7.96567392 1.88006985 1.00493455 97 7 7672 8.24600000 884726398 884726398 7.00000000
5.28233051 1.24576998 -0.66638160 6 8 7673 5.46800000 884726400 884726400 -7.00000000
6.46746826 1.52407801 -0.58132881 12 10 7674 6.67000000 884726405 884726405 -5.00000000
7.95360136 1.87135935 -0.42821279 17 12 7676 8.18200000 884726410 884726410 -3.00000000
7.94448996 1.86628926 -0.14244655 16 14 7678 8.16200000 884726414 884726414 -1.00000000
8.00783253 1.88116956 2.20410299 47 15 7678 8.51600000 884726417 884726417 15.00000000
2.20673084 0.51514661 -0.60718948 4 0 7686 2.34600000 884726437 884726437 -15.00000000
7.93962193 1.85199070 0.14230692 25 1 7687 8.15400000 884726440 884726440 1.00000000
2.59249282 0.60424602 -0.61456627 5 2 7688 2.73200000 884726442 884726442 -13.00000000
7.97144318 1.85647964 0.42894551 100 3 7689 8.19600000 884726444 884726444 3.00000000
3.12434673 0.72763312 -0.62356383 4 4 7689 3.26800000 884726446 884726446 -11.00000000
7.95233059 1.85056531 0.71432847 79 5 7690 8.19600000 884726449 884726449 5.00000000
3.94622159 0.91758847 -0.64169419 9 6 7691 4.10200000 884726451 884726451 -9.00000000
7.96445370 1.85045600 1.00395966 95 7 7692 8.23800000 884726453 884726453 7.00000000
5.29438162 1.22911930 -0.66735655 9 8 7693 5.47600000 884726456 884726456 -7.00000000
6.50380230 1.50869656 -0.58411777 12 10 7694 6.70200000 884726460 884726460 -5.00000000
7.94841051 1.84088087 -0.42758477 17 12 7696 8.17000000 884726465 884726465 -3.00000000
7.94705915 1.83764541 -0.14237674 18 14 7698 8.15800000 884726470 884726470 -1.00000000
8.01467419 1.85180676 2.20410299 47 15 7699 8.51600000 884726472 884726472 15.00000000
2.20654416 0.50739306 -0.60667187 4 0 7705 2.34400000 884726493 884726493 -15.00000000
7.94571972 1.82565176 0.14230692 28 1 7706 8.15400000 884726495 884726495 1.00000000
2.58498573 0.59346545 -0.61231679 6 2 7707 2.72200000 884726497 884726497 -13.00000000
7.97171545 1.82869542 0.42863148 100 3 7708 8.19000000 884726499 884726499 3.00000000
3.12674236 0.71726841 -0.62356383 4 4 7708 3.26800000 884726502 884726502 -11.00000000
7.96424961 1.82551968 0.71485138 83 5 7709 8.20200000 884726504 884726504 5.00000000
3.94539165 0.90361530 -0.64106846 9 6 7710 4.09800000 884726506 884726506 -9.00000000
7.96667624 1.82314909 1.00347221 95 7 7711 8.23400000 884726509 884726509 7.00000000
5.27133656 1.20536077 -0.66394418 6 8 7712 5.44800000 884726511 884726511 -7.00000000
6.49323082 1.48357069 -0.58272332 16 10 7713 6.68600000 884726516 884726516 -5.00000000
7.94668245 1.81273615 -0.42716607 17 12 7715 8.16200000 884726520 884726520 -3.00000000
7.95310974 1.81128180 -0.14237674 16 14 7717 8.15800000 884726525 884726525 -1.00000000
8.02233601 1.82704771 2.20462060 51 15 7717 8.51800000 884726527 884726527 15.00000000
2.21583891 0.50139314 -0.60874242 4 0 7725 2.35200000 884726548 884726548 -15.00000000
7.95399427 1.79834592 0.14234182 21 1 7726 8.15600000 884726550 884726550 1.00000000
2.59084320 0.58529735 -0.61321658 6 2 7727 2.72600000 884726552 884726552 -13.00000000
7.96051598 1.79689991 0.42768943 100 3 7728 8.17200000 884726555 884726555 3.00000000
3.13114214 0.70678192 -0.62394542 5 4 7728 3.27000000 884726557 884726557 -11.00000000
7.96862984 1.79726970 0.71467710 79 5 7729 8.20000000 884726559 884726559 5.00000000
3.94466758 0.88896924 -0.64044273 9 6 7730 4.09400000 884726562 884726562 -9.00000000
7.97299147 1.79532909 1.00347221 95 7 7731 8.23400000 884726564 884726564 7.00000000
5.28713179 1.18956745 -0.66540664 6 8 7732 5.46000000 884726566 884726566 -7.00000000
6.49642611 1.46045899 -0.58254898 20 10 7733 6.68400000 884726571 884726571 -5.00000000
7.95491028 1.78542340 -0.42727074 17 12 7735 8.16400000 884726575 884726575 -3.00000000
7.95352983 1.78219759 -0.14227201 16 14 7737 8.15200000 884726580 884726580 -1.00000000
8.02709293 1.79721010 2.20410299 47 15 7738 8.51600000 884726582 884726582 15.00000000
2.21003270 0.49197626 -0.60667187 4 0 7745 2.34400000 884726603 884726603 -15.00000000
7.95827150 1.77013612 0.14230692 18 1 7746 8.15400000 884726605 884726605 1.00000000
2.60047984 0.57794118 -0.61501616 6 2 7747 2.73400000 884726608 884726608 -13.00000000
7.97063971 1.76996744 0.42789876 100 3 7748 8.17600000 884726610 884726610 3.00000000
3.12400746 0.69371992 -0.62203735 5 4 7748 3.26000000 884726612 884726612 -11.00000000
7.97290945 1.76901150 0.71450275 83 5 7749 8.19800000 884726615 884726615 5.00000000
3.95931792 0.87775970 -0.64231992 9 6 7750 4.10600000 884726617 884726617 -9.00000000
7.98502398 1.76877511 1.00420344 99 7 7751 8.24000000 884726619 884726619 7.00000000
5.27962303 1.16853082 -0.66394418 9 8 7752 5.44800000 884726622 884726622 -7.00000000
6.51121140 1.43992436 -0.58342052 40 10 7753 6.69400000 884726626 884726626 -5.00000000
7.95719385 1.75678349 -0.42706141 17 12 7755 8.16000000 884726631 884726631 -3.00000000
7.94603252 1.75141072 -0.14202769 16 14 7757 8.13800000 884726635 884726635 -1.00000000
8.02923584 1.76974976 2.20306778 47 15 7757 8.51200000 884726638 884726638 15.00000000
2.20418787 0.48260605 -0.60460126 4 0 7765 2.33600000 884726658 884726658 -15.00000000
7.96244812 1.74191844 0.14227201 21 1 7766 8.15200000 884726661 884726661 1.00000000
2.60248137 0.56886029 -0.61501616 6 2 7767 2.73400000 884726663 884726663 -13.00000000
7.97481823 1.74170780 0.42779410 100 3 7768 8.17400000 884726665 884726665 3.00000000
3.12832785 0.68322980 -0.62241894 5 4 7768 3.26200000 884726668 884726668 -11.00000000
7.97124958 1.73947096 0.71380556 83 5 7769 8.19000000 884726670 884726670 5.00000000
3.96235776 0.86393374 -0.64231992 9 6 7770 4.10600000 884726672 884726672 -9.00000000
7.99114943 1.74089146 1.00420344 99 7 7771 8.24000000 884726675 884726675 7.00000000
5.29530764 1.15262771 -0.66540664 9 8 7772 5.46000000 884726677 884726677 -7.00000000
6.49478245 1.41252971 -0.58150309 28 10 7773 6.67200000 884726681 884726681 -5.00000000
7.96718121 1.72984457 -0.42727074 17 12 7775 8.16400000 884726686 884726686 -3.00000000
7.95991468 1.72535765 -0.14216730 16 14 7777 8.14600000 884726691 884726691 -1.00000000
8.02245140 1.73744690 2.19944429 47 15 7778 8.49800000 884726693 884726693 15.00000000
2.20774770 0.47531566 -0.60511893 4 0 7785 2.33800000 884726714 884726714 -15.00000000
7.95479536 1.71116996 0.14202769 28 1 7786 8.13800000 884726716 884726716 1.00000000
2.59492493 0.55772501 -0.61276668 6 2 7787 2.72400000 884726718 884726718 -13.00000000
7.99061298 1.71595657 0.42831746 100 3 7788 8.18400000 884726721 884726721 3.00000000
3.13261318 0.67271793 -0.62280059 5 4 7788 3.26400000 884726723 884726723 -11.00000000
7.96948099 1.70996356 0.71310830 83 5 7789 8.18200000 884726725 884726725 5.00000000
3.94989753 0.84678465 -0.63981694 9 6 7790 4.09000000 884726728 884726728 -9.00000000
7.98747253 1.71090758 1.00298464 92 7 7791 8.23000000 884726730 884726730 7.00000000
5.29541636 1.13330567 -0.66491914 6 8 7792 5.45600000 884726732 884726732 -7.00000000
6.50551844 1.39109993 -0.58202606 16 10 7793 6.67800000 884726737 884726737 -5.00000000
7.96926403 1.70118952 -0.42706141 17 12 7795 8.16000000 884726741 884726741 -3.00000000
7.97175646 1.69881225 -0.14227201 18 14 7797 8.15200000 884726746 884726746 -1.00000000
8.03005791 1.71123660 2.19996190 47 15 7797 8.50000000 884726748 884726748 15.00000000
2.22262335 0.47040632 -0.60874242 4 0 7805 2.35200000 884726769 884726769 -15.00000000
7.96267653 1.68380582 0.14206259 21 1 7806 8.14000000 884726771 884726771 1.00000000
2.59876275 0.54906648 -0.61321658 6 2 7807 2.72600000 884726774 884726774 -13.00000000
7.98678303 1.68599105 0.42779410 100 3 7808 8.17400000 884726776 884726776 3.00000000
