# .PCD v0.7 - Point Cloud Data file format
VERSION 0.7
FIELDS x y z intensity laser_id azimuth distance_m adjustedtime timestamp vertical_angle
SIZE 4 4 4 1 1 2 8 8 4 8
TYPE F F F U U U F U U F
COUNT 1 1 1 1 1 1 1 1 1 1
WIDTH 536
HEIGHT 1
VIEWPOINT 0 0 0 1 0 0 0
POINTS 536
DATA ascii
3.50397468 -4.71294832 0.93015933 26 9 14337 5.94600000 883644811 883644811 9.00000000
3.45369506 -4.64701462 -0.50654918 10 10 14338 5.81200000 883644813 883644813 -5.00000000
3.51244855 -4.72779179 1.14485395 43 11 14339 6.00000000 883644815 883644815 11.00000000
3.47599053 -4.68042517 -0.30553731 9 12 14340 5.83800000 883644818 883644818 -3.00000000
3.51736808 -4.73786736 1.36230361 37 13 14341 6.05600000 883644820 883644820 13.00000000
3.47621131 -4.68413734 -0.10181734 9 14 14342 5.83400000 883644822 883644822 -1.00000000
3.52636003 -4.75171232 1.58552551 36 15 14342 6.12600000 883644825 883644825 15.00000000
1.23759079 -1.67250800 -0.55749625 4 0 14350 2.15400000 883644845 883644845 -15.00000000
3.47122765 -4.69280767 0.10188715 8 1 14351 5.83800000 883644848 883644848 1.00000000
1.43435693 -1.93983781 -0.55697882 3 2 14352 2.47600000 883644850 883644850 -13.00000000
3.49029279 -4.72202873 0.30773541 7 3 14353 5.88000000 883644852 883644852 3.00000000
1.70026350 -2.30029225 -0.55601740 3 4 14353 2.91400000 883644854 883644854 -11.00000000
3.49635267 -4.73195457 0.51474184 9 5 14354 5.90600000 883644857 883644857 5.00000000
2.08081555 -2.81719923 -0.55471659 1 6 14355 3.54600000 883644859 883644859 -9.00000000
3.50666261 -4.74937582 0.72487885 7 7 14356 5.94800000 883644861 883644861 7.00000000
2.71837664 -3.68307734 -0.56206143 4 8 14357 4.61200000 883644864 883644864 -7.00000000
3.50426888 -4.74960279 0.93485236 23 9 14358 5.97600000 883644866 883644866 9.00000000
3.46465898 -4.69591665 -0.51055837 11 10 14358 5.85800000 883644868 883644868 -5.00000000
3.51340365 -4.76372385 1.15057826 18 11 14359 6.03000000 883644871 883644871 11.00000000
3.47740984 -4.71664381 -0.30710739 18 12 14360 5.86800000 883644873 883644873 -3.00000000
3.52971196 -4.78933477 1.37355113 10 13 14361 6.10600000 883644875 883644875 13.00000000
3.48237514 -4.72683239 -0.10248053 11 14 14362 5.87200000 883644878 883644878 -1.00000000
3.52954102 -4.79260492 1.59484291 40 15 14363 6.16200000 883644880 883644880 15.00000000
1.23432565 -1.67971623 -0.55853152 4 0 14369 2.15800000 883644901 883644901 -15.00000000
3.47695589 -4.73330164 0.10251544 11 1 14370 5.87400000 883644903 883644903 1.00000000
1.42330265 -1.93830073 -0.55517918 3 2 14371 2.46800000 883644905 883644905 -13.00000000
3.49588799 -4.76255798 0.30961952 7 3 14372 5.91600000 883644907 883644907 3.00000000
1.69727302 -2.31224847 -0.55754387 3 4 14372 2.92200000 883644910 883644910 -11.00000000
3.50303650 -4.77404356 0.51805371 9 5 14373 5.94400000 883644912 883644912 5.00000000
2.06795692 -2.81930542 -0.55377799 5 6 14374 3.54000000 883644914 883644914 -9.00000000
3.50967455 -4.78659248 0.72877866 7 7 14375 5.98000000 883644917 883644917 7.00000000
2.73313928 -3.72889638 -0.56766742 4 8 14376 4.65800000 883644919 883644919 -7.00000000
3.52086043 -4.80360556 0.94329983 22 9 14376 6.03000000 883644921 883644921 9.00000000
3.46202087 -4.72505856 -0.51247579 11 10 14377 5.88000000 883644924 883644924 -5.00000000
3.52542877 -4.81336117 1.15973711 21 11 14378 6.07800000 883644926 883644926 11.00000000
3.46174979 -4.72814941 -0.30710739 21 12 14379 5.86800000 883644928 883644928 -3.00000000
3.54258394 -4.84032726 1.38479865 41 13 14380 6.15600000 883644931 883644931 13.00000000
3.47022367 -4.74319601 -0.10258525 24 14 14381 5.87800000 883644933 883644933 -1.00000000
3.54298449 -4.84264755 1.60778391 40 15 14381 6.21200000 883644935 883644935 15.00000000
1.22959340 -1.68557537 -0.55904913 4 0 14389 2.16000000 883644956 883644956 -15.00000000
3.47926378 -4.77126169 0.10307391 8 1 14390 5.90600000 883644958 883644958 1.00000000
1.41652799 -1.94325709 -0.55517918 3 2 14391 2.46800000 883644960 883644960 -13.00000000
3.49806166 -4.80055904 0.31129426 7 3 14392 5.94800000 883644963 883644963 3.00000000
1.68456674 -2.31181216 -0.55601740 3 4 14392 2.91400000 883644965 883644965 -11.00000000
3.51450419 -4.82489300 0.52223718 9 5 14393 5.99200000 883644967 883644967 5.00000000
2.06856823 -2.84087896 -0.55659384 1 6 14394 3.55800000 883644970 883644970 -9.00000000
3.51630902 -4.83091307 0.73365343 7 7 14395 6.02000000 883644972 883644972 7.00000000
2.72127438 -3.74001908 -0.56791115 6 8 14396 4.66000000 883644974 883644974 -7.00000000
3.52995515 -4.85322046 0.95049584 12 9 14397 6.07600000 883644977 883644977 9.00000000
3.47597671 -4.77900743 -0.51700789 11 10 14397 5.93200000 883644979 883644979 -5.00000000
3.52938700 -4.85422039 1.16660619 31 11 14398 6.11400000 883644981 883644981 11.00000000
3.44757271 -4.74343586 -0.30731672 31 12 14399 5.87200000 883644983 883644983 -3.00000000
3.52910280 -4.85739326 1.38614845 10 13 14400 6.16200000 883644986 883644986 13.00000000
3.43836927 -4.73424673 -0.10213149 24 14 14401 5.85200000 883644988 883644988 -1.00000000
3.54904580 -4.88843012 1.61865425 42 15 14402 6.25400000 883644990 883644990 15.00000000
1.22030294 -1.68516314 -0.55749625 7 0 14409 2.15400000 883645011 883645011 -15.00000000
3.50480008 -4.84169149 0.10433049 8 1 14410 5.97800000 883645013 883645013 1.00000000
1.42116034 -1.96397758 -0.55967820 3 2 14411 2.48800000 883645016 883645016 -13.00000000
3.50001240 -4.83863258 0.31296903 7 3 14412 5.98000000 883645018 883645018 3.00000000
1.66958284 -2.30813408 -0.55372769 2 4 14412 2.90200000 883645020 883645020 -11.00000000
3.50931525 -4.85327673 0.52398032 9 5 14413 6.01200000 883645023 883645023 5.00000000
2.05632472 -2.84488034 -0.55596811 1 6 14414 3.55400000 883645025 883645025 -9.00000000
3.52616453 -4.88016558 0.73925942 7 7 14415 6.06600000 883645027 883645027 7.00000000
2.68379402 -3.71570158 -0.56279260 2 8 14416 4.61800000 883645030 883645030 -7.00000000
3.52193832 -4.87610912 0.95268589 25 9 14416 6.09000000 883645032 883645032 9.00000000
3.47560215 -4.81372643 -0.51944822 11 10 14417 5.96000000 883645034 883645034 -5.00000000
3.54459238 -4.91108418 1.17729151 43 11 14418 6.17000000 883645036 883645036 11.00000000
3.42047668 -4.74086380 -0.30637470 31 12 14419 5.85400000 883645039 883645039 -3.00000000
3.54290390 -4.91235733 1.39829576 16 13 14420 6.21600000 883645041 883645041 13.00000000
3.40778923 -4.72675467 -0.10171262 24 14 14421 5.82800000 883645043 883645043 -1.00000000
3.55654097 -4.93308020 1.62952471 40 15 14421 6.29600000 883645046 883645046 15.00000000
1.20877528 -1.68156934 -0.55490804 4 0 14429 2.14400000 883645066 883645066 -15.00000000
3.49487948 -4.86363935 0.10453992 8 1 14430 5.99000000 883645069 883645069 1.00000000
1.40974855 -1.96259534 -0.55787861 3 2 14431 2.48000000 883645071 883645071 -13.00000000
3.50872922 -4.88651180 0.31527179 7 3 14432 6.02400000 883645073 883645073 3.00000000
1.66380596 -2.31713748 -0.55449092 3 4 14432 2.90600000 883645076 883645076 -11.00000000
3.51675034 -4.89948750 0.52764088 9 5 14433 6.05400000 883645078 883645078 5.00000000
2.05559444 -2.86488080 -0.55847102 1 6 14434 3.57000000 883645080 883645080 -9.00000000
3.53456140 -4.92793179 0.74462169 15 7 14435 6.11000000 883645083 883645083 7.00000000
2.67312074 -3.72827363 -0.56328011 2 8 14436 4.62200000 883645085 883645085 -7.00000000
3.52475643 -4.91788530 0.95831752 27 9 14437 6.12600000 883645087 883645087 9.00000000
3.48547316 -4.86307573 -0.52345741 11 10 14437 6.00600000 883645089 883645089 -5.00000000
3.54000545 -4.94098234 1.18148935 46 11 14438 6.19200000 883645092 883645092 11.00000000
3.40507007 -4.75439835 -0.30647936 31 12 14439 5.85600000 883645094 883645094 -3.00000000
3.53934789 -4.94370890 1.40369463 37 13 14440 6.24000000 883645096 883645096 13.00000000
3.39126897 -4.73862123 -0.10171262 24 14 14441 5.82800000 883645099 883645099 -1.00000000
3.55304885 -4.96650791 1.63625395 36 15 14442 6.32200000 883645101 883645101 15.00000000
1.20626438 -1.69049621 -0.55646098 4 0 14449 2.15000000 883645122 883645122 -15.00000000
3.50342798 -4.91162491 0.10530782 8 1 14450 6.03400000 883645124 883645124 1.00000000
1.39610100 -1.95798421 -0.55517918 3 2 14451 2.46800000 883645126 883645126 -13.00000000
3.51367640 -4.92963171 0.31726056 7 3 14452 6.06200000 883645129 883645129 3.00000000
1.65342844 -2.31973362 -0.55372769 3 4 14452 2.90200000 883645131 883645131 -11.00000000
3.52274942 -4.94418621 0.53112710 9 5 14453 6.09400000 883645133 883645133 5.00000000
3.39784288 -4.77064133 -0.92765635 2 6 14454 5.93000000 883645136 883645136 -9.00000000
3.53691101 -4.96773052 0.74876523 31 7 14455 6.14400000 883645138 883645138 7.00000000
2.66469455 -3.74405122 -0.56425506 2 8 14456 4.63000000 883645140 883645140 -7.00000000
3.53935504 -4.97300005 0.96676499 37 9 14456 6.18000000 883645142 883645142 9.00000000
3.49042177 -4.90605831 -0.52676928 11 10 14457 6.04400000 883645145 883645145 -5.00000000
3.54321766 -4.98210764 1.18835843 46 11 14458 6.22800000 883645147 883645147 11.00000000
3.37688088 -4.74997711 -0.30543265 31 12 14459 5.83600000 883645149 883645149 -3.00000000
3.55706453 -5.00527620 1.41764152 41 13 14460 6.30200000 883645152 883645152 13.00000000
3.37007499 -4.74390936 -0.10157301 24 14 14461 5.82000000 883645154 883645154 -1.00000000
3.55893588 -5.00976086 1.64660680 40 15 14461 6.36200000 883645156 883645156 15.00000000
1.19812298 -1.69154358 -0.55542564 4 0 14469 2.14600000 883645177 883645177 -15.00000000
3.50475049 -4.94993639 0.10586630 8 1 14470 6.06600000 883645179 883645179 1.00000000
1.38700628 -1.95966423 -0.55427939 3 2 14471 2.46400000 883645182 883645182 -13.00000000
3.52759361 -4.98588848 0.32008672 7 3 14472 6.11600000 883645184 883645184 3.00000000
1.65439236 -2.33831239 -0.55678064 2 4 14472 2.91800000 883645186 883645186 -11.00000000
3.53538156 -4.99874592 0.53565919 9 5 14473 6.14600000 883645189 883645189 5.00000000
3.36634469 -4.76150417 -0.92358911 2 6 14474 5.90400000 883645191 883645191 -9.00000000
3.53444266 -5.00112104 0.75193387 39 7 14475 6.17000000 883645193 883645193 7.00000000
2.64702749 -3.74684453 -0.56328011 2 8 14476 4.62200000 883645195 883645195 -7.00000000
3.54275513 -5.01659727 0.97270948 40 9 14477 6.21800000 883645198 883645198 9.00000000
3.49051499 -4.94262409 -0.52938396 11 10 14477 6.07400000 883645200 883645200 -5.00000000
3.55524349 -5.03614616 1.19828045 43 11 14478 6.28000000 883645202 883645202 11.00000000
3.35106730 -4.74868107 -0.30459526 31 12 14479 5.82000000 883645205 883645205 -3.00000000
3.55529761 -5.03995562 1.42394018 44 13 14480 6.33000000 883645207 883645207 13.00000000
3.34658074 -4.74583912 -0.10136358 24 14 14481 5.80800000 883645209 883645209 -1.00000000
3.56169796 -5.05277252 1.65644193 38 15 14482 6.40000000 883645212 883645212 15.00000000
1.19998872 -1.70677793 -0.55904913 4 0 14489 2.16000000 883645232 883645232 -15.00000000
3.50584793 -4.98831701 0.10642477 8 1 14490 6.09800000 883645235 883645235 1.00000000
1.38239777 -1.96768296 -0.55517918 3 2 14491 2.46800000 883645237 883645237 -13.00000000
3.52738595 -5.02268839 0.32165679 7 3 14492 6.14600000 883645239 883645239 3.00000000
1.63945019 -2.33443332 -0.55449092 3 4 14492 2.90600000 883645242 883645242 -11.00000000
3.54424095 -5.04856205 0.53966838 9 5 14493 6.19200000 883645244 883645244 5.00000000
3.34062576 -4.76029015 -0.92108613 2 6 14494 5.88800000 883645246 883645246 -9.00000000
3.54660463 -5.05568027 0.75827104 39 7 14495 6.22200000 883645248 883645248 7.00000000
2.63621187 -3.75931215 -0.56376761 4 8 14496 4.62600000 883645251 883645251 -7.00000000
3.54424667 -5.05419493 0.97771543 40 9 14496 6.25000000 883645253 883645253 9.00000000
3.11184978 -4.43923330 -0.47430155 10 10 14497 5.44200000 883645255 883645255 -5.00000000
3.55792189 -5.07746601 1.20514965 40 11 14498 6.31600000 883645258 883645258 11.00000000
3.31384516 -4.73090410 -0.30271116 30 12 14499 5.78400000 883645260 883645260 -3.00000000
3.54997849 -5.06989479 1.42888916 33 13 14500 6.35200000 883645262 883645262 13.00000000
3.33228755 -4.76076841 -0.10143339 24 14 14501 5.81200000 883645265 883645265 -1.00000000
3.56707859 -5.09620905 1.66679466 15 15 14501 6.44000000 883645267 883645267 15.00000000
1.18960130 -1.70461941 -0.55697858 4 0 14509 2.15200000 883645288 883645288 -15.00000000
3.52845836 -5.05792618 0.10764644 8 1 14510 6.16800000 883645290 883645290 1.00000000
1.38443840 -1.98528409 -0.55877841 3 2 14511 2.48400000 883645292 883645292 -13.00000000
3.53039074 -5.06446314 0.32354090 5 3 14512 6.18200000 883645295 883645295 3.00000000
1.62230980 -2.32725739 -0.55143797 3 4 14512 2.89000000 883645297 883645297 -11.00000000
3.52317953 -5.05599880 0.53914541 3 5 14513 6.18600000 883645299 883645299 5.00000000
2.00749063 -2.88195586 -0.55628097 1 6 14514 3.55600000 883645301 883645301 -9.00000000
3.54935360 -5.09735298 0.76265836 36 7 14515 6.25800000 883645304 883645304 7.00000000
2.62760973 -3.77500844 -0.56474257 4 8 14516 4.63400000 883645306 883645306 -7.00000000
3.54576707 -5.09409809 0.98303419 22 9 14516 6.28400000 883645308 883645308 9.00000000
3.49916601 -5.02901936 -0.53600782 11 10 14517 6.15000000 883645311 883645311 -5.00000000
6.53553820 -9.39640713 2.22483277 34 11 14518 11.66000000 883645313 883645313 11.00000000
3.44325018 -4.95234299 -0.31610918 29 12 14519 6.04000000 883645315 883645315 -3.00000000
5.82222271 -8.37708092 2.35523748 45 13 14520 10.47000000 883645318 883645318 13.00000000
3.48679423 -5.01870823 -0.10666911 24 14 14521 6.11200000 883645320 883645320 -1.00000000
4.54681015 -6.54443979 2.13525701 20 15 14521 8.25000000 883645322 883645322 15.00000000
1.17704368 -1.69923317 -0.55387276 4 0 14529 2.14000000 883645343 883645343 -15.00000000
3.51988840 -5.08336449 0.10792568 2 1 14530 6.18400000 883645345 883645345 1.00000000
1.37306356 -1.98369527 -0.55697882 3 2 14531 2.47600000 883645348 883645348 -13.00000000
3.52291894 -5.09153748 0.32448292 10 3 14532 6.20000000 883645350 883645350 3.00000000
1.61641049 -2.33613515 -0.55220121 3 4 14532 2.89400000 883645352 883645352 -11.00000000
3.52250981 -5.09284544 0.54176009 13 5 14533 6.21600000 883645354 883645354 5.00000000
1.99180138 -2.88082147 -0.55471659 1 6 14534 3.54600000 883645357 883645357 -9.00000000
2.61103129 -3.77925801 -0.56401134 4 8 14536 4.62800000 883645361 883645361 -7.00000000
3.50197005 -5.07071257 -0.53914541 11 10 14537 6.18600000 883645366 883645366 -5.00000000
6.51496792 -9.43693447 2.22903061 34 11 14538 11.68200000 883645368 883645368 11.00000000
3.47585678 -5.03666019 -0.32071474 32 12 14539 6.12800000 883645371 883645371 -3.00000000
5.80622482 -8.41660213 2.36063647 48 13 14540 10.49400000 883645373 883645373 13.00000000
3.46925449 -5.03084898 -0.10666911 27 14 14541 6.11200000 883645375 883645375 -1.00000000
4.50639105 -6.53482533 2.12697482 20 15 14541 8.21800000 883645377 883645377 15.00000000
1.17329407 -1.70651519 -0.55490804 4 0 14549 2.14400000 883645398 883645398 -15.00000000
3.50778580 -5.10386038 0.10810021 11 1 14550 6.19400000 883645401 883645401 1.00000000
1.36171687 -1.98205125 -0.55517918 3 2 14551 2.46800000 883645403 883645403 -13.00000000
1.60824597 -2.34176326 -0.55220121 3 4 14552 2.89400000 883645407 883645407 -11.00000000
1.97390914 -2.87635541 -0.55252653 1 6 14554 3.53200000 883645412 883645412 -9.00000000
2.60006857 -3.79162335 -0.56449878 4 8 14556 4.63200000 883645417 883645417 -7.00000000
3.28485918 -4.79203129 -0.50829232 10 10 14557 5.83200000 883645421 883645421 -5.00000000
6.48420668 -9.46285820 2.22979403 34 11 14558 11.68600000 883645424 883645424 11.00000000
3.45148230 -5.03887606 -0.32008672 32 12 14559 6.11600000 883645426 883645426 -3.00000000
5.79222345 -8.45932865 2.36693501 50 13 14560 10.52200000 883645428 883645428 13.00000000
3.44489551 -5.03302717 -0.10645968 24 14 14561 6.10000000 883645430 883645430 -1.00000000
4.47913647 -6.54651499 2.12542200 20 15 14562 8.21200000 883645433 883645433 15.00000000
1.16950786 -1.71379185 -0.55594331 4 0 14569 2.14800000 883645454 883645454 -15.00000000
1.35259414 -1.98357236 -0.55427939 3 2 14571 2.46400000 883645458 883645458 -13.00000000
1.60669661 -2.35709620 -0.55449092 3 4 14572 2.90600000 883645463 883645463 -11.00000000
1.96941698 -2.89139128 -0.55409086 1 6 14574 3.54200000 883645467 883645467 -9.00000000
2.57788205 -3.78754783 -0.56254888 4 8 14576 4.61600000 883645472 883645472 -7.00000000
3.57631850 -5.25647020 -0.55622792 11 10 14577 6.38200000 883645477 883645477 -5.00000000
6.46880102 -9.51140881 2.23589993 37 11 14578 11.71800000 883645479 883645479 11.00000000
3.42488909 -5.03767967 -0.31924933 32 12 14579 6.10000000 883645481 883645481 -3.00000000
5.76923180 -8.48916721 2.36963439 48 13 14580 10.53400000 883645483 883645483 13.00000000
3.42505860 -5.04171324 -0.10638987 27 14 14581 6.09600000 883645486 883645486 -1.00000000
4.45088959 -6.55174446 2.12231612 20 15 14581 8.20000000 883645488 883645488 15.00000000
1.16568518 -1.72106278 -0.55697858 4 0 14589 2.15200000 883645509 883645509 -15.00000000
1.34566188 -1.98828173 -0.55427939 3 2 14591 2.46400000 883645513 883645513 -13.00000000
3.41966891 -5.05843353 -0.96707785 4 6 14594 6.18200000 883645523 883645523 -9.00000000
2.56353426 -3.79487824 -0.56230515 4 8 14596 4.61400000 883645527 883645527 -7.00000000
3.59808803 -5.32836437 -0.56250316 11 10 14597 6.45400000 883645532 883645532 -5.00000000
5.78091049 -8.56410217 2.00845551 9 11 14598 10.52600000 883645534 883645534 11.00000000
3.40281487 -5.04298162 -0.31883064 32 12 14599 6.09200000 883645536 883645536 -3.00000000
5.74610233 -8.51894665 2.37233377 50 13 14600 10.54600000 883645539 883645539 13.00000000
3.38955188 -5.02710962 -0.10583139 24 14 14601 6.06400000 883645541 883645541 -1.00000000
4.42259264 -6.55923223 2.11972809 18 15 14601 8.19000000 883645543 883645543 15.00000000
1.15781546 -1.72171259 -0.55594331 4 0 14608 2.14800000 883645564 883645564 -15.00000000
1.34340870 -1.99920309 -0.55607903 3 2 14610 2.47200000 883645569 883645569 -13.00000000
1.57966816 -2.35168076 -0.55067474 3 4 14611 2.88600000 883645573 883645573 -11.00000000
3.40287590 -5.06974554 -0.96707785 2 6 14613 6.18200000 883645578 883645578 -9.00000000
2.53656125 -3.78192639 -0.55913657 4 8 14615 4.58800000 883645582 883645582 -7.00000000
3.57707024 -5.33530235 -0.56198025 11 10 14616 6.44800000 883645587 883645587 -5.00000000
5.76340914 -8.59953403 2.01227164 3 11 14617 10.54600000 883645589 883645589 11.00000000
3.36384010 -5.02105188 -0.31673720 48 12 14618 6.05200000 883645592 883645592 -3.00000000
5.73842382 -8.56871891 2.38088202 53 13 14619 10.58400000 883645594 883645594 13.00000000
3.34616470 -4.99844122 -0.10499368 38 14 14620 6.01600000 883645596 883645596 -1.00000000
4.39221954 -6.56101942 2.11558676 11 15 14620 8.17400000 883645599 883645599 15.00000000
1.14965367 -1.72253001 -0.55490804 4 0 14628 2.14400000 883645619 883645619 -15.00000000
1.34290957 -2.01360798 -0.55877841 3 2 14630 2.48400000 883645624 883645624 -13.00000000
1.57144964 -2.35718036 -0.55067474 3 4 14631 2.88600000 883645629 883645629 -11.00000000
3.36215997 -5.04706907 -0.96050763 4 6 14633 6.14000000 883645633 883645633 -9.00000000
2.53544426 -3.80893469 -0.56181765 4 8 14635 4.61000000 883645638 883645638 -7.00000000
3.54407620 -5.32619286 -0.55971420 15 10 14636 6.42200000 883645642 883645642 -5.00000000
6.41292143 -9.64126682 2.25078297 25 11 14637 11.79600000 883645645 883645645 11.00000000
3.35403371 -5.04440546 -0.31746992 35 12 14638 6.06600000 883645647 883645647 -3.00000000
5.72897339 -8.61953449 2.38943005 53 13 14639 10.62200000 883645649 883645649 13.00000000
3.34197593 -5.03007793 -0.10541254 29 14 14640 6.04000000 883645652 883645652 -1.00000000
4.36173010 -6.56741810 2.11248112 18 15 14641 8.16200000 883645654 883645654 15.00000000
1.14363384 -1.72653258 -0.55490804 4 0 14648 2.14400000 883645675 883645675 -15.00000000
1.32726789 -2.00528312 -0.55517918 3 2 14650 2.46800000 883645679 883645679 -13.00000000
1.56321192 -2.36265135 -0.55067474 3 4 14651 2.88600000 883645684 883645684 -11.00000000
3.34234309 -5.05547857 -0.95988190 4 6 14653 6.13600000 883645688 883645688 -9.00000000
2.52322721 -3.81941819 -0.56206143 4 8 14655 4.61200000 883645693 883645693 -7.00000000
3.54412746 -5.36679506 -0.56267750 15 10 14656 6.45600000 883645698 883645698 -5.00000000
6.39220715 -9.68325520 2.25536227 34 11 14657 11.82000000 883645700 883645700 11.00000000
3.32760477 -5.04274654 -0.31663254 35 12 14658 6.05000000 883645702 883645702 -3.00000000
5.71280003 -8.66062641 2.39527893 55 13 14659 10.64800000 883645705 883645705 13.00000000
3.32549810 -5.04338264 -0.10544744 31 14 14660 6.04200000 883645707 883645707 -1.00000000
4.33248377 -6.57055616 2.10885763 15 15 14660 8.14800000 883645709 883645709 15.00000000
1.13547778 -1.72728550 -0.55387276 4 0 14668 2.14000000 883645730 883645730 -15.00000000
1.32026005 -2.00990391 -0.55517918 3 2 14670 2.46800000 883645734 883645734 -13.00000000
1.55495524 -2.36809373 -0.55067474 3 4 14671 2.88600000 883645739 883645739 -11.00000000
3.32250834 -5.06381178 -0.95925611 4 6 14673 6.13200000 883645744 883645744 -9.00000000
2.50226068 -3.81658196 -0.56035525 2 8 14675 4.59800000 883645748 883645748 -7.00000000
3.53629351 -5.39579773 -0.56442058 15 10 14676 6.47600000 883645753 883645753 -5.00000000
6.38311243 -9.74328041 2.26413965 34 11 14677 11.86600000 883645755 883645755 11.00000000
3.30341673 -5.04430580 -0.31600451 35 12 14678 6.03800000 883645758 883645758 -3.00000000
5.69640970 -8.70171165 2.40112758 51 13 14679 10.67400000 883645760 883645760 13.00000000
3.31006312 -5.05830669 -0.10551725 29 14 14680 6.04600000 883645762 883645762 -1.00000000
4.31057930 -6.58725595 2.10937524 13 15 14680 8.15000000 883645764 883645764 15.00000000
1.13652623 -1.74276280 -0.55749625 4 0 14689 2.15400000 883645785 883645785 -15.00000000
1.30862880 -2.00819850 -0.55337960 3 2 14691 2.46000000 883645790 883645790 -13.00000000
1.54626524 -2.37377691 -0.55067474 3 4 14692 2.88600000 883645794 883645794 -11.00000000
3.29099512 -5.05608845 -0.95550174 4 6 14694 6.10800000 883645799 883645799 -9.00000000
2.47634983 -3.80742264 -0.55767411 2 8 14696 4.57600000 883645804 883645804 -7.00000000
3.53495550 -5.43711948 -0.56738389 24 10 14697 6.51000000 883645808 883645808 -5.00000000
6.36447620 -9.79294777 2.27024531 34 11 14698 11.89800000 883645811 883645811 11.00000000
3.28164196 -5.05135536 -0.31569049 35 12 14699 6.03200000 883645813 883645813 -3.00000000
5.66447783 -8.72253132 2.40112758 45 13 14700 10.67400000 883645815 883645815 13.00000000
3.28279066 -5.05698633 -0.10523801 33 14 14701 6.03000000 883645817 883645817 -1.00000000
4.28525448 -6.60375881 2.10937524 9 15 14702 8.15000000 883645820 883645820 15.00000000
1.11889017 -1.72887909 -0.55180222 4 0 14709 2.13200000 883645840 883645840 -15.00000000
1.30584383 -2.01929998 -0.55517918 3 2 14711 2.46800000 883645845 883645845 -13.00000000
1.53796983 -2.37915993 -0.55067474 3 4 14712 2.88600000 883645850 883645850 -11.00000000
3.27332592 -5.06754541 -0.95550174 4 6 14714 6.10800000 883645854 883645854 -9.00000000
2.46089149 -3.81270766 -0.55718666 2 8 14716 4.57200000 883645859 883645859 -7.00000000
3.53431773 -5.47788620 -0.57034719 24 10 14717 6.54400000 883645864 883645864 -5.00000000
6.35366344 -9.85140228 2.27864099 40 11 14718 11.94200000 883645866 883645866 11.00000000
3.26723623 -5.06781530 -0.31600451 39 12 14719 6.03800000 883645868 883645868 -3.00000000
5.64666414 -8.76190758 2.40652633 47 13 14720 10.69800000 883645870 883645870 13.00000000
3.26078653 -5.06169033 -0.10509839 33 14 14721 6.02200000 883645873 883645873 -1.00000000
4.25171757 -6.60243464 2.10419893 9 15 14722 8.13000000 883645875 883645875 15.00000000
1.11628354 -1.73745596 -0.55335510 4 0 14728 2.13800000 883645896 883645896 -15.00000000
1.30124593 -2.02689886 -0.55607903 3 2 14730 2.47200000 883645900 883645900 -13.00000000
1.53007174 -2.38424706 -0.55067474 3 4 14731 2.88600000 883645905 883645905 -11.00000000
3.25223827 -5.07172108 -0.95425022 4 6 14733 6.10000000 883645910 883645910 -9.00000000
2.46001506 -3.83923292 -0.55986774 2 8 14735 4.59400000 883645914 883645914 -7.00000000
3.53117752 -5.51306486 -0.57278752 28 10 14736 6.57200000 883645919 883645919 -5.00000000
6.33154631 -9.88895130 2.28245711 37 11 14737 11.96200000 883645921 883645921 11.00000000
3.25687265 -5.08871555 -0.31663254 35 12 14738 6.05000000 883645923 883645923 -3.00000000
5.62807941 -8.79699993 2.41102529 48 13 14739 10.71800000 883645926 883645926 13.00000000
3.24721575 -5.07752943 -0.10520311 36 14 14740 6.02800000 883645928 883645928 -1.00000000
4.22667837 -6.61161470 2.10264587 6 15 14741 8.12400000 883645930 883645930 15.00000000
1.11644316 -1.75111556 -0.55646098 4 0 14748 2.15000000 883645951 883645951 -15.00000000
1.28997457 -2.02485442 -0.55427939 3 2 14750 2.46400000 883645956 883645956 -13.00000000
1.52595818 -2.39619732 -0.55220121 3 4 14751 2.89400000 883645960 883645960 -11.00000000
3.24299884 -5.09637499 -0.95675319 4 6 14753 6.11600000 883645965 883645965 -9.00000000
2.44553351 -3.84612155 -0.55962402 2 8 14755 4.59200000 883645970 883645970 -7.00000000
3.52580547 -5.54721689 -0.57505357 16 10 14756 6.59800000 883645974 883645974 -5.00000000
6.30856991 -9.92922020 2.28665495 40 11 14757 11.98400000 883645976 883645976 11.00000000
3.22731137 -5.08150721 -0.31548116 35 12 14758 6.02800000 883645979 883645979 -3.00000000
5.60987186 -8.83633423 2.41642427 48 13 14759 10.74200000 883645981 883645981 13.00000000
3.22518611 -5.08207989 -0.10506348 36 14 14760 6.02000000 883645983 883645983 -1.00000000
4.19736433 -6.61654043 2.09954000 6 15 14761 8.11200000 883645986 883645986 15.00000000
1.10929096 -1.75336945 -0.55594331 4 0 14768 2.14800000 883646006 883646006 -15.00000000
1.28081608 -2.02605057 -0.55337960 3 2 14770 2.46000000 883646011 883646011 -13.00000000
1.51758456 -2.40150928 -0.55220121 3 4 14771 2.89400000 883646016 883646016 -11.00000000
3.21042395 -5.08428049 -0.95237303 4 6 14773 6.08800000 883646020 883646020 -9.00000000
2.42255974 -3.83952498 -0.55743039 2 8 14775 4.57400000 883646025 883646025 -7.00000000
3.51704931 -5.57634211 -0.57679671 16 10 14776 6.61800000 883646029 883646029 -5.00000000
3.20422959 -5.08429337 -0.31495780 39 12 14778 6.01800000 883646034 883646034 -3.00000000
5.58626413 -8.86740398 2.41957355 51 13 14779 10.75600000 883646036 883646036 13.00000000
3.21168900 -5.10007572 -0.10520311 36 14 14780 6.02800000 883646039 883646039 -1.00000000
4.17848873 -6.63532734 2.10109305 4 15 14780 8.11800000 883646041 883646041 15.00000000
1.10932672 -1.76704788 -0.55904913 4 0 14788 2.16000000 883646062 883646062 -15.00000000
1.27373600 -2.03050923 -0.55337960 3 2 14790 2.46000000 883646066 883646066 -13.00000000
1.50293458 -2.39681220 -0.54991150 3 4 14791 2.88200000 883646071 883646071 -11.00000000
3.19685221 -5.10215187 -0.95362449 6 6 14793 6.09600000 883646075 883646075 -9.00000000
2.41651654 -3.85973549 -0.55913657 2 8 14795 4.58800000 883646080 883646080 -7.00000000
3.50813270 -5.60547400 -0.57853985 16 10 14796 6.63800000 883646085 883646085 -5.00000000
3.19705224 -5.11238146 -0.31600451 35 12 14798 6.03800000 883646089 883646089 -3.00000000
5.56560659 -8.90337372 2.42407250 53 13 14799 10.77600000 883646092 883646092 13.00000000
3.18962812 -5.10447216 -0.10506348 38 14 14800 6.02000000 883646094 883646094 -1.00000000
4.45605516 -7.13394976 2.25379634 11 15 14801 8.70800000 883646096 883646096 15.00000000
1.09263122 -1.75470281 -0.55387276 4 0 14809 2.14000000 883646117 883646117 -15.00000000
1.27040327 -2.04178238 -0.55517918 3 2 14811 2.46800000 883646122 883646122 -13.00000000
1.49413979 -2.40230465 -0.54991150 3 4 14812 2.88200000 883646126 883646126 -11.00000000
3.18438649 -5.12390089 -0.95550174 4 6 14814 6.10800000 883646131 883646131 -9.00000000
2.39607024 -3.85844827 -0.55767411 2 8 14816 4.57600000 883646135 883646135 -7.00000000
3.47180223 -5.59290314 -0.57592517 12 10 14817 6.60800000 883646140 883646140 -5.00000000
3.17197633 -5.11388111 -0.31537646 35 12 14819 6.02600000 883646145 883646145 -3.00000000
5.52882910 -8.91708851 2.42227292 49 13 14820 10.76800000 883646147 883646147 13.00000000
3.16668415 -5.10932922 -0.10492387 36 14 14821 6.01200000 883646149 883646149 -1.00000000
4.45351601 -7.18558550 2.26518416 27 15 14821 8.75200000 883646152 883646152 15.00000000
1.08243787 -1.75193226 -0.55180222 4 0 14829 2.13200000 883646172 883646172 -15.00000000
1.26326835 -2.04620457 -0.55517918 3 2 14831 2.46800000 883646177 883646177 -13.00000000
3.14989209 -5.10808325 -0.95049584 4 6 14834 6.07600000 883646186 883646186 -9.00000000
2.40341377 -3.90058923 -0.56254888 2 8 14836 4.61600000 883646191 883646191 -7.00000000
3.43240571 -5.57275581 -0.57261324 12 10 14837 6.57000000 883646195 883646195 -5.00000000
3.15410638 -5.12492228 -0.31537646 39 12 14839 6.02600000 883646200 883646200 -3.00000000
5.52932358 -8.98778725 2.43621993 50 13 14840 10.83000000 883646202 883646202 13.00000000
3.14673471 -5.11694527 -0.10485405 33 14 14841 6.00800000 883646205 883646205 -1.00000000
4.42512608 -7.19856882 2.26414895 31 15 14842 8.74800000 883646207 883646207 15.00000000
1.07631588 -1.75569999 -0.55180222 4 0 14849 2.13200000 883646228 883646228 -15.00000000
1.25204635 -2.04395461 -0.55337960 3 2 14851 2.46000000 883646232 883646232 -13.00000000
1.48143303 -2.41937423 -0.55143797 3 4 14852 2.89000000 883646237 883646237 -11.00000000
3.13410425 -5.12241697 -0.95112157 4 6 14854 6.08000000 883646241 883646241 -9.00000000
2.38357115 -3.89879298 -0.56108648 2 8 14856 4.60400000 883646246 883646246 -7.00000000
3.40462065 -5.57110262 -0.57121873 8 10 14857 6.55400000 883646251 883646251 -5.00000000
3.13307500 -5.13078690 -0.31506246 22 12 14859 6.02000000 883646255 883646255 -3.00000000
5.51619196 -9.03697300 2.44431806 47 13 14860 10.86600000 883646258 883646258 13.00000000
4.40324306 -7.21650171 2.26518416 33 15 14861 8.75200000 883646262 883646262 15.00000000
1.08021998 -1.77595150 -0.55697858 4 0 14869 2.15200000 883646283 883646283 -15.00000000
1.24287987 -2.04498219 -0.55247980 3 2 14871 2.45600000 883646287 883646287 -13.00000000
1.80719376 -2.97699142 -0.55158794 1 6 14874 3.52600000 883646297 883646297 -9.00000000
2.35759306 -3.88672233 -0.55816162 2 8 14876 4.58000000 883646301 883646301 -7.00000000
3.38515306 -5.58295298 -0.57121873 8 10 14877 6.55400000 883646306 883646306 -5.00000000
5.48663282 -9.05950737 2.44521785 38 13 14880 10.87000000 883646313 883646313 13.00000000
4.37876368 -7.23589754 2.26621962 33 15 14882 8.75600000 883646317 883646317 15.00000000
1.07332635 -1.77787006 -0.55646098 4 0 14888 2.15000000 883646338 883646338 -15.00000000
1.23810470 -2.05242968 -0.55337960 3 2 14890 2.46000000 883646343 883646343 -13.00000000
1.78609765 -2.96435595 -0.54814637 1 6 14893 3.50400000 883646352 883646352 -9.00000000
2.34469128 -3.89451909 -0.55816162 2 8 14895 4.58000000 883646357 883646357 -7.00000000
3.36456609 -5.59073353 -0.57087010 8 10 14896 6.55000000 883646361 883646361 -5.00000000
5.44273758 -9.05107784 -0.55350506 8 12 14898 10.57600000 883646366 883646366 -3.00000000
5.46860743 -9.09769440 2.45061684 48 13 14899 10.89400000 883646368 883646368 13.00000000
4.36297464 -7.26120949 2.26984310 36 15 14900 8.77000000 883646373 883646373 15.00000000
1.06413591 -1.77663386 -0.55490804 4 0 14908 2.14400000 883646393 883646393 -15.00000000
1.23693740 -2.06677175 -0.55607903 3 2 14910 2.47200000 883646398 883646398 -13.00000000
1.79499662 -3.00278783 -0.55409086 1 6 14913 3.54200000 883646407 883646407 -9.00000000
2.33108258 -3.90267992 -0.55816162 2 8 14915 4.58000000 883646412 883646412 -7.00000000
3.32868814 -5.57507324 -0.56808114 8 10 14916 6.51800000 883646416 883646416 -5.00000000
5.40497065 -9.05973053 -0.55287707 8 12 14918 10.56400000 883646421 883646421 -3.00000000
5.45079136 -9.14015961 2.45691538 48 13 14919 10.92200000 883646423 883646423 13.00000000
4.33633184 -7.27715158 2.26984310 36 15 14921 8.77000000 883646428 883646428 15.00000000
1.05200660 -1.77037299 -0.55180222 4 0 14928 2.13200000 883646449 883646449 -15.00000000
1.22971547 -2.07107687 -0.55607903 3 2 14930 2.47200000 883646453 883646453 -13.00000000
2.31542134 -3.90737748 -0.55767411 2 8 14935 4.57600000 883646467 883646467 -7.00000000
3.30717635 -5.58323002 -0.56773251 12 10 14936 6.51400000 883646472 883646472 -5.00000000
5.35398483 -9.04588604 -0.55088830 8 12 14938 10.52600000 883646476 883646476 -3.00000000
5.43373728 -9.18428898 2.46366405 53 13 14939 10.95200000 883646479 883646479 13.00000000
4.30529213 -7.27985191 2.26621962 33 15 14940 8.75600000 883646483 883646483 15.00000000
1.04974473 -1.78069115 -0.55387276 4 0 14948 2.14000000 883646504 883646504 -15.00000000
1.21258807 -2.05856586 -0.55158001 3 2 14950 2.45200000 883646509 883646509 -13.00000000
1.75295424 -2.97949195 -0.54752064 1 6 14953 3.50000000 883646518 883646518 -9.00000000
2.30981612 -3.92912650 -0.55962402 2 8 14955 4.59200000 883646522 883646522 -7.00000000
3.28564835 -5.59130478 -0.56738389 12 10 14956 6.51000000 883646527 883646527 -5.00000000
5.30821800 -9.04040718 -0.54942286 8 12 14958 10.49800000 883646532 883646532 -3.00000000
5.41841412 -9.23177147 2.47131228 51 13 14959 10.98600000 883646534 883646534 13.00000000
4.28639984 -7.30891418 2.27036071 33 15 14961 8.77200000 883646539 883646539 15.00000000
1.04449773 -1.78601217 -0.55439037 4 0 14968 2.14200000 883646559 883646559 -15.00000000
1.20539486 -2.06278610 -0.55158001 3 2 14970 2.45200000 883646564 883646564 -13.00000000
2.28208637 -3.91315818 -0.55621171 2 8 14975 4.56400000 883646578 883646578 -7.00000000
3.26410413 -5.59929752 -0.56703526 12 10 14976 6.50600000 883646582 883646582 -5.00000000
5.25652361 -9.02436447 -0.54732943 4 12 14978 10.45800000 883646587 883646587 -3.00000000
5.39694214 -9.26915359 2.47626114 51 13 14979 11.00800000 883646589 883646589 13.00000000
4.26894140 -7.33477545 2.27398419 36 15 14980 8.78600000 883646594 883646594 15.00000000
1.03922653 -1.79131830 -0.55490804 4 0 14988 2.14400000 883646615 883646615 -15.00000000
1.20209634 -2.07372499 -0.55337960 3 2 14990 2.46000000 883646619 883646619 -13.00000000
2.26841307 -3.92110014 -0.55621171 2 8 14995 4.56400000 883646633 883646633 -7.00000000
3.24852872 -5.61755610 -0.56773251 12 10 14996 6.51400000 883646638 883646638 -5.00000000
5.22399139 -9.04092884 -0.54722476 4 12 14998 10.45600000 883646642 883646642 -3.00000000
5.37527514 -9.30649853 2.48121023 50 13 14999 11.03000000 883646645 883646645 13.00000000
4.24427795 -7.35130548 2.27450180 33 15 15000 8.78800000 883646649 883646649 15.00000000
1.02880085 -1.78841710 -0.55283749 4 0 15009 2.13600000 883646670 883646670 -15.00000000
1.19642997 -2.08149600 -0.55427939 3 2 15011 2.46400000 883646675 883646675 -13.00000000
1.73588681 -3.02368259 -0.55221367 1 6 15014 3.53000000 883646684 883646684 -9.00000000
2.24612427 -3.91561270 -0.55426174 2 8 15016 4.54800000 883646688 883646688 -7.00000000
3.22692657 -5.62769651 -0.56755817 12 10 15017 6.51200000 883646693 883646693 -5.00000000
5.20273447 -9.08081055 -0.54848081 4 12 15019 10.48000000 883646698 883646698 -3.00000000
5.35468769 -9.34981155 2.48750877 48 13 15020 11.05800000 883646700 883646700 13.00000000
4.21826553 -7.36848831 2.27501941 36 15 15021 8.79000000 883646704 883646704 15.00000000
1.02063692 -1.78864157 -0.55180222 4 0 15029 2.13200000 883646725 883646725 -15.00000000
1.19108737 -2.08904552 -0.55517918 3 2 15031 2.46800000 883646730 883646730 -13.00000000
1.70968139 -3.00225878 -0.54720777 1 6 15034 3.49800000 883646739 883646739 -9.00000000
3.19642711 -5.61987591 -0.56564075 11 10 15037 6.49000000 883646748 883646748 -5.00000000
5.16113615 -9.08155251 -0.54743409 8 12 15039 10.46000000 883646753 883646753 -3.00000000
5.33549404 -9.39216805 2.49380732 44 13 15040 11.08600000 883646755 883646755 13.00000000
4.18932295 -7.38053942 2.27398419 36 15 15042 8.78600000 883646760 883646760 15.00000000
1.01343560 -1.79051208 -0.55128455 4 0 15049 2.13000000 883646781 883646781 -15.00000000
1.17995071 -2.08640528 -0.55337960 3 2 15051 2.46000000 883646785 883646785 -13.00000000
1.38836646 -2.45592928 -0.54838502 3 4 15052 2.87400000 883646790 883646790 -11.00000000
1.70502019 -3.01852798 -0.54908496 1 6 15054 3.51000000 883646794 883646794 -9.00000000
2.21483088 -3.92428303 -0.55328679 2 8 15056 4.54000000 883646799 883646799 -7.00000000
3.17972755 -5.63620520 -0.56616372 11 10 15057 6.49600000 883646804 883646804 -5.00000000
5.10194302 -9.05079651 -0.54450327 4 12 15059 10.40400000 883646808 883646808 -3.00000000
4.83774805 -8.58561897 2.27515507 30 13 15060 10.11400000 883646810 883646810 13.00000000
4.17051363 -7.40449047 2.27709007 36 15 15061 8.79800000 883646815 883646815 15.00000000
1.01379931 -1.80583060 -0.55490804 4 0 15069 2.14400000 883646836 883646836 -15.00000000
1.16884708 -2.08371305 -0.55158001 3 2 15071 2.45200000 883646840 883646840 -13.00000000
1.38170552 -2.46418548 -0.54914826 2 4 15072 2.87800000 883646845 883646845 -11.00000000
1.69254220 -3.02101469 -0.54845923 1 6 15074 3.50600000 883646850 883646850 -9.00000000
2.20111895 -3.93199039 -0.55328679 2 8 15076 4.54000000 883646854 883646854 -7.00000000
3.15516949 -5.63857651 -0.56529212 11 10 15077 6.48600000 883646859 883646859 -5.00000000
5.06739473 -9.06332016 -0.54418927 8 12 15079 10.39800000 883646863 883646863 -3.00000000
4.80489683 -8.59735107 2.27380514 48 13 15080 10.10800000 883646866 883646866 13.00000000
4.14464188 -7.41900349 2.27709007 36 15 15081 8.79800000 883646870 883646870 15.00000000
1.00936925 -1.81273401 -0.55594331 4 0 15089 2.14800000 883646891 883646891 -15.00000000
1.16346133 -2.09118629 -0.55247980 3 2 15091 2.45600000 883646896 883646896 -13.00000000
1.37118709 -2.46556187 -0.54838502 2 4 15092 2.87400000 883646900 883646900 -11.00000000
1.68294609 -3.02863097 -0.54877210 1 6 15094 3.50800000 883646905 883646905 -9.00000000
3.13546801 -5.64955568 -0.56529212 11 10 15097 6.48600000 883646914 883646914 -5.00000000
5.02700949 -9.06523323 -0.54324722 4 12 15099 10.38000000 883646919 883646919 -3.00000000
4.77391243 -8.61236572 2.27335525 50 13 15100 10.10600000 883646921 883646921 13.00000000
4.12340069 -7.44187450 2.27967811 33 15 15101 8.80800000 883646926 883646926 15.00000000
0.99836588 -1.80779088 -0.55335510 4 0 15109 2.13800000 883646946 883646946 -15.00000000
1.15803766 -2.09864712 -0.55337960 3 2 15111 2.46000000 883646951 883646951 -13.00000000
1.36067593 -2.46689510 -0.54762185 2 4 15112 2.87000000 883646956 883646956 -11.00000000
1.66855013 -3.02756691 -0.54752064 1 6 15114 3.50000000 883646960 883646960 -9.00000000
3.11188531 -5.65348434 -0.56459492 11 10 15117 6.47800000 883646969 883646969 -5.00000000
4.99533510 -9.08272552 -0.54324722 4 12 15119 10.38000000 883646974 883646974 -3.00000000
4.74382067 -8.62897778 2.27335525 47 13 15120 10.10600000 883646976 883646976 13.00000000
4.09702730 -7.45863104 2.28019571 36 15 15122 8.81000000 883646981 883646981 15.00000000
0.98958057 -1.80600905 -0.55180222 4 0 15128 2.13200000 883647002 883647002 -15.00000000
1.15107191 -2.10247588 -0.55337960 3 2 15130 2.46000000 883647006 883647006 -13.00000000
1.35060298 -2.46794915 -0.54685861 3 4 15131 2.86600000 883647011 883647011 -11.00000000
1.65376258 -3.02441740 -0.54595625 1 6 15133 3.49000000 883647015 883647015 -9.00000000
3.08548093 -5.64978361 -0.56320041 11 10 15136 6.46200000 883647025 883647025 -5.00000000
4.95849180 -9.08696842 -0.54251450 8 12 15138 10.36600000 883647029 883647029 -3.00000000
4.72357798 -8.66005898 2.27740455 51 13 15139 10.12400000 883647032 883647032 13.00000000
4.06525230 -7.45620012 2.27553701 33 15 15140 8.79200000 883647036 883647036 15.00000000
0.98511517 -1.81284714 -0.55283749 4 0 15148 2.13600000 883647057 883647057 -15.00000000
1.14000642 -2.09963059 -0.55158001 3 2 15150 2.45200000 883647061 883647061 -13.00000000
1.33823407 -2.46574664 -0.54533213 3 4 15151 2.85800000 883647066 883647066 -11.00000000
1.64602029 -3.03538132 -0.54689491 1 6 15153 3.49600000 883647071 883647071 -9.00000000
3.06574059 -5.66051960 -0.56320041 7 10 15156 6.46200000 883647080 883647080 -5.00000000
4.90582991 -9.06557751 -0.54021174 4 12 15158 10.32200000 883647085 883647085 -3.00000000
4.69702864 -8.68335056 2.27920413 47 13 15159 10.13200000 883647087 883647087 13.00000000
4.04747009 -7.48563910 2.28019571 38 15 15160 8.81000000 883647091 883647091 15.00000000
0.98336351 -1.82477796 -0.55542564 4 0 15168 2.14600000 883647112 883647112 -15.00000000
1.13082266 -2.10016561 -0.55068016 3 2 15170 2.44800000 883647117 883647117 -13.00000000
1.33520150 -2.48077559 -0.54762185 3 4 15171 2.87000000 883647121 883647121 -11.00000000
1.62980127 -3.03066993 -0.54501766 1 6 15173 3.48400000 883647126 883647126 -9.00000000
2.13285398 -3.96943426 -0.55328679 2 8 15175 4.54000000 883647131 883647131 -7.00000000
3.04784846 -5.67469692 -0.56354904 7 10 15176 6.46600000 883647135 883647135 -5.00000000
4.87321043 -9.08088684 -0.54010707 4 12 15178 10.32000000 883647140 883647140 -3.00000000
4.66576862 -8.69797611 2.27875423 50 13 15179 10.13000000 883647142 883647142 13.00000000
4.02365685 -7.50723457 2.28226638 36 15 15181 8.81800000 883647147 883647147 15.00000000
0.97789836 -1.82990324 -0.55594331 4 0 15188 2.14800000 883647167 883647167 -15.00000000
1.12348485 -2.10409999 -0.55068016 3 2 15190 2.44800000 883647172 883647172 -13.00000000
1.32283628 -2.47849321 -0.54609537 3 4 15191 2.86200000 883647177 883647177 -11.00000000
1.62107134 -3.03982639 -0.54564339 1 6 15193 3.48800000 883647181 883647181 -9.00000000
3.02333856 -5.67650890 -0.56267750 7 10 15196 6.45600000 883647191 883647191 -5.00000000
4.82553196 -9.06786823 -0.53832763 4 12 15198 10.28600000 883647195 883647195 -3.00000000
4.63354826 -8.71076870 2.27785444 50 13 15199 10.12600000 883647197 883647197 13.00000000
3.99833393 -7.52293968 2.28278399 33 15 15201 8.82000000 883647202 883647202 15.00000000
0.96788657 -1.82647765 -0.55387276 3 0 15208 2.14000000 883647223 883647223 -15.00000000
1.11613333 -2.10800886 -0.55068016 3 2 15210 2.44800000 883647227 883647227 -13.00000000
1.31417656 -2.48309565 -0.54609537 3 4 15211 2.86200000 883647232 883647232 -11.00000000
1.60860360 -3.04197407 -0.54501766 1 6 15213 3.48400000 883647237 883647237 -9.00000000
2.99327040 -5.66764832 -0.56076002 3 10 15216 6.43400000 883647246 883647246 -5.00000000
4.78918934 -9.07582569 -0.53780431 4 12 15218 10.27600000 883647250 883647250 -3.00000000
4.60947800 -8.73895550 2.28100371 51 13 15219 10.14000000 883647253 883647253 13.00000000
3.97295046 -7.53855991 2.28330159 36 15 15221 8.82200000 883647257 883647257 15.00000000
0.94443160 -1.79735243 -0.54403764 2 0 15228 2.10200000 883647278 883647278 -15.00000000
1.11057985 -2.11534286 -0.55158001 3 2 15230 2.45200000 883647283 883647283 -13.00000000
1.30185175 -2.48071408 -0.54456890 3 4 15231 2.85400000 883647287 883647287 -11.00000000
2.96792269 -5.66747189 -0.55971420 3 10 15236 6.42200000 883647301 883647301 -5.00000000
4.75285006 -9.08363914 -0.53728092 4 12 15238 10.26600000 883647306 883647306 -3.00000000
4.58436394 -8.76535320 2.28370309 53 13 15239 10.15200000 883647308 883647308 13.00000000
3.94661164 -7.55238199 2.28330159 36 15 15241 8.82200000 883647313 883647313 15.00000000
1.10318923 -2.11920667 -0.55158001 3 2 15250 2.45200000 883647338 883647338 -13.00000000
1.29680943 -2.49220967 -0.54609537 3 4 15251 2.86200000 883647343 883647343 -11.00000000
1.58368278 -3.04611945 -0.54376620 1 6 15253 3.47600000 883647347 883647347 -9.00000000
2.06807327 -3.98121047 -0.55084944 2 8 15255 4.52000000 883647352 883647352 -7.00000000
2.94995761 -5.68133402 -0.56006283 3 10 15256 6.42600000 883647356 883647356 -5.00000000
4.71283531 -9.08421898 -0.53633887 4 12 15258 10.24800000 883647361 883647361 -3.00000000
4.56360722 -8.80033112 2.28865194 53 13 15259 10.17400000 883647363 883647363 13.00000000
3.92687964 -7.57571888 2.28640747 36 15 15260 8.83400000 883647368 883647368 15.00000000
0.56301773 -1.08989322 -0.32870018 2 0 15268 1.27000000 883647389 883647389 -15.00000000
1.09399748 -2.11958122 -0.55068016 3 2 15270 2.44800000 883647393 883647393 -13.00000000
1.29530323 -2.51067901 -0.54914826 3 4 15271 2.87800000 883647398 883647398 -11.00000000
1.56579947 -3.03758216 -0.54126322 1 6 15273 3.46000000 883647402 883647402 -9.00000000
2.92372441 -5.67919683 -0.55884260 3 10 15276 6.41200000 883647412 883647412 -5.00000000
4.66647959 -9.07219696 -0.53466415 4 12 15278 10.21600000 883647416 883647416 -3.00000000
4.53196955 -8.81447506 2.28820205 56 13 15279 10.17200000 883647419 883647419 13.00000000
3.90261769 -7.59693384 2.28847790 36 15 15281 8.84200000 883647423 883647423 15.00000000
0.58426583 -1.13979268 -0.34319407 2 0 15286 1.32600000 883647444 883647444 -15.00000000
1.08555651 -2.11953878 -0.54978037 3 2 15288 2.44400000 883647449 883647449 -13.00000000
1.56434500 -3.05831432 -0.54407907 1 6 15291 3.47800000 883647458 883647458 -9.00000000
2.90314913 -5.68303108 -0.55831969 3 10 15294 6.40600000 883647467 883647467 -5.00000000
4.64249563 -9.09570694 -0.53518748 4 12 15296 10.22600000 883647472 883647472 -3.00000000
4.50159883 -8.82346153 2.28685236 53 13 15297 10.16600000 883647474 883647474 13.00000000
3.88181543 -7.61192179 2.28951335 36 15 15298 8.84600000 883647479 883647479 15.00000000
1.07991588 -2.12679029 -0.55068016 3 2 15308 2.44800000 883647504 883647504 -13.00000000
1.55812705 -3.07256532 -0.54564339 1 6 15311 3.48800000 883647513 883647513 -9.00000000
2.87249184 -5.67180109 -0.55622792 3 10 15314 6.38200000 883647522 883647522 -5.00000000
4.60711050 -9.10472870 -0.53476882 4 12 15316 10.21800000 883647527 883647527 -3.00000000
4.47692871 -8.85129356 2.29000163 55 13 15317 10.18000000 883647529 883647529 13.00000000
3.85563278 -7.62954664 2.29054856 36 15 15319 8.85000000 883647534 883647534 15.00000000
1.07774270 -2.14099073 -0.55337960 3 2 15328 2.46000000 883647559 883647559 -13.00000000
1.54295599 -3.06916094 -0.54407907 1 6 15331 3.47800000 883647568 883647568 -9.00000000
2.85267591 -5.68179321 -0.55622792 3 10 15334 6.38200000 883647578 883647578 -5.00000000
4.56544971 -9.10111713 -0.53361744 4 12 15336 10.19600000 883647582 883647582 -3.00000000
4.44949865 -8.87383556 2.29180145 56 13 15337 10.18800000 883647585 883647585 13.00000000
3.83983278 -7.66128826 2.29624248 33 15 15338 8.87200000 883647589 883647589 15.00000000
1.06852245 -2.14125228 -0.55247980 3 2 15348 2.45600000 883647614 883647614 -13.00000000
1.52694666 -3.06392026 -0.54220188 1 6 15351 3.46600000 883647624 883647624 -9.00000000
2.84170294 -5.70955324 -0.55797106 3 10 15354 6.40200000 883647633 883647633 -5.00000000
4.52209234 -9.09375000 -0.53225666 4 12 15356 10.17000000 883647637 883647637 -3.00000000
4.42456770 -8.90152836 2.29495072 54 13 15357 10.20200000 883647640 883647640 13.00000000
1.05412924 -2.13099551 -0.54888058 3 2 15368 2.44000000 883647670 883647670 -13.00000000
1.23999023 -2.50782776 -0.54380566 3 4 15369 2.85000000 883647674 883647674 -11.00000000
1.51886702 -3.07454467 -0.54314047 1 6 15371 3.47200000 883647679 883647679 -9.00000000
1.96280420 -3.97667313 -0.54451221 2 8 15373 4.46800000 883647684 883647684 -7.00000000
2.81999254 -5.71586418 -0.55762243 3 10 15374 6.39800000 883647688 883647688 -5.00000000
4.47619295 -9.08081627 -0.53058195 4 12 15376 10.13800000 883647693 883647693 -3.00000000
4.39605284 -8.92216301 2.29630041 55 13 15377 10.20800000 883647695 883647695 13.00000000
3.82636976 -7.76936293 2.32057166 22 15 15378 8.96600000 883647700 883647700 15.00000000
1.04582632 -2.13291240 -0.54843068 3 2 15388 2.43800000 883647725 883647725 -13.00000000
1.23295677 -2.51566648 -0.54456890 3 4 15389 2.85400000 883647730 883647730 -11.00000000
1.51333809 -3.09047246 -0.54501766 1 6 15391 3.48400000 883647734 883647734 -9.00000000
1.94716632 -3.97993422 -0.54402477 2 8 15393 4.46400000 883647739 883647739 -7.00000000
2.80002332 -5.72567272 -0.55762243 3 10 15394 6.39800000 883647743 883647743 -5.00000000
