# .PCD v0.7 - Point Cloud Data file format
VERSION 0.7
FIELDS x y z intensity laser_id azimuth distance_m adjustedtime timestamp vertical_angle
SIZE 4 4 4 1 1 2 8 8 4 8
TYPE F F F U U U F U U F
COUNT 1 1 1 1 1 1 1 1 1 1
WIDTH 532
HEIGHT 1
VIEWPOINT 0 0 0 1 0 0 0
POINTS 532
DATA ascii
-4.02326965 -5.26221848 1.28757906 12 11 21740 6.74800000 883065423 883065423 11.00000000
-4.03686142 -5.27808619 -0.34824345 10 12 21741 6.65400000 883065426 883065426 -3.00000000
-4.02613735 -5.26216078 1.52966714 15 13 21742 6.80000000 883065428 883065428 13.00000000
-4.04241467 -5.28152514 -0.11609340 18 14 21743 6.65200000 883065430 883065430 -1.00000000
-4.02855492 -5.26341677 1.77601624 11 15 21743 6.86200000 883065432 883065432 15.00000000
-1.17395163 -1.52937078 -0.51660281 4 0 21751 1.99600000 883065453 883065453 -15.00000000
-4.04948807 -5.27358294 0.11605851 11 1 21752 6.65000000 883065456 883065456 1.00000000
-1.34264088 -1.74786794 -0.50883931 4 2 21753 2.26200000 883065458 883065458 -13.00000000
-4.05126047 -5.27208042 0.34845281 10 3 21754 6.65800000 883065460 883065460 3.00000000
-1.56946766 -2.04241610 -0.50068283 3 4 21754 2.62400000 883065462 883065462 -11.00000000
-4.06294346 -5.28537416 0.58324623 13 5 21755 6.69200000 883065465 883065465 5.00000000
-1.87369418 -2.43655825 -0.48682407 2 6 21756 3.11200000 883065467 883065467 -9.00000000
-4.05837345 -5.27561712 0.81725580 10 7 21757 6.70600000 883065469 883065469 7.00000000
-4.07866430 -5.30007982 -0.82115561 4 8 21758 6.73800000 883065472 883065472 -7.00000000
-4.05721283 -5.27030039 1.05342972 10 9 21759 6.73400000 883065474 883065474 9.00000000
-3.09068894 -4.01479101 -0.44327411 3 10 21759 5.08600000 883065476 883065476 -5.00000000
-4.05838394 -5.26991892 1.29292178 12 11 21760 6.77600000 883065479 883065479 11.00000000
-4.07232523 -5.28611326 -0.34970886 10 12 21761 6.68200000 883065481 883065481 -3.00000000
-4.05280781 -5.25888014 1.53281653 15 13 21762 6.81400000 883065483 883065483 13.00000000
-4.07425642 -5.28480339 -0.11647736 17 14 21763 6.67400000 883065485 883065485 -1.00000000
-4.06433582 -5.27003288 1.78326321 9 15 21764 6.89000000 883065488 883065488 15.00000000
-1.17573810 -1.52067864 -0.51504987 4 0 21771 1.99000000 883065509 883065509 -15.00000000
-4.08255243 -5.27839661 0.11647736 8 1 21772 6.67400000 883065511 883065511 1.00000000
-1.35350394 -1.74933565 -0.51063889 4 2 21773 2.27000000 883065513 883065513 -13.00000000
-4.08308601 -5.27528048 0.34960419 10 3 21774 6.68000000 883065515 883065515 3.00000000
-1.56457078 -2.02139997 -0.49686661 3 4 21774 2.60400000 883065518 883065518 -11.00000000
-4.09112597 -5.28376245 0.58464074 13 5 21775 6.70800000 883065520 883065520 5.00000000
-1.88218784 -2.43000317 -0.48682407 2 6 21776 3.11200000 883065522 883065522 -9.00000000
-4.09621763 -5.28652525 0.82115561 10 7 21777 6.73800000 883065525 883065525 7.00000000
-4.11538219 -5.30934429 -0.82481170 4 8 21778 6.76800000 883065527 883065527 -7.00000000
-4.08647871 -5.27015591 1.05624557 10 9 21779 6.75200000 883065529 883065529 9.00000000
-4.10946417 -5.29979944 -0.58673245 4 10 21779 6.73200000 883065532 883065532 -5.00000000
-4.09600735 -5.28054094 1.29902768 12 11 21780 6.80800000 883065534 883065534 11.00000000
-4.10789394 -5.29395723 -0.35117427 10 12 21781 6.71000000 883065536 883065536 -3.00000000
-4.08786917 -5.26625252 1.53911507 15 13 21782 6.84200000 883065538 883065538 13.00000000
-4.10249043 -5.28318453 -0.11675660 19 14 21783 6.69000000 883065541 883065541 -1.00000000
-4.09600782 -5.27483606 1.78947484 9 15 21783 6.91400000 883065543 883065543 15.00000000
-1.18222606 -1.51808953 -0.51556754 4 0 21791 1.99200000 883065564 883065564 -15.00000000
-4.11569977 -5.28304386 0.11689622 14 1 21792 6.69800000 883065566 883065566 1.00000000
-1.36199772 -1.74767458 -0.51153868 4 2 21793 2.27400000 883065568 883065568 -13.00000000
-4.12480736 -5.29092360 0.35159296 10 3 21794 6.71800000 883065571 883065571 3.00000000
-1.58127391 -2.02831292 -0.49991956 3 4 21794 2.62000000 883065573 883065573 -11.00000000
-4.12302303 -5.28673172 0.58655816 13 5 21795 6.73000000 883065575 883065575 5.00000000
-1.88336825 -2.41407347 -0.48494685 2 6 21796 3.10000000 883065578 883065578 -9.00000000
-4.12808084 -5.28940868 0.82383674 10 7 21797 6.76000000 883065580 883065580 7.00000000
-4.14977074 -5.31528807 -0.82798034 4 8 21798 6.79400000 883065582 883065582 -7.00000000
-4.12065649 -5.27609777 1.06031275 10 9 21799 6.77800000 883065585 883065585 9.00000000
-3.10637832 -3.97741365 -0.44153100 3 10 21799 5.06600000 883065587 883065587 -5.00000000
-4.12891960 -5.28477573 1.30360711 12 11 21800 6.83200000 883065589 883065589 11.00000000
-4.13741779 -5.29374838 -0.35211632 10 12 21801 6.72800000 883065591 883065591 -3.00000000
-4.12423134 -5.27497911 1.54586363 15 13 21802 6.87200000 883065594 883065594 13.00000000
-4.13445902 -5.28615856 -0.11714055 14 14 21803 6.71200000 883065596 883065596 -1.00000000
-4.12153625 -5.26963663 1.79258072 9 15 21803 6.92600000 883065598 883065598 15.00000000
-1.18420446 -1.50918674 -0.51401460 4 0 21812 1.98600000 883065619 883065619 -15.00000000
-4.14367867 -5.27893448 0.11714055 14 1 21813 6.71200000 883065621 883065621 1.00000000
-1.36117303 -1.73347473 -0.50883931 4 2 21814 2.26200000 883065624 883065624 -13.00000000
-4.15558577 -5.29220152 0.35263968 10 3 21814 6.73800000 883065626 883065626 3.00000000
-1.59354842 -2.02867913 -0.50144607 3 4 21815 2.62800000 883065628 883065628 -11.00000000
-4.15591335 -5.28881693 0.58847558 13 5 21816 6.75200000 883065631 883065631 5.00000000
-1.88976204 -2.40404820 -0.48432112 2 6 21817 3.09600000 883065633 883065633 -9.00000000
-4.15848303 -5.28828669 0.82603043 10 7 21818 6.77800000 883065635 883065635 7.00000000
-4.17781591 -5.31096411 -0.82968646 4 8 21819 6.80800000 883065637 883065637 -7.00000000
-4.16225386 -5.29118109 1.06625736 10 9 21819 6.81600000 883065640 883065640 9.00000000
-3.12339973 -3.96913290 -0.44187963 3 10 21820 5.07000000 883065642 883065642 -5.00000000
-4.15676212 -5.28040552 1.30627835 12 11 21821 6.84600000 883065644 883065644 11.00000000
-4.16297102 -5.28639412 -0.35263968 10 12 21822 6.73800000 883065647 883065647 -3.00000000
-4.16042042 -5.28125858 1.55216229 15 13 21823 6.90000000 883065649 883065649 13.00000000
-4.16865873 -5.28981686 -0.11755941 10 14 21824 6.73600000 883065651 883065651 -1.00000000
-4.15517187 -5.27270269 1.79879236 9 15 21824 6.95000000 883065654 883065654 15.00000000
-1.19665241 -1.51413786 -0.51712048 5 0 21832 1.99800000 883065674 883065674 -15.00000000
-4.17448235 -5.28012466 0.11748960 11 1 21833 6.73200000 883065677 883065677 1.00000000
-1.36479807 -1.72565579 -0.50793946 4 2 21834 2.25800000 883065679 883065679 -13.00000000
-4.19106436 -5.29729748 0.35400042 10 3 21835 6.76400000 883065681 883065681 3.00000000
-1.59574759 -2.01694560 -0.49991956 3 4 21835 2.62000000 883065684 883065684 -11.00000000
-4.19536924 -5.30083704 0.59143889 10 5 21836 6.78600000 883065686 883065686 5.00000000
-1.90549946 -2.40672946 -0.48619831 2 6 21837 3.10800000 883065688 883065688 -9.00000000
-4.18677711 -5.28618765 0.82798034 10 7 21838 6.79400000 883065690 883065690 7.00000000
-4.20249271 -5.30412817 -0.83090520 2 8 21839 6.81800000 883065693 883065693 -7.00000000
-4.19756985 -5.29601526 1.07032466 10 9 21840 6.84200000 883065695 883065695 9.00000000
-3.12609744 -3.94415331 -0.44031081 3 10 21840 5.05200000 883065697 883065697 -5.00000000
-4.18980551 -5.28432417 1.31085777 12 11 21841 6.87000000 883065700 883065700 11.00000000
-4.19753313 -5.29217291 -0.35400042 10 12 21842 6.76400000 883065702 883065702 -3.00000000
-4.18730879 -5.27739000 1.55531156 14 13 21843 6.91400000 883065704 883065704 13.00000000
-4.20201635 -5.29402876 -0.11797827 8 14 21844 6.76000000 883065707 883065707 -1.00000000
-4.19008589 -5.27710581 1.80552161 9 15 21845 6.97600000 883065709 883065709 15.00000000
-1.20768130 -1.51771963 -0.51970863 5 0 21851 2.00800000 883065730 883065730 -15.00000000
-4.21189499 -5.29128551 0.11804808 14 1 21852 6.76400000 883065732 883065732 1.00000000
-1.37536871 -1.72721827 -0.50973910 4 2 21853 2.26600000 883065734 883065734 -13.00000000
-4.21639490 -5.29504156 0.35473311 10 3 21853 6.77800000 883065737 883065737 3.00000000
-1.59998083 -2.00857162 -0.49915633 3 4 21854 2.61600000 883065739 883065739 -11.00000000
-4.22161627 -5.29780245 0.59265906 10 5 21855 6.80000000 883065741 883065741 5.00000000
-1.90608203 -2.39112949 -0.48432112 2 6 21856 3.09600000 883065743 883065743 -9.00000000
-4.21913576 -5.29089928 0.83090520 10 7 21857 6.81800000 883065746 883065746 7.00000000
-2.37680054 -2.97949910 -0.46797827 1 8 21858 3.84000000 883065748 883065748 -7.00000000
-4.22250175 -5.29133034 1.07220185 10 9 21859 6.85400000 883065750 883065750 9.00000000
-3.15780067 -3.95712471 -0.44292548 3 10 21859 5.08200000 883065753 883065753 -5.00000000
-4.21832943 -5.28421021 1.31429231 12 11 21860 6.88800000 883065755 883065755 11.00000000
-4.23998594 -5.30943775 -0.35609385 10 12 21861 6.80400000 883065757 883065757 -3.00000000
-4.21451664 -5.27565575 1.55891085 14 13 21862 6.93000000 883065760 883065760 13.00000000
-4.24326849 -5.30974579 -0.11864146 8 14 21863 6.79800000 883065762 883065762 -1.00000000
-4.22352839 -5.28504467 1.81276858 9 15 21863 7.00400000 883065764 883065764 15.00000000
-1.20451474 -1.50294256 -0.51608515 4 0 21871 1.99400000 883065785 883065785 -15.00000000
-4.24534941 -5.29527330 0.11846694 14 1 21872 6.78800000 883065787 883065787 1.00000000
-1.38626635 -1.72848773 -0.51153868 4 2 21873 2.27400000 883065789 883065789 -13.00000000
-4.25609493 -5.30677843 0.35651255 17 3 21873 6.81200000 883065792 883065792 3.00000000
-1.59715366 -1.99072385 -0.49610338 3 4 21874 2.60000000 883065794 883065794 -11.00000000
-4.24881268 -5.29391098 0.59387922 10 5 21875 6.81400000 883065796 883065796 5.00000000
-1.93173087 -2.40602636 -0.48870125 2 6 21876 3.12400000 883065799 883065799 -9.00000000
-4.25746727 -5.30090284 0.83480501 10 7 21877 6.85000000 883065801 883065801 7.00000000
-2.37475324 -2.95570946 -0.46554089 1 8 21878 3.82000000 883065803 883065803 -7.00000000
-4.24589634 -5.28271770 1.07345331 10 9 21879 6.86200000 883065806 883065806 9.00000000
-3.15661621 -3.92744231 -0.44083375 3 10 21879 5.05800000 883065808 883065808 -5.00000000
-4.25889254 -5.29699373 1.32116151 12 11 21880 6.92400000 883065810 883065810 11.00000000
-4.27601814 -5.31639385 -0.35755926 10 12 21881 6.83200000 883065813 883065813 -3.00000000
-4.25123072 -5.28368711 1.56565928 15 13 21882 6.96000000 883065815 883065815 13.00000000
-4.26804590 -5.30269098 -0.11881598 6 14 21883 6.80800000 883065817 883065817 -1.00000000
-4.25285244 -5.28381395 1.81742728 9 15 21883 7.02200000 883065819 883065819 15.00000000
-1.20368671 -1.49121261 -0.51349699 4 0 21891 1.98400000 883065840 883065840 -15.00000000
-4.28139544 -5.30220318 0.11895560 11 1 21892 6.81600000 883065842 883065842 1.00000000
-1.39229143 -1.72363818 -0.51153868 4 2 21893 2.27400000 883065845 883065845 -13.00000000
-4.29183578 -5.31133842 0.35787326 15 3 21894 6.83800000 883065847 883065847 3.00000000
-1.61149633 -1.99429882 -0.49839309 3 4 21894 2.61200000 883065849 883065849 -11.00000000
-4.27728605 -5.29144335 0.59527373 10 5 21895 6.83000000 883065852 883065852 5.00000000
-1.92024457 -2.37469244 -0.48369536 2 6 21896 3.09200000 883065854 883065854 -9.00000000
-4.28967810 -5.30298615 0.83748615 10 7 21897 6.87200000 883065856 883065856 7.00000000
-2.39129972 -2.95511770 -0.46675959 1 8 21898 3.83000000 883065859 883065859 -7.00000000
-4.28327274 -5.29317808 1.07845914 10 9 21898 6.89400000 883065861 883065861 9.00000000
-3.16529202 -3.91020536 -0.44013649 3 10 21899 5.05000000 883065863 883065863 -5.00000000
-4.28476954 -5.29124975 1.32345116 12 11 21900 6.93600000 883065866 883065866 11.00000000
-4.31717920 -5.32937050 -0.35944334 10 12 21901 6.86800000 883065868 883065868 -3.00000000
-4.28437138 -5.28698349 1.57105815 15 13 21902 6.98400000 883065870 883065870 13.00000000
-4.31171513 -5.31882811 -0.11951408 8 14 21903 6.84800000 883065872 883065872 -1.00000000
-4.28435802 -5.28319550 1.82260370 9 15 21904 7.04200000 883065875 883065875 15.00000000
-1.20522881 -1.48250496 -0.51194406 4 0 21911 1.97800000 883065895 883065895 -15.00000000
-4.30870914 -5.29808617 0.11919994 8 1 21912 6.83000000 883065898 883065898 1.00000000
-1.39338028 -1.71272099 -0.50973910 4 2 21913 2.26600000 883065900 883065900 -13.00000000
-4.32581091 -5.31721830 0.35923401 17 3 21913 6.86400000 883065902 883065902 3.00000000
-1.61844790 -1.98866153 -0.49839309 3 4 21914 2.61200000 883065905 883065905 -11.00000000
-4.30830956 -5.29193163 0.59701681 10 5 21915 6.85000000 883065907 883065907 5.00000000
-1.93351173 -2.37410164 -0.48494685 2 6 21916 3.10000000 883065909 883065909 -9.00000000
-4.31568575 -5.29721403 0.83894855 10 7 21917 6.88400000 883065912 883065912 7.00000000
-2.41037917 -2.95752406 -0.46846575 1 8 21918 3.84400000 883065914 883065914 -7.00000000
-4.31762314 -5.29581594 1.08221364 10 9 21919 6.91800000 883065916 883065916 9.00000000
-3.19025278 -3.91303062 -0.44170532 3 10 21919 5.06800000 883065919 883065919 -5.00000000
-4.30941725 -5.28386784 1.32535923 12 11 21920 6.94600000 883065921 883065921 11.00000000
-4.34080648 -5.32045841 -0.35986203 10 12 21921 6.87600000 883065923 883065923 -3.00000000
-4.32005072 -5.29313231 1.57735682 15 13 21922 7.01200000 883065925 883065925 13.00000000
-4.34290171 -5.31923485 -0.11986313 10 14 21923 6.86800000 883065928 883065928 -1.00000000
-4.31866026 -5.28765917 1.82933307 9 15 21924 7.06800000 883065930 883065930 15.00000000
-1.22018719 -1.49024677 -0.51608515 4 0 21931 1.99400000 883065951 883065951 -15.00000000
-4.34745073 -5.30776548 0.11975841 11 1 21932 6.86200000 883065953 883065953 1.00000000
-1.39441001 -1.70181727 -0.50793946 4 2 21933 2.25800000 883065955 883065955 -13.00000000
-4.35700321 -5.31753492 0.36028072 17 3 21933 6.88400000 883065958 883065958 3.00000000
-1.63035798 -1.98907340 -0.49991956 3 4 21934 2.62000000 883065960 883065960 -11.00000000
-4.35581112 -5.31229639 0.60102600 13 5 21935 6.89600000 883065962 883065962 5.00000000
-1.93176496 -2.35511947 -0.48244390 2 6 21936 3.08400000 883065965 883065965 -9.00000000
-4.34926081 -5.30053234 0.84187341 10 7 21937 6.90800000 883065967 883065967 7.00000000
-2.41565037 -2.94295454 -0.46749079 1 8 21938 3.83600000 883065969 883065969 -7.00000000
-4.35772038 -5.30895281 1.08784533 10 9 21938 6.95400000 883065972 883065972 9.00000000
-3.20262790 -3.90033078 -0.44153100 6 10 21939 5.06600000 883065974 883065974 -5.00000000
-4.34652758 -5.29154921 1.33108354 12 11 21940 6.97600000 883065976 883065976 11.00000000
-4.36949587 -5.31761837 -0.36069942 10 12 21941 6.89200000 883065978 883065978 -3.00000000
-4.35582542 -5.29909611 1.58365548 15 13 21942 7.04000000 883065981 883065981 13.00000000
-4.38049412 -5.32721138 -0.12038670 17 14 21943 6.89800000 883065983 883065983 -1.00000000
-4.36040878 -5.30089903 1.83916819 9 15 21944 7.10600000 883065985 883065985 15.00000000
-1.22538173 -1.48597836 -0.51608515 4 0 21951 1.99400000 883066006 883066006 -15.00000000
-4.38376665 -5.31415367 0.12024708 11 1 21952 6.89000000 883066008 883066008 1.00000000
-1.39786124 -1.69393349 -0.50703967 4 2 21953 2.25400000 883066011 883066011 -13.00000000
-4.38952160 -5.31923866 0.36143211 15 3 21953 6.90600000 883066013 883066013 3.00000000
-1.63479149 -1.98034227 -0.49915633 3 4 21954 2.61600000 883066015 883066015 -11.00000000
-4.39462662 -5.32163954 0.60381496 13 5 21955 6.92800000 883066018 883066018 5.00000000
-1.95003891 -2.36054540 -0.48494685 2 6 21956 3.10000000 883066020 883066020 -9.00000000
-4.38670444 -5.30827141 0.84552950 10 7 21957 6.93800000 883066022 883066022 7.00000000
-2.42337871 -2.93144464 -0.46700332 1 8 21958 3.83200000 883066025 883066025 -7.00000000
-4.38629436 -5.30588913 1.09034824 10 9 21958 6.97000000 883066027 883066027 9.00000000
-3.21622324 -3.88912773 -0.44153100 9 10 21959 5.06600000 883066029 883066029 -5.00000000
-4.38499451 -5.30054808 1.33718944 12 11 21960 7.00800000 883066031 883066031 11.00000000
-4.40076447 -5.31772089 -0.36174613 10 12 21961 6.91200000 883066034 883066034 -3.00000000
-4.38423777 -5.29586792 1.58725464 15 13 21962 7.05600000 883066036 883066036 13.00000000
-4.40544033 -5.31958866 -0.12056123 14 14 21963 6.90800000 883066038 883066038 -1.00000000
-4.38997793 -5.29903507 1.84382689 9 15 21964 7.12400000 883066041 883066041 15.00000000
-1.22341275 -1.47256160 -0.51297933 4 0 21972 1.98200000 883066061 883066061 -15.00000000
-4.41855240 -5.31650543 0.12066594 8 1 21973 6.91400000 883066064 883066064 1.00000000
-1.41651881 -1.70378363 -0.51153868 4 2 21974 2.27400000 883066066 883066066 -13.00000000
-4.42558765 -5.32308006 0.36279285 10 3 21974 6.93200000 883066068 883066068 3.00000000
-1.63952816 -1.97131824 -0.49839309 3 4 21975 2.61200000 883066071 883066071 -11.00000000
-4.42684460 -5.32081270 0.60555810 13 5 21976 6.94800000 883066073 883066073 5.00000000
-1.96878684 -2.36552882 -0.48744980 2 6 21977 3.11600000 883066075 883066075 -9.00000000
-4.42518330 -5.31504107 0.84918559 10 7 21978 6.96800000 883066077 883066077 7.00000000
-2.44172931 -2.93169475 -0.46846575 1 8 21979 3.84400000 883066080 883066080 -7.00000000
-4.41835403 -5.30495596 1.09347689 10 9 21979 6.99000000 883066082 883066082 9.00000000
-3.23555732 -3.88343644 -0.44222823 9 10 21980 5.07400000 883066084 883066084 -5.00000000
-4.42827511 -5.31309509 1.34444022 12 11 21981 7.04600000 883066087 883066087 11.00000000
-4.44324780 -5.32916784 -0.36363024 10 12 21982 6.94800000 883066089 883066089 -3.00000000
-4.41859674 -5.29772186 1.59265351 15 13 21983 7.08000000 883066091 883066091 13.00000000
-4.43643761 -5.31722546 -0.12087537 17 14 21984 6.92600000 883066094 883066094 -1.00000000
-4.42206240 -5.29999590 1.84952092 9 15 21984 7.14600000 883066096 883066096 15.00000000
-1.22730577 -1.46680045 -0.51246172 4 0 21992 1.98000000 883066117 883066117 -15.00000000
-4.45248556 -5.31945038 0.12108479 8 1 21993 6.93800000 883066119 883066119 1.00000000
-1.41745329 -1.69285214 -0.50973910 4 2 21994 2.26600000 883066121 883066121 -13.00000000
-4.45952797 -5.32597542 0.36404890 7 3 21994 6.95600000 883066124 883066124 3.00000000
-1.64639938 -1.96558332 -0.49839309 3 4 21995 2.61200000 883066126 883066126 -11.00000000
-4.45434809 -5.31601810 0.60677826 13 5 21996 6.96200000 883066128 883066128 5.00000000
-1.96688044 -2.34653091 -0.48494685 2 6 21997 3.10000000 883066130 883066130 -9.00000000
-4.46284103 -5.32237864 0.85284168 10 7 21998 6.99800000 883066133 883066133 7.00000000
-4.48800850 -5.35049677 -0.85747272 2 8 21999 7.03600000 883066135 883066135 -7.00000000
-4.45588732 -5.31220198 1.09816992 10 9 21999 7.02000000 883066137 883066137 9.00000000
-3.23628640 -3.85685611 -0.44048512 9 10 22000 5.05400000 883066140 883066140 -5.00000000
-4.46446514 -5.31865692 1.34978282 12 11 22001 7.07400000 883066142 883066142 11.00000000
-4.48237228 -5.33809805 -0.36530498 10 12 22002 6.98000000 883066144 883066144 -3.00000000
-4.45711708 -5.30614042 1.59985185 12 13 22003 7.11200000 883066147 883066147 13.00000000
-4.47426796 -5.32467127 -0.12139894 21 14 22004 6.95600000 883066149 883066149 -1.00000000
-4.45388842 -5.29854059 1.85469723 9 15 22005 7.16600000 883066151 883066151 15.00000000
-1.23315215 -1.46441519 -0.51297933 4 0 22010 1.98200000 883066172 883066172 -15.00000000
-4.48334646 -5.32225990 0.12146875 17 1 22011 6.96000000 883066174 883066174 1.00000000
-1.42276454 -1.68839073 -0.50973910 4 2 22012 2.26600000 883066177 883066177 -13.00000000
-4.49776173 -5.33559084 0.36572367 7 3 22013 6.98800000 883066179 883066179 3.00000000
-1.65256619 -1.96040130 -0.49839309 3 4 22013 2.61200000 883066181 883066181 -11.00000000
-4.49286175 -5.32789135 0.60974157 20 5 22014 6.99600000 883066183 883066183 5.00000000
-1.96405303 -2.32826114 -0.48244390 2 6 22015 3.08400000 883066186 883066186 -9.00000000
-4.49234200 -5.32350302 0.85527903 10 7 22016 7.01800000 883066188 883066188 7.00000000
-4.53296661 -5.36974192 -0.86283493 4 8 22017 7.08000000 883066190 883066190 -7.00000000
-4.49039316 -5.31930971 1.10255015 10 9 22017 7.04800000 883066193 883066193 9.00000000
-3.25224352 -3.85123658 -0.44100806 9 10 22018 5.06000000 883066195 883066195 -5.00000000
-4.51201200 -5.33924484 -0.36635169 10 12 22020 7.00000000 883066200 883066200 -3.00000000
-6.66032362 -7.87863874 2.38178182 7 13 22021 10.58800000 883066202 883066202 13.00000000
-4.51163387 -5.33501911 -0.12195741 19 14 22022 6.98800000 883066204 883066204 -1.00000000
-6.77486563 -8.01129627 2.81129241 30 15 22022 10.86200000 883066207 883066207 15.00000000
-1.24700296 -1.47041535 -0.51660281 4 0 22030 1.99600000 883066227 883066227 -15.00000000
-4.51612759 -5.32335091 0.12185270 17 1 22031 6.98200000 883066230 883066230 1.00000000
-1.42360568 -1.67747080 -0.50793946 4 2 22032 2.25800000 883066232 883066232 -13.00000000
-4.52669954 -5.33203888 0.36656103 7 3 22033 7.00400000 883066234 883066234 3.00000000
-1.65939927 -1.95462084 -0.49839309 3 4 22033 2.61200000 883066236 883066236 -11.00000000
-1.97984195 -2.33042383 -0.48432112 2 6 22035 3.09600000 883066241 883066241 -9.00000000
-2.44942260 -2.88111687 -0.46432221 1 8 22037 3.81000000 883066246 883066246 -7.00000000
-3.25921321 -3.83227205 -0.44013649 9 10 22038 5.05000000 883066250 883066250 -5.00000000
-4.56686687 -5.36605024 -0.36928251 7 12 22040 7.05600000 883066255 883066255 -3.00000000
-6.70168066 -7.87166405 2.38673067 11 13 22041 10.61000000 883066257 883066257 13.00000000
-6.80919409 -7.99229383 2.81336308 45 15 22043 10.87000000 883066262 883066262 15.00000000
-1.25714660 -1.47192955 -0.51867336 5 0 22050 2.00400000 883066283 883066283 -15.00000000
-1.42818630 -1.67100990 -0.50748956 4 2 22052 2.25600000 883066287 883066287 -13.00000000
-1.66621208 -1.94881654 -0.49839309 3 4 22053 2.61200000 883066292 883066292 -11.00000000
-1.98539615 -2.32049656 -0.48369536 2 6 22055 3.09200000 883066296 883066296 -9.00000000
-2.48012161 -2.89667559 -0.46822202 1 8 22057 3.84200000 883066301 883066301 -7.00000000
-3.27905083 -3.82843804 -0.44100806 9 10 22058 5.06000000 883066306 883066306 -5.00000000
-4.78703356 -5.58512783 -0.38550666 7 12 22060 7.36600000 883066310 883066310 -3.00000000
-6.74687529 -7.86893463 2.39302921 14 13 22061 10.63800000 883066313 883066313 13.00000000
-6.84572172 -7.98140049 2.81750417 47 15 22062 10.88600000 883066317 883066317 15.00000000
-1.25093913 -1.45435083 -0.51401460 4 0 22070 1.98600000 883066338 883066338 -15.00000000
-1.44290960 -1.67635310 -0.51063889 4 2 22072 2.27000000 883066342 883066342 -13.00000000
-1.67044246 -1.94001293 -0.49762985 3 4 22073 2.60800000 883066347 883066347 -11.00000000
-2.00379968 -2.32552409 -0.48619831 2 6 22075 3.10800000 883066352 883066352 -9.00000000
-2.48762512 -2.88499403 -0.46773455 1 8 22077 3.83800000 883066356 883066356 -7.00000000
-3.29109335 -3.81545997 -0.44083375 9 10 22078 5.05800000 883066361 883066361 -5.00000000
-4.81824541 -5.58199120 -0.38644871 3 12 22080 7.38400000 883066365 883066365 -3.00000000
-6.79850006 -7.87335968 2.40157747 15 13 22081 10.67600000 883066368 883066368 13.00000000
-6.87492943 -7.95625639 2.81750417 47 15 22083 10.88600000 883066372 883066372 15.00000000
-1.26005650 -1.45413613 -0.51556754 4 0 22091 1.99200000 883066393 883066393 -15.00000000
-1.45670414 -1.67988718 -0.51333833 4 2 22093 2.28200000 883066398 883066398 -13.00000000
-1.67239594 -1.92794538 -0.49610338 3 4 22094 2.60000000 883066402 883066402 -11.00000000
-2.00712991 -2.31219721 -0.48494685 2 6 22096 3.10000000 883066407 883066407 -9.00000000
-2.49427700 -2.87136102 -0.46700332 1 8 22098 3.83200000 883066412 883066412 -7.00000000
-3.29460049 -3.79134059 -0.43943927 9 10 22099 5.04200000 883066416 883066416 -5.00000000
-4.83998251 -5.56580114 -0.38655338 3 12 22101 7.38600000 883066421 883066421 -3.00000000
-6.85033417 -7.87485456 2.40967560 14 13 22102 10.71200000 883066423 883066423 13.00000000
-6.89505100 -7.92346573 2.81439829 47 15 22103 10.87400000 883066428 883066428 15.00000000
-1.26004386 -1.44390666 -0.51349699 4 0 22111 1.98400000 883066448 883066448 -15.00000000
-1.44974101 -1.66011381 -0.50883931 4 2 22113 2.26200000 883066453 883066453 -13.00000000
-1.68686533 -1.93096709 -0.49839309 3 4 22114 2.61200000 883066458 883066458 -11.00000000
-2.00868821 -2.29774070 -0.48338249 2 6 22116 3.09000000 883066462 883066462 -9.00000000
-2.52519727 -2.88654208 -0.47090313 1 8 22118 3.86400000 883066467 883066467 -7.00000000
-3.31699944 -3.79031253 -0.44065943 9 10 22119 5.05600000 883066471 883066471 -5.00000000
-4.85280228 -5.54135942 -0.38603002 3 12 22121 7.37600000 883066476 883066476 -3.00000000
-6.89961052 -7.87581301 2.41732407 14 13 22122 10.74600000 883066478 883066478 13.00000000
-6.92913961 -7.90395164 2.81646895 47 15 22124 10.88200000 883066483 883066483 15.00000000
-1.27247524 -1.44842815 -0.51660281 6 0 22130 1.99600000 883066504 883066504 -15.00000000
-1.45395148 -1.65383351 -0.50838935 4 2 22132 2.26000000 883066508 883066508 -13.00000000
-1.69844544 -1.93125951 -0.49991956 3 4 22133 2.62000000 883066513 883066513 -11.00000000
-2.00977159 -2.28365278 -0.48181814 2 6 22135 3.08000000 883066518 883066518 -9.00000000
-2.50851583 -2.84835768 -0.46602836 1 8 22137 3.82400000 883066522 883066522 -7.00000000
-3.32823324 -3.77779722 -0.44048512 9 10 22138 5.05400000 883066527 883066527 -5.00000000
-4.87115145 -5.52523661 -0.38603002 3 12 22140 7.37600000 883066531 883066531 -3.00000000
-6.95275831 -7.88358212 2.42677188 13 13 22141 10.78800000 883066534 883066534 13.00000000
-6.95649242 -7.88504171 2.81750417 47 15 22142 10.88600000 883066538 883066538 15.00000000
-1.28136373 -1.44831824 -0.51815575 7 0 22150 2.00200000 883066559 883066559 -15.00000000
-1.45584023 -1.64437103 -0.50703967 4 2 22152 2.25400000 883066564 883066564 -13.00000000
-1.69215989 -1.91062200 -0.49610338 3 4 22153 2.60000000 883066568 883066568 -11.00000000
-2.02821255 -2.28845000 -0.48432112 2 6 22155 3.09600000 883066573 883066573 -9.00000000
-2.52766347 -2.84998012 -0.46773455 1 8 22157 3.83800000 883066577 883066577 -7.00000000
-3.33875537 -3.76317573 -0.44013649 9 10 22158 5.05000000 883066582 883066582 -5.00000000
-4.88112640 -5.49774456 -0.38529730 7 12 22160 7.36200000 883066587 883066587 -3.00000000
-7.00223446 -7.88403416 2.43442035 10 13 22161 10.82200000 883066589 883066589 13.00000000
-6.99432945 -7.86959934 2.82112765 47 15 22163 10.90000000 883066594 883066594 15.00000000
-1.28127098 -1.43806708 -0.51608515 7 0 22170 1.99400000 883066614 883066614 -15.00000000
-1.46546185 -1.64364278 -0.50838935 4 2 22172 2.26000000 883066619 883066619 -13.00000000
-1.70665956 -1.91349459 -0.49839309 3 4 22173 2.61200000 883066624 883066624 -11.00000000
-2.04408050 -2.29019880 -0.48619831 2 6 22175 3.10800000 883066628 883066628 -9.00000000
-2.54156327 -2.84558105 -0.46846575 1 8 22177 3.84400000 883066633 883066633 -7.00000000
-3.35452604 -3.75446987 -0.44048512 9 10 22178 5.05400000 883066637 883066637 -5.00000000
-4.90561199 -5.48662853 -0.38571599 7 12 22180 7.37000000 883066642 883066642 -3.00000000
-7.05439615 -7.88714170 2.44296837 13 13 22181 10.86000000 883066644 883066644 13.00000000
-7.01008224 -7.83484459 2.81698656 47 15 22182 10.88400000 883066649 883066649 15.00000000
-1.28112233 -1.42783415 -0.51401460 6 0 22190 1.98600000 883066670 883066670 -15.00000000
-1.47770000 -1.64576745 -0.51063889 4 2 22192 2.27000000 883066674 883066674 -13.00000000
-1.70545721 -1.89876199 -0.49610338 3 4 22193 2.60000000 883066679 883066679 -11.00000000
-2.04413939 -2.27423477 -0.48432112 2 6 22195 3.09600000 883066683 883066683 -9.00000000
-2.54617071 -2.83078837 -0.46749079 1 8 22197 3.83600000 883066688 883066688 -7.00000000
-3.35961509 -3.73385096 -0.43943927 9 10 22198 5.04200000 883066693 883066693 -5.00000000
-4.92740679 -5.47243977 -0.38592535 3 12 22200 7.37400000 883066697 883066697 -3.00000000
-7.12361908 -7.90880394 2.45736527 12 13 22201 10.92400000 883066700 883066700 13.00000000
-7.03609514 -7.80889177 2.81646895 47 15 22202 10.88200000 883066704 883066704 15.00000000
-1.28998411 -1.42765367 -0.51556754 7 0 22210 1.99200000 883066725 883066725 -15.00000000
-1.47820783 -1.63481748 -0.50883931 4 2 22212 2.26200000 883066730 883066730 -13.00000000
-1.71997654 -1.90153337 -0.49839309 3 4 22213 2.61200000 883066734 883066734 -11.00000000
-2.04676294 -2.26122737 -0.48306963 2 6 22215 3.08800000 883066739 883066739 -9.00000000
-2.57069564 -2.83806729 -0.47017193 1 8 22217 3.85800000 883066743 883066743 -7.00000000
-3.37262821 -3.72210097 -0.43943927 9 10 22218 5.04200000 883066748 883066748 -5.00000000
-4.94647932 -5.45520687 -0.38592535 3 12 22220 7.37400000 883066753 883066753 -3.00000000
-7.19438839 -7.93152237 2.47221208 15 13 22221 10.99000000 883066755 883066755 13.00000000
-7.06331015 -7.78428364 2.81646895 47 15 22222 10.88200000 883066759 883066759 15.00000000
-1.29755998 -1.42599988 -0.51660281 5 0 22230 1.99600000 883066780 883066780 -15.00000000
-1.47603321 -1.62100232 -0.50613987 4 2 22232 2.25000000 883066785 883066785 -13.00000000
-1.72660363 -1.89551795 -0.49839309 3 4 22233 2.61200000 883066789 883066789 -11.00000000
-2.05198216 -2.25114918 -0.48244390 2 6 22235 3.08400000 883066794 883066794 -9.00000000
-2.55784440 -2.80414438 -0.46602836 1 8 22237 3.82400000 883066799 883066799 -7.00000000
-3.38157153 -3.70589042 -0.43891633 9 10 22238 5.03600000 883066803 883066803 -5.00000000
-4.95202398 -5.42315817 -0.38487864 3 12 22240 7.35400000 883066808 883066808 -3.00000000
-7.09700727 -7.76404667 2.81853938 47 15 22243 10.89000000 883066815 883066815 15.00000000
-1.30563712 -1.42385483 -0.51763809 5 0 22252 2.00000000 883066836 883066836 -15.00000000
-1.49015188 -1.62393785 -0.50883931 4 2 22254 2.26200000 883066840 883066840 -13.00000000
-1.71793783 -1.87151861 -0.49381369 3 4 22255 2.58800000 883066845 883066845 -11.00000000
-2.06461978 -2.24761796 -0.48338249 2 6 22257 3.09000000 883066849 883066849 -9.00000000
-2.56321907 -2.78845644 -0.46505341 1 8 22259 3.81600000 883066854 883066854 -7.00000000
-3.41465640 -3.71341109 -0.44135669 9 10 22260 5.06400000 883066859 883066859 -5.00000000
-4.99174452 -5.42467976 -0.38634402 3 12 22262 7.38200000 883066863 883066863 -3.00000000
-7.12672472 -7.73940372 2.81905699 47 15 22264 10.89200000 883066870 883066870 15.00000000
-1.30404639 -1.41219211 -0.51504987 4 0 22272 1.99000000 883066891 883066891 -15.00000000
-1.49581134 -1.61872637 -0.50883931 4 2 22274 2.26200000 883066895 883066895 -13.00000000
-1.73512137 -1.87704372 -0.49686661 3 4 22275 2.60400000 883066900 883066900 -11.00000000
-2.07647705 -2.24474764 -0.48432112 2 6 22277 3.09600000 883066905 883066905 -9.00000000
-2.58911896 -2.79697323 -0.46797827 1 8 22279 3.84000000 883066909 883066909 -7.00000000
-3.41135335 -3.68392658 -0.43926495 9 10 22280 5.04000000 883066914 883066914 -5.00000000
-4.99435949 -5.38964224 -0.38508797 3 12 22282 7.35800000 883066918 883066918 -3.00000000
-7.15369701 -7.71447992 2.81905699 47 15 22284 10.89200000 883066925 883066925 15.00000000
-1.30107462 -1.39914334 -0.51194406 4 0 22292 1.97800000 883066946 883066946 -15.00000000
-1.50676286 -1.61920154 -0.51063889 4 2 22294 2.27000000 883066951 883066951 -13.00000000
-1.73898757 -1.86810160 -0.49610338 3 4 22295 2.60000000 883066955 883066955 -11.00000000
-2.08699298 -2.24037647 -0.48494685 2 6 22297 3.10000000 883066960 883066960 -9.00000000
-2.59074497 -2.77920628 -0.46651584 1 8 22299 3.82800000 883066964 883066964 -7.00000000
-3.42283297 -3.67053914 -0.43909064 9 10 22300 5.03800000 883066969 883066969 -5.00000000
-5.01314211 -5.37217617 -0.38508797 3 12 22302 7.35800000 883066974 883066974 -3.00000000
-7.17398977 -7.68240213 2.81646895 47 15 22304 10.88200000 883066981 883066981 15.00000000
-1.30859160 -1.39741337 -0.51297933 4 0 22312 1.98200000 883067001 883067001 -15.00000000
-1.51240575 -1.61393213 -0.51063889 4 2 22314 2.27000000 883067006 883067006 -13.00000000
-1.75623941 -1.87347865 -0.49915633 3 4 22315 2.61600000 883067011 883067011 -11.00000000
-2.08128572 -2.21867108 -0.48181814 2 6 22317 3.08000000 883067015 883067015 -9.00000000
-2.60043049 -2.77014589 -0.46651584 1 8 22319 3.82800000 883067020 883067020 -7.00000000
-3.44108033 -3.66437840 -0.43978786 9 10 22320 5.04600000 883067024 883067024 -5.00000000
-5.01955462 -5.34154510 -0.38414592 3 12 22322 7.34000000 883067029 883067029 -3.00000000
-7.21136427 -7.66590643 2.82009220 45 15 22325 10.89600000 883067036 883067036 15.00000000
-1.32092464 -1.40173113 -0.51608515 4 0 22330 1.99400000 883067057 883067057 -15.00000000
-1.50944674 -1.60066617 -0.50793946 4 2 22332 2.25800000 883067061 883067061 -13.00000000
-1.76211643 -1.86795199 -0.49915633 3 4 22333 2.61600000 883067066 883067066 -11.00000000
-2.10180569 -2.22648597 -0.48494685 2 6 22335 3.10000000 883067070 883067070 -9.00000000
-2.60366750 -2.75619054 -0.46554089 1 8 22337 3.82000000 883067075 883067075 -7.00000000
-3.45120692 -3.65210176 -0.43961358 9 10 22338 5.04400000 883067080 883067080 -5.00000000
-5.02121544 -5.30978680 -0.38299453 7 12 22340 7.31800000 883067084 883067084 -3.00000000
-7.23142242 -7.64166975 2.81905699 47 15 22342 10.89200000 883067091 883067091 15.00000000
-1.32314992 -1.39430904 -0.51504987 4 0 22350 1.99000000 883067112 883067112 -15.00000000
-1.52039254 -1.60103977 -0.50973910 4 2 22352 2.26600000 883067116 883067116 -13.00000000
-1.76321745 -1.85609615 -0.49762985 3 4 22353 2.60800000 883067121 883067121 -11.00000000
-2.10684276 -2.21627235 -0.48432112 2 6 22355 3.09600000 883067126 883067126 -9.00000000
-2.61874557 -2.75283837 -0.46651584 1 8 22357 3.82800000 883067130 883067130 -7.00000000
-3.46805453 -3.64436245 -0.44013649 9 10 22358 5.05000000 883067135 883067135 -5.00000000
-5.03283262 -5.28499508 -0.38247117 7 12 22360 7.30800000 883067140 883067140 -3.00000000
-7.26604891 -7.62477160 2.82216287 35 15 22362 10.90400000 883067146 883067146 15.00000000
-1.32667422 -1.38828528 -0.51453227 4 0 22370 1.98800000 883067167 883067167 -15.00000000
-1.52058458 -1.59008932 -0.50793946 4 2 22372 2.25800000 883067172 883067172 -13.00000000
-1.77511418 -1.85560465 -0.49915633 3 4 22373 2.61600000 883067176 883067176 -11.00000000
-2.11729813 -2.21175838 -0.48494685 2 6 22375 3.10000000 883067181 883067181 -9.00000000
-2.61597967 -2.73077917 -0.46432221 3 8 22377 3.81000000 883067186 883067186 -7.00000000
-3.46421242 -3.61497235 -0.43804476 6 10 22378 5.02600000 883067190 883067190 -5.00000000
-5.05677986 -5.27316141 -0.38288987 7 12 22380 7.31600000 883067195 883067195 -3.00000000
-7.28458118 -7.58833361 2.81853938 42 15 22383 10.89000000 883067202 883067202 15.00000000
-1.33419132 -1.38642991 -0.51556754 4 0 22390 1.99200000 883067222 883067222 -15.00000000
-1.53153276 -1.59038651 -0.50973910 4 2 22392 2.26600000 883067227 883067227 -13.00000000
-1.77340817 -1.84091365 -0.49686661 3 4 22393 2.60400000 883067232 883067232 -11.00000000
-2.11677980 -2.19582129 -0.48306963 2 6 22395 3.08800000 883067236 883067236 -9.00000000
-2.63652182 -2.73306060 -0.46627212 1 8 22397 3.82600000 883067241 883067241 -7.00000000
-3.47957706 -3.60572529 -0.43839338 6 10 22398 5.03000000 883067246 883067246 -5.00000000
-5.08348036 -5.26409769 -0.38351789 7 12 22400 7.32800000 883067250 883067250 -3.00000000
-7.31236792 -7.56424856 2.81905699 47 15 22403 10.89200000 883067257 883067257 15.00000000
-1.33681512 -1.37852299 -0.51453227 4 0 22412 1.98800000 883067278 883067278 -15.00000000
-1.53627098 -1.58309567 -0.50928921 4 2 22414 2.26400000 883067282 883067282 -13.00000000
-1.78319871 -1.83690798 -0.49762985 3 4 22415 2.60800000 883067287 883067287 -11.00000000
-2.12519550 -2.18767715 -0.48306963 2 6 22417 3.08800000 883067292 883067292 -9.00000000
-2.65529847 -2.73145700 -0.46773455 1 8 22419 3.83800000 883067296 883067296 -7.00000000
-3.50311947 -3.60233665 -0.43961358 3 10 22420 5.04400000 883067301 883067301 -5.00000000
-5.10226250 -5.24310875 -0.38341323 7 12 22422 7.32600000 883067305 883067305 -3.00000000
-7.34675074 -7.54165077 2.82112765 45 15 22425 10.90000000 883067312 883067312 15.00000000
-1.34431839 -1.37661254 -0.51556754 5 0 22432 1.99200000 883067333 883067333 -15.00000000
-1.53906369 -1.57493591 -0.50838935 4 2 22434 2.26000000 883067338 883067338 -13.00000000
-1.79508936 -1.83628786 -0.49915633 3 4 22435 2.61600000 883067342 883067342 -11.00000000
-2.13834453 -2.18589377 -0.48432112 2 6 22437 3.09600000 883067347 883067347 -9.00000000
-2.65231919 -2.70940495 -0.46554089 1 8 22439 3.82000000 883067352 883067352 -7.00000000
-3.51149058 -3.58581614 -0.43909064 3 10 22440 5.03800000 883067356 883067356 -5.00000000
-5.11494160 -5.21956062 -0.38299453 7 12 22442 7.31800000 883067361 883067361 -3.00000000
-7.37032557 -7.51320171 2.82009220 45 15 22445 10.89600000 883067368 883067368 15.00000000
-1.34322035 -1.36687088 -0.51349699 4 0 22450 1.98400000 883067388 883067388 -15.00000000
-1.54263747 -1.56870365 -0.50793946 4 2 22452 2.25800000 883067393 883067393 -13.00000000
-1.78432786 -1.81384444 -0.49457690 3 4 22453 2.59200000 883067398 883067398 -11.00000000
-2.14242959 -2.17634988 -0.48369536 2 6 22455 3.09200000 883067402 883067402 -9.00000000
-2.66639018 -2.70671582 -0.46651584 1 8 22457 3.82800000 883067407 883067407 -7.00000000
-3.53812146 -3.59037709 -0.44100806 3 10 22458 5.06000000 883067411 883067411 -5.00000000
-5.13131428 -5.20346546 -0.38299453 7 12 22460 7.31800000 883067416 883067416 -3.00000000
-7.40072680 -7.49955082 2.82319808 42 15 22462 10.90800000 883067423 883067423 15.00000000
-1.35477769 -1.36903965 -0.51608515 4 0 22470 1.99400000 883067444 883067444 -15.00000000
-1.55358875 -1.56884801 -0.50973910 4 2 22472 2.26600000 883067448 883067448 -13.00000000
-1.79617512 -1.81318402 -0.49610338 3 4 22473 2.60000000 883067453 883067453 -11.00000000
-2.16392040 -2.18288684 -0.48682407 2 6 22475 3.11200000 883067457 883067457 -9.00000000
-2.67861819 -2.70021033 -0.46700332 1 8 22477 3.83200000 883067462 883067462 -7.00000000
-3.52396798 -3.55113459 -0.43769613 6 10 22478 5.02200000 883067467 883067467 -5.00000000
-5.15226078 -5.18835688 -0.38320386 3 12 22480 7.32200000 883067471 883067471 -3.00000000
-7.32017040 -7.36888123 2.39797831 9 13 22481 10.66000000 883067474 883067474 13.00000000
-7.42271662 -7.46689510 2.82112765 45 15 22483 10.90000000 883067478 883067478 15.00000000
-1.35000277 -1.35472345 -0.51246172 4 0 22490 1.98000000 883067499 883067499 -15.00000000
-1.55767953 -1.56203556 -0.50928921 4 2 22492 2.26400000 883067504 883067504 -13.00000000
-1.81081259 -1.81524265 -0.49839309 3 4 22493 2.61200000 883067508 883067508 -11.00000000
-2.16873574 -2.17252421 -0.48619831 2 6 22495 3.10800000 883067513 883067513 -9.00000000
-2.69504213 -2.69786572 -0.46822202 1 8 22497 3.84200000 883067517 883067517 -7.00000000
-3.54620051 -3.54867721 -0.43891633 6 10 22498 5.03600000 883067522 883067522 -5.00000000
-5.17034054 -5.17034054 -0.38320386 3 12 22500 7.32200000 883067527 883067527 -3.00000000
-7.36789894 -7.36532784 2.40517664 13 13 22501 10.69200000 883067529 883067529 13.00000000
-7.44470358 -7.43950796 2.82009220 47 15 22502 10.89600000 883067534 883067534 15.00000000
-1.35609186 -1.35136640 -0.51297933 4 0 22510 1.98200000 883067554 883067554 -15.00000000
-1.56312263 -1.55658865 -0.50928921 4 2 22512 2.26400000 883067559 883067559 -13.00000000
-1.81713796 -1.80891073 -0.49839309 3 4 22513 2.61200000 883067563 883067563 -11.00000000
-2.16790318 -2.15658164 -0.48432112 2 6 22515 3.09600000 883067568 883067568 -9.00000000
-2.70444298 -2.68844199 -0.46822202 1 8 22517 3.84200000 883067573 883067573 -7.00000000
-3.55715299 -3.53487253 -0.43874201 6 10 22518 5.03400000 883067577 883067577 -5.00000000
-5.21103191 -5.17477846 -0.38487864 3 12 22520 7.35400000 883067582 883067582 -3.00000000
-7.42260742 -7.36839533 2.41462469 15 13 22521 10.73400000 883067584 883067584 13.00000000
-7.48426437 -7.42441654 2.82475114 26 15 22523 10.91400000 883067589 883067589 15.00000000
-1.36515594 -1.35046279 -0.51453227 4 0 22531 1.98800000 883067610 883067610 -15.00000000
-1.56327379 -1.54536903 -0.50748956 4 2 22533 2.25600000 883067614 883067614 -13.00000000
-1.82096291 -1.79947853 -0.49762985 3 4 22534 2.60800000 883067619 883067619 -11.00000000
-2.17298174 -2.14584541 -0.48369536 2 6 22536 3.09200000 883067623 883067623 -9.00000000
-2.70156193 -2.66596270 -0.46602836 1 8 22538 3.82400000 883067628 883067628 -7.00000000
-3.57292175 -3.52460957 -0.43909064 6 10 22539 5.03800000 883067633 883067633 -5.00000000
-5.22427416 -5.15003586 -0.38445994 3 12 22541 7.34600000 883067637 883067637 -3.00000000
-7.47038412 -7.36165762 2.42137313 15 13 22542 10.76400000 883067640 883067640 13.00000000
-1.37261784 -1.34839702 -0.51556754 4 0 22551 1.99200000 883067665 883067665 -15.00000000
-1.57700253 -1.54809380 -0.51018900 4 2 22553 2.26800000 883067669 883067669 -13.00000000
-1.82162809 -1.78761077 -0.49610338 3 4 22554 2.60000000 883067674 883067674 -11.00000000
-2.17622781 -2.13409805 -0.48275676 2 6 22556 3.08600000 883067679 883067679 -9.00000000
-2.69950891 -2.64540100 -0.46407846 1 8 22558 3.80800000 883067683 883067683 -7.00000000
-3.57666349 -3.50375080 -0.43804476 6 10 22559 5.02600000 883067688 883067688 -5.00000000
-5.24221897 -5.13176823 -0.38445994 3 12 22561 7.34600000 883067692 883067692 -3.00000000
-7.53085566 -7.36961079 2.43262076 14 13 22562 10.81400000 883067695 883067695 13.00000000
-6.65047073 -6.50353289 2.49242735 2 15 22564 9.63000000 883067699 883067699 15.00000000
-1.37455058 -1.34089947 -0.51453227 4 0 22571 1.98800000 883067720 883067720 -15.00000000
-1.58518755 -1.54530013 -0.51108879 4 2 22573 2.27200000 883067725 883067725 -13.00000000
-1.83066905 -1.78398168 -0.49686661 3 4 22574 2.60400000 883067729 883067729 -11.00000000
-2.20489216 -2.14716077 -0.48744980 2 6 22576 3.11600000 883067734 883067734 -9.00000000
-2.72437572 -2.65119076 -0.46675959 3 8 22578 3.83000000 883067739 883067739 -7.00000000
-3.60029721 -3.50235891 -0.43943927 9 10 22579 5.04200000 883067743 883067743 -5.00000000
-5.25723600 -5.11065388 -0.38425058 3 12 22581 7.34200000 883067748 883067748 -3.00000000
-7.59985876 -7.38537979 2.44656777 15 13 22582 10.87600000 883067750 883067750 13.00000000
-6.70941401 -6.51778793 2.50640368 2 15 22583 9.68400000 883067755 883067755 15.00000000
-1.37089753 -1.32802820 -0.51142645 4 0 22591 1.97600000 883067775 883067775 -15.00000000
-1.58637154 -1.53569114 -0.50973910 4 2 22593 2.26600000 883067780 883067780 -13.00000000
-1.83970678 -1.78031111 -0.49762985 3 4 22594 2.60800000 883067785 883067785 -11.00000000
-2.19533348 -2.12297273 -0.48369536 2 6 22596 3.09200000 883067789 883067789 -9.00000000
-2.74360585 -2.65132093 -0.46846575 1 8 22598 3.84400000 883067794 883067794 -7.00000000
-3.59817123 -3.47592735 -0.43769613 9 10 22599 5.02200000 883067798 883067798 -5.00000000
-5.27791739 -5.09504604 -0.38445994 3 12 22601 7.34600000 883067803 883067803 -3.00000000
-7.57317686 -7.30312109 2.81905699 42 15 22604 10.89200000 883067810 883067810 15.00000000
-1.38132560 -1.32835102 -0.51349699 4 0 22612 1.98400000 883067831 883067831 -15.00000000
-1.59058440 -1.52851617 -0.50928921 4 2 22614 2.26400000 883067835 883067835 -13.00000000
-1.84621954 -1.77355623 -0.49762985 3 4 22615 2.60800000 883067840 883067840 -11.00000000
-2.18457437 -2.09712839 -0.47962806 1 6 22617 3.06600000 883067845 883067845 -9.00000000
-2.75473762 -2.64262152 -0.46870950 1 8 22619 3.84600000 883067849 883067849 -7.00000000
-3.61663890 -3.46823215 -0.43839338 9 10 22620 5.03000000 883067854 883067854 -5.00000000
-5.30809259 -5.08672237 -0.38529730 3 12 22622 7.36200000 883067858 883067858 -3.00000000
-7.59443760 -7.27263260 2.81750417 42 15 22624 10.88600000 883067865 883067865 15.00000000
-1.39154255 -1.32885790 -0.51556754 4 0 22632 1.99200000 883067886 883067886 -15.00000000
-1.58745134 -1.51488256 -0.50658977 4 2 22634 2.25200000 883067891 883067891 -13.00000000
-1.85524035 -1.76981127 -0.49839309 3 4 22635 2.61200000 883067895 883067895 -11.00000000
-2.21618795 -2.11266112 -0.48494685 2 6 22637 3.10000000 883067900 883067900 -9.00000000
-2.75819612 -2.62751269 -0.46773455 1 8 22639 3.83800000 883067904 883067904 -7.00000000
-3.63449454 -3.46108246 -0.43909064 9 10 22640 5.03800000 883067909 883067909 -5.00000000
-5.32002878 -5.06265497 -0.38487864 3 12 22642 7.35400000 883067914 883067914 -3.00000000
-7.63084316 -7.25406599 2.82112765 45 15 22645 10.90000000 883067921 883067921 15.00000000
-1.39313841 -1.32157695 -0.51453227 4 0 22651 1.98800000 883067941 883067941 -15.00000000
-1.59812319 -1.51497281 -0.50838935 4 2 22653 2.26000000 883067946 883067946 -13.00000000
-1.86109900 -1.76364934 -0.49839309 3 4 22654 2.61200000 883067951 883067951 -11.00000000
-2.21457577 -2.09715080 -0.48306963 2 6 22656 3.08800000 883067955 883067955 -9.00000000
-2.76112676 -2.61289406 -0.46675959 1 8 22658 3.83000000 883067960 883067960 -7.00000000
-3.65463638 -3.45722628 -0.44013649 9 10 22659 5.05000000 883067964 883067964 -5.00000000
-5.32227421 -5.03126526 -0.38383189 3 12 22661 7.33400000 883067969 883067969 -3.00000000
-7.84103823 -7.40971851 2.49065804 6 13 22662 11.07200000 883067971 883067971 13.00000000
-1.40055549 -1.31935525 -0.51556754 5 0 22671 1.99200000 883067997 883067997 -15.00000000
-1.60765851 -1.51339221 -0.50973910 4 2 22673 2.26600000 883068001 883068001 -13.00000000
-1.86152494 -1.75176036 -0.49686661 3 4 22674 2.60400000 883068006 883068006 -11.00000000
-2.22188282 -2.08940768 -0.48306963 2 6 22676 3.08800000 883068010 883068010 -9.00000000
-2.76733732 -2.60052109 -0.46627212 1 8 22678 3.82600000 883068015 883068015 -7.00000000
-3.65216041 -3.43080664 -0.43839338 9 10 22679 5.03000000 883068020 883068020 -5.00000000
-5.31650496 -4.99078465 -0.38215715 3 12 22681 7.30200000 883068024 883068024 -3.00000000
-6.81650734 -6.39441299 2.50433302 45 15 22683 9.67600000 883068031 883068031 15.00000000
-1.39645958 -1.30678368 -0.51246172 4 0 22690 1.98000000 883068052 883068052 -15.00000000
-1.61266828 -1.50805271 -0.50973910 4 2 22692 2.26600000 883068057 883068057 -13.00000000
-1.86445534 -1.74289632 -0.49610338 4 4 22693 2.60000000 883068061 883068061 -11.00000000
-2.23457336 -2.08742213 -0.48432112 2 6 22695 3.09600000 883068066 883068066 -9.00000000
-2.78755450 -2.60216665 -0.46822202 1 8 22697 3.84200000 883068070 883068070 -7.00000000
-3.66206074 -3.41731763 -0.43821907 9 10 22698 5.02800000 883068075 883068075 -5.00000000
-5.36223984 -5.00036955 -0.38425058 3 12 22700 7.34200000 883068080 883068080 -3.00000000
-6.81930113 -6.35465240 2.49760389 38 15 22702 9.65000000 883068086 883068086 15.00000000
-1.41091871 -1.31110656 -0.51608515 4 0 22710 1.99400000 883068107 883068107 -15.00000000
-1.61792254 -1.50241435 -0.50973910 4 2 22712 2.26600000 883068112 883068112 -13.00000000
-1.87340558 -1.73904884 -0.49686661 3 4 22713 2.60400000 883068116 883068116 -11.00000000
-2.23894978 -2.07692242 -0.48369536 2 6 22715 3.09200000 883068121 883068121 -9.00000000
-2.79662085 -2.59242058 -0.46822202 1 8 22717 3.84200000 883068126 883068126 -7.00000000
-3.67981267 -3.40993071 -0.43891633 9 10 22718 5.03600000 883068130 883068130 -5.00000000
-5.35914564 -4.96262312 -0.38278517 3 12 22720 7.31400000 883068135 883068135 -3.00000000
-6.85672760 -6.34273386 2.50278020 45 15 22723 9.67000000 883068142 883068142 15.00000000
-1.41406703 -1.30486345 -0.51556754 4 0 22730 1.99200000 883068163 883068163 -15.00000000
-1.61169612 -1.48618913 -0.50613987 4 2 22732 2.25000000 883068167 883068167 -13.00000000
-1.88235164 -1.73516011 -0.49762985 3 4 22733 2.60800000 883068172 883068172 -11.00000000
-2.24037433 -2.06374097 -0.48244390 2 6 22735 3.08400000 883068176 883068176 -9.00000000
-2.78666639 -2.56516528 -0.46505341 3 8 22737 3.81600000 883068181 883068181 -7.00000000
-3.68729472 -3.39301753 -0.43839338 9 10 22738 5.03000000 883068186 883068186 -5.00000000
-5.35879374 -4.92766333 -0.38152912 3 12 22740 7.29000000 883068190 883068190 -3.00000000
