# .PCD v0.7 - Point Cloud Data file format
VERSION 0.7
FIELDS x y z intensity laser_id azimuth distance_m adjustedtime timestamp vertical_angle
SIZE 4 4 4 1 1 2 8 8 4 8
TYPE F F F U U U F U U F
COUNT 1 1 1 1 1 1 1 1 1 1
WIDTH 526
HEIGHT 1
VIEWPOINT 0 0 0 1 0 0 0
POINTS 526
DATA ascii
3.54146576 -7.77823114 2.29003096 36 15 15552 8.84800000 1297047155 1297047155 15.00000000
0.84274763 -1.85782683 -0.54662585 4 0 15560 2.11200000 1297047176 1297047176 -15.00000000
0.97977585 -2.16190934 -0.54798079 3 2 15562 2.43600000 1297047180 1297047180 -13.00000000
1.15276206 -2.54479074 -0.54304242 3 4 15563 2.84600000 1297047185 1297047185 -11.00000000
1.39518142 -3.08280849 -0.53594446 3 6 15565 3.42600000 1297047190 1297047190 -9.00000000
2.49768686 -5.52404976 -0.74437797 9 8 15567 6.10800000 1297047194 1297047194 -7.00000000
2.58467150 -5.71908951 -0.54908121 11 10 15568 6.30000000 1297047199 1297047199 -5.00000000
2.48789358 -5.51007366 -0.31684187 35 12 15570 6.05400000 1297047204 1297047204 -3.00000000
4.36163902 -9.66445732 2.44791746 45 13 15571 10.88200000 1297047206 1297047206 13.00000000
2.48818040 -5.51584148 -0.10562196 33 14 15572 6.05200000 1297047208 1297047208 -1.00000000
3.51667619 -7.79582882 2.29158378 33 15 15572 8.85400000 1297047210 1297047210 15.00000000
0.83798176 -1.86633611 -0.54817873 4 0 15582 2.11800000 1297047231 1297047231 -15.00000000
0.96827710 -2.15854335 -0.54618114 3 2 15584 2.42800000 1297047236 1297047236 -13.00000000
1.14298236 -2.54919839 -0.54304242 3 4 15585 2.84600000 1297047240 1297047240 -11.00000000
1.38979447 -3.10256505 -0.53844744 3 6 15587 3.44200000 1297047245 1297047245 -9.00000000
2.47159243 -5.52272797 -0.74291551 9 8 15589 6.09600000 1297047250 1297047250 -7.00000000
2.56187916 -5.72715282 -0.54890686 11 10 15590 6.29800000 1297047254 1297047254 -5.00000000
2.46508837 -5.51593876 -0.31663254 35 12 15592 6.05000000 1297047259 1297047259 -3.00000000
4.32767725 -9.68825054 2.44971704 50 13 15593 10.89000000 1297047261 1297047261 13.00000000
2.46698284 -5.52535486 -0.10562196 31 14 15594 6.05200000 1297047263 1297047263 -1.00000000
3.48692799 -7.81341124 2.29261899 33 15 15595 8.85800000 1297047266 1297047266 15.00000000
0.83460253 -1.87631035 -0.55024928 4 0 15602 2.12600000 1297047286 1297047286 -15.00000000
0.95598823 -2.15122533 -0.54348177 3 2 15604 2.41600000 1297047291 1297047291 -13.00000000
1.13248301 -2.54958415 -0.54227918 3 4 15605 2.84200000 1297047296 1297047296 -11.00000000
1.37494969 -3.09836960 -0.53688306 1 6 15607 3.43200000 1297047300 1297047300 -9.00000000
2.44827676 -5.52224779 -0.74169683 9 8 15609 6.08600000 1297047305 1297047305 -7.00000000
2.54510093 -5.74334669 -0.54960412 11 10 15610 6.30600000 1297047310 1297047310 -5.00000000
2.44581914 -5.52451038 -0.31663254 35 12 15612 6.05000000 1297047314 1297047314 -3.00000000
4.29304409 -9.70151615 2.44926715 51 13 15613 10.88800000 1297047316 1297047316 13.00000000
2.44282722 -5.52295971 -0.10541254 33 14 15614 6.04000000 1297047319 1297047319 -1.00000000
3.46431971 -7.83613634 2.29572487 31 15 15615 8.87000000 1297047321 1297047321 15.00000000
0.82181609 -1.86506951 -0.54610819 4 0 15622 2.11000000 1297047342 1297047342 -15.00000000
0.95318419 -2.16525054 -0.54618114 3 2 15624 2.42800000 1297047346 1297047346 -13.00000000
1.11566949 -2.53555179 -0.53846300 3 4 15625 2.82200000 1297047351 1297047351 -11.00000000
1.36571586 -3.10676694 -0.53750885 3 6 15627 3.43600000 1297047356 1297047356 -9.00000000
2.42499447 -5.52167273 -0.74047816 9 8 15629 6.07600000 1297047360 1297047360 -7.00000000
2.52343583 -5.74854708 -0.54925549 7 10 15630 6.30200000 1297047365 1297047365 -5.00000000
2.42571807 -5.53118467 -0.31652787 39 12 15632 6.04800000 1297047369 1297047369 -3.00000000
4.26384735 -9.72715092 2.45196652 53 13 15633 10.90000000 1297047372 1297047372 13.00000000
2.42032385 -5.52412653 -0.10527292 33 14 15634 6.03200000 1297047374 1297047374 -1.00000000
3.43539548 -7.84464216 2.29468966 33 15 15635 8.86600000 1297047376 1297047376 15.00000000
0.81220961 -1.86084461 -0.54403764 4 0 15642 2.10200000 1297047397 1297047397 -15.00000000
0.94717807 -2.17213726 -0.54708099 3 2 15644 2.43200000 1297047402 1297047402 -13.00000000
1.10838079 -2.54303026 -0.53922623 3 4 15645 2.82600000 1297047406 1297047406 -11.00000000
1.35407436 -3.10970402 -0.53719598 1 6 15647 3.43400000 1297047411 1297047411 -9.00000000
2.41124845 -5.54284620 -0.74218428 9 8 15649 6.09000000 1297047416 1297047416 -7.00000000
2.49302626 -5.73356771 -0.54698944 7 10 15650 6.27600000 1297047420 1297047420 -5.00000000
2.40878296 -5.54511404 -0.31684187 35 12 15652 6.05400000 1297047425 1297047425 -3.00000000
4.25858402 -9.80811310 2.46861291 52 13 15653 10.97400000 1297047427 1297047427 13.00000000
2.40102625 -5.53254128 -0.10527292 29 14 15654 6.03200000 1297047429 1297047429 -1.00000000
3.40568519 -7.85126925 2.29313684 36 15 15655 8.86000000 1297047432 1297047432 15.00000000
0.80942851 -1.87047887 -0.54610819 4 0 15660 2.11000000 1297047452 1297047452 -15.00000000
0.93725622 -2.16794729 -0.54528135 3 2 15662 2.42400000 1297047457 1297047457 -13.00000000
1.10194373 -2.55010414 -0.53998947 3 4 15663 2.83000000 1297047462 1297047462 -11.00000000
1.33803475 -3.09943390 -0.53469300 1 6 15665 3.41800000 1297047466 1297047466 -9.00000000
2.38989258 -5.54127979 -0.74096560 6 8 15667 6.08000000 1297047471 1297047471 -7.00000000
2.46790290 -5.72490501 -0.54542065 7 10 15668 6.25800000 1297047475 1297047475 -5.00000000
2.38424063 -5.53614473 -0.31589982 16 12 15670 6.03600000 1297047480 1297047480 -3.00000000
4.23776674 -9.84471321 2.47446156 51 13 15671 11.00000000 1297047482 1297047482 13.00000000
3.38619280 -7.87021255 2.29572487 33 15 15672 8.87000000 1297047487 1297047487 15.00000000
0.80289435 -1.87329292 -0.54610819 4 0 15680 2.11000000 1297047508 1297047508 -15.00000000
0.93121707 -2.17478848 -0.54618114 3 2 15682 2.42800000 1297047512 1297047512 -13.00000000
1.09303546 -2.55393505 -0.53998947 3 4 15683 2.83000000 1297047517 1297047517 -11.00000000
1.33497357 -3.12224889 -0.53782171 1 6 15685 3.43800000 1297047521 1297047521 -9.00000000
1.73735285 -4.06726408 -0.54304981 2 8 15687 4.45600000 1297047526 1297047526 -7.00000000
2.45259809 -5.74447870 -0.54646653 7 10 15688 6.27000000 1297047531 1297047531 -5.00000000
4.20566893 -9.86482334 2.47581124 37 13 15691 11.00600000 1297047538 1297047538 13.00000000
3.36035228 -7.88967991 2.29779553 31 15 15693 8.87800000 1297047542 1297047542 15.00000000
0.80012465 -1.88497555 -0.54869640 4 0 15700 2.12000000 1297047563 1297047563 -15.00000000
0.92209834 -2.17443752 -0.54528135 3 2 15702 2.42400000 1297047568 1297047568 -13.00000000
1.32714772 -3.13416576 -0.53907317 1 6 15705 3.44600000 1297047577 1297047577 -9.00000000
1.70922351 -4.04039574 -0.53866249 2 8 15707 4.42000000 1297047581 1297047581 -7.00000000
2.43253136 -5.75300503 -0.54646653 7 10 15708 6.27000000 1297047586 1297047586 -5.00000000
3.86025977 -9.13851452 -0.51990539 8 12 15710 9.93400000 1297047591 1297047591 -3.00000000
4.17727280 -9.89380646 2.47941041 44 13 15711 11.02200000 1297047593 1297047593 13.00000000
3.33492184 -7.90255976 2.29831314 31 15 15712 8.88000000 1297047598 1297047598 15.00000000
0.78979689 -1.87885249 -0.54610819 4 0 15720 2.11000000 1297047618 1297047618 -15.00000000
0.91752070 -2.18482995 -0.54708099 4 2 15722 2.43200000 1297047623 1297047623 -13.00000000
1.30779648 -3.11874056 -0.53563160 1 6 15725 3.42400000 1297047632 1297047632 -9.00000000
1.68743932 -4.02802801 -0.53622514 2 8 15727 4.40000000 1297047637 1297047637 -7.00000000
2.40935659 -5.75410986 -0.54576927 7 10 15728 6.26200000 1297047641 1297047641 -5.00000000
3.82756615 -9.15009117 -0.51980072 4 12 15730 9.93200000 1297047646 1297047646 -3.00000000
4.15774584 -9.94428539 2.48840857 47 13 15731 11.06200000 1297047648 1297047648 13.00000000
3.30816889 -7.92007780 2.29986596 31 15 15733 8.88600000 1297047653 1297047653 15.00000000
0.78142107 -1.87816739 -0.54507291 4 0 15741 2.10600000 1297047674 1297047674 -15.00000000
0.90801084 -2.18457913 -0.54618114 3 2 15743 2.42800000 1297047678 1297047678 -13.00000000
1.06728995 -2.56905317 -0.54075271 3 4 15744 2.83400000 1297047683 1297047683 -11.00000000
1.30241466 -3.13810897 -0.53813457 1 6 15746 3.44000000 1297047687 1297047687 -9.00000000
1.68482935 -4.06352520 -0.54012495 2 8 15748 4.43200000 1297047692 1297047692 -7.00000000
2.38672495 -5.75922060 -0.54542065 7 10 15749 6.25800000 1297047697 1297047697 -5.00000000
3.79247570 -9.16036797 -0.51959139 4 12 15751 9.92800000 1297047701 1297047701 -3.00000000
4.13170195 -9.98466682 2.49470711 47 13 15752 11.09000000 1297047704 1297047704 13.00000000
3.27754903 -7.92443657 2.29779553 33 15 15753 8.87800000 1297047708 1297047708 15.00000000
0.77486026 -1.88088357 -0.54507291 4 0 15761 2.10600000 1297047729 1297047729 -15.00000000
0.89889634 -2.18413138 -0.54528135 3 2 15763 2.42400000 1297047733 1297047733 -13.00000000
1.28544593 -3.12801909 -0.53563160 1 6 15766 3.42400000 1297047743 1297047743 -9.00000000
1.67063475 -4.06938171 -0.54012495 2 8 15768 4.43200000 1297047747 1297047747 -7.00000000
2.36509442 -5.76383018 -0.54507202 7 10 15769 6.25400000 1297047752 1297047752 -5.00000000
3.74759841 -9.14213371 -0.51781195 4 12 15771 9.89400000 1297047756 1297047756 -3.00000000
4.11012268 -10.03148746 2.50280547 42 13 15772 11.12600000 1297047759 1297047759 13.00000000
3.25140977 -7.94354773 2.29986596 31 15 15774 8.88600000 1297047763 1297047763 15.00000000
0.77007860 -1.88702011 -0.54610819 4 0 15780 2.11000000 1297047784 1297047784 -15.00000000
0.89017719 -2.18349099 -0.54438156 3 2 15782 2.42000000 1297047789 1297047789 -13.00000000
1.04977834 -2.57625842 -0.54075271 3 4 15783 2.83400000 1297047793 1297047793 -11.00000000
1.27357638 -3.12860537 -0.53500587 1 6 15785 3.42000000 1297047798 1297047798 -9.00000000
1.64217496 -4.03812218 -0.53525013 2 8 15787 4.39200000 1297047803 1297047803 -7.00000000
2.34446740 -5.76795006 -0.54472339 7 10 15788 6.25000000 1297047807 1297047807 -5.00000000
3.70674157 -9.12860394 -0.51634657 8 12 15790 9.86600000 1297047812 1297047812 -3.00000000
3.22934294 -7.96088362 2.30193663 31 15 15792 8.89400000 1297047819 1297047819 15.00000000
0.76493436 -1.89327908 -0.54714346 4 0 15800 2.11400000 1297047839 1297047839 -15.00000000
0.88255000 -2.18658495 -0.54438156 3 2 15802 2.42000000 1297047844 1297047844 -13.00000000
1.03637218 -2.56898308 -0.53846300 3 4 15803 2.82200000 1297047849 1297047849 -11.00000000
1.26707816 -3.14402509 -0.53688306 1 6 15805 3.43200000 1297047853 1297047853 -9.00000000
1.63844860 -4.06961060 -0.53866249 2 8 15807 4.42000000 1297047858 1297047858 -7.00000000
2.32729435 -5.78349209 -0.54542065 7 10 15808 6.25800000 1297047862 1297047862 -5.00000000
3.67187452 -9.13407421 -0.51592785 4 12 15810 9.85800000 1297047867 1297047867 -3.00000000
3.20014334 -7.97266626 2.30193663 6 15 15813 8.89400000 1297047874 1297047874 15.00000000
0.75793409 -1.89401162 -0.54662585 4 0 15819 2.11200000 1297047895 1297047895 -15.00000000
0.87674093 -2.19311881 -0.54528135 3 2 15821 2.42400000 1297047899 1297047899 -13.00000000
1.02639055 -2.56875944 -0.53769976 3 4 15822 2.81800000 1297047904 1297047904 -11.00000000
1.25810981 -3.15187883 -0.53750885 3 6 15824 3.43600000 1297047909 1297047909 -9.00000000
1.61465049 -4.04920673 -0.53525013 2 8 15826 4.39200000 1297047913 1297047913 -7.00000000
2.30220151 -5.77637148 -0.54402614 7 10 15827 6.24200000 1297047918 1297047918 -5.00000000
3.64378095 -9.15176773 -0.51624185 4 12 15829 9.86400000 1297047922 1297047922 -3.00000000
0.77674252 -1.95186770 0.48499447 7 13 15830 2.15600000 1297047925 1297047925 13.00000000
0.75060666 -1.89484978 -0.54610819 4 0 15839 2.11000000 1297047950 1297047950 -15.00000000
0.87338257 -2.20703793 -0.54798079 3 2 15841 2.43600000 1297047955 1297047955 -13.00000000
1.01886177 -2.57597780 -0.53846300 3 4 15842 2.82200000 1297047959 1297047959 -11.00000000
1.24056697 -3.13971663 -0.53469300 3 6 15844 3.41800000 1297047964 1297047964 -9.00000000
0.78456569 -1.98665011 0.26226282 1 7 15845 2.15200000 1297047966 1297047966 7.00000000
2.27325010 -5.76213217 -0.54193443 7 10 15847 6.21800000 1297047973 1297047973 -5.00000000
3.60741925 -9.15328217 -0.51561385 8 12 15849 9.85200000 1297047978 1297047978 -3.00000000
0.76257563 -1.93789446 0.55801386 1 15 15852 2.15600000 1297047985 1297047985 15.00000000
0.74257743 -1.89386117 -0.54507291 4 0 15859 2.10600000 1297048005 1297048005 -15.00000000
0.85998738 -2.19555688 -0.54438156 3 2 15861 2.42000000 1297048010 1297048010 -13.00000000
1.01272655 -2.58683133 -0.53998947 3 4 15862 2.83000000 1297048015 1297048015 -11.00000000
1.23031926 -3.14586759 -0.53500587 3 6 15864 3.42000000 1297048019 1297048019 -9.00000000
0.74365926 -1.90248013 0.25080711 4 7 15865 2.05800000 1297048021 1297048021 7.00000000
1.59212160 -4.07517242 -0.53720009 2 8 15866 4.40800000 1297048024 1297048024 -7.00000000
0.75047177 -1.92089713 0.32663515 3 9 15866 2.08800000 1297048026 1297048026 9.00000000
2.25167322 -5.76632023 -0.54158580 7 10 15867 6.21400000 1297048028 1297048028 -5.00000000
0.77303785 -1.98069632 0.41329229 1 11 15868 2.16600000 1297048031 1297048031 11.00000000
3.56310725 -9.13418674 -0.51383442 8 12 15869 9.81800000 1297048033 1297048033 -3.00000000
0.76097339 -1.95179594 0.48364475 46 13 15870 2.15000000 1297048035 1297048035 13.00000000
0.75895089 -1.94761264 0.56008440 12 15 15871 2.16400000 1297048040 1297048040 15.00000000
0.73735994 -1.90004373 -0.54610819 4 0 15879 2.11000000 1297048061 1297048061 -15.00000000
0.85090941 -2.19491148 -0.54348177 3 2 15881 2.41600000 1297048065 1297048065 -13.00000000
1.00510931 -2.59401178 -0.54075271 3 4 15882 2.83400000 1297048070 1297048070 -11.00000000
1.21576536 -3.14093208 -0.53344154 1 6 15884 3.41000000 1297048074 1297048074 -9.00000000
0.73200011 -1.89210474 0.24910094 19 7 15885 2.04400000 1297048077 1297048077 7.00000000
1.57359135 -4.06959581 -0.53573763 2 8 15886 4.39600000 1297048079 1297048079 -7.00000000
0.74304962 -1.92166257 0.32632229 14 9 15886 2.08600000 1297048081 1297048081 9.00000000
2.23871350 -5.79272938 -0.54332888 7 10 15887 6.23400000 1297048084 1297048084 -5.00000000
0.74560446 -1.93027270 0.40222538 7 11 15888 2.10800000 1297048086 1297048086 11.00000000
3.52976251 -9.14284229 -0.51362509 8 12 15889 9.81400000 1297048088 1297048088 -3.00000000
0.74573725 -1.93262327 0.47824594 46 13 15890 2.12600000 1297048091 1297048091 13.00000000
0.74936724 -1.94304025 0.55801386 25 15 15891 2.15600000 1297048095 1297048095 15.00000000
0.73141569 -1.90440941 -0.54662585 4 0 15899 2.11200000 1297048116 1297048116 -15.00000000
0.84045035 -2.19059062 -0.54168212 3 2 15901 2.40800000 1297048121 1297048121 -13.00000000
0.99183089 -2.58650589 -0.53846300 3 4 15902 2.82200000 1297048125 1297048125 -11.00000000
1.20762050 -3.15253544 -0.53469300 1 6 15904 3.41800000 1297048130 1297048130 -9.00000000
0.72468120 -1.89279461 0.24885720 29 7 15905 2.04200000 1297048132 1297048132 7.00000000
0.73106176 -1.91145778 0.32413220 27 9 15907 2.07200000 1297048137 1297048137 9.00000000
2.21278572 -5.78562117 -0.54193443 7 10 15907 6.21800000 1297048139 1297048139 -5.00000000
0.73535699 -1.92369437 0.40031728 16 11 15908 2.09800000 1297048141 1297048141 11.00000000
3.48855996 -9.13085270 -0.51226431 8 12 15909 9.78800000 1297048144 1297048144 -3.00000000
0.73272991 -1.91882992 0.47419682 55 13 15910 2.10800000 1297048146 1297048146 13.00000000
0.74395788 -1.94925392 0.55904913 50 15 15911 2.16000000 1297048150 1297048150 15.00000000
0.72133195 -1.89792180 -0.54403764 4 0 15919 2.10200000 1297048171 1297048171 -15.00000000
0.83833218 -2.20808601 -0.54528135 3 2 15921 2.42400000 1297048176 1297048176 -13.00000000
0.98001015 -2.58261013 -0.53693652 3 4 15922 2.81400000 1297048180 1297048180 -11.00000000
0.72349292 -1.90761673 0.17849496 3 5 15923 2.04800000 1297048183 1297048183 5.00000000
1.20361054 -3.17520285 -0.53782171 1 6 15924 3.43800000 1297048185 1297048185 -9.00000000
0.71736640 -1.89345634 0.24861346 49 7 15925 2.04000000 1297048187 1297048187 7.00000000
1.54233027 -4.07305670 -0.53476268 2 8 15926 4.38800000 1297048190 1297048190 -7.00000000
0.72088903 -1.90476060 0.32256788 45 9 15927 2.06200000 1297048192 1297048192 9.00000000
2.19187140 -5.79144669 -0.54176009 3 10 15927 6.21600000 1297048194 1297048194 -5.00000000
0.72933215 -1.92808580 0.40069890 32 11 15928 2.10000000 1297048197 1297048197 11.00000000
3.45172191 -9.12989712 -0.51153165 4 12 15929 9.77400000 1297048199 1297048199 -3.00000000
0.72396100 -1.91590714 0.47284710 59 13 15930 2.10200000 1297048201 1297048201 13.00000000
0.73066843 -1.93570113 0.55439037 58 15 15932 2.14200000 1297048206 1297048206 15.00000000
0.71334255 -1.89681172 -0.54300237 4 0 15939 2.09800000 1297048227 1297048227 -15.00000000
0.83336073 -2.21829581 -0.54708099 3 2 15941 2.43200000 1297048231 1297048231 -13.00000000
0.97374964 -2.59336710 -0.53846300 3 4 15942 2.82200000 1297048236 1297048236 -11.00000000
0.71682966 -1.91013062 0.17849496 11 5 15943 2.04800000 1297048238 1297048238 5.00000000
1.18003261 -3.14609289 -0.53219002 1 6 15944 3.40200000 1297048240 1297048240 -9.00000000
0.71284312 -1.90152514 0.24934468 52 7 15945 2.04600000 1297048243 1297048243 7.00000000
1.52253127 -4.06354427 -0.53281277 2 8 15946 4.37200000 1297048245 1297048245 -7.00000000
0.71146470 -1.89986575 0.32131639 42 9 15947 2.05400000 1297048247 1297048247 9.00000000
2.16675091 -5.78600121 -0.54053992 7 10 15947 6.20200000 1297048250 1297048250 -5.00000000
0.71984470 -1.92326522 0.39917243 41 11 15948 2.09200000 1297048252 1297048252 11.00000000
3.41143417 -9.11944294 -0.51027560 4 12 15949 9.75000000 1297048254 1297048254 -3.00000000
0.71863371 -1.92207325 0.47374693 56 13 15950 2.10600000 1297048256 1297048256 13.00000000
0.71883553 -1.92363644 0.55024928 57 15 15951 2.12600000 1297048261 1297048261 15.00000000
0.70806450 -1.90291142 -0.54403764 4 0 15959 2.10200000 1297048282 1297048282 -15.00000000
0.81882280 -2.20292497 -0.54258192 3 2 15961 2.41200000 1297048286 1297048286 -13.00000000
0.96264005 -2.59122920 -0.53731811 3 4 15962 2.81600000 1297048291 1297048291 -11.00000000
0.70114201 -1.88833976 0.17622891 22 5 15963 2.02200000 1297048293 1297048293 5.00000000
1.17247975 -3.15945268 -0.53375441 1 6 15964 3.41200000 1297048296 1297048296 -9.00000000
0.70205927 -1.89283466 0.24788225 33 7 15965 2.03400000 1297048298 1297048298 7.00000000
0.70620120 -1.90604222 0.32194212 37 9 15967 2.05800000 1297048303 1297048303 9.00000000
2.13961864 -5.77484655 -0.53879678 7 10 15967 6.18200000 1297048305 1297048305 -5.00000000
0.71108156 -1.92024302 0.39802757 44 11 15968 2.08600000 1297048307 1297048307 11.00000000
3.37056828 -9.10694504 -0.50891483 8 12 15969 9.72400000 1297048309 1297048309 -3.00000000
0.71462440 -1.93188083 0.47554654 63 13 15970 2.11400000 1297048312 1297048312 13.00000000
0.71479607 -1.93338180 0.55231982 59 15 15971 2.13400000 1297048316 1297048316 15.00000000
0.70241934 -1.90911984 -0.54507291 4 0 15980 2.10600000 1297048337 1297048337 -15.00000000
0.80939865 -2.20225310 -0.54168212 3 2 15982 2.40800000 1297048342 1297048342 -13.00000000
0.95652097 -2.60395432 -0.53922623 3 4 15983 2.82600000 1297048346 1297048346 -11.00000000
0.69764954 -1.90024853 0.17710046 37 5 15984 2.03200000 1297048349 1297048349 5.00000000
1.16157246 -3.16558337 -0.53406727 1 6 15985 3.41400000 1297048351 1297048351 -9.00000000
0.69511694 -1.89539516 0.24788225 16 7 15986 2.03400000 1297048353 1297048353 7.00000000
0.70362258 -1.91962397 0.32381934 35 9 15987 2.07000000 1297048358 1297048358 9.00000000
2.12323594 -5.79574537 -0.54001701 7 10 15988 6.19600000 1297048360 1297048360 -5.00000000
0.70741379 -1.93205416 0.39993566 48 11 15989 2.09600000 1297048362 1297048362 11.00000000
3.33716702 -9.11923790 -0.50891483 4 12 15990 9.72400000 1297048365 1297048365 -3.00000000
0.70553076 -1.92899656 0.47419682 67 13 15991 2.10800000 1297048367 1297048367 13.00000000
0.70770508 -1.93598866 0.55231982 65 15 15992 2.13400000 1297048372 1297048372 15.00000000
0.69971538 -1.92245221 -0.54817873 4 0 16000 2.11800000 1297048392 1297048392 -15.00000000
0.80436993 -2.21239066 -0.54348177 3 2 16002 2.41600000 1297048397 1297048397 -13.00000000
0.94072062 -2.58882546 -0.53541005 3 4 16003 2.80600000 1297048402 1297048402 -11.00000000
0.67944992 -1.87083614 0.17413718 20 5 16004 1.99800000 1297048404 1297048404 5.00000000
1.14647138 -3.15847754 -0.53219002 1 6 16005 3.40200000 1297048406 1297048406 -9.00000000
0.68714261 -1.89407790 0.24739477 13 7 16006 2.03000000 1297048408 1297048408 7.00000000
1.48459661 -4.09445286 -0.53476268 2 8 16007 4.38800000 1297048411 1297048411 -7.00000000
0.69658208 -1.92219007 0.32381934 33 9 16008 2.07000000 1297048413 1297048413 9.00000000
2.10095572 -5.79750204 -0.53949404 7 10 16008 6.19000000 1297048415 1297048415 -5.00000000
0.70333964 -1.94189537 0.40146214 50 11 16009 2.10400000 1297048418 1297048418 11.00000000
3.29307795 -9.09702682 -0.50703073 4 12 16010 9.68800000 1297048420 1297048420 -3.00000000
0.69746703 -1.92778254 0.47329703 73 13 16011 2.10400000 1297048422 1297048422 13.00000000
0.69797814 -1.93130219 0.55024928 65 15 16013 2.12600000 1297048427 1297048427 15.00000000
0.68940818 -1.91385674 -0.54507291 3 0 16019 2.10600000 1297048448 1297048448 -15.00000000
0.79702890 -2.21504593 -0.54348177 3 2 16021 2.41600000 1297048452 1297048452 -13.00000000
0.93478811 -2.59932041 -0.53693652 3 4 16022 2.81400000 1297048457 1297048457 -11.00000000
1.13866258 -3.16969848 -0.53344154 1 6 16024 3.41000000 1297048461 1297048461 -9.00000000
0.67683303 -1.88513613 0.24593234 37 7 16025 2.01800000 1297048464 1297048464 7.00000000
1.46162415 -4.07319546 -0.53135031 2 8 16026 4.36000000 1297048466 1297048466 -7.00000000
2.07028461 -5.77255487 -0.53653073 3 10 16027 6.15600000 1297048471 1297048471 -5.00000000
0.70352072 -1.96269822 0.40527830 42 11 16028 2.12400000 1297048473 1297048473 11.00000000
3.26289296 -9.10789776 -0.50703073 4 12 16029 9.68800000 1297048475 1297048475 -3.00000000
0.69107044 -1.93008482 0.47329703 71 13 16030 2.10400000 1297048478 1297048478 13.00000000
0.68995464 -1.92802882 0.54869640 71 15 16031 2.12000000 1297048482 1297048482 15.00000000
0.67883325 -1.90533280 -0.54196709 2 0 16039 2.09400000 1297048503 1297048503 -15.00000000
0.79059887 -2.22148657 -0.54438156 3 2 16041 2.42000000 1297048507 1297048507 -13.00000000
0.92570907 -2.60256743 -0.53693652 3 4 16042 2.81400000 1297048512 1297048512 -11.00000000
0.68471885 -1.92610466 0.17884359 4 5 16043 2.05200000 1297048514 1297048514 5.00000000
1.11899388 -3.14945579 -0.52937424 1 6 16044 3.38400000 1297048517 1297048517 -9.00000000
0.66892004 -1.88374591 0.24544486 31 7 16045 2.01400000 1297048519 1297048519 7.00000000
1.45802021 -4.10820484 -0.53525013 2 8 16046 4.39200000 1297048521 1297048521 -7.00000000
0.69999135 -1.97343016 0.33164108 6 9 16047 2.12000000 1297048524 1297048524 9.00000000
2.05278611 -5.78725767 -0.53722799 3 10 16047 6.16400000 1297048526 1297048526 -5.00000000
0.69732136 -1.96699238 0.40565991 24 11 16048 2.12600000 1297048528 1297048528 11.00000000
3.22907948 -9.11358356 -0.50671673 8 12 16049 9.68200000 1297048531 1297048531 -3.00000000
0.68562996 -1.93615937 0.47419682 63 13 16050 2.10800000 1297048533 1297048533 13.00000000
0.68515396 -1.93588889 0.55024928 65 15 16051 2.12600000 1297048537 1297048537 15.00000000
0.78283966 -2.22423267 -0.54438156 3 2 16061 2.42000000 1297048563 1297048563 -13.00000000
0.91661876 -2.60578299 -0.53693652 3 4 16062 2.81400000 1297048567 1297048567 -11.00000000
1.10930312 -3.15706992 -0.52999997 3 6 16064 3.38800000 1297048572 1297048572 -9.00000000
0.66628689 -1.89730716 0.24690729 16 7 16065 2.02600000 1297048574 1297048574 7.00000000
1.43972659 -4.10203075 -0.53378773 2 8 16066 4.38000000 1297048577 1297048577 -7.00000000
0.69213498 -1.97201264 0.33101532 18 9 16066 2.11600000 1297048579 1297048579 9.00000000
2.03455091 -5.80002832 -0.53775096 3 10 16067 6.17000000 1297048581 1297048581 -5.00000000
0.68005854 -1.93977141 0.39955404 31 11 16068 2.09400000 1297048584 1297048584 11.00000000
3.19196391 -9.10972023 -0.50587934 8 12 16069 9.66600000 1297048586 1297048586 -3.00000000
0.68015552 -1.94221926 0.47509661 40 13 16070 2.11200000 1297048588 1297048588 13.00000000
0.68251908 -1.95115161 0.55387276 67 15 16072 2.14000000 1297048593 1297048593 15.00000000
0.41952237 -1.20402753 -0.34164113 2 0 16079 1.32000000 1297048613 1297048613 -15.00000000
0.77250862 -2.21958995 -0.54258192 3 2 16081 2.41200000 1297048618 1297048618 -13.00000000
0.90687233 -2.60711241 -0.53655487 3 4 16082 2.81200000 1297048623 1297048623 -11.00000000
1.09957278 -3.16465473 -0.53062570 1 6 16084 3.39200000 1297048627 1297048627 -9.00000000
1.42604995 -4.10890675 -0.53403145 2 8 16086 4.38200000 1297048632 1297048632 -7.00000000
0.68101841 -1.96333849 0.32913810 30 9 16087 2.10400000 1297048634 1297048634 9.00000000
2.00645757 -5.78450632 -0.53565919 3 10 16087 6.14600000 1297048637 1297048637 -5.00000000
0.65977907 -1.90317941 0.39154005 37 11 16088 2.05200000 1297048639 1297048639 11.00000000
3.15099144 -9.09438610 -0.50441396 8 12 16089 9.63800000 1297048641 1297048641 -3.00000000
0.65806788 -1.90038657 0.46429896 42 13 16090 2.06400000 1297048643 1297048643 13.00000000
0.68075609 -1.96812797 0.55801386 67 15 16092 2.15600000 1297048648 1297048648 15.00000000
0.40524870 -1.17626071 -0.33335894 2 0 16099 1.28800000 1297048669 1297048669 -15.00000000
0.76221961 -2.21490216 -0.54078233 3 2 16101 2.40400000 1297048673 1297048673 -13.00000000
1.09237027 -3.17968297 -0.53250289 1 6 16104 3.40400000 1297048683 1297048683 -9.00000000
0.69750553 -2.03146029 0.26372525 39 7 16105 2.16400000 1297048685 1297048685 7.00000000
1.40461099 -4.09320593 -0.53135031 2 8 16106 4.36000000 1297048687 1297048687 -7.00000000
0.66809237 -1.94690180 0.32600942 45 9 16106 2.08400000 1297048690 1297048690 9.00000000
1.98625350 -5.79147482 -0.53565919 3 10 16107 6.14600000 1297048692 1297048692 -5.00000000
0.65249515 -1.90361369 0.39115843 53 11 16108 2.05000000 1297048694 1297048694 11.00000000
3.11663771 -9.09777260 -0.50399524 4 12 16109 9.63000000 1297048696 1297048696 -3.00000000
0.64701164 -1.88976634 0.46114966 52 13 16110 2.05000000 1297048699 1297048699 13.00000000
0.67325681 -1.96866429 0.55749625 57 15 16112 2.15400000 1297048703 1297048703 15.00000000
0.75824964 -2.22861862 -0.54348177 3 2 16121 2.41600000 1297048729 1297048729 -13.00000000
0.88738519 -2.60966253 -0.53579164 3 4 16122 2.80800000 1297048733 1297048733 -11.00000000
1.07935858 -3.17786551 -0.53156430 1 6 16124 3.39800000 1297048738 1297048738 -9.00000000
0.69232440 -2.03952193 0.26445648 61 7 16125 2.17000000 1297048740 1297048740 7.00000000
1.38393688 -4.07928562 -0.52891296 2 8 16126 4.34000000 1297048743 1297048743 -7.00000000
0.64986885 -1.91555023 0.32037780 39 9 16126 2.04800000 1297048745 1297048745 9.00000000
1.95706856 -5.77195692 -0.53321886 3 10 16127 6.11800000 1297048747 1297048747 -5.00000000
0.65025693 -1.91889548 0.39382976 47 11 16128 2.06400000 1297048749 1297048749 11.00000000
3.08229876 -9.10102940 -0.50357658 8 12 16129 9.62200000 1297048752 1297048752 -3.00000000
0.64041120 -1.89201331 0.46114966 61 13 16130 2.05000000 1297048754 1297048754 13.00000000
0.65895593 -1.94904137 0.55128455 41 15 16132 2.13000000 1297048759 1297048759 15.00000000
0.75209826 -2.23481464 -0.54438156 3 2 16140 2.42000000 1297048784 1297048784 -13.00000000
0.87622291 -2.60514760 -0.53426516 3 4 16141 2.80000000 1297048789 1297048789 -11.00000000
1.06566894 -3.17206454 -0.52999997 3 6 16143 3.38800000 1297048793 1297048793 -9.00000000
0.68934840 -2.05309772 0.26591891 38 7 16144 2.18200000 1297048795 1297048795 7.00000000
1.37292790 -4.09138012 -0.52988791 2 8 16145 4.34800000 1297048798 1297048798 -7.00000000
0.64162779 -1.91207647 0.31943917 42 9 16145 2.04200000 1297048800 1297048800 9.00000000
1.93791735 -5.77841473 -0.53321886 3 10 16146 6.11800000 1297048802 1297048802 -5.00000000
0.64014655 -1.90987241 0.39154005 50 11 16147 2.05200000 1297048805 1297048805 11.00000000
3.05654263 -9.12445736 -0.50430930 4 12 16148 9.63600000 1297048807 1297048807 -3.00000000
0.63970155 -1.91075802 0.46519879 73 13 16149 2.06800000 1297048809 1297048809 13.00000000
0.63505298 -1.89797342 0.53627306 52 15 16150 2.07200000 1297048814 1297048814 15.00000000
0.74060202 -2.22633171 -0.54168212 3 2 16160 2.40800000 1297048839 1297048839 -13.00000000
0.86836267 -2.61191630 -0.53502840 3 4 16161 2.80400000 1297048844 1297048844 -11.00000000
1.05583501 -3.17951465 -0.53062570 1 6 16163 3.39200000 1297048848 1297048848 -9.00000000
0.67092258 -2.02157855 0.26153162 30 7 16164 2.14600000 1297048851 1297048851 7.00000000
1.36363757 -4.11122084 -0.53183782 2 8 16165 4.36400000 1297048853 1297048853 -7.00000000
0.63494951 -1.91430449 0.31943917 44 9 16165 2.04200000 1297048855 1297048855 9.00000000
1.91648126 -5.78136206 -0.53287023 3 10 16166 6.11400000 1297048858 1297048858 -5.00000000
0.62853658 -1.89718628 0.38848710 52 11 16167 2.03600000 1297048860 1297048860 11.00000000
3.01211810 -9.09714985 -0.50221586 4 12 16168 9.59600000 1297048862 1297048862 -3.00000000
0.63302785 -1.91297936 0.46519879 71 13 16169 2.06800000 1297048865 1297048865 13.00000000
0.62869859 -1.90212250 0.53679073 68 15 16171 2.07400000 1297048869 1297048869 15.00000000
0.73404348 -2.23260593 -0.54258192 3 2 16180 2.41200000 1297048895 1297048895 -13.00000000
0.86230439 -2.62425733 -0.53693652 3 4 16181 2.81400000 1297048899 1297048899 -11.00000000
1.04719400 -3.19068813 -0.53187716 1 6 16183 3.40000000 1297048904 1297048904 -9.00000000
0.64715701 -1.97298050 0.25495067 21 7 16184 2.09200000 1297048906 1297048906 7.00000000
1.34185803 -4.09331989 -0.52891296 2 8 16185 4.34000000 1297048908 1297048908 -7.00000000
0.62457138 -1.90524673 0.31756195 51 9 16185 2.03000000 1297048911 1297048911 9.00000000
1.89132643 -5.77286959 -0.53147572 3 10 16186 6.09800000 1297048913 1297048913 -5.00000000
0.62191033 -1.89936864 0.38848710 50 11 16187 2.03600000 1297048915 1297048915 11.00000000
2.97475410 -9.09052467 -0.50127381 8 12 16188 9.57800000 1297048918 1297048918 -3.00000000
0.62634641 -1.91517735 0.46519879 65 13 16189 2.06800000 1297048920 1297048920 13.00000000
0.62478817 -1.91154182 0.53886127 80 15 16190 2.08200000 1297048925 1297048925 15.00000000
0.72925669 -2.24442148 -0.54483145 3 2 16200 2.42200000 1297048950 1297048950 -13.00000000
0.85253245 -2.62538409 -0.53655487 3 4 16201 2.81200000 1297048954 1297048954 -11.00000000
0.64946187 -2.00121474 0.18407293 4 5 16202 2.11200000 1297048957 1297048957 5.00000000
1.03544056 -3.19244528 -0.53156430 1 6 16203 3.39800000 1297048959 1297048959 -9.00000000
0.63169658 -1.94879043 0.25153834 21 7 16204 2.06400000 1297048961 1297048961 7.00000000
1.33062041 -4.10742140 -0.53013164 2 8 16205 4.35000000 1297048964 1297048964 -7.00000000
0.61515027 -1.90000570 0.31631050 48 9 16206 2.02200000 1297048966 1297048966 9.00000000
1.87484598 -5.79080915 -0.53252161 3 10 16206 6.11000000 1297048968 1297048968 -5.00000000
0.61406767 -1.89779210 0.38772389 46 11 16207 2.03200000 1297048971 1297048971 11.00000000
2.94054604 -9.09325218 -0.50085509 4 12 16208 9.57000000 1297048973 1297048973 -3.00000000
0.61726028 -1.90993476 0.46339917 60 13 16209 2.06000000 1297048975 1297048975 13.00000000
0.62074506 -1.92301118 0.54144943 79 15 16211 2.09200000 1297048980 1297048980 15.00000000
0.64073187 -1.99684334 0.10990551 3 3 16221 2.10000000 1297049007 1297049007 3.00000000
0.83736461 -2.60965014 -0.53273869 3 4 16221 2.79200000 1297049010 1297049010 -11.00000000
0.63273793 -1.97311401 0.18128395 16 5 16222 2.08000000 1297049012 1297049012 5.00000000
1.02489340 -3.19792128 -0.53187716 1 6 16223 3.40000000 1297049014 1297049014 -9.00000000
0.62004608 -1.93585968 0.24958842 28 7 16224 2.04800000 1297049017 1297049017 7.00000000
1.30719697 -4.08368206 -0.52647555 2 8 16225 4.32000000 1297049019 1297049019 -7.00000000
0.60523295 -1.89074719 0.31443328 45 9 16225 2.01000000 1297049021 1297049021 9.00000000
1.85462081 -5.79731846 -0.53252161 3 10 16226 6.11000000 1297049024 1297049024 -5.00000000
0.60624367 -1.89618409 0.38696066 49 11 16227 2.02800000 1297049026 1297049026 11.00000000
0.60821837 -1.90465224 0.46159956 49 13 16229 2.05200000 1297049031 1297049031 13.00000000
0.61142796 -1.91585708 0.53886127 73 15 16230 2.08200000 1297049035 1297049035 15.00000000
0.40232626 -1.26675868 -0.35613501 2 0 16238 1.37600000 1297049056 1297049056 -15.00000000
0.63401937 -1.99747276 0.03658024 3 1 16239 2.09600000 1297049058 1297049058 1.00000000
0.63556838 -2.00477934 0.11021952 18 3 16241 2.10600000 1297049063 1297049063 3.00000000
0.83299655 -2.62752891 -0.53579164 3 4 16241 2.80800000 1297049065 1297049065 -11.00000000
0.62103242 -1.96011591 0.17988946 20 5 16242 2.06400000 1297049067 1297049067 5.00000000
1.01551330 -3.20712900 -0.53281581 1 6 16243 3.40600000 1297049070 1297049070 -9.00000000
0.61388379 -1.93990481 0.24983215 31 7 16244 2.05000000 1297049072 1297049072 7.00000000
1.30011725 -4.11093235 -0.52940041 2 8 16245 4.34400000 1297049074 1297049074 -7.00000000
0.60068023 -1.90048683 0.31568474 39 9 16246 2.01800000 1297049077 1297049077 9.00000000
1.83917677 -5.81895494 -0.53391606 3 10 16246 6.12600000 1297049079 1297049079 -5.00000000
0.59607303 -1.88705623 0.38467094 52 11 16247 2.01600000 1297049081 1297049081 11.00000000
0.60097986 -1.90490532 0.46114966 40 13 16249 2.05000000 1297049086 1297049086 13.00000000
0.64341241 -2.04064345 -0.03734815 1 14 16250 2.14000000 1297049088 1297049088 -1.00000000
0.60440189 -1.91808522 0.53886127 58 15 16251 2.08200000 1297049090 1297049090 15.00000000
0.41872242 -1.33451223 -0.37476999 1 0 16258 1.44800000 1297049111 1297049111 -15.00000000
0.62345314 -1.98822522 0.03637081 14 1 16259 2.08400000 1297049113 1297049113 1.00000000
0.43356809 -1.38351738 -0.33472717 1 2 16260 1.48800000 1297049116 1297049116 -13.00000000
0.62259728 -1.98792601 0.10917281 21 3 16261 2.08600000 1297049118 1297049118 3.00000000
0.81971234 -2.61730599 -0.53312033 3 4 16261 2.79400000 1297049120 1297049120 -11.00000000
0.61359143 -1.96037042 0.17971514 30 5 16262 2.06200000 1297049123 1297049123 5.00000000
1.00136352 -3.20122766 -0.53125143 1 6 16263 3.39600000 1297049125 1297049125 -9.00000000
0.60414702 -1.93256247 0.24861346 37 7 16264 2.04000000 1297049127 1297049127 7.00000000
0.59084022 -1.89115536 0.31380755 41 9 16265 2.00600000 1297049132 1297049132 9.00000000
0.58421910 -1.87225819 0.38123637 58 11 16267 1.99800000 1297049136 1297049136 11.00000000
0.64395207 -2.06495309 -0.11335968 1 12 16268 2.16600000 1297049139 1297049139 -3.00000000
0.59026802 -1.89396811 0.45800033 55 13 16269 2.03600000 1297049141 1297049141 13.00000000
0.62677073 -2.01232934 -0.03678967 11 14 16270 2.10800000 1297049143 1297049143 -1.00000000
0.59918696 -1.92376781 0.53989655 38 15 16270 2.08600000 1297049146 1297049146 15.00000000
0.41406158 -1.33596575 -0.37476999 1 0 16278 1.44800000 1297049166 1297049166 -15.00000000
0.61473411 -1.98465884 0.03626610 23 1 16279 2.07800000 1297049169 1297049169 1.00000000
0.61329323 -1.98245502 0.10875412 30 3 16281 2.07800000 1297049173 1297049173 3.00000000
0.81695366 -2.64078236 -0.53731811 3 4 16281 2.81600000 1297049176 1297049176 -11.00000000
0.60615623 -1.96059680 0.17954083 28 5 16282 2.06000000 1297049178 1297049178 5.00000000
0.98610097 -3.19149232 -0.52906138 1 6 16283 3.38200000 1297049180 1297049180 -9.00000000
0.59446901 -1.92517591 0.24739477 30 7 16284 2.03000000 1297049183 1297049183 7.00000000
0.63335162 -2.05236721 -0.26372525 1 8 16285 2.16400000 1297049185 1297049185 -7.00000000
0.58041191 -1.88198233 0.31193033 50 9 16286 1.99400000 1297049187 1297049187 9.00000000
0.63121003 -2.04669499 -0.18738484 1 10 16286 2.15000000 1297049189 1297049189 -5.00000000
0.57536709 -1.86678147 0.37970990 59 11 16287 1.99000000 1297049192 1297049192 11.00000000
0.61557424 -1.99847293 -0.10959149 4 12 16288 2.09400000 1297049194 1297049194 -3.00000000
0.57734656 -1.87552965 0.45305142 63 13 16289 2.01400000 1297049196 1297049196 13.00000000
0.61680263 -2.00494838 -0.03661515 21 14 16290 2.09800000 1297049199 1297049199 -1.00000000
0.58077759 -1.88902009 0.52954376 46 15 16291 2.04600000 1297049201 1297049201 15.00000000
0.40939564 -1.33740294 -0.37476999 1 0 16298 1.44800000 1297049222 1297049222 -15.00000000
0.60546267 -1.97914374 0.03612648 32 1 16299 2.07000000 1297049224 1297049224 1.00000000
0.59819889 -1.95784247 0.10728871 27 3 16301 2.05000000 1297049229 1297049229 3.00000000
0.79797822 -2.61169934 -0.53083062 3 4 16301 2.78200000 1297049231 1297049231 -11.00000000
0.59756321 -1.95698416 0.17901790 30 5 16302 2.05400000 1297049233 1297049233 5.00000000
0.99340439 -3.25537467 -0.53907317 1 6 16303 3.44600000 1297049236 1297049236 -9.00000000
0.58832431 -1.92913806 0.24763851 28 7 16304 2.03200000 1297049238 1297049238 7.00000000
0.62386876 -2.04696989 -0.26275030 10 8 16305 2.15600000 1297049240 1297049240 -7.00000000
0.57071245 -1.87255931 0.31005311 62 9 16305 1.98200000 1297049242 1297049242 9.00000000
0.61999828 -2.03554440 -0.18616466 6 10 16306 2.13600000 1297049245 1297049245 -5.00000000
0.57227755 -1.88004756 0.38199961 64 11 16307 2.00200000 1297049247 1297049247 11.00000000
0.61150092 -2.01016355 -0.11011485 13 12 16308 2.10400000 1297049249 1297049249 -3.00000000
0.57306355 -1.88499141 0.45485103 87 13 16309 2.02200000 1297049252 1297049252 13.00000000
0.60224319 -1.98221576 -0.03616139 22 14 16310 2.07200000 1297049254 1297049254 -1.00000000
0.57731813 -1.90017772 0.53213197 49 15 16310 2.05600000 1297049256 1297049256 15.00000000
0.40472475 -1.33882391 -0.37476999 1 0 16318 1.44800000 1297049277 1297049277 -15.00000000
0.59450233 -1.96784544 0.03588215 32 1 16319 2.05600000 1297049279 1297049279 1.00000000
0.59193802 -1.96183074 0.10739338 29 3 16321 2.05200000 1297049284 1297049284 3.00000000
0.78942394 -2.61634851 -0.53121227 3 4 16321 2.78400000 1297049286 1297049286 -11.00000000
0.58842760 -1.95142782 0.17832065 31 5 16322 2.04600000 1297049289 1297049289 5.00000000
0.62695205 -2.08050179 -0.34415582 4 6 16323 2.20000000 1297049291 1297049291 -9.00000000
0.58215922 -1.93308067 0.24788225 30 7 16324 2.03400000 1297049293 1297049293 7.00000000
0.61328709 -2.03772998 -0.26128787 19 8 16325 2.14400000 1297049295 1297049295 -7.00000000
0.56555223 -1.88031352 0.31099170 63 9 16326 1.98800000 1297049298 1297049298 9.00000000
0.60887206 -2.02434039 -0.18494448 18 10 16326 2.12200000 1297049300 1297049300 -5.00000000
0.56966752 -1.89519477 0.38467094 87 11 16327 2.01600000 1297049302 1297049302 11.00000000
0.60275662 -2.00654745 -0.10980084 21 12 16328 2.09800000 1297049305 1297049305 -3.00000000
0.57152307 -1.90377831 0.45890015 86 13 16329 2.04000000 1297049307 1297049307 13.00000000
0.59072322 -1.96898317 -0.03588215 24 14 16330 2.05600000 1297049309 1297049309 -1.00000000
0.56480163 -1.88377631 0.52695560 54 15 16331 2.03600000 1297049312 1297049312 15.00000000
0.40028283 -1.34015858 -0.37476999 1 0 16337 1.44800000 1297049332 1297049332 -15.00000000
0.58168191 -1.94872832 0.03549819 30 1 16338 2.03400000 1297049335 1297049335 1.00000000
0.58657032 -1.96761096 0.10760272 32 3 16340 2.05600000 1297049339 1297049339 3.00000000
0.78074348 -2.61895204 -0.53121227 3 4 16340 2.78400000 1297049342 1297049342 -11.00000000
0.57740223 -1.93809283 0.17692615 31 5 16341 2.03000000 1297049344 1297049344 5.00000000
0.61723101 -2.07310319 -0.34259146 18 6 16342 2.19000000 1297049346 1297049346 -9.00000000
0.57574570 -1.93500054 0.24788225 30 7 16343 2.03400000 1297049348 1297049348 7.00000000
0.60596061 -2.03784966 -0.26104414 20 8 16344 2.14200000 1297049351 1297049351 -7.00000000
0.55795324 -1.87640059 0.31005311 61 9 16344 1.98200000 1297049353 1297049353 9.00000000
0.59761542 -2.01106977 -0.18355000 20 10 16345 2.10600000 1297049355 1297049355 -5.00000000
0.56617421 -1.90648353 0.38657904 77 11 16346 2.02600000 1297049358 1297049358 11.00000000
0.59212154 -1.99513209 -0.10906813 22 12 16347 2.08400000 1297049360 1297049360 -3.00000000
0.56853151 -1.91687286 0.46159956 86 13 16348 2.05200000 1297049362 1297049362 13.00000000
0.58305407 -1.96709669 -0.03581234 26 14 16349 2.05200000 1297049365 1297049365 -1.00000000
0.55723375 -1.87998474 0.52540267 60 15 16349 2.03000000 1297049367 1297049367 15.00000000
0.39560235 -1.34154773 -0.37476999 1 0 16357 1.44800000 1297049388 1297049388 -15.00000000
0.56922334 -1.93156552 0.03514915 30 1 16358 2.01400000 1297049390 1297049390 1.00000000
0.57744282 -1.96198249 0.10718404 32 3 16360 2.04800000 1297049395 1297049395 3.00000000
0.77270550 -2.62542796 -0.53197551 5 4 16360 2.78800000 1297049397 1297049397 -11.00000000
0.56950915 -1.93627369 0.17657754 31 5 16361 2.02600000 1297049399 1297049399 5.00000000
0.59717822 -2.03165555 -0.33539549 15 6 16362 2.14400000 1297049401 1297049401 -9.00000000
0.56451195 -1.92176151 0.24593234 24 7 16363 2.01800000 1297049404 1297049404 7.00000000
0.59660691 -2.03233361 -0.26006919 20 8 16364 2.13400000 1297049406 1297049406 -7.00000000
0.55362558 -1.88591838 0.31130460 58 9 16364 1.99000000 1297049408 1297049408 9.00000000
0.58442235 -1.99211347 -0.18163256 20 10 16365 2.08400000 1297049411 1297049411 -5.00000000
0.55509722 -1.89337659 0.38352609 77 11 16366 2.01000000 1297049413 1297049413 11.00000000
0.57729167 -1.97035325 -0.10760272 22 12 16367 2.05600000 1297049415 1297049415 -3.00000000
0.55526572 -1.89640319 0.45620075 55 13 16368 2.02800000 1297049418 1297049418 13.00000000
0.57281458 -1.95760465 -0.03560291 24 14 16369 2.04000000 1297049420 1297049420 -1.00000000
0.55500823 -1.89675128 0.52954376 65 15 16369 2.04600000 1297049422 1297049422 15.00000000
0.56269825 -1.93555903 0.03518405 26 1 16379 2.01600000 1297049445 1297049445 1.00000000
0.56579286 -1.94874132 0.10634666 29 3 16381 2.03200000 1297049450 1297049450 3.00000000
0.61363703 -2.11352921 -0.42779377 2 4 16381 2.24200000 1297049452 1297049452 -11.00000000
0.56351888 -1.94217491 0.17692615 31 5 16382 2.03000000 1297049454 1297049454 5.00000000
0.58807743 -2.02813888 -0.33445689 18 6 16383 2.13800000 1297049457 1297049457 -9.00000000
0.55691206 -1.92191100 0.24568860 27 7 16384 2.01600000 1297049459 1297049459 7.00000000
0.58087164 -2.00590539 -0.25641310 22 8 16385 2.10400000 1297049461 1297049461 -7.00000000
0.54747838 -1.89182532 0.31193033 61 9 16386 1.99400000 1297049464 1297049464 9.00000000
0.57656312 -1.99232829 -0.18145825 24 10 16386 2.08200000 1297049466 1297049466 -5.00000000
0.54924476 -1.89917028 0.38428932 58 11 16387 2.01400000 1297049468 1297049468 11.00000000
0.56784797 -1.96478093 -0.10718404 22 12 16388 2.04800000 1297049471 1297049471 -3.00000000
0.54344469 -1.88157558 0.45215163 61 13 16389 2.01000000 1297049473 1297049473 13.00000000
0.56452662 -1.95584846 -0.03553310 22 14 16390 2.03600000 1297049475 1297049475 -1.00000000
0.55126697 -1.90990925 0.53264958 63 15 16390 2.05800000 1297049477 1297049477 15.00000000
0.55483538 -1.93366718 0.03511424 27 1 16399 2.01200000 1297049501 1297049501 1.00000000
0.55678630 -1.94302452 0.10592797 36 3 16401 2.02400000 1297049505 1297049505 3.00000000
0.60030669 -2.09489822 -0.42359596 12 4 16401 2.22000000 1297049507 1297049507 -11.00000000
0.55399346 -1.93455315 0.17605460 28 5 16402 2.02000000 1297049510 1297049510 5.00000000
0.57718986 -2.01688528 -0.33226681 20 6 16403 2.12400000 1297049512 1297049512 -9.00000000
0.55019999 -1.92384326 0.24568860 26 7 16404 2.01600000 1297049514 1297049514 7.00000000
0.57113868 -1.99837744 -0.25519440 27 8 16405 2.09400000 1297049517 1297049517 -7.00000000
0.53924382 -1.88802660 0.31099170 65 9 16406 1.98800000 1297049519 1297049519 9.00000000
0.56905788 -1.99241292 -0.18128395 27 10 16406 2.08000000 1297049521 1297049521 -5.00000000
0.53830135 -1.88597310 0.38123637 59 11 16407 1.99800000 1297049524 1297049524 11.00000000
0.55769908 -1.95522726 -0.10655601 20 12 16408 2.03600000 1297049526 1297049526 -3.00000000
0.54274964 -1.90407610 0.45710054 77 13 16409 2.03200000 1297049528 1297049528 13.00000000
0.55112201 -1.93472886 -0.03511424 25 14 16410 2.01200000 1297049530 1297049530 -1.00000000
0.54690772 -1.92120707 0.53523779 77 15 16411 2.06800000 1297049533 1297049533 15.00000000
0.54590303 -1.92789590 0.03497462 29 1 16419 2.00400000 1297049556 1297049556 1.00000000
0.54565269 -1.92958105 0.10509060 29 3 16421 2.00800000 1297049560 1297049560 3.00000000
0.57375836 -2.02897072 -0.40985772 12 4 16421 2.14800000 1297049563 1297049563 -11.00000000
0.54669541 -1.93455791 0.17588028 26 5 16422 2.01800000 1297049565 1297049565 5.00000000
0.56907237 -2.01508570 -0.33164108 20 6 16423 2.12000000 1297049567 1297049567 -9.00000000
0.54563779 -1.93339407 0.24666356 26 7 16424 2.02400000 1297049570 1297049570 7.00000000
0.56254303 -1.99462724 -0.25446320 26 8 16425 2.08800000 1297049572 1297049572 -7.00000000
0.53050667 -1.88229215 0.30974025 67 9 16426 1.98000000 1297049574 1297049574 9.00000000
0.55777574 -1.97904575 -0.17988946 27 10 16426 2.06400000 1297049577 1297049577 -5.00000000
0.53277928 -1.89162004 0.38199961 64 11 16427 2.00200000 1297049579 1297049579 11.00000000
0.54978842 -1.95331693 -0.10634666 21 12 16428 2.03200000 1297049581 1297049581 -3.00000000
0.54137647 -1.92471850 0.46159956 69 13 16429 2.05200000 1297049583 1297049583 13.00000000
0.54220068 -1.92894042 -0.03497462 25 14 16430 2.00400000 1297049586 1297049586 -1.00000000
0.54053378 -1.92301011 0.53523779 83 15 16430 2.06800000 1297049588 1297049588 15.00000000
0.53594148 -1.91823411 0.03476520 28 1 16439 1.99200000 1297049611 1297049611 1.00000000
0.48108235 -1.72304332 -0.41301015 1 2 16440 1.83600000 1297049613 1297049613 -13.00000000
0.53998739 -1.93532157 0.10529994 29 3 16441 2.01200000 1297049616 1297049616 3.00000000
0.56192380 -2.01394176 -0.40642315 18 4 16441 2.13000000 1297049618 1297049618 -11.00000000
0.53351772 -1.91342425 0.17378855 22 5 16442 1.99400000 1297049620 1297049620 5.00000000
0.55567229 -1.99422538 -0.32788664 22 6 16443 2.09600000 1297049623 1297049623 -9.00000000
0.53995067 -1.93911159 0.24715103 27 7 16444 2.02800000 1297049625 1297049625 7.00000000
0.55344844 -1.98892903 -0.25348824 26 8 16445 2.08000000 1297049627 1297049627 -7.00000000
0.52604991 -1.89174509 0.31099170 67 9 16446 1.98800000 1297049630 1297049630 9.00000000
0.54445881 -1.95794606 -0.17779772 22 10 16446 2.04000000 1297049632 1297049632 -5.00000000
0.52669871 -1.89535987 0.38238123 70 11 16447 2.00400000 1297049634 1297049634 11.00000000
0.54243231 -1.95329976 -0.10624199 23 12 16448 2.03000000 1297049636 1297049636 -3.00000000
0.53465462 -1.92659652 0.46159956 69 13 16449 2.05200000 1297049639 1297049639 13.00000000
0.53546417 -1.93082130 -0.03497462 24 14 16450 2.00400000 1297049641 1297049641 -1.00000000
0.53485042 -1.92860842 0.53627306 77 15 16450 2.07200000 1297049643 1297049643 15.00000000
0.52691895 -1.91036224 0.03459067 30 1 16458 1.98200000 1297049666 1297049666 1.00000000
0.53595173 -1.94443488 -0.46564868 4 2 16459 2.07000000 1297049669 1297049669 -13.00000000
0.53655833 -1.94663572 0.10582330 27 3 16459 2.02200000 1297049671 1297049671 3.00000000
0.55211413 -2.00443769 -0.40413344 22 4 16460 2.11800000 1297049673 1297049673 -11.00000000
0.53139973 -1.93055046 0.17518304 31 5 16461 2.01000000 1297049676 1297049676 5.00000000
0.54748446 -1.99034309 -0.32694805 29 6 16462 2.09000000 1297049678 1297049678 -9.00000000
0.52983433 -1.92749274 0.24544486 30 7 16463 2.01400000 1297049680 1297049680 7.00000000
0.54737568 -1.99266756 -0.25373197 28 8 16464 2.08200000 1297049682 1297049682 -7.00000000
0.52062744 -1.89529324 0.31130460 76 9 16464 1.99000000 1297049685 1297049685 9.00000000
0.53796303 -1.95974076 -0.17779772 21 10 16465 2.04000000 1297049687 1297049687 -5.00000000
0.52508491 -1.91413581 0.38581580 73 11 16466 2.02200000 1297049689 1297049689 11.00000000
