# .PCD v0.7 - Point Cloud Data file format
VERSION 0.7
FIELDS x y z intensity laser_id azimuth distance_m adjustedtime timestamp vertical_angle
SIZE 4 4 4 1 1 2 8 8 4 8
TYPE F F F U U U F U U F
COUNT 1 1 1 1 1 1 1 1 1 1
WIDTH 542
HEIGHT 1
VIEWPOINT 0 0 0 1 0 0 0
POINTS 542
DATA ascii
3.13802958 2.51044083 0.35158625 6 5 5134 4.03400000 1298218193 1298218193 5.00000000
3.12709594 2.50079894 -0.63418531 9 6 5135 4.05400000 1298218195 1298218195 -9.00000000
3.15066743 2.51874804 0.49527702 7 7 5136 4.06400000 1298218198 1298218198 7.00000000
3.13094735 2.50208759 -0.49210840 8 8 5137 4.03800000 1298218200 1298218200 -7.00000000
3.14957285 2.51697206 0.63856548 8 9 5137 4.08200000 1298218202 1298218202 9.00000000
3.13822484 2.50700593 -0.35141197 9 10 5138 4.03200000 1298218205 1298218205 -5.00000000
3.15412951 2.51881003 0.78460658 8 11 5139 4.11200000 1298218207 1298218207 11.00000000
3.13740659 2.50455880 -0.21039054 7 12 5140 4.02000000 1298218209 1298218209 -3.00000000
3.14996195 2.51368165 0.93039757 7 13 5141 4.13600000 1298218212 1298218212 13.00000000
3.14523530 2.50901151 -0.07022848 7 14 5142 4.02400000 1298218214 1298218214 -1.00000000
3.16689420 2.52628899 1.08548713 8 15 5142 4.19400000 1298218216 1298218216 15.00000000
1.79309309 1.42629063 -0.61391878 4 0 5150 2.37200000 1298218237 1298218237 -15.00000000
3.15073776 2.50531244 0.07026339 8 1 5151 4.02600000 1298218239 1298218239 1.00000000
2.12047744 1.68549573 -0.62536395 3 2 5152 2.78000000 1298218241 1298218241 -13.00000000
3.15871859 2.50985885 0.21143727 7 3 5153 4.04000000 1298218244 1298218244 3.00000000
2.55465794 2.02988362 -0.63424909 5 4 5153 3.32400000 1298218246 1298218246 -11.00000000
3.16549516 2.51434231 0.35367802 6 5 5154 4.05800000 1298218248 1298218248 5.00000000
3.14663553 2.49846673 -0.63637543 11 6 5155 4.06800000 1298218251 1298218251 -9.00000000
3.17498875 2.52007604 0.49771440 7 7 5156 4.08400000 1298218253 1298218253 7.00000000
3.15832281 2.50594950 -0.49503326 10 8 5157 4.06200000 1298218255 1298218255 -7.00000000
3.16806293 2.51277685 0.64044273 8 9 5158 4.09400000 1298218258 1298218258 9.00000000
3.15007877 2.49851251 -0.35176057 9 10 5158 4.03600000 1298218260 1298218260 -5.00000000
3.17828631 2.51998210 0.78842276 8 11 5159 4.13200000 1298218262 1298218262 11.00000000
3.16647816 2.50971961 -0.21175128 7 12 5160 4.04600000 1298218264 1298218264 -3.00000000
3.17399144 2.51477289 0.93489659 8 13 5161 4.15600000 1298218267 1298218267 13.00000000
3.15867710 2.50174189 -0.07033320 7 14 5162 4.03000000 1298218269 1298218269 -1.00000000
3.18067598 2.51826215 1.08703995 8 15 5163 4.20000000 1298218271 1298218271 15.00000000
1.79326534 1.41674387 -0.61236584 3 0 5169 2.36600000 1298218292 1298218292 -15.00000000
3.16687512 2.50104713 0.07043792 7 1 5170 4.03600000 1298218294 1298218294 1.00000000
2.13829136 1.68811488 -0.62896317 3 2 5171 2.79600000 1298218297 1298218297 -13.00000000
3.18113470 2.51050615 0.21237931 7 3 5172 4.05800000 1298218299 1298218299 3.00000000
2.55675173 2.01775217 -0.63310426 5 4 5172 3.31800000 1298218301 1298218301 -11.00000000
3.18163657 2.51000142 0.35454956 6 5 5173 4.06800000 1298218304 1298218304 5.00000000
3.16265893 2.49413443 -0.63793975 9 6 5174 4.07800000 1298218306 1298218306 -9.00000000
3.20359421 2.52551007 0.50088298 7 7 5175 4.11000000 1298218308 1298218308 7.00000000
3.17908859 2.50529194 -0.49698317 10 8 5176 4.07800000 1298218311 1298218311 -7.00000000
3.18835330 2.51259303 0.64294565 8 9 5176 4.11000000 1298218313 1298218313 9.00000000
3.16304207 2.49175143 -0.35228351 9 10 5177 4.04200000 1298218315 1298218315 -5.00000000
3.19742227 2.51793098 0.79109412 8 11 5178 4.14600000 1298218317 1298218317 11.00000000
3.18106079 2.50414705 -0.21216996 7 12 5179 4.05400000 1298218320 1298218320 -3.00000000
3.20375347 2.52110529 0.94119519 8 13 5180 4.18400000 1298218322 1298218322 13.00000000
3.18895936 2.50856256 -0.07082187 7 14 5181 4.05800000 1298218324 1298218324 -1.00000000
3.19008994 2.50945187 1.08755767 8 15 5181 4.20200000 1298218327 1298218327 15.00000000
1.80579996 1.41643703 -0.61495405 4 0 5189 2.37600000 1298218347 1298218347 -15.00000000
3.18974876 2.50108242 0.07075205 7 1 5190 4.05400000 1298218350 1298218350 1.00000000
2.14417100 1.68064046 -0.62896317 3 2 5191 2.79600000 1298218352 1298218352 -13.00000000
3.21503282 2.51909590 0.21405406 7 3 5192 4.09000000 1298218354 1298218354 3.00000000
2.57459712 2.01729107 -0.63577557 5 4 5192 3.33200000 1298218357 1298218357 -11.00000000
3.21076965 2.51485133 0.35681561 6 5 5193 4.09400000 1298218359 1298218359 5.00000000
3.17601180 2.48673272 -0.63887835 9 6 5194 4.08400000 1298218361 1298218361 -9.00000000
3.22020626 2.52042961 0.50210172 7 7 5195 4.12000000 1298218364 1298218364 7.00000000
3.20657539 2.50885820 -0.49990806 10 8 5196 4.10200000 1298218366 1298218366 -7.00000000
3.22554874 2.52279592 0.64857727 8 9 5197 4.14600000 1298218368 1298218368 9.00000000
3.19212246 2.49665213 -0.35454956 9 10 5197 4.06800000 1298218370 1298218370 -5.00000000
3.21547198 2.51400995 0.79338378 8 11 5198 4.15800000 1298218373 1298218373 11.00000000
3.19450331 2.49671769 -0.21248399 7 12 5199 4.06000000 1298218375 1298218375 -3.00000000
3.22942615 2.52310419 0.94614416 8 13 5200 4.20600000 1298218377 1298218377 13.00000000
3.21030450 2.50726247 -0.07110111 7 14 5201 4.07400000 1298218380 1298218380 -1.00000000
3.22819805 2.52033067 1.09739280 8 15 5202 4.24000000 1298218382 1298218382 15.00000000
1.80945492 1.40862226 -0.61443639 4 0 5210 2.37400000 1298218403 1298218403 -15.00000000
3.20205045 2.49183083 0.07082187 7 1 5211 4.05800000 1298218405 1298218405 1.00000000
2.13185859 1.65841186 -0.62356430 3 2 5212 2.77200000 1298218407 1298218407 -13.00000000
3.22266746 2.50606942 0.21394938 7 3 5213 4.08800000 1298218410 1298218410 3.00000000
2.58042359 2.00663590 -0.63539398 5 4 5213 3.33000000 1298218412 1298218412 -11.00000000
3.24041462 2.51896262 0.35908166 6 5 5214 4.12000000 1298218414 1298218414 5.00000000
3.19602323 2.48356009 -0.64106846 9 6 5215 4.09800000 1298218417 1298218417 -9.00000000
3.23569322 2.51348114 0.50307667 7 7 5216 4.12800000 1298218419 1298218419 7.00000000
3.22045302 2.50074124 -0.50063926 10 8 5217 4.10800000 1298218421 1298218421 -7.00000000
3.24837732 2.52242494 0.65139312 8 9 5217 4.16400000 1298218423 1298218423 9.00000000
3.21856427 2.49837446 -0.35646698 9 10 5218 4.09000000 1298218426 1298218426 -5.00000000
3.23552203 2.51063275 0.79605514 8 11 5219 4.17200000 1298218428 1298218428 11.00000000
3.21625805 2.49478555 -0.21332136 7 12 5220 4.07600000 1298218430 1298218430 -3.00000000
3.24789214 2.51841545 0.94884354 8 13 5221 4.21800000 1298218433 1298218433 13.00000000
3.23211646 2.50528002 -0.07138034 7 14 5222 4.09000000 1298218435 1298218435 -1.00000000
3.25987911 2.52679944 1.10515738 8 15 5222 4.27000000 1298218437 1298218437 15.00000000
1.81588948 1.40347886 -0.61495405 4 0 5230 2.37600000 1298218458 1298218458 -15.00000000
3.23763013 2.50142241 0.07141525 7 1 5231 4.09200000 1298218460 1298218460 1.00000000
2.14688849 1.65810728 -0.62626374 3 2 5232 2.78400000 1298218463 1298218463 -13.00000000
3.24720478 2.50701046 0.21499611 7 3 5233 4.10800000 1298218465 1298218465 3.00000000
2.58741236 1.99761641 -0.63539398 5 4 5233 3.33000000 1298218467 1298218467 -11.00000000
3.26653767 2.52102661 0.36099908 6 5 5234 4.14200000 1298218470 1298218470 5.00000000
3.21718526 2.48204184 -0.64357138 9 6 5235 4.11400000 1298218472 1298218472 -9.00000000
3.26645422 2.51914310 0.50648898 7 7 5236 4.15600000 1298218474 1298218474 7.00000000
3.23702335 2.49554467 -0.50185794 8 8 5237 4.11800000 1298218476 1298218476 -7.00000000
3.26542377 2.51653123 0.65295744 8 9 5238 4.17400000 1298218479 1298218479 9.00000000
3.24462509 2.50050259 -0.35838440 9 10 5238 4.11200000 1298218481 1298218481 -5.00000000
3.26915026 2.51849365 0.80216104 8 11 5239 4.20400000 1298218483 1298218483 11.00000000
3.24077082 2.49572968 -0.21436808 7 12 5240 4.09600000 1298218486 1298218486 -3.00000000
3.26592827 2.51419544 0.95154297 8 13 5241 4.23000000 1298218488 1298218488 13.00000000
3.25352001 2.50373888 -0.07165958 7 14 5242 4.10600000 1298218490 1298218490 -1.00000000
3.28596163 2.52779126 1.11085129 8 15 5243 4.29200000 1298218493 1298218493 15.00000000
1.81746876 1.39509690 -0.61391878 4 0 5249 2.37200000 1298218513 1298218513 -15.00000000
3.26177216 2.50284576 0.07176430 7 1 5250 4.11200000 1298218516 1298218516 1.00000000
2.15856004 1.65572298 -0.62806332 3 2 5251 2.79200000 1298218518 1298218518 -13.00000000
3.27768993 2.51324272 0.21646151 7 3 5252 4.13600000 1298218520 1298218520 3.00000000
2.59090662 1.98663604 -0.63463074 6 4 5252 3.32600000 1298218523 1298218523 -11.00000000
3.28120494 2.51502872 0.36169633 6 5 5253 4.15000000 1298218525 1298218525 5.00000000
3.24578238 2.48697829 -0.64763868 9 6 5254 4.14000000 1298218527 1298218527 -9.00000000
3.29842901 2.52640343 0.51014507 7 7 5255 4.18600000 1298218529 1298218529 7.00000000
3.26577091 2.50048494 -0.50502658 8 8 5256 4.14400000 1298218532 1298218532 -7.00000000
3.28429270 2.51466656 0.65514755 8 9 5256 4.18800000 1298218534 1298218534 9.00000000
3.26555634 2.49941683 -0.35977891 9 10 5257 4.12800000 1298218536 1298218536 -5.00000000
3.30243134 2.52672648 0.80826688 8 11 5258 4.23600000 1298218539 1298218539 11.00000000
3.26330709 2.49588943 -0.21531013 7 12 5259 4.11400000 1298218541 1298218541 -3.00000000
3.29282498 2.51755476 0.95694178 9 13 5260 4.25400000 1298218543 1298218543 13.00000000
3.26815987 2.49779320 -0.07179920 7 14 5261 4.11400000 1298218546 1298218546 -1.00000000
3.30309606 2.52449441 1.11395717 8 15 5261 4.30400000 1298218548 1298218548 15.00000000
1.81925440 1.38640225 -0.61288351 4 0 5269 2.36800000 1298218569 1298218569 -15.00000000
3.28162360 2.49992728 0.07200863 7 1 5270 4.12600000 1298218571 1298218571 1.00000000
2.16432643 1.64817810 -0.62806332 3 2 5271 2.79200000 1298218573 1298218573 -13.00000000
3.29597807 2.50904465 0.21708955 7 3 5272 4.14800000 1298218576 1298218576 3.00000000
2.59938765 1.97876918 -0.63501233 5 4 5272 3.32800000 1298218578 1298218578 -11.00000000
3.29947734 2.51079893 0.36274222 7 5 5273 4.16200000 1298218580 1298218580 5.00000000
3.24658275 2.46965337 -0.64607435 9 6 5274 4.13000000 1298218582 1298218582 -9.00000000
3.31828856 2.52328539 0.51185125 7 7 5275 4.20000000 1298218585 1298218585 7.00000000
3.29660416 2.50588799 -0.50843889 8 8 5276 4.17200000 1298218587 1298218587 -7.00000000
3.30563140 2.51275015 0.65765047 8 9 5276 4.20400000 1298218589 1298218589 9.00000000
3.28219295 2.49402976 -0.36065045 9 10 5277 4.13800000 1298218592 1298218592 -5.00000000
3.31435800 2.51755857 0.80903012 8 11 5278 4.24000000 1298218594 1298218594 11.00000000
3.29426885 2.50139260 -0.21677554 7 12 5279 4.14200000 1298218596 1298218596 -3.00000000
3.32021952 2.52018380 0.96234059 8 13 5280 4.27800000 1298218599 1298218599 13.00000000
3.29278922 2.49845743 -0.07214825 7 14 5281 4.13400000 1298218601 1298218601 -1.00000000
3.32266092 2.52112317 1.11758065 8 15 5281 4.31800000 1298218603 1298218603 15.00000000
1.82870460 1.38354015 -0.61443639 4 0 5289 2.37400000 1298218624 1298218624 -15.00000000
3.29351997 2.49086952 0.07207844 7 1 5290 4.13000000 1298218626 1298218626 1.00000000
2.16695762 1.63826275 -0.62716353 3 2 5291 2.78800000 1298218629 1298218629 -13.00000000
3.32702374 2.51438308 0.21855496 7 3 5292 4.17600000 1298218631 1298218631 3.00000000
2.60471272 1.96849990 -0.63463074 6 4 5292 3.32600000 1298218633 1298218633 -11.00000000
3.32252908 2.51007533 0.36431101 7 5 5293 4.18000000 1298218635 1298218635 5.00000000
3.25676012 2.45949602 -0.64638722 11 6 5294 4.13200000 1298218638 1298218638 -9.00000000
3.33658218 2.51886320 0.51331365 7 7 5295 4.21200000 1298218640 1298218640 7.00000000
3.31008482 2.49795294 -0.50917011 8 8 5296 4.17800000 1298218642 1298218642 -7.00000000
3.33689666 2.51727247 0.66203064 8 9 5297 4.23200000 1298218645 1298218645 9.00000000
3.31155610 2.49815607 -0.36291650 9 10 5297 4.16400000 1298218647 1298218647 -5.00000000
3.33253074 2.51306629 0.81131983 8 11 5298 4.25200000 1298218649 1298218649 11.00000000
3.31733418 2.50069857 -0.21771757 7 12 5299 4.16000000 1298218652 1298218652 -3.00000000
3.34767246 2.52265215 0.96773946 8 13 5300 4.30200000 1298218654 1298218654 13.00000000
3.31426835 2.49657345 -0.07242749 7 14 5301 4.15000000 1298218656 1298218656 -1.00000000
3.34224248 2.51764584 1.12120414 8 15 5301 4.33200000 1298218658 1298218658 15.00000000
1.83506751 1.37830853 -0.61495405 4 0 5309 2.37600000 1298218679 1298218679 -15.00000000
3.32458234 2.49616694 0.07256711 7 1 5310 4.15800000 1298218682 1298218682 1.00000000
2.16019440 1.62133026 -0.62356430 3 2 5311 2.77200000 1298218684 1298218684 -13.00000000
3.34376836 2.50874758 0.21907832 7 3 5312 4.18600000 1298218686 1298218686 3.00000000
2.61942005 1.96528685 -0.63653880 5 4 5312 3.33600000 1298218688 1298218688 -11.00000000
3.34720969 2.51041651 0.36605412 7 5 5313 4.20000000 1298218691 1298218691 5.00000000
3.26848650 2.45048285 -0.64701295 11 6 5314 4.13600000 1298218693 1298218693 -9.00000000
3.35806227 2.51672506 0.51526356 7 7 5315 4.22800000 1298218695 1298218695 7.00000000
3.33149362 2.49590516 -0.51112002 8 8 5316 4.19400000 1298218698 1298218698 -7.00000000
3.36463666 2.51981854 0.66578507 8 9 5317 4.25600000 1298218700 1298218700 9.00000000
3.34258246 2.50330186 -0.36535686 9 10 5317 4.19200000 1298218702 1298218702 -5.00000000
3.36328554 2.51789045 0.81666249 8 11 5318 4.28000000 1298218705 1298218705 11.00000000
3.32284498 2.48671031 -0.21750824 7 12 5319 4.15600000 1298218707 1298218707 -3.00000000
3.36582017 2.51795530 0.97043884 7 13 5320 4.31400000 1298218709 1298218709 13.00000000
3.35338998 2.50774360 -0.07309068 7 14 5321 4.18800000 1298218711 1298218711 -1.00000000
3.36692071 2.51694584 1.12638044 8 15 5322 4.35200000 1298218714 1298218714 15.00000000
1.83522141 1.36843026 -0.61340111 3 0 5329 2.37000000 1298218735 1298218735 -15.00000000
3.35251498 2.49888778 0.07298596 7 1 5330 4.18200000 1298218737 1298218737 1.00000000
2.17209125 1.61843729 -0.62536395 3 2 5331 2.78000000 1298218739 1298218739 -13.00000000
3.35891223 2.50183249 0.21949700 7 3 5332 4.19400000 1298218741 1298218741 3.00000000
2.61524272 1.94792223 -0.63386750 5 4 5332 3.32200000 1298218744 1298218744 -11.00000000
3.38152146 2.51775527 0.36884311 7 5 5333 4.23200000 1298218746 1298218746 5.00000000
3.28811288 2.44731474 -0.64920300 9 6 5334 4.15000000 1298218748 1298218748 -9.00000000
3.37956786 2.51446748 0.51721346 7 7 5335 4.24400000 1298218751 1298218751 7.00000000
3.35292840 2.49373817 -0.51306993 8 8 5336 4.21000000 1298218753 1298218753 -7.00000000
3.38926458 2.51984453 0.66891378 8 9 5337 4.27600000 1298218755 1298218755 9.00000000
3.36728930 2.50350642 -0.36710000 9 10 5337 4.21200000 1298218758 1298218758 -5.00000000
3.38623571 2.51667500 0.82009709 8 11 5338 4.29800000 1298218760 1298218760 11.00000000
3.36837912 2.50249147 -0.21991569 8 12 5339 4.20200000 1298218762 1298218762 -3.00000000
3.38397598 2.51316237 0.97313827 8 13 5340 4.32600000 1298218764 1298218764 13.00000000
3.37657356 2.50675058 -0.07340482 7 14 5341 4.20600000 1298218767 1298218767 -1.00000000
3.40006661 2.52419162 1.13466275 8 15 5341 4.38400000 1298218769 1298218769 15.00000000
1.84309244 1.36431456 -0.61443639 4 0 5349 2.37400000 1298218790 1298218790 -15.00000000
3.38372183 2.50382257 0.07347463 7 1 5350 4.21000000 1298218792 1298218792 1.00000000
2.17772746 1.61084545 -0.62536395 3 2 5351 2.78000000 1298218794 1298218794 -13.00000000
3.37886620 2.49840474 0.22022970 7 3 5352 4.20800000 1298218797 1298218797 3.00000000
2.61886930 1.93644702 -0.63310426 8 4 5352 3.31800000 1298218799 1298218799 -11.00000000
3.39349389 2.50830483 0.36919174 7 5 5353 4.23600000 1298218801 1298218801 5.00000000
3.30140185 2.43934393 -0.65014166 9 6 5354 4.15600000 1298218804 1298218804 -9.00000000
3.41067910 2.51916671 0.52062583 7 7 5355 4.27200000 1298218806 1298218806 7.00000000
3.38077641 2.49616838 -0.51599479 8 8 5356 4.23400000 1298218808 1298218808 -7.00000000
3.39327168 2.50447917 0.66797519 8 9 5357 4.27000000 1298218811 1298218811 9.00000000
3.38722897 2.50001931 -0.36832017 9 10 5357 4.22600000 1298218813 1298218813 -5.00000000
3.41553736 2.51999211 0.82505810 8 11 5358 4.32400000 1298218815 1298218815 11.00000000
3.38995290 2.50020218 -0.22075306 8 12 5359 4.21800000 1298218817 1298218817 -3.00000000
3.40370750 2.50942969 0.97628760 8 13 5360 4.34000000 1298218820 1298218820 13.00000000
3.39174223 2.49969435 -0.07354444 7 14 5361 4.21400000 1298218822 1298218822 -1.00000000
3.41352248 2.51574636 1.13621557 8 15 5361 4.39000000 1298218824 1298218824 15.00000000
1.84916306 1.35933936 -0.61495405 4 0 5368 2.37600000 1298218845 1298218845 -15.00000000
3.40167475 2.49969268 0.07368406 7 1 5369 4.22200000 1298218847 1298218847 1.00000000
2.19248056 1.61053705 -0.62806332 3 2 5370 2.79200000 1298218850 1298218850 -13.00000000
3.41245294 2.50669575 0.22190446 7 3 5370 4.24000000 1298218852 1298218852 3.00000000
2.62369394 1.92658985 -0.63272262 5 4 5371 3.31600000 1298218854 1298218854 -11.00000000
3.41464210 2.50646949 0.37058622 7 5 5372 4.25200000 1298218857 1298218857 5.00000000
3.30469489 2.42487669 -0.64920300 9 6 5373 4.15000000 1298218859 1298218859 -9.00000000
3.43982291 2.52310562 0.52379441 7 7 5374 4.29800000 1298218861 1298218861 7.00000000
3.40504408 2.49668169 -0.51843220 8 8 5375 4.25400000 1298218863 1298218863 -7.00000000
3.43457675 2.51833582 0.67454541 8 9 5375 4.31200000 1298218866 1298218866 9.00000000
3.40353560 2.49466228 -0.36919174 9 10 5376 4.23600000 1298218868 1298218868 -5.00000000
3.43337703 2.51561379 0.82734782 8 11 5377 4.33600000 1298218870 1298218870 11.00000000
3.41272688 2.49956846 -0.22169511 8 12 5378 4.23600000 1298218873 1298218873 -3.00000000
3.43716812 2.51654816 0.98348600 9 13 5379 4.37200000 1298218875 1298218875 13.00000000
3.41937685 2.50260568 -0.07396330 7 14 5380 4.23800000 1298218877 1298218877 -1.00000000
3.42652297 2.50783563 1.13776851 8 15 5380 4.39600000 1298218880 1298218880 15.00000000
1.84609413 1.34718239 -0.61236584 4 0 5388 2.36600000 1298218900 1298218900 -15.00000000
3.41361070 2.49016047 0.07375387 7 1 5389 4.22600000 1298218903 1298218903 1.00000000
2.18864155 1.59598494 -0.62536395 3 2 5390 2.78000000 1298218905 1298218905 -13.00000000
3.44421291 2.51064277 0.22336987 7 3 5391 4.26800000 1298218907 1298218907 3.00000000
2.63516235 1.92088914 -0.63386750 5 4 5391 3.32200000 1298218910 1298218910 -11.00000000
3.44430375 2.50978827 0.37285227 7 5 5392 4.27800000 1298218912 1298218912 5.00000000
3.30036569 2.40402198 -0.64670008 9 6 5393 4.13400000 1298218914 1298218914 -9.00000000
3.45181870 2.51342010 0.52428192 7 7 5394 4.30200000 1298218916 1298218916 7.00000000
3.43139291 2.49763083 -0.52111334 8 8 5395 4.27600000 1298218919 1298218919 -7.00000000
3.46295142 2.51967716 0.67829984 8 9 5396 4.33600000 1298218921 1298218921 9.00000000
3.42511129 2.49214435 -0.37058622 9 10 5396 4.25200000 1298218923 1298218923 -5.00000000
3.44531274 2.50592351 0.82811105 8 11 5397 4.34000000 1298218926 1298218926 11.00000000
3.43435454 2.49703670 -0.22253248 8 12 5398 4.25200000 1298218928 1298218928 -3.00000000
3.46169519 2.51599193 0.98798501 9 13 5399 4.39200000 1298218930 1298218930 13.00000000
3.44750524 2.50475931 -0.07438216 7 14 5400 4.26200000 1298218933 1298218933 -1.00000000
3.46382737 2.51569438 1.14708602 8 15 5401 4.43200000 1298218935 1298218935 15.00000000
1.85860789 1.34639668 -0.61495405 4 0 5408 2.37600000 1298218956 1298218956 -15.00000000
3.44333744 2.49347663 0.07420763 7 1 5409 4.25200000 1298218958 1298218958 1.00000000
2.19104218 1.58605003 -0.62446415 3 2 5410 2.77600000 1298218960 1298218960 -13.00000000
3.46546268 2.50857663 0.22420724 7 3 5410 4.28400000 1298218963 1298218963 3.00000000
2.65139461 1.91858447 -0.63615721 5 4 5411 3.33400000 1298218965 1298218965 -11.00000000
3.46918678 2.50942731 0.37459537 7 5 5412 4.29800000 1298218967 1298218967 5.00000000
3.31514001 2.39711690 -0.64795154 9 6 5413 4.14200000 1298218969 1298218969 -9.00000000
3.47022390 2.50833297 0.52574432 7 7 5414 4.31400000 1298218972 1298218972 7.00000000
3.45457149 2.49610114 -0.52330697 8 8 5415 4.29400000 1298218974 1298218974 -7.00000000
3.48453641 2.51682687 0.68080276 8 9 5416 4.35200000 1298218976 1298218976 9.00000000
3.45317125 2.49417233 -0.37267795 9 10 5416 4.27600000 1298218979 1298218979 -5.00000000
3.47313976 2.50767279 0.83269048 8 11 5417 4.36400000 1298218981 1298218981 11.00000000
3.44628882 2.48737121 -0.22274183 8 12 5418 4.25600000 1298218983 1298218983 -3.00000000
3.48942089 2.51757550 0.99338388 9 13 5419 4.41600000 1298218986 1298218986 13.00000000
3.46920252 2.50206780 -0.07466140 7 14 5420 4.27800000 1298218988 1298218988 -1.00000000
3.49408650 2.52001476 1.15433300 8 15 5420 4.46000000 1298218990 1298218990 15.00000000
1.86643326 1.34215653 -0.61598933 4 0 5428 2.38000000 1298219011 1298219011 -15.00000000
3.47475219 2.49778247 0.07469630 7 1 5429 4.28000000 1298219013 1298219013 1.00000000
2.19656515 1.57839215 -0.62446415 3 2 5430 2.77600000 1298219015 1298219015 -13.00000000
3.47744203 2.49879551 0.22441658 7 3 5430 4.28800000 1298219018 1298219018 3.00000000
2.64213037 1.89786410 -0.63234103 5 4 5431 3.31400000 1298219020 1298219020 -11.00000000
3.50220108 2.51473355 0.37721005 7 5 5432 4.32800000 1298219022 1298219022 5.00000000
3.33311605 2.39244151 -0.64982879 9 6 5433 4.15400000 1298219025 1298219025 -9.00000000
3.50315166 2.51356316 0.52940041 7 7 5434 4.34400000 1298219027 1298219027 7.00000000
3.47132874 2.48981214 -0.52452564 8 8 5435 4.30400000 1298219029 1298219029 -7.00000000
3.50132751 2.51040339 0.68236715 8 9 5436 4.36200000 1298219032 1298219032 9.00000000
3.48128700 2.49603462 -0.37476969 9 10 5436 4.30000000 1298219034 1298219034 -5.00000000
3.51059508 2.51612043 0.83955956 8 11 5437 4.40000000 1298219036 1298219036 11.00000000
3.47930384 2.49277449 -0.22431190 8 12 5438 4.28600000 1298219039 1298219039 -3.00000000
3.50769353 2.51218796 0.99608326 8 13 5439 4.42800000 1298219041 1298219041 13.00000000
3.48604512 2.49576306 -0.07483592 7 14 5440 4.28800000 1298219043 1298219043 -1.00000000
3.52642369 2.52467132 1.16209745 8 15 5440 4.49000000 1298219045 1298219045 15.00000000
1.85806477 1.32730293 -0.61184824 4 0 5446 2.36400000 1298219066 1298219066 -15.00000000
3.51024747 2.50660920 0.07528968 7 1 5447 4.31400000 1298219068 1298219068 1.00000000
2.20785737 1.57601249 -0.62626374 3 2 5448 2.78400000 1298219071 1298219071 -13.00000000
3.51009607 2.50465155 0.22598666 7 3 5449 4.31800000 1298219073 1298219073 3.00000000
2.63849092 1.88271213 -0.63005131 5 4 5449 3.30200000 1298219075 1298219075 -11.00000000
3.52143836 2.51181746 0.37843025 7 5 5450 4.34200000 1298219078 1298219078 5.00000000
3.33579040 2.37851787 -0.64889014 9 6 5451 4.14800000 1298219080 1298219080 -9.00000000
3.52719593 2.51406717 0.53183782 7 7 5452 4.36400000 1298219082 1298219082 7.00000000
3.50176740 2.49502110 -0.52793801 8 8 5453 4.33200000 1298219085 1298219085 -7.00000000
3.52645707 2.51261258 0.68580872 8 9 5453 4.38400000 1298219087 1298219087 9.00000000
3.50209403 2.49433231 -0.37616420 10 10 5454 4.31600000 1298219089 1298219089 -5.00000000
3.54567051 2.52443671 0.84604710 8 11 5455 4.43400000 1298219092 1298219092 11.00000000
3.50501728 2.49457073 -0.22546330 8 12 5456 4.30800000 1298219094 1298219094 -3.00000000
3.53621078 2.51584196 1.00193202 8 13 5457 4.45400000 1298219096 1298219096 13.00000000
3.50527573 2.49291182 -0.07508025 7 14 5458 4.30200000 1298219098 1298219098 -1.00000000
3.54737258 2.52191830 1.16623867 8 15 5459 4.50600000 1298219101 1298219101 15.00000000
1.86268663 1.32080889 -0.61184824 4 0 5466 2.36400000 1298219121 1298219121 -15.00000000
3.52386999 2.49781013 0.07539440 7 1 5467 4.32000000 1298219124 1298219124 1.00000000
2.21652532 1.57054937 -0.62716353 3 2 5468 2.78800000 1298219126 1298219126 -13.00000000
3.53956771 2.50800896 0.22734739 7 3 5468 4.34400000 1298219128 1298219128 3.00000000
2.65465927 1.88029921 -0.63234103 5 4 5469 3.31400000 1298219131 1298219131 -11.00000000
3.54156709 2.50756931 0.37965041 7 5 5470 4.35600000 1298219133 1298219133 5.00000000
3.33923554 2.36343575 -0.64795154 9 6 5471 4.14200000 1298219135 1298219135 -9.00000000
3.56511927 2.52237725 0.53622514 7 7 5472 4.40000000 1298219138 1298219138 7.00000000
3.53152466 2.49768376 -0.53110659 8 8 5473 4.35800000 1298219140 1298219140 -7.00000000
3.54693341 2.50765324 0.68799877 8 9 5474 4.39800000 1298219142 1298219142 9.00000000
3.52054071 2.48899364 -0.37721005 10 10 5474 4.32800000 1298219145 1298219145 -5.00000000
3.56087399 2.51657701 0.84757358 8 11 5475 4.44200000 1298219147 1298219147 11.00000000
3.53001618 2.49384499 -0.22651002 8 12 5476 4.32800000 1298219149 1298219149 -3.00000000
3.56566477 2.51809692 1.00778067 8 13 5477 4.48000000 1298219151 1298219151 13.00000000
3.53192616 2.49334669 -0.07546420 7 14 5478 4.32400000 1298219154 1298219154 -1.00000000
3.55931091 2.51174808 1.16727388 8 15 5479 4.51000000 1298219156 1298219156 15.00000000
1.87676442 1.32097042 -0.61495405 4 0 5486 2.37600000 1298219177 1298219177 -15.00000000
3.54401565 2.49354911 0.07563873 7 1 5487 4.33400000 1298219179 1298219179 1.00000000
2.21561813 1.55831826 -0.62536395 3 2 5488 2.78000000 1298219181 1298219181 -13.00000000
3.56790471 2.50942636 0.22860345 7 3 5488 4.36800000 1298219184 1298219184 3.00000000
2.66281247 1.87215042 -0.63272262 5 4 5489 3.31600000 1298219186 1298219186 -11.00000000
3.55844903 2.50091982 0.38052198 7 5 5490 4.36600000 1298219188 1298219188 5.00000000
3.33615065 2.34381628 -0.64576149 9 6 5491 4.12800000 1298219191 1298219191 -9.00000000
3.58689833 2.51904440 0.53817505 7 7 5492 4.41600000 1298219193 1298219193 7.00000000
3.56134272 2.50016880 -0.53427517 8 8 5493 4.38400000 1298219195 1298219195 -7.00000000
3.58109760 2.51403737 0.69300467 8 9 5493 4.43000000 1298219198 1298219198 9.00000000
3.55203962 2.49271250 -0.37965041 10 10 5494 4.35600000 1298219200 1298219200 -5.00000000
3.58410168 2.51427913 0.85100812 9 11 5495 4.46000000 1298219202 1298219202 11.00000000
3.55505228 2.49297500 -0.22755674 8 12 5496 4.34800000 1298219204 1298219204 -3.00000000
3.59358168 2.51905823 1.01317954 8 13 5497 4.50400000 1298219207 1298219207 13.00000000
3.56353521 2.49706864 -0.07595287 7 14 5498 4.35200000 1298219209 1298219209 -1.00000000
3.58387971 2.51039195 1.17245030 8 15 5499 4.53000000 1298219211 1298219211 15.00000000
1.88136399 1.31441128 -0.61495405 4 0 5506 2.37600000 1298219232 1298219232 -15.00000000
3.57237172 2.49490285 0.07605759 7 1 5507 4.35800000 1298219234 1298219234 1.00000000
2.21145701 1.54388165 -0.62266451 3 2 5508 2.76800000 1298219237 1298219237 -13.00000000
3.58646846 2.50381660 0.22923149 7 3 5508 4.38000000 1298219239 1298219239 3.00000000
2.67416120 1.86621475 -0.63386750 5 4 5509 3.32200000 1298219241 1298219241 -11.00000000
3.59820437 2.51014209 0.38383389 7 5 5510 4.40400000 1298219244 1298219244 5.00000000
3.33945084 2.32876682 -0.64482284 9 6 5511 4.12200000 1298219246 1298219246 -9.00000000
3.59566951 2.50650835 0.53817505 7 7 5512 4.41600000 1298219248 1298219248 7.00000000
3.57656288 2.49226189 -0.53525013 8 8 5513 4.39200000 1298219251 1298219251 -7.00000000
3.60605860 2.51281524 0.69613338 8 9 5513 4.45000000 1298219253 1298219253 9.00000000
3.59014678 2.50079679 -0.38278803 10 10 5514 4.39200000 1298219255 1298219255 -5.00000000
3.61057901 2.51409340 0.85520589 9 11 5515 4.48200000 1298219257 1298219257 11.00000000
3.57684684 2.48967838 -0.22839411 8 12 5516 4.36400000 1298219260 1298219260 -3.00000000
3.61994886 2.51874185 1.01812851 8 13 5517 4.52600000 1298219262 1298219262 13.00000000
3.59849644 2.50288343 -0.07651135 7 14 5518 4.38400000 1298219264 1298219264 -1.00000000
3.61324048 2.51220298 1.17917955 8 15 5519 4.55600000 1298219267 1298219267 15.00000000
1.88276565 1.30563438 -0.61391878 4 0 5526 2.37200000 1298219287 1298219287 -15.00000000
3.60406685 2.49836707 0.07654625 7 1 5527 4.38600000 1298219290 1298219290 1.00000000
2.22323966 1.54059255 -0.62446415 3 2 5528 2.77600000 1298219292 1298219292 -13.00000000
3.61488605 2.50493312 0.23048756 7 3 5528 4.40400000 1298219294 1298219294 3.00000000
2.67581773 1.85351503 -0.63272262 5 4 5529 3.31600000 1298219297 1298219297 -11.00000000
3.62332463 2.50890899 0.38557699 7 5 5530 4.42400000 1298219299 1298219299 5.00000000
3.35080791 2.31934428 -0.64544863 9 6 5531 4.12600000 1298219301 1298219301 -9.00000000
3.62072134 2.50523686 0.54061240 7 7 5532 4.43600000 1298219303 1298219303 7.00000000
3.60319948 2.49218345 -0.53793126 8 8 5533 4.41400000 1298219306 1298219306 -7.00000000
3.62780499 2.50920200 0.69863629 8 9 5533 4.46600000 1298219308 1298219308 9.00000000
3.61360359 2.49844718 -0.38435683 10 10 5534 4.41000000 1298219310 1298219310 -5.00000000
3.63548326 2.51263714 0.85902208 9 11 5535 4.50200000 1298219313 1298219313 11.00000000
3.61016393 2.49420691 -0.22996420 8 12 5536 4.39400000 1298219315 1298219315 -3.00000000
3.63513279 2.51052022 1.01992810 8 13 5537 4.53400000 1298219317 1298219317 13.00000000
3.61873055 2.49825978 -0.07675568 7 14 5538 4.39800000 1298219320 1298219320 -1.00000000
3.63903928 2.51228023 1.18487358 8 15 5538 4.57800000 1298219322 1298219322 15.00000000
1.88094640 1.29467297 -0.61184824 4 0 5546 2.36400000 1298219343 1298219343 -15.00000000
3.63747692 2.50277400 0.07706983 7 1 5547 4.41600000 1298219345 1298219345 1.00000000
2.23502636 1.53724003 -0.62626374 3 2 5548 2.78400000 1298219347 1298219347 -13.00000000
3.63512707 2.50022244 0.23122026 7 3 5548 4.41800000 1298219350 1298219350 3.00000000
2.67256474 1.83748972 -0.63043290 6 4 5549 3.30400000 1298219352 1298219352 -11.00000000
3.65012217 2.50865936 0.38749444 7 5 5550 4.44600000 1298219354 1298219354 5.00000000
3.37028074 2.31546378 -0.64763868 6 6 5551 4.14000000 1298219356 1298219356 -9.00000000
3.65235305 2.50831604 0.54402477 7 7 5552 4.46400000 1298219359 1298219359 7.00000000
3.62824249 2.49082589 -0.54036868 8 8 5553 4.43400000 1298219361 1298219361 -7.00000000
3.63979864 2.49875927 0.69926208 8 9 5553 4.47000000 1298219363 1298219363 9.00000000
3.63215947 2.49258232 -0.38540271 10 10 5554 4.42200000 1298219366 1298219366 -5.00000000
3.66527820 2.51436925 0.86398315 9 11 5555 4.52800000 1298219368 1298219368 11.00000000
3.64190888 2.49740338 -0.23142959 8 12 5556 4.42200000 1298219370 1298219370 -3.00000000
3.66476965 2.51213956 1.02577686 8 13 5557 4.56000000 1298219373 1298219373 13.00000000
3.64557433 2.49804664 -0.07713964 7 14 5558 4.42000000 1298219375 1298219375 -1.00000000
3.66575456 2.51093435 1.19056761 8 15 5559 4.60000000 1298219377 1298219377 15.00000000
1.88864446 1.29027891 -0.61288351 4 0 5566 2.36800000 1298219398 1298219398 -15.00000000
3.65609932 2.49682808 0.07727925 7 1 5567 4.42800000 1298219400 1298219400 1.00000000
2.24681664 1.53382385 -0.62806332 3 2 5568 2.79200000 1298219403 1298219403 -13.00000000
3.67231202 2.50602078 0.23299968 7 3 5569 4.45200000 1298219405 1298219405 3.00000000
2.68869233 1.83478928 -0.63272262 5 4 5569 3.31600000 1298219407 1298219407 -11.00000000
3.66544032 2.50039387 0.38819167 7 5 5570 4.45400000 1298219409 1298219409 5.00000000
3.37834263 2.30368519 -0.64763868 6 6 5571 4.14000000 1298219412 1298219412 -9.00000000
3.68076992 2.50896859 0.54694963 7 7 5572 4.48800000 1298219414 1298219414 7.00000000
3.64839840 2.48597026 -0.54207486 8 8 5573 4.44800000 1298219416 1298219416 -7.00000000
3.67461777 2.50383592 0.70426798 8 9 5573 4.50200000 1298219419 1298219419 9.00000000
3.65565825 2.48998308 -0.38697150 10 10 5574 4.44000000 1298219421 1298219421 -5.00000000
3.69026065 2.51260900 0.86779928 9 11 5575 4.54800000 1298219423 1298219423 11.00000000
3.67206883 2.49928474 -0.23279034 8 12 5576 4.44800000 1298219426 1298219426 -3.00000000
3.69768405 2.51577497 1.03252530 9 13 5577 4.59000000 1298219428 1298219428 13.00000000
3.67080712 2.49655151 -0.07748868 7 14 5578 4.44000000 1298219430 1298219430 -1.00000000
3.69961977 2.51614738 1.19884980 8 15 5578 4.63200000 1298219433 1298219433 15.00000000
1.89313698 1.28367841 -0.61288351 4 0 5586 2.36800000 1298219453 1298219453 -15.00000000
3.67472434 2.49078250 0.07748868 7 1 5587 4.44000000 1298219456 1298219456 1.00000000
2.24409056 1.52050614 -0.62581384 4 2 5588 2.78200000 1298219458 1298219458 -13.00000000
3.69426656 2.50214696 0.23383705 7 3 5589 4.46800000 1298219460 1298219460 3.00000000
2.69670606 1.82649374 -0.63310426 5 4 5589 3.31800000 1298219462 1298219462 -11.00000000
3.69559383 2.50210500 0.39045772 8 5 5590 4.48000000 1298219465 1298219465 5.00000000
3.37654781 2.28523540 -0.64576149 6 6 5591 4.12800000 1298219467 1298219467 -9.00000000
3.71087956 2.51056552 0.55011821 8 7 5592 4.51400000 1298219469 1298219469 7.00000000
3.68500781 2.49212503 -0.54621840 8 8 5593 4.48200000 1298219472 1298219472 -7.00000000
3.70504475 2.50473332 0.70833528 8 9 5594 4.52800000 1298219474 1298219474 9.00000000
3.67423129 2.48390245 -0.38801736 10 10 5594 4.45200000 1298219476 1298219476 -5.00000000
3.70714211 2.50520873 0.86970741 9 11 5595 4.55800000 1298219479 1298219479 11.00000000
3.68739057 2.49092364 -0.23320901 8 12 5596 4.45600000 1298219481 1298219481 -3.00000000
3.73066854 2.51921082 1.03927386 9 13 5597 4.62000000 1298219483 1298219483 13.00000000
3.69938874 2.49714851 -0.07790754 7 14 5598 4.46400000 1298219486 1298219486 -1.00000000
3.72643232 2.51445675 1.20454383 8 15 5599 4.65400000 1298219488 1298219488 15.00000000
1.90058839 1.27955127 -0.61391878 4 0 5605 2.37200000 1298219509 1298219509 -15.00000000
3.69789481 2.48863125 0.07780283 8 1 5606 4.45800000 1298219511 1298219511 1.00000000
2.23780203 1.50544190 -0.62266451 4 2 5607 2.76800000 1298219513 1298219513 -13.00000000
3.71580243 2.49879885 0.23467442 7 3 5608 4.48400000 1298219515 1298219515 3.00000000
2.70437717 1.81863666 -0.63348585 5 4 5608 3.32000000 1298219518 1298219518 -11.00000000
3.72867346 2.50650930 0.39307240 8 5 5609 4.51000000 1298219520 1298219520 5.00000000
3.39066577 2.27843285 -0.64701295 9 6 5610 4.13600000 1298219522 1298219522 -9.00000000
3.72248006 2.50045991 0.55060571 8 7 5611 4.51800000 1298219525 1298219525 7.00000000
3.70478797 2.48763752 -0.54792458 8 8 5612 4.49600000 1298219527 1298219527 -7.00000000
3.74077487 2.51180148 0.71365404 8 9 5612 4.56200000 1298219529 1298219529 9.00000000
3.70726228 2.48836017 -0.39063203 10 10 5613 4.48200000 1298219532 1298219532 -5.00000000
3.74314427 2.51149702 0.87619489 9 11 5614 4.59200000 1298219534 1298219534 11.00000000
3.70724154 2.48646975 -0.23394172 8 12 5615 4.47000000 1298219536 1298219536 -3.00000000
3.74871373 2.51333666 1.04197323 9 13 5616 4.63200000 1298219539 1298219539 13.00000000
3.72924376 2.49933982 -0.07836130 7 14 5617 4.49000000 1298219541 1298219541 -1.00000000
3.76640868 2.52424788 1.21489656 8 15 5617 4.69400000 1298219543 1298219543 15.00000000
1.90504324 1.27290916 -0.61391878 4 0 5625 2.37200000 1298219564 1298219564 -15.00000000
3.73649096 2.49570036 0.07843111 8 1 5626 4.49400000 1298219566 1298219566 1.00000000
2.24790549 1.50086761 -0.62401420 4 2 5627 2.77400000 1298219568 1298219568 -13.00000000
3.73945355 2.49579167 0.23561648 7 3 5628 4.50200000 1298219571 1298219571 3.00000000
2.70417714 1.80482602 -0.63195938 5 4 5628 3.31200000 1298219573 1298219573 -11.00000000
3.76226068 2.51006484 0.39568707 8 5 5629 4.54000000 1298219575 1298219575 5.00000000
3.39366794 2.26329517 -0.64607435 9 6 5630 4.13000000 1298219578 1298219578 -9.00000000
3.75430942 2.50286651 0.55401802 8 7 5631 4.54600000 1298219580 1298219580 7.00000000
3.73492360 2.48900127 -0.55109316 8 8 5632 4.52200000 1298219582 1298219582 -7.00000000
3.75488782 2.50135946 0.71459264 8 9 5633 4.56800000 1298219585 1298219585 9.00000000
3.73913980 2.49086881 -0.39307240 10 10 5633 4.51000000 1298219587 1298219587 -5.00000000
3.78293610 2.51909089 0.88344562 9 11 5634 4.63000000 1298219589 1298219589 11.00000000
3.73584938 2.48679447 -0.23519778 8 12 5635 4.49400000 1298219591 1298219591 -3.00000000
3.77693272 2.51319051 1.04737210 8 13 5636 4.65600000 1298219594 1298219594 13.00000000
3.74960041 2.49405956 -0.07860564 7 14 5637 4.50400000 1298219596 1298219596 -1.00000000
3.78046155 2.51363516 1.21644950 8 15 5638 4.70000000 1298219598 1298219598 15.00000000
1.90625489 1.26411629 -0.61288351 4 0 5645 2.36800000 1298219619 1298219619 -15.00000000
3.77184772 2.50032020 0.07898960 8 1 5646 4.52600000 1298219621 1298219621 1.00000000
2.25475526 1.49408829 -0.62446415 3 2 5647 2.77600000 1298219624 1298219624 -13.00000000
3.76812387 2.49595881 0.23687254 7 3 5648 4.52600000 1298219626 1298219626 3.00000000
2.70227695 1.78995490 -0.63005131 5 4 5648 3.30200000 1298219628 1298219628 -11.00000000
3.78262830 2.50461650 0.39690724 8 5 5649 4.55400000 1298219631 1298219631 5.00000000
3.40154767 2.25143528 -0.64607435 9 6 5650 4.13000000 1298219633 1298219633 -9.00000000
3.79116726 2.50836730 0.55816162 8 7 5651 4.58000000 1298219635 1298219635 7.00000000
3.76180196 2.48799443 -0.55377430 8 8 5652 4.54400000 1298219638 1298219638 -7.00000000
3.78787637 2.50523949 0.71928567 8 9 5652 4.59800000 1298219640 1298219640 9.00000000
3.76443195 2.48878956 -0.39481550 10 10 5653 4.53000000 1298219642 1298219642 -5.00000000
8.65458965 5.71966314 2.01646948 21 11 5654 10.56800000 1298219644 1298219644 11.00000000
3.77283692 2.49245405 -0.23697720 8 12 5655 4.52800000 1298219647 1298219647 -3.00000000
3.75995255 2.48205757 -0.07864054 7 14 5657 4.50600000 1298219651 1298219651 -1.00000000
6.23777676 4.11774349 2.00274181 9 15 5657 7.73800000 1298219654 1298219654 15.00000000
1.90420103 1.25320637 -0.61081296 4 0 5665 2.36000000 1298219674 1298219674 -15.00000000
8.23435402 5.41719246 0.17204583 13 1 5666 9.85800000 1298219677 1298219677 1.00000000
2.26972604 1.49263310 -0.62716353 3 2 5667 2.78800000 1298219679 1298219679 -13.00000000
2.71507072 1.78482509 -0.63157779 6 4 5668 3.31000000 1298219684 1298219684 -11.00000000
8.26870155 5.43358803 0.86563087 77 5 5669 9.93200000 1298219686 1298219686 5.00000000
3.40608382 2.23737884 -0.64544863 9 6 5670 4.12600000 1298219688 1298219688 -9.00000000
8.33820820 5.47509623 1.22478688 2 7 5671 10.05000000 1298219691 1298219691 7.00000000
3.79535675 2.49118733 -0.55743039 4 8 5672 4.57400000 1298219693 1298219693 -7.00000000
7.04644489 4.62336969 -0.73733759 8 10 5673 8.46000000 1298219697 1298219697 -5.00000000
8.67942715 5.69264841 2.01761436 40 11 5674 10.57400000 1298219700 1298219700 11.00000000
8.23114014 5.39657211 -0.51582319 12 12 5675 9.85600000 1298219702 1298219702 -3.00000000
8.29288483 5.43498421 2.28910184 58 13 5676 10.17600000 1298219704 1298219704 13.00000000
8.23303032 5.39370298 -0.17180149 14 14 5677 9.84400000 1298219707 1298219707 -1.00000000
6.27222061 4.10755396 2.00895333 9 15 5678 7.76200000 1298219709 1298219709 15.00000000
1.91179872 1.24866462 -0.61184824 4 0 5685 2.36400000 1298219730 1298219730 -15.00000000
8.23646927 5.37748432 0.17169677 13 1 5686 9.83800000 1298219732 1298219732 1.00000000
2.26186705 1.47618067 -0.62356430 3 2 5687 2.77200000 1298219734 1298219734 -13.00000000
8.26678181 5.39316034 0.51728857 84 3 5688 9.88400000 1298219737 1298219737 3.00000000
2.72292876 1.77640951 -0.63195938 11 4 5688 3.31200000 1298219739 1298219739 -11.00000000
8.25590992 5.38401318 0.86231893 69 5 5689 9.89400000 1298219741 1298219741 5.00000000
3.41221833 2.22439718 -0.64513576 6 6 5690 4.12400000 1298219744 1298219744 -9.00000000
8.33398533 5.43078423 1.22137451 2 7 5691 10.02200000 1298219746 1298219746 7.00000000
4.61406994 3.00557971 -0.67613113 6 8 5692 5.54800000 1298219748 1298219748 -7.00000000
7.05419254 4.59330893 -0.73646605 13 10 5693 8.45000000 1298219753 1298219753 -5.00000000
8.67621040 5.64732313 2.01227164 40 11 5694 10.54600000 1298219755 1298219755 11.00000000
8.23820877 5.36018229 -0.51509047 12 12 5695 9.84200000 1298219757 1298219757 -3.00000000
8.31507301 5.40812826 2.29000163 75 13 5696 10.18000000 1298219760 1298219760 13.00000000
8.23671913 5.35512161 -0.17148735 12 14 5697 9.82600000 1298219762 1298219762 -1.00000000
7.40335608 4.81330872 2.36612368 38 15 5697 9.14200000 1298219764 1298219764 15.00000000
1.92263019 1.24618661 -0.61391878 4 0 5705 2.37200000 1298219785 1298219785 -15.00000000
8.23840809 5.33782721 0.17134772 13 1 5706 9.81800000 1298219787 1298219787 1.00000000
2.26046348 1.46403885 -0.62176472 3 2 5707 2.76400000 1298219790 1298219790 -13.00000000
8.26040936 5.34798956 0.51571852 100 3 5708 9.85400000 1298219792 1298219792 3.00000000
2.72252083 1.76262605 -0.63043290 9 4 5708 3.30400000 1298219794 1298219794 -11.00000000
8.25123596 5.34000683 0.85987854 73 5 5709 9.86600000 1298219797 1298219797 5.00000000
3.41996217 2.21247268 -0.64513576 6 6 5710 4.12400000 1298219799 1298219799 -9.00000000
8.34288979 5.39519215 1.21991217 2 7 5711 10.01000000 1298219801 1298219801 7.00000000
4.59785986 2.97221255 -0.67223132 6 8 5712 5.51600000 1298219803 1298219803 -7.00000000
7.08022356 4.57514524 -0.73751187 13 10 5713 8.46200000 1298219808 1298219808 -5.00000000
8.69257164 5.61487246 2.01150846 40 11 5714 10.54200000 1298219810 1298219810 11.00000000
8.22331142 5.30972528 -0.51299703 12 12 5715 9.80200000 1298219813 1298219813 -3.00000000
8.30770302 5.36216164 2.28280330 78 13 5716 10.14800000 1298219815 1298219815 13.00000000
8.24696064 5.32091665 -0.17131282 12 14 5717 9.81600000 1298219817 1298219817 -1.00000000
7.42744207 4.79032993 2.36819434 40 15 5718 9.15000000 1298219820 1298219820 15.00000000
1.92675209 1.23980403 -0.61391878 4 0 5724 2.37200000 1298219840 1298219840 -15.00000000
8.23419952 5.29641533 0.17089397 13 1 5725 9.79200000 1298219843 1298219843 1.00000000
2.27186251 1.46075058 -0.62356430 3 2 5726 2.77200000 1298219845 1298219845 -13.00000000
8.24617577 5.30004978 0.51372975 99 3 5727 9.81600000 1298219847 1298219847 3.00000000
2.72504783 1.75146520 -0.62966967 9 4 5727 3.30000000 1298219850 1298219850 -11.00000000
8.25716496 5.30507660 0.85865837 85 5 5728 9.85200000 1298219852 1298219852 5.00000000
3.41896939 2.19578218 -0.64357138 6 6 5729 4.11400000 1298219854 1298219854 -9.00000000
8.34236050 5.35570002 1.21723104 2 7 5730 9.98800000 1298219856 1298219856 7.00000000
4.62272644 2.96659851 -0.67442495 4 8 5731 5.53400000 1298219859 1298219859 -7.00000000
7.10206461 4.55594444 -0.73820913 13 10 5732 8.47000000 1298219863 1298219863 -5.00000000
8.69626999 5.57647800 2.00807381 43 11 5733 10.52400000 1298219866 1298219866 11.00000000
8.23078537 5.27595949 -0.51236904 12 12 5734 9.79000000 1298219868 1298219868 -3.00000000
8.29262352 5.31355572 2.27380514 76 13 5735 10.10800000 1298219870 1298219870 13.00000000
8.23424911 5.27412558 -0.17068453 14 14 5736 9.78000000 1298219873 1298219873 -1.00000000
7.43594742 4.76280451 2.36612368 45 15 5736 9.14200000 1298219875 1298219875 15.00000000
1.92781162 1.23099148 -0.61288351 4 0 5744 2.36800000 1298219896 1298219896 -15.00000000
8.23409557 5.25580549 0.17051001 13 1 5745 9.77000000 1298219898 1298219898 1.00000000
2.27037644 1.44861853 -0.62176472 3 2 5746 2.76400000 1298219900 1298219900 -13.00000000
8.25452232 5.26478910 0.51310170 99 3 5747 9.80400000 1298219903 1298219903 3.00000000
2.73114491 1.74194229 -0.62966967 6 4 5747 3.30000000 1298219905 1298219905 -11.00000000
8.24875259 5.25908375 0.85586941 85 5 5748 9.82000000 1298219907 1298219907 5.00000000
3.42994499 2.18595767 -0.64419711 6 6 5749 4.11800000 1298219909 1298219909 -9.00000000
8.33756542 5.31161499 1.21381867 2 7 5750 9.96000000 1298219912 1298219912 7.00000000
4.63640261 2.95257664 -0.67491245 4 8 5751 5.53800000 1298219914 1298219914 -7.00000000
7.10952091 4.52577591 -0.73733759 13 10 5752 8.46000000 1298219919 1298219919 -5.00000000
8.72065163 5.54925060 2.00921869 37 11 5753 10.53000000 1298219921 1298219921 11.00000000
8.22555923 5.23218918 -0.51090360 17 12 5754 9.76200000 1298219923 1298219923 -3.00000000
8.29631996 5.27516603 2.26975608 74 13 5755 10.09000000 1298219926 1298219926 13.00000000
8.23066998 5.23140574 -0.17023078 14 14 5756 9.75400000 1298219928 1298219928 -1.00000000
7.44926691 4.73474646 2.36508846 45 15 5756 9.13800000 1298219930 1298219930 15.00000000
1.92556953 1.22011864 -0.61081296 4 0 5764 2.36000000 1298219951 1298219951 -15.00000000
8.23718834 5.21740055 0.17019586 13 1 5765 9.75200000 1298219953 1298219953 1.00000000
2.28859091 1.44902432 -0.62536395 3 2 5766 2.78000000 1298219956 1298219956 -13.00000000
8.26103592 5.22846651 0.51236904 100 3 5767 9.79000000 1298219958 1298219958 3.00000000
2.73389101 1.73029840 -0.62890643 5 4 5767 3.29600000 1298219960 1298219960 -11.00000000
8.24685574 5.21747589 0.85377765 81 5 5768 9.79600000 1298219962 1298219962 5.00000000
3.44423270 2.17819500 -0.64544863 6 6 5769 4.12600000 1298219965 1298219965 -9.00000000
8.36780071 5.28990412 1.21552479 2 7 5770 9.97400000 1298219967 1298219967 7.00000000
4.62989950 2.92577004 -0.67247504 4 8 5771 5.51800000 1298219969 1298219969 -7.00000000
7.12022209 4.49773932 -0.73681468 13 10 5772 8.45400000 1298219974 1298219974 -5.00000000
8.73498821 5.51563120 2.00807381 28 11 5773 10.52400000 1298219976 1298219976 11.00000000
8.22857189 5.19385052 -0.50996155 17 12 5774 9.74400000 1298219979 1298219979 -3.00000000
8.30314636 5.23889542 2.26660681 68 13 5775 10.07600000 1298219981 1298219981 13.00000000
8.22520161 5.18770885 -0.16974211 14 14 5776 9.72600000 1298219983 1298219983 -1.00000000
7.45921278 4.70459270 2.36301780 45 15 5776 9.13000000 1298219985 1298219985 15.00000000
1.92981672 1.21338975 -0.61081296 4 0 5784 2.36000000 1298220006 1298220006 -15.00000000
8.22656822 5.17052603 0.16960248 13 1 5785 9.71800000 1298220009 1298220009 1.00000000
2.28703451 1.43687999 -0.62356430 3 2 5786 2.77200000 1298220011 1298220011 -13.00000000
8.25386620 5.18366480 0.51079893 94 3 5787 9.76000000 1298220013 1298220013 3.00000000
2.74490190 1.72387719 -0.63005131 5 4 5787 3.30200000 1298220015 1298220015 -11.00000000
8.24308109 5.17488575 0.85151160 81 5 5788 9.77000000 1298220018 1298220018 5.00000000
3.44010258 2.15880895 -0.64325851 6 6 5789 4.11200000 1298220020 1298220020 -9.00000000
4.65017509 2.91591835 -0.67393744 4 8 5791 5.53000000 1298220025 1298220025 -7.00000000
7.13587856 4.47285795 -0.73681468 13 10 5792 8.45400000 1298220029 1298220029 -5.00000000
8.22633934 5.15237379 -0.50870550 17 12 5794 9.72000000 1298220034 1298220034 -3.00000000
8.31147289 5.20367527 2.26390743 68 13 5795 10.06400000 1298220036 1298220036 13.00000000
8.23987007 5.15684414 -0.16967230 14 14 5796 9.72200000 1298220038 1298220038 -1.00000000
7.48131895 4.68029547 2.36457086 45 15 5797 9.13600000 1298220041 1298220041 15.00000000
1.94387460 1.21278155 -0.61391878 4 0 5804 2.37200000 1298220062 1298220062 -15.00000000
8.22081184 5.12696362 0.16911381 13 1 5805 9.69000000 1298220064 1298220064 1.00000000
2.27549934 1.41857862 -0.61906528 3 2 5806 2.75200000 1298220066 1298220066 -13.00000000
8.25326443 5.14320230 0.50964755 89 3 5807 9.73800000 1298220068 1298220068 3.00000000
2.74423790 1.71013188 -0.62852484 5 4 5807 3.29400000 1298220071 1298220071 -11.00000000
8.24587440 5.13659954 0.84994280 77 5 5808 9.75200000 1298220073 1298220073 5.00000000
3.45767832 2.15305257 -0.64513576 4 6 5809 4.12400000 1298220075 1298220075 -9.00000000
4.65695429 2.89757109 -0.67344999 4 8 5811 5.52600000 1298220080 1298220080 -7.00000000
7.15144825 4.44792175 -0.73681468 13 10 5812 8.45400000 1298220085 1298220085 -5.00000000
8.21713352 5.10675907 -0.50703073 17 12 5814 9.68800000 1298220089 1298220089 -3.00000000
8.29979038 5.15612125 2.25580907 72 13 5815 10.02800000 1298220091 1298220091 13.00000000
8.23743439 5.11539125 -0.16925344 14 14 5816 9.69800000 1298220094 1298220094 -1.00000000
7.50008059 4.65749931 2.36560607 45 15 5816 9.14000000 1298220096 1298220096 15.00000000
1.94809616 1.20598876 -0.61391878 4 0 5824 2.37200000 1298220117 1298220117 -15.00000000
