# .PCD v0.7 - Point Cloud Data file format
VERSION 0.7
FIELDS x y z intensity laser_id azimuth distance_m adjustedtime timestamp vertical_angle
SIZE 4 4 4 1 1 2 8 8 4 8
TYPE F F F U U U F U U F
COUNT 1 1 1 1 1 1 1 1 1 1
WIDTH 527
HEIGHT 1
VIEWPOINT 0 0 0 1 0 0 0
POINTS 527
DATA ascii
8.05803013 -2.28778958 -0.43899399 12 12 10585 8.38800000 1296533503 1296533503 -3.00000000
8.05551815 -2.29011536 -0.14618136 14 14 10587 8.37600000 1296533508 1296533508 -1.00000000
8.12001133 -2.30998206 2.26207852 47 15 10588 8.74000000 1296533510 1296533510 15.00000000
2.09523630 -0.59882104 -0.58389574 4 0 10595 2.25600000 1296533531 1296533531 -15.00000000
8.04998875 -2.30221629 0.14614645 12 1 10596 8.37400000 1296533533 1296533533 1.00000000
2.45807171 -0.70344806 -0.59027159 4 2 10597 2.62400000 1296533535 1296533535 -13.00000000
8.08202362 -2.31290388 0.44056407 13 3 10597 8.41800000 1296533538 1296533538 3.00000000
2.93300414 -0.83991748 -0.59303439 4 4 10598 3.10800000 1296533540 1296533540 -11.00000000
8.07491970 -2.31392074 0.73489720 76 5 10599 8.43200000 1296533542 1296533542 5.00000000
3.63820410 -1.04323828 -0.59945685 4 6 10600 3.83200000 1296533544 1296533544 -9.00000000
8.07316113 -2.31646681 1.03125834 87 7 10601 8.46200000 1296533547 1296533547 7.00000000
4.83678532 -1.38875318 -0.61787754 8 8 10602 5.07000000 1296533549 1296533549 -7.00000000
9.91622353 -2.84905124 1.63411438 11 9 10603 10.44600000 1296533551 1296533551 9.00000000
10.34922409 -2.97541308 2.09317470 12 11 10604 10.97000000 1296533556 1296533556 11.00000000
8.05191422 -2.31645560 -0.43909869 17 12 10605 8.39000000 1296533558 1296533558 -3.00000000
8.06476974 -2.32320237 -0.14649551 14 14 10607 8.39400000 1296533563 1296533563 -1.00000000
8.11973190 -2.33903527 2.26414895 47 15 10607 8.74800000 1296533565 1296533565 15.00000000
2.10055566 -0.60828054 -0.58596629 4 0 10615 2.26400000 1296533586 1296533586 -15.00000000
8.05150700 -2.33308482 0.14632097 21 1 10616 8.38400000 1296533588 1296533588 1.00000000
2.45560122 -0.71202403 -0.59027159 4 2 10617 2.62400000 1296533590 1296533590 -13.00000000
8.07006454 -2.33998895 0.44035473 13 3 10617 8.41400000 1296533593 1296533593 3.00000000
2.93382525 -0.85124463 -0.59379756 4 4 10618 3.11200000 1296533595 1296533595 -11.00000000
8.07827282 -2.34542656 0.73594308 76 5 10619 8.44400000 1296533597 1296533597 5.00000000
3.64023113 -1.05758488 -0.60039550 6 6 10620 3.83800000 1296533600 1296533600 -9.00000000
8.07455730 -2.34740400 1.03247702 90 7 10621 8.47200000 1296533602 1296533602 7.00000000
4.82809591 -1.40451932 -0.61739010 8 8 10622 5.06600000 1296533604 1296533604 -7.00000000
9.82466221 -2.85990739 1.62066102 11 9 10623 10.36000000 1296533607 1296533607 9.00000000
10.25206852 -2.98626423 2.07562017 12 11 10624 10.87800000 1296533611 1296533611 11.00000000
8.04761410 -2.34566569 -0.43930802 17 12 10625 8.39400000 1296533614 1296533614 -3.00000000
8.04701233 -2.34853816 -0.14632097 16 14 10627 8.38400000 1296533618 1296533618 -1.00000000
8.12635326 -2.37169409 2.26829004 47 15 10627 8.76400000 1296533620 1296533620 15.00000000
2.09100461 -0.61343384 -0.58389574 4 0 10635 2.25600000 1296533641 1296533641 -15.00000000
8.06250095 -2.36680818 0.14667003 12 1 10636 8.40400000 1296533643 1296533643 1.00000000
2.45310092 -0.72059137 -0.59027159 4 2 10637 2.62400000 1296533646 1296533646 -13.00000000
8.06909847 -2.37180448 0.44077343 13 3 10638 8.42200000 1296533648 1296533648 3.00000000
2.92330170 -0.85926580 -0.59227115 4 4 10638 3.10400000 1296533650 1296533650 -11.00000000
8.07959366 -2.37642169 0.73681468 79 5 10639 8.45400000 1296533653 1296533653 5.00000000
3.64599252 -1.07307398 -0.60195982 4 6 10640 3.84800000 1296533655 1296533655 -9.00000000
8.06821823 -2.37613583 1.03272080 85 7 10641 8.47400000 1296533657 1296533657 7.00000000
4.82697201 -1.42248619 -0.61787754 8 8 10642 5.07000000 1296533660 1296533660 -7.00000000
9.73175240 -2.86790228 1.60689485 17 9 10642 10.27200000 1296533662 1296533662 9.00000000
6.54146338 -1.92897964 -0.59666824 20 10 10643 6.84600000 1296533664 1296533664 -5.00000000
10.15684795 -2.99702954 2.05844736 12 11 10644 10.78800000 1296533667 1296533667 11.00000000
8.06811047 -2.38222647 -0.44087809 12 12 10645 8.42400000 1296533669 1296533669 -3.00000000
8.05027199 -2.38001490 -0.14653040 16 14 10647 8.39600000 1296533673 1296533673 -1.00000000
8.11945915 -2.40201068 2.26880765 47 15 10648 8.76600000 1296533676 1296533676 15.00000000
2.08144331 -0.61852789 -0.58182520 4 0 10655 2.24800000 1296533696 1296533696 -15.00000000
8.05227375 -2.39436722 0.14663512 12 1 10656 8.40200000 1296533699 1296533699 1.00000000
2.45617390 -0.73081714 -0.59162128 4 2 10657 2.63000000 1296533701 1296533701 -13.00000000
8.07458878 -2.40253663 0.44150612 13 3 10657 8.43600000 1296533703 1296533703 3.00000000
2.92216611 -0.87002504 -0.59265274 5 4 10658 3.10600000 1296533706 1296533706 -11.00000000
8.08079720 -2.40745449 0.73768622 76 5 10659 8.46400000 1296533708 1296533708 5.00000000
3.63465238 -1.08353686 -0.60070837 4 6 10660 3.84000000 1296533710 1296533710 -9.00000000
8.08079910 -2.41052675 1.03540194 90 7 10661 8.49600000 1296533713 1296533713 7.00000000
4.82578182 -1.44046235 -0.61836505 8 8 10662 5.07400000 1296533715 1296533715 -7.00000000
9.66628647 -2.88715696 1.59782159 23 9 10663 10.21400000 1296533717 1296533717 9.00000000
6.54614401 -1.95522308 -0.59771407 48 10 10663 6.85800000 1296533720 1296533720 -5.00000000
10.09929848 -3.01841044 2.04890704 3 11 10664 10.73800000 1296533722 1296533722 11.00000000
8.06548595 -2.41209173 -0.44119212 12 12 10665 8.43000000 1296533724 1296533724 -3.00000000
8.04957771 -2.41039562 -0.14667003 16 14 10667 8.40400000 1296533729 1296533729 -1.00000000
8.11657619 -2.43200183 2.27036071 47 15 10668 8.77200000 1296533731 1296533731 15.00000000
2.08471179 -0.62782383 -0.58337814 4 0 10676 2.25400000 1296533752 1296533752 -15.00000000
8.04344368 -2.42386413 0.14663512 12 1 10677 8.40200000 1296533754 1296533754 1.00000000
2.45907617 -0.74150234 -0.59297097 4 2 10678 2.63600000 1296533756 1296533756 -13.00000000
8.08102703 -2.43672824 0.44234350 13 3 10678 8.45200000 1296533759 1296533759 3.00000000
2.92271686 -0.88186365 -0.59341598 5 4 10679 3.11000000 1296533761 1296533761 -11.00000000
8.06810379 -2.43590426 0.73733759 76 5 10680 8.46000000 1296533763 1296533763 5.00000000
3.63065648 -1.09685135 -0.60070837 4 6 10681 3.84000000 1296533766 1296533766 -9.00000000
8.06620979 -2.43840480 1.03467071 85 7 10682 8.49000000 1296533768 1296533768 7.00000000
4.81666946 -1.45699060 -0.61787754 8 8 10683 5.07000000 1296533770 1296533770 -7.00000000
8.16244316 -2.46905088 1.35065520 5 9 10683 8.63400000 1296533773 1296533773 9.00000000
6.56753826 -1.98786068 -0.60032874 100 10 10684 6.88800000 1296533775 1296533775 -5.00000000
8.14531708 -2.46697426 1.65431404 3 11 10685 8.67000000 1296533777 1296533777 11.00000000
8.04703426 -2.43874073 -0.44066876 12 12 10686 8.42000000 1296533779 1296533779 -3.00000000
8.05025673 -2.44278574 -0.14684455 18 14 10688 8.41400000 1296533784 1296533784 -1.00000000
8.11685085 -2.46454048 2.27294874 47 15 10689 8.78200000 1296533786 1296533786 15.00000000
2.08620334 -0.63622409 -0.58441341 4 0 10696 2.25800000 1296533807 1296533807 -15.00000000
8.05405998 -2.45776272 0.14698416 12 1 10697 8.42200000 1296533809 1296533809 1.00000000
2.44529009 -0.74666697 -0.59027159 4 2 10698 2.62400000 1296533812 1296533812 -13.00000000
8.07438183 -2.46550465 0.44244817 15 3 10698 8.45400000 1296533814 1296533814 3.00000000
2.91774321 -0.89148682 -0.59303439 5 4 10699 3.10800000 1296533816 1296533816 -11.00000000
8.08241558 -2.47104263 0.73942930 76 5 10700 8.48400000 1296533819 1296533819 5.00000000
3.61924982 -1.10720646 -0.59945685 4 6 10701 3.83200000 1296533821 1296533821 -9.00000000
8.06334305 -2.46828961 1.03540194 92 7 10702 8.49600000 1296533823 1296533823 7.00000000
4.80396223 -1.47146952 -0.61690259 8 8 10703 5.06200000 1296533826 1296533826 -7.00000000
9.55334568 -2.92622137 1.58249104 28 9 10703 10.11600000 1296533828 1296533828 9.00000000
9.82217312 -3.01231480 1.99700689 9 11 10705 10.46600000 1296533832 1296533832 11.00000000
8.03465366 -2.46564341 -0.44045940 12 12 10706 8.41600000 1296533835 1296533835 -3.00000000
8.05123806 -2.47380829 -0.14701907 20 14 10708 8.42400000 1296533839 1296533839 -1.00000000
8.11927795 -2.49626493 2.27605462 47 15 10709 8.79400000 1296533842 1296533842 15.00000000
2.08777380 -0.64427799 -0.58544868 4 0 10715 2.26200000 1296533862 1296533862 -15.00000000
8.04968643 -2.48563743 0.14705397 12 1 10716 8.42600000 1296533865 1296533865 1.00000000
2.44093871 -0.75419647 -0.58982164 4 2 10717 2.62200000 1296533867 1296533867 -13.00000000
8.06806946 -2.49285626 0.44255283 13 3 10717 8.45600000 1296533869 1296533869 3.00000000
2.90351701 -0.89767814 -0.59074467 4 4 10718 3.09600000 1296533872 1296533872 -11.00000000
8.08559799 -2.50136423 0.74047518 76 5 10719 8.49600000 1296533874 1296533874 5.00000000
3.61555839 -1.11920226 -0.59945685 6 6 10720 3.83200000 1296533876 1296533876 -9.00000000
8.07217979 -2.50030088 1.03759563 90 7 10721 8.51400000 1296533878 1296533878 7.00000000
4.79147196 -1.48504126 -0.61592764 8 8 10722 5.05400000 1296533881 1296533881 -7.00000000
9.52472115 -2.95203733 1.57936239 51 9 10722 10.09600000 1296533883 1296533883 9.00000000
9.72212696 -3.01694036 1.97868931 12 11 10724 10.37000000 1296533888 1296533888 11.00000000
8.05313683 -2.50056553 -0.44192481 12 12 10725 8.44400000 1296533890 1296533890 -3.00000000
8.05444717 -2.50405550 -0.14722849 16 14 10727 8.43600000 1296533895 1296533895 -1.00000000
8.12615395 -2.52634811 2.28019571 47 15 10727 8.81000000 1296533897 1296533897 15.00000000
2.08182430 -0.65040958 -0.58441341 4 0 10735 2.25800000 1296533918 1296533918 -15.00000000
8.06004715 -2.51968741 0.14740303 12 1 10736 8.44600000 1296533920 1296533920 1.00000000
2.44945049 -0.76620299 -0.59252107 4 2 10737 2.63400000 1296533922 1296533922 -13.00000000
8.07075596 -2.52458143 0.44318089 13 3 10737 8.46800000 1296533925 1296533925 3.00000000
2.88537693 -0.90311629 -0.58769172 4 4 10738 3.08000000 1296533927 1296533927 -11.00000000
8.08632374 -2.53255033 0.74134678 76 5 10739 8.50600000 1296533929 1296533929 5.00000000
3.61539960 -1.13299751 -0.60008264 4 6 10740 3.83600000 1296533931 1296533931 -9.00000000
8.08423901 -2.53499651 1.04027677 90 7 10741 8.53600000 1296533934 1296533934 7.00000000
4.79004669 -1.50294614 -0.61641514 8 8 10742 5.05800000 1296533936 1296533936 -7.00000000
9.48608685 -2.97639608 1.57466936 63 9 10742 10.06600000 1296533938 1296533938 9.00000000
6.53911686 -2.05299568 -0.59963149 169 10 10743 6.88000000 1296533941 1296533941 -5.00000000
9.66658497 -3.03673697 1.96953046 28 11 10744 10.32200000 1296533943 1296533943 11.00000000
8.04054832 -2.52746296 -0.44171548 12 12 10745 8.44000000 1296533945 1296533945 -3.00000000
8.03612041 -2.52915382 -0.14705397 16 14 10747 8.42600000 1296533950 1296533950 -1.00000000
8.12789536 -2.55959678 2.28330159 47 15 10748 8.82200000 1296533952 1296533952 15.00000000
2.07228780 -0.65498078 -0.58234286 4 0 10754 2.25000000 1296533973 1296533973 -15.00000000
8.05164719 -2.54640174 0.14740303 15 1 10755 8.44600000 1296533975 1296533975 1.00000000
2.44689631 -0.77432144 -0.59252107 4 2 10756 2.63400000 1296533978 1296533978 -13.00000000
8.07903099 -2.55816460 0.44412291 15 3 10757 8.48600000 1296533980 1296533980 3.00000000
2.89733934 -0.91742080 -0.59074467 5 4 10757 3.09600000 1296533982 1296533982 -11.00000000
8.07408237 -2.55814815 0.74099815 76 5 10758 8.50200000 1296533984 1296533984 5.00000000
3.59655833 -1.14020467 -0.59757966 4 6 10759 3.82000000 1296533987 1296533987 -9.00000000
8.08524895 -2.56479192 1.04149544 90 7 10760 8.54600000 1296533989 1296533989 7.00000000
4.78314447 -1.51822174 -0.61617142 8 8 10761 5.05600000 1296533991 1296533991 -7.00000000
9.63588047 -3.06223512 1.96533263 46 11 10763 10.30000000 1296533998 1296533998 11.00000000
8.03783321 -2.55592823 -0.44202948 17 12 10764 8.44600000 1296534001 1296534001 -3.00000000
8.04674435 -2.56185508 -0.14740303 14 14 10766 8.44600000 1296534005 1296534005 -1.00000000
8.11245060 -2.58277440 2.28123116 47 15 10766 8.81400000 1296534008 1296534008 15.00000000
2.06998897 -0.66221040 -0.58234286 4 0 10774 2.25000000 1296534028 1296534028 -15.00000000
8.04842377 -2.57632065 0.14750774 18 1 10775 8.45200000 1296534031 1296534031 1.00000000
2.42933154 -0.77810258 -0.58892184 4 2 10776 2.61800000 1296534033 1296534033 -13.00000000
8.08146381 -2.59000731 0.44475096 18 3 10777 8.49800000 1296534035 1296534035 3.00000000
2.90159774 -0.92992550 -0.59227115 4 4 10777 3.10400000 1296534037 1296534037 -11.00000000
8.07648659 -2.58996677 0.74204397 76 5 10778 8.51400000 1296534040 1296534040 5.00000000
3.59255648 -1.15275204 -0.59757966 4 6 10779 3.82000000 1296534042 1296534042 -9.00000000
8.07813644 -2.59360600 1.04173911 90 7 10780 8.54800000 1296534044 1296534044 7.00000000
4.78159571 -1.53612304 -0.61665887 6 8 10781 5.06000000 1296534047 1296534047 -7.00000000
6.53447533 -2.10050678 -0.60050309 36 10 10782 6.89000000 1296534051 1296534051 -5.00000000
9.59896660 -3.08743620 1.95999002 50 11 10783 10.27200000 1296534054 1296534054 11.00000000
8.04217052 -2.58825302 -0.44276220 17 12 10784 8.46000000 1296534056 1296534056 -3.00000000
8.04726887 -2.59299421 -0.14757755 16 14 10786 8.45600000 1296534061 1296534061 -1.00000000
8.12315464 -2.61901140 2.28692508 45 15 10787 8.83600000 1296534063 1296534063 15.00000000
2.07122350 -0.67098361 -0.58337814 4 0 10795 2.25400000 1296534084 1296534084 -15.00000000
8.05033970 -2.60950184 0.14771716 21 1 10796 8.46400000 1296534086 1296534086 1.00000000
2.42646337 -0.78700131 -0.58892184 4 2 10797 2.61800000 1296534088 1296534088 -13.00000000
8.06811714 -2.61837697 0.44454160 18 3 10798 8.49400000 1296534090 1296534090 3.00000000
2.89070034 -0.93813002 -0.59074467 4 4 10798 3.09600000 1296534093 1296534093 -11.00000000
8.07641506 -2.62262797 0.74291557 72 5 10799 8.52400000 1296534095 1296534095 5.00000000
3.60333681 -1.17079508 -0.60008264 4 6 10800 3.83600000 1296534097 1296534097 -9.00000000
8.06291294 -2.62135506 1.04100788 87 7 10801 8.54200000 1296534100 1296534100 7.00000000
4.75328064 -1.54626918 -0.61373401 8 8 10802 5.03600000 1296534102 1296534102 -7.00000000
9.46191216 -3.07801366 1.57592082 186 9 10802 10.07400000 1296534104 1296534104 9.00000000
6.53620529 -2.12752628 -0.60137463 28 10 10803 6.90000000 1296534107 1296534107 -5.00000000
9.58758640 -3.12259722 1.95999002 43 11 10804 10.27200000 1296534109 1296534109 11.00000000
8.04022598 -2.62018704 -0.44318089 17 12 10805 8.46800000 1296534111 1296534111 -3.00000000
8.04911709 -2.62619328 -0.14778697 16 14 10807 8.46800000 1296534116 1296534116 -1.00000000
8.12131023 -2.64974737 2.28899574 47 15 10807 8.84400000 1296534118 1296534118 15.00000000
2.07621169 -0.68061656 -0.58544868 4 0 10815 2.26200000 1296534139 1296534139 -15.00000000
8.05448246 -2.64194965 0.14796150 21 1 10816 8.47800000 1296534141 1296534141 1.00000000
2.42740440 -0.79668182 -0.58982164 4 2 10817 2.62200000 1296534143 1296534143 -13.00000000
8.06462097 -2.64839339 0.44485563 21 3 10818 8.50000000 1296534146 1296534146 3.00000000
2.88367748 -0.94698966 -0.58998144 4 4 10818 3.09200000 1296534148 1296534148 -11.00000000
8.08235359 -2.65577960 0.74431002 76 5 10819 8.54000000 1296534150 1296534150 5.00000000
3.58984518 -1.18028104 -0.59851825 2 6 10820 3.82600000 1296534153 1296534153 -9.00000000
8.07822704 -2.65754843 1.04417658 90 7 10821 8.56800000 1296534155 1296534155 7.00000000
4.75539684 -1.56533444 -0.61470896 8 8 10822 5.04400000 1296534157 1296534157 -7.00000000
9.45431995 -3.11390853 1.57654655 186 9 10823 10.07800000 1296534160 1296534160 9.00000000
6.54198599 -2.15469170 -0.60259479 16 10 10823 6.91400000 1296534162 1296534162 -5.00000000
9.57103443 -3.15420175 1.95884514 53 11 10824 10.26600000 1296534164 1296534164 11.00000000
8.04051495 -2.65136409 -0.44370425 17 12 10825 8.47800000 1296534166 1296534166 -3.00000000
8.03610325 -2.65302014 -0.14771716 16 14 10827 8.46400000 1296534171 1296534171 -1.00000000
8.12621880 -2.68434334 2.29313684 47 15 10828 8.86000000 1296534173 1296534173 15.00000000
2.05536795 -0.68213660 -0.58027232 4 0 10836 2.24200000 1296534194 1296534194 -15.00000000
8.05613232 -2.67523432 0.14817093 18 1 10837 8.49000000 1296534196 1296534196 1.00000000
2.42446828 -0.80557340 -0.58982164 4 2 10838 2.62200000 1296534199 1296534199 -13.00000000
8.06054592 -2.67982435 0.44516966 15 3 10839 8.50600000 1296534201 1296534201 3.00000000
2.88018727 -0.95755255 -0.58998144 4 4 10839 3.09200000 1296534203 1296534203 -11.00000000
8.07256508 -2.68538499 0.74431002 72 5 10840 8.54000000 1296534206 1296534206 5.00000000
3.57987237 -1.19155896 -0.59757966 2 6 10841 3.82000000 1296534208 1296534208 -9.00000000
8.08161640 -2.69152951 1.04588270 90 7 10842 8.58200000 1296534210 1296534210 7.00000000
4.74586105 -1.58149815 -0.61422151 4 8 10843 5.04000000 1296534213 1296534213 -7.00000000
9.42840004 -3.14189506 1.57404363 186 9 10843 10.06200000 1296534215 1296534215 9.00000000
6.55483532 -2.18558717 -0.60451221 60 10 10844 6.93600000 1296534217 1296534217 -5.00000000
9.55940914 -3.18926024 1.95884514 50 11 10845 10.26600000 1296534219 1296534219 11.00000000
8.04400444 -2.68524313 -0.44443694 21 12 10846 8.49200000 1296534222 1296534222 -3.00000000
8.03960228 -2.68689299 -0.14796150 14 14 10848 8.47800000 1296534226 1296534226 -1.00000000
8.11679840 -2.71269274 2.29313684 45 15 10848 8.86000000 1296534229 1296534229 15.00000000
2.04564881 -0.68684739 -0.57820177 4 0 10856 2.23400000 1296534249 1296534249 -15.00000000
8.04295349 -2.70206547 0.14810112 15 1 10857 8.48600000 1296534252 1296534252 1.00000000
2.43087721 -0.81713605 -0.59207118 3 2 10858 2.63200000 1296534254 1296534254 -13.00000000
8.06439400 -2.71240163 0.44590235 13 3 10859 8.52000000 1296534256 1296534256 3.00000000
2.87124491 -0.96572280 -0.58883655 4 4 10859 3.08600000 1296534259 1296534259 -11.00000000
8.06503105 -2.71418262 0.74448436 76 5 10860 8.54200000 1296534261 1296534261 5.00000000
3.57943535 -1.20530856 -0.59820539 4 6 10861 3.82400000 1296534263 1296534263 -9.00000000
8.07593441 -2.72099090 1.04637015 85 7 10862 8.58600000 1296534266 1296534266 7.00000000
4.73843050 -1.59742057 -0.61397773 4 8 10863 5.03800000 1296534268 1296534268 -7.00000000
9.43553829 -3.18274450 1.57717228 186 9 10864 10.08200000 1296534270 1296534270 9.00000000
9.54077721 -3.22009802 1.95731866 56 11 10865 10.25800000 1296534275 1296534275 11.00000000
8.05728912 -2.72097397 -0.44569302 25 12 10866 8.51600000 1296534277 1296534277 -3.00000000
8.03775120 -2.71750188 -0.14810112 14 14 10868 8.48600000 1296534282 1296534282 -1.00000000
8.11046124 -2.74366212 2.29417205 45 15 10869 8.86400000 1296534284 1296534284 15.00000000
2.06177545 -0.69947714 -0.58337814 4 0 10874 2.25400000 1296534305 1296534305 -15.00000000
8.04389286 -2.73053384 0.14827564 12 1 10875 8.49600000 1296534307 1296534307 1.00000000
2.41907215 -0.82163525 -0.58982164 4 2 10876 2.62200000 1296534309 1296534309 -13.00000000
8.07474327 -2.74414968 0.44694906 13 3 10877 8.54000000 1296534312 1296534312 3.00000000
2.88120866 -0.97916031 -0.59150791 4 4 10877 3.10000000 1296534314 1296534314 -11.00000000
8.07721329 -2.74656200 0.74640179 76 5 10878 8.56400000 1296534316 1296534316 5.00000000
3.57189083 -1.21527529 -0.59757966 4 6 10879 3.82000000 1296534319 1296534319 -9.00000000
8.07862091 -2.75018692 1.04783261 85 7 10880 8.59800000 1296534321 1296534321 7.00000000
4.75405836 -1.61933947 -0.61665887 6 8 10881 5.06000000 1296534323 1296534323 -7.00000000
9.42044449 -3.20881557 1.57623363 161 9 10881 10.07600000 1296534325 1296534325 9.00000000
9.51946545 -3.24625325 1.95502901 56 11 10883 10.24600000 1296534330 1296534330 11.00000000
8.03736019 -2.74240351 -0.44506496 21 12 10884 8.50400000 1296534332 1296534332 -3.00000000
8.04431343 -2.74791121 -0.14838035 14 14 10886 8.50200000 1296534337 1296534337 -1.00000000
8.11142635 -2.77083683 2.29676032 45 15 10886 8.87400000 1296534339 1296534339 15.00000000
2.06297565 -0.70792389 -0.58441341 4 0 10894 2.25800000 1296534360 1296534360 -15.00000000
8.05133438 -2.76444006 0.14858979 12 1 10895 8.51400000 1296534362 1296534362 1.00000000
2.41250324 -0.82880801 -0.58892184 4 2 10896 2.61800000 1296534365 1296534365 -13.00000000
8.06700420 -2.77296853 0.44705373 10 3 10897 8.54200000 1296534367 1296534367 3.00000000
2.86663342 -0.98538244 -0.58921820 4 4 10897 3.08800000 1296534369 1296534369 -11.00000000
8.07699776 -2.77797985 0.74727333 83 5 10898 8.57400000 1296534372 1296534372 5.00000000
3.57509851 -1.23030722 -0.59883112 4 6 10899 3.82800000 1296534374 1296534374 -9.00000000
8.06709480 -2.77772355 1.04758883 80 7 10900 8.59600000 1296534376 1296534376 7.00000000
4.71459389 -1.62428534 -0.61227161 4 8 10901 5.02400000 1296534378 1296534378 -7.00000000
9.43476486 -3.25233459 1.58061385 140 9 10902 10.10400000 1296534381 1296534381 9.00000000
9.50807571 -3.27946258 1.95502901 56 11 10903 10.24600000 1296534385 1296534385 11.00000000
8.02207470 -2.76848769 -0.44475096 17 12 10904 8.49800000 1296534388 1296534388 -3.00000000
8.04601192 -2.77989244 -0.14858979 14 14 10906 8.51400000 1296534392 1296534392 -1.00000000
8.11764812 -2.80622864 2.30141902 45 15 10907 8.89200000 1296534395 1296534395 15.00000000
2.05866694 -0.71448731 -0.58389574 4 0 10914 2.25600000 1296534415 1296534415 -15.00000000
8.04919243 -2.79515147 0.14872941 12 1 10915 8.52200000 1296534418 1296534418 1.00000000
2.40959549 -0.83722419 -0.58892184 4 2 10916 2.61800000 1296534420 1296534420 -13.00000000
8.04972935 -2.79848719 0.44663504 13 3 10917 8.53400000 1296534422 1296534422 3.00000000
2.86688519 -0.99667221 -0.58998144 4 4 10917 3.09200000 1296534425 1296534425 -11.00000000
8.06536961 -2.80550241 0.74709904 72 5 10918 8.57200000 1296534427 1296534427 5.00000000
3.56705093 -1.24148059 -0.59820539 6 6 10919 3.82400000 1296534429 1296534429 -9.00000000
8.06859779 -2.80978322 1.04905128 78 7 10920 8.60800000 1296534431 1296534431 7.00000000
4.71264458 -1.64203882 -0.61275905 6 8 10921 5.02800000 1296534434 1296534434 -7.00000000
9.50398540 -3.31521845 1.95655549 56 11 10923 10.25400000 1296534441 1296534441 11.00000000
8.02933311 -2.80239630 -0.44569302 17 12 10924 8.51600000 1296534443 1296534443 -3.00000000
8.03625965 -2.80796123 -0.14858979 14 14 10926 8.51400000 1296534448 1296534448 -1.00000000
8.11559296 -2.83568120 2.30348945 47 15 10926 8.90000000 1296534450 1296534450 15.00000000
2.05433750 -0.72102928 -0.58337814 4 0 10934 2.25400000 1296534471 1296534471 -15.00000000
8.05070686 -2.82720685 0.14893883 12 1 10935 8.53400000 1296534473 1296534473 1.00000000
2.39930415 -0.84304613 -0.58712226 4 2 10936 2.61000000 1296534475 1296534475 -13.00000000
8.06629086 -2.83584285 0.44810045 10 3 10937 8.56200000 1296534478 1296534478 3.00000000
2.85227585 -1.00276661 -0.58769172 4 4 10937 3.08000000 1296534480 1296534480 -11.00000000
8.06304550 -2.83628321 0.74779630 76 5 10938 8.58000000 1296534482 1296534482 5.00000000
3.56455898 -1.25458014 -0.59851825 8 6 10939 3.82600000 1296534484 1296534484 -9.00000000
8.06997490 -2.84188700 1.05051374 78 7 10940 8.62000000 1296534487 1296534487 7.00000000
4.71250105 -1.66045809 -0.61349028 4 8 10941 5.03400000 1296534489 1296534489 -7.00000000
9.38818836 -3.30794501 1.57654655 60 9 10941 10.07800000 1296534491 1296534491 9.00000000
6.52401209 -2.30002737 -0.60520947 12 10 10942 6.94400000 1296534494 1296534494 -5.00000000
9.50716686 -3.35359812 1.95960844 56 11 10943 10.27000000 1296534496 1296534496 11.00000000
8.03645229 -2.83638954 -0.44663504 17 12 10944 8.53400000 1296534498 1296534498 -3.00000000
8.03960705 -2.84065938 -0.14883412 16 14 10946 8.52800000 1296534503 1296534503 -1.00000000
8.12021732 -2.86914134 2.30763054 45 15 10946 8.91600000 1296534505 1296534505 15.00000000
2.04088473 -0.72431904 -0.58027232 4 0 10954 2.24200000 1296534526 1296534526 -15.00000000
8.04455757 -2.85663009 0.14900865 12 1 10955 8.53800000 1296534528 1296534528 1.00000000
2.41470957 -0.85794038 -0.59162128 4 2 10956 2.63000000 1296534531 1296534531 -13.00000000
8.05634212 -2.86398220 0.44810045 10 3 10957 8.56200000 1296534533 1296534533 3.00000000
2.85060811 -1.01337433 -0.58807331 4 4 10957 3.08200000 1296534535 1296534535 -11.00000000
8.05121803 -2.86374354 0.74762195 72 5 10958 8.57800000 1296534537 1296534537 5.00000000
3.55271387 -1.26436579 -0.59726679 8 6 10959 3.81800000 1296534540 1296534540 -9.00000000
8.06561661 -2.87203670 1.05124497 87 7 10960 8.62600000 1296534542 1296534542 7.00000000
4.70106602 -1.67489898 -0.61275905 4 8 10961 5.02800000 1296534544 1296534544 -7.00000000
9.38344383 -3.34498525 1.57779801 66 9 10962 10.08600000 1296534547 1296534547 9.00000000
6.52157354 -2.32479334 -0.60573244 12 10 10962 6.95000000 1296534549 1296534549 -5.00000000
9.49540234 -3.38676381 1.95960844 59 11 10963 10.27000000 1296534551 1296534551 11.00000000
8.04719448 -2.87180901 -0.44778645 17 12 10964 8.55600000 1296534554 1296534554 -3.00000000
8.05035686 -2.87610602 -0.14921808 16 14 10966 8.55000000 1296534558 1296534558 -1.00000000
8.10651398 -2.89616895 2.30659533 47 15 10966 8.91200000 1296534560 1296534560 15.00000000
2.04016209 -0.73209113 -0.58078992 4 0 10974 2.24400000 1296534581 1296534581 -15.00000000
8.04206562 -2.88739634 0.14914827 12 1 10975 8.54600000 1296534584 1296534584 1.00000000
2.40803218 -0.86504638 -0.59072149 4 2 10976 2.62600000 1296534586 1296534586 -13.00000000
8.06697083 -2.89951801 0.44925186 13 3 10977 8.58400000 1296534588 1296534588 3.00000000
2.84890079 -1.02398276 -0.58845496 4 4 10977 3.08400000 1296534590 1296534590 -11.00000000
8.05617142 -2.89722395 0.74901646 72 5 10978 8.59400000 1296534593 1296534593 5.00000000
3.54456139 -1.27542186 -0.59664106 8 6 10979 3.81400000 1296534595 1296534595 -9.00000000
8.06114483 -2.90219069 1.05197620 80 7 10980 8.63200000 1296534597 1296534597 7.00000000
4.71013212 -1.69668055 -0.61470896 6 8 10981 5.04400000 1296534600 1296534600 -7.00000000
9.39215279 -3.38508701 1.58123958 69 9 10982 10.10800000 1296534602 1296534602 9.00000000
6.52841377 -2.35294819 -0.60712689 12 10 10982 6.96600000 1296534604 1296534604 -5.00000000
9.47613525 -3.41722441 1.95808196 56 11 10983 10.26200000 1296534607 1296534607 11.00000000
8.04463577 -2.90259290 -0.44820514 17 12 10984 8.56400000 1296534609 1296534609 -3.00000000
8.16215038 -2.94660354 2.00341415 0 13 10985 8.90600000 1296534611 1296534611 13.00000000
8.04214954 -2.90486884 -0.14925298 18 14 10986 8.55200000 1296534613 1296534613 -1.00000000
8.10674572 -2.92980099 2.30970120 47 15 10987 8.92400000 1296534616 1296534616 15.00000000
2.04680395 -0.74214506 -0.58337814 4 0 10993 2.25400000 1296534637 1296534637 -15.00000000
8.04748440 -2.91950464 0.14942750 12 1 10994 8.56200000 1296534639 1296534639 1.00000000
2.40148664 -0.87169713 -0.58982164 4 2 10995 2.62200000 1296534641 1296534641 -13.00000000
8.06106663 -2.92761660 0.44946119 13 3 10996 8.58800000 1296534643 1296534643 3.00000000
2.85287094 -1.03610516 -0.58998144 4 4 10996 3.09200000 1296534646 1296534646 -11.00000000
8.06337357 -2.93004751 0.75058526 76 5 10997 8.61200000 1296534648 1296534648 5.00000000
3.53288651 -1.28446913 -0.59538954 8 6 10998 3.80600000 1296534650 1296534650 -9.00000000
8.06080437 -2.93229961 1.05319488 83 7 10999 8.64200000 1296534653 1296534653 7.00000000
4.68582582 -1.70550120 -0.61227161 6 8 11000 5.02400000 1296534655 1296534655 -7.00000000
9.38273144 -3.41688967 1.58155239 60 9 11001 10.11000000 1296534657 1296534657 9.00000000
6.53555202 -2.38003826 -0.60852140 12 10 11001 6.98200000 1296534660 1296534660 -5.00000000
9.46844006 -3.44997382 1.95884514 53 11 11002 10.26600000 1296534662 1296534662 11.00000000
8.03121281 -2.92788577 -0.44799578 17 12 11003 8.56000000 1296534664 1296534664 -3.00000000
8.16331863 -2.97766066 2.00611353 1 13 11004 8.91800000 1296534666 1296534666 13.00000000
8.04374313 -2.93563509 -0.14946240 16 14 11005 8.56400000 1296534669 1296534669 -1.00000000
8.10838985 -2.95922852 2.31280708 45 15 11005 8.93600000 1296534671 1296534671 15.00000000
2.05145645 -0.75194466 -0.58544868 4 0 11013 2.26200000 1296534692 1296534692 -15.00000000
8.04475403 -2.95033193 0.14956713 12 1 11014 8.57000000 1296534694 1296534694 1.00000000
2.39842939 -0.88007456 -0.58982164 4 2 11015 2.62200000 1296534696 1296534696 -13.00000000
8.05454731 -2.95711374 0.44967052 13 3 11016 8.59200000 1296534699 1296534699 3.00000000
2.84370780 -1.04402733 -0.58883655 4 4 11016 3.08600000 1296534701 1296534701 -11.00000000
8.06431770 -2.96229792 0.75163114 72 5 11017 8.62400000 1296534703 1296534703 5.00000000
3.52838135 -1.29679334 -0.59538954 8 6 11018 3.80600000 1296534706 1296534706 -9.00000000
8.06356144 -2.96521497 1.05490100 90 7 11019 8.65600000 1296534708 1296534708 7.00000000
4.66494036 -1.71636379 -0.61032170 6 8 11020 5.00800000 1296534710 1296534710 -7.00000000
9.38928509 -3.45644498 1.58468115 63 9 11021 10.13000000 1296534713 1296534713 9.00000000
7.11242819 -2.61827350 -0.66308087 17 10 11021 7.60800000 1296534715 1296534715 -5.00000000
9.47476292 -3.48978949 1.96266139 56 11 11022 10.28600000 1296534717 1296534717 11.00000000
8.03031445 -2.95935512 -0.44851914 17 12 11023 8.57000000 1296534719 1296534719 -3.00000000
8.15470314 -3.00681210 2.00656343 2 13 11024 8.92000000 1296534722 1296534722 13.00000000
8.03719902 -2.96507931 -0.14953221 18 14 11025 8.56800000 1296534724 1296534724 -1.00000000
8.11069775 -2.99219441 2.31643057 47 15 11025 8.95000000 1296534726 1296534726 15.00000000
2.04519606 -0.75775862 -0.58441341 4 0 11033 2.25800000 1296534747 1296534747 -15.00000000
8.05128193 -2.98465109 0.14988127 12 1 11034 8.58800000 1296534749 1296534749 1.00000000
2.39534259 -0.88844126 -0.58982164 4 2 11035 2.62200000 1296534752 1296534752 -13.00000000
8.05593300 -2.98797464 0.45029858 10 3 11035 8.60400000 1296534754 1296534754 3.00000000
2.83268380 -1.05121517 -0.58731008 4 4 11036 3.07800000 1296534756 1296534756 -11.00000000
8.05579567 -2.99112320 0.75180542 76 5 11037 8.62600000 1296534759 1296534759 5.00000000
3.52753663 -1.31047761 -0.59601533 8 6 11038 3.81000000 1296534761 1296534761 -9.00000000
8.06246471 -2.99680233 1.05611968 90 7 11039 8.66600000 1296534763 1296534763 7.00000000
4.66822338 -1.73609674 -0.61154038 6 8 11040 5.01800000 1296534765 1296534765 -7.00000000
9.37777138 -3.48756194 1.58468115 60 9 11040 10.13000000 1296534768 1296534768 9.00000000
7.10511255 -2.64377928 -0.66325521 17 10 11041 7.61000000 1296534770 1296534770 -5.00000000
9.47172260 -3.52626610 1.96456945 43 11 11042 10.29600000 1296534772 1296534772 11.00000000
8.04613781 -2.99712849 -0.44998455 17 12 11043 8.59800000 1296534775 1296534775 -3.00000000
8.14233208 -3.03457832 2.00611353 2 13 11044 8.91800000 1296534777 1296534777 13.00000000
8.03054714 -2.99451351 -0.14960203 18 14 11045 8.57200000 1296534779 1296534779 -1.00000000
8.10563374 -3.02251267 2.31798339 47 15 11045 8.95600000 1296534782 1296534782 15.00000000
2.02444696 -0.75811809 -0.57923704 4 0 11053 2.23800000 1296534802 1296534802 -15.00000000
8.04830456 -3.01554370 0.15002088 12 1 11054 8.59600000 1296534805 1296534805 1.00000000
2.39770103 -0.89884937 -0.59117138 3 2 11055 2.62800000 1296534807 1296534807 -13.00000000
8.05614758 -3.02168965 0.45092660 13 3 11056 8.61600000 1296534809 1296534809 3.00000000
2.82715893 -1.06040716 -0.58692849 4 4 11056 3.07600000 1296534812 1296534812 -11.00000000
8.05836296 -3.02412510 0.75302559 76 5 11057 8.64000000 1296534814 1296534814 5.00000000
3.51554346 -1.32000554 -0.59476382 8 6 11058 3.80200000 1296534816 1296534816 -9.00000000
8.06310463 -3.02911592 1.05758214 83 7 11059 8.67800000 1296534818 1296534818 7.00000000
4.66027689 -1.75168288 -0.61129665 6 8 11060 5.01600000 1296534821 1296534821 -7.00000000
7.09211111 -2.66716194 -0.66290659 17 10 11061 7.60600000 1296534825 1296534825 -5.00000000
8.05805779 -3.03364086 -0.45124063 17 12 11063 8.62200000 1296534830 1296534830 -3.00000000
8.14810276 -3.06916428 2.01016259 3 13 11064 8.93600000 1296534832 1296534832 13.00000000
8.02940178 -3.02605319 -0.14977655 18 14 11065 8.58200000 1296534835 1296534835 -1.00000000
8.09992409 -3.05424595 2.31953621 47 15 11066 8.96200000 1296534837 1296534837 15.00000000
2.02178836 -0.76518011 -0.57923704 4 0 11073 2.23800000 1296534858 1296534858 -15.00000000
8.03772926 -3.04361916 0.15002088 12 1 11074 8.59600000 1296534860 1296534860 1.00000000
2.37997007 -0.90169007 -0.58757216 3 2 11075 2.61200000 1296534862 1296534862 -13.00000000
8.06662750 -3.05617189 0.45207798 13 3 11075 8.63800000 1296534865 1296534865 3.00000000
2.83812642 -1.07583642 -0.58998144 4 4 11076 3.09200000 1296534867 1296534867 -11.00000000
8.04962063 -3.05294228 0.75319993 72 5 11077 8.64200000 1296534869 1296534869 5.00000000
3.50722051 -1.33086741 -0.59413809 8 6 11078 3.79800000 1296534871 1296534871 -9.00000000
8.06176186 -3.06076598 1.05880082 90 7 11079 8.68800000 1296534874 1296534874 7.00000000
4.64485550 -1.76441503 -0.61007792 4 8 11080 5.00600000 1296534876 1296534876 -7.00000000
7.06785822 -2.68623924 -0.66151208 12 10 11081 7.59000000 1296534881 1296534881 -5.00000000
8.03808498 -3.05819917 -0.45071724 12 12 11083 8.61200000 1296534885 1296534885 -3.00000000
8.15737343 -3.10521388 2.01511145 3 13 11084 8.95800000 1296534888 1296534888 13.00000000
8.04495239 -3.06402707 -0.15026522 14 14 11085 8.61000000 1296534890 1296534890 -1.00000000
8.10238934 -3.08590245 2.32315969 45 15 11085 8.97600000 1296534892 1296534892 15.00000000
2.03354001 -0.77775371 -0.58337814 4 0 11093 2.25400000 1296534913 1296534913 -15.00000000
8.03265858 -3.07380152 0.15012559 12 1 11094 8.60200000 1296534915 1296534915 1.00000000
2.37134838 -0.90790188 -0.58622247 4 2 11095 2.60600000 1296534917 1296534917 -13.00000000
8.06523705 -3.08788157 0.45260134 13 3 11095 8.64800000 1296534920 1296534920 3.00000000
2.82702041 -1.08292758 -0.58845496 4 4 11096 3.08400000 1296534922 1296534922 -11.00000000
8.05751991 -3.08815241 0.75494307 78 5 11097 8.66200000 1296534924 1296534924 5.00000000
3.50624251 -1.34451628 -0.59476382 8 6 11098 3.80200000 1296534927 1296534927 -9.00000000
8.04917526 -3.08817697 1.05855715 87 7 11099 8.68600000 1296534929 1296534929 7.00000000
4.64237452 -1.78204060 -0.61056542 4 8 11100 5.01000000 1296534931 1296534931 -7.00000000
7.01751995 -2.69517899 -0.65767723 12 10 11101 7.54600000 1296534936 1296534936 -5.00000000
9.45443535 -3.63300490 1.96876717 53 11 11102 10.31800000 1296534938 1296534938 11.00000000
8.02549744 -3.08552194 -0.45061257 12 12 11103 8.61000000 1296534941 1296534941 -3.00000000
8.15012169 -3.13506866 2.01601124 3 13 11104 8.96200000 1296534943 1296534943 13.00000000
8.04913807 -3.09783649 -0.15054446 14 14 11105 8.62600000 1296534945 1296534945 -1.00000000
8.10779476 -3.12041140 2.32781839 47 15 11105 8.99400000 1296534947 1296534947 15.00000000
2.02707219 -0.78380835 -0.58234286 4 0 11114 2.25000000 1296534968 1296534968 -15.00000000
8.03812408 -3.10971570 0.15043974 12 1 11115 8.62000000 1296534970 1296534970 1.00000000
2.36437011 -0.91518033 -0.58532262 4 2 11116 2.60200000 1296534973 1296534973 -13.00000000
8.06077099 -3.12171221 0.45302004 13 3 11117 8.65600000 1296534975 1296534975 3.00000000
2.82303238 -1.09328187 -0.58845496 4 4 11117 3.08400000 1296534977 1296534977 -11.00000000
8.06286716 -3.12414241 0.75651187 75 5 11118 8.68000000 1296534980 1296534980 5.00000000
3.50497460 -1.35878634 -0.59538954 8 6 11119 3.80600000 1296534982 1296534982 -9.00000000
8.06371212 -3.12770796 1.06196940 90 7 11120 8.71400000 1296534984 1296534984 7.00000000
4.62285757 -1.79401648 -0.60885924 4 8 11121 4.99600000 1296534987 1296534987 -7.00000000
9.37909603 -3.63979483 1.59344149 8 9 11121 10.18600000 1296534989 1296534989 9.00000000
6.62870550 -2.57376766 -0.62211770 4 10 11122 7.13800000 1296534991 1296534991 -5.00000000
8.03647327 -3.12359881 -0.45186865 12 12 11124 8.63400000 1296534996 1296534996 -3.00000000
8.14402485 -3.16703820 2.01736116 3 13 11125 8.96800000 1296534998 1296534998 13.00000000
8.04891109 -3.13166785 -0.15075389 14 14 11126 8.63800000 1296535000 1296535000 -1.00000000
8.11195564 -3.15782714 2.33247733 47 15 11127 9.01200000 1296535003 1296535003 15.00000000
2.02072501 -0.78947335 -0.58130759 4 0 11134 2.24600000 1296535023 1296535023 -15.00000000
8.04398251 -3.14430714 0.15075389 12 1 11135 8.63800000 1296535026 1296535026 1.00000000
2.36842084 -0.92626703 -0.58712226 4 2 11136 2.61000000 1296535028 1296535028 -13.00000000
8.05595398 -3.15060782 0.45333406 13 3 11136 8.66200000 1296535030 1296535030 3.00000000
2.80091619 -1.09597552 -0.58463877 4 4 11137 3.06400000 1296535033 1296535033 -11.00000000
8.05747795 -3.15444708 0.75703478 78 5 11138 8.68600000 1296535035 1296535035 5.00000000
3.49653149 -1.36957181 -0.59476382 8 6 11139 3.80200000 1296535037 1296535037 -9.00000000
8.07122803 -3.16307974 1.06440687 90 7 11140 8.73400000 1296535040 1296535040 7.00000000
4.62580776 -1.81376553 -0.61007792 4 8 11141 5.00600000 1296535042 1296535042 -7.00000000
9.36936951 -3.67558932 1.59406722 25 9 11142 10.19000000 1296535044 1296535044 9.00000000
6.54734468 -2.56851315 -0.61531955 4 10 11142 7.06000000 1296535047 1296535047 -5.00000000
9.45926476 -3.71275997 1.97525477 25 11 11143 10.35200000 1296535049 1296535049 11.00000000
8.04039288 -3.15747285 -0.45270601 12 12 11144 8.65000000 1296535051 1296535051 -3.00000000
8.13292027 -3.19544697 2.01736116 3 13 11145 8.96800000 1296535053 1296535053 13.00000000
8.04165268 -3.16120791 -0.15082370 14 14 11146 8.64200000 1296535056 1296535056 -1.00000000
8.10627651 -3.18824530 2.33403015 47 15 11147 9.01800000 1296535058 1296535058 15.00000000
2.00717521 -0.79226649 -0.57820177 4 0 11154 2.23400000 1296535079 1296535079 -15.00000000
8.04039764 -3.17530465 0.15089351 12 1 11155 8.64600000 1296535081 1296535081 1.00000000
2.37242270 -0.93739319 -0.58892184 4 2 11156 2.61800000 1296535083 1296535083 -13.00000000
8.05605316 -3.18311286 0.45396209 13 3 11156 8.67400000 1296535086 1296535086 3.00000000
2.80802798 -1.11007655 -0.58692849 4 4 11157 3.07600000 1296535088 1296535088 -11.00000000
8.05382919 -3.18548489 0.75773203 75 5 11158 8.69400000 1296535090 1296535090 5.00000000
3.48438239 -1.37886119 -0.59351236 8 6 11159 3.79400000 1296535093 1296535093 -9.00000000
8.07121181 -3.19561887 1.06586933 90 7 11160 8.74600000 1296535095 1296535095 7.00000000
4.61206579 -1.82697725 -0.60910296 4 8 11161 4.99800000 1296535097 1296535097 -7.00000000
9.38651466 -3.71827912 1.59907305 66 9 11161 10.22200000 1296535100 1296535100 9.00000000
6.52166891 -2.58474517 -0.61375076 8 10 11162 7.04200000 1296535102 1296535102 -5.00000000
9.46814728 -3.75444055 1.97983408 40 11 11163 10.37600000 1296535104 1296535104 11.00000000
8.04788780 -3.19288516 -0.45375273 12 12 11164 8.67000000 1296535106 1296535106 -3.00000000
8.15250874 -3.23603892 2.02500939 3 13 11165 9.00200000 1296535109 1296535109 13.00000000
8.03614426 -3.19147348 -0.15092841 12 14 11166 8.64800000 1296535111 1296535111 -1.00000000
8.09868908 -3.21794868 2.33506536 47 15 11167 9.02200000 1296535113 1296535113 15.00000000
2.01516414 -0.80356133 -0.58130759 4 0 11174 2.24600000 1296535134 1296535134 -15.00000000
8.02926445 -3.20335174 0.15089351 12 1 11175 8.64600000 1296535136 1296535136 1.00000000
2.35827684 -0.94133419 -0.58622247 4 2 11176 2.60600000 1296535139 1296535139 -13.00000000
8.07086182 -3.22158027 0.45542750 13 3 11176 8.70200000 1296535141 1296535141 3.00000000
2.80413604 -1.11987162 -0.58692849 4 4 11177 3.07600000 1296535143 1296535143 -11.00000000
8.06116199 -3.22097135 0.75947517 71 5 11178 8.71400000 1296535146 1296535146 5.00000000
3.47587967 -1.38954902 -0.59288663 8 6 11179 3.79000000 1296535148 1296535148 -9.00000000
8.06737995 -3.22672200 1.06684422 87 7 11180 8.75400000 1296535150 1296535150 7.00000000
4.60566044 -1.84306526 -0.60910296 4 8 11181 4.99800000 1296535153 1296535153 -7.00000000
9.38998413 -3.75762677 1.60188890 60 9 11181 10.24000000 1296535155 1296535155 9.00000000
6.51260662 -2.60749435 -0.61375076 8 10 11182 7.04200000 1296535157 1296535157 -5.00000000
9.45316124 -3.78673744 1.97945249 56 11 11183 10.37400000 1296535159 1296535159 11.00000000
8.03669357 -3.22095799 -0.45375273 12 12 11184 8.67000000 1296535162 1296535162 -3.00000000
8.14658928 -3.26665258 2.02635908 3 13 11185 9.00800000 1296535164 1296535164 13.00000000
8.04165840 -3.22620654 -0.15124255 12 14 11186 8.66600000 1296535166 1296535166 -1.00000000
8.09995651 -3.25123620 2.33868885 45 15 11187 9.03600000 1296535169 1296535169 15.00000000
2.01234698 -0.81059068 -0.58130759 4 0 11194 2.24600000 1296535189 1296535189 -15.00000000
8.03287125 -3.23733926 0.15117274 15 1 11195 8.66200000 1296535192 1296535192 1.00000000
2.36220598 -0.95247537 -0.58802205 4 2 11196 2.61400000 1296535194 1296535194 -13.00000000
8.05771446 -3.24898624 0.45532283 10 3 11196 8.70000000 1296535196 1296535196 3.00000000
2.80749249 -1.13259101 -0.58845496 4 4 11197 3.08400000 1296535199 1296535199 -11.00000000
8.05541229 -3.25132751 0.75999808 71 5 11198 8.72000000 1296535201 1296535201 5.00000000
3.47833467 -1.40463233 -0.59413809 8 6 11199 3.79800000 1296535203 1296535203 -9.00000000
8.05606747 -3.25486279 1.06684422 87 7 11200 8.75400000 1296535205 1296535205 7.00000000
4.59367752 -1.85689890 -0.60837173 4 8 11201 4.99200000 1296535208 1296535208 -7.00000000
9.38779831 -3.79482293 1.60376608 57 9 11201 10.25200000 1296535210 1296535210 9.00000000
6.52747679 -2.63992262 -0.61601681 8 10 11202 7.06800000 1296535212 1296535212 -5.00000000
9.46900463 -3.83149457 1.98555839 56 11 11203 10.40600000 1296535215 1296535215 11.00000000
8.02540112 -3.24899173 -0.45375273 12 12 11204 8.67000000 1296535217 1296535217 -3.00000000
8.04146767 -3.25876379 -0.15145199 14 14 11206 8.67800000 1296535222 1296535222 -1.00000000
8.10703468 -3.28533435 2.34386516 45 15 11206 9.05600000 1296535224 1296535224 15.00000000
2.01666284 -0.82052237 -0.58337814 4 0 11214 2.25400000 1296535245 1296535245 -15.00000000
8.04004288 -3.27289915 0.15152179 12 1 11215 8.68200000 1296535247 1296535247 1.00000000
2.35706186 -0.95998013 -0.58757216 4 2 11216 2.61200000 1296535249 1296535249 -13.00000000
8.05557346 -3.28085995 0.45584619 13 3 11216 8.71000000 1296535252 1296535252 3.00000000
2.79624963 -1.13942075 -0.58692849 4 4 11217 3.07600000 1296535254 1296535254 -11.00000000
8.05877399 -3.28544378 0.76139259 75 5 11218 8.73600000 1296535256 1296535256 5.00000000
3.46609402 -1.41378117 -0.59288663 8 6 11219 3.79000000 1296535258 1296535258 -9.00000000
8.06671238 -3.29196429 1.06976914 90 7 11220 8.77800000 1296535261 1296535261 7.00000000
4.58900547 -1.87367296 -0.60861552 4 8 11221 4.99400000 1296535263 1296535263 -7.00000000
9.38729668 -3.83279610 1.60595620 60 9 11221 10.26600000 1296535265 1296535265 9.00000000
6.52744436 -2.66645908 -0.61688834 8 10 11222 7.07800000 1296535268 1296535268 -5.00000000
9.48828411 -3.87789369 1.99242759 53 11 11223 10.44200000 1296535270 1296535270 11.00000000
8.01770878 -3.27849770 -0.45396209 12 12 11224 8.67400000 1296535272 1296535272 -3.00000000
8.03374481 -3.28832889 -0.15152179 14 14 11226 8.68200000 1296535277 1296535277 -1.00000000
8.10745335 -3.32015085 2.34748864 45 15 11227 9.07000000 1296535279 1296535279 15.00000000
1.99963498 -0.82133341 -0.57923704 4 0 11233 2.23800000 1296535300 1296535300 -15.00000000
8.03839397 -3.30334330 0.15169631 12 1 11234 8.69200000 1296535302 1296535302 1.00000000
2.35386562 -0.96779114 -0.58757216 4 2 11235 2.61200000 1296535305 1296535305 -13.00000000
8.04776573 -3.31047893 0.45605552 13 3 11236 8.71400000 1296535307 1296535307 3.00000000
2.78519320 -1.14569962 -0.58540201 4 4 11236 3.06800000 1296535309 1296535309 -11.00000000
8.05336189 -3.31442428 0.76191550 75 5 11237 8.74200000 1296535311 1296535311 5.00000000
3.46686649 -1.42752373 -0.59382522 8 6 11238 3.79600000 1296535314 1296535314 -9.00000000
8.06676388 -3.32323337 1.07123148 85 7 11239 8.79000000 1296535316 1296535316 7.00000000
4.57726097 -1.88661087 -0.60788429 4 8 11240 4.98800000 1296535318 1296535318 -7.00000000
9.37636089 -3.86465716 1.60626912 60 9 11240 10.26800000 1296535321 1296535321 9.00000000
6.53514338 -2.69492626 -0.61845714 20 10 11241 7.09600000 1296535323 1296535323 -5.00000000
9.48989105 -3.91532683 1.99548042 50 11 11242 10.45800000 1296535325 1296535325 11.00000000
8.02156162 -3.31116390 -0.45479947 12 12 11243 8.69000000 1296535328 1296535328 -3.00000000
8.02464485 -3.31571531 -0.15155670 14 14 11245 8.68400000 1296535332 1296535332 -1.00000000
8.10233879 -3.34781790 2.34904170 45 15 11245 9.07600000 1296535335 1296535335 15.00000000
1.98248053 -0.82238668 -0.57509589 4 0 11253 2.22200000 1296535355 1296535355 -15.00000000
8.03789616 -3.33598161 0.15190575 12 1 11254 8.70400000 1296535358 1296535358 1.00000000
2.35227275 -0.97674912 -0.58802205 4 2 11255 2.61400000 1296535360 1296535360 -13.00000000
8.06013870 -3.34851193 0.45741627 13 3 11256 8.74000000 1296535362 1296535362 3.00000000
2.79024196 -1.15918088 -0.58731008 5 4 11256 3.07800000 1296535364 1296535364 -11.00000000
8.04542351 -3.34404492 0.76226413 71 5 11257 8.74600000 1296535367 1296535367 5.00000000
3.46003842 -1.43885815 -0.59351236 6 6 11258 3.79400000 1296535369 1296535369 -9.00000000
8.06794453 -3.35670900 1.07293773 80 7 11259 8.80400000 1296535371 1296535371 7.00000000
4.55232143 -1.89494848 -0.60544688 2 8 11260 4.96800000 1296535374 1296535374 -7.00000000
9.38036919 -3.90659165 1.60939777 60 9 11261 10.28800000 1296535376 1296535376 9.00000000
6.52201796 -2.71618962 -0.61810851 24 10 11261 7.09200000 1296535378 1296535378 -5.00000000
9.49791336 -3.95749021 2.00005984 50 11 11262 10.48200000 1296535381 1296535381 11.00000000
8.03207684 -3.34836602 -0.45605552 12 12 11263 8.71400000 1296535383 1296535383 -3.00000000
8.02409458 -3.34832668 -0.15176612 12 14 11265 8.69600000 1296535388 1296535388 -1.00000000
8.09179688 -3.37823629 2.34955931 45 15 11266 9.07800000 1296535390 1296535390 15.00000000
1.99385226 -0.83527339 -0.57923704 4 0 11273 2.23800000 1296535411 1296535411 -15.00000000
8.02989006 -3.36556482 0.15197556 12 1 11274 8.70800000 1296535413 1296535413 1.00000000
2.34166050 -0.98193973 -0.58622247 4 2 11275 2.60600000 1296535415 1296535415 -13.00000000
8.05945206 -3.38126278 0.45804429 10 3 11276 8.75200000 1296535417 1296535417 3.00000000
2.78617883 -1.16891348 -0.58731008 5 4 11276 3.07800000 1296535420 1296535420 -11.00000000
8.05574608 -3.38136172 0.76435584 78 5 11277 8.77000000 1296535422 1296535422 5.00000000
3.43678188 -1.44327867 -0.59038365 6 6 11278 3.77400000 1296535424 1296535424 -9.00000000
8.05800819 -3.38561988 1.07318139 83 7 11279 8.80600000 1296535427 1296535427 7.00000000
4.57129860 -1.92159700 -0.60885924 4 8 11280 4.99600000 1296535429 1296535429 -7.00000000
9.39285755 -3.94839358 1.61377800 60 9 11280 10.31600000 1296535431 1296535431 9.00000000
6.51984310 -2.74202895 -0.61880577 37 10 11281 7.10000000 1296535434 1296535434 -5.00000000
9.49489880 -3.99518847 2.00234962 50 11 11282 10.49400000 1296535436 1296535436 11.00000000
8.02770233 -3.37948275 -0.45647421 12 12 11283 8.72200000 1296535438 1296535438 -3.00000000
8.02341461 -3.38097477 -0.15197556 12 14 11285 8.70800000 1296535443 1296535443 -1.00000000
8.09301186 -3.41030216 2.35318279 45 15 11285 9.09200000 1296535445 1296535445 15.00000000
1.99448287 -0.84373349 -0.58027232 4 0 11293 2.24200000 1296535466 1296535466 -15.00000000
8.02361774 -3.39591193 0.15208027 12 1 11294 8.71400000 1296535468 1296535468 1.00000000
2.33283520 -0.98782808 -0.58487272 4 2 11295 2.60000000 1296535470 1296535470 -13.00000000
8.05495548 -3.41249132 0.45846298 10 3 11296 8.76000000 1296535473 1296535473 3.00000000
2.78027368 -1.17786610 -0.58692849 5 4 11296 3.07600000 1296535475 1296535475 -11.00000000
8.05123234 -3.41257119 0.76505309 78 5 11297 8.77800000 1296535477 1296535477 5.00000000
