# .PCD v0.7 - Point Cloud Data file format
VERSION 0.7
FIELDS x y z intensity laser_id azimuth distance_m adjustedtime timestamp vertical_angle
SIZE 4 4 4 1 1 2 8 8 4 8
TYPE F F F U U U F U U F
COUNT 1 1 1 1 1 1 1 1 1 1
WIDTH 519
HEIGHT 1
VIEWPOINT 0 0 0 1 0 0 0
POINTS 519
DATA ascii
-3.03147864 -2.30686045 -0.46773455 1 8 23273 3.83800000 1297568471 1297568471 -7.00000000
-4.01666784 -3.05545187 -0.44153100 6 10 23274 5.06600000 1297568476 1297568476 -5.00000000
-5.87358284 -4.46475840 -0.38665804 3 12 23276 7.38800000 1297568480 1297568480 -3.00000000
-8.26854420 -6.28299284 2.39752841 14 13 23277 10.65800000 1297568482 1297568482 13.00000000
-8.36257839 -6.35214472 2.81388068 38 15 23278 10.87200000 1297568487 1297568487 15.00000000
-1.53383994 -1.16171825 -0.51556754 4 0 23286 1.99200000 1297568508 1297568508 -15.00000000
-1.75898468 -1.33127511 -0.50928921 4 2 23288 2.26400000 1297568512 1297568512 -13.00000000
-2.04474330 -1.54698837 -0.49839309 3 4 23289 2.61200000 1297568517 1297568517 -11.00000000
-2.45184612 -1.85364413 -0.48682407 2 6 23291 3.11200000 1297568522 1297568522 -9.00000000
-3.03000927 -2.28908491 -0.46627212 1 8 23293 3.82600000 1297568526 1297568526 -7.00000000
-4.01776934 -3.03420806 -0.44048512 6 10 23294 5.05400000 1297568531 1297568531 -5.00000000
-5.89391470 -4.44783783 -0.38697207 3 12 23296 7.39400000 1297568535 1297568535 -3.00000000
-8.31998444 -6.27639055 2.40607643 15 13 23297 10.69600000 1297568538 1297568538 13.00000000
-8.39241314 -6.32873106 2.81646895 16 15 23298 10.88200000 1297568542 1297568542 15.00000000
-1.52862132 -1.14939106 -0.51246172 4 0 23306 1.98000000 1297568563 1297568563 -15.00000000
-1.76673687 -1.32746828 -0.51018900 4 2 23308 2.26800000 1297568568 1297568568 -13.00000000
-2.05327034 -1.54219949 -0.49915633 3 4 23309 2.61600000 1297568572 1297568572 -11.00000000
-2.45830178 -1.84507430 -0.48682407 2 6 23311 3.11200000 1297568577 1297568577 -9.00000000
-3.04909778 -2.28683186 -0.46797827 1 8 23313 3.84000000 1297568581 1297568581 -7.00000000
-4.02833605 -3.02016497 -0.44048512 6 10 23314 5.05400000 1297568586 1297568586 -5.00000000
-5.90620756 -4.42484188 -0.38676271 3 12 23316 7.39000000 1297568591 1297568591 -3.00000000
-8.37303829 -6.27067327 2.41507459 14 13 23317 10.73600000 1297568593 1297568593 13.00000000
-1.54655707 -1.15444863 -0.51712048 4 0 23326 1.99800000 1297568618 1297568618 -15.00000000
-1.76823580 -1.31896269 -0.50928921 4 2 23328 2.26400000 1297568623 1297568623 -13.00000000
-2.06808448 -1.54206431 -0.50144607 3 4 23329 2.62800000 1297568628 1297568628 -11.00000000
-2.44730306 -1.82349908 -0.48338249 1 6 23331 3.09000000 1297568632 1297568632 -9.00000000
-3.05706167 -2.27617455 -0.46797827 1 8 23333 3.84000000 1297568637 1297568637 -7.00000000
-4.03246069 -3.00132680 -0.43978786 6 10 23334 5.04600000 1297568641 1297568641 -5.00000000
-5.90559101 -4.39227915 -0.38571599 3 12 23336 7.37000000 1297568646 1297568646 -3.00000000
-8.44491959 -6.27861404 2.42947149 14 13 23337 10.80000000 1297568648 1297568648 13.00000000
-7.45277596 -5.53693819 2.48776865 2 15 23339 9.61200000 1297568653 1297568653 15.00000000
-1.54592109 -1.14559245 -0.51556754 4 0 23346 1.99200000 1297568674 1297568674 -15.00000000
-1.76969683 -1.31046295 -0.50838935 4 2 23348 2.26000000 1297568678 1297568678 -13.00000000
-2.07029891 -1.53249979 -0.50068283 3 4 23349 2.62400000 1297568683 1297568683 -11.00000000
-2.46159387 -1.82081890 -0.48494685 2 6 23351 3.10000000 1297568687 1297568687 -9.00000000
-3.06179571 -2.26312971 -0.46749079 1 8 23353 3.83600000 1297568692 1297568692 -7.00000000
-4.04932261 -2.99196839 -0.44048512 6 10 23354 5.05400000 1297568697 1297568697 -5.00000000
-5.91446018 -4.36689281 -0.38529730 3 12 23356 7.36200000 1297568701 1297568701 -3.00000000
-8.50755119 -6.27918577 2.44116879 12 13 23357 10.85200000 1297568704 1297568704 13.00000000
-7.58146811 -5.59362602 2.52452087 2 15 23358 9.75400000 1297568708 1297568708 15.00000000
-1.55769122 -1.14591312 -0.51815575 5 0 23366 2.00200000 1297568729 1297568729 -15.00000000
-1.77740073 -1.30658615 -0.50928921 4 2 23368 2.26400000 1297568733 1297568733 -13.00000000
-2.06614327 -1.51828849 -0.49839309 3 4 23369 2.61200000 1297568738 1297568738 -11.00000000
-2.48067260 -1.82156861 -0.48744980 2 6 23371 3.11600000 1297568743 1297568743 -9.00000000
-3.08568144 -2.26417184 -0.46992818 1 8 23373 3.85600000 1297568747 1297568747 -7.00000000
-4.06616783 -2.98252916 -0.44118237 9 10 23374 5.06200000 1297568752 1297568752 -5.00000000
-5.93611097 -4.35094357 -0.38571599 3 12 23376 7.37000000 1297568757 1297568757 -3.00000000
-8.46593094 -6.20066404 2.81181002 35 15 23378 10.86400000 1297568763 1297568763 15.00000000
-1.55544126 -1.13591146 -0.51608515 4 0 23386 1.99400000 1297568784 1297568784 -15.00000000
-1.79139566 -1.30726624 -0.51198858 4 2 23388 2.27600000 1297568789 1297568789 -13.00000000
-2.06191397 -1.50412488 -0.49610338 3 4 23389 2.60000000 1297568793 1297568793 -11.00000000
-2.48222709 -1.80940759 -0.48651120 2 6 23391 3.11000000 1297568798 1297568798 -9.00000000
-3.07752061 -2.24169922 -0.46749079 1 8 23393 3.83600000 1297568803 1297568803 -7.00000000
-4.06689024 -2.96128058 -0.44013649 9 10 23394 5.05000000 1297568807 1297568807 -5.00000000
-5.97064209 -4.34429741 -0.38697207 3 12 23396 7.39400000 1297568812 1297568812 -3.00000000
-8.47922421 -6.16277838 2.80870438 35 15 23399 10.85200000 1297568819 1297568819 15.00000000
-1.54219186 -1.11800230 -0.51039118 4 0 23406 1.97200000 1297568839 1297568839 -15.00000000
-1.79594803 -1.30100513 -0.51198858 4 2 23408 2.27600000 1297568844 1297568844 -13.00000000
-2.07669258 -1.50382721 -0.49839309 3 4 23409 2.61200000 1297568849 1297568849 -11.00000000
-2.48692751 -1.79957390 -0.48619831 2 6 23411 3.10800000 1297568853 1297568853 -9.00000000
-3.10141301 -2.24257469 -0.46992818 1 8 23413 3.85600000 1297568858 1297568858 -7.00000000
-4.07558775 -2.94589925 -0.43996218 9 10 23414 5.04800000 1297568863 1297568863 -5.00000000
-5.97605562 -4.31641293 -0.38634402 3 12 23416 7.38200000 1297568867 1297568867 -3.00000000
-8.50381851 -6.13540363 2.80973959 38 15 23419 10.85600000 1297568874 1297568874 15.00000000
-1.56490147 -1.12615323 -0.51660281 4 0 23426 1.99600000 1297568895 1297568895 -15.00000000
-1.79414988 -1.29017735 -0.51018900 4 2 23428 2.26800000 1297568899 1297568899 -13.00000000
-2.09149408 -1.50344455 -0.50068283 3 4 23429 2.62400000 1297568904 1297568904 -11.00000000
-2.48196363 -1.78281498 -0.48400822 2 6 23431 3.09400000 1297568909 1297568909 -9.00000000
-3.11567283 -2.23636532 -0.47090313 1 8 23433 3.86400000 1297568913 1297568913 -7.00000000
-4.07775211 -2.92584729 -0.43909064 9 10 23434 5.03800000 1297568918 1297568918 -5.00000000
-5.97485495 -4.28388834 -0.38529730 3 12 23436 7.36200000 1297568922 1297568922 -3.00000000
-7.55298519 -5.40940046 2.48932147 9 15 23439 9.61800000 1297568929 1297568929 15.00000000
-1.57039487 -1.12180674 -0.51712048 4 0 23446 1.99800000 1297568950 1297568950 -15.00000000
-1.79388416 -1.28051019 -0.50883931 4 2 23448 2.26200000 1297568955 1297568955 -13.00000000
-2.09672928 -1.49613464 -0.50068283 3 4 23449 2.62400000 1297568959 1297568959 -11.00000000
-2.49943018 -1.78216815 -0.48619831 2 6 23451 3.10800000 1297568964 1297568964 -9.00000000
-3.10405970 -2.21165299 -0.46797827 1 8 23453 3.84000000 1297568969 1297568969 -7.00000000
-4.09443140 -2.91621900 -0.43978786 9 10 23454 5.04600000 1297568973 1297568973 -5.00000000
-5.99953508 -4.26995468 -0.38592535 3 12 23456 7.37400000 1297568978 1297568978 -3.00000000
-8.81273937 -6.26983500 2.49695659 5 13 23457 11.10000000 1297568980 1297568980 13.00000000
-7.58914137 -5.39531565 2.49501562 36 15 23459 9.64000000 1297568985 1297568985 15.00000000
-1.57291985 -1.11492622 -0.51660281 4 0 23467 1.99600000 1297569005 1297569005 -15.00000000
-1.79697514 -1.27280021 -0.50838935 4 2 23469 2.26000000 1297569010 1297569010 -13.00000000
-2.09899426 -1.48617077 -0.49991956 3 4 23470 2.62000000 1297569015 1297569015 -11.00000000
-2.49949527 -1.76843166 -0.48494685 2 6 23472 3.10000000 1297569019 1297569019 -9.00000000
-3.11538696 -2.20255327 -0.46846575 1 8 23474 3.84400000 1297569024 1297569024 -7.00000000
-4.11485481 -2.90809202 -0.44083375 9 10 23475 5.05800000 1297569028 1297569028 -5.00000000
-6.02167082 -4.25254536 -0.38634402 3 12 23477 7.38200000 1297569033 1297569033 -3.00000000
-7.60634995 -5.36767817 2.49449801 36 15 23479 9.63800000 1297569040 1297569040 15.00000000
-1.57996202 -1.11165226 -0.51763809 4 0 23487 2.00000000 1297569061 1297569061 -15.00000000
-1.80300128 -1.26764071 -0.50883931 4 2 23489 2.26200000 1297569065 1297569065 -13.00000000
-2.09453177 -1.47206151 -0.49762985 3 4 23490 2.60800000 1297569070 1297569070 -11.00000000
-2.52020192 -1.76991355 -0.48776266 2 6 23492 3.11800000 1297569074 1297569074 -9.00000000
-3.13118076 -2.19736648 -0.46968445 1 8 23494 3.85400000 1297569079 1297569079 -7.00000000
-4.11519432 -2.88684535 -0.43978786 9 10 23495 5.04600000 1297569084 1297569084 -5.00000000
-6.03647852 -4.23149967 -0.38634402 3 12 23497 7.38200000 1297569088 1297569088 -3.00000000
-7.62913704 -5.34197950 2.49553323 38 15 23500 9.64200000 1297569095 1297569095 15.00000000
-1.57730520 -1.10198116 -0.51556754 5 0 23506 1.99200000 1297569116 1297569116 -15.00000000
-1.81838012 -1.26946342 -0.51198858 4 2 23508 2.27600000 1297569121 1297569121 -13.00000000
-2.10584164 -1.46960199 -0.49915633 3 4 23509 2.61600000 1297569125 1297569125 -11.00000000
-2.51795578 -1.75589693 -0.48619831 2 6 23511 3.10800000 1297569130 1297569130 -9.00000000
-3.13030696 -2.18129659 -0.46846575 1 8 23513 3.84400000 1297569134 1297569134 -7.00000000
-4.11820555 -2.86862779 -0.43909064 9 10 23514 5.03800000 1297569139 1297569139 -5.00000000
-6.03408480 -4.20004892 -0.38529730 3 12 23516 7.36200000 1297569144 1297569144 -3.00000000
-7.63002253 -5.30695438 2.49035692 40 15 23518 9.62200000 1297569151 1297569151 15.00000000
-1.57955468 -1.09536779 -0.51504987 5 0 23526 1.99000000 1297569171 1297569171 -15.00000000
-1.82280028 -1.26310837 -0.51198858 4 2 23528 2.27600000 1297569176 1297569176 -13.00000000
-2.11095858 -1.46224225 -0.49915633 3 4 23529 2.61600000 1297569180 1297569180 -11.00000000
-2.52569389 -1.74822128 -0.48651120 2 6 23531 3.11000000 1297569185 1297569185 -9.00000000
-3.15586090 -2.18277788 -0.47114688 3 8 23533 3.86600000 1297569190 1297569190 -7.00000000
-4.12819386 -2.85423517 -0.43909064 9 10 23534 5.03800000 1297569194 1297569194 -5.00000000
-6.05856848 -4.18577194 -0.38592535 3 12 23536 7.37400000 1297569199 1297569199 -3.00000000
-7.65260220 -5.28114796 2.49139214 42 15 23539 9.62600000 1297569206 1297569206 15.00000000
-1.58177733 -1.08875215 -0.51453227 4 0 23546 1.98800000 1297569227 1297569227 -15.00000000
-1.81435335 -1.24790323 -0.50838935 4 2 23548 2.26000000 1297569231 1297569231 -13.00000000
-2.11928558 -1.45708930 -0.49991956 3 4 23549 2.62000000 1297569236 1297569236 -11.00000000
-2.52526832 -1.73491991 -0.48525971 2 6 23551 3.10200000 1297569240 1297569240 -9.00000000
-3.13891268 -2.15489578 -0.46749079 1 8 23553 3.83600000 1297569245 1297569245 -7.00000000
-4.15455961 -2.85108137 -0.44083375 6 10 23554 5.05800000 1297569250 1297569250 -5.00000000
-6.07643700 -4.16685724 -0.38613468 3 12 23556 7.37800000 1297569254 1297569254 -3.00000000
-7.68282175 -5.26447773 2.49553323 45 15 23558 9.64200000 1297569261 1297569261 15.00000000
-1.59354377 -1.08867288 -0.51712048 5 0 23566 1.99800000 1297569282 1297569282 -15.00000000
-1.82191718 -1.24375975 -0.50928921 4 2 23568 2.26400000 1297569286 1297569286 -13.00000000
-2.12111545 -1.44746947 -0.49915633 3 4 23569 2.61600000 1297569291 1297569291 -11.00000000
-2.54273319 -1.73388481 -0.48744980 2 6 23571 3.11600000 1297569296 1297569296 -9.00000000
-3.13657260 -2.13721919 -0.46602836 1 8 23573 3.82400000 1297569300 1297569300 -7.00000000
-4.16777992 -2.83880496 -0.44118237 6 10 23574 5.06200000 1297569305 1297569305 -5.00000000
-6.06782961 -4.12988806 -0.38466927 3 12 23576 7.35000000 1297569309 1297569309 -3.00000000
-7.70206547 -5.23628378 2.49553323 42 15 23579 9.64200000 1297569316 1297569316 15.00000000
-1.59272587 -1.07957315 -0.51556754 4 0 23587 1.99200000 1297569337 1297569337 -15.00000000
-1.83291745 -1.24144506 -0.51108879 4 2 23589 2.27200000 1297569342 1297569342 -13.00000000
-2.11665249 -1.43308139 -0.49686661 3 4 23590 2.60400000 1297569346 1297569346 -11.00000000
-2.54907107 -1.72455359 -0.48744980 2 6 23592 3.11600000 1297569351 1297569351 -9.00000000
-3.14767408 -2.12793231 -0.46651584 1 8 23594 3.82800000 1297569356 1297569356 -7.00000000
-4.16990232 -2.81793237 -0.44031081 3 10 23595 5.05200000 1297569360 1297569360 -5.00000000
-6.09616709 -4.11656237 -0.38550666 3 12 23597 7.36600000 1297569365 1297569365 -3.00000000
-7.71389103 -5.20504427 2.49346256 42 15 23599 9.63400000 1297569372 1297569372 15.00000000
-1.59167600 -1.07077193 -0.51401460 4 0 23607 1.98600000 1297569392 1297569392 -15.00000000
-1.83562243 -1.23395216 -0.51063889 4 2 23609 2.27000000 1297569397 1297569397 -13.00000000
-2.13141894 -1.43225420 -0.49915633 3 4 23610 2.61600000 1297569402 1297569402 -11.00000000
-2.55343556 -1.71454394 -0.48713693 2 6 23612 3.11400000 1297569406 1297569406 -9.00000000
-3.16991854 -2.12688613 -0.46870950 3 8 23614 3.84600000 1297569411 1297569411 -7.00000000
-4.17474937 -2.80003023 -0.43978786 3 10 23615 5.04600000 1297569415 1297569415 -5.00000000
-6.12045431 -4.10192919 -0.38613468 3 12 23617 7.37800000 1297569420 1297569420 -3.00000000
-7.72649527 -5.17243767 2.49139214 42 15 23620 9.62600000 1297569427 1297569427 15.00000000
-1.59540391 -1.06520951 -0.51401460 5 0 23627 1.98600000 1297569448 1297569448 -15.00000000
-1.83343434 -1.22321105 -0.50883931 4 2 23629 2.26200000 1297569452 1297569452 -13.00000000
-2.13967228 -1.42698395 -0.49991956 3 4 23630 2.62000000 1297569457 1297569457 -11.00000000
-2.55447340 -1.70233393 -0.48619831 2 6 23632 3.10800000 1297569462 1297569462 -9.00000000
-3.18228030 -2.11910868 -0.46944070 1 8 23634 3.85200000 1297569466 1297569466 -7.00000000
-4.19113207 -2.78985667 -0.44048512 6 10 23635 5.05400000 1297569471 1297569471 -5.00000000
-6.13140917 -4.07832766 -0.38592535 3 12 23637 7.37400000 1297569475 1297569475 -3.00000000
-7.75325871 -5.15320349 2.49449801 40 15 23639 9.63800000 1297569482 1297569482 15.00000000
-1.60877478 -1.06603658 -0.51712048 5 0 23647 1.99800000 1297569503 1297569503 -15.00000000
-1.83606803 -1.21572781 -0.50838935 4 2 23649 2.26000000 1297569508 1297569508 -13.00000000
-2.15446305 -1.42600799 -0.50220925 3 4 23650 2.63200000 1297569512 1297569512 -11.00000000
-2.55710483 -1.69122744 -0.48557258 2 6 23652 3.10400000 1297569517 1297569517 -9.00000000
-3.16647243 -2.09266472 -0.46602836 1 8 23654 3.82400000 1297569521 1297569521 -7.00000000
-4.19918251 -2.77411151 -0.44031081 3 10 23655 5.05200000 1297569526 1297569526 -5.00000000
-6.14227438 -4.05469990 -0.38571599 3 12 23657 7.37000000 1297569531 1297569531 -3.00000000
-7.77531958 -5.12687874 2.49553323 42 15 23660 9.64200000 1297569538 1297569538 15.00000000
-1.61552894 -1.06281936 -0.51815575 4 0 23666 2.00200000 1297569558 1297569558 -15.00000000
-1.84008944 -1.20963252 -0.50838935 4 2 23668 2.26000000 1297569563 1297569563 -13.00000000
-2.14933562 -1.41238678 -0.49991956 3 4 23669 2.62000000 1297569568 1297569568 -11.00000000
-2.56269908 -1.68273842 -0.48557258 2 6 23671 3.10400000 1297569572 1297569572 -9.00000000
-3.17173481 -2.08106399 -0.46578464 1 8 23673 3.82200000 1297569577 1297569577 -7.00000000
-4.22002125 -2.76782036 -0.44153100 3 10 23674 5.06600000 1297569581 1297569581 -5.00000000
-6.15902758 -4.03649855 -0.38592535 3 12 23676 7.37400000 1297569586 1297569586 -3.00000000
-7.79623604 -5.10560179 2.49708605 38 15 23678 9.64800000 1297569593 1297569593 15.00000000
-1.61922896 -1.05717361 -0.51815575 5 0 23686 2.00200000 1297569614 1297569614 -15.00000000
-1.85082924 -1.20746124 -0.51018900 4 2 23688 2.26800000 1297569618 1297569618 -13.00000000
-2.14767504 -1.40058589 -0.49839309 3 4 23689 2.61200000 1297569623 1297569623 -11.00000000
-2.57848740 -1.68025351 -0.48744980 2 6 23691 3.11600000 1297569627 1297569627 -9.00000000
-3.17565274 -2.06781340 -0.46529716 1 8 23693 3.81800000 1297569632 1297569632 -7.00000000
-4.21629810 -2.74437761 -0.44013649 3 10 23694 5.05000000 1297569637 1297569637 -5.00000000
-6.16303396 -4.00844097 -0.38529730 3 12 23696 7.36200000 1297569641 1297569641 -3.00000000
-7.80591154 -5.07309294 2.49449801 38 15 23698 9.63800000 1297569648 1297569648 15.00000000
-1.60993910 -1.04311132 -0.51401460 4 0 23706 1.98600000 1297569669 1297569669 -15.00000000
-1.85830438 -1.20311141 -0.51108879 4 2 23708 2.27200000 1297569674 1297569674 -13.00000000
-2.15914369 -1.39734721 -0.49991956 3 4 23709 2.62000000 1297569678 1297569678 -11.00000000
-2.58433676 -1.67124271 -0.48744980 2 6 23711 3.11600000 1297569683 1297569683 -9.00000000
-3.20452619 -2.07072163 -0.46846575 1 8 23713 3.84400000 1297569687 1297569687 -7.00000000
-4.22250509 -2.72748137 -0.43978786 3 10 23714 5.04600000 1297569692 1297569692 -5.00000000
-6.18034506 -3.98906994 -0.38550666 3 12 23716 7.36600000 1297569697 1297569697 -3.00000000
-7.82032537 -5.04372025 2.49346256 38 15 23718 9.63400000 1297569703 1297569703 15.00000000
-1.61682022 -1.03957486 -0.51504987 5 0 23726 1.99000000 1297569724 1297569724 -15.00000000
-1.85101604 -1.18924379 -0.50793946 4 2 23728 2.25800000 1297569729 1297569729 -13.00000000
-2.16070437 -1.38768005 -0.49915633 3 4 23729 2.61600000 1297569733 1297569733 -11.00000000
-2.59347963 -1.66434526 -0.48807552 2 6 23731 3.12000000 1297569738 1297569738 -9.00000000
-3.21507692 -2.06166625 -0.46895322 1 8 23733 3.84800000 1297569743 1297569743 -7.00000000
-4.24206400 -2.71917653 -0.44083375 3 10 23734 5.05800000 1297569747 1297569747 -5.00000000
-6.19086790 -3.96531773 -0.38529730 3 12 23736 7.36200000 1297569752 1297569752 -3.00000000
-9.87993908 -6.32334518 -0.20475163 2 14 23738 11.73200000 1297569756 1297569756 -1.00000000
-7.84526825 -5.01918793 2.49553323 42 15 23739 9.64200000 1297569759 1297569759 15.00000000
-1.62695348 -1.03808129 -0.51712048 5 0 23746 1.99800000 1297569780 1297569780 -15.00000000
-1.85515606 -1.18277538 -0.50793946 4 2 23748 2.25800000 1297569784 1297569784 -13.00000000
-2.16553497 -1.38012934 -0.49915633 3 4 23749 2.61600000 1297569789 1297569789 -11.00000000
-2.57927918 -1.64254928 -0.48432112 2 6 23751 3.09600000 1297569793 1297569793 -9.00000000
-3.21220517 -2.04403663 -0.46749079 1 8 23753 3.83600000 1297569798 1297569798 -7.00000000
-4.24312449 -2.69900584 -0.43996218 3 10 23754 5.04800000 1297569803 1297569803 -5.00000000
-6.21815634 -3.95225430 -0.38613468 3 12 23756 7.37800000 1297569807 1297569807 -3.00000000
-9.86987972 -6.26844978 -0.20408843 12 14 23758 11.69400000 1297569812 1297569812 -1.00000000
-7.87002277 -4.99832296 2.49812150 40 15 23758 9.65200000 1297569814 1297569814 15.00000000
-1.63056719 -1.03239584 -0.51712048 4 0 23766 1.99800000 1297569835 1297569835 -15.00000000
-1.86092019 -1.17733431 -0.50838935 4 2 23768 2.26000000 1297569839 1297569839 -13.00000000
-2.16702080 -1.37046313 -0.49839309 3 4 23769 2.61200000 1297569844 1297569844 -11.00000000
-2.59501648 -1.63986742 -0.48619831 2 6 23771 3.10800000 1297569849 1297569849 -9.00000000
-3.21932077 -2.03281164 -0.46749079 1 8 23773 3.83600000 1297569853 1297569853 -7.00000000
-4.27442265 -2.69800305 -0.44222823 6 10 23774 5.07400000 1297569858 1297569858 -5.00000000
-6.22515726 -3.92626286 -0.38571599 3 12 23776 7.37000000 1297569862 1297569862 -3.00000000
-9.86124897 -6.21476793 -0.20346016 14 14 23778 11.65800000 1297569867 1297569867 -1.00000000
-7.89396000 -4.97494078 2.50019193 38 15 23778 9.66000000 1297569869 1297569869 15.00000000
-1.62271047 -1.01950371 -0.51349699 4 0 23786 1.98400000 1297569890 1297569890 -15.00000000
-1.87327087 -1.17601204 -0.51063889 4 2 23788 2.27000000 1297569895 1297569895 -13.00000000
-2.17179132 -1.36289048 -0.49839309 3 4 23789 2.61200000 1297569899 1297569899 -11.00000000
-2.60407186 -1.63289797 -0.48682407 2 6 23791 3.11200000 1297569904 1297569904 -9.00000000
-3.22976112 -2.02366972 -0.46797827 1 8 23793 3.84000000 1297569908 1297569908 -7.00000000
-4.26524067 -2.67143273 -0.44031081 3 10 23794 5.05200000 1297569913 1297569913 -5.00000000
-6.24221087 -3.90662813 -0.38592535 3 12 23796 7.37400000 1297569918 1297569918 -3.00000000
-9.85575485 -6.16334391 -0.20290168 14 14 23798 11.62600000 1297569922 1297569922 -1.00000000
-7.90144968 -4.94120979 2.49708605 40 15 23798 9.64800000 1297569925 1297569925 15.00000000
-1.63117743 -1.01689923 -0.51504987 5 0 23806 1.99000000 1297569945 1297569945 -15.00000000
-1.88398075 -1.17358732 -0.51243848 4 2 23808 2.27800000 1297569950 1297569950 -13.00000000
-2.18320179 -1.35945213 -0.49991956 3 4 23809 2.62000000 1297569955 1297569955 -11.00000000
-2.60640144 -1.62171102 -0.48619831 2 6 23811 3.10800000 1297569959 1297569959 -9.00000000
-3.25197792 -2.02181625 -0.47017193 3 8 23813 3.85800000 1297569964 1297569964 -7.00000000
-4.27115536 -2.65442467 -0.43996218 3 10 23814 5.04800000 1297569968 1297569968 -5.00000000
-6.24902248 -3.88060045 -0.38550666 3 12 23816 7.36600000 1297569973 1297569973 -3.00000000
-9.85681915 -6.11625099 -0.20248282 14 14 23818 11.60200000 1297569978 1297569978 -1.00000000
-7.90965700 -4.90610647 2.49398041 40 15 23819 9.63600000 1297569980 1297569980 15.00000000
-1.63636005 -1.01221538 -0.51556754 4 0 23826 1.99200000 1297570001 1297570001 -15.00000000
-1.88309288 -1.16393018 -0.51108879 4 2 23828 2.27200000 1297570005 1297570005 -13.00000000
-2.19127417 -1.35388696 -0.50068283 3 4 23829 2.62400000 1297570010 1297570010 -11.00000000
-2.59859967 -1.60430133 -0.48369536 2 6 23831 3.09200000 1297570014 1297570014 -9.00000000
-3.24549985 -2.00211477 -0.46822202 1 8 23833 3.84200000 1297570019 1297570019 -7.00000000
-4.27869892 -2.63845372 -0.43978786 6 10 23834 5.04600000 1297570024 1297570024 -5.00000000
-6.23192310 -3.83990455 -0.38362256 3 12 23836 7.33000000 1297570028 1297570028 -3.00000000
-9.86278343 -6.07237148 -0.20216867 12 14 23838 11.58400000 1297570033 1297570033 -1.00000000
-7.92917299 -4.88187599 2.49501562 38 15 23838 9.64000000 1297570035 1297570035 15.00000000
-1.63988340 -1.00649726 -0.51556754 4 0 23846 1.99200000 1297570056 1297570056 -15.00000000
-1.87717700 -1.15123701 -0.50838935 4 2 23848 2.26000000 1297570060 1297570060 -13.00000000
-2.19598675 -1.34622967 -0.50068283 3 4 23849 2.62400000 1297570065 1297570065 -11.00000000
-2.61092162 -1.59934807 -0.48494685 2 6 23851 3.10000000 1297570070 1297570070 -9.00000000
-3.24569631 -1.98662829 -0.46724707 1 8 23853 3.83400000 1297570074 1297570074 -7.00000000
-4.29298162 -2.62662172 -0.44031081 3 10 23854 5.05200000 1297570079 1297570079 -5.00000000
-6.26232910 -3.82854557 -0.38466927 3 12 23856 7.35000000 1297570084 1297570084 -3.00000000
-9.86002922 -6.02331257 -0.20168000 17 14 23858 11.55600000 1297570088 1297570088 -1.00000000
-7.93957138 -4.85014009 2.49294496 38 15 23858 9.63200000 1297570090 1297570090 15.00000000
-1.65658653 -1.00880516 -0.51970863 5 0 23866 2.00800000 1297570111 1297570111 -15.00000000
-1.88284886 -1.14569044 -0.50883931 4 2 23868 2.26200000 1297570116 1297570116 -13.00000000
-2.20402741 -1.34059656 -0.50144607 3 4 23869 2.62800000 1297570120 1297570120 -11.00000000
-2.63336921 -1.60048413 -0.48807552 2 6 23871 3.12000000 1297570125 1297570125 -9.00000000
-3.24921775 -1.97322583 -0.46675959 3 8 23873 3.83000000 1297570130 1297570130 -7.00000000
-4.30382681 -2.61265421 -0.44048512 6 10 23874 5.05400000 1297570134 1297570134 -5.00000000
-6.27907038 -3.80873418 -0.38487864 3 12 23876 7.35400000 1297570139 1297570139 -3.00000000
-9.85363197 -5.97227383 -0.20112154 19 14 23878 11.52400000 1297570143 1297570143 -1.00000000
-7.95729446 -4.82100725 2.49294496 38 15 23879 9.63200000 1297570146 1297570146 15.00000000
-1.64852345 -0.99602330 -0.51608515 4 0 23886 1.99400000 1297570166 1297570166 -15.00000000
-1.88683665 -1.13911116 -0.50883931 4 2 23888 2.26200000 1297570171 1297570171 -13.00000000
-2.19860816 -1.32680869 -0.49915633 3 4 23889 2.61600000 1297570176 1297570176 -11.00000000
-2.63217330 -1.58720195 -0.48682407 2 6 23891 3.11200000 1297570180 1297570180 -9.00000000
-3.27138853 -1.97109222 -0.46895322 3 8 23893 3.84800000 1297570185 1297570185 -7.00000000
-4.31633425 -2.59967113 -0.44083375 9 10 23894 5.05800000 1297570190 1297570190 -5.00000000
-6.30601740 -3.79503202 -0.38571599 3 12 23896 7.37000000 1297570194 1297570194 -3.00000000
-9.84357262 -5.91929245 -0.20049325 17 14 23898 11.48800000 1297570199 1297570199 -1.00000000
-7.97241879 -4.79220676 2.49242735 38 15 23899 9.63000000 1297570201 1297570201 15.00000000
-1.65199018 -0.99026281 -0.51608515 5 0 23906 1.99400000 1297570222 1297570222 -15.00000000
-1.89748859 -1.13652325 -0.51063889 4 2 23908 2.27000000 1297570226 1297570226 -13.00000000
-2.20322609 -1.31912601 -0.49915633 3 4 23909 2.61600000 1297570231 1297570231 -11.00000000
-2.63430738 -1.57597601 -0.48619831 2 6 23911 3.10800000 1297570236 1297570236 -9.00000000
-3.27313733 -1.95660532 -0.46822202 1 8 23913 3.84200000 1297570240 1297570240 -7.00000000
-4.30827904 -2.57436848 -0.43909064 9 10 23914 5.03800000 1297570245 1297570245 -5.00000000
-6.31751108 -3.77197289 -0.38561133 3 12 23916 7.36800000 1297570249 1297570249 -3.00000000
-9.84871864 -5.87567520 -0.20017910 19 14 23918 11.47000000 1297570254 1297570254 -1.00000000
-7.97748375 -4.75742197 2.48880386 40 15 23919 9.61600000 1297570256 1297570256 15.00000000
-1.65377641 -0.98350281 -0.51556754 4 0 23926 1.99200000 1297570277 1297570277 -15.00000000
-1.89809358 -1.12790191 -0.50973910 4 2 23928 2.26600000 1297570282 1297570282 -13.00000000
-2.20781732 -1.31142724 -0.49915633 3 4 23929 2.61600000 1297570286 1297570286 -11.00000000
-2.63639498 -1.56475449 -0.48557258 2 6 23931 3.10400000 1297570291 1297570291 -9.00000000
-3.29531384 -1.95428121 -0.47041565 1 8 23933 3.86000000 1297570296 1297570296 -7.00000000
-4.33437777 -2.56947422 -0.44083375 9 10 23934 5.05800000 1297570300 1297570300 -5.00000000
-6.32204723 -3.74480820 -0.38508797 3 12 23936 7.35800000 1297570305 1297570305 -3.00000000
-9.86056423 -5.83616829 -0.20000458 12 14 23938 11.46000000 1297570309 1297570309 -1.00000000
-7.99404144 -4.72954655 2.48880386 40 15 23939 9.61600000 1297570312 1297570312 15.00000000
-1.65719938 -0.97772408 -0.51556754 5 0 23946 1.99200000 1297570332 1297570332 -15.00000000
-1.90201914 -1.12126935 -0.50973910 4 2 23948 2.26600000 1297570337 1297570337 -13.00000000
-2.21576452 -1.30570602 -0.49991956 3 4 23949 2.62000000 1297570342 1297570342 -11.00000000
-2.64524531 -1.55754685 -0.48619831 2 6 23951 3.10800000 1297570346 1297570346 -9.00000000
-3.28500628 -1.93270040 -0.46797827 1 8 23953 3.84000000 1297570351 1297570351 -7.00000000
-4.33988571 -2.55230880 -0.44048512 6 10 23954 5.05400000 1297570355 1297570355 -5.00000000
-6.32302713 -3.71563411 -0.38435528 3 12 23956 7.34400000 1297570360 1297570360 -3.00000000
-9.85845947 -5.78855038 -0.19955082 12 14 23958 11.43400000 1297570365 1297570365 -1.00000000
-8.01634502 -4.70692396 2.49087453 38 15 23958 9.62400000 1297570367 1297570367 15.00000000
-1.66727126 -0.97583675 -0.51763809 5 0 23966 2.00000000 1297570388 1297570388 -15.00000000
-1.90760374 -1.11560702 -0.51018900 4 2 23968 2.26800000 1297570392 1297570392 -13.00000000
-2.21013951 -1.29201865 -0.49762985 3 4 23969 2.60800000 1297570397 1297570397 -11.00000000
-2.65066624 -1.54830372 -0.48619831 2 6 23971 3.10800000 1297570401 1297570401 -9.00000000
-3.28144598 -1.91521800 -0.46651584 1 8 23973 3.82800000 1297570406 1297570406 -7.00000000
-4.35048962 -2.53814816 -0.44065943 6 10 23974 5.05600000 1297570411 1297570411 -5.00000000
-6.35493851 -3.70460439 -0.38550666 3 12 23976 7.36600000 1297570415 1297570415 -3.00000000
-9.38849831 -5.47081947 2.50865412 2 13 23977 11.15200000 1297570418 1297570418 13.00000000
-9.84059048 -5.73195982 -0.19878291 14 14 23978 11.39000000 1297570420 1297570420 -1.00000000
-8.03187370 -4.67653894 2.49035692 40 15 23979 9.62200000 1297570422 1297570422 15.00000000
-1.66565537 -0.96710092 -0.51608515 4 0 23986 1.99400000 1297570443 1297570443 -15.00000000
-1.90811515 -1.10698569 -0.50928921 4 2 23988 2.26400000 1297570448 1297570448 -13.00000000
-2.21463585 -1.28429604 -0.49762985 3 4 23989 2.60800000 1297570452 1297570452 -11.00000000
-2.66289115 -1.54300320 -0.48744980 2 6 23991 3.11600000 1297570457 1297570457 -9.00000000
-3.28123951 -1.89977336 -0.46554089 1 8 23993 3.82000000 1297570461 1297570461 -7.00000000
-4.35759830 -2.52194858 -0.44048512 6 10 23994 5.05400000 1297570466 1297570466 -5.00000000
-6.36610270 -3.68139911 -0.38540199 3 12 23996 7.36400000 1297570471 1297570471 -3.00000000
-9.84495544 -5.68857098 -0.19846876 12 14 23998 11.37200000 1297570475 1297570475 -1.00000000
-8.05235577 -4.65277815 2.49190974 40 15 23998 9.62800000 1297570478 1297570478 15.00000000
-1.67069507 -0.96224493 -0.51660281 5 0 24006 1.99600000 1297570498 1297570498 -15.00000000
-1.91365659 -1.10129035 -0.50973910 4 2 24008 2.26600000 1297570503 1297570503 -13.00000000
-2.22931600 -1.28243136 -0.49991956 3 4 24009 2.62000000 1297570507 1297570507 -11.00000000
-2.67168641 -1.53566742 -0.48807552 2 6 24011 3.12000000 1297570512 1297570512 -9.00000000
-3.30162215 -1.89621723 -0.46749079 1 8 24013 3.83600000 1297570517 1297570517 -7.00000000
-4.36810303 -2.50771451 -0.44065943 6 10 24014 5.05600000 1297570521 1297570521 -5.00000000
-10.09244919 -5.79170227 2.26184988 12 11 24015 11.85400000 1297570524 1297570524 11.00000000
-6.37025213 -3.65418601 -0.38487864 3 12 24016 7.35400000 1297570526 1297570526 -3.00000000
-9.85087299 -5.64621592 -0.19818953 17 14 24018 11.35600000 1297570531 1297570531 -1.00000000
-8.06600189 -4.62131262 2.49087453 40 15 24019 9.62400000 1297570533 1297570533 15.00000000
-1.67572117 -0.95736557 -0.51712048 4 0 24026 1.99800000 1297570554 1297570554 -15.00000000
-1.91410434 -1.09267151 -0.50883931 4 2 24028 2.26200000 1297570558 1297570558 -13.00000000
-2.24059963 -1.27853382 -0.50144607 3 4 24029 2.62800000 1297570563 1297570563 -11.00000000
-2.65300584 -1.51263428 -0.48369536 2 6 24031 3.09200000 1297570567 1297570567 -9.00000000
-3.32546926 -1.89450717 -0.46992818 1 8 24033 3.85600000 1297570572 1297570572 -7.00000000
-4.36990452 -2.48850775 -0.43996218 6 10 24034 5.04800000 1297570577 1297570577 -5.00000000
-10.13990402 -5.77197742 2.26795578 12 11 24035 11.88600000 1297570579 1297570579 11.00000000
-6.38470459 -3.63291502 -0.38498330 3 12 24036 7.35600000 1297570581 1297570581 -3.00000000
-9.84444618 -5.59697008 -0.19766596 8 14 24038 11.32600000 1297570586 1297570586 -1.00000000
-8.08128262 -4.59453964 2.49087453 40 15 24038 9.62400000 1297570588 1297570588 15.00000000
-1.68409503 -0.95436782 -0.51867336 5 0 24046 2.00400000 1297570609 1297570609 -15.00000000
-1.91621101 -1.08502316 -0.50838935 4 2 24048 2.26000000 1297570613 1297570613 -13.00000000
-2.23821473 -1.26683676 -0.49991956 3 4 24049 2.62000000 1297570618 1297570618 -11.00000000
-2.66170883 -1.50530910 -0.48432112 2 6 24051 3.09600000 1297570623 1297570623 -9.00000000
-3.34243155 -1.88874722 -0.47139063 1 8 24053 3.86800000 1297570627 1297570627 -7.00000000
-4.37509489 -2.47127914 -0.43961358 6 10 24054 5.04400000 1297570632 1297570632 -5.00000000
-10.10870266 -5.70758963 2.25650716 9 11 24055 11.82600000 1297570634 1297570634 11.00000000
-6.38691092 -3.60471606 -0.38435528 3 12 24056 7.34400000 1297570636 1297570636 -3.00000000
-9.52167416 -5.37175846 2.52395082 23 13 24057 11.22000000 1297570639 1297570639 13.00000000
-9.92488766 -5.59695196 -0.19888762 8 14 24058 11.39600000 1297570641 1297570641 -1.00000000
-8.11489677 -4.57437563 2.49605083 40 15 24059 9.64400000 1297570643 1297570643 15.00000000
-1.69078422 -0.95037657 -0.51970863 5 0 24066 2.00800000 1297570664 1297570664 -15.00000000
-1.92168593 -1.07928205 -0.50883931 4 2 24068 2.26200000 1297570669 1297570669 -13.00000000
-2.24604702 -1.26093829 -0.50068283 3 4 24069 2.62400000 1297570673 1297570673 -11.00000000
-2.68072963 -1.50374019 -0.48682407 2 6 24071 3.11200000 1297570678 1297570678 -9.00000000
-3.34900427 -1.87706840 -0.47139063 1 8 24073 3.86800000 1297570683 1297570683 -7.00000000
-4.38195658 -2.45501828 -0.43943927 9 10 24074 5.04200000 1297570687 1297570687 -5.00000000
-10.08745384 -5.64924574 2.24734831 12 11 24075 11.77800000 1297570689 1297570689 11.00000000
-6.40642548 -3.58630204 -0.38477394 3 12 24076 7.35200000 1297570692 1297570692 -3.00000000
-9.51655865 -5.32516623 2.51765227 40 13 24077 11.19200000 1297570694 1297570694 13.00000000
-8.13507938 -4.55026960 2.49760389 38 15 24078 9.65000000 1297570699 1297570699 15.00000000
-1.68227994 -0.93788391 -0.51608515 4 0 24086 1.99400000 1297570719 1297570719 -15.00000000
-1.93395376 -1.07730925 -0.51108879 4 2 24088 2.27200000 1297570724 1297570724 -13.00000000
-2.24014330 -1.24735987 -0.49839309 3 4 24089 2.61200000 1297570729 1297570729 -11.00000000
-2.67905760 -1.49053192 -0.48557258 2 6 24091 3.10400000 1297570733 1297570733 -9.00000000
-3.33818579 -1.85572171 -0.46895322 1 8 24093 3.84800000 1297570738 1297570738 -7.00000000
-4.38875771 -2.43873978 -0.43926495 6 10 24094 5.04000000 1297570742 1297570742 -5.00000000
-10.09681511 -5.60827971 2.24505854 15 11 24095 11.76600000 1297570745 1297570745 11.00000000
-6.42239761 -3.56585670 -0.38498330 3 12 24096 7.35600000 1297570747 1297570747 -3.00000000
-9.55383205 -5.30231714 2.52260113 48 13 24097 11.21400000 1297570749 1297570749 13.00000000
-8.16521835 -4.52791739 2.50174499 33 15 24099 9.66600000 1297570754 1297570754 15.00000000
-1.68216228 -0.93013632 -0.51504987 5 0 24106 1.99000000 1297570775 1297570775 -15.00000000
-1.93599677 -1.06960952 -0.51063889 4 2 24108 2.27000000 1297570779 1297570779 -13.00000000
-2.25479531 -1.24522734 -0.50068283 3 4 24109 2.62400000 1297570784 1297570784 -11.00000000
-2.68078518 -1.47926247 -0.48494685 2 6 24111 3.10000000 1297570789 1297570789 -9.00000000
-3.34811974 -1.84597480 -0.46944070 1 8 24113 3.85200000 1297570793 1297570793 -7.00000000
-4.41643810 -2.43398356 -0.44118237 6 10 24114 5.06200000 1297570798 1297570798 -5.00000000
-10.08537674 -5.55594969 2.23818946 12 11 24115 11.73000000 1297570800 1297570800 11.00000000
-6.42080927 -3.53570938 -0.38414592 3 12 24116 7.34000000 1297570802 1297570802 -3.00000000
-9.56545353 -5.26517677 2.52080154 50 13 24117 11.20600000 1297570805 1297570805 13.00000000
-8.20049953 -4.51199102 2.50795650 38 15 24118 9.69000000 1297570809 1297570809 15.00000000
-1.69386816 -0.92890334 -0.51763809 5 0 24126 2.00000000 1297570830 1297570830 -15.00000000
-1.93288255 -1.05909944 -0.50883931 4 2 24128 2.26200000 1297570835 1297570835 -13.00000000
-2.25912809 -1.23734903 -0.50068283 3 4 24129 2.62400000 1297570839 1297570839 -11.00000000
-2.68246675 -1.46799922 -0.48432112 2 6 24131 3.09600000 1297570844 1297570844 -9.00000000
-3.34757614 -1.83046699 -0.46846575 1 8 24133 3.84400000 1297570848 1297570848 -7.00000000
-4.41266966 -2.41186357 -0.43996218 6 10 24134 5.04800000 1297570853 1297570853 -5.00000000
-10.07369804 -5.50376797 2.23132038 18 11 24135 11.69400000 1297570855 1297570855 11.00000000
-6.46466398 -3.53050637 -0.38603002 3 12 24136 7.37600000 1297570858 1297570858 -3.00000000
-9.59403706 -5.23735762 2.52350092 50 13 24137 11.21800000 1297570860 1297570860 13.00000000
-8.25429344 -4.50225592 2.51934457 36 15 24139 9.73400000 1297570865 1297570865 15.00000000
-1.69895864 -0.92361146 -0.51815575 5 0 24147 2.00200000 1297570885 1297570885 -15.00000000
-1.93846381 -1.05293810 -0.50928921 4 2 24149 2.26400000 1297570890 1297570890 -13.00000000
-2.26709867 -1.23093414 -0.50144607 3 4 24150 2.62800000 1297570895 1297570895 -11.00000000
-2.70171976 -1.46569324 -0.48682407 2 6 24152 3.11200000 1297570899 1297570899 -9.00000000
-3.35600805 -1.81913114 -0.46870950 3 8 24154 3.84600000 1297570904 1297570904 -7.00000000
-4.43549395 -2.40326738 -0.44135669 3 10 24155 5.06400000 1297570908 1297570908 -5.00000000
-10.09380245 -5.46680880 2.23132038 18 11 24156 11.69400000 1297570911 1297570911 11.00000000
-6.44770193 -3.49062371 -0.38425058 3 12 24157 7.34200000 1297570913 1297570913 -3.00000000
-9.60459900 -5.19752121 2.52125144 51 13 24158 11.20800000 1297570915 1297570915 13.00000000
-8.32433224 -4.50282764 2.53590894 38 15 24159 9.79800000 1297570920 1297570920 15.00000000
-1.70387280 -0.91859210 -0.51867336 4 0 24167 2.00400000 1297570941 1297570941 -15.00000000
-1.94041181 -1.04524100 -0.50883931 4 2 24169 2.26200000 1297570945 1297570945 -13.00000000
-2.26792455 -1.22115159 -0.50068283 3 4 24170 2.62400000 1297570950 1297570950 -11.00000000
-2.70681953 -1.45625353 -0.48682407 2 6 24172 3.11200000 1297570954 1297570954 -9.00000000
-3.35884047 -1.80552566 -0.46822202 1 8 24174 3.84200000 1297570959 1297570959 -7.00000000
-4.44210100 -2.38682675 -0.44118237 3 10 24175 5.06200000 1297570964 1297570964 -5.00000000
-6.47744417 -3.47754312 -0.38529730 3 12 24177 7.36200000 1297570968 1297570968 -3.00000000
-9.62611771 -5.16580629 2.52215123 56 13 24178 11.21200000 1297570971 1297570971 13.00000000
-8.39788055 -4.50479126 2.55350876 33 15 24179 9.86600000 1297570975 1297570975 15.00000000
-1.70179904 -0.91020346 -0.51712048 5 0 24186 1.99800000 1297570996 1297570996 -15.00000000
-1.94902337 -1.04155600 -0.51018900 4 2 24188 2.26800000 1297571001 1297571001 -13.00000000
-2.26157141 -1.20807397 -0.49839309 3 4 24189 2.61200000 1297571005 1297571005 -11.00000000
-2.71511912 -1.44912970 -0.48744980 2 6 24191 3.11600000 1297571010 1297571010 -9.00000000
-3.37006402 -1.79717970 -0.46895322 1 8 24193 3.84800000 1297571014 1297571014 -7.00000000
-4.43944216 -2.36645985 -0.44013649 6 10 24194 5.05000000 1297571019 1297571019 -5.00000000
-6.49246645 -3.45792174 -0.38550666 3 12 24196 7.36600000 1297571024 1297571024 -3.00000000
-9.64491558 -5.13477230 2.52260113 54 13 24197 11.21400000 1297571026 1297571026 13.00000000
-8.44176483 -4.49234676 2.56230855 22 15 24198 9.90000000 1297571030 1297571030 15.00000000
-1.69472587 -0.89882654 -0.51401460 4 0 24206 1.98600000 1297571051 1297571051 -15.00000000
-1.95609105 -1.03657126 -0.51108879 4 2 24208 2.27200000 1297571056 1297571056 -13.00000000
-2.27271414 -1.20384812 -0.49991956 3 4 24209 2.62000000 1297571060 1297571060 -11.00000000
-2.71666908 -1.43779528 -0.48682407 2 6 24211 3.11200000 1297571065 1297571065 -9.00000000
-3.38333631 -1.78911686 -0.46992818 3 8 24213 3.85600000 1297571070 1297571070 -7.00000000
-4.44767570 -2.35094905 -0.44013649 3 10 24214 5.05000000 1297571074 1297571074 -5.00000000
-6.52569008 -3.44643044 -0.38676271 3 12 24216 7.39000000 1297571079 1297571079 -3.00000000
-9.66795063 -5.10380316 2.52395082 55 13 24217 11.22000000 1297571081 1297571081 13.00000000
-8.41374683 -4.43794250 2.54885006 9 15 24219 9.84800000 1297571086 1297571086 15.00000000
-1.70811200 -0.89830059 -0.51712048 5 0 24226 1.99800000 1297571107 1297571107 -15.00000000
-1.95624733 -1.02792406 -0.51018900 4 2 24228 2.26800000 1297571111 1297571111 -13.00000000
-2.27690268 -1.19590759 -0.49991956 3 4 24229 2.62000000 1297571116 1297571116 -11.00000000
-2.71817303 -1.42646766 -0.48619831 2 6 24231 3.10800000 1297571120 1297571120 -9.00000000
-3.37725425 -1.77084303 -0.46822202 3 8 24233 3.84200000 1297571125 1297571125 -7.00000000
-4.45585489 -2.33540940 -0.44013649 3 10 24234 5.05000000 1297571130 1297571130 -5.00000000
-6.49875546 -3.40324640 -0.38445994 3 12 24236 7.34600000 1297571134 1297571134 -3.00000000
-9.69433975 -5.07454348 2.52620029 54 13 24237 11.23000000 1297571136 1297571136 13.00000000
-8.13742828 -4.25776196 2.46085143 4 15 24238 9.50800000 1297571141 1297571141 15.00000000
-1.71295023 -0.89322591 -0.51763809 4 0 24246 2.00000000 1297571162 1297571162 -15.00000000
-1.96327996 -1.02289009 -0.51108879 4 2 24248 2.27200000 1297571166 1297571166 -13.00000000
-2.29499340 -1.19520712 -0.50297248 3 4 24249 2.63600000 1297571171 1297571171 -11.00000000
-2.73715448 -1.42426538 -0.48870125 2 6 24251 3.12400000 1297571176 1297571176 -9.00000000
-3.38517642 -1.75995910 -0.46846575 3 8 24253 3.84400000 1297571180 1297571180 -7.00000000
-4.48165894 -2.32902884 -0.44187963 3 10 24254 5.07000000 1297571185 1297571185 -5.00000000
-6.51059532 -3.38054061 -0.38445994 3 12 24256 7.34600000 1297571189 1297571189 -3.00000000
-9.70507526 -5.03708220 2.52440071 54 13 24257 11.22200000 1297571192 1297571192 13.00000000
-8.14023685 -4.22310400 2.45722795 2 15 24258 9.49400000 1297571196 1297571196 15.00000000
-1.72120583 -0.88990289 -0.51919103 5 0 24266 2.00600000 1297571217 1297571217 -15.00000000
-1.96510720 -1.01513624 -0.51063889 4 2 24268 2.27000000 1297571222 1297571222 -13.00000000
-2.28519607 -1.17998278 -0.49991956 3 4 24269 2.62000000 1297571226 1297571226 -11.00000000
-2.73859859 -1.41289079 -0.48807552 2 6 24271 3.12000000 1297571231 1297571231 -9.00000000
-3.38777041 -1.74631286 -0.46797827 1 8 24273 3.84000000 1297571235 1297571235 -7.00000000
-4.48621941 -2.31154561 -0.44153100 3 10 24274 5.06600000 1297571240 1297571240 -5.00000000
-6.54721642 -3.37059236 -0.38592535 3 12 24276 7.37400000 1297571245 1297571245 -3.00000000
-9.71046925 -4.99693251 2.52125144 55 13 24277 11.20800000 1297571247 1297571247 13.00000000
-8.14118576 -4.18759394 2.45308685 2 15 24278 9.47800000 1297571252 1297571252 15.00000000
-1.71398687 -0.87860185 -0.51608515 5 0 24286 1.99400000 1297571272 1297571272 -15.00000000
-1.96690416 -1.00738227 -0.51018900 4 2 24288 2.26800000 1297571277 1297571277 -13.00000000
-2.28231072 -1.16842020 -0.49839309 3 4 24289 2.61200000 1297571282 1297571282 -11.00000000
-2.73999643 -1.40152359 -0.48744980 2 6 24291 3.11600000 1297571286 1297571286 -9.00000000
-3.41152167 -1.74351048 -0.47041565 3 8 24293 3.86000000 1297571291 1297571291 -7.00000000
-4.48184061 -2.28952694 -0.44031081 6 10 24294 5.05200000 1297571295 1297571295 -5.00000000
-6.54293156 -3.33954597 -0.38498330 3 12 24296 7.35600000 1297571300 1297571300 -3.00000000
-9.73826790 -4.96831989 2.52395082 57 13 24297 11.22000000 1297571302 1297571302 13.00000000
-1.71876550 -0.87348878 -0.51660281 5 0 24306 1.99600000 1297571328 1297571328 -15.00000000
-1.97214627 -1.00139260 -0.51063889 4 2 24308 2.27000000 1297571332 1297571332 -13.00000000
-2.28287411 -1.15866923 -0.49762985 3 4 24309 2.60800000 1297571337 1297571337 -11.00000000
-2.73430109 -1.38659012 -0.48557258 2 6 24311 3.10400000 1297571341 1297571341 -9.00000000
-3.41050386 -1.72800255 -0.46944070 3 8 24313 3.85200000 1297571346 1297571346 -7.00000000
-4.48802805 -2.27296829 -0.44013649 9 10 24314 5.05000000 1297571351 1297571351 -5.00000000
-6.54742050 -3.31307960 -0.38456461 3 12 24316 7.34800000 1297571355 1297571355 -3.00000000
-9.76076889 -4.93693542 2.52530050 54 13 24317 11.22600000 1297571358 1297571358 13.00000000
-8.87018204 -4.48453808 2.66324806 19 15 24318 10.29000000 1297571362 1297571362 15.00000000
-1.72352934 -0.86835307 -0.51712048 4 0 24326 1.99800000 1297571383 1297571383 -15.00000000
-1.97737038 -0.99537867 -0.51108879 4 2 24328 2.27200000 1297571387 1297571387 -13.00000000
-2.29041219 -1.15245831 -0.49839309 3 4 24329 2.61200000 1297571392 1297571392 -11.00000000
-2.73559475 -1.37526274 -0.48494685 2 6 24331 3.10000000 1297571397 1297571397 -9.00000000
-3.42538428 -1.72054219 -0.47065940 3 8 24333 3.86200000 1297571401 1297571401 -7.00000000
-4.50305700 -2.26086426 -0.44083375 9 10 24334 5.05800000 1297571406 1297571406 -5.00000000
-6.57144213 -3.29647326 -0.38529730 3 12 24336 7.36200000 1297571411 1297571411 -3.00000000
-9.78316784 -4.90545416 2.52665019 56 13 24337 11.23200000 1297571413 1297571413 13.00000000
-8.95141029 -4.48644114 2.68291831 30 15 24338 10.36600000 1297571417 1297571417 15.00000000
-1.72339368 -0.86000365 -0.51608515 5 0 24348 1.99400000 1297571438 1297571438 -15.00000000
-1.96896982 -0.98169214 -0.50793946 4 2 24350 2.25800000 1297571443 1297571443 -13.00000000
-2.30887747 -1.15066075 -0.50144607 3 4 24351 2.62800000 1297571447 1297571447 -11.00000000
-2.75853825 -1.37355351 -0.48807552 2 6 24353 3.12000000 1297571452 1297571452 -9.00000000
-3.42841101 -1.70560873 -0.47017193 3 8 24355 3.85800000 1297571457 1297571457 -7.00000000
-4.51170492 -2.24355698 -0.44083375 9 10 24356 5.05800000 1297571461 1297571461 -5.00000000
-6.56974220 -3.26410723 -0.38445994 3 12 24358 7.34600000 1297571466 1297571466 -3.00000000
-9.79495049 -4.86438656 2.52485061 56 13 24359 11.22400000 1297571468 1297571468 13.00000000
-9.01953316 -4.47537327 2.69792962 42 15 24361 10.42400000 1297571473 1297571473 15.00000000
-1.73677468 -0.85912198 -0.51919103 4 0 24368 2.00600000 1297571493 1297571493 -15.00000000
-1.97587860 -0.97654003 -0.50883931 4 2 24370 2.26200000 1297571498 1297571498 -13.00000000
-2.30935979 -1.14085519 -0.50068283 3 4 24371 2.62400000 1297571503 1297571503 -11.00000000
-2.75623059 -1.36041880 -0.48682407 2 6 24373 3.11200000 1297571507 1297571507 -9.00000000
-3.41119885 -1.68221712 -0.46700332 3 8 24375 3.83200000 1297571512 1297571512 -7.00000000
-4.51950884 -2.22779465 -0.44083375 9 10 24376 5.05800000 1297571517 1297571517 -5.00000000
-6.59542990 -3.24821401 -0.38529730 3 12 24378 7.36200000 1297571521 1297571521 -3.00000000
-9.80837345 -4.82844496 2.52395082 56 13 24379 11.22000000 1297571523 1297571523 13.00000000
-9.10444164 -4.47796679 2.71863532 40 15 24381 10.50400000 1297571528 1297571528 15.00000000
-1.72935557 -0.84795123 -0.51608515 5 0 24388 1.99400000 1297571549 1297571549 -15.00000000
-1.99327552 -0.97649556 -0.51243848 4 2 24390 2.27800000 1297571553 1297571553 -13.00000000
-2.30980158 -1.13106024 -0.49991956 3 4 24391 2.62000000 1297571558 1297571558 -11.00000000
-2.76451135 -1.35252571 -0.48744980 2 6 24393 3.11600000 1297571563 1297571563 -9.00000000
-3.41705012 -1.67029953 -0.46700332 3 8 24395 3.83200000 1297571567 1297571567 -7.00000000
-4.51293659 -2.20500779 -0.43943927 9 10 24396 5.04200000 1297571572 1297571572 -5.00000000
-6.60134363 -3.22254348 -0.38498330 3 12 24398 7.35600000 1297571576 1297571576 -3.00000000
-9.82341671 -4.79332304 2.52350092 53 13 24399 11.21800000 1297571579 1297571579 13.00000000
-9.17558479 -4.47324944 2.73519969 45 15 24401 10.56800000 1297571583 1297571583 15.00000000
-1.73056746 -0.84106505 -0.51556754 5 0 24408 1.99200000 1297571604 1297571604 -15.00000000
-1.99842501 -0.97038299 -0.51288843 4 2 24410 2.28000000 1297571609 1297571609 -13.00000000
-2.31726813 -1.12470520 -0.50068283 3 4 24411 2.62400000 1297571613 1297571613 -11.00000000
-2.76210594 -1.33941984 -0.48619831 2 6 24413 3.10800000 1297571618 1297571618 -9.00000000
-3.44429731 -1.66874802 -0.46992818 3 8 24415 3.85600000 1297571623 1297571623 -7.00000000
-4.52419233 -2.19097805 -0.43978786 9 10 24416 5.04600000 1297571627 1297571627 -5.00000000
-6.61434984 -3.20035076 -0.38508797 3 12 24418 7.35800000 1297571632 1297571632 -3.00000000
-9.85061455 -4.76409435 2.52620029 52 13 24419 11.23000000 1297571634 1297571634 13.00000000
-9.25376225 -4.47145128 2.75383472 42 15 24421 10.64000000 1297571639 1297571639 15.00000000
-1.73175228 -0.83418071 -0.51504987 5 0 24428 1.99000000 1297571659 1297571659 -15.00000000
-1.99126422 -0.95833075 -0.51018900 4 2 24430 2.26800000 1297571664 1297571664 -13.00000000
-2.32117987 -1.11660945 -0.50068283 3 4 24431 2.62400000 1297571669 1297571669 -11.00000000
-2.76320386 -1.32805872 -0.48557258 2 6 24433 3.10400000 1297571673 1297571673 -9.00000000
-3.44294333 -1.65327787 -0.46895322 3 8 24435 3.84800000 1297571678 1297571678 -7.00000000
-4.53540516 -2.17689657 -0.44013649 9 10 24436 5.05000000 1297571682 1297571682 -5.00000000
-6.62908268 -3.17897010 -0.38529730 3 12 24438 7.36200000 1297571687 1297571687 -3.00000000
-9.85839844 -4.72546864 2.52395082 51 13 24439 11.22000000 1297571689 1297571689 13.00000000
-9.32777405 -4.46912050 2.77143431 42 15 24440 10.70800000 1297571694 1297571694 15.00000000
-1.74511385 -0.83312446 -0.51815575 4 0 24448 2.00200000 1297571715 1297571715 -15.00000000
