# .PCD v0.7 - Point Cloud Data file format
VERSION 0.7
FIELDS x y z intensity laser_id azimuth distance_m adjustedtime timestamp vertical_angle
SIZE 4 4 4 1 1 2 8 8 4 8
TYPE F F F U U U F U U F
COUNT 1 1 1 1 1 1 1 1 1 1
WIDTH 522
HEIGHT 1
VIEWPOINT 0 0 0 1 0 0 0
POINTS 522
DATA ascii
-1.98408639 -2.33459377 -0.48525971 2 6 22036 3.10200000 1296765180 1296765180 -9.00000000
-4.33438492 -5.09829140 0.82164311 10 7 22037 6.74200000 1296765183 1296765183 7.00000000
-2.50136733 -2.94117618 -0.47407174 1 8 22038 3.89000000 1296765185 1296765185 -7.00000000
-4.33286238 -5.09289646 1.05906129 27 9 22039 6.77000000 1296765187 1296765187 9.00000000
-4.35984993 -5.12461853 -0.58864987 4 10 22039 6.75400000 1296765189 1296765189 -5.00000000
-4.30970097 -5.06388140 1.29254019 59 11 22040 6.77400000 1296765192 1296765192 11.00000000
-4.34640455 -5.10520267 -0.35138360 10 12 22041 6.71400000 1296765194 1296765194 -3.00000000
-4.29475641 -5.04275417 1.52921724 43 13 22042 6.79800000 1296765196 1296765196 13.00000000
-4.34700632 -5.10229969 -0.11700093 12 14 22043 6.70400000 1296765199 1296765199 -1.00000000
-4.30313969 -5.04902601 1.77756917 60 15 22044 6.86800000 1296765201 1296765201 15.00000000
-1.25614858 -1.47024131 -0.51815575 5 0 22051 2.00200000 1296765222 1296765222 -15.00000000
-4.33422804 -5.07114315 0.11644246 8 1 22052 6.67200000 1296765224 1296765224 1.00000000
-1.43607628 -1.67964768 -0.51018900 4 2 22053 2.26800000 1296765226 1296765226 -13.00000000
-4.30864620 -5.03765059 0.34740609 57 3 22054 6.63800000 1296765229 1296765229 3.00000000
-1.67931294 -1.96344543 -0.50220925 3 4 22054 2.63200000 1296765231 1296765231 -11.00000000
-4.34046650 -5.07306242 0.58411777 13 5 22055 6.70200000 1296765233 1296765233 5.00000000
-2.00763726 -2.34566283 -0.48901415 1 6 22056 3.12600000 1296765236 1296765236 -9.00000000
-4.32891607 -5.05598831 0.81725580 10 7 22057 6.70600000 1296765238 1296765238 7.00000000
-2.48966622 -2.90679646 -0.46992818 1 8 22058 3.85600000 1296765240 1296765240 -7.00000000
-4.33173704 -5.05749607 1.05468118 47 9 22058 6.74200000 1296765242 1296765242 9.00000000
-4.36085939 -5.08969975 -0.58638382 8 10 22059 6.72800000 1296765245 1296765245 -5.00000000
-4.31201935 -5.03091908 1.28796077 62 11 22060 6.75000000 1296765247 1296765247 11.00000000
-4.34469795 -5.06725597 -0.34981352 10 12 22061 6.68400000 1296765249 1296765249 -3.00000000
-4.30979490 -5.02477360 1.52831745 40 13 22062 6.79400000 1296765252 1296765252 13.00000000
-4.34786224 -5.06736565 -0.11654717 14 14 22063 6.67800000 1296765254 1296765254 -1.00000000
-4.30602121 -5.01860094 1.77187514 67 15 22063 6.84600000 1296765256 1296765256 15.00000000
-1.26379299 -1.46877635 -0.51919103 4 0 22071 2.00600000 1296765277 1296765277 -15.00000000
-4.34407568 -5.04688978 0.11623303 8 1 22072 6.66000000 1296765279 1296765279 1.00000000
-1.43557286 -1.66724086 -0.50793946 4 2 22073 2.25800000 1296765282 1296765282 -13.00000000
-4.31186628 -5.00593376 0.34625468 80 3 22074 6.61600000 1296765284 1296765284 3.00000000
-1.67846870 -1.94864655 -0.49991956 3 4 22074 2.62000000 1296765286 1296765286 -11.00000000
-4.35164547 -5.05033350 0.58324623 13 5 22075 6.69200000 1296765289 1296765289 5.00000000
-2.01065397 -2.33265543 -0.48776266 2 6 22076 3.11800000 1296765291 1296765291 -9.00000000
-4.32838964 -5.01979923 0.81384349 10 7 22077 6.67800000 1296765293 1296765293 7.00000000
-2.49201822 -2.88906908 -0.46846575 1 8 22078 3.84400000 1296765295 1296765295 -7.00000000
-4.32314444 -5.01017857 1.04811096 60 9 22079 6.70000000 1296765298 1296765298 9.00000000
-4.36167860 -5.05483627 -0.58411777 4 10 22079 6.70200000 1296765300 1296765300 -5.00000000
-4.31416035 -4.99800253 1.28338134 62 11 22080 6.72600000 1296765302 1296765302 11.00000000
-4.35452795 -5.04298925 -0.34918550 7 12 22081 6.67200000 1296765305 1296765305 -3.00000000
-4.29418802 -4.97135544 1.51662004 15 13 22082 6.74200000 1296765307 1296765307 13.00000000
-4.34460497 -5.02794886 -0.11598869 15 14 22083 6.64600000 1296765309 1296765309 -1.00000000
-4.30164671 -4.97647762 1.76255774 69 15 22084 6.81000000 1296765312 1296765312 15.00000000
-1.26258671 -1.45705605 -0.51660281 4 0 22091 1.99600000 1296765332 1296765332 -15.00000000
-4.34594870 -5.01356316 0.11581417 11 1 22092 6.63600000 1296765335 1296765335 1.00000000
-1.44776738 -1.66958106 -0.51018900 4 2 22093 2.26800000 1296765337 1296765337 -13.00000000
-4.33062267 -4.99236059 0.34635937 97 3 22094 6.61800000 1296765339 1296765339 3.00000000
-1.68268764 -1.93980956 -0.49915633 3 4 22094 2.61600000 1296765342 1296765342 -11.00000000
-4.34052038 -5.00200653 0.57941139 13 5 22095 6.64800000 1296765344 1296765344 5.00000000
-2.01489949 -2.32114768 -0.48682407 2 6 22096 3.11200000 1296765346 1296765346 -9.00000000
-4.33156872 -4.98817253 0.81116235 10 7 22097 6.65600000 1296765348 1296765348 7.00000000
-2.50599337 -2.88484859 -0.46919698 1 8 22098 3.85000000 1296765351 1296765351 -7.00000000
-4.31641674 -4.96897173 1.04247928 62 9 22098 6.66400000 1296765353 1296765353 9.00000000
-4.36100054 -5.01852608 -0.58167744 4 10 22099 6.67400000 1296765355 1296765355 -5.00000000
-4.31869984 -4.96809626 1.27956510 59 11 22100 6.70600000 1296765358 1296765358 11.00000000
-4.35637760 -5.00967312 -0.34792945 10 12 22101 6.64800000 1296765360 1296765360 -3.00000000
-4.30384111 -4.94751406 1.51392055 52 13 22102 6.73000000 1296765362 1296765362 13.00000000
-4.33062458 -4.97654867 -0.11515098 18 14 22103 6.59800000 1296765365 1296765365 -1.00000000
-4.30037117 -4.94178295 1.75531077 69 15 22103 6.78200000 1296765367 1296765367 15.00000000
-1.26004386 -1.44390666 -0.51349699 4 0 22111 1.98400000 1296765388 1296765388 -15.00000000
-4.34238148 -4.97425938 0.11525569 11 1 22112 6.60400000 1296765390 1296765390 1.00000000
-1.45871377 -1.67038858 -0.51198858 4 2 22113 2.27600000 1296765392 1296765392 -13.00000000
-1.68686533 -1.93096709 -0.49839309 3 4 22114 2.61200000 1296765397 1296765397 -11.00000000
-4.33304405 -4.95832014 0.57609946 13 5 22115 6.61000000 1296765399 1296765399 5.00000000
-2.02038932 -2.31112576 -0.48619831 2 6 22116 3.10800000 1296765401 1296765401 -9.00000000
-4.33588648 -4.95807886 0.80872494 10 7 22117 6.63600000 1296765404 1296765404 7.00000000
-4.38772631 -5.01559067 -0.81823075 2 8 22118 6.71400000 1296765406 1296765406 -7.00000000
-4.31812763 -4.93603325 1.03872490 62 9 22118 6.64000000 1296765408 1296765408 9.00000000
-3.34717798 -3.82479715 -0.44466859 3 10 22119 5.10200000 1296765411 1296765411 -5.00000000
-4.31532478 -4.92935562 1.27345920 62 11 22120 6.67400000 1296765413 1296765413 11.00000000
-4.36067963 -4.97941065 -0.34688273 7 12 22121 6.62800000 1296765415 1296765415 -3.00000000
-4.30567551 -4.91487074 1.50852180 74 13 22122 6.70600000 1296765418 1296765418 13.00000000
-4.34533358 -4.95839357 -0.11508117 15 14 22123 6.59400000 1296765420 1296765420 -1.00000000
-4.28576374 -4.89041948 1.74236977 65 15 22123 6.73200000 1296765422 1296765422 15.00000000
-1.26915419 -1.44363129 -0.51504987 5 0 22132 1.99000000 1296765443 1296765443 -15.00000000
-4.33549261 -4.92977953 0.11459250 11 1 22133 6.56600000 1296765445 1296765445 1.00000000
-1.45839024 -1.65771532 -0.50973910 4 2 22134 2.26600000 1296765448 1296765448 -13.00000000
-4.34512424 -4.93725491 0.34468460 7 3 22135 6.58600000 1296765450 1296765450 3.00000000
-1.70430768 -1.93656170 -0.50144607 3 4 22135 2.62800000 1296765452 1296765452 -11.00000000
-4.33143997 -4.91997385 0.57348478 9 5 22136 6.58000000 1296765454 1296765454 5.00000000
-2.02623534 -2.30074024 -0.48557258 2 6 22137 3.10400000 1296765457 1296765457 -9.00000000
-4.33172131 -4.91683245 0.80458140 28 7 22138 6.60200000 1296765459 1296765459 7.00000000
-4.38901758 -4.98011494 -0.81506217 2 8 22139 6.68800000 1296765461 1296765461 -7.00000000
-4.32398558 -4.90459871 1.03559613 65 9 22140 6.62000000 1296765464 1296765464 9.00000000
-4.35727262 -4.94235563 -0.57644808 4 10 22140 6.61400000 1296765466 1296765466 -5.00000000
-4.31518269 -4.89289236 1.26811659 62 11 22141 6.64600000 1296765468 1296765468 11.00000000
-4.35908079 -4.94092894 -0.34531263 10 12 22142 6.59800000 1296765471 1296765471 -3.00000000
-4.30689716 -4.88006258 1.50267303 72 13 22143 6.68000000 1296765473 1296765473 13.00000000
-4.35156679 -4.92894220 -0.11476702 9 14 22144 6.57600000 1296765475 1296765475 -1.00000000
-4.29343081 -4.86309290 1.73822868 63 15 22144 6.71600000 1296765477 1296765477 15.00000000
-1.27802742 -1.44353163 -0.51660281 5 0 22152 1.99600000 1296765498 1296765498 -15.00000000
-4.33941603 -4.89964581 0.11424346 11 1 22153 6.54600000 1296765501 1296765501 1.00000000
-1.46416783 -1.65261447 -0.50973910 4 2 22154 2.26600000 1296765503 1296765503 -13.00000000
-4.34511042 -4.90262604 0.34332389 10 3 22155 6.56000000 1296765505 1296765505 3.00000000
-1.71105707 -1.93060076 -0.50144607 3 4 22155 2.62800000 1296765507 1296765507 -11.00000000
-4.33404779 -4.88842535 0.57156736 9 5 22156 6.55800000 1296765510 1296765510 5.00000000
-2.03425407 -2.29365325 -0.48557258 2 6 22157 3.10400000 1296765512 1296765512 -9.00000000
-4.32514429 -4.87495375 0.80019408 44 7 22158 6.56600000 1296765514 1296765514 7.00000000
-4.38529110 -4.94100904 -0.81116235 2 8 22159 6.65600000 1296765517 1296765517 -7.00000000
-4.33058739 -4.87765789 1.03309321 67 9 22160 6.60400000 1296765519 1296765519 9.00000000
-3.37975287 -3.80670714 -0.44536585 3 10 22160 5.11000000 1296765521 1296765521 -5.00000000
-4.31789494 -4.86165285 1.26391876 65 11 22161 6.62400000 1296765524 1296765524 11.00000000
-4.34977007 -4.89582109 -0.34321919 10 12 22162 6.55800000 1296765526 1296765526 -3.00000000
-4.30578136 -4.84460688 1.49637437 70 13 22163 6.65200000 1296765528 1296765528 13.00000000
-4.34350014 -4.88532829 -0.11410383 6 14 22164 6.53800000 1296765530 1296765530 -1.00000000
-4.29581928 -4.83000183 1.73201704 60 15 22165 6.69200000 1296765533 1296765533 15.00000000
-1.28409266 -1.44072771 -0.51712048 4 0 22171 1.99800000 1296765554 1296765554 -15.00000000
-4.34499407 -4.87328815 0.11396421 14 1 22172 6.53000000 1296765556 1296765556 1.00000000
-1.47093725 -1.64920437 -0.51018900 4 2 22173 2.26800000 1296765558 1296765558 -13.00000000
-4.33608055 -4.85987473 0.34133512 10 3 22174 6.52200000 1296765560 1296765560 3.00000000
-1.70960760 -1.91612649 -0.49915633 3 4 22174 2.61600000 1296765563 1296765563 -11.00000000
-4.34094810 -4.86362123 0.57034719 9 5 22175 6.54400000 1296765565 1296765565 5.00000000
-2.05237389 -2.29868293 -0.48807552 2 6 22176 3.12000000 1296765567 1296765567 -9.00000000
-4.32674026 -4.84429836 0.79751301 65 7 22177 6.54400000 1296765570 1296765570 7.00000000
-2.53412437 -2.83625555 -0.46700332 1 8 22178 3.83200000 1296765572 1296765572 -7.00000000
-4.32567596 -4.83970499 1.02808726 77 9 22179 6.57200000 1296765574 1296765574 9.00000000
-4.35098076 -4.86801720 -0.57121873 4 10 22179 6.55400000 1296765577 1296765577 -5.00000000
-4.31174755 -4.82242680 1.25743127 65 11 22180 6.59000000 1296765579 1296765579 11.00000000
-4.34734058 -4.86052799 -0.34175378 10 12 22181 6.53000000 1296765581 1296765581 -3.00000000
-4.29973316 -4.80561256 1.48872602 74 13 22182 6.61800000 1296765583 1296765583 13.00000000
-4.33967209 -4.84854746 -0.11358026 9 14 22183 6.50800000 1296765586 1296765586 -1.00000000
-4.30324173 -4.80784512 1.72891128 60 15 22183 6.68000000 1296765588 1296765588 15.00000000
-1.28395236 -1.43048596 -0.51504987 4 0 22191 1.99000000 1296765609 1296765609 -15.00000000
-4.34861851 -4.84321260 0.11361516 17 1 22192 6.51000000 1296765611 1296765611 1.00000000
-1.47277844 -1.63971043 -0.50883931 4 2 22193 2.26200000 1296765613 1296765613 -13.00000000
-4.34233904 -4.83282423 0.34049773 15 3 22194 6.50600000 1296765616 1296765616 3.00000000
-1.71890998 -1.91306794 -0.49991956 3 4 22194 2.62000000 1296765618 1296765618 -11.00000000
-4.33392477 -4.82176638 0.56720960 9 5 22195 6.50800000 1296765620 1296765620 5.00000000
-2.06302691 -2.29444265 -0.48870125 2 6 22196 3.12400000 1296765623 1296765623 -9.00000000
-4.32769394 -4.81145477 0.79458815 70 7 22197 6.52000000 1296765625 1296765625 7.00000000
-2.54932022 -2.83329535 -0.46797827 1 8 22198 3.84000000 1296765627 1296765627 -7.00000000
-4.31082678 -4.78933907 1.02057850 72 9 22199 6.52400000 1296765630 1296765630 9.00000000
-3.39225674 -3.76880527 -0.44362274 3 10 22199 5.09000000 1296765632 1296765632 -5.00000000
-4.31935883 -4.79713392 1.25475991 65 11 22200 6.57600000 1296765634 1296765634 11.00000000
-4.35091352 -4.83048344 -0.34070706 10 12 22201 6.51000000 1296765636 1296765636 -3.00000000
-4.30213261 -4.77464962 1.48377717 75 13 22202 6.59600000 1296765639 1296765639 13.00000000
-4.34184313 -4.81703043 -0.11319631 6 14 22203 6.48600000 1296765641 1296765641 -1.00000000
-4.30447721 -4.77557516 1.72269952 65 15 22203 6.65600000 1296765643 1296765643 15.00000000
-1.28764248 -1.42456222 -0.51453227 4 0 22211 1.98800000 1296765664 1296765664 -15.00000000
-4.34403944 -4.80427122 0.11305669 11 1 22212 6.47800000 1296765666 1296765666 1.00000000
-1.48110759 -1.63744998 -0.50973910 4 2 22213 2.26600000 1296765669 1296765669 -13.00000000
-4.33824444 -4.79617977 0.33892766 10 3 22213 6.47600000 1296765671 1296765671 3.00000000
-1.72821188 -1.90996766 -0.50068283 3 4 22214 2.62400000 1296765673 1296765673 -11.00000000
-4.32398891 -4.77706623 0.56372333 9 5 22215 6.46800000 1296765676 1296765676 5.00000000
-2.06571984 -2.28137016 -0.48744980 2 6 22216 3.11600000 1296765678 1296765678 -9.00000000
-4.32980347 -4.78013515 0.79190701 60 7 22217 6.49800000 1296765680 1296765680 7.00000000
-2.56985807 -2.83614755 -0.46992818 1 8 22218 3.85600000 1296765682 1296765682 -7.00000000
-4.31342125 -4.76037931 1.01744974 72 9 22218 6.50400000 1296765685 1296765685 9.00000000
-3.40003920 -3.75103641 -0.44292548 3 10 22219 5.08200000 1296765687 1296765687 -5.00000000
-4.31233978 -4.75584841 1.24789083 65 11 22220 6.54000000 1296765689 1296765689 11.00000000
-4.35701370 -4.80343151 -0.33986971 10 12 22221 6.49400000 1296765692 1296765692 -3.00000000
-4.30305862 -4.74228477 1.47837830 78 13 22222 6.57200000 1296765694 1296765694 13.00000000
-4.34384680 -4.78555775 -0.11281236 6 14 22223 6.46400000 1296765696 1296765696 -1.00000000
-4.29645109 -4.73334217 1.71286440 67 15 22223 6.61800000 1296765699 1296765699 15.00000000
-1.29260719 -1.42005885 -0.51453227 5 0 22231 1.98800000 1296765719 1296765719 -15.00000000
-4.31635380 -4.74028587 0.11190483 11 1 22232 6.41200000 1296765722 1296765722 1.00000000
-1.48943889 -1.63515127 -0.51063889 4 2 22233 2.27000000 1296765724 1296765724 -13.00000000
-4.33158064 -4.75367355 0.33704355 10 3 22234 6.44000000 1296765726 1296765726 3.00000000
-1.72957909 -1.89811885 -0.49915633 3 4 22234 2.61600000 1296765729 1296765729 -11.00000000
-4.32050467 -4.73985672 0.56110865 9 5 22235 6.43800000 1296765731 1296765731 5.00000000
-2.07100868 -2.27122641 -0.48682407 2 6 22236 3.11200000 1296765733 1296765733 -9.00000000
-4.32773352 -4.74445963 0.78849465 63 7 22237 6.47000000 1296765735 1296765735 7.00000000
-2.57171416 -2.81836152 -0.46846575 1 8 22238 3.84400000 1296765738 1296765738 -7.00000000
-4.31752253 -4.72994804 1.01432109 65 9 22239 6.48400000 1296765740 1296765740 9.00000000
-3.41311216 -3.73914504 -0.44292548 3 10 22239 5.08200000 1296765742 1296765742 -5.00000000
-4.30640936 -4.71612024 1.24140334 62 11 22240 6.50600000 1296765745 1296765745 11.00000000
-4.34816122 -4.76017523 -0.33788094 10 12 22241 6.45600000 1296765747 1296765747 -3.00000000
-4.30512619 -4.71141100 1.47342944 61 13 22242 6.55000000 1296765749 1296765749 13.00000000
-4.34568405 -4.75412989 -0.11242840 9 14 22243 6.44200000 1296765752 1296765752 -1.00000000
-4.29291201 -4.69475222 1.70458221 42 15 22244 6.58600000 1296765754 1296765754 15.00000000
-1.30016708 -1.41838634 -0.51556754 4 0 22251 1.99200000 1296765775 1296765775 -15.00000000
-4.32746840 -4.71929455 0.11176521 2 1 22252 6.40400000 1296765777 1296765777 1.00000000
-1.48986840 -1.62419784 -0.50883931 4 2 22253 2.26200000 1296765779 1296765779 -13.00000000
-4.31086779 -4.69954395 0.33421743 2 3 22253 6.38600000 1296765782 1296765782 3.00000000
-1.74946785 -1.90653527 -0.50297248 3 4 22254 2.63600000 1296765784 1296765784 -11.00000000
-4.29525661 -4.67924547 0.55570501 6 5 22255 6.37600000 1296765786 1296765786 5.00000000
-2.07625198 -2.26107335 -0.48619831 2 6 22256 3.10800000 1296765788 1296765788 -9.00000000
-4.32949686 -4.71324301 0.78581351 34 7 22257 6.44800000 1296765791 1296765791 7.00000000
-2.58422279 -2.81229091 -0.46895322 1 8 22258 3.84800000 1296765793 1296765793 -7.00000000
-4.31930161 -4.69885111 1.01087952 27 9 22259 6.46200000 1296765795 1296765795 9.00000000
-3.43153667 -3.73307562 -0.44362274 3 10 22259 5.09000000 1296765798 1296765798 -5.00000000
-4.31354332 -4.69094324 1.23873198 21 11 22260 6.49200000 1296765800 1296765800 11.00000000
-4.34987688 -4.72879887 -0.33672956 10 12 22261 6.43400000 1296765802 1296765802 -3.00000000
-4.30966997 -4.68344879 1.46938026 17 13 22262 6.53200000 1296765805 1296765805 13.00000000
-4.33381224 -4.70803547 -0.11169540 6 14 22263 6.40000000 1296765807 1296765807 -1.00000000
-4.30845690 -4.68049097 1.70458221 13 15 22263 6.58600000 1296765809 1296765809 15.00000000
-1.31166196 -1.42093682 -0.51815575 5 0 22271 2.00200000 1296765830 1296765830 -15.00000000
-4.33306217 -4.69240713 0.11148597 8 1 22272 6.38800000 1296765832 1296765832 1.00000000
-1.49817348 -1.62185025 -0.50973910 4 2 22273 2.26600000 1296765834 1296765834 -13.00000000
-4.33266687 -4.69033623 0.33463609 5 3 22273 6.39400000 1296765837 1296765837 3.00000000
-1.74545300 -1.88888168 -0.49991956 3 4 22274 2.62000000 1296765839 1296765839 -11.00000000
-4.33049822 -4.68470669 0.55814540 3 5 22275 6.40400000 1296765841 1296765841 5.00000000
-2.08681440 -2.25671268 -0.48682407 2 6 22276 3.11200000 1296765844 1296765844 -9.00000000
-4.35131454 -4.70393038 0.78678846 13 7 22277 6.45600000 1296765846 1296765846 7.00000000
-2.58188963 -2.79014015 -0.46675959 1 8 22278 3.83000000 1296765848 1296765848 -7.00000000
-4.34507084 -4.69389248 1.01306963 12 9 22279 6.47600000 1296765851 1296765851 9.00000000
-3.43642592 -3.71230197 -0.44257686 3 10 22279 5.07800000 1296765853 1296765853 -5.00000000
-4.34323072 -4.69026279 1.24254823 12 11 22280 6.51200000 1296765855 1296765855 11.00000000
-4.36228514 -4.70919037 -0.33641553 10 12 22281 6.42800000 1296765858 1296765858 -3.00000000
-4.32864094 -4.67123508 1.47028005 13 13 22282 6.53600000 1296765860 1296765860 13.00000000
-4.34206295 -4.68407965 -0.11148597 2 14 22283 6.38800000 1296765862 1296765862 -1.00000000
-4.34709501 -4.68950796 1.71338212 9 15 22283 6.62000000 1296765864 1296765864 15.00000000
-1.30214572 -1.40078533 -0.51246172 5 0 22291 1.98000000 1296765885 1296765885 -15.00000000
-4.35622406 -4.68457508 0.11166050 11 1 22292 6.39800000 1296765887 1296765887 1.00000000
-1.50117099 -1.61375713 -0.50883931 4 2 22293 2.26200000 1296765890 1296765890 -13.00000000
-4.36751652 -4.69343233 0.33599684 27 3 22294 6.42000000 1296765892 1296765892 3.00000000
-1.74133635 -1.87127960 -0.49686661 3 4 22294 2.60400000 1296765894 1296765894 -11.00000000
-4.37126017 -4.69581175 0.56128299 32 5 22295 6.44000000 1296765897 1296765897 5.00000000
-2.10544848 -2.26097965 -0.48932701 2 6 22296 3.12800000 1296765899 1296765899 -9.00000000
-4.37988567 -4.70178556 0.78898215 10 7 22297 6.47400000 1296765901 1296765901 7.00000000
-2.59567308 -2.78546739 -0.46749079 1 8 22298 3.83600000 1296765904 1296765904 -7.00000000
-4.36061239 -4.67945814 1.01306963 10 9 22298 6.47600000 1296765906 1296765906 9.00000000
-3.44664621 -3.69736934 -0.44222823 3 10 22299 5.07400000 1296765908 1296765908 -5.00000000
-4.37162685 -4.68799591 1.24598277 12 11 22300 6.53000000 1296765911 1296765911 11.00000000
-4.38959599 -4.70561838 -0.33725291 10 12 22301 6.44400000 1296765913 1296765913 -3.00000000
-4.35821581 -4.67034483 1.47477913 14 13 22302 6.55600000 1296765915 1296765915 13.00000000
-4.35975170 -4.67035627 -0.11152088 22 14 22303 6.39000000 1296765917 1296765917 -1.00000000
-4.36689091 -4.67636728 1.71441734 9 15 22304 6.62400000 1296765920 1296765920 15.00000000
-1.31098819 -1.40046251 -0.51401460 4 0 22311 1.98600000 1296765940 1296765940 -15.00000000
-4.37665033 -4.67371941 0.11176521 17 1 22312 6.40400000 1296765943 1296765943 1.00000000
-1.50945950 -1.61135161 -0.50973910 4 2 22313 2.26600000 1296765945 1296765945 -13.00000000
-4.37896013 -4.67455053 0.33568281 7 3 22313 6.41400000 1296765947 1296765947 3.00000000
-1.75859725 -1.87665021 -0.49991956 3 4 22314 2.62000000 1296765950 1296765950 -11.00000000
-4.40261364 -4.69651365 0.56320041 9 5 22315 6.46200000 1296765952 1296765952 5.00000000
-2.09441090 -2.23344350 -0.48494685 2 6 22316 3.10000000 1296765954 1296765954 -9.00000000
-4.40713596 -4.69805050 0.79093206 10 7 22317 6.49000000 1296765957 1296765957 7.00000000
-2.62711453 -2.79955053 -0.47139063 1 8 22318 3.86800000 1296765959 1296765959 -7.00000000
-4.39801407 -4.68504763 1.01776266 10 9 22319 6.50600000 1296765961 1296765961 9.00000000
-3.47316790 -3.69984198 -0.44397137 3 10 22319 5.09400000 1296765964 1296765964 -5.00000000
-4.39871597 -4.68415689 1.24903572 12 11 22320 6.54600000 1296765966 1296765966 11.00000000
-4.43060923 -4.71646976 -0.33913699 10 12 22321 6.48000000 1296765968 1296765968 -3.00000000
-4.39717817 -4.67924500 1.48242748 14 13 22322 6.59000000 1296765970 1296765970 13.00000000
-4.41848707 -4.70027637 -0.11260293 9 14 22323 6.45200000 1296765973 1296765973 -1.00000000
-4.39774561 -4.67657661 1.72011137 9 15 22324 6.64600000 1296765975 1296765975 15.00000000
-1.31876302 -1.39845896 -0.51504987 5 0 22332 1.99000000 1296765996 1296765996 -15.00000000
-4.42393923 -4.68964815 0.11253311 11 1 22333 6.44800000 1296765998 1296765998 1.00000000
-1.51803017 -1.60864294 -0.51063889 4 2 22334 2.27000000 1296766000 1296766000 -13.00000000
-4.43581629 -4.70059443 0.33871830 10 3 22334 6.47200000 1296766003 1296766003 3.00000000
-1.77085447 -1.87590253 -0.50144607 3 4 22335 2.62800000 1296766005 1296766005 -11.00000000
-4.43484497 -4.69628000 0.56511784 13 5 22336 6.48400000 1296766007 1296766007 5.00000000
-2.11479115 -2.23867583 -0.48776266 2 6 22337 3.11800000 1296766010 1296766010 -9.00000000
-4.42841625 -4.68619442 0.79166323 10 7 22338 6.49600000 1296766012 1296766012 7.00000000
-4.47014427 -4.72869778 -0.79897541 2 8 22339 6.55600000 1296766014 1296766014 -7.00000000
-4.42791080 -4.68402195 1.02089131 10 9 22339 6.52600000 1296766017 1296766017 9.00000000
-3.47027779 -3.66971588 -0.44187963 3 10 22340 5.07000000 1296766019 1296766019 -5.00000000
-4.42125130 -4.67370796 1.25056219 12 11 22341 6.55400000 1296766021 1296766021 11.00000000
-4.44649363 -4.69874859 -0.33903232 10 12 22342 6.47800000 1296766023 1296766023 -3.00000000
-4.43573427 -4.68574047 1.48962593 14 13 22343 6.62200000 1296766026 1296766026 13.00000000
-4.45080948 -4.70002174 -0.11298688 15 14 22344 6.47400000 1296766028 1296766028 -1.00000000
-4.43212795 -4.67865849 1.72684062 9 15 22345 6.67200000 1296766030 1296766030 15.00000000
-1.32363653 -1.39384711 -0.51504987 5 0 22352 1.99000000 1296766051 1296766051 -15.00000000
-4.45405483 -4.68867540 0.11288217 14 1 22353 6.46800000 1296766053 1296766053 1.00000000
-1.51558173 -1.59485853 -0.50793946 4 2 22354 2.25800000 1296766056 1296766056 -13.00000000
-4.46045208 -4.69376898 0.33934635 10 3 22354 6.48400000 1296766058 1296766058 3.00000000
-1.77198112 -1.86401808 -0.49991956 3 4 22355 2.62000000 1296766060 1296766060 -11.00000000
-4.46768665 -4.69809675 0.56720960 13 5 22356 6.50800000 1296766063 1296766063 5.00000000
-2.12123132 -2.22984910 -0.48744980 1 6 22357 3.11600000 1296766065 1296766065 -9.00000000
-4.45295763 -4.67933559 0.79312569 10 7 22358 6.50800000 1296766067 1296766067 7.00000000
-4.49757290 -4.72456789 -0.80092531 2 8 22359 6.57200000 1296766070 1296766070 -7.00000000
-4.47011232 -4.69572115 1.02683580 10 9 22359 6.56400000 1296766072 1296766072 9.00000000
-3.49680614 -3.67200828 -0.44362274 3 10 22360 5.09000000 1296766074 1296766074 -5.00000000
-4.44430923 -4.66535378 1.25247025 12 11 22361 6.56400000 1296766076 1296766076 11.00000000
-4.47113514 -4.69187403 -0.33966035 10 12 22362 6.49000000 1296766079 1296766079 -3.00000000
-4.46416521 -4.68292284 1.49367499 14 13 22363 6.64000000 1296766081 1296766081 13.00000000
-4.48512888 -4.70326996 -0.11344064 13 14 22364 6.50000000 1296766083 1296766083 -1.00000000
-4.46176720 -4.67713737 1.73201704 9 15 22365 6.69200000 1296766086 1296766086 15.00000000
-1.33784008 -1.39899170 -0.51867336 5 0 22372 2.00400000 1296766106 1296766106 -15.00000000
-4.49251127 -4.69621897 0.11344064 20 1 22373 6.50000000 1296766109 1296766109 1.00000000
-1.52113950 -1.58955836 -0.50793946 4 2 22374 2.25800000 1296766111 1296766111 -13.00000000
-4.49199915 -4.69404316 0.34049773 10 3 22374 6.50600000 1296766113 1296766113 3.00000000
-1.78119218 -1.86065769 -0.50068283 3 4 22375 2.62400000 1296766116 1296766116 -11.00000000
-4.49508333 -4.69398499 0.56860405 9 5 22376 6.52400000 1296766118 1296766118 5.00000000
-2.11533689 -2.20816636 -0.48432112 2 6 22377 3.09600000 1296766120 1296766120 -9.00000000
-4.49398708 -4.68956184 0.79751301 10 7 22378 6.54400000 1296766122 1296766122 7.00000000
-4.53326941 -4.72890139 -0.80433768 2 8 22379 6.60000000 1296766125 1296766125 -7.00000000
-4.48784351 -4.68151522 1.02714872 10 9 22379 6.56600000 1296766127 1296766127 9.00000000
-3.52339292 -3.67416000 -0.44536585 3 10 22380 5.11000000 1296766129 1296766129 -5.00000000
-4.48095417 -4.67106342 1.25819457 12 11 22381 6.59400000 1296766132 1296766132 11.00000000
-4.49578285 -4.68488455 -0.34028840 10 12 22382 6.50200000 1296766134 1296766134 -3.00000000
-4.48048401 -4.66731119 1.49367499 13 13 22383 6.64000000 1296766136 1296766136 13.00000000
-4.50290394 -4.68902779 -0.11347555 6 14 22384 6.50200000 1296766139 1296766139 -1.00000000
-4.49063349 -4.67624998 1.73719347 9 15 22384 6.71200000 1296766141 1296766141 15.00000000
-1.33467519 -1.38596404 -0.51556754 4 0 22392 1.99200000 1296766162 1296766162 -15.00000000
-4.51858807 -4.69058990 0.11368497 20 1 22393 6.51400000 1296766164 1296766164 1.00000000
-1.53073561 -1.58844864 -0.50928921 3 2 22394 2.26400000 1296766166 1296766166 -13.00000000
-4.51944399 -4.68983984 0.34133512 7 3 22394 6.52200000 1296766169 1296766169 3.00000000
-1.78222609 -1.84877503 -0.49915633 3 4 22395 2.61600000 1296766171 1296766171 -11.00000000
-4.51697302 -4.68400192 0.56930131 9 5 22396 6.53200000 1296766173 1296766173 5.00000000
-2.13948965 -2.21782923 -0.48807552 2 6 22397 3.12000000 1296766175 1296766175 -9.00000000
-4.52687073 -4.69098759 0.80043787 10 7 22398 6.56800000 1296766178 1296766178 7.00000000
-2.65539885 -2.75070667 -0.46944070 1 8 22399 3.85200000 1296766180 1296766180 -7.00000000
-4.52062130 -4.68287563 1.03090310 10 9 22399 6.59000000 1296766182 1296766182 9.00000000
-3.52235627 -3.64750671 -0.44362274 3 10 22400 5.09000000 1296766185 1296766185 -5.00000000
-4.52860451 -4.68786955 1.26697171 12 11 22401 6.64000000 1296766187 1296766187 11.00000000
-4.53986740 -4.69788742 -0.34238183 10 12 22402 6.54200000 1296766189 1296766189 -3.00000000
-4.51842022 -4.67406082 1.50087345 13 13 22403 6.67200000 1296766192 1296766192 13.00000000
-4.52480507 -4.67903090 -0.11361516 6 14 22404 6.51000000 1296766194 1296766194 -1.00000000
-4.51983118 -4.67225599 1.74185216 9 15 22405 6.73000000 1296766196 1296766196 15.00000000
-1.32961190 -1.37205303 -0.51194406 4 0 22410 1.97800000 1296766217 1296766217 -15.00000000
-4.53886938 -4.68211412 0.11382460 17 1 22411 6.52200000 1296766219 1296766219 1.00000000
-1.54114485 -1.58922768 -0.51108879 4 2 22412 2.27200000 1296766222 1296766222 -13.00000000
-4.55583143 -4.69633055 0.34290519 12 3 22413 6.55200000 1296766224 1296766224 3.00000000
-1.77982342 -1.83471203 -0.49686661 3 4 22413 2.60400000 1296766226 1296766226 -11.00000000
-4.55109119 -4.68980598 0.57174170 9 5 22414 6.56000000 1296766228 1296766228 5.00000000
-2.13543916 -2.19975781 -0.48557258 2 6 22415 3.10400000 1296766231 1296766231 -9.00000000
-4.55956364 -4.69525623 0.80360645 10 7 22416 6.59400000 1296766233 1296766233 7.00000000
-2.65849447 -2.73665547 -0.46846575 1 8 22417 3.84400000 1296766235 1296766235 -7.00000000
-4.55182743 -4.68565321 1.03465760 10 9 22417 6.61400000 1296766238 1296766238 9.00000000
-3.52268958 -3.62499213 -0.44222823 3 10 22418 5.07400000 1296766240 1296766240 -5.00000000
-4.55699444 -4.68769693 1.27078795 12 11 22419 6.66000000 1296766242 1296766242 11.00000000
-4.57549000 -4.70507956 -0.34395191 10 12 22420 6.57200000 1296766245 1296766245 -3.00000000
-4.55210543 -4.67939854 1.50717211 12 13 22421 6.70000000 1296766247 1296766247 13.00000000
-4.56737471 -4.69345522 -0.11431326 6 14 22422 6.55000000 1296766249 1296766249 -1.00000000
-4.53771639 -4.66297817 1.74340510 9 15 22422 6.73600000 1296766252 1296766252 15.00000000
-1.33979011 -1.37293386 -0.51401460 5 0 22430 1.98600000 1296766272 1296766272 -15.00000000
-4.56915379 -4.68055153 0.11417364 17 1 22431 6.54200000 1296766275 1296766275 1.00000000
-1.54259837 -1.57965577 -0.50973910 4 2 22432 2.26600000 1296766277 1296766277 -13.00000000
-4.59034061 -4.69897223 0.34426591 15 3 22433 6.57800000 1296766279 1296766279 3.00000000
-1.79719210 -1.83972311 -0.49991956 3 4 22433 2.62000000 1296766281 1296766281 -11.00000000
-4.57578897 -4.68244076 0.57278752 9 5 22434 6.57200000 1296766284 1296766284 5.00000000
-2.14586663 -2.19511557 -0.48619831 2 6 22435 3.10800000 1296766286 1296766286 -9.00000000
-4.59396839 -4.69776201 0.80677503 10 7 22436 6.62000000 1296766288 1296766288 7.00000000
-2.65692592 -2.71600676 -0.46651584 1 8 22437 3.82800000 1296766291 1296766291 -7.00000000
-4.58140516 -4.68164492 1.03747332 10 9 22438 6.63200000 1296766293 1296766293 9.00000000
-3.53532171 -3.61267352 -0.44222823 3 10 22438 5.07400000 1296766295 1296766295 -5.00000000
-4.58431673 -4.68298483 1.27384090 12 11 22439 6.67600000 1296766298 1296766298 11.00000000
-4.61005211 -4.70763016 -0.34531263 10 12 22440 6.59800000 1296766300 1296766300 -3.00000000
-4.57932138 -4.67461681 1.51077127 11 13 22441 6.71600000 1296766302 1296766302 13.00000000
-4.59772587 -4.69176579 -0.11466231 6 14 22442 6.57000000 1296766305 1296766305 -1.00000000
-4.57506180 -4.66700840 1.75116968 9 15 22443 6.76600000 1296766307 1296766307 15.00000000
-1.34911549 -1.37191164 -0.51556754 4 0 22452 1.99200000 1296766328 1296766328 -15.00000000
-4.60532284 -4.68150473 0.11462741 11 1 22453 6.56800000 1296766330 1296766330 1.00000000
-1.54591870 -1.57094300 -0.50883931 4 2 22454 2.26200000 1296766332 1296766332 -13.00000000
-4.61535501 -4.68842840 0.34478927 20 3 22455 6.58800000 1296766334 1296766334 3.00000000
-1.81250656 -1.84120333 -0.50220925 3 4 22455 2.63200000 1296766337 1296766337 -11.00000000
-4.60911226 -4.68045235 0.57470495 9 5 22456 6.59400000 1296766339 1296766339 5.00000000
-2.16536951 -2.19811773 -0.48870125 2 6 22457 3.12400000 1296766341 1296766341 -9.00000000
-4.62172604 -4.68998528 0.80848122 10 7 22458 6.63400000 1296766344 1296766344 7.00000000
-2.68684530 -2.72557640 -0.46992818 1 8 22459 3.85600000 1296766346 1296766346 -7.00000000
-4.61656141 -4.68310976 1.04154062 10 9 22459 6.65800000 1296766348 1296766348 9.00000000
-3.53517771 -3.58488584 -0.44048512 3 10 22460 5.05400000 1296766351 1296766351 -5.00000000
-4.60502148 -4.66814327 1.27460408 18 11 22461 6.68000000 1296766353 1296766353 11.00000000
-4.62528849 -4.68705082 -0.34510329 10 12 22462 6.59400000 1296766355 1296766355 -3.00000000
-4.61229610 -4.67225409 1.51572025 10 13 22463 6.73800000 1296766358 1296766358 13.00000000
-4.64802408 -4.70680285 -0.11546512 9 14 22464 6.61600000 1296766360 1296766360 -1.00000000
-4.60978317 -4.66807842 1.75789893 9 15 22464 6.79200000 1296766362 1296766362 15.00000000
-1.35797417 -1.37131202 -0.51712048 5 0 22472 1.99800000 1296766383 1296766383 -15.00000000
-4.64415312 -4.68813086 0.11518588 8 1 22473 6.60000000 1296766385 1296766385 1.00000000
-1.55687976 -1.57107401 -0.51063889 4 2 22474 2.27000000 1296766387 1296766387 -13.00000000
-4.64716005 -4.68789196 0.34594068 12 3 22475 6.61000000 1296766390 1296766390 3.00000000
-1.81062961 -1.82649970 -0.49991956 3 4 22475 2.62000000 1296766392 1296766392 -11.00000000
-4.64927149 -4.68838549 0.57766825 9 5 22476 6.62800000 1296766394 1296766394 5.00000000
-2.16189981 -2.17932653 -0.48619831 2 6 22477 3.10800000 1296766397 1296766397 -9.00000000
-4.65345001 -4.68932390 0.81116235 10 7 22478 6.65600000 1296766399 1296766399 7.00000000
-2.68375611 -2.70350170 -0.46773455 1 8 22479 3.83800000 1296766401 1296766401 -7.00000000
-4.64622211 -4.67877293 1.04435647 10 9 22480 6.67600000 1296766404 1296766404 9.00000000
-4.66798639 -4.70068932 -0.57958567 8 10 22480 6.65000000 1296766406 1296766406 -5.00000000
-4.64481020 -4.67571831 1.28109157 9 11 22481 6.71400000 1296766408 1296766408 11.00000000
-4.66977787 -4.69921112 -0.34719673 10 12 22482 6.63400000 1296766410 1296766410 -3.00000000
-4.63956833 -4.66718197 1.51931942 11 13 22483 6.75400000 1296766413 1296766413 13.00000000
-4.67006588 -4.69622135 -0.11560474 9 14 22484 6.62400000 1296766415 1296766415 -1.00000000
-4.64593554 -4.67032576 1.76514590 9 15 22485 6.82000000 1296766417 1296766417 15.00000000
-1.35183966 -1.35562003 -0.51297933 4 0 22492 1.98200000 1296766438 1296766438 -15.00000000
-4.66896343 -4.68038559 0.11539531 8 1 22493 6.61200000 1296766440 1296766440 1.00000000
-1.55960119 -1.56287110 -0.50973910 4 2 22494 2.26600000 1296766443 1296766443 -13.00000000
-4.67760563 -4.68577671 0.34698740 12 3 22495 6.63000000 1296766445 1296766445 3.00000000
-1.81976831 -1.82294714 -0.50068283 3 4 22495 2.62400000 1296766447 1296766447 -11.00000000
-4.68250275 -4.68904543 0.57976002 13 5 22496 6.65200000 1296766450 1296766450 5.00000000
-2.17228603 -2.17456198 -0.48682407 2 6 22497 3.11200000 1296766452 1296766452 -9.00000000
-4.68522549 -4.68849754 0.81384349 10 7 22498 6.67800000 1296766454 1296766454 7.00000000
-2.69738722 -2.69832873 -0.46846575 1 8 22499 3.84400000 1296766457 1296766457 -7.00000000
-4.67148781 -4.67311907 1.04654658 10 9 22499 6.69000000 1296766459 1296766459 9.00000000
-4.69422817 -4.69422817 -0.58080590 8 10 22500 6.66400000 1296766461 1296766461 -5.00000000
-4.67915297 -4.67752028 1.28605258 12 11 22501 6.74000000 1296766463 1296766463 11.00000000
-4.70310593 -4.69982338 -0.34845281 10 12 22502 6.65800000 1296766466 1296766466 -3.00000000
-4.67099714 -4.66610813 1.52426839 11 13 22503 6.77600000 1296766468 1296766468 13.00000000
-4.69067526 -4.68413019 -0.11570945 13 14 22504 6.63000000 1296766470 1296766470 -1.00000000
-4.67780113 -4.67127419 1.77135754 9 15 22504 6.84400000 1296766473 1296766473 15.00000000
-1.36067009 -1.35498250 -0.51453227 5 0 22512 1.98800000 1296766493 1296766493 -15.00000000
-4.69944429 -4.67816734 0.11574436 8 1 22513 6.63200000 1296766496 1296766496 1.00000000
-1.56780982 -1.56016672 -0.51063889 4 2 22514 2.27000000 1296766498 1296766498 -13.00000000
-4.71375704 -4.68914032 0.34845281 10 3 22515 6.65800000 1296766500 1296766500 3.00000000
-1.82055295 -1.81104553 -0.49915633 3 4 22515 2.61600000 1296766503 1296766503 -11.00000000
-4.70731878 -4.68110132 0.58080590 13 5 22516 6.66400000 1296766505 1296766505 5.00000000
-2.17145777 -2.15861011 -0.48494685 2 6 22517 3.10000000 1296766507 1296766507 -9.00000000
-4.71705151 -4.68750620 0.81652462 10 7 22518 6.70000000 1296766510 1296766510 7.00000000
-2.69552302 -2.67770481 -0.46651584 1 8 22519 3.82800000 1296766512 1296766512 -7.00000000
-4.70400286 -4.67127657 1.04998815 10 9 22520 6.71200000 1296766514 1296766514 9.00000000
-4.72613668 -4.69325686 -0.58272332 8 10 22520 6.68600000 1296766516 1296766516 -5.00000000
-4.70659876 -4.67222357 1.28910553 12 11 22521 6.75600000 1296766519 1296766519 11.00000000
-4.73365927 -4.69744635 -0.34949952 10 12 22522 6.67800000 1296766521 1296766521 -3.00000000
-4.70524168 -4.66761637 1.53011703 11 13 22523 6.80200000 1296766523 1296766523 13.00000000
-4.72687626 -4.68744135 -0.11619812 13 14 22524 6.65800000 1296766526 1296766526 -1.00000000
-4.70449448 -4.66361856 1.77498102 9 15 22525 6.85800000 1296766528 1296766528 15.00000000
-1.36813891 -1.35294127 -0.51556754 5 0 22532 1.99200000 1296766549 1296766549 -15.00000000
-4.72712278 -4.67298126 0.11602360 8 1 22533 6.64800000 1296766551 1296766551 1.00000000
-1.57047403 -1.55194497 -0.50973910 4 2 22534 2.26600000 1296766553 1296766553 -13.00000000
-4.74998903 -4.69230843 0.34991822 10 3 22535 6.68600000 1296766556 1296766556 3.00000000
-1.83524370 -1.81295788 -0.50144607 3 4 22535 2.62800000 1296766558 1296766558 -11.00000000
-4.74489498 -4.68564034 0.58342052 13 5 22536 6.69400000 1296766560 1296766560 5.00000000
-2.18179107 -2.15379262 -0.48557258 2 6 22537 3.10400000 1296766563 1296766563 -9.00000000
-4.74751472 -4.68495512 0.81896198 10 7 22538 6.72000000 1296766565 1296766565 7.00000000
-4.78790188 -4.72316074 -0.82578665 2 8 22539 6.77600000 1296766567 1296766567 -7.00000000
-4.74056149 -4.67646074 1.05468118 10 9 22539 6.74200000 1296766569 1296766569 9.00000000
-4.76518869 -4.69911432 -0.58551228 4 10 22540 6.71800000 1296766572 1296766572 -5.00000000
-4.73266602 -4.66541386 1.29177690 12 11 22541 6.77000000 1296766574 1296766574 11.00000000
-4.75856304 -4.68930531 -0.35012755 10 12 22542 6.69000000 1296766576 1296766576 -3.00000000
-4.75065994 -4.67988300 1.53956497 11 13 22543 6.84400000 1296766579 1296766579 13.00000000
-4.76743126 -4.69476557 -0.11679150 14 14 22544 6.69200000 1296766581 1296766581 -1.00000000
-4.74333382 -4.67103529 1.78378081 9 15 22544 6.89200000 1296766583 1296766583 15.00000000
-1.37698829 -1.35221803 -0.51712048 5 0 22552 1.99800000 1296766604 1296766604 -15.00000000
-4.76052999 -4.67326260 0.11644246 8 1 22553 6.67200000 1296766606 1296766606 1.00000000
-1.56753647 -1.53826404 -0.50703967 4 2 22554 2.25400000 1296766609 1296766609 -13.00000000
-4.78202248 -4.69108438 0.35106960 10 3 22555 6.70800000 1296766611 1296766611 3.00000000
-1.83595502 -1.80104125 -0.49991956 3 4 22555 2.62000000 1296766613 1296766613 -11.00000000
-4.78113747 -4.68857908 0.58586091 13 5 22556 6.72200000 1296766616 1296766616 5.00000000
-2.19211721 -2.14892936 -0.48619831 2 6 22557 3.10800000 1296766618 1296766618 -9.00000000
-4.77518177 -4.67947006 0.82091188 10 7 22558 6.73600000 1296766620 1296766620 7.00000000
-4.81428576 -4.71614313 -0.82749283 2 8 22559 6.79000000 1296766622 1296766622 -7.00000000
-4.78307438 -4.68393230 1.06031275 10 9 22560 6.77800000 1296766625 1296766625 9.00000000
-4.81288004 -4.71311998 -0.58934712 4 10 22560 6.76200000 1296766627 1296766627 -5.00000000
-4.76154900 -4.66122532 1.29521143 12 11 22561 6.78800000 1296766629 1296766629 11.00000000
-4.78346777 -4.68104792 -0.35075557 10 12 22562 6.70200000 1296766632 1296766632 -3.00000000
-4.77253914 -4.66872263 1.54136467 11 13 22563 6.85200000 1296766634 1296766634 13.00000000
-4.79951668 -4.69347477 -0.11717546 14 14 22564 6.71400000 1296766636 1296766636 -1.00000000
-4.77147388 -4.66442251 1.78792191 9 15 22565 6.90800000 1296766639 1296766639 15.00000000
-1.38723230 -1.35279822 -0.51919103 5 0 22572 2.00600000 1296766659 1296766659 -15.00000000
-4.80401945 -4.68313789 0.11710565 11 1 22573 6.71000000 1296766662 1296766662 1.00000000
-1.57847905 -1.53822315 -0.50883931 4 2 22574 2.26200000 1296766664 1296766664 -13.00000000
-4.80266047 -4.67854452 0.35138360 7 3 22575 6.71400000 1296766666 1296766666 3.00000000
-1.83379292 -1.78640199 -0.49762985 3 4 22575 2.60800000 1296766669 1296766669 -11.00000000
-4.81888580 -4.69271183 0.58847558 13 5 22576 6.75200000 1296766671 1296766671 5.00000000
-2.19677401 -2.13850856 -0.48557258 2 6 22577 3.10400000 1296766673 1296766673 -9.00000000
-4.80855894 -4.67938614 0.82383674 10 7 22578 6.76000000 1296766675 1296766675 7.00000000
-4.84637070 -4.71453571 -0.83017397 2 8 22579 6.81200000 1296766678 1296766678 -7.00000000
-4.80282831 -4.67217731 1.06125140 10 9 22579 6.78400000 1296766680 1296766680 9.00000000
-3.62661886 -3.52673292 -0.44257686 3 10 22580 5.07800000 1296766682 1296766682 -5.00000000
-4.81016827 -4.67605114 1.30398870 12 11 22581 6.83400000 1296766685 1296766685 11.00000000
-4.83129025 -4.69494438 -0.35305837 10 12 22582 6.74600000 1296766687 1296766687 -3.00000000
-4.79719353 -4.66018200 1.54406404 11 13 22583 6.86400000 1296766689 1296766689 13.00000000
-4.82734728 -4.68783760 -0.11745469 14 14 22584 6.73000000 1296766692 1296766692 -1.00000000
-4.80493212 -4.66606998 1.79465127 9 15 22584 6.93400000 1296766694 1296766694 15.00000000
-1.38639486 -1.34257197 -0.51712048 5 0 22592 1.99800000 1296766715 1296766715 -15.00000000
-4.83901548 -4.68442154 0.11755941 11 1 22593 6.73600000 1296766717 1296766717 1.00000000
-1.58383882 -1.53270388 -0.50883931 4 2 22594 2.26200000 1296766719 1296766719 -13.00000000
-4.83618832 -4.67841578 0.35263968 7 3 22595 6.73800000 1296766722 1296766722 3.00000000
-1.84001744 -1.77998996 -0.49762985 3 4 22595 2.60800000 1296766724 1296766724 -11.00000000
-4.84096575 -4.68140221 0.58917284 13 5 22596 6.76000000 1296766726 1296766726 5.00000000
-2.20422554 -2.13082743 -0.48557258 2 6 22597 3.10400000 1296766728 1296766728 -9.00000000
-4.85341311 -4.69016171 0.82871151 10 7 22598 6.80000000 1296766731 1296766731 7.00000000
-2.75549030 -2.66187572 -0.47041565 1 8 22599 3.86000000 1296766733 1296766733 -7.00000000
-4.83757734 -4.67322588 1.06531870 10 9 22599 6.81000000 1296766735 1296766735 9.00000000
-3.63317466 -3.50851607 -0.44187963 3 10 22600 5.07000000 1296766738 1296766738 -5.00000000
-4.84906101 -4.68104839 1.31009459 12 11 22601 6.86600000 1296766740 1296766740 11.00000000
-4.85052347 -4.68082523 -0.35326770 10 12 22602 6.75000000 1296766742 1296766742 -3.00000000
-4.83867645 -4.66776180 1.55216229 11 13 22603 6.90000000 1296766745 1296766745 13.00000000
-4.85519695 -4.68206310 -0.11773393 12 14 22604 6.74600000 1296766747 1296766747 -1.00000000
-4.84204960 -4.66938448 1.80241585 9 15 22604 6.96400000 1296766749 1296766749 15.00000000
-1.38225389 -1.33017266 -0.51401460 5 0 22610 1.98600000 1296766770 1296766770 -15.00000000
-4.85947275 -4.67474174 0.11769903 11 1 22611 6.74400000 1296766772 1296766772 1.00000000
-1.59847856 -1.53717601 -0.51198858 4 2 22612 2.27600000 1296766775 1296766775 -13.00000000
-4.87677956 -4.68811417 0.35452378 7 3 22613 6.77400000 1296766777 1296766777 3.00000000
-1.85692310 -1.78508532 -0.50068283 3 4 22613 2.62400000 1296766779 1296766779 -11.00000000
-4.86714172 -4.67721462 0.59056729 10 5 22614 6.77600000 1296766781 1296766781 5.00000000
-2.21090889 -2.12389207 -0.48557258 2 6 22615 3.10400000 1296766784 1296766784 -9.00000000
-4.88387346 -4.69001579 0.83139265 10 7 22616 6.82200000 1296766786 1296766786 7.00000000
-4.91619682 -4.71940708 -0.83675492 2 8 22617 6.86600000 1296766788 1296766788 -7.00000000
-4.86730051 -4.67083597 1.06844735 10 9 22618 6.83000000 1296766791 1296766791 9.00000000
-3.62692857 -3.48053050 -0.43978786 3 10 22618 5.04600000 1296766793 1296766793 -5.00000000
-4.87224340 -4.67394638 1.31238425 12 11 22619 6.87800000 1296766795 1296766795 11.00000000
-4.89980173 -4.69874096 -0.35577983 10 12 22620 6.79800000 1296766798 1296766798 -3.00000000
-4.86597776 -4.66467476 1.55621135 12 13 22621 6.91800000 1296766800 1296766800 13.00000000
-4.89009523 -4.68615723 -0.11822260 6 14 22622 6.77400000 1296766802 1296766802 -1.00000000
-4.85948420 -4.65682268 1.80345106 9 15 22622 6.96800000 1296766804 1296766804 15.00000000
-1.38688862 -1.32533956 -0.51401460 5 0 22630 1.98600000 1296766825 1296766825 -15.00000000
-4.89455843 -4.67570734 0.11815279 11 1 22631 6.77000000 1296766828 1296766828 1.00000000
-1.59396911 -1.52216589 -0.50883931 4 2 22632 2.26200000 1296766830 1296766830 -13.00000000
-4.91333961 -4.69037008 0.35598919 7 3 22633 6.80200000 1296766832 1296766832 3.00000000
-1.86314285 -1.77859247 -0.50068283 3 4 22633 2.62400000 1296766834 1296766834 -11.00000000
-4.89496946 -4.67120075 0.59196180 10 5 22634 6.79200000 1296766837 1296766837 5.00000000
-2.20973325 -2.10798049 -0.48369536 2 6 22635 3.09200000 1296766839 1296766839 -9.00000000
-4.91027117 -4.68252897 0.83309883 10 7 22636 6.83600000 1296766841 1296766841 7.00000000
-2.76589966 -2.63669348 -0.46919698 1 8 22637 3.85000000 1296766844 1296766844 -7.00000000
-4.90216541 -4.67153311 1.07251465 10 9 22638 6.85600000 1296766846 1296766846 9.00000000
-3.64915228 -3.47747040 -0.44100806 3 10 22638 5.06000000 1296766848 1296766848 -5.00000000
-4.90132236 -4.66909790 1.31581879 12 11 22639 6.89600000 1296766851 1296766851 11.00000000
-4.93931532 -4.70364666 -0.35745457 10 12 22640 6.83000000 1296766853 1296766853 -3.00000000
-4.90622568 -4.67050314 1.56385970 11 13 22641 6.95200000 1296766855 1296766855 13.00000000
-4.92380619 -4.68560123 -0.11864146 6 14 22642 6.79800000 1296766857 1296766857 -1.00000000
-4.89611530 -4.65762186 1.81069803 9 15 22643 6.99600000 1296766860 1296766860 15.00000000
-1.39477086 -1.32266319 -0.51504987 5 0 22652 1.99000000 1296766881 1296766881 -15.00000000
-4.92989063 -4.67338800 0.11857165 11 1 22653 6.79400000 1296766883 1296766883 1.00000000
-1.59980214 -1.51603425 -0.50883931 4 2 22654 2.26200000 1296766885 1296766885 -13.00000000
-4.95306253 -4.69207287 0.35755926 12 3 22655 6.83200000 1296766887 1296766887 3.00000000
-1.87565947 -1.77682614 -0.50220925 3 4 22655 2.63200000 1296766890 1296766890 -11.00000000
-4.93022966 -4.66881084 0.59405357 10 5 22656 6.81600000 1296766892 1296766892 5.00000000
-2.23215628 -2.11306047 -0.48682407 2 6 22657 3.11200000 1296766894 1296766894 -9.00000000
-4.93830729 -4.67319155 0.83480501 10 7 22658 6.85000000 1296766897 1296766897 7.00000000
-2.78754020 -2.63696742 -0.47114688 1 8 22659 3.86600000 1296766899 1296766899 -7.00000000
-4.93728971 -4.66896296 1.07626915 10 9 22660 6.88000000 1296766901 1296766901 9.00000000
-3.65234447 -3.45385051 -0.43978786 3 10 22660 5.04600000 1296766904 1296766904 -5.00000000
-4.93633461 -4.66642809 1.32039821 12 11 22661 6.92000000 1296766906 1296766906 11.00000000
-4.96314621 -4.69013357 -0.35787326 10 12 22662 6.83800000 1296766908 1296766908 -3.00000000
-4.93403912 -4.66099739 1.56700909 12 13 22663 6.96600000 1296766910 1296766910 13.00000000
-4.97083902 -4.69411945 -0.11933956 6 14 22664 6.83800000 1296766913 1296766913 -1.00000000
-4.92860365 -4.65423536 1.81639206 9 15 22664 7.01800000 1296766915 1296766915 15.00000000
-1.40641141 -1.32440841 -0.51763809 5 0 22672 2.00000000 1296766936 1296766936 -15.00000000
-4.96947050 -4.67808151 0.11913013 11 1 22673 6.82600000 1296766938 1296766938 1.00000000
-1.60224593 -1.50776970 -0.50793946 4 2 22674 2.25800000 1296766940 1296766940 -13.00000000
-4.97377491 -4.67886019 0.35787326 12 3 22675 6.83800000 1296766943 1296766943 3.00000000
-1.87327051 -1.76219690 -0.49991956 3 4 22675 2.62000000 1296766945 1296766945 -11.00000000
-4.97262239 -4.67614079 0.59719115 10 5 22676 6.85200000 1296766947 1296766947 5.00000000
-2.23088312 -2.09713793 -0.48494685 2 6 22677 3.10000000 1296766950 1296766950 -9.00000000
-4.97484207 -4.67495680 0.83821732 10 7 22678 6.87800000 1296766952 1296766952 7.00000000
-2.77791905 -2.60955215 -0.46797827 1 8 22679 3.84000000 1296766954 1296766954 -7.00000000
-4.96939707 -4.66657448 1.07971072 10 9 22680 6.90200000 1296766957 1296766957 9.00000000
-3.69052148 -3.46563029 -0.44292548 3 10 22680 5.08200000 1296766959 1296766959 -5.00000000
-4.95975018 -4.65588665 1.32230639 12 11 22681 6.93000000 1296766961 1296766961 11.00000000
-4.99405193 -4.68644714 -0.35891998 10 12 22682 6.85800000 1296766963 1296766963 -3.00000000
-4.95738506 -4.65041256 1.56925857 11 13 22683 6.97600000 1296766966 1296766966 13.00000000
-5.00469875 -4.69315386 -0.11975841 6 14 22684 6.86200000 1296766968 1296766968 -1.00000000
-4.97300386 -4.66343212 1.82674479 9 15 22684 7.05800000 1296766970 1296766970 15.00000000
-1.40351236 -1.31338370 -0.51504987 5 0 22690 1.99000000 1296766991 1296766991 -15.00000000
