# .PCD v0.7 - Point Cloud Data file format
VERSION 0.7
FIELDS x y z intensity laser_id azimuth distance_m adjustedtime timestamp vertical_angle
SIZE 4 4 4 1 1 2 8 8 4 8
TYPE F F F U U U F U U F
COUNT 1 1 1 1 1 1 1 1 1 1
WIDTH 527
HEIGHT 1
VIEWPOINT 0 0 0 1 0 0 0
POINTS 527
DATA ascii
3.69469810 -3.48536158 -0.08865822 30 14 13333 5.08000000 1298141021 1298141021 -1.00000000
5.58448362 -5.26807451 2.05709386 47 15 13333 7.94800000 1298141023 1298141023 15.00000000
1.53251588 -1.44973493 -0.56526077 4 0 13341 2.18400000 1298141044 1298141044 -15.00000000
3.97825599 -3.76468110 0.09560429 100 1 13342 5.47800000 1298141046 1298141046 1.00000000
1.76758969 -1.67328060 -0.56192774 4 2 13343 2.49800000 1298141048 1298141048 -13.00000000
3.40708160 -3.22529769 0.24587432 24 3 13343 4.69800000 1298141051 1298141051 3.00000000
2.09407234 -1.98303699 -0.56059682 3 4 13344 2.93800000 1298141053 1298141053 -11.00000000
3.90823889 -3.70230365 0.47098964 27 5 13345 5.40400000 1298141055 1298141055 5.00000000
2.57660437 -2.44168973 -0.56222546 5 6 13346 3.59400000 1298141057 1298141057 -9.00000000
5.60412979 -5.31254673 0.94814348 52 7 13347 7.78000000 1298141060 1298141060 7.00000000
3.33455372 -3.16216183 -0.56425506 4 8 13348 4.63000000 1298141062 1298141062 -7.00000000
4.15818357 -3.94321132 0.90763277 49 9 13348 5.80200000 1298141064 1298141064 9.00000000
4.10223675 -3.89151692 -0.49469599 17 10 13349 5.67600000 1298141067 1298141067 -5.00000000
5.58102608 -5.29619598 1.49556088 53 11 13350 7.83800000 1298141069 1298141069 11.00000000
4.06020308 -3.85433602 -0.29339537 2 12 13351 5.60600000 1298141071 1298141071 -3.00000000
3.90015006 -3.70369244 1.24172986 6 13 13352 5.52000000 1298141074 1298141074 13.00000000
3.68540907 -3.50099182 -0.08872803 28 14 13353 5.08400000 1298141076 1298141076 -1.00000000
5.55533504 -5.27919197 2.05347037 47 15 13354 7.93400000 1298141078 1298141078 15.00000000
1.52464843 -1.45241058 -0.56422549 4 0 13361 2.18000000 1298141099 1298141099 -15.00000000
3.96653819 -3.77992439 0.09563918 82 1 13362 5.48000000 1298141101 1298141101 1.00000000
1.77584326 -1.69288671 -0.56642675 4 2 13363 2.51800000 1298141104 1298141104 -13.00000000
3.40390968 -3.24603391 0.24650235 22 3 13364 4.71000000 1298141106 1298141106 3.00000000
2.08997917 -1.99304438 -0.56136006 3 4 13364 2.94200000 1298141108 1298141108 -11.00000000
3.90105820 -3.72142458 0.47168687 27 5 13365 5.41200000 1298141110 1298141110 5.00000000
2.58235645 -2.46430635 -0.56535417 5 6 13366 3.61400000 1298141113 1298141113 -9.00000000
3.32062411 -3.17104053 -0.56376761 4 8 13368 4.62600000 1298141117 1298141117 -7.00000000
4.12725067 -3.94133091 0.90387833 61 9 13368 5.77800000 1298141120 1298141120 9.00000000
4.06701803 -3.88516879 -0.49208131 14 10 13369 5.64600000 1298141122 1298141122 -5.00000000
5.54831123 -5.30208111 1.49174476 53 11 13370 7.81800000 1298141124 1298141124 11.00000000
4.04961157 -3.87124538 -0.29360470 2 12 13371 5.61000000 1298141127 1298141127 -3.00000000
3.83508682 -3.66745067 1.22508347 10 13 13372 5.44600000 1298141129 1298141129 13.00000000
3.67894578 -3.51936412 -0.08886766 28 14 13373 5.09200000 1298141131 1298141131 -1.00000000
5.51685858 -5.27755404 2.04570580 45 15 13373 7.90400000 1298141134 1298141134 15.00000000
1.51399291 -1.45237434 -0.56215495 4 0 13381 2.17200000 1298141154 1298141154 -15.00000000
3.92734885 -3.76882458 0.09501090 70 1 13382 5.44400000 1298141157 1298141157 1.00000000
1.76711154 -1.69637609 -0.56552696 4 2 13383 2.51400000 1298141159 1298141159 -13.00000000
3.41128564 -3.27588010 0.24786308 24 3 13384 4.73600000 1298141161 1298141161 3.00000000
2.07451320 -1.99216855 -0.55907035 3 4 13384 2.93000000 1298141163 1298141163 -11.00000000
3.88660741 -3.73363876 0.47151256 27 5 13385 5.41000000 1298141166 1298141166 5.00000000
2.55949545 -2.45961809 -0.56222546 5 6 13386 3.59400000 1298141168 1298141168 -9.00000000
3.32241249 -3.19499588 -0.56596124 6 8 13388 4.64400000 1298141173 1298141173 -7.00000000
4.13128424 -3.97423482 0.90794563 35 9 13389 5.80400000 1298141175 1298141175 9.00000000
4.03620100 -3.88276649 -0.48998958 14 10 13389 5.62200000 1298141177 1298141177 -5.00000000
5.50147724 -5.29418945 1.48411238 56 11 13390 7.77800000 1298141180 1298141180 11.00000000
4.05477953 -3.90336466 -0.29496545 5 12 13391 5.63600000 1298141182 1298141182 -3.00000000
5.47581482 -5.27317667 1.75506818 18 13 13392 7.80200000 1298141184 1298141184 13.00000000
3.67960000 -3.54467082 -0.08918180 26 14 13393 5.11000000 1298141187 1298141187 -1.00000000
5.47243929 -5.27360916 2.03638816 45 15 13394 7.86800000 1298141189 1298141189 15.00000000
1.50613511 -1.45496583 -0.56111968 4 0 13401 2.16800000 1298141210 1298141210 -15.00000000
3.89403772 -3.76305628 0.09452223 52 1 13402 5.41600000 1298141212 1298141212 1.00000000
1.75417387 -1.69576192 -0.56327742 3 2 13403 2.50400000 1298141214 1298141214 -13.00000000
3.41418743 -3.30165172 0.24890980 20 3 13404 4.75600000 1298141216 1298141216 3.00000000
2.08165956 -2.01304555 -0.56288654 3 4 13404 2.95000000 1298141219 1298141219 -11.00000000
3.89216685 -3.76519156 0.47377861 27 5 13405 5.43600000 1298141221 1298141221 5.00000000
2.53669882 -2.45480061 -0.55909675 5 6 13406 3.57400000 1298141223 1298141223 -9.00000000
4.12049437 -3.98885536 0.70416105 60 7 13407 5.77800000 1298141226 1298141226 7.00000000
3.30838752 -3.20381188 -0.56547374 4 8 13408 4.64000000 1298141228 1298141228 -7.00000000
5.47327471 -5.30026865 1.20673549 55 9 13408 7.71400000 1298141230 1298141230 9.00000000
4.00688171 -3.88158274 -0.48807216 17 10 13409 5.60000000 1298141233 1298141233 -5.00000000
5.44912672 -5.28057098 1.47495353 56 11 13410 7.73000000 1298141235 1298141235 11.00000000
3.93931246 -3.81879282 -0.28753373 8 12 13411 5.49400000 1298141237 1298141237 -3.00000000
5.43499088 -5.27055264 1.74786973 45 13 13412 7.77000000 1298141240 1298141240 13.00000000
3.67868662 -3.56863236 -0.08946104 14 14 13413 5.12600000 1298141242 1298141242 -1.00000000
5.43273544 -5.27020550 2.02810597 47 15 13413 7.83600000 1298141244 1298141244 15.00000000
1.51074028 -1.46964383 -0.56474316 4 0 13421 2.18200000 1298141265 1298141265 -15.00000000
1.73986566 -1.69371891 -0.56057805 3 2 13423 2.49200000 1298141269 1298141269 -13.00000000
3.40693426 -3.31772971 0.24922383 22 3 13424 4.76200000 1298141272 1298141272 3.00000000
2.07180691 -2.01756024 -0.56212330 3 4 13424 2.94600000 1298141274 1298141274 -11.00000000
3.89755321 -3.79682827 0.47604465 27 5 13425 5.46200000 1298141276 1298141276 5.00000000
2.52811456 -2.46364021 -0.55909675 5 6 13426 3.57400000 1298141279 1298141279 -9.00000000
4.08238125 -3.97965789 0.70001751 67 7 13427 5.74400000 1298141281 1298141281 7.00000000
3.29292035 -3.21118307 -0.56474257 4 8 13428 4.63400000 1298141283 1298141283 -7.00000000
5.43967152 -5.30649996 1.20360672 55 9 13429 7.69400000 1298141286 1298141286 9.00000000
3.99758673 -3.89971948 -0.48859510 14 10 13429 5.60600000 1298141288 1298141288 -5.00000000
5.41379976 -5.28310585 1.47037411 56 11 13430 7.70600000 1298141290 1298141290 11.00000000
3.94167924 -3.84786701 -0.28868514 2 12 13431 5.51600000 1298141292 1298141292 -3.00000000
5.40401220 -5.27723837 1.74382055 64 13 13432 7.75200000 1298141295 1298141295 13.00000000
3.68051171 -3.59542537 -0.08981008 8 14 13433 5.14600000 1298141297 1298141297 -1.00000000
5.40371084 -5.28063059 2.02448249 47 15 13434 7.82200000 1298141299 1298141299 15.00000000
1.50120425 -1.47111475 -0.56319022 4 0 13442 2.17600000 1298141320 1298141320 -15.00000000
3.67851496 -3.60604310 0.08991480 11 1 13443 5.15200000 1298141322 1298141322 1.00000000
1.73921168 -1.70554221 -0.56237763 4 2 13444 2.50000000 1298141325 1298141325 -13.00000000
3.39332557 -3.32879591 0.24911915 22 3 13445 4.76000000 1298141327 1298141327 3.00000000
2.05318642 -2.01414156 -0.55907035 3 4 13445 2.93000000 1298141329 1298141329 -11.00000000
3.89640927 -3.82364750 0.47761348 27 5 13446 5.48000000 1298141332 1298141332 5.00000000
2.53034520 -2.48396039 -0.56159973 5 6 13447 3.59000000 1298141334 1298141334 -9.00000000
4.07343292 -4.00015736 0.70099247 55 7 13448 5.75200000 1298141336 1298141336 7.00000000
3.25422263 -3.19679928 -0.56011152 4 8 13449 4.59600000 1298141339 1298141339 -7.00000000
5.39293146 -5.29776907 1.19734943 55 9 13449 7.65400000 1298141341 1298141341 9.00000000
3.95768738 -3.88920856 -0.48545748 10 10 13450 5.57000000 1298141343 1298141343 -5.00000000
5.37759924 -5.28639746 1.46579468 53 11 13451 7.68200000 1298141345 1298141345 11.00000000
3.83498597 -3.77126265 -0.28188145 2 12 13452 5.38600000 1298141348 1298141348 -3.00000000
5.35962772 -5.27241087 1.73572230 64 13 13453 7.71600000 1298141350 1298141350 13.00000000
3.68013692 -3.62151432 -0.09012423 8 14 13454 5.16400000 1298141352 1298141352 -1.00000000
5.36321402 -5.27778101 2.01620030 47 15 13454 7.79000000 1298141355 1298141355 15.00000000
1.49055970 -1.47091818 -0.56111968 4 0 13462 2.16800000 1298141375 1298141375 -15.00000000
3.87794709 -3.82818222 0.09511562 22 1 13463 5.45000000 1298141378 1298141378 1.00000000
1.73463428 -1.71297204 -0.56282753 4 2 13464 2.50200000 1298141380 1298141380 -13.00000000
3.40299821 -3.36167479 0.25068924 22 3 13465 4.79000000 1298141382 1298141382 3.00000000
2.03776312 -2.01301789 -0.55678064 3 4 13465 2.91800000 1298141385 1298141385 -11.00000000
3.89579320 -3.84982920 0.47918227 27 5 13466 5.49800000 1298141387 1298141387 5.00000000
2.51603985 -2.48722291 -0.56034827 5 6 13467 3.58200000 1298141389 1298141389 -9.00000000
5.36930752 -5.30966425 0.92718196 50 7 13468 7.60800000 1298141392 1298141392 7.00000000
3.25715637 -3.22209978 -0.56254888 4 8 13469 4.61600000 1298141394 1298141394 -7.00000000
5.34680033 -5.29110003 1.19140494 50 9 13470 7.61600000 1298141396 1298141396 9.00000000
3.92709303 -3.88618255 -0.48336574 10 10 13470 5.54600000 1298141398 1298141398 -5.00000000
5.34795141 -5.29408693 1.46274173 53 11 13471 7.66600000 1298141401 1298141401 11.00000000
3.84166670 -3.80430126 -0.28334686 2 12 13472 5.41400000 1298141403 1298141403 -3.00000000
5.32734632 -5.27737236 1.73122334 64 13 13473 7.69600000 1298141405 1298141405 13.00000000
3.67457509 -3.64137602 -0.09029875 16 14 13474 5.17400000 1298141408 1298141408 -1.00000000
5.31776667 -5.27156162 2.00636530 47 15 13475 7.75200000 1298141410 1298141410 15.00000000
1.48404586 -1.47475052 -0.56060207 4 0 13482 2.16600000 1298141431 1298141431 -15.00000000
3.89150620 -3.86848164 0.09577881 25 1 13483 5.48800000 1298141433 1298141433 1.00000000
1.73002613 -1.72039068 -0.56327742 3 2 13484 2.50400000 1298141435 1298141435 -13.00000000
3.40965080 -3.39184451 0.25204995 26 3 13485 4.81600000 1298141438 1298141438 3.00000000
2.03907514 -2.02842641 -0.55907035 3 4 13485 2.93000000 1298141440 1298141440 -11.00000000
3.89504147 -3.87605309 0.48075107 30 5 13486 5.51600000 1298141442 1298141442 5.00000000
2.50454259 -2.49320292 -0.55972254 5 6 13487 3.57800000 1298141445 1298141445 -9.00000000
5.33104801 -5.30876398 0.92376959 52 7 13488 7.58000000 1298141447 1298141447 7.00000000
3.25151467 -3.23905373 -0.56352383 4 8 13489 4.62400000 1298141449 1298141449 -7.00000000
5.31522989 -5.29486036 1.18827617 52 9 13489 7.59600000 1298141451 1298141451 9.00000000
3.89092326 -3.87736487 -0.48057675 6 10 13490 5.51400000 1298141454 1298141454 -5.00000000
5.30997324 -5.29331779 1.45739913 53 11 13491 7.63800000 1298141456 1298141456 11.00000000
3.89200497 -3.88115144 -0.28805709 5 12 13492 5.50400000 1298141458 1298141458 -3.00000000
5.29233694 -5.27942085 1.72582448 62 13 13493 7.67200000 1298141461 1298141461 13.00000000
3.67458129 -3.66689324 -0.09061290 18 14 13494 5.19200000 1298141463 1298141463 -1.00000000
5.27974415 -5.26869822 1.99860072 47 15 13494 7.72200000 1298141465 1298141465 15.00000000
1.48025453 -1.48128831 -0.56111968 4 0 13502 2.16800000 1298141486 1298141486 -15.00000000
3.88080549 -3.88487148 0.09584861 20 1 13503 5.49200000 1298141488 1298141488 1.00000000
1.72125626 -1.72366130 -0.56237763 3 2 13504 2.50000000 1298141491 1298141491 -13.00000000
3.41190076 -3.41786075 0.25309667 24 3 13505 4.83600000 1298141493 1298141493 3.00000000
2.03198218 -2.03553176 -0.55907035 3 4 13505 2.93000000 1298141495 1298141495 -11.00000000
3.89133930 -3.89949775 0.48197126 24 5 13506 5.53000000 1298141498 1298141498 5.00000000
2.48466372 -2.49074221 -0.55721956 5 6 13507 3.56200000 1298141500 1298141500 -9.00000000
5.29005718 -5.30485058 0.91986978 55 7 13508 7.54800000 1298141502 1298141502 7.00000000
3.23878694 -3.24897790 -0.56328011 4 8 13509 4.62200000 1298141504 1298141504 -7.00000000
5.28044987 -5.29891443 1.18483460 55 9 13510 7.57400000 1298141507 1298141507 9.00000000
3.87173939 -3.88527799 -0.47987953 6 10 13510 5.50600000 1298141509 1298141509 -5.00000000
5.26652384 -5.28678465 1.45052993 59 11 13511 7.60200000 1298141511 1298141511 11.00000000
3.86011243 -3.87631559 -0.28669637 11 12 13512 5.47800000 1298141514 1298141514 -3.00000000
5.26562691 -5.28957605 1.72312510 62 13 13513 7.66000000 1298141516 1298141516 13.00000000
3.67304325 -3.69103718 -0.09089214 29 14 13514 5.20800000 1298141518 1298141518 -1.00000000
5.24268627 -5.27020931 1.99187136 45 15 13515 7.69600000 1298141521 1298141521 15.00000000
1.47150993 -1.48181903 -0.55956680 4 0 13520 2.16200000 1298141541 1298141541 -15.00000000
3.89112258 -3.91975093 0.09640709 20 1 13521 5.52400000 1298141544 1298141544 1.00000000
1.71308744 -1.72629380 -0.56147784 3 2 13522 2.49600000 1298141546 1298141546 -13.00000000
3.40114641 -3.42856264 0.25309667 22 3 13523 4.83600000 1298141548 1298141548 3.00000000
2.02281189 -2.03911757 -0.55830711 3 4 13523 2.92600000 1298141551 1298141551 -11.00000000
3.90432191 -3.93716860 0.48510885 25 5 13524 5.56600000 1298141553 1298141553 5.00000000
2.49351478 -2.51537037 -0.56097400 5 6 13525 3.58600000 1298141555 1298141555 -9.00000000
5.24821424 -5.29606295 0.91548252 55 7 13526 7.51200000 1298141557 1298141557 7.00000000
3.22577000 -3.25631642 -0.56279260 4 8 13527 4.61800000 1298141560 1298141560 -7.00000000
5.25358295 -5.30333138 1.18233168 55 9 13527 7.55800000 1298141562 1298141562 9.00000000
3.86231828 -3.90025353 -0.48022816 3 10 13528 5.51000000 1298141564 1298141564 -5.00000000
5.23193359 -5.28516579 1.44556892 59 11 13529 7.57600000 1298141567 1298141567 11.00000000
3.82403278 -3.86428928 -0.28491694 5 12 13530 5.44400000 1298141569 1298141569 -3.00000000
5.22431421 -5.28115511 1.71502686 68 13 13531 7.62400000 1298141571 1298141571 13.00000000
3.69095707 -3.73241758 -0.09162513 19 14 13532 5.25000000 1298141574 1298141574 -1.00000000
5.21344233 -5.27200508 1.98669493 45 15 13532 7.67600000 1298141576 1298141576 15.00000000
1.47446716 -1.49519968 -0.56267262 4 0 13540 2.17400000 1298141597 1298141597 -15.00000000
1.71525812 -1.74059117 -0.56417722 3 2 13542 2.50800000 1298141601 1298141601 -13.00000000
3.37233806 -3.42334008 0.25184062 8 3 13543 4.81200000 1298141604 1298141604 3.00000000
2.01568174 -2.04616618 -0.55830711 3 4 13543 2.92600000 1298141606 1298141606 -11.00000000
2.48471928 -2.52405906 -0.56097400 5 6 13545 3.58600000 1298141610 1298141610 -9.00000000
5.21298742 -5.29737186 0.91255766 52 7 13546 7.48800000 1298141613 1298141613 7.00000000
3.19489408 -3.24774456 -0.55938029 4 8 13547 4.59000000 1298141615 1298141615 -7.00000000
5.20594740 -5.29206514 1.17576146 60 9 13547 7.51600000 1298141617 1298141617 9.00000000
3.88500190 -3.95064712 -0.48476025 3 10 13548 5.56200000 1298141620 1298141620 -5.00000000
5.19418478 -5.28379583 1.44022632 59 11 13549 7.54800000 1298141622 1298141622 11.00000000
3.80492115 -3.87191582 -0.28449824 5 12 13550 5.43600000 1298141624 1298141624 -3.00000000
5.18126631 -5.27433586 1.70692861 70 13 13551 7.58800000 1298141627 1298141627 13.00000000
3.01938581 -3.07469535 -0.07521987 5 14 13552 4.31000000 1298141629 1298141629 -1.00000000
5.17741156 -5.27225256 1.97996569 47 15 13552 7.65000000 1298141631 1298141631 15.00000000
1.46736395 -1.49946952 -0.56215495 4 0 13562 2.17200000 1298141652 1298141652 -15.00000000
3.00508690 -3.07190967 0.07501044 7 1 13563 4.29800000 1298141654 1298141654 1.00000000
1.70583701 -1.74437797 -0.56327742 3 2 13564 2.50400000 1298141657 1298141657 -13.00000000
3.00593925 -3.07492733 0.22535862 7 3 13565 4.30600000 1298141659 1298141659 3.00000000
2.01192737 -2.05810237 -0.55945200 3 4 13565 2.93200000 1298141661 1298141661 -11.00000000
3.00503731 -3.07507825 0.37616420 7 5 13566 4.31600000 1298141663 1298141663 5.00000000
2.47777009 -2.53640699 -0.56159973 5 6 13567 3.59000000 1298141666 1298141666 -9.00000000
3.19488025 -3.27277231 -0.56157392 4 8 13569 4.60800000 1298141670 1298141670 -7.00000000
5.16396713 -5.29171371 1.17106843 55 9 13570 7.48600000 1298141673 1298141673 9.00000000
3.87258673 -3.96838713 -0.48510885 3 10 13570 5.56600000 1298141675 1298141675 -5.00000000
5.15877819 -5.28824234 1.43602848 59 11 13571 7.52600000 1298141677 1298141677 11.00000000
3.80954790 -3.90651584 -0.28596365 2 12 13572 5.46400000 1298141680 1298141680 -3.00000000
5.14193201 -5.27465582 1.70062995 68 13 13573 7.56000000 1298141682 1298141682 13.00000000
3.00197506 -3.08053780 -0.07508025 7 14 13574 4.30200000 1298141684 1298141684 -1.00000000
5.13555717 -5.26995659 1.97168350 47 15 13574 7.61800000 1298141686 1298141686 15.00000000
1.44865751 -1.49072802 -0.55697858 4 0 13582 2.15200000 1298141707 1298141707 -15.00000000
2.99295235 -3.08094645 0.07497554 7 1 13583 4.29600000 1298141710 1298141710 1.00000000
1.69973767 -1.75032175 -0.56327742 3 2 13584 2.50400000 1298141712 1298141712 -13.00000000
3.00214338 -3.09256673 0.22588199 7 3 13585 4.31600000 1298141714 1298141714 3.00000000
1.99926114 -2.05947804 -0.55792552 3 4 13585 2.92400000 1298141716 1298141716 -11.00000000
2.99012256 -3.08125973 0.37564126 7 5 13586 4.31000000 1298141719 1298141719 5.00000000
2.46064878 -2.53653359 -0.55972254 5 6 13587 3.57800000 1298141721 1298141721 -9.00000000
3.01817584 -3.11234117 0.53232527 5 7 13588 4.36800000 1298141723 1298141723 7.00000000
3.19310856 -3.29388189 -0.56328011 4 8 13589 4.62200000 1298141726 1298141726 -7.00000000
5.13171721 -5.29552174 1.16793966 55 9 13590 7.46600000 1298141728 1298141728 9.00000000
3.86980319 -3.99332714 -0.48650336 3 10 13590 5.58200000 1298141730 1298141730 -5.00000000
5.12116289 -5.28647614 1.43068588 59 11 13591 7.49800000 1298141733 1298141733 11.00000000
3.83062387 -3.95565915 -0.28858048 2 12 13592 5.51400000 1298141735 1298141735 -3.00000000
5.10993433 -5.27857065 1.69613099 72 13 13593 7.54000000 1298141737 1298141737 13.00000000
2.99676609 -3.09674573 -0.07521987 5 14 13594 4.31000000 1298141739 1298141739 -1.00000000
5.08934355 -5.26097393 1.96133077 47 15 13595 7.57800000 1298141742 1298141742 15.00000000
1.45041490 -1.50247324 -0.55956680 4 0 13601 2.16200000 1298141763 1298141763 -15.00000000
5.12811089 -5.31402493 0.12890348 6 1 13602 7.38600000 1298141765 1298141765 1.00000000
1.68580616 -1.74753368 -0.56057805 3 2 13603 2.49200000 1298141767 1298141767 -13.00000000
3.38006616 -3.50505447 0.25519013 20 3 13604 4.87600000 1298141769 1298141769 3.00000000
1.99514627 -2.06892300 -0.55868876 3 4 13604 2.92800000 1298141772 1298141772 -11.00000000
5.12872648 -5.32023478 0.64652127 3 5 13605 7.41800000 1298141774 1298141774 5.00000000
2.43577504 -2.52761054 -0.55596811 5 6 13606 3.55400000 1298141776 1298141776 -9.00000000
2.99268913 -3.10660672 0.52964419 7 7 13607 4.34600000 1298141779 1298141779 7.00000000
3.18216801 -3.30445242 -0.56328011 4 8 13608 4.62200000 1298141781 1298141781 -7.00000000
5.10042906 -5.29827881 1.16481102 55 9 13609 7.44600000 1298141783 1298141783 9.00000000
3.88141155 -4.03197479 -0.48964095 3 10 13609 5.61800000 1298141786 1298141786 -5.00000000
5.08182335 -5.28079557 1.42457998 53 11 13610 7.46600000 1298141788 1298141788 11.00000000
3.80363870 -3.95394635 -0.28753373 2 12 13611 5.49400000 1298141790 1298141790 -3.00000000
5.07619286 -5.27863121 1.69073212 68 13 13612 7.51600000 1298141792 1298141792 13.00000000
3.68494272 -3.83323717 -0.09281190 25 14 13613 5.31800000 1298141795 1298141795 -1.00000000
5.05806351 -5.26161718 1.95563674 47 15 13613 7.55600000 1298141797 1298141797 15.00000000
1.44649827 -1.50892150 -0.56008440 3 0 13621 2.16400000 1298141818 1298141818 -15.00000000
5.09431076 -5.31601143 0.12851952 9 1 13622 7.36400000 1298141820 1298141820 1.00000000
1.67969584 -1.75340748 -0.56057805 3 2 13623 2.49200000 1298141822 1298141822 -13.00000000
3.41063333 -3.56154943 0.25843495 22 3 13624 4.93800000 1298141825 1298141825 3.00000000
1.97569144 -2.06311321 -0.55525416 3 4 13624 2.91000000 1298141827 1298141827 -11.00000000
2.43513179 -2.54466081 -0.55784529 3 6 13626 3.56600000 1298141832 1298141832 -9.00000000
2.99280453 -3.12850976 0.53159410 7 7 13627 4.36200000 1298141834 1298141834 7.00000000
3.14317465 -3.28684664 -0.55840534 4 8 13628 4.58200000 1298141836 1298141836 -7.00000000
5.06688833 -5.30034351 1.16136944 52 9 13629 7.42400000 1298141839 1298141839 9.00000000
4.40700293 -4.61005402 -0.55797106 19 10 13629 6.40200000 1298141841 1298141841 -5.00000000
5.04979515 -5.28430843 1.42076373 53 11 13630 7.44600000 1298141843 1298141843 11.00000000
3.79809141 -3.97586465 -0.28816178 2 12 13631 5.50600000 1298141845 1298141845 -3.00000000
5.03620195 -5.27376890 1.68353367 62 13 13632 7.48400000 1298141848 1298141848 13.00000000
3.68534780 -3.86054111 -0.09316094 29 14 13633 5.33800000 1298141850 1298141850 -1.00000000
5.02499294 -5.26386976 1.94994271 47 15 13633 7.53400000 1298141852 1298141852 15.00000000
1.45214450 -1.52490199 -0.56422549 4 0 13640 2.18000000 1298141873 1298141873 -15.00000000
5.05735111 -5.31259823 0.12803085 12 1 13641 7.33600000 1298141875 1298141875 1.00000000
1.66581178 -1.75049782 -0.55787861 3 2 13642 2.48000000 1298141878 1298141878 -13.00000000
3.41181922 -3.58526826 0.25937700 22 3 13642 4.95600000 1298141880 1298141880 3.00000000
1.97425163 -2.07534337 -0.55678064 3 4 13643 2.91800000 1298141882 1298141882 -11.00000000
2.42940187 -2.55558538 -0.55847102 5 6 13645 3.57000000 1298141887 1298141887 -9.00000000
3.14182830 -3.30732632 -0.56011152 4 8 13647 4.59600000 1298141891 1298141891 -7.00000000
5.03116465 -5.29618502 1.15698934 52 9 13647 7.39600000 1298141894 1298141894 9.00000000
4.38894701 -4.62175322 -0.55762243 19 10 13648 6.39800000 1298141896 1298141896 -5.00000000
5.01872730 -5.28678656 1.41694760 56 11 13649 7.42600000 1298141898 1298141898 11.00000000
3.83712935 -4.04349089 -0.29213932 2 12 13650 5.58200000 1298141901 1298141901 -3.00000000
5.00527430 -5.27630234 1.67903471 62 13 13651 7.46400000 1298141903 1298141903 13.00000000
3.67527747 -3.87564278 -0.09323075 31 14 13652 5.34200000 1298141905 1298141905 -1.00000000
4.99155807 -5.26368284 1.94373107 47 15 13652 7.51000000 1298141908 1298141908 15.00000000
1.43486655 -1.51732886 -0.55956680 4 0 13660 2.16200000 1298141928 1298141928 -15.00000000
5.02503872 -5.31568766 0.12768181 12 1 13661 7.31600000 1298141931 1298141931 1.00000000
3.40551329 -3.60500860 0.25990036 20 3 13663 4.96600000 1298141935 1298141935 3.00000000
1.96564710 -2.08079481 -0.55639905 3 4 13663 2.91600000 1298141938 1298141938 -11.00000000
2.42589045 -2.56979561 -0.55972254 3 6 13665 3.57800000 1298141942 1298141942 -9.00000000
5.00281000 -5.30143261 0.89500844 62 7 13666 7.34400000 1298141944 1298141944 7.00000000
3.13707519 -3.32549310 -0.56133020 4 8 13667 4.60600000 1298141947 1298141947 -7.00000000
4.98054886 -5.28153467 1.14979327 57 9 13668 7.35000000 1298141949 1298141949 9.00000000
4.36185217 -4.62544918 -0.55622792 15 10 13668 6.38200000 1298141951 1298141951 -5.00000000
4.98408222 -5.28713036 1.41236818 56 11 13669 7.40200000 1298141954 1298141954 11.00000000
4.99824286 -5.30400658 -0.38194782 11 12 13670 7.29800000 1298141956 1298141956 -3.00000000
4.97079134 -5.27672052 1.67363584 66 13 13671 7.44000000 1298141958 1298141958 13.00000000
3.66721034 -3.89427161 -0.09337038 31 14 13672 5.35000000 1298141961 1298141961 -1.00000000
4.95501804 -5.26365614 1.93700171 47 15 13673 7.48400000 1298141963 1298141963 15.00000000
1.42956138 -1.52232826 -0.55956680 5 0 13680 2.16200000 1298141984 1298141984 -15.00000000
4.98181772 -5.30695295 0.12705351 12 1 13681 7.28000000 1298141986 1298141986 1.00000000
1.41751945 -1.51056123 -0.47824594 3 2 13682 2.12600000 1298141988 1298141988 -13.00000000
3.40720701 -3.63084602 0.26094708 20 3 13682 4.98600000 1298141991 1298141991 3.00000000
1.95568550 -2.08477998 -0.55563581 3 4 13683 2.91200000 1298141993 1298141993 -11.00000000
2.41420341 -2.57536554 -0.55909675 3 6 13685 3.57400000 1298141997 1298141997 -9.00000000
4.96255589 -5.29568768 0.89110863 55 7 13686 7.31200000 1298142000 1298142000 7.00000000
3.12137651 -3.33207703 -0.56059897 4 8 13687 4.60000000 1298142002 1298142002 -7.00000000
4.95398092 -5.29023695 1.14791608 57 9 13688 7.33800000 1298142004 1298142004 9.00000000
4.32933760 -4.62319517 -0.55413622 19 10 13688 6.35800000 1298142007 1298142007 -5.00000000
4.94681263 -5.28443003 1.40702558 59 11 13689 7.37400000 1298142009 1298142009 11.00000000
4.97423935 -5.31558800 -0.38152912 11 12 13690 7.29000000 1298142011 1298142011 -3.00000000
4.94169140 -5.28265429 1.67003667 68 13 13691 7.42400000 1298142014 1298142014 13.00000000
3.66861844 -3.92311525 -0.09375433 31 14 13692 5.37200000 1298142016 1298142016 -1.00000000
4.91906261 -5.26030445 1.92975485 47 15 13692 7.45600000 1298142018 1298142018 15.00000000
1.43082631 -1.53437340 -0.56215495 6 0 13700 2.17200000 1298142039 1298142039 -15.00000000
4.94417334 -5.30383205 0.12656485 9 1 13701 7.25200000 1298142041 1298142041 1.00000000
1.40293825 -1.50552034 -0.47509661 4 2 13702 2.11200000 1298142043 1298142043 -13.00000000
3.41765976 -3.66755724 0.26272649 21 3 13702 5.02000000 1298142046 1298142046 3.00000000
1.95910180 -2.10308599 -0.55868876 3 4 13703 2.92800000 1298142048 1298142048 -11.00000000
2.39712334 -2.57510185 -0.55721956 5 6 13705 3.56200000 1298142053 1298142053 -9.00000000
4.92646027 -5.29408598 0.88794005 60 7 13706 7.28600000 1298142055 1298142055 7.00000000
3.11378264 -3.34731269 -0.56133020 4 8 13707 4.60600000 1298142057 1298142057 -7.00000000
4.91665173 -5.28724527 1.14353597 57 9 13708 7.31000000 1298142060 1298142060 9.00000000
4.31045961 -4.63536119 -0.55378759 19 10 13708 6.35400000 1298142062 1298142062 -5.00000000
4.90828609 -5.28009653 1.40130126 59 11 13709 7.34400000 1298142064 1298142064 11.00000000
4.93254137 -5.30804682 -0.37974969 11 12 13710 7.25600000 1298142067 1298142067 -3.00000000
4.90465355 -5.27988338 1.66373801 66 13 13711 7.39600000 1298142069 1298142069 13.00000000
3.67123055 -3.95348120 -0.09417319 27 14 13712 5.39600000 1298142071 1298142071 -1.00000000
4.88621092 -5.26187134 1.92406082 47 15 13712 7.43400000 1298142073 1298142073 15.00000000
1.42047906 -1.53344083 -0.56008440 4 0 13719 2.16400000 1298142094 1298142094 -15.00000000
4.91025400 -5.30259180 0.12614599 12 1 13720 7.22800000 1298142096 1298142096 1.00000000
1.40190947 -1.51445460 -0.47644633 4 2 13721 2.11800000 1298142099 1298142099 -13.00000000
3.40619326 -3.68093061 0.26283118 21 3 13722 5.02200000 1298142101 1298142101 3.00000000
1.94678330 -2.10380721 -0.55716228 3 4 13722 2.92000000 1298142103 1298142103 -11.00000000
3.78013110 -4.08646011 0.48702630 2 5 13723 5.58800000 1298142106 1298142106 5.00000000
2.39125323 -2.58593750 -0.55784529 5 6 13724 3.56600000 1298142108 1298142108 -9.00000000
4.88866520 -5.28852844 0.88428396 52 7 13725 7.25600000 1298142110 1298142110 7.00000000
3.09054041 -3.34449863 -0.55913657 6 8 13726 4.58800000 1298142113 1298142113 -7.00000000
4.89331388 -5.29541111 1.14197159 60 9 13726 7.30000000 1298142115 1298142115 9.00000000
4.28965664 -4.64377546 -0.55309033 19 10 13727 6.34600000 1298142117 1298142117 -5.00000000
4.87343502 -5.27759314 1.39634025 59 11 13728 7.31800000 1298142120 1298142120 11.00000000
4.90813875 -5.31703663 -0.37922633 11 12 13729 7.24600000 1298142122 1298142122 -3.00000000
4.86332941 -5.27033997 1.65563977 72 13 13730 7.36000000 1298142124 1298142124 13.00000000
4.85471773 -5.26469326 1.91888440 49 15 13732 7.41400000 1298142129 1298142129 15.00000000
1.42165697 -1.54549897 -0.56267262 4 0 13739 2.17400000 1298142149 1298142149 -15.00000000
4.88359308 -5.31086779 0.12593657 9 1 13740 7.21600000 1298142152 1298142152 1.00000000
1.39265811 -1.51503491 -0.47509661 4 2 13741 2.11200000 1298142154 1298142154 -13.00000000
3.41153955 -3.71132112 0.26419190 21 3 13741 5.04800000 1298142156 1298142156 3.00000000
1.93278587 -2.10336208 -0.55525416 3 4 13742 2.91000000 1298142159 1298142159 -11.00000000
3.74966979 -4.08202314 0.48493454 2 5 13743 5.56400000 1298142161 1298142161 5.00000000
2.37953997 -2.59135890 -0.55721956 5 6 13744 3.56200000 1298142163 1298142163 -9.00000000
4.85406637 -5.28801203 0.88135910 52 7 13745 7.23200000 1298142166 1298142166 7.00000000
3.08421564 -3.36111665 -0.56011152 6 8 13746 4.59600000 1298142168 1298142168 -7.00000000
4.84850168 -5.28565216 1.13602710 52 9 13747 7.26200000 1298142170 1298142170 9.00000000
4.27072716 -4.65578461 -0.55274171 19 10 13747 6.34200000 1298142173 1298142173 -5.00000000
4.84304142 -5.28154945 1.39290571 59 11 13748 7.30000000 1298142175 1298142175 11.00000000
4.87875223 -5.32235861 -0.37838897 11 12 13749 7.23000000 1298142177 1298142177 -3.00000000
4.82383823 -5.26429558 1.64844131 70 13 13750 7.32800000 1298142179 1298142179 13.00000000
3.12420917 -3.41067076 -0.08073483 5 14 13751 4.62600000 1298142182 1298142182 -1.00000000
4.82065535 -5.26451015 1.91267276 47 15 13752 7.39000000 1298142184 1298142184 15.00000000
1.41234481 -1.54617298 -0.56111968 9 0 13759 2.16800000 1298142205 1298142205 -15.00000000
4.85154104 -5.31311512 0.12558752 12 1 13760 7.19600000 1298142207 1298142207 1.00000000
1.39261627 -1.52564406 -0.47689623 4 2 13761 2.12000000 1298142209 1298142209 -13.00000000
3.41741467 -3.74385881 0.26565731 23 3 13761 5.07600000 1298142212 1298142212 3.00000000
1.92807865 -2.11299634 -0.55601740 3 4 13762 2.91400000 1298142214 1298142214 -11.00000000
3.72868443 -4.08772707 0.48406300 2 5 13763 5.55400000 1298142216 1298142216 5.00000000
2.37314177 -2.60256839 -0.55784529 5 6 13764 3.56600000 1298142219 1298142219 -9.00000000
4.82755470 -5.29612112 0.87989664 52 7 13765 7.22000000 1298142221 1298142221 7.00000000
3.06310511 -3.36159110 -0.55840534 6 8 13766 4.58200000 1298142223 1298142223 -7.00000000
4.80965948 -5.27833939 1.13102114 52 9 13766 7.23000000 1298142226 1298142226 9.00000000
4.24505758 -4.66035318 -0.55152154 19 10 13767 6.32800000 1298142228 1298142228 -5.00000000
4.81664467 -5.28971291 1.39061594 56 11 13768 7.28800000 1298142230 1298142230 11.00000000
4.84132195 -5.31867790 -0.37692356 11 12 13769 7.20200000 1298142232 1298142232 -3.00000000
4.79231787 -5.26668835 1.64394236 68 13 13770 7.30800000 1298142235 1298142235 13.00000000
3.13381362 -3.44522381 -0.08129331 5 14 13771 4.65800000 1298142237 1298142237 -1.00000000
4.78405380 -5.26129484 1.90542579 49 15 13772 7.36200000 1298142239 1298142239 15.00000000
1.37968290 -1.52104461 -0.55024928 33 0 13779 2.12600000 1298142260 1298142260 -15.00000000
4.81415987 -5.30927849 0.12509885 12 1 13780 7.16800000 1298142262 1298142262 1.00000000
1.39251733 -1.53627133 -0.47869584 4 2 13781 2.12800000 1298142265 1298142265 -13.00000000
3.41908026 -3.77204299 0.26680872 21 3 13781 5.09800000 1298142267 1298142267 3.00000000
1.92332768 -2.12262344 -0.55678064 3 4 13782 2.91800000 1298142269 1298142269 -11.00000000
3.69967985 -4.08447409 0.48214558 2 5 13783 5.53200000 1298142272 1298142272 5.00000000
2.35343575 -2.59912205 -0.55534238 5 6 13784 3.55000000 1298142274 1298142274 -9.00000000
4.79571676 -5.29822302 0.87745929 52 7 13785 7.20000000 1298142276 1298142276 7.00000000
3.05534792 -3.37667871 -0.55913657 6 8 13786 4.58800000 1298142279 1298142279 -7.00000000
4.78325319 -5.28630733 1.12914395 55 9 13786 7.21800000 1298142281 1298142281 9.00000000
4.22074509 -4.66627741 -0.55047566 19 10 13787 6.31600000 1298142283 1298142283 -5.00000000
4.77313328 -5.27882576 1.38336527 53 11 13788 7.25000000 1298142285 1298142285 11.00000000
4.80665541 -5.31776476 -0.37566748 11 12 13789 7.17800000 1298142288 1298142288 -3.00000000
4.76083946 -5.26892567 1.63944328 70 13 13790 7.28800000 1298142290 1298142290 13.00000000
3.11774731 -3.45169020 -0.08118860 5 14 13791 4.65200000 1298142292 1298142292 -1.00000000
4.74235535 -5.25215340 1.89610827 47 15 13792 7.32600000 1298142295 1298142295 15.00000000
1.37022078 -1.52178431 -0.54869640 52 0 13800 2.12000000 1298142315 1298142315 -15.00000000
4.76523638 -5.29418898 0.12433095 12 1 13801 7.12400000 1298142318 1298142318 1.00000000
1.37644958 -1.52977574 -0.47509661 4 2 13802 2.11200000 1298142320 1298142320 -13.00000000
3.42660666 -3.80830455 0.26848346 19 3 13802 5.13000000 1298142322 1298142322 3.00000000
1.91290915 -2.12673903 -0.55601740 3 4 13803 2.91400000 1298142325 1298142325 -11.00000000
3.66337037 -4.07430172 0.47935659 2 5 13804 5.50000000 1298142327 1298142327 5.00000000
2.34125257 -2.60479212 -0.55471659 5 6 13805 3.54600000 1298142329 1298142329 -9.00000000
4.76034451 -5.29804516 0.87453443 52 7 13806 7.17600000 1298142331 1298142331 7.00000000
3.04560423 -3.39080811 -0.55962402 6 8 13807 4.59200000 1298142334 1298142334 -7.00000000
4.74536610 -5.28322887 1.12476385 55 9 13807 7.19000000 1298142336 1298142336 9.00000000
4.19828939 -4.67578554 -0.54977840 19 10 13808 6.30800000 1298142338 1298142338 -5.00000000
4.73539400 -5.27582979 1.37802255 59 11 13809 7.22200000 1298142341 1298142341 11.00000000
4.76045561 -5.30561447 -0.37357405 11 12 13810 7.13800000 1298142343 1298142343 -3.00000000
4.73368883 -5.27763510 1.63674390 64 13 13811 7.27600000 1298142345 1298142345 13.00000000
4.75239372 -5.30035019 -0.12426113 8 14 13812 7.12000000 1298142348 1298142348 -1.00000000
4.71367598 -5.25716829 1.89196718 49 15 13812 7.31000000 1298142350 1298142350 15.00000000
1.37005091 -1.53231859 -0.55076694 71 0 13820 2.12800000 1298142371 1298142371 -15.00000000
1.37110126 -1.53457105 -0.47509661 4 2 13822 2.11200000 1298142375 1298142375 -13.00000000
3.42393804 -3.83215761 0.26932085 8 3 13822 5.14600000 1298142378 1298142378 3.00000000
1.90024257 -2.12754655 -0.55449092 3 4 13823 2.90600000 1298142380 1298142380 -11.00000000
2.32951522 -2.61000133 -0.55409086 5 6 13825 3.54200000 1298142384 1298142384 -9.00000000
4.71935511 -5.28944874 0.87039083 57 7 13826 7.14200000 1298142387 1298142387 7.00000000
3.02317905 -3.38956690 -0.55767411 8 8 13827 4.57600000 1298142389 1298142389 -7.00000000
4.72163582 -5.29386425 1.12351239 55 9 13827 7.18200000 1298142391 1298142391 9.00000000
4.17000914 -4.67702770 -0.54820961 15 10 13828 6.29000000 1298142394 1298142394 -5.00000000
4.70257998 -5.27620554 1.37382472 59 11 13829 7.20000000 1298142396 1298142396 11.00000000
4.72064877 -5.29833984 -0.37189931 11 12 13830 7.10600000 1298142398 1298142398 -3.00000000
4.69968462 -5.27666426 1.63134503 64 13 13831 7.25200000 1298142401 1298142401 13.00000000
4.72588444 -5.30794573 -0.12405171 8 14 13832 7.10800000 1298142403 1298142403 -1.00000000
4.68410063 -5.26286507 1.88782609 47 15 13833 7.29400000 1298142405 1298142405 15.00000000
1.36341119 -1.53564703 -0.55024928 77 0 13840 2.12600000 1298142426 1298142426 -15.00000000
3.02113771 -3.40398574 0.07944335 8 1 13841 4.55200000 1298142428 1298142428 1.00000000
1.36573625 -1.53934777 -0.47509661 4 2 13842 2.11200000 1298142431 1298142431 -13.00000000
3.01361942 -3.39790320 0.23802392 7 3 13843 4.54800000 1298142433 1298142433 3.00000000
1.89280438 -2.13416672 -0.55449092 3 4 13843 2.90600000 1298142435 1298142435 -11.00000000
2.32825160 -2.62698674 -0.55596811 5 6 13845 3.55400000 1298142440 1298142440 -9.00000000
4.68769884 -5.29103184 0.86795348 57 7 13846 7.12200000 1298142442 1298142442 7.00000000
3.00079966 -3.38821077 -0.55572420 8 8 13847 4.56000000 1298142444 1298142444 -7.00000000
4.67955351 -5.28369570 1.11788070 57 9 13847 7.14600000 1298142447 1298142447 9.00000000
4.15233707 -4.69006348 -0.54803532 15 10 13848 6.28800000 1298142449 1298142449 -5.00000000
4.67502594 -5.28229761 1.37115347 59 11 13849 7.18600000 1298142451 1298142451 11.00000000
4.69683123 -5.30880213 -0.37148061 11 12 13850 7.09800000 1298142454 1298142454 -3.00000000
4.65799856 -5.26676130 1.62324679 68 13 13851 7.21600000 1298142456 1298142456 13.00000000
4.69275808 -5.30793047 -0.12366775 8 14 13852 7.08600000 1298142458 1298142458 -1.00000000
4.65510654 -5.26534319 1.88316739 47 15 13852 7.27600000 1298142461 1298142461 15.00000000
1.34526694 -1.52590573 -0.54507291 78 0 13860 2.10600000 1298142481 1298142481 -15.00000000
3.00394869 -3.40850997 0.07930373 12 1 13861 4.54400000 1298142484 1298142484 1.00000000
1.36808395 -1.55287898 -0.47779605 4 2 13862 2.12400000 1298142486 1298142486 -13.00000000
2.99910021 -3.40540433 0.23781459 9 3 13863 4.54400000 1298142488 1298142488 3.00000000
1.88534331 -2.14076066 -0.55449092 3 4 13863 2.90600000 1298142490 1298142490 -11.00000000
2.31906748 -2.63509798 -0.55596811 5 6 13865 3.55400000 1298142495 1298142495 -9.00000000
4.64953327 -5.28500652 0.86429739 55 7 13866 7.09200000 1298142497 1298142497 7.00000000
2.99419808 -3.40462732 -0.55669916 8 8 13867 4.56800000 1298142500 1298142500 -7.00000000
4.63928795 -5.27707434 1.11287475 57 9 13868 7.11400000 1298142502 1298142502 9.00000000
4.13067865 -4.69854403 -0.54733807 15 10 13868 6.28000000 1298142504 1298142504 -5.00000000
4.63841486 -5.27793837 1.36581075 62 11 13869 7.15800000 1298142507 1298142507 11.00000000
4.65981674 -5.30415821 -0.37001520 11 12 13870 7.07000000 1298142509 1298142509 -3.00000000
4.62672663 -5.26834631 1.61874783 70 13 13871 7.19600000 1298142511 1298142511 13.00000000
4.65177345 -5.29873180 -0.12307437 8 14 13872 7.05200000 1298142514 1298142514 -1.00000000
4.62175989 -5.26639748 1.87747335 47 15 13873 7.25400000 1298142516 1298142516 15.00000000
1.33765399 -1.52745175 -0.54403764 73 0 13879 2.10200000 1298142537 1298142537 -15.00000000
3.00053215 -3.42748022 0.07951316 8 1 13880 4.55600000 1298142539 1298142539 1.00000000
1.36806035 -1.56327319 -0.47959566 4 2 13881 2.13200000 1298142541 1298142541 -13.00000000
3.00225663 -3.43186641 0.23896597 5 3 13882 4.56600000 1298142543 1298142543 3.00000000
1.88211191 -2.15143394 -0.55563581 3 4 13882 2.91200000 1298142546 1298142546 -11.00000000
4.63643789 -5.30175924 0.61619109 23 5 13883 7.07000000 1298142548 1298142548 5.00000000
2.30251575 -2.63385057 -0.55409086 5 6 13884 3.54200000 1298142550 1298142550 -9.00000000
4.62675667 -5.29441690 0.86332244 55 7 13885 7.08400000 1298142553 1298142553 7.00000000
2.98419762 -3.41603279 -0.55694288 8 8 13886 4.57000000 1298142555 1298142555 -7.00000000
4.61358929 -5.28120947 1.11068475 60 9 13886 7.10000000 1298142557 1298142557 9.00000000
4.11114311 -4.70771408 -0.54681516 11 10 13887 6.27400000 1298142560 1298142560 -5.00000000
4.60539341 -5.27554321 1.36123133 62 11 13888 7.13400000 1298142562 1298142562 11.00000000
4.63957548 -5.31657219 -0.36980587 11 12 13889 7.06600000 1298142564 1298142564 -3.00000000
4.59385777 -5.26603842 1.61334896 72 13 13890 7.17200000 1298142567 1298142567 13.00000000
4.62366247 -5.30207157 -0.12279513 2 14 13891 7.03600000 1298142569 1298142569 -1.00000000
4.57852888 -5.25031567 1.86660290 51 15 13891 7.21200000 1298142571 1298142571 15.00000000
1.33231401 -1.53211176 -0.54403764 76 0 13899 2.10200000 1298142592 1298142592 -15.00000000
4.60614491 -5.29876375 0.12255080 9 1 13900 7.02200000 1298142594 1298142594 1.00000000
1.58245099 -1.82104349 -0.55697882 3 2 13901 2.47600000 1298142596 1298142596 -13.00000000
3.01645470 -3.47248149 0.24105941 1 3 13902 4.60600000 1298142599 1298142599 3.00000000
1.87845302 -2.16243696 -0.55678064 3 4 13902 2.91800000 1298142601 1298142601 -11.00000000
4.60353374 -5.30136299 0.61427367 47 5 13903 7.04800000 1298142603 1298142603 5.00000000
2.29589772 -2.64485526 -0.55471659 3 6 13904 3.54600000 1298142606 1298142606 -9.00000000
4.58743143 -5.28654623 0.85942262 55 7 13905 7.05200000 1298142608 1298142608 7.00000000
2.97485662 -3.42942786 -0.55743039 8 8 13906 4.57400000 1298142610 1298142610 -7.00000000
4.57867193 -5.28017473 1.10693026 57 9 13907 7.07600000 1298142613 1298142613 9.00000000
4.09207487 -4.71902514 -0.54646653 15 10 13907 6.27000000 1298142615 1298142615 -5.00000000
4.56637526 -5.26785088 1.35512543 59 11 13908 7.10200000 1298142617 1298142617 11.00000000
4.60136986 -5.31009340 -0.36823580 11 12 13909 7.03600000 1298142619 1298142619 -3.00000000
4.56268883 -5.26731205 1.60884988 72 13 13910 7.15200000 1298142622 1298142622 13.00000000
3.32621574 -3.84124279 -0.08869313 6 14 13911 5.08200000 1298142624 1298142624 -1.00000000
4.55166864 -5.25829744 1.86349714 54 15 13912 7.20000000 1298142626 1298142626 15.00000000
1.33453321 -1.54552615 -0.54714346 69 0 13919 2.11400000 1298142647 1298142647 -15.00000000
4.57586098 -5.30118608 0.12223665 12 1 13920 7.00400000 1298142649 1298142649 1.00000000
1.57353854 -1.82360530 -0.55607903 3 2 13921 2.47200000 1298142652 1298142652 -13.00000000
3.52481961 -4.08642578 0.28282350 2 3 13922 5.40400000 1298142654 1298142654 3.00000000
1.86319935 -2.16006112 -0.55449092 3 4 13922 2.90600000 1298142656 1298142656 -11.00000000
4.58239794 -5.31438255 0.61392504 67 5 13923 7.04400000 1298142659 1298142659 5.00000000
2.29181027 -2.65883827 -0.55596811 3 6 13924 3.55400000 1298142661 1298142661 -9.00000000
4.55340052 -5.28448105 0.85649776 55 7 13925 7.02800000 1298142663 1298142663 7.00000000
2.94991231 -3.42475033 -0.55499297 8 8 13926 4.55400000 1298142666 1298142666 -7.00000000
4.55340195 -5.28634882 1.10505307 60 9 13926 7.06400000 1298142668 1298142668 9.00000000
4.05737686 -4.71214294 -0.54402614 15 10 13927 6.24200000 1298142670 1298142670 -5.00000000
4.53387117 -5.26739120 1.35092771 59 11 13928 7.08000000 1298142672 1298142672 11.00000000
4.56847668 -5.30946922 -0.36708438 11 12 13929 7.01400000 1298142675 1298142675 -3.00000000
4.52648401 -5.26252317 1.60255134 68 13 13930 7.12400000 1298142677 1298142677 13.00000000
3.30496454 -3.84373260 -0.08848370 10 14 13931 5.07000000 1298142679 1298142679 -1.00000000
4.51657343 -5.25285482 1.85625017 56 15 13931 7.17200000 1298142682 1298142682 15.00000000
1.33415997 -1.55604148 -0.54921401 64 0 13939 2.12200000 1298142702 1298142702 -15.00000000
4.53910971 -5.29586983 0.12174799 11 1 13940 6.97600000 1298142705 1298142705 1.00000000
1.56462753 -1.82612717 -0.55517918 1 2 13941 2.46800000 1298142707 1298142707 -13.00000000
4.53692961 -5.29706764 0.36551431 10 3 13942 6.98400000 1298142709 1298142709 3.00000000
1.85692513 -2.16804290 -0.55487257 3 4 13942 2.90800000 1298142712 1298142712 -11.00000000
4.53660774 -5.29856300 0.61026454 64 5 13943 7.00200000 1298142714 1298142714 5.00000000
2.28251529 -2.66682196 -0.55596811 3 6 13944 3.55400000 1298142716 1298142716 -9.00000000
4.52202082 -5.28525972 0.85406035 52 7 13945 7.00800000 1298142719 1298142719 7.00000000
2.93277884 -3.42899227 -0.55401802 8 8 13946 4.54600000 1298142721 1298142721 -7.00000000
4.51474047 -5.28048086 1.10036004 55 9 13947 7.03400000 1298142723 1298142723 9.00000000
4.01371431 -4.69447613 -0.54036558 15 10 13947 6.20000000 1298142725 1298142725 -5.00000000
4.50652790 -5.27273798 1.34825635 56 11 13948 7.06600000 1298142728 1298142728 11.00000000
4.53694153 -5.31019926 -0.36603767 10 12 13949 6.99400000 1298142730 1298142730 -3.00000000
4.49289942 -5.26050949 1.59715247 66 13 13950 7.10000000 1298142732 1298142732 13.00000000
4.52114344 -5.29544973 -0.12153856 6 14 13951 6.96400000 1298142735 1298142735 -1.00000000
4.49227381 -5.26349592 1.85417962 54 15 13952 7.16400000 1298142737 1298142737 15.00000000
1.33247721 -1.56510198 -0.55076694 47 0 13959 2.12800000 1298142758 1298142758 -15.00000000
4.51541185 -5.30559063 0.12160837 11 1 13960 6.96800000 1298142760 1298142760 1.00000000
1.56329465 -1.83751476 -0.55697882 1 2 13961 2.47600000 1298142762 1298142762 -13.00000000
4.50417852 -5.29613638 0.36436293 10 3 13962 6.96200000 1298142765 1298142765 3.00000000
1.84298635 -2.16703391 -0.55296445 3 4 13962 2.89800000 1298142767 1298142767 -11.00000000
4.49743652 -5.29007912 0.60747552 60 5 13963 6.97000000 1298142769 1298142769 5.00000000
2.28214717 -2.68530965 -0.55815816 3 6 13964 3.56800000 1298142772 1298142772 -9.00000000
4.49840355 -5.29496098 0.85308540 55 7 13965 7.00000000 1298142774 1298142774 7.00000000
2.92721653 -3.44677424 -0.55523676 8 8 13966 4.55600000 1298142776 1298142776 -7.00000000
4.47802448 -5.27283859 1.09566700 52 9 13966 7.00400000 1298142778 1298142778 9.00000000
3.98569775 -4.69478798 -0.53879678 15 10 13967 6.18200000 1298142781 1298142781 -5.00000000
4.47793245 -5.27646160 1.34520340 56 11 13968 7.05000000 1298142783 1298142783 11.00000000
4.50287294 -5.30772734 -0.36478162 10 12 13969 6.97000000 1298142785 1298142785 -3.00000000
4.46442604 -5.26427031 1.59355330 64 13 13970 7.08400000 1298142788 1298142788 13.00000000
4.48194122 -5.28679419 -0.12098008 8 14 13971 6.93200000 1298142790 1298142790 -1.00000000
4.45230818 -5.25183964 1.84486210 56 15 13971 7.12800000 1298142792 1298142792 15.00000000
1.33199465 -1.57564497 -0.55283749 35 0 13979 2.13600000 1298142813 1298142813 -15.00000000
4.47234058 -5.29230022 0.12094518 11 1 13980 6.93000000 1298142815 1298142815 1.00000000
1.55184078 -1.83700585 -0.55517918 1 2 13981 2.46800000 1298142818 1298142818 -13.00000000
4.48179817 -5.30724859 0.36404890 10 3 13982 6.95600000 1298142820 1298142820 3.00000000
1.83541083 -2.17345381 -0.55296445 3 4 13982 2.89800000 1298142822 1298142822 -11.00000000
4.46480608 -5.28899908 0.60555810 57 5 13983 6.94800000 1298142825 1298142825 5.00000000
2.25237608 -2.66910481 -0.55315226 3 6 13984 3.53600000 1298142827 1298142827 -9.00000000
4.46709347 -5.29545784 0.85064805 57 7 13985 6.98000000 1298142829 1298142829 7.00000000
2.92156553 -3.46455884 -0.55645543 8 8 13986 4.56600000 1298142831 1298142831 -7.00000000
4.44975615 -5.27864361 1.09347689 55 9 13987 6.99000000 1298142834 1298142834 9.00000000
3.98341131 -4.72542906 -0.54071420 15 10 13987 6.20400000 1298142836 1298142836 -5.00000000
4.44177532 -5.27104235 1.33986080 59 11 13988 7.02200000 1298142838 1298142838 11.00000000
4.48045778 -5.31883049 -0.36446759 10 12 13989 6.96400000 1298142841 1298142841 -3.00000000
4.43598127 -5.26789713 1.58995402 62 13 13990 7.06800000 1298142843 1298142843 13.00000000
4.45444489 -5.29169798 -0.12073575 8 14 13991 6.91800000 1298142845 1298142845 -1.00000000
4.41685963 -5.24890709 1.83813286 47 15 13992 7.10200000 1298142848 1298142848 15.00000000
1.33297372 -1.58745062 -0.55542564 22 0 13998 2.14600000 1298142868 1298142868 -15.00000000
4.43933821 -5.28872252 0.12052632 11 1 13999 6.90600000 1298142871 1298142871 1.00000000
1.53196156 -1.82572079 -0.55023026 1 2 14000 2.44600000 1298142873 1298142873 -13.00000000
4.45133877 -5.30677938 0.36300218 10 3 14001 6.93600000 1298142875 1298142875 3.00000000
1.83071661 -2.18253660 -0.55372769 3 4 14001 2.90200000 1298142878 1298142878 -11.00000000
4.43700123 -5.29156208 0.60416359 47 5 14002 6.93200000 1298142880 1298142880 5.00000000
2.23336101 -2.66444802 -0.55064934 1 6 14003 3.52000000 1298142882 1298142882 -9.00000000
4.43165922 -5.28894043 0.84723568 57 7 14004 6.95200000 1298142884 1298142884 7.00000000
2.90368748 -3.46661901 -0.55523676 8 8 14005 4.55600000 1298142887 1298142887 -7.00000000
4.42300367 -5.28048182 1.09097397 55 9 14005 6.97400000 1298142889 1298142889 9.00000000
4.00225449 -4.77985764 -0.54542065 11 10 14006 6.25800000 1298142891 1298142891 -5.00000000
4.40663004 -5.26466608 1.33451807 59 11 14007 6.99400000 1298142894 1298142894 11.00000000
4.43459845 -5.29995966 -0.36216483 10 12 14008 6.92000000 1298142896 1298142896 -3.00000000
4.41098642 -5.27360964 1.58725464 66 13 14009 7.05600000 1298142898 1298142898 13.00000000
4.42789364 -5.29570150 -0.12049142 8 14 14010 6.90400000 1298142901 1298142901 -1.00000000
