# .PCD v0.7 - Point Cloud Data file format
VERSION 0.7
FIELDS x y z intensity laser_id azimuth distance_m adjustedtime timestamp vertical_angle
SIZE 4 4 4 1 1 2 8 8 4 8
TYPE F F F U U U F U U F
COUNT 1 1 1 1 1 1 1 1 1 1
WIDTH 518
HEIGHT 1
VIEWPOINT 0 0 0 1 0 0 0
POINTS 518
DATA ascii
-3.38262510 -1.76914537 -0.46870950 1 8 24239 3.84600000 1297371174 1297371174 -7.00000000
-4.44417286 -2.32335734 -0.43874201 3 10 24240 5.03400000 1297371179 1297371179 -5.00000000
-6.52001858 -3.40568590 -0.38550666 3 12 24242 7.36600000 1297371183 1297371183 -3.00000000
-9.68928337 -5.05897713 2.52350092 54 13 24243 11.21800000 1297371186 1297371186 13.00000000
-8.11521912 -4.23352098 2.45256925 4 15 24245 9.47600000 1297371190 1297371190 15.00000000
-1.70531523 -0.88697445 -0.51504987 4 0 24252 1.99000000 1297371211 1297371211 -15.00000000
-1.96435010 -1.02083349 -0.51108879 4 2 24254 2.27200000 1297371216 1297371216 -13.00000000
-2.28579044 -1.18737304 -0.50068283 3 4 24255 2.62400000 1297371220 1297371220 -11.00000000
-2.73513794 -1.41957831 -0.48807552 2 6 24257 3.12000000 1297371225 1297371225 -9.00000000
-3.41521335 -1.77103472 -0.47236559 3 8 24259 3.87600000 1297371230 1297371230 -7.00000000
-4.46286917 -2.31333160 -0.43978786 3 10 24260 5.04600000 1297371234 1297371234 -5.00000000
-6.53541422 -3.38474321 -0.38571599 3 12 24262 7.37000000 1297371239 1297371239 -3.00000000
-9.71726704 -5.03049994 2.52620029 54 13 24263 11.23000000 1297371241 1297371241 13.00000000
-8.14195919 -4.21138048 2.45619273 2 15 24265 9.49000000 1297371246 1297371246 15.00000000
-1.71027184 -0.88160336 -0.51556754 4 0 24273 1.99200000 1297371266 1297371266 -15.00000000
-1.96634591 -1.01273465 -0.51063889 4 2 24275 2.27000000 1297371271 1297371271 -13.00000000
-2.29012704 -1.17898726 -0.50068283 3 4 24276 2.62400000 1297371276 1297371276 -11.00000000
-2.74383593 -1.41135108 -0.48870125 2 6 24278 3.12400000 1297371280 1297371280 -9.00000000
-3.39343238 -1.74398744 -0.46846575 1 8 24280 3.84400000 1297371285 1297371285 -7.00000000
-4.48726797 -2.30515242 -0.44135669 3 10 24281 5.06400000 1297371289 1297371289 -5.00000000
-6.53000736 -3.35164690 -0.38466927 3 12 24283 7.35000000 1297371294 1297371294 -3.00000000
-9.72350311 -4.98862362 2.52305102 55 13 24284 11.21600000 1297371296 1297371296 13.00000000
-8.13254356 -4.17059231 2.44894576 2 15 24285 9.46200000 1297371301 1297371301 15.00000000
-1.72538030 -0.88178205 -0.51919103 5 0 24293 2.00600000 1297371322 1297371322 -15.00000000
-1.95945561 -1.00054741 -0.50793946 4 2 24295 2.25800000 1297371326 1297371326 -13.00000000
-2.28373671 -1.16563094 -0.49839309 3 4 24296 2.61200000 1297371331 1297371331 -11.00000000
-2.73466754 -1.39458537 -0.48619831 2 6 24298 3.10800000 1297371335 1297371335 -9.00000000
-3.39596200 -1.73032904 -0.46797827 3 8 24300 3.84000000 1297371340 1297371340 -7.00000000
-4.49883795 -2.29128337 -0.44170532 6 10 24301 5.06800000 1297371345 1297371345 -5.00000000
-6.54700708 -3.33154988 -0.38498330 3 12 24303 7.35600000 1297371349 1297371349 -3.00000000
-9.73564625 -4.95200109 2.52170134 54 13 24304 11.21000000 1297371352 1297371352 13.00000000
-8.84354782 -4.49435377 2.65807152 7 15 24306 10.27000000 1297371356 1297371356 15.00000000
-1.71983135 -0.87138826 -0.51660281 4 0 24313 1.99600000 1297371377 1297371377 -15.00000000
-1.96989083 -0.99722213 -0.50973910 4 2 24315 2.26600000 1297371382 1297371382 -13.00000000
-2.28428793 -1.15587926 -0.49762985 3 4 24316 2.60800000 1297371386 1297371386 -11.00000000
-2.75714779 -1.39394379 -0.48932701 2 6 24318 3.12800000 1297371391 1297371391 -9.00000000
-3.40198135 -1.71846437 -0.46797827 3 8 24320 3.84000000 1297371395 1297371395 -7.00000000
-4.49791574 -2.27107549 -0.44083375 9 10 24321 5.05800000 1297371400 1297371400 -5.00000000
-6.56572914 -3.31227446 -0.38540199 3 12 24323 7.36400000 1297371405 1297371405 -3.00000000
-9.75809288 -4.92061949 2.52305102 56 13 24324 11.21600000 1297371407 1297371407 13.00000000
-8.90153027 -4.48674107 2.67101264 26 15 24325 10.32000000 1297371412 1297371412 15.00000000
-1.72113633 -0.86451250 -0.51608515 5 0 24333 1.99400000 1297371432 1297371432 -15.00000000
-1.97858500 -0.99296212 -0.51108879 4 2 24335 2.27200000 1297371437 1297371437 -13.00000000
-2.29532814 -1.15141976 -0.49915633 3 4 24336 2.61600000 1297371441 1297371441 -11.00000000
-2.75140095 -1.37900043 -0.48744980 2 6 24338 3.11600000 1297371446 1297371446 -9.00000000
-3.40263414 -1.70391226 -0.46724707 3 8 24340 3.83400000 1297371451 1297371451 -7.00000000
-4.50225258 -2.25357747 -0.44048512 6 10 24341 5.05400000 1297371455 1297371455 -5.00000000
-6.56117439 -3.28129554 -0.38445994 3 12 24343 7.34600000 1297371460 1297371460 -3.00000000
-9.78392506 -4.89088440 2.52530050 54 13 24344 11.22600000 1297371462 1297371462 13.00000000
-8.97322083 -4.48170710 2.68757701 40 15 24346 10.38400000 1297371467 1297371467 15.00000000
-1.72760224 -0.86022156 -0.51712048 5 0 24353 1.99800000 1297371488 1297371488 -15.00000000
-1.97680473 -0.98344553 -0.50973910 4 2 24355 2.26600000 1297371492 1297371492 -13.00000000
-2.30284929 -1.14514887 -0.49991956 3 4 24356 2.62000000 1297371497 1297371497 -11.00000000
-2.74204516 -1.36235631 -0.48494685 2 6 24358 3.10000000 1297371501 1297371501 -9.00000000
-3.39967084 -1.68761122 -0.46602836 3 8 24360 3.82400000 1297371506 1297371506 -7.00000000
-4.51009178 -2.23784781 -0.44048512 9 10 24361 5.05400000 1297371511 1297371511 -5.00000000
-6.60837650 -3.27611494 -0.38655338 3 12 24363 7.38600000 1297371515 1297371515 -3.00000000
-9.81315994 -4.86275911 2.52844977 55 13 24364 11.24000000 1297371518 1297371518 13.00000000
-9.03823566 -4.47679281 2.70258856 40 15 24365 10.44200000 1297371522 1297371522 15.00000000
-1.73232675 -0.85504091 -0.51763809 5 0 24373 2.00000000 1297371543 1297371543 -15.00000000
-1.98022556 -0.97653919 -0.50973910 4 2 24375 2.26600000 1297371547 1297371547 -13.00000000
-2.30683255 -1.13710344 -0.49991956 3 4 24376 2.62000000 1297371552 1297371552 -11.00000000
-2.76096106 -1.35975850 -0.48744980 2 6 24378 3.11600000 1297371557 1297371557 -9.00000000
-3.40554094 -1.67573392 -0.46602836 3 8 24380 3.82400000 1297371561 1297371561 -7.00000000
-4.52145147 -2.22384977 -0.44083375 9 10 24381 5.05800000 1297371566 1297371566 -5.00000000
-6.59109211 -3.23893380 -0.38487864 3 12 24383 7.35400000 1297371570 1297371570 -3.00000000
-9.82132912 -4.82417917 2.52620029 53 13 24384 11.23000000 1297371573 1297371573 13.00000000
-9.12048531 -4.47597790 2.72225881 42 15 24386 10.51800000 1297371577 1297371577 15.00000000
-1.73703611 -0.84983772 -0.51815575 4 0 24393 2.00200000 1297371598 1297371598 -15.00000000
-1.98012078 -0.96790934 -0.50883931 4 2 24395 2.26200000 1297371603 1297371603 -13.00000000
-2.32489944 -1.13593912 -0.50297248 3 4 24396 2.63600000 1297371607 1297371607 -11.00000000
-2.76214027 -1.34837961 -0.48682407 2 6 24398 3.11200000 1297371612 1297371612 -9.00000000
-3.43099570 -1.67340839 -0.46870950 1 8 24400 3.84600000 1297371617 1297371617 -7.00000000
-4.53276825 -2.20979953 -0.44118237 9 10 24401 5.06200000 1297371621 1297371621 -5.00000000
-6.59158421 -3.21065927 -0.38425058 3 12 24403 7.34200000 1297371626 1297371626 -3.00000000
-9.82409191 -4.78304243 2.52260113 53 13 24404 11.21400000 1297371628 1297371628 13.00000000
-9.19781303 -4.47614145 2.74089360 42 15 24405 10.59000000 1297371633 1297371633 15.00000000
-1.73477721 -0.84124035 -0.51660281 5 0 24413 1.99600000 1297371653 1297371653 -15.00000000
-1.99050224 -0.96439028 -0.51063889 4 2 24415 2.27000000 1297371658 1297371658 -13.00000000
-2.30057907 -1.11412549 -0.49686661 3 4 24416 2.60400000 1297371663 1297371663 -11.00000000
-2.77038646 -1.34045041 -0.48744980 2 6 24418 3.11600000 1297371667 1297371667 -9.00000000
-3.44217777 -1.66401374 -0.46944070 3 8 24420 3.85200000 1297371672 1297371672 -7.00000000
-4.53327847 -2.19049644 -0.44048512 6 10 24421 5.05400000 1297371676 1297371676 -5.00000000
-6.61714029 -3.19457722 -0.38508797 3 12 24423 7.35800000 1297371681 1297371681 -3.00000000
-9.84423828 -4.75041485 2.52350092 53 13 24424 11.21800000 1297371683 1297371683 13.00000000
-9.27680302 -4.47260284 2.75952864 42 15 24426 10.66200000 1297371688 1297371688 15.00000000
-1.73247957 -0.83266920 -0.51504987 4 0 24433 1.99000000 1297371709 1297371709 -15.00000000
-1.99912655 -0.95996690 -0.51198858 4 2 24435 2.27600000 1297371713 1297371713 -13.00000000
-2.31153369 -1.10948634 -0.49839309 3 4 24436 2.61200000 1297371718 1297371718 -11.00000000
-2.77504873 -1.33077180 -0.48744980 2 6 24438 3.11600000 1297371723 1297371723 -9.00000000
-3.43901420 -1.64769948 -0.46822202 3 8 24440 3.84200000 1297371727 1297371727 -7.00000000
-4.53370953 -2.17121673 -0.43978786 9 10 24441 5.04600000 1297371732 1297371732 -5.00000000
-6.62644958 -3.17059779 -0.38498330 3 12 24443 7.35600000 1297371736 1297371736 -3.00000000
-9.87130833 -4.72106791 2.52620029 53 13 24444 11.23000000 1297371739 1297371739 13.00000000
-9.34212875 -4.46597815 2.77454019 42 15 24445 10.72000000 1297371743 1297371743 15.00000000
-1.74060786 -0.82910895 -0.51660281 5 0 24453 1.99600000 1297371764 1297371764 -15.00000000
-1.99366713 -0.94879574 -0.50973910 4 2 24455 2.26600000 1297371769 1297371769 -13.00000000
-2.32248402 -1.10478413 -0.49991956 3 4 24456 2.62000000 1297371773 1297371773 -11.00000000
-2.79038191 -1.32616448 -0.48932701 2 6 24458 3.12800000 1297371778 1297371778 -9.00000000
-3.43936515 -1.63313067 -0.46749079 1 8 24460 3.83600000 1297371782 1297371782 -7.00000000
-4.55746031 -2.16306663 -0.44135669 9 10 24461 5.06400000 1297371787 1297371787 -5.00000000
-6.62484407 -3.14145756 -0.38425058 3 12 24463 7.34200000 1297371792 1297371792 -3.00000000
-9.89301109 -4.68908596 2.52754998 49 13 24464 11.23600000 1297371794 1297371794 13.00000000
-9.43001938 -4.46560669 2.79576325 47 15 24466 10.80200000 1297371799 1297371799 15.00000000
-1.75047934 -0.82632673 -0.51867336 5 0 24473 2.00400000 1297371819 1297371819 -15.00000000
-1.99520433 -0.94099945 -0.50928921 4 2 24475 2.26400000 1297371824 1297371824 -13.00000000
-2.32632637 -1.09667051 -0.49991956 3 4 24476 2.62000000 1297371829 1297371829 -11.00000000
-2.79141974 -1.31473279 -0.48870125 2 6 24478 3.12400000 1297371833 1297371833 -9.00000000
-3.47557974 -1.63548362 -0.47163436 1 8 24480 3.87000000 1297371838 1297371838 -7.00000000
-4.56317997 -2.14629674 -0.44118237 9 10 24481 5.06200000 1297371842 1297371842 -5.00000000
-6.63576937 -3.11831331 -0.38425058 3 12 24483 7.34200000 1297371847 1297371847 -3.00000000
-9.89873505 -4.64955330 2.52485061 51 13 24484 11.22400000 1297371849 1297371849 13.00000000
-9.50598049 -4.46304703 2.81388068 42 15 24485 10.87200000 1297371854 1297371854 15.00000000
-1.75685287 -0.82184857 -0.51970863 5 0 24493 2.00800000 1297371875 1297371875 -15.00000000
-2.00024247 -0.93485427 -0.50973910 4 2 24495 2.26600000 1297371879 1297371879 -13.00000000
-2.33369780 -1.09020531 -0.50068283 3 4 24496 2.62400000 1297371884 1297371884 -11.00000000
-2.77809191 -1.29662633 -0.48557258 2 6 24498 3.10400000 1297371888 1297371888 -9.00000000
-3.47227192 -1.61914694 -0.47041565 1 8 24500 3.86000000 1297371893 1297371893 -7.00000000
-4.57064438 -2.13035536 -0.44118237 9 10 24501 5.06200000 1297371898 1297371898 -5.00000000
-6.65928793 -3.10103297 -0.38498330 3 12 24503 7.35600000 1297371902 1297371902 -3.00000000
-9.90253830 -4.60921526 2.52170134 50 13 24504 11.21000000 1297371905 1297371905 13.00000000
-9.53201103 -4.43472719 2.81698656 42 15 24505 10.88400000 1297371909 1297371909 15.00000000
-1.75459468 -0.81296736 -0.51815575 6 0 24514 2.00200000 1297371930 1297371930 -15.00000000
-1.99658155 -0.92424220 -0.50793946 4 2 24516 2.25800000 1297371935 1297371935 -13.00000000
-2.33411431 -1.07999563 -0.49991956 3 4 24517 2.62000000 1297371939 1297371939 -11.00000000
-2.80075622 -1.29472435 -0.48870125 2 6 24519 3.12400000 1297371944 1297371944 -9.00000000
-3.48178744 -1.60807431 -0.47090313 1 8 24521 3.86400000 1297371948 1297371948 -7.00000000
-4.57480383 -2.11191869 -0.44083375 6 10 24522 5.05800000 1297371953 1297371953 -5.00000000
-6.65609980 -3.06991291 -0.38414592 3 12 24524 7.34000000 1297371958 1297371958 -3.00000000
-9.92644405 -4.57615328 2.52350092 48 13 24525 11.21800000 1297371960 1297371960 13.00000000
-9.53942871 -4.39571810 2.81439829 30 15 24526 10.87400000 1297371964 1297371964 15.00000000
-1.75215483 -0.80441964 -0.51660281 5 0 24534 1.99600000 1297371985 1297371985 -15.00000000
-2.01750851 -0.92539179 -0.51243848 4 2 24536 2.27800000 1297371990 1297371990 -13.00000000
-2.34143925 -1.07347786 -0.50068283 3 4 24537 2.62400000 1297371994 1297371994 -11.00000000
-2.80525875 -1.28494000 -0.48870125 2 6 24539 3.12400000 1297371999 1297371999 -9.00000000
-3.46932888 -1.58765030 -0.46846575 1 8 24541 3.84400000 1297372004 1297372004 -7.00000000
-4.58214808 -2.09593678 -0.44083375 3 10 24542 5.05800000 1297372008 1297372008 -5.00000000
-6.68312454 -3.05413127 -0.38508797 3 12 24544 7.35800000 1297372013 1297372013 -3.00000000
-9.94944763 -4.54471445 2.52530050 50 13 24545 11.22600000 1297372015 1297372015 13.00000000
-7.95967436 -3.63246703 2.34438300 6 15 24547 9.05800000 1297372020 1297372020 15.00000000
-1.75657105 -0.79940510 -0.51712048 4 0 24553 1.99800000 1297372041 1297372041 -15.00000000
-2.01169634 -0.91466349 -0.51018900 4 2 24555 2.26800000 1297372045 1297372045 -13.00000000
-2.34856081 -1.06733203 -0.50144607 3 4 24556 2.62800000 1297372050 1297372050 -11.00000000
-2.79151773 -1.26746368 -0.48557258 2 6 24558 3.10400000 1297372054 1297372054 -9.00000000
-3.47819018 -1.57777703 -0.46895322 1 8 24560 3.84800000 1297372059 1297372059 -7.00000000
-4.57092714 -2.07250261 -0.43909064 3 10 24561 5.03800000 1297372064 1297372064 -5.00000000
-6.67684174 -3.02453542 -0.38414592 3 12 24563 7.34000000 1297372068 1297372068 -3.00000000
-9.97156429 -4.51491117 2.52710009 50 13 24564 11.23400000 1297372070 1297372070 13.00000000
-7.99040699 -3.61620474 2.35007691 9 15 24565 9.08000000 1297372075 1297372075 15.00000000
-1.76111197 -0.79406267 -0.51763809 4 0 24573 2.00000000 1297372096 1297372096 -15.00000000
-2.00954652 -0.90523463 -0.50883931 4 2 24575 2.26200000 1297372100 1297372100 -13.00000000
-2.35585260 -1.06073964 -0.50220925 3 4 24576 2.63200000 1297372105 1297372105 -11.00000000
-2.79592490 -1.25771177 -0.48557258 2 6 24578 3.10400000 1297372110 1297372110 -9.00000000
-3.47643375 -1.56237137 -0.46797827 1 8 24580 3.84000000 1297372114 1297372114 -7.00000000
-4.59085608 -2.06224942 -0.44031081 3 10 24581 5.05200000 1297372119 1297372119 -5.00000000
-6.69829178 -3.00611711 -0.38477394 3 12 24583 7.35200000 1297372123 1297372123 -3.00000000
-10.00148773 -4.48645687 2.53069925 46 13 24584 11.25000000 1297372126 1297372126 13.00000000
-8.04881287 -3.60884070 2.36353540 9 15 24585 9.13200000 1297372130 1297372130 15.00000000
-1.76930249 -0.78996539 -0.51919103 4 0 24594 2.00600000 1297372151 1297372151 -15.00000000
-2.01641011 -0.89945096 -0.50973910 4 2 24596 2.26600000 1297372156 1297372156 -13.00000000
-2.35613823 -1.05049896 -0.50144607 3 4 24597 2.62800000 1297372160 1297372160 -11.00000000
-2.81856060 -1.25549352 -0.48870125 2 6 24599 3.12400000 1297372165 1297372165 -9.00000000
-3.49664569 -1.55607581 -0.46992818 1 8 24601 3.85600000 1297372169 1297372169 -7.00000000
-4.61294699 -2.05188727 -0.44170532 3 10 24602 5.06800000 1297372174 1297372174 -5.00000000
-6.70196438 -2.97830200 -0.38435528 3 12 24604 7.34400000 1297372179 1297372179 -3.00000000
-10.05348396 -4.46559095 2.53969741 46 13 24605 11.29000000 1297372181 1297372181 13.00000000
-8.13084698 -3.60988855 2.38372350 9 15 24606 9.21000000 1297372186 1297372186 15.00000000
-1.76851571 -0.78222167 -0.51815575 5 0 24614 2.00200000 1297372206 1297372206 -15.00000000
-2.02845001 -0.89634514 -0.51198858 4 2 24616 2.27600000 1297372211 1297372211 -13.00000000
-2.34542394 -1.03592241 -0.49839309 3 4 24617 2.61200000 1297372216 1297372216 -11.00000000
-2.82292581 -1.24564719 -0.48870125 2 6 24619 3.12400000 1297372220 1297372220 -9.00000000
-3.50205612 -1.54386079 -0.46992818 1 8 24621 3.85600000 1297372225 1297372225 -7.00000000
-4.61643457 -2.03416562 -0.44135669 6 10 24622 5.06400000 1297372229 1297372229 -5.00000000
-6.72511530 -2.96052265 -0.38508797 3 12 24624 7.35800000 1297372234 1297372234 -3.00000000
-10.12608910 -4.45558548 2.55409431 48 13 24625 11.35400000 1297372236 1297372236 13.00000000
-9.56591129 -4.20511675 2.79990435 30 15 24627 10.81800000 1297372241 1297372241 15.00000000
-1.76061869 -0.77139199 -0.51504987 4 0 24634 1.99000000 1297372262 1297372262 -15.00000000
-2.03513670 -0.89082193 -0.51288843 4 2 24636 2.28000000 1297372266 1297372266 -13.00000000
-2.35622025 -1.03087676 -0.49991956 3 4 24637 2.62000000 1297372271 1297372271 -11.00000000
-2.81277657 -1.22945654 -0.48619831 2 6 24639 3.10800000 1297372275 1297372275 -9.00000000
-3.52015829 -1.53718781 -0.47163436 1 8 24641 3.87000000 1297372280 1297372280 -7.00000000
-4.61802912 -2.01564789 -0.44083375 6 10 24642 5.05800000 1297372285 1297372285 -5.00000000
-6.74090099 -2.93942451 -0.38540199 3 12 24644 7.36400000 1297372289 1297372289 -3.00000000
-10.22732925 -4.45758533 2.57568955 46 13 24645 11.45000000 1297372292 1297372292 13.00000000
-9.56917667 -4.16874218 2.79679871 35 15 24646 10.80600000 1297372296 1297372296 15.00000000
-1.77216136 -0.76908702 -0.51763809 5 0 24654 2.00000000 1297372317 1297372317 -15.00000000
-2.02571845 -0.87828624 -0.50973910 4 2 24656 2.26600000 1297372321 1297372321 -13.00000000
-2.36700964 -1.02576840 -0.50144607 3 4 24657 2.62800000 1297372326 1297372326 -11.00000000
-2.82430220 -1.22276998 -0.48744980 2 6 24659 3.11600000 1297372331 1297372331 -9.00000000
-3.49452925 -1.51149380 -0.46749079 1 8 24661 3.83600000 1297372335 1297372335 -7.00000000
-4.63235235 -2.00267816 -0.44153100 3 10 24662 5.06600000 1297372340 1297372340 -5.00000000
-6.71995020 -2.90241385 -0.38362256 3 12 24664 7.33000000 1297372345 1297372345 -3.00000000
-10.31975937 -4.45507050 2.59503531 51 13 24665 11.53600000 1297372347 1297372347 13.00000000
-9.58544350 -4.13607979 2.79731631 40 15 24666 10.80800000 1297372351 1297372351 15.00000000
-1.76937795 -0.76091647 -0.51608515 5 0 24673 1.99400000 1297372372 1297372372 -15.00000000
-2.02324843 -0.86925614 -0.50838935 4 2 24675 2.26000000 1297372377 1297372377 -13.00000000
-2.37039828 -1.01791346 -0.50144607 3 4 24676 2.62800000 1297372381 1297372381 -11.00000000
-2.82834148 -1.21339750 -0.48744980 2 6 24678 3.11600000 1297372386 1297372386 -9.00000000
-3.50682068 -1.50302529 -0.46846575 3 8 24680 3.84400000 1297372391 1297372391 -7.00000000
-4.64079905 -1.98809040 -0.44170532 3 10 24681 5.06800000 1297372395 1297372395 -5.00000000
-10.10488701 -4.32678556 2.13667917 12 11 24682 11.19800000 1297372398 1297372398 11.00000000
-6.74422693 -2.88640046 -0.38445994 3 12 24683 7.34600000 1297372400 1297372400 -3.00000000
-10.40793514 -4.45224857 2.61348128 50 13 24684 11.61800000 1297372402 1297372402 13.00000000
-9.59804630 -4.10183573 2.79679871 42 15 24686 10.80600000 1297372407 1297372407 15.00000000
-1.78801942 -0.76154864 -0.52074391 5 0 24693 2.01200000 1297372427 1297372427 -15.00000000
-2.04061556 -0.86829233 -0.51198858 4 2 24695 2.27600000 1297372432 1297372432 -13.00000000
-2.37755036 -1.01116979 -0.50220925 3 4 24696 2.63200000 1297372437 1297372437 -11.00000000
-2.82165122 -1.19888246 -0.48557258 2 6 24698 3.10400000 1297372441 1297372441 -9.00000000
-3.51935506 -1.49387753 -0.46944070 1 8 24700 3.85200000 1297372446 1297372446 -7.00000000
-4.65871525 -1.97654784 -0.44275117 3 10 24701 5.08000000 1297372451 1297372451 -5.00000000
-10.12173557 -4.29225302 2.13706064 12 11 24702 11.20000000 1297372453 1297372453 11.00000000
-6.73955011 -2.85660577 -0.38362256 3 12 24703 7.33000000 1297372455 1297372455 -3.00000000
-10.48621559 -4.44249725 2.62922788 51 13 24704 11.68800000 1297372457 1297372457 13.00000000
-9.60518932 -4.06529570 2.79472804 40 15 24706 10.79800000 1297372462 1297372462 15.00000000
-1.77642691 -0.74929625 -0.51660281 4 0 24713 1.99600000 1297372483 1297372483 -15.00000000
-2.03645086 -0.85813701 -0.51018900 4 2 24715 2.26800000 1297372487 1297372487 -13.00000000
-2.36659098 -0.99676794 -0.49915633 3 4 24716 2.61600000 1297372492 1297372492 -11.00000000
-2.85859275 -1.20281601 -0.49120423 2 6 24718 3.14000000 1297372497 1297372497 -9.00000000
-4.67477083 -1.96413267 -0.44362274 3 10 24721 5.09000000 1297372506 1297372506 -5.00000000
-10.12579632 -4.25233412 2.13477111 12 11 24722 11.18800000 1297372508 1297372508 11.00000000
-6.76421356 -2.83924675 -0.38445994 7 12 24723 7.34600000 1297372510 1297372510 -3.00000000
-10.59869671 -4.44657803 2.65352273 53 13 24724 11.79600000 1297372513 1297372513 13.00000000
-9.60863209 -4.02726173 2.79162216 42 15 24726 10.78600000 1297372517 1297372517 15.00000000
-1.78081429 -0.74383539 -0.51712048 4 0 24733 1.99800000 1297372538 1297372538 -15.00000000
-2.05022454 -0.85552603 -0.51288843 4 2 24735 2.28000000 1297372543 1297372543 -13.00000000
-2.38455153 -0.99454677 -0.50220925 3 4 24736 2.63200000 1297372547 1297372547 -11.00000000
-2.84818649 -1.18675220 -0.48870125 2 6 24738 3.12400000 1297372552 1297372552 -9.00000000
-3.52420044 -1.46698308 -0.46870950 1 8 24740 3.84600000 1297372557 1297372557 -7.00000000
-4.65952396 -1.93861854 -0.44153100 3 10 24741 5.06600000 1297372561 1297372561 -5.00000000
-10.12063789 -4.20867062 2.13057327 9 11 24742 11.16600000 1297372563 1297372563 11.00000000
-6.78699303 -2.82098413 -0.38519263 7 12 24743 7.36000000 1297372566 1297372566 -3.00000000
-10.68973827 -4.44095516 2.67241859 49 13 24744 11.88000000 1297372568 1297372568 13.00000000
-9.60835648 -3.98777270 2.78748107 38 15 24746 10.77000000 1297372573 1297372573 15.00000000
-1.78697026 -0.73909134 -0.51815575 4 0 24753 2.00200000 1297372593 1297372593 -15.00000000
-2.04599428 -0.84538752 -0.51108879 4 2 24755 2.27200000 1297372598 1297372598 -13.00000000
-2.39526701 -0.98921472 -0.50373572 3 4 24756 2.64000000 1297372603 1297372603 -11.00000000
-2.84500742 -1.17378938 -0.48744980 2 6 24758 3.11600000 1297372607 1297372607 -9.00000000
-3.54948807 -1.46299338 -0.47139063 3 8 24760 3.86800000 1297372612 1297372612 -7.00000000
-4.67363167 -1.92537773 -0.44222823 3 10 24761 5.07400000 1297372616 1297372616 -5.00000000
-10.11892891 -4.16658974 2.12713861 6 11 24762 11.14800000 1297372619 1297372619 11.00000000
-6.77648211 -2.78891444 -0.38404125 3 12 24763 7.33800000 1297372621 1297372621 -3.00000000
-10.79528522 -4.44068146 2.69491363 51 13 24764 11.98000000 1297372623 1297372623 13.00000000
-1.79311478 -0.73431337 -0.51919103 4 0 24773 2.00600000 1297372649 1297372649 -15.00000000
-2.04171824 -0.83528894 -0.50928921 4 2 24775 2.26400000 1297372653 1297372653 -13.00000000
-2.39143682 -0.97787541 -0.50220925 3 4 24776 2.63200000 1297372658 1297372658 -11.00000000
-2.83811522 -1.15936923 -0.48557258 2 6 24778 3.10400000 1297372662 1297372662 -9.00000000
-3.55824900 -1.45209455 -0.47187811 1 8 24780 3.87200000 1297372667 1297372667 -7.00000000
-4.68032360 -1.90905190 -0.44222823 3 10 24781 5.07400000 1297372672 1297372672 -5.00000000
-6.80282259 -2.77202630 -0.38498330 3 12 24783 7.35600000 1297372676 1297372676 -3.00000000
-9.63417244 -3.91986895 2.78696346 28 15 24786 10.76800000 1297372683 1297372683 15.00000000
-1.78684199 -0.72410858 -0.51660281 4 0 24794 1.99600000 1297372704 1297372704 -15.00000000
-2.04837847 -0.82926261 -0.51018900 4 2 24796 2.26800000 1297372709 1297372709 -13.00000000
-2.38772511 -0.96615815 -0.50068283 3 4 24797 2.62400000 1297372713 1297372713 -11.00000000
-2.85699677 -1.15488172 -0.48807552 2 6 24799 3.12000000 1297372718 1297372718 -9.00000000
-3.54329991 -1.43086684 -0.46919698 3 8 24801 3.85000000 1297372722 1297372722 -7.00000000
-4.70576525 -1.89934206 -0.44397137 3 10 24802 5.09400000 1297372727 1297372727 -5.00000000
-10.09750557 -4.07350826 2.11645341 6 11 24803 11.09200000 1297372729 1297372729 11.00000000
-6.80552721 -2.74408650 -0.38456461 3 12 24804 7.34800000 1297372732 1297372732 -3.00000000
-9.66392422 -3.89271188 2.79162216 38 15 24806 10.78600000 1297372739 1297372739 15.00000000
-1.78935874 -0.71786690 -0.51660281 4 0 24814 1.99600000 1297372759 1297372759 -15.00000000
-2.05126071 -0.82210737 -0.51018900 4 2 24816 2.26800000 1297372764 1297372764 -13.00000000
-2.39108300 -0.95781755 -0.50068283 3 4 24817 2.62400000 1297372768 1297372768 -11.00000000
-2.87201452 -1.14930534 -0.48995274 2 6 24819 3.13200000 1297372773 1297372773 -9.00000000
-3.54827309 -1.41848969 -0.46919698 3 8 24821 3.85000000 1297372778 1297372778 -7.00000000
-4.70126534 -1.87846863 -0.44292548 3 10 24822 5.08200000 1297372782 1297372782 -5.00000000
-10.13536549 -4.04770231 2.12141442 9 11 24823 11.11800000 1297372785 1297372785 11.00000000
-6.83546925 -2.72845864 -0.38571599 3 12 24824 7.37000000 1297372787 1297372787 -3.00000000
-9.66556549 -3.85225892 2.78799868 40 15 24827 10.77200000 1297372794 1297372794 15.00000000
-1.78826272 -0.71019042 -0.51556754 5 0 24834 1.99200000 1297372815 1297372815 -15.00000000
-2.06498623 -0.81925398 -0.51288843 4 2 24836 2.28000000 1297372819 1297372819 -13.00000000
-2.39441180 -0.94946527 -0.50068283 3 4 24837 2.62400000 1297372824 1297372824 -11.00000000
-2.87233591 -1.13781810 -0.48932701 2 6 24839 3.12800000 1297372828 1297372828 -9.00000000
-3.56796932 -1.41193867 -0.47114688 1 8 24841 3.86600000 1297372833 1297372833 -7.00000000
-4.70779371 -1.86204672 -0.44292548 3 10 24842 5.08200000 1297372838 1297372838 -5.00000000
-6.84866667 -2.70604968 -0.38592535 3 12 24844 7.37400000 1297372842 1297372842 -3.00000000
-9.67469215 -3.81876707 2.78696346 42 15 24846 10.76800000 1297372849 1297372849 15.00000000
-1.79073083 -0.70394391 -0.51556754 4 0 24854 1.99200000 1297372870 1297372870 -15.00000000
-2.06057787 -0.80919158 -0.51108879 4 2 24856 2.27200000 1297372874 1297372874 -13.00000000
-2.40867662 -0.94540524 -0.50297248 3 4 24857 2.63600000 1297372879 1297372879 -11.00000000
-2.85054326 -1.11768961 -0.48494685 2 6 24859 3.10000000 1297372884 1297372884 -9.00000000
-3.57657290 -1.40092361 -0.47163436 1 8 24861 3.87000000 1297372888 1297372888 -7.00000000
-4.70313311 -1.84124422 -0.44187963 3 10 24862 5.07000000 1297372893 1297372893 -5.00000000
-6.85063028 -2.67921710 -0.38550666 3 12 24864 7.36600000 1297372897 1297372897 -3.00000000
-9.56985569 -3.73690438 2.75279927 33 15 24867 10.63600000 1297372904 1297372904 15.00000000
-1.79857838 -0.69979024 -0.51712048 4 0 24874 1.99800000 1297372925 1297372925 -15.00000000
-2.06339002 -0.80199391 -0.51108879 4 2 24876 2.27200000 1297372930 1297372930 -13.00000000
-2.40098214 -0.93272614 -0.50068283 3 4 24877 2.62400000 1297372934 1297372934 -11.00000000
-2.86547661 -1.11202061 -0.48682407 2 6 24879 3.11200000 1297372939 1297372939 -9.00000000
-3.58884478 -1.39130056 -0.47260931 3 8 24881 3.87800000 1297372944 1297372944 -7.00000000
-4.73182535 -1.83345413 -0.44397137 3 10 24882 5.09400000 1297372948 1297372948 -5.00000000
-6.85621548 -2.65384555 -0.38529730 3 12 24884 7.36200000 1297372953 1297372953 -3.00000000
-9.69931507 -3.75043583 2.78644586 42 15 24886 10.76600000 1297372960 1297372960 15.00000000
-1.80822134 -0.69628459 -0.51919103 4 0 24894 2.00600000 1297372980 1297372980 -15.00000000
-2.06253910 -0.79338717 -0.51018900 4 2 24896 2.26800000 1297372985 1297372985 -13.00000000
-2.40422320 -0.92433947 -0.50068283 3 4 24897 2.62400000 1297372990 1297372990 -11.00000000
-2.88593745 -1.10838556 -0.48963988 2 6 24899 3.13000000 1297372994 1297372994 -9.00000000
-3.57699919 -1.37236512 -0.47041565 3 8 24901 3.86000000 1297372999 1297372999 -7.00000000
-4.72145367 -1.81050563 -0.44240254 3 10 24902 5.07600000 1297373003 1297373003 -5.00000000
-6.86543751 -2.62989688 -0.38529730 3 12 24904 7.36200000 1297373008 1297373008 -3.00000000
-9.72923470 -3.72107172 2.79110456 40 15 24907 10.78400000 1297373015 1297373015 15.00000000
-1.80329990 -0.68753159 -0.51712048 5 0 24913 1.99800000 1297373036 1297373036 -15.00000000
-2.07244325 -0.78931761 -0.51198858 4 2 24915 2.27600000 1297373040 1297373040 -13.00000000
-2.40360570 -0.91496480 -0.49991956 3 4 24916 2.62000000 1297373045 1297373045 -11.00000000
-2.88590431 -1.09740508 -0.48901415 2 6 24918 3.12600000 1297373050 1297373050 -9.00000000
-3.59452033 -1.36543024 -0.47212183 3 8 24920 3.87400000 1297373054 1297373054 -7.00000000
-4.70694256 -1.78705966 -0.44048512 3 10 24921 5.05400000 1297373059 1297373059 -5.00000000
-6.89279556 -2.61419845 -0.38634402 3 12 24923 7.38200000 1297373063 1297373063 -3.00000000
-9.73907089 -3.68980384 2.79058695 42 15 24925 10.78200000 1297373070 1297373070 15.00000000
-1.79845893 -0.67850506 -0.51504987 4 0 24933 1.99000000 1297373091 1297373091 -15.00000000
-2.08065653 -0.78414029 -0.51333833 4 2 24935 2.28200000 1297373096 1297373096 -13.00000000
-2.40311027 -0.90518498 -0.49915633 3 4 24936 2.61600000 1297373100 1297373100 -11.00000000
-2.88601971 -1.08593333 -0.48838839 2 6 24938 3.12200000 1297373105 1297373105 -9.00000000
-3.58625770 -1.34798563 -0.47041565 3 8 24940 3.86000000 1297373109 1297373109 -7.00000000
-4.72807264 -1.77622390 -0.44187963 3 10 24941 5.07000000 1297373114 1297373114 -5.00000000
-6.90374851 -2.59082389 -0.38644871 3 12 24943 7.38400000 1297373119 1297373119 -3.00000000
-9.73262978 -3.64662766 2.78489304 40 15 24946 10.76000000 1297373126 1297373126 15.00000000
-1.80817366 -0.67460996 -0.51712048 5 0 24954 1.99800000 1297373146 1297373146 -15.00000000
-2.07803845 -0.77446741 -0.51198858 4 2 24956 2.27600000 1297373151 1297373151 -13.00000000
-2.41009140 -0.89774168 -0.49991956 3 4 24957 2.62000000 1297373156 1297373156 -11.00000000
-3.60047770 -1.33829045 -0.47163436 3 8 24961 3.87000000 1297373165 1297373165 -7.00000000
-4.72147751 -1.75402594 -0.44065943 3 10 24962 5.05600000 1297373169 1297373169 -5.00000000
-6.89821815 -2.55994391 -0.38561133 3 12 24964 7.36800000 1297373174 1297373174 -3.00000000
-9.65445518 -3.58087254 2.37728286 15 13 24965 10.56800000 1297373176 1297373176 13.00000000
-9.75254536 -3.61531806 2.78696346 40 15 24966 10.76800000 1297373181 1297373181 15.00000000
-1.81051743 -0.66829419 -0.51712048 4 0 24974 1.99800000 1297373202 1297373202 -15.00000000
-2.07158709 -0.76383811 -0.50973910 4 2 24976 2.26600000 1297373206 1297373206 -13.00000000
-2.42794752 -0.89475441 -0.50297248 3 4 24977 2.63600000 1297373211 1297373211 -11.00000000
-2.88259387 -1.06115925 -0.48651120 2 6 24979 3.11000000 1297373215 1297373215 -9.00000000
-3.60326409 -1.32502913 -0.47139063 3 8 24981 3.86800000 1297373220 1297373220 -7.00000000
-4.74253178 -1.74303269 -0.44205391 6 10 24982 5.07200000 1297373225 1297373225 -5.00000000
-6.89023829 -2.52965403 -0.38466927 3 12 24984 7.35000000 1297373229 1297373229 -3.00000000
-9.71629143 -3.56527543 2.38943005 21 13 24985 10.62200000 1297373232 1297373232 13.00000000
-9.77417374 -3.58457923 2.78955173 40 15 24986 10.77800000 1297373236 1297373236 15.00000000
-1.82372713 -0.66594601 -0.52022630 4 0 24994 2.01000000 1297373257 1297373257 -15.00000000
-2.07057929 -0.75526673 -0.50883931 4 2 24996 2.26200000 1297373262 1297373262 -13.00000000
-2.43105602 -0.88627380 -0.50297248 3 4 24997 2.63600000 1297373266 1297373266 -11.00000000
-2.89370513 -1.05379450 -0.48776266 2 6 24999 3.11800000 1297373271 1297373271 -9.00000000
-3.58175039 -1.30294263 -0.46797827 5 8 25001 3.84000000 1297373275 1297373275 -7.00000000
-4.74671507 -1.72578681 -0.44187963 6 10 25002 5.07000000 1297373280 1297373280 -5.00000000
-6.90278101 -2.50695062 -0.38487864 3 12 25004 7.35400000 1297373285 1297373285 -3.00000000
-9.78912640 -3.55327940 2.40427685 15 13 25005 10.68800000 1297373287 1297373287 13.00000000
-9.78481102 -3.54978037 2.78903413 40 15 25006 10.77600000 1297373291 1297373291 15.00000000
-1.81695580 -0.65629447 -0.51763809 5 0 25014 2.00000000 1297373312 1297373312 -15.00000000
-2.08970070 -0.75398695 -0.51288843 4 2 25016 2.28000000 1297373317 1297373317 -13.00000000
-2.41936016 -0.87245446 -0.49991956 3 4 25017 2.62000000 1297373321 1297373321 -11.00000000
-2.90479970 -1.04636502 -0.48901415 2 6 25019 3.12600000 1297373326 1297373326 -9.00000000
-3.59001255 -1.29177630 -0.46846575 7 8 25021 3.84400000 1297373331 1297373331 -7.00000000
-4.75458479 -1.70988131 -0.44205391 3 10 25022 5.07200000 1297373335 1297373335 -5.00000000
-6.92088795 -2.48621631 -0.38540199 3 12 25024 7.36400000 1297373340 1297373340 -3.00000000
-9.80139256 -3.51519775 2.79006934 45 15 25027 10.78000000 1297373347 1297373347 15.00000000
-1.81559718 -0.64864820 -0.51660281 5 0 25034 1.99600000 1297373368 1297373368 -15.00000000
-2.08681369 -0.74472296 -0.51153868 4 2 25036 2.27400000 1297373372 1297373372 -13.00000000
-2.42978740 -0.86664224 -0.50144607 3 4 25037 2.62800000 1297373377 1297373377 -11.00000000
-2.91587782 -1.03887081 -0.49026561 2 6 25039 3.13400000 1297373381 1297373381 -9.00000000
-3.62068248 -1.28855503 -0.47187811 5 8 25041 3.87200000 1297373386 1297373386 -7.00000000
-4.76240158 -1.69394207 -0.44222823 3 10 25042 5.07400000 1297373391 1297373391 -5.00000000
-6.94269848 -2.46672344 -0.38613468 3 12 25044 7.37800000 1297373395 1297373395 -3.00000000
-9.79843044 -3.47750664 2.78592825 40 15 25046 10.76400000 1297373402 1297373402 15.00000000
-1.81967175 -0.64295024 -0.51712048 5 0 25054 1.99800000 1297373423 1297373423 -15.00000000
-2.08205009 -0.73483980 -0.50973910 4 2 25056 2.26600000 1297373427 1297373427 -13.00000000
-2.43650079 -0.85946155 -0.50220925 3 4 25057 2.63200000 1297373432 1297373432 -11.00000000
-2.90458155 -1.02343440 -0.48776266 2 6 25059 3.11800000 1297373437 1297373437 -9.00000000
-3.62890315 -1.27722669 -0.47236559 5 8 25061 3.87600000 1297373441 1297373441 -7.00000000
-4.77016544 -1.67796898 -0.44240254 3 10 25062 5.07600000 1297373446 1297373446 -5.00000000
-6.93996048 -2.43850136 -0.38550666 3 12 25064 7.36600000 1297373450 1297373450 -3.00000000
-9.81780148 -3.44584179 2.78799868 40 15 25066 10.77200000 1297373457 1297373457 15.00000000
-1.83284736 -0.64041787 -0.52022630 4 0 25074 2.01000000 1297373478 1297373478 -15.00000000
-2.08092260 -0.72628325 -0.50883931 4 2 25076 2.26200000 1297373483 1297373483 -13.00000000
-2.43948603 -0.85095137 -0.50220925 3 4 25077 2.63200000 1297373487 1297373487 -11.00000000
-2.90440536 -1.01198936 -0.48713693 2 6 25079 3.11400000 1297373492 1297373492 -9.00000000
-3.62584043 -1.26194167 -0.47139063 5 8 25081 3.86800000 1297373496 1297373496 -7.00000000
-4.79104757 -1.66654432 -0.44379705 3 10 25082 5.09200000 1297373501 1297373501 -5.00000000
-6.96163654 -2.41885018 -0.38623935 3 12 25084 7.38000000 1297373506 1297373506 -3.00000000
-9.84254551 -3.41598415 2.79162216 40 15 25086 10.78600000 1297373513 1297373513 15.00000000
-1.83141983 -0.63275445 -0.51919103 5 0 25094 2.00600000 1297373533 1297373533 -15.00000000
-2.09081364 -0.72155803 -0.51063889 4 2 25096 2.27000000 1297373538 1297373538 -13.00000000
-2.43130565 -0.83858991 -0.49991956 3 4 25097 2.62000000 1297373543 1297373543 -11.00000000
-2.93033195 -1.00956631 -0.49089134 2 6 25099 3.13800000 1297373547 1297373547 -9.00000000
-3.62271500 -1.24669361 -0.47041565 5 8 25101 3.86000000 1297373552 1297373552 -7.00000000
-4.78741550 -1.64657032 -0.44292548 6 10 25102 5.08200000 1297373556 1297373556 -5.00000000
-6.94359303 -2.38544989 -0.38477394 3 12 25104 7.35200000 1297373561 1297373561 -3.00000000
-9.84586239 -3.37675285 2.78903413 40 15 25107 10.77600000 1297373568 1297373568 15.00000000
-1.82985198 -0.62542814 -0.51815575 5 0 25113 2.00200000 1297373589 1297373589 -15.00000000
-2.09872770 -0.71650952 -0.51198858 4 2 25115 2.27600000 1297373593 1297373593 -13.00000000
-2.44150543 -0.83305871 -0.50144607 3 4 25116 2.62800000 1297373598 1297373598 -11.00000000
-2.93366361 -0.99984342 -0.49089134 2 6 25118 3.13800000 1297373602 1297373602 -9.00000000
-3.62682939 -1.23467338 -0.47041565 5 8 25120 3.86000000 1297373607 1297373607 -7.00000000
-4.76644230 -1.62170112 -0.44048512 6 10 25121 5.05400000 1297373612 1297373612 -5.00000000
-6.97793961 -2.37140822 -0.38623935 3 12 25123 7.38000000 1297373616 1297373616 -3.00000000
-9.84544659 -3.34207869 2.78592825 42 15 25125 10.76400000 1297373623 1297373623 15.00000000
-1.82287300 -0.61594486 -0.51556754 4 0 25133 1.99200000 1297373644 1297373644 -15.00000000
-2.09567666 -0.70730966 -0.51063889 4 2 25135 2.27000000 1297373648 1297373648 -13.00000000
-2.44439840 -0.82453120 -0.50144607 3 4 25136 2.62800000 1297373653 1297373653 -11.00000000
-2.92964792 -0.98707408 -0.48963988 2 6 25138 3.13000000 1297373658 1297373658 -9.00000000
-3.64240551 -1.22580481 -0.47187811 5 8 25140 3.87200000 1297373662 1297373662 -7.00000000
-4.78151655 -1.60822904 -0.44135669 3 10 25141 5.06400000 1297373667 1297373667 -5.00000000
-6.98617506 -2.34703612 -0.38623935 3 12 25143 7.38000000 1297373672 1297373672 -3.00000000
-9.84606361 -3.30400372 2.78282237 40 15 25145 10.75200000 1297373678 1297373678 15.00000000
-1.82695079 -0.60987127 -0.51608515 4 0 25154 1.99400000 1297373699 1297373699 -15.00000000
-2.10934711 -0.70332235 -0.51333833 4 2 25156 2.28200000 1297373704 1297373704 -13.00000000
-2.45112920 -0.81680787 -0.50220925 3 4 25157 2.63200000 1297373708 1297373708 -11.00000000
-2.92574906 -0.97383434 -0.48838839 2 6 25159 3.12200000 1297373713 1297373713 -9.00000000
-3.64687371 -1.21244657 -0.47187811 5 8 25161 3.87200000 1297373718 1297373718 -7.00000000
-4.80628633 -1.59697545 -0.44309980 3 10 25162 5.08400000 1297373722 1297373722 -5.00000000
-7.71695042 -2.56110549 -0.42611936 85 12 25164 8.14200000 1297373727 1297373727 -3.00000000
-9.86234474 -3.26738834 2.78385758 38 15 25167 10.75600000 1297373734 1297373734 15.00000000
-1.83640683 -0.60591155 -0.51815575 4 0 25174 2.00200000 1297373754 1297373754 -15.00000000
-2.10253525 -0.69290531 -0.51108879 4 2 25176 2.27200000 1297373759 1297373759 -13.00000000
-2.46515393 -0.81193185 -0.50449896 3 4 25177 2.64400000 1297373764 1297373764 -11.00000000
-2.93663621 -0.96608490 -0.48963988 2 6 25179 3.13000000 1297373768 1297373768 -9.00000000
-3.64731193 -1.19846988 -0.47139063 5 8 25181 3.86800000 1297373773 1297373773 -7.00000000
-4.82318926 -1.58391845 -0.44414568 3 10 25182 5.09600000 1297373778 1297373778 -5.00000000
-7.04264450 -2.31005669 -0.38843748 50 12 25184 7.42200000 1297373782 1297373782 -3.00000000
-9.87368965 -3.23294258 2.78385758 38 15 25187 10.75600000 1297373789 1297373789 15.00000000
-1.84402061 -0.60129428 -0.51970863 5 0 25194 2.00800000 1297373810 1297373810 -15.00000000
-2.10494113 -0.68556190 -0.51108879 4 2 25196 2.27200000 1297373814 1297373814 -13.00000000
-2.45677185 -0.79967600 -0.50220925 3 4 25197 2.63200000 1297373819 1297373819 -11.00000000
-2.94750500 -0.95827121 -0.49089134 2 6 25199 3.13800000 1297373824 1297373824 -9.00000000
-3.64014506 -1.18205249 -0.46992818 5 8 25201 3.85600000 1297373828 1297373828 -7.00000000
-4.82679367 -1.56645775 -0.44397137 3 10 25202 5.09400000 1297373833 1297373833 -5.00000000
-9.88859081 -3.19964671 2.78489304 40 15 25207 10.76000000 1297373844 1297373844 15.00000000
-1.84059203 -0.59307635 -0.51815575 4 0 25214 2.00200000 1297373865 1297373865 -15.00000000
-2.11103153 -0.67940408 -0.51198858 4 2 25216 2.27600000 1297373870 1297373870 -13.00000000
-2.45581031 -0.78989309 -0.50144607 3 4 25217 2.62800000 1297373874 1297373874 -11.00000000
-2.94895124 -0.94737250 -0.49057847 2 6 25219 3.13600000 1297373879 1297373879 -9.00000000
-3.65937042 -1.17419076 -0.47187811 5 8 25221 3.87200000 1297373884 1297373884 -7.00000000
-4.82274580 -1.54655755 -0.44309980 3 10 25222 5.08400000 1297373888 1297373888 -5.00000000
-7.01294994 -2.24621248 -0.38592535 7 12 25224 7.37400000 1297373893 1297373893 -3.00000000
-9.89233971 -3.16275620 2.78282237 45 15 25227 10.75200000 1297373900 1297373900 15.00000000
-1.84081030 -0.58606178 -0.51763809 4 0 25234 2.00000000 1297373920 1297373920 -15.00000000
-2.11710429 -0.67321217 -0.51288843 4 2 25236 2.28000000 1297373925 1297373925 -13.00000000
-2.45481062 -0.78012669 -0.50068283 3 4 25237 2.62400000 1297373930 1297373930 -11.00000000
-2.94847465 -0.93587768 -0.48995274 2 6 25239 3.13200000 1297373934 1297373934 -9.00000000
-3.67101574 -1.16380966 -0.47285306 5 8 25241 3.88000000 1297373939 1297373939 -7.00000000
-4.81861830 -1.52670467 -0.44222823 6 10 25242 5.07400000 1297373943 1297373943 -5.00000000
-7.02455616 -2.22292423 -0.38613468 7 12 25244 7.37800000 1297373948 1297373948 -3.00000000
-9.88987827 -3.12585926 2.77919888 38 15 25246 10.73800000 1297373955 1297373955 15.00000000
-1.84100199 -0.57905298 -0.51712048 4 0 25254 1.99800000 1297373976 1297373976 -15.00000000
-2.11944151 -0.66581798 -0.51288843 4 2 25256 2.28000000 1297373980 1297373980 -13.00000000
-2.46501112 -0.77390534 -0.50220925 3 4 25257 2.63200000 1297373985 1297373985 -11.00000000
-2.92910504 -0.91848731 -0.48619831 2 6 25259 3.10800000 1297373989 1297373989 -9.00000000
-3.67884469 -1.15217495 -0.47334054 5 8 25261 3.88400000 1297373994 1297373994 -7.00000000
-4.83722830 -1.51404130 -0.44344842 3 10 25262 5.08800000 1297373999 1297373999 -5.00000000
-7.03989792 -2.20077419 -0.38655338 7 12 25264 7.38600000 1297374003 1297374003 -3.00000000
-9.90495777 -3.09074092 2.78023410 40 15 25267 10.74200000 1297374010 1297374010 15.00000000
-1.85039139 -0.57491595 -0.51919103 5 0 25274 2.00600000 1297374031 1297374031 -15.00000000
-2.10500193 -0.65321767 -0.50883931 4 2 25276 2.26200000 1297374036 1297374036 -13.00000000
-2.46769762 -0.76529616 -0.50220925 3 4 25277 2.63200000 1297374040 1297374040 -11.00000000
-2.94361496 -0.91176403 -0.48807552 2 6 25279 3.12000000 1297374045 1297374045 -9.00000000
-3.66767263 -1.13463295 -0.47139063 5 8 25281 3.86800000 1297374049 1297374049 -7.00000000
-4.85009766 -1.49950099 -0.44414568 6 10 25282 5.09600000 1297374054 1297374054 -5.00000000
-7.03990412 -2.17382979 -0.38613468 7 12 25284 7.37800000 1297374059 1297374059 -3.00000000
-9.78342819 -3.01912379 2.36378574 12 13 25285 10.50800000 1297374061 1297374061 13.00000000
-9.85792446 -3.04022861 2.76418734 21 15 25286 10.68000000 1297374066 1297374066 15.00000000
-1.85423386 -0.56902009 -0.51970863 4 0 25294 2.00800000 1297374086 1297374086 -15.00000000
-2.11658525 -0.64872116 -0.51108879 4 2 25296 2.27200000 1297374091 1297374091 -13.00000000
-2.47035408 -0.75667763 -0.50220925 3 4 25297 2.63200000 1297374095 1297374095 -11.00000000
-2.94677949 -0.90148336 -0.48807552 2 6 25299 3.12000000 1297374100 1297374100 -9.00000000
-3.67920470 -1.12414360 -0.47236559 5 8 25301 3.87600000 1297374105 1297374105 -7.00000000
-4.85720778 -1.48314369 -0.44431996 3 10 25302 5.09800000 1297374109 1297374109 -5.00000000
-7.68934202 -2.34499907 -0.42130443 97 12 25304 8.05000000 1297374114 1297374114 -3.00000000
-9.80136395 -2.98722744 2.36558533 28 13 25305 10.51600000 1297374116 1297374116 13.00000000
-9.82095051 -2.98945069 2.75072885 23 15 25307 10.62800000 1297374121 1297374121 15.00000000
-1.84511590 -0.55918235 -0.51660281 4 0 25314 1.99600000 1297374142 1297374142 -15.00000000
-2.12070203 -0.64189351 -0.51153868 4 2 25316 2.27400000 1297374146 1297374146 -13.00000000
-2.46922183 -0.74691302 -0.50144607 3 4 25317 2.62800000 1297374151 1297374151 -11.00000000
-2.94990849 -0.89119166 -0.48807552 2 6 25319 3.12000000 1297374155 1297374155 -9.00000000
-3.67550445 -1.10900033 -0.47139063 5 8 25321 3.86800000 1297374160 1297374160 -7.00000000
-4.84709501 -1.46157825 -0.44292548 6 10 25322 5.08200000 1297374165 1297374165 -5.00000000
-9.80240154 -2.95018792 2.36333585 31 13 25325 10.50600000 1297374172 1297374172 13.00000000
-9.80860996 -2.95018959 2.74451709 21 15 25326 10.60400000 1297374176 1297374176 15.00000000
-1.84890735 -0.55329210 -0.51712048 4 0 25334 1.99800000 1297374197 1297374197 -15.00000000
-2.12853098 -0.63616109 -0.51288843 4 2 25336 2.28000000 1297374201 1297374201 -13.00000000
-2.47933865 -0.74053669 -0.50297248 3 4 25337 2.63600000 1297374206 1297374206 -11.00000000
-2.95300126 -0.88088912 -0.48807552 2 6 25339 3.12000000 1297374211 1297374211 -9.00000000
-3.67935324 -1.09616363 -0.47139063 5 8 25341 3.86800000 1297374215 1297374215 -7.00000000
-4.85216713 -1.44464982 -0.44292548 3 10 25342 5.08200000 1297374220 1297374220 -5.00000000
-7.08334064 -2.10625196 -0.38728607 7 12 25344 7.40000000 1297374224 1297374224 -3.00000000
-9.90454960 -2.93950295 2.76832843 23 15 25347 10.69600000 1297374231 1297374231 15.00000000
-1.84887934 -0.54661018 -0.51660281 4 0 25353 1.99600000 1297374252 1297374252 -15.00000000
-2.12502193 -0.62744361 -0.51153868 4 2 25355 2.27400000 1297374257 1297374257 -13.00000000
-2.48554659 -0.73342210 -0.50373572 3 4 25356 2.64000000 1297374261 1297374261 -11.00000000
-2.94453740 -0.86774147 -0.48619831 2 6 25358 3.10800000 1297374266 1297374266 -9.00000000
-3.69629836 -1.08787978 -0.47309679 5 8 25360 3.88200000 1297374271 1297374271 -7.00000000
-4.86839962 -1.43192470 -0.44397137 3 10 25361 5.09400000 1297374275 1297374275 -5.00000000
-10.02813053 -2.94763613 2.03173423 6 11 25362 10.64800000 1297374277 1297374277 11.00000000
-7.09795141 -2.08500290 -0.38770476 3 12 25363 7.40800000 1297374280 1297374280 -3.00000000
-9.94339466 -2.91707373 2.77661061 40 15 25365 10.72800000 1297374287 1297374287 15.00000000
-1.85819411 -0.54231799 -0.51867336 5 0 25373 2.00400000 1297374307 1297374307 -15.00000000
-2.10849047 -0.61456889 -0.50703967 4 2 25375 2.25400000 1297374312 1297374312 -13.00000000
-2.49563122 -0.72693765 -0.50526220 3 4 25376 2.64800000 1297374317 1297374317 -11.00000000
-2.96272230 -0.86187202 -0.48870125 2 6 25378 3.12400000 1297374321 1297374321 -9.00000000
-3.69435430 -1.07330918 -0.47236559 5 8 25380 3.87600000 1297374326 1297374326 -7.00000000
-4.87910843 -1.41658866 -0.44449428 3 10 25381 5.10000000 1297374330 1297374330 -5.00000000
-10.12886238 -2.93887281 2.05005193 9 11 25382 10.74400000 1297374333 1297374333 11.00000000
-7.08983994 -2.05576396 -0.38686737 3 12 25383 7.39200000 1297374335 1297374335 -3.00000000
-9.94288540 -2.87738752 2.77350497 38 15 25386 10.71600000 1297374342 1297374342 15.00000000
-1.86193216 -0.53636312 -0.51919103 5 0 25393 2.00600000 1297374363 1297374363 -15.00000000
-2.12560511 -0.61151540 -0.51063889 4 2 25395 2.27000000 1297374367 1297374367 -13.00000000
-2.49060631 -0.71605200 -0.50373572 3 4 25396 2.64000000 1297374372 1297374372 -11.00000000
-2.96951008 -0.85261524 -0.48932701 2 6 25398 3.12800000 1297374377 1297374377 -9.00000000
-3.69044566 -1.05821824 -0.47139063 5 8 25400 3.86800000 1297374381 1297374381 -7.00000000
-4.86487055 -1.39406037 -0.44275117 3 10 25401 5.08000000 1297374386 1297374386 -5.00000000
-10.28438854 -2.94511604 2.07943654 9 11 25402 10.89800000 1297374388 1297374388 11.00000000
-7.09889317 -2.03155279 -0.38697207 3 12 25403 7.39400000 1297374390 1297374390 -3.00000000
-10.37238121 -2.96639729 2.49065804 30 13 25404 11.07200000 1297374393 1297374393 13.00000000
-9.94680023 -2.84280729 2.77195191 40 15 25405 10.71000000 1297374397 1297374397 15.00000000
-1.86193478 -0.52933222 -0.51867336 5 0 25413 2.00400000 1297374418 1297374418 -15.00000000
-2.13335061 -0.60568863 -0.51198858 4 2 25415 2.27600000 1297374423 1297374423 -13.00000000
-2.48553586 -0.70521027 -0.50220925 3 4 25416 2.63200000 1297374427 1297374427 -11.00000000
-2.98767257 -0.84655267 -0.49182996 3 6 25418 3.14400000 1297374432 1297374432 -9.00000000
-3.70557761 -1.04857278 -0.47285306 7 8 25420 3.88000000 1297374436 1297374436 -7.00000000
-4.88887930 -1.38249183 -0.44449428 3 10 25421 5.10000000 1297374441 1297374441 -5.00000000
-10.39095879 -2.93642759 2.09889889 18 11 25422 11.00000000 1297374443 1297374443 11.00000000
-7.12131786 -2.01110315 -0.38780943 3 12 25423 7.41000000 1297374446 1297374446 -3.00000000
-10.38267231 -2.93017292 2.49065804 30 13 25424 11.07200000 1297374448 1297374448 13.00000000
-9.95343399 -2.80528331 2.77091670 38 15 25426 10.70600000 1297374453 1297374453 15.00000000
-1.85633099 -0.52074248 -0.51660281 4 0 25433 1.99600000 1297374473 1297374473 -15.00000000
