# .PCD v0.7 - Point Cloud Data file format
VERSION 0.7
FIELDS x y z intensity laser_id azimuth distance_m adjustedtime timestamp vertical_angle
SIZE 4 4 4 1 1 2 8 8 4 8
TYPE F F F U U U F U U F
COUNT 1 1 1 1 1 1 1 1 1 1
WIDTH 540
HEIGHT 1
VIEWPOINT 0 0 0 1 0 0 0
POINTS 540
DATA ascii
0.44719163 3.72812223 0.19678320 66 3 684 3.76000000 1297405723 1297405723 3.00000000
0.38003880 3.16361690 -0.61936599 2 4 685 3.24600000 1297405725 1297405725 -11.00000000
0.44835135 3.72678900 0.32840285 67 5 686 3.76800000 1297405728 1297405728 5.00000000
0.48439175 4.02044725 -0.64138132 2 6 687 4.10000000 1297405730 1297405730 -9.00000000
0.45371246 3.76028275 0.46505341 63 7 688 3.81600000 1297405732 1297405732 7.00000000
0.64535600 5.34075022 -0.66053182 2 8 689 5.42000000 1297405735 1297405735 -7.00000000
0.49643132 4.10228729 -0.36152202 9 10 690 4.14800000 1297405739 1297405739 -5.00000000
1.27901947 10.55380249 2.06646132 56 11 691 10.83000000 1297405741 1297405741 11.00000000
0.44950899 3.70370173 -0.19552714 3 12 692 3.73600000 1297405744 1297405744 -3.00000000
1.24476981 10.24126053 2.38178182 60 13 693 10.58800000 1297405746 1297405746 13.00000000
0.45231819 3.71600246 -0.06534181 73 14 694 3.74400000 1297405748 1297405748 -1.00000000
1.07085502 8.78478527 2.37129998 45 15 695 9.16200000 1297405751 1297405751 15.00000000
0.27584875 2.24337053 -0.60563654 4 0 701 2.34000000 1297405771 1297405771 -15.00000000
0.45603991 3.70345902 0.06513238 6 1 702 3.73200000 1297405774 1297405774 1.00000000
0.32579702 2.64196682 -0.61456627 3 2 703 2.73200000 1297405776 1297405776 -13.00000000
0.46052983 3.73454785 0.19720188 76 3 703 3.76800000 1297405778 1297405778 3.00000000
0.39245263 3.17792702 -0.62241894 2 4 704 3.26200000 1297405781 1297405781 -11.00000000
0.46168551 3.73319101 0.32910007 63 5 705 3.77600000 1297405783 1297405783 5.00000000
0.49480790 3.99529386 -0.63762689 2 6 706 4.07600000 1297405785 1297405785 -9.00000000
0.46520218 3.75087762 0.46407846 65 7 707 3.80800000 1297405787 1297405787 7.00000000
0.66306305 5.33858061 -0.66053182 2 8 708 5.42000000 1297405790 1297405790 -7.00000000
0.50806493 4.08480120 -0.36012754 18 10 709 4.13200000 1297405794 1297405794 -5.00000000
1.31401002 10.54950333 2.06646132 53 11 710 10.83000000 1297405797 1297405797 11.00000000
0.46277729 3.71011829 -0.19594581 3 12 711 3.74400000 1297405799 1297405799 -3.00000000
1.27920735 10.24094296 2.38268161 64 13 712 10.59200000 1297405801 1297405801 13.00000000
0.46290097 3.70059252 -0.06509747 100 14 713 3.73000000 1297405804 1297405804 -1.00000000
1.09892750 8.78521156 2.37233543 42 15 713 9.16600000 1297405806 1297405806 15.00000000
0.28295049 2.23664427 -0.60408366 3 0 721 2.33400000 1297405827 1297405827 -15.00000000
0.47047251 3.71374774 0.06534181 6 1 722 3.74400000 1297405829 1297405829 1.00000000
0.33403620 2.63308048 -0.61276668 3 2 723 2.72400000 1297405831 1297405831 -13.00000000
0.47255757 3.72499204 0.19678320 76 3 723 3.76000000 1297405834 1297405834 3.00000000
0.40403810 3.18043280 -0.62318218 2 4 724 3.26600000 1297405836 1297405836 -11.00000000
0.47546828 3.73748612 0.32962301 60 5 725 3.78200000 1297405838 1297405838 5.00000000
0.51124740 4.01313782 -0.64075559 2 6 726 4.09600000 1297405840 1297405840 -9.00000000
0.47778997 3.74529243 0.46359098 65 7 727 3.80400000 1297405843 1297405843 7.00000000
0.68420959 5.35592461 -0.66296923 2 8 728 5.44000000 1297405845 1297405845 -7.00000000
1.35132563 10.54874706 2.06722474 53 11 730 10.83400000 1297405852 1297405852 11.00000000
0.47470868 3.70055628 -0.19552714 4 12 731 3.73600000 1297405854 1297405854 -3.00000000
1.31395388 10.22868443 2.38088202 62 13 732 10.58400000 1297405857 1297405857 13.00000000
1.13334084 8.79836845 2.37699413 45 15 734 9.18400000 1297405861 1297405861 15.00000000
0.29175273 2.24330592 -0.60615420 3 0 741 2.34200000 1297405882 1297405882 -15.00000000
0.48240009 3.70415092 0.06520219 6 1 742 3.73600000 1297405884 1297405884 1.00000000
0.34574533 2.65122223 -0.61726570 3 2 743 2.74400000 1297405887 1297405887 -13.00000000
0.48543134 3.71729374 0.19646917 71 3 744 3.75400000 1297405889 1297405889 3.00000000
0.41564587 3.18289661 -0.62394542 2 4 744 3.27000000 1297405891 1297405891 -11.00000000
0.49057832 3.75160813 0.33101752 72 5 745 3.79800000 1297405893 1297405893 5.00000000
0.52473980 4.00741148 -0.64012980 2 6 746 4.09200000 1297405896 1297405896 -9.00000000
0.49215093 3.75344324 0.46480969 58 7 747 3.81400000 1297405898 1297405898 7.00000000
0.70445162 5.36531305 -0.66443163 2 8 748 5.45200000 1297405900 1297405900 -7.00000000
0.64357185 4.89501524 -0.43194386 15 10 749 4.95600000 1297405905 1297405905 -5.00000000
1.38967693 10.55564404 2.06951427 53 11 750 10.84600000 1297405907 1297405907 11.00000000
0.48579586 3.68501592 -0.19479443 4 12 751 3.72200000 1297405910 1297405910 -3.00000000
1.34761035 10.20858002 2.37728286 60 13 752 10.56800000 1297405912 1297405912 13.00000000
1.16200471 8.79073143 2.37595892 45 15 753 9.18000000 1297405917 1297405917 15.00000000
0.29804653 2.23078489 -0.60304838 3 0 761 2.33000000 1297405937 1297405937 -15.00000000
0.49585739 3.70640874 0.06527200 6 1 762 3.74000000 1297405940 1297405940 1.00000000
0.35551521 2.65386224 -0.61816549 3 2 763 2.74800000 1297405942 1297405942 -13.00000000
0.49999735 3.72745371 0.19709721 71 3 764 3.76600000 1297405944 1297405944 3.00000000
0.42675370 3.18142629 -0.62394542 2 4 764 3.27000000 1297405946 1297405946 -11.00000000
0.50234473 3.73999977 0.33014596 67 5 765 3.78800000 1297405949 1297405949 5.00000000
0.54293799 4.03687906 -0.64513576 2 6 766 4.12400000 1297405951 1297405951 -9.00000000
0.50577980 3.75563693 0.46529716 58 7 767 3.81800000 1297405953 1297405953 7.00000000
0.72264516 5.35888672 -0.66394418 2 8 768 5.44800000 1297405956 1297405956 -7.00000000
0.66065472 4.89273930 -0.43194386 15 10 769 4.95600000 1297405960 1297405960 -5.00000000
1.42704058 10.55461979 2.07027769 53 11 770 10.85000000 1297405963 1297405963 11.00000000
0.49945986 3.68923521 -0.19510844 3 12 771 3.72800000 1297405965 1297405965 -3.00000000
1.38323677 10.20381355 2.37728286 60 13 772 10.56800000 1297405967 1297405967 13.00000000
0.50351018 3.70941281 -0.06534181 64 14 773 3.74400000 1297405970 1297405970 -1.00000000
1.19317579 8.77875710 2.37388825 45 15 774 9.17200000 1297405972 1297405972 15.00000000
0.30753502 2.23924685 -0.60563654 4 0 782 2.34000000 1297405993 1297405993 -15.00000000
0.51025599 3.71050954 0.06537671 6 1 783 3.74600000 1297405995 1297405995 1.00000000
0.36417642 2.64481926 -0.61636591 3 2 784 2.74000000 1297405997 1297405997 -13.00000000
0.51420134 3.72955322 0.19730656 81 3 785 3.77000000 1297405999 1297405999 3.00000000
0.43841136 3.17984080 -0.62394542 2 4 785 3.27000000 1297406002 1297406002 -11.00000000
0.51468682 3.72826505 0.32927439 57 5 786 3.77800000 1297406004 1297406004 5.00000000
0.55448449 4.01138115 -0.64138132 2 6 787 4.10000000 1297406006 1297406006 -9.00000000
0.52035797 3.75965714 0.46602836 63 7 788 3.82400000 1297406009 1297406009 7.00000000
0.74882156 5.40339327 -0.66979390 2 8 789 5.49600000 1297406011 1297406011 -7.00000000
0.67529696 4.86660290 -0.42985213 12 10 790 4.93200000 1297406016 1297406016 -5.00000000
1.46571565 10.54931927 2.07027769 53 11 791 10.85000000 1297406018 1297406018 11.00000000
0.51628065 3.71111822 -0.19636451 3 12 792 3.75200000 1297406020 1297406020 -3.00000000
1.42223942 10.21025562 2.37998223 59 13 793 10.58000000 1297406023 1297406023 13.00000000
1.22247779 8.76497173 2.37129998 45 15 794 9.16200000 1297406027 1297406027 15.00000000
0.31454098 2.23242092 -0.60408366 4 0 802 2.33400000 1297406048 1297406048 -15.00000000
0.52348429 3.71068597 0.06541162 6 1 803 3.74800000 1297406050 1297406050 1.00000000
0.37395146 2.64739108 -0.61726570 3 2 804 2.74400000 1297406052 1297406052 -13.00000000
0.52805585 3.73366833 0.19762057 79 3 805 3.77600000 1297406055 1297406055 3.00000000
0.45115796 3.18995452 -0.62623513 2 4 805 3.28200000 1297406057 1297406057 -11.00000000
0.52937388 3.73828197 0.33032027 69 5 806 3.79000000 1297406059 1297406059 5.00000000
0.56959265 4.01724434 -0.64263278 2 6 807 4.10800000 1297406062 1297406062 -9.00000000
0.53264141 3.75192165 0.46529716 61 7 808 3.81800000 1297406064 1297406064 7.00000000
0.75985634 5.34571695 -0.66296923 2 8 809 5.44000000 1297406066 1297406066 -7.00000000
0.59262127 4.16397429 -0.36797154 9 10 810 4.22200000 1297406071 1297406071 -5.00000000
1.50142288 10.53636360 2.06875110 53 11 811 10.84200000 1297406073 1297406073 11.00000000
0.53092438 3.72115707 -0.19699255 3 12 812 3.76400000 1297406075 1297406075 -3.00000000
1.45621765 10.19365406 2.37728286 59 13 813 10.56800000 1297406078 1297406078 13.00000000
0.53202307 3.71957183 -0.06558614 8 14 814 3.75800000 1297406080 1297406080 -1.00000000
1.25486875 8.76234436 2.37181783 45 15 815 9.16400000 1297406082 1297406082 15.00000000
0.32288408 2.23513341 -0.60511893 4 0 822 2.33800000 1297406103 1297406103 -15.00000000
0.53672010 3.71081495 0.06544653 6 1 823 3.75000000 1297406105 1297406105 1.00000000
0.38374889 2.64992690 -0.61816549 3 2 824 2.74800000 1297406108 1297406108 -13.00000000
0.54051238 3.72784925 0.19741122 73 3 825 3.77200000 1297406110 1297406110 3.00000000
0.46116340 3.18058848 -0.62470865 2 4 825 3.27400000 1297406112 1297406112 -11.00000000
0.54241973 3.73641133 0.33032027 57 5 826 3.79000000 1297406115 1297406115 5.00000000
0.58531678 4.02696037 -0.64450997 2 6 827 4.12000000 1297406117 1297406117 -9.00000000
0.54544890 3.74807501 0.46505341 65 7 828 3.81600000 1297406119 1297406119 7.00000000
0.78022903 5.35481834 -0.66443163 2 8 829 5.45200000 1297406122 1297406122 -7.00000000
0.60024995 4.11456347 -0.36378807 9 10 830 4.17400000 1297406126 1297406126 -5.00000000
1.53932750 10.53882885 2.07027769 53 11 831 10.85000000 1297406128 1297406128 11.00000000
0.54159832 3.70347118 -0.19615516 1 12 832 3.74800000 1297406131 1297406131 -3.00000000
1.49179137 10.18850899 2.37728286 59 13 833 10.56800000 1297406133 1297406133 13.00000000
0.54906422 3.74539161 -0.06607481 8 14 834 3.78600000 1297406135 1297406135 -1.00000000
1.28503966 8.76578045 2.37388825 45 15 834 9.17200000 1297406138 1297406138 15.00000000
0.33181569 2.24163675 -0.60718948 3 0 842 2.34600000 1297406158 1297406158 -15.00000000
0.55054945 3.71485329 0.06555124 6 1 843 3.75600000 1297406161 1297406161 1.00000000
0.39013630 2.62929487 -0.61366647 3 2 844 2.72800000 1297406163 1297406163 -13.00000000
0.55264127 3.72001290 0.19709721 71 3 845 3.76600000 1297406165 1297406165 3.00000000
0.47341686 3.18672705 -0.62623513 2 4 845 3.28200000 1297406168 1297406168 -11.00000000
0.55692452 3.74434876 0.33119181 61 5 846 3.80000000 1297406170 1297406170 5.00000000
0.82398820 5.53325081 -0.88604480 6 6 847 5.66400000 1297406172 1297406172 -9.00000000
0.55940700 3.75203848 0.46578464 58 7 848 3.82200000 1297406175 1297406175 7.00000000
1.04333866 6.98948669 -0.86770970 4 8 849 7.12000000 1297406177 1297406177 -7.00000000
1.57668650 10.53727531 2.07104087 56 11 851 10.85400000 1297406184 1297406184 11.00000000
0.55629802 3.71340942 -0.19678320 3 12 852 3.76000000 1297406186 1297406186 -3.00000000
1.52503431 10.16782188 2.37368345 59 13 853 10.55200000 1297406188 1297406188 13.00000000
0.55886829 3.72169948 -0.06569086 8 14 854 3.76400000 1297406191 1297406191 -1.00000000
1.31888247 8.77247429 2.37699413 45 15 855 9.18400000 1297406193 1297406193 15.00000000
0.33972299 2.24631357 -0.60874242 4 0 860 2.35200000 1297406214 1297406214 -15.00000000
0.56431288 3.72694540 0.06579557 6 1 861 3.77000000 1297406216 1297406216 1.00000000
0.40073115 2.64347005 -0.61726570 3 2 862 2.74400000 1297406218 1297406218 -13.00000000
0.56552404 3.72615695 0.19751590 87 3 863 3.77400000 1297406221 1297406221 3.00000000
0.48106918 3.16969585 -0.62318218 2 4 863 3.26600000 1297406223 1297406223 -11.00000000
0.56868494 3.74258065 0.33119181 66 5 864 3.80000000 1297406225 1297406225 5.00000000
0.84077311 5.52672911 -0.88541907 9 6 865 5.66000000 1297406228 1297406228 -9.00000000
0.57178938 3.75418735 0.46627212 61 7 866 3.82600000 1297406230 1297406230 7.00000000
1.06589007 6.99009943 -0.86819720 6 8 867 7.12400000 1297406232 1297406232 -7.00000000
0.62391716 4.08685732 -0.36169633 100 10 868 4.15000000 1297406237 1297406237 -5.00000000
1.61156225 10.54391384 2.07333064 56 11 869 10.86600000 1297406239 1297406239 11.00000000
0.56856549 3.71559191 -0.19699255 1 12 870 3.76400000 1297406241 1297406241 -3.00000000
1.55637968 10.15912819 2.37278366 62 13 871 10.54800000 1297406244 1297406244 13.00000000
0.56934488 3.71201897 -0.06555124 8 14 872 3.75600000 1297406246 1297406246 -1.00000000
1.34256208 8.75324631 2.37285304 45 15 872 9.16800000 1297406248 1297406248 15.00000000
0.34549320 2.23175025 -0.60511893 3 0 880 2.33800000 1297406269 1297406269 -15.00000000
0.57578754 3.71507239 0.06562105 8 1 881 3.76000000 1297406271 1297406271 1.00000000
0.41174895 2.65360928 -0.61996508 3 2 882 2.75600000 1297406274 1297406274 -13.00000000
0.57944709 3.73008108 0.19782992 79 3 883 3.78000000 1297406276 1297406276 3.00000000
0.49273330 3.17187738 -0.62394542 2 4 883 3.27000000 1297406278 1297406278 -11.00000000
0.58174551 3.74057269 0.33119181 67 5 884 3.80000000 1297406281 1297406281 5.00000000
0.86127549 5.53156805 -0.88667053 2 6 885 5.66800000 1297406283 1297406283 -9.00000000
0.58703071 3.76589847 0.46797827 66 7 886 3.84000000 1297406285 1297406285 7.00000000
1.09028363 6.98633623 -0.86819720 4 8 887 7.12400000 1297406287 1297406287 -7.00000000
0.63879424 4.08859158 -0.36204496 100 10 888 4.15400000 1297406292 1297406292 -5.00000000
1.64714396 10.53046608 2.07180405 53 11 889 10.85800000 1297406294 1297406294 11.00000000
0.58214980 3.71753097 -0.19720188 1 12 890 3.76800000 1297406297 1297406297 -3.00000000
1.59364319 10.16518497 2.37548304 57 13 891 10.56000000 1297406299 1297406299 13.00000000
0.58446920 3.72383761 -0.06579557 8 14 892 3.77000000 1297406301 1297406301 -1.00000000
1.37373567 8.74254131 2.37129998 42 15 893 9.16200000 1297406304 1297406304 15.00000000
0.35228831 2.22677612 -0.60408366 3 0 899 2.33400000 1297406324 1297406324 -15.00000000
0.58622706 3.70129204 0.06541162 9 1 900 3.74800000 1297406327 1297406327 1.00000000
0.41993600 2.64837980 -0.61906528 3 2 901 2.75200000 1297406329 1297406329 -13.00000000
0.59306580 3.73602915 0.19824859 73 3 902 3.78800000 1297406331 1297406331 3.00000000
0.50263333 3.16634798 -0.62318218 2 4 902 3.26600000 1297406334 1297406334 -11.00000000
0.59352112 3.73468757 0.33084321 66 5 903 3.79600000 1297406336 1297406336 5.00000000
0.63472509 3.98946834 -0.63981694 2 6 904 4.09000000 1297406338 1297406338 -9.00000000
0.59764212 3.75216889 0.46651584 65 7 905 3.82800000 1297406340 1297406340 7.00000000
1.10875630 6.95327711 -0.86454111 2 8 906 7.09400000 1297406343 1297406343 -7.00000000
0.65454757 4.10022306 -0.36326513 100 10 907 4.16800000 1297406347 1297406347 -5.00000000
1.68205523 10.52494526 2.07180405 53 11 908 10.85800000 1297406350 1297406350 11.00000000
0.59352779 3.70966363 -0.19688787 3 12 909 3.76200000 1297406352 1297406352 -3.00000000
1.62795985 10.16369247 2.37638283 59 13 910 10.56400000 1297406354 1297406354 13.00000000
0.59903097 3.73570037 -0.06603990 6 14 911 3.78400000 1297406357 1297406357 -1.00000000
1.40180612 8.74199772 2.37233543 42 15 911 9.16600000 1297406359 1297406359 15.00000000
0.36129320 2.23316097 -0.60615420 3 0 919 2.34200000 1297406380 1297406380 -15.00000000
0.60042226 3.70711923 0.06555124 11 1 920 3.75600000 1297406382 1297406382 1.00000000
0.42668280 2.63150883 -0.61546606 3 2 921 2.73600000 1297406384 1297406384 -13.00000000
0.60514331 3.72802186 0.19793458 81 3 922 3.78200000 1297406387 1297406387 3.00000000
0.51557022 3.17620158 -0.62547189 2 4 922 3.27800000 1297406389 1297406389 -11.00000000
0.60783225 3.74045944 0.33154044 67 5 923 3.80400000 1297406391 1297406391 5.00000000
0.88304812 5.42809010 -0.87102711 2 6 924 5.56800000 1297406393 1297406393 -9.00000000
0.61105514 3.75201917 0.46675959 71 7 925 3.83000000 1297406396 1297406396 7.00000000
1.14579821 7.02773333 -0.87429065 4 8 926 7.17400000 1297406398 1297406398 -7.00000000
0.67013985 4.10577869 -0.36396238 85 10 927 4.17600000 1297406403 1297406403 -5.00000000
1.71878386 10.51901054 2.07180405 53 11 928 10.85800000 1297406405 1297406405 11.00000000
0.61001992 3.72925091 -0.19803926 1 12 929 3.78400000 1297406407 1297406407 -3.00000000
1.66090834 10.14256287 2.37278366 62 13 930 10.54800000 1297406410 1297406410 13.00000000
0.61368489 3.74345326 -0.06621443 6 14 931 3.79400000 1297406412 1297406412 -1.00000000
1.43325043 8.74277020 2.37388825 45 15 931 9.17200000 1297406414 1297406414 15.00000000
0.37112865 2.23938084 -0.60822475 4 0 941 2.35000000 1297406435 1297406435 -15.00000000
0.61596131 3.71267724 0.06569086 14 1 942 3.76400000 1297406437 1297406437 1.00000000
0.43742245 2.63369608 -0.61636591 3 2 943 2.74000000 1297406440 1297406440 -13.00000000
0.61912584 3.72370076 0.19782992 73 3 944 3.78000000 1297406442 1297406442 3.00000000
0.52711815 3.17032504 -0.62470865 2 4 944 3.27400000 1297406444 1297406444 -11.00000000
0.62382573 3.74792480 0.33241200 69 5 945 3.81400000 1297406446 1297406446 5.00000000
0.90128654 5.40907145 -0.86852413 2 6 946 5.55200000 1297406449 1297406449 -9.00000000
0.62611049 3.75356126 0.46724707 69 7 947 3.83400000 1297406451 1297406451 7.00000000
1.17277431 7.02328205 -0.87429065 2 8 948 7.17400000 1297406453 1297406453 -7.00000000
0.67703050 4.05011702 -0.35925597 20 10 949 4.12200000 1297406458 1297406458 -5.00000000
1.76110542 10.52395058 2.07409382 56 11 950 10.87000000 1297406460 1297406460 11.00000000
0.62136483 3.70915270 -0.19709721 3 12 951 3.76600000 1297406463 1297406463 -3.00000000
1.69661760 10.11689186 2.36828470 56 13 952 10.52800000 1297406465 1297406465 13.00000000
0.62739199 3.73712516 -0.06614462 6 14 953 3.79000000 1297406467 1297406467 -1.00000000
1.46776915 8.74291801 2.37544131 42 15 953 9.17800000 1297406469 1297406469 15.00000000
0.37765327 2.23045278 -0.60615420 4 0 961 2.34200000 1297406490 1297406490 -15.00000000
0.62925136 3.71247602 0.06572577 14 1 962 3.76600000 1297406493 1297406493 1.00000000
0.44661310 2.63215303 -0.61636591 3 2 963 2.74000000 1297406495 1297406495 -13.00000000
0.63145131 3.71757865 0.19762057 73 3 964 3.77600000 1297406497 1297406497 3.00000000
0.53752393 3.16459489 -0.62394542 2 4 964 3.27000000 1297406499 1297406499 -11.00000000
0.63556868 3.73786759 0.33171475 72 5 965 3.80600000 1297406502 1297406502 5.00000000
0.68216640 4.00768232 -0.64388424 2 6 966 4.11600000 1297406504 1297406504 -9.00000000
0.63920909 3.75135279 0.46724707 60 7 967 3.83400000 1297406506 1297406506 7.00000000
1.19795048 7.02305937 -0.87477815 2 8 968 7.17800000 1297406509 1297406509 -7.00000000
0.67372555 3.94560313 -0.35019177 11 10 969 4.01800000 1297406513 1297406513 -5.00000000
1.80047643 10.53322124 2.07714677 59 11 970 10.88600000 1297406516 1297406516 11.00000000
0.63666642 3.72074175 -0.19782992 1 12 971 3.78000000 1297406518 1297406518 -3.00000000
1.73257983 10.11474895 2.36918449 57 13 972 10.53200000 1297406520 1297406520 13.00000000
0.63806748 3.72111583 -0.06590029 6 14 973 3.77600000 1297406522 1297406522 -1.00000000
1.49980366 8.73748016 2.37544131 45 15 974 9.17800000 1297406525 1297406525 15.00000000
0.38334462 2.22164035 -0.60408366 3 0 979 2.33400000 1297406546 1297406546 -15.00000000
0.64125168 3.71245146 0.06576066 13 1 980 3.76800000 1297406548 1297406548 1.00000000
0.45753628 2.64609909 -0.61996508 3 2 981 2.75600000 1297406550 1297406550 -13.00000000
0.64448982 3.72344851 0.19803926 73 3 982 3.78400000 1297406552 1297406552 3.00000000
0.54813278 3.16675949 -0.62470865 2 4 982 3.27400000 1297406555 1297406555 -11.00000000
0.64560765 3.72603679 0.33084321 63 5 983 3.79600000 1297406557 1297406557 5.00000000
0.93916631 5.41465282 -0.87040138 2 6 984 5.56400000 1297406559 1297406559 -9.00000000
0.65404743 3.76692867 0.46944070 66 7 985 3.85200000 1297406562 1297406562 7.00000000
1.23190570 7.08771324 -0.88330901 2 8 986 7.24800000 1297406564 1297406564 -7.00000000
0.68167788 3.91794944 -0.34792572 14 10 987 3.99200000 1297406569 1297406569 -5.00000000
1.83288479 10.52364445 2.07638359 56 11 988 10.88200000 1297406571 1297406571 11.00000000
0.65692842 3.76791263 -0.20044671 1 12 989 3.83000000 1297406573 1297406573 -3.00000000
1.76434767 10.10925674 2.36918449 56 13 990 10.53200000 1297406575 1297406575 13.00000000
0.65181941 3.73091197 -0.06610972 6 14 991 3.78800000 1297406578 1297406578 -1.00000000
1.52372682 8.72157288 2.37233543 45 15 991 9.16600000 1297406580 1297406580 15.00000000
0.39277291 2.22980142 -0.60667187 4 0 999 2.34400000 1297406601 1297406601 -15.00000000
0.65281773 3.70231318 0.06562105 13 1 1000 3.76000000 1297406603 1297406603 1.00000000
0.46473771 2.63297129 -0.61726570 3 2 1001 2.74400000 1297406605 1297406605 -13.00000000
0.65609312 3.71330905 0.19762057 60 3 1002 3.77600000 1297406608 1297406608 3.00000000
0.55918354 3.16482687 -0.62470865 2 4 1002 3.27400000 1297406610 1297406610 -11.00000000
0.65860999 3.72376037 0.33084321 51 5 1003 3.79600000 1297406612 1297406612 5.00000000
0.95978314 5.42106724 -0.87196571 2 6 1004 5.57400000 1297406615 1297406615 -9.00000000
0.66684604 3.76266789 0.46919698 76 7 1005 3.85000000 1297406617 1297406617 7.00000000
0.70092386 3.94693303 -0.35071471 15 10 1007 4.02400000 1297406624 1297406624 -5.00000000
1.86892080 10.51331615 2.07562017 56 11 1008 10.87800000 1297406626 1297406626 11.00000000
0.66937703 3.76166391 -0.20023736 1 12 1009 3.82600000 1297406628 1297406628 -3.00000000
1.80099177 10.11071014 2.37098408 59 13 1010 10.54000000 1297406631 1297406631 13.00000000
0.66870004 3.75026917 -0.06649367 6 14 1011 3.81000000 1297406633 1297406633 -1.00000000
1.55483973 8.72000504 2.37337065 42 15 1011 9.17000000 1297406635 1297406635 15.00000000
0.40167424 2.23017812 -0.60718948 4 0 1021 2.34600000 1297406656 1297406656 -15.00000000
0.67128634 3.72339487 0.06603990 6 1 1022 3.78400000 1297406658 1297406658 1.00000000
0.47415197 2.62733197 -0.61636591 3 2 1023 2.74000000 1297406661 1297406661 -13.00000000
0.66898924 3.70694828 0.19741122 47 3 1023 3.77200000 1297406663 1297406663 3.00000000
0.57272744 3.17038441 -0.62623513 2 4 1024 3.28200000 1297406665 1297406665 -11.00000000
0.67963946 3.75845528 0.33415511 76 5 1025 3.83400000 1297406668 1297406668 5.00000000
0.72409660 4.00031900 -0.64388424 2 6 1026 4.11600000 1297406670 1297406670 -9.00000000
0.67916518 3.74836016 0.46773455 47 7 1027 3.83800000 1297406672 1297406672 7.00000000
0.96924746 5.34402752 -0.66686904 2 8 1028 5.47200000 1297406674 1297406674 -7.00000000
0.74241054 4.08927822 -0.36361375 19 10 1029 4.17200000 1297406679 1297406679 -5.00000000
1.91067934 10.51378918 2.07714677 59 11 1030 10.88600000 1297406681 1297406681 11.00000000
0.67881143 3.73155570 -0.19877197 1 12 1031 3.79800000 1297406684 1297406684 -3.00000000
1.83700788 10.08838272 2.36738491 57 13 1032 10.52400000 1297406686 1297406686 13.00000000
0.68273646 3.74570656 -0.06645876 6 14 1033 3.80800000 1297406688 1297406688 -1.00000000
1.58831060 8.71397018 2.37337065 42 15 1033 9.17000000 1297406691 1297406691 15.00000000
0.41050377 2.23446274 -0.60874242 4 0 1041 2.35200000 1297406711 1297406711 -15.00000000
0.68825769 3.74266291 0.06642386 21 1 1042 3.80600000 1297406714 1297406714 1.00000000
0.48402575 2.62949395 -0.61726570 3 2 1043 2.74400000 1297406716 1297406716 -13.00000000
0.68763822 3.73197031 0.19887663 52 3 1044 3.80000000 1297406718 1297406718 3.00000000
0.58236766 3.16064286 -0.62470865 2 4 1044 3.27400000 1297406721 1297406721 -11.00000000
0.69528437 3.76977539 0.33537531 91 5 1045 3.84800000 1297406723 1297406723 5.00000000
0.99913687 5.41194344 -0.87165284 2 6 1046 5.57200000 1297406725 1297406725 -9.00000000
0.69296676 3.74987054 0.46822202 48 7 1047 3.84200000 1297406727 1297406727 7.00000000
0.98934001 5.34841967 -0.66784400 2 8 1048 5.48000000 1297406730 1297406730 -7.00000000
0.85752261 4.63128853 -0.41207236 8 10 1049 4.72800000 1297406734 1297406734 -5.00000000
1.94844091 10.51284695 2.07829165 59 11 1050 10.89200000 1297406737 1297406737 11.00000000
0.69547600 3.74880099 -0.19981869 1 12 1051 3.81800000 1297406739 1297406739 -3.00000000
1.87078857 10.07424545 2.36558533 56 13 1052 10.51600000 1297406741 1297406741 13.00000000
0.69580728 3.74330068 -0.06645876 6 14 1053 3.80800000 1297406744 1297406744 -1.00000000
1.62235844 8.71948624 2.37647653 42 15 1054 9.18200000 1297406746 1297406746 15.00000000
0.41610137 2.22556615 -0.60667187 4 0 1059 2.34400000 1297406767 1297406767 -15.00000000
0.70038003 3.74244761 0.06645876 27 1 1060 3.80800000 1297406769 1297406769 1.00000000
0.49371937 2.63562202 -0.61906528 3 2 1061 2.75200000 1297406771 1297406771 -13.00000000
0.70459199 3.76132345 0.20055139 100 3 1061 3.83200000 1297406774 1297406774 3.00000000
0.59229422 3.15879774 -0.62470865 2 4 1062 3.27400000 1297406776 1297406776 -11.00000000
0.70528638 3.75778151 0.33450374 66 5 1063 3.83800000 1297406778 1297406778 5.00000000
0.75498831 4.01872587 -0.64763868 2 6 1064 4.14000000 1297406780 1297406780 -9.00000000
0.70437700 3.74572420 0.46797827 45 7 1065 3.84000000 1297406783 1297406783 7.00000000
1.00907528 5.36089182 -0.66979390 2 8 1066 5.49600000 1297406785 1297406785 -7.00000000
0.87391239 4.63836145 -0.41294390 11 10 1067 4.73800000 1297406790 1297406790 -5.00000000
1.98400521 10.52017879 2.08096290 59 11 1068 10.90600000 1297406792 1297406792 11.00000000
0.71095455 3.76622367 -0.20086540 1 12 1069 3.83800000 1297406794 1297406794 -3.00000000
1.90315211 10.07214737 2.36648512 56 13 1070 10.52000000 1297406797 1297406797 13.00000000
0.70682049 3.73716640 -0.06638896 4 14 1071 3.80400000 1297406799 1297406799 -1.00000000
1.64606845 8.70324516 2.37337065 45 15 1071 9.17000000 1297406801 1297406801 15.00000000
0.42350584 2.22220254 -0.60615420 3 0 1079 2.34200000 1297406822 1297406822 -15.00000000
0.71006703 3.72230172 0.06614462 24 1 1080 3.79000000 1297406824 1297406824 1.00000000
0.50510937 2.64536738 -0.62176472 3 2 1081 2.76400000 1297406826 1297406826 -13.00000000
0.71771717 3.75884104 0.20055139 73 3 1081 3.83200000 1297406829 1297406829 3.00000000
0.60405397 3.16056752 -0.62547189 2 4 1082 3.27800000 1297406831 1297406831 -11.00000000
0.71540433 3.73964167 0.33310926 48 5 1083 3.82200000 1297406833 1297406833 5.00000000
0.76158166 3.97726321 -0.64138132 2 6 1084 4.10000000 1297406836 1297406836 -9.00000000
0.71782142 3.74519229 0.46822202 48 7 1085 3.84200000 1297406838 1297406838 7.00000000
1.02254593 5.33004332 -0.66638160 2 8 1086 5.46800000 1297406840 1297406840 -7.00000000
0.88596499 4.61375999 -0.41102648 13 10 1087 4.71600000 1297406845 1297406845 -5.00000000
2.02071548 10.51318836 2.08096290 59 11 1088 10.90600000 1297406847 1297406847 11.00000000
0.71956885 3.74018359 -0.19960934 1 12 1089 3.81400000 1297406850 1297406850 -3.00000000
1.93571937 10.05204773 2.36333585 54 13 1090 10.50600000 1297406852 1297406852 13.00000000
0.71645504 3.71700454 -0.06607481 4 14 1091 3.78600000 1297406854 1297406854 -1.00000000
1.67570722 8.69365215 2.37233543 45 15 1091 9.16600000 1297406856 1297406856 15.00000000
0.43273333 2.22829628 -0.60822475 3 0 1099 2.35000000 1297406877 1297406877 -15.00000000
0.72496372 3.72961521 0.06631915 52 1 1100 3.80000000 1297406879 1297406879 1.00000000
0.51285166 2.63593674 -0.61996508 3 2 1101 2.75600000 1297406882 1297406882 -13.00000000
0.72958034 3.74638295 0.20002803 55 3 1102 3.82200000 1297406884 1297406884 3.00000000
0.61358166 3.15073156 -0.62394542 2 4 1102 3.27000000 1297406886 1297406886 -11.00000000
0.72692895 3.72929931 0.33241200 45 5 1103 3.81400000 1297406889 1297406889 5.00000000
0.77924299 3.99396896 -0.64450997 2 6 1104 4.12000000 1297406891 1297406891 -9.00000000
0.73012924 3.73876715 0.46773455 37 7 1105 3.83800000 1297406893 1297406893 7.00000000
1.04571486 5.34982014 -0.66930646 2 8 1106 5.49200000 1297406896 1297406896 -7.00000000
0.91048086 4.65365601 -0.41486132 11 10 1107 4.76000000 1297406900 1297406900 -5.00000000
2.05815554 10.50992489 2.08172607 59 11 1108 10.91000000 1297406903 1297406903 11.00000000
0.73569351 3.75332856 -0.20044671 1 12 1109 3.83000000 1297406905 1297406905 -3.00000000
1.97192132 10.05096722 2.36468554 56 13 1110 10.51200000 1297406907 1297406907 13.00000000
0.73289341 3.73214102 -0.06638896 4 14 1111 3.80400000 1297406909 1297406909 -1.00000000
1.70718718 8.68555641 2.37181783 45 15 1112 9.16400000 1297406912 1297406912 15.00000000
0.43975911 2.22298193 -0.60718948 3 0 1119 2.34600000 1297406932 1297406932 -15.00000000
0.73720127 3.72313857 0.06624933 74 1 1120 3.79600000 1297406935 1297406935 1.00000000
0.51901889 2.61883807 -0.61636591 3 2 1121 2.74000000 1297406937 1297406937 -13.00000000
0.74122322 3.74002481 0.19981869 50 3 1121 3.81800000 1297406939 1297406939 3.00000000
0.62686801 3.16012502 -0.62623513 2 4 1122 3.28200000 1297406942 1297406942 -11.00000000
0.74033022 3.72869325 0.33258632 52 5 1123 3.81600000 1297406944 1297406944 5.00000000
0.79471993 3.99897432 -0.64576149 2 6 1124 4.12800000 1297406946 1297406946 -9.00000000
0.74123919 3.72646093 0.46651584 34 7 1125 3.82800000 1297406949 1297406949 7.00000000
1.06515801 5.35003090 -0.66979390 2 8 1126 5.49600000 1297406951 1297406951 -7.00000000
0.93567526 4.69539070 -0.41887051 11 10 1127 4.80600000 1297406956 1297406956 -5.00000000
2.09559751 10.50652695 2.08248949 56 11 1128 10.91400000 1297406958 1297406958 11.00000000
0.74761760 3.74486184 -0.20013270 3 12 1129 3.82400000 1297406960 1297406960 -3.00000000
2.00928473 10.05548763 2.36738491 56 13 1130 10.52400000 1297406962 1297406962 13.00000000
0.74552435 3.72759914 -0.06635405 4 14 1131 3.80200000 1297406965 1297406965 -1.00000000
1.73863256 8.68522739 2.37337065 40 15 1132 9.17000000 1297406967 1297406967 15.00000000
0.44866061 2.22711492 -0.60874242 4 0 1139 2.35200000 1297406988 1297406988 -15.00000000
0.75019300 3.72054267 0.06624933 53 1 1140 3.79600000 1297406990 1297406990 1.00000000
0.53201234 2.63611269 -0.62086493 3 2 1141 2.76000000 1297406992 1297406992 -13.00000000
0.75071776 3.71979451 0.19887663 52 3 1141 3.80000000 1297406995 1297406995 3.00000000
0.63711762 3.15406871 -0.62547189 2 4 1142 3.27800000 1297406997 1297406997 -11.00000000
0.75492060 3.73389792 0.33328357 60 5 1143 3.82400000 1297406999 1297406999 5.00000000
0.80632329 3.98455906 -0.64388424 2 6 1144 4.11600000 1297407002 1297407002 -9.00000000
0.75621277 3.73357868 0.46773455 32 7 1145 3.83800000 1297407004 1297407004 7.00000000
1.02782106 5.07001686 -0.63518304 2 8 1146 5.21200000 1297407006 1297407006 -7.00000000
0.96315306 4.74676895 -0.42375124 8 10 1147 4.86200000 1297407011 1297407011 -5.00000000
2.13460398 10.51069164 2.08477902 59 11 1148 10.92600000 1297407013 1297407013 11.00000000
0.76386780 3.75788736 -0.20097007 5 12 1149 3.84000000 1297407015 1297407015 -3.00000000
2.04359579 10.04459381 2.36648512 56 13 1150 10.52000000 1297407018 1297407018 13.00000000
0.76132470 3.73869038 -0.06659839 6 14 1151 3.81600000 1297407020 1297407020 -1.00000000
1.77009654 8.68478394 2.37492347 45 15 1152 9.17600000 1297407022 1297407022 15.00000000
0.45643196 2.22553515 -0.60874242 4 0 1159 2.35200000 1297407043 1297407043 -15.00000000
0.76237136 3.71398354 0.06617953 32 1 1160 3.79200000 1297407045 1297407045 1.00000000
0.53885776 2.62278628 -0.61816549 3 2 1161 2.74800000 1297407048 1297407048 -13.00000000
0.76409966 3.71910763 0.19898130 63 3 1161 3.80200000 1297407050 1297407050 3.00000000
0.64812350 3.15182567 -0.62547189 2 4 1162 3.27800000 1297407052 1297407052 -11.00000000
0.76393330 3.71172500 0.33154044 51 5 1163 3.80400000 1297407055 1297407055 5.00000000
0.82500976 4.00493717 -0.64763868 2 6 1164 4.14000000 1297407057 1297407057 -9.00000000
0.77084422 3.73869324 0.46870950 8 7 1165 3.84600000 1297407059 1297407059 7.00000000
0.97409987 4.72034311 -0.59179753 6 8 1166 4.85600000 1297407062 1297407062 -7.00000000
0.90878677 4.39996576 -0.39307240 7 10 1167 4.51000000 1297407066 1297407066 -5.00000000
2.17326736 10.51278973 2.08668709 59 11 1168 10.93600000 1297407068 1297407068 11.00000000
0.77657598 3.75324225 -0.20086540 5 12 1169 3.83800000 1297407071 1297407071 -3.00000000
2.07864547 10.03739929 2.36648512 57 13 1170 10.52000000 1297407073 1297407073 13.00000000
0.77152956 3.72230339 -0.06635405 6 14 1171 3.80200000 1297407075 1297407075 -1.00000000
1.79922402 8.67287731 2.37337065 42 15 1172 9.17000000 1297407078 1297407078 15.00000000
0.46261886 2.21636391 -0.60667187 4 0 1179 2.34400000 1297407098 1297407098 -15.00000000
0.76797020 3.67606592 0.06555124 37 1 1180 3.75600000 1297407101 1297407101 1.00000000
0.55120045 2.63614917 -0.62176472 3 2 1181 2.76400000 1297407103 1297407103 -13.00000000
0.77748591 3.71837282 0.19908598 61 3 1181 3.80400000 1297407105 1297407105 3.00000000
0.65912151 3.14954400 -0.62547189 2 4 1182 3.27800000 1297407108 1297407108 -11.00000000
0.77811033 3.71488595 0.33206338 60 5 1183 3.81000000 1297407110 1297407110 5.00000000
0.83898461 4.00203323 -0.64763868 2 6 1184 4.14000000 1297407112 1297407112 -9.00000000
0.97996354 4.66640377 -0.58546031 6 8 1186 4.80400000 1297407117 1297407117 -7.00000000
0.91471416 4.35192204 -0.38906324 5 10 1187 4.46400000 1297407121 1297407121 -5.00000000
2.21116304 10.51090336 2.08783197 59 11 1188 10.94200000 1297407124 1297407124 11.00000000
0.79131848 3.75832629 -0.20128408 7 12 1189 3.84600000 1297407126 1297407126 -3.00000000
2.11366987 10.03008175 2.36648512 57 13 1190 10.52000000 1297407128 1297407128 13.00000000
0.78575617 3.72545767 -0.06645876 6 14 1191 3.80800000 1297407131 1297407131 -1.00000000
1.82637978 8.65930271 2.37129998 42 15 1191 9.16200000 1297407133 1297407133 15.00000000
0.47195789 2.22229433 -0.60874242 4 0 1199 2.35200000 1297407154 1297407154 -15.00000000
0.77955008 3.66749477 0.06544653 42 1 1200 3.75000000 1297407156 1297407156 1.00000000
0.55877697 2.62658477 -0.61996508 3 2 1201 2.75600000 1297407158 1297407158 -13.00000000
0.79253864 3.72540402 0.19960934 63 3 1201 3.81400000 1297407161 1297407161 3.00000000
0.66929376 3.14338374 -0.62470865 2 4 1202 3.27400000 1297407163 1297407163 -11.00000000
0.78982717 3.70630145 0.33154044 55 5 1203 3.80400000 1297407165 1297407165 5.00000000
0.87890851 4.12079144 -0.66734940 2 6 1204 4.26600000 1297407167 1297407167 -9.00000000
0.97302002 4.55424309 -0.57181096 6 8 1206 4.69200000 1297407172 1297407172 -7.00000000
0.92906642 4.34480572 -0.38871461 2 10 1207 4.46000000 1297407177 1297407177 -5.00000000
2.24783945 10.50312042 2.08783197 62 11 1208 10.94200000 1297407179 1297407179 11.00000000
0.80024946 3.73601151 -0.20023736 7 12 1209 3.82600000 1297407181 1297407181 -3.00000000
2.14785147 10.01883221 2.36558533 56 13 1210 10.51600000 1297407184 1297407184 13.00000000
0.80253130 3.74028897 -0.06677291 6 14 1211 3.82600000 1297407186 1297407186 -1.00000000
1.85729420 8.64877224 2.37026477 42 15 1212 9.15800000 1297407188 1297407188 15.00000000
0.47971228 2.22063351 -0.60874242 4 0 1219 2.35200000 1297407209 1297407209 -15.00000000
0.79192472 3.66279674 0.06541162 49 1 1220 3.74800000 1297407211 1297407211 1.00000000
0.56711775 2.62080884 -0.61906528 3 2 1221 2.75200000 1297407214 1297407214 -13.00000000
0.80153733 3.70100212 0.19845794 61 3 1222 3.79200000 1297407216 1297407216 3.00000000
0.68192434 3.14870334 -0.62623513 2 4 1222 3.28200000 1297407218 1297407218 -11.00000000
0.80233771 3.70157456 0.33136612 48 5 1223 3.80200000 1297407220 1297407220 5.00000000
0.88407391 4.07522774 -0.66046631 2 6 1224 4.22200000 1297407223 1297407223 -9.00000000
0.98048073 4.51202250 -0.56693619 6 8 1226 4.65200000 1297407227 1297407227 -7.00000000
0.94634408 4.35127068 -0.38958618 5 10 1227 4.47000000 1297407232 1297407232 -5.00000000
2.28615880 10.50288296 2.08935857 59 11 1228 10.95000000 1297407234 1297407234 11.00000000
0.81286055 3.73124385 -0.20013270 12 12 1229 3.82400000 1297407237 1297407237 -3.00000000
2.18281054 10.01127338 2.36558533 59 13 1230 10.51600000 1297407239 1297407239 13.00000000
0.81728780 3.74527955 -0.06691252 4 14 1231 3.83400000 1297407241 1297407241 -1.00000000
1.88802373 8.65200329 2.37285304 45 15 1231 9.16800000 1297407244 1297407244 15.00000000
0.48994786 2.23026657 -0.61184824 4 0 1239 2.36400000 1297407264 1297407264 -15.00000000
0.80470544 3.66001010 0.06541162 49 1 1240 3.74800000 1297407267 1297407267 1.00000000
0.57710022 2.62261987 -0.61996508 3 2 1241 2.75600000 1297407269 1297407269 -13.00000000
0.81316268 3.69233012 0.19814393 63 3 1242 3.78600000 1297407271 1297407271 3.00000000
0.69460022 3.15397310 -0.62776160 2 4 1242 3.29000000 1297407273 1297407273 -11.00000000
0.82168657 3.72793674 0.33398080 52 5 1243 3.83200000 1297407276 1297407276 5.00000000
0.89148527 4.04125309 -0.65546042 2 6 1244 4.19000000 1297407278 1297407278 -9.00000000
0.98765868 4.46980572 -0.56206143 6 8 1246 4.61200000 1297407283 1297407283 -7.00000000
0.95894575 4.33626842 -0.38854030 7 10 1247 4.45800000 1297407287 1297407287 -5.00000000
2.32450366 10.50250626 2.09088492 62 11 1248 10.95800000 1297407290 1297407290 11.00000000
0.82717592 3.73423362 -0.20044671 15 12 1249 3.83000000 1297407292 1297407292 -3.00000000
2.21605611 9.99598312 2.36378574 57 13 1250 10.50800000 1297407294 1297407294 13.00000000
0.83208889 3.75021291 -0.06705215 4 14 1251 3.84200000 1297407297 1297407297 -1.00000000
1.91930342 8.64313889 2.37233543 42 15 1252 9.16600000 1297407299 1297407299 15.00000000
0.49520341 2.21723032 -0.60874242 4 0 1259 2.35200000 1297407320 1297407320 -15.00000000
0.81791258 3.65913057 0.06544653 52 1 1260 3.75000000 1297407322 1297407322 1.00000000
0.58625138 2.62058926 -0.61996508 4 2 1261 2.75600000 1297407324 1297407324 -13.00000000
0.82386452 3.67972398 0.19762057 58 3 1262 3.77600000 1297407326 1297407326 3.00000000
0.69788450 3.11704445 -0.62089247 2 4 1262 3.25400000 1297407329 1297407329 -11.00000000
0.83425885 3.72310162 0.33380648 46 5 1263 3.83000000 1297407331 1297407331 5.00000000
0.89737350 4.00149393 -0.64951593 2 6 1264 4.15200000 1297407333 1297407333 -9.00000000
1.00630057 4.47988844 -0.56376761 4 8 1266 4.62600000 1297407338 1297407338 -7.00000000
0.96664733 4.29984856 -0.38557699 5 10 1267 4.42400000 1297407343 1297407343 -5.00000000
2.36502862 10.51156712 2.09431958 56 11 1268 10.97600000 1297407345 1297407345 11.00000000
0.84327704 3.74496293 -0.20117941 15 12 1269 3.84400000 1297407347 1297407347 -3.00000000
2.25007820 9.98438454 2.36288595 59 13 1270 10.50400000 1297407350 1297407350 13.00000000
0.84605443 3.75118685 -0.06712195 4 14 1271 3.84600000 1297407352 1297407352 -1.00000000
1.94582927 8.62730408 2.36974716 45 15 1271 9.15600000 1297407354 1297407354 15.00000000
0.50208461 2.21172047 -0.60770714 4 0 1279 2.34800000 1297407375 1297407375 -15.00000000
0.82935125 3.65040302 0.06534181 49 1 1280 3.74400000 1297407377 1297407377 1.00000000
0.59712368 2.62612796 -0.62176472 3 2 1281 2.76400000 1297407379 1297407379 -13.00000000
0.83581781 3.67293096 0.19741122 47 3 1282 3.77200000 1297407382 1297407382 3.00000000
0.71573073 3.14521837 -0.62699836 2 4 1282 3.28600000 1297407384 1297407384 -11.00000000
0.84548008 3.71239614 0.33310926 46 5 1283 3.82200000 1297407386 1297407386 5.00000000
0.91396976 4.00989294 -0.65139312 2 6 1284 4.16400000 1297407389 1297407389 -9.00000000
1.02060676 4.47054291 -0.56303638 6 8 1286 4.62000000 1297407393 1297407393 -7.00000000
0.97588152 4.27119780 -0.38331094 2 10 1287 4.39800000 1297407398 1297407398 -5.00000000
2.40214419 10.50516129 2.09470105 53 11 1288 10.97800000 1297407400 1297407400 11.00000000
0.85990864 3.75757194 -0.20201679 17 12 1289 3.86000000 1297407402 1297407402 -3.00000000
2.28665686 9.98406792 2.36468554 59 13 1290 10.51200000 1297407405 1297407405 13.00000000
0.85959017 3.75015974 -0.06715686 4 14 1291 3.84800000 1297407407 1297407407 -1.00000000
1.97527719 8.61069965 2.36715889 42 15 1292 9.14600000 1297407409 1297407409 15.00000000
0.51115185 2.21757317 -0.60977769 4 0 1298 2.35600000 1297407430 1297407430 -15.00000000
0.84145188 3.64763284 0.06534181 48 1 1299 3.74400000 1297407432 1297407432 1.00000000
0.60495216 2.62033582 -0.62086493 3 2 1300 2.76000000 1297407435 1297407435 -13.00000000
0.85338861 3.69349098 0.19866729 52 3 1301 3.79600000 1297407437 1297407437 3.00000000
0.72615671 3.14282751 -0.62699836 2 4 1301 3.28600000 1297407439 1297407439 -11.00000000
0.86003053 3.71927786 0.33398080 42 5 1302 3.83200000 1297407442 1297407442 5.00000000
0.92458981 3.99529314 -0.64951593 2 6 1303 4.15200000 1297407444 1297407444 -9.00000000
1.03542602 4.46713352 -0.56303638 6 8 1305 4.62000000 1297407449 1297407449 -7.00000000
0.97743368 4.21359444 -0.37843025 2 10 1306 4.34200000 1297407453 1297407453 -5.00000000
2.43607926 10.49331284 2.09393787 50 11 1307 10.97400000 1297407455 1297407455 11.00000000
0.87146050 3.75080872 -0.20180745 21 12 1308 3.85600000 1297407458 1297407458 -3.00000000
2.32151794 9.98402214 2.36648512 59 13 1309 10.52000000 1297407460 1297407460 13.00000000
0.87383431 3.75507927 -0.06729648 4 14 1310 3.85600000 1297407462 1297407462 -1.00000000
2.00188088 8.60257053 2.36664128 40 15 1310 9.14400000 1297407465 1297407465 15.00000000
0.51800853 2.21201348 -0.60874242 4 0 1318 2.35200000 1297407485 1297407485 -15.00000000
0.85965484 3.66803670 0.06576066 26 1 1319 3.76800000 1297407488 1297407488 1.00000000
0.61053520 2.60303020 -0.61726570 3 2 1320 2.74400000 1297407490 1297407490 -13.00000000
0.86947101 3.70410037 0.19939999 17 3 1321 3.81000000 1297407492 1297407492 3.00000000
0.73712283 3.14027381 -0.62699836 2 4 1321 3.28600000 1297407495 1297407495 -11.00000000
0.88667727 3.77444077 0.33921015 42 5 1322 3.89200000 1297407497 1297407497 5.00000000
0.94350326 4.01319361 -0.65295744 2 6 1323 4.17400000 1297407499 1297407499 -9.00000000
1.05010295 4.45962763 -0.56254888 6 8 1325 4.61600000 1297407504 1297407504 -7.00000000
0.98939395 4.19852114 -0.37738436 2 10 1326 4.33000000 1297407508 1297407508 -5.00000000
2.47269297 10.48474598 2.09393787 56 11 1327 10.97400000 1297407511 1297407511 11.00000000
0.88454795 3.74774384 -0.20180745 28 12 1328 3.85600000 1297407513 1297407513 -3.00000000
2.35366678 9.96447849 2.36378574 57 13 1329 10.50800000 1297407515 1297407515 13.00000000
0.88969684 3.76368260 -0.06750591 4 14 1330 3.86800000 1297407518 1297407518 -1.00000000
2.03384209 8.59705544 2.36715889 42 15 1331 9.14600000 1297407520 1297407520 15.00000000
0.52840900 2.22146845 -0.61184824 4 0 1338 2.36400000 1297407541 1297407541 -15.00000000
0.62142420 2.60846591 -0.61906528 3 2 1340 2.75200000 1297407545 1297407545 -13.00000000
0.94909614 3.98080659 0.21447276 10 3 1341 4.09800000 1297407548 1297407548 3.00000000
0.74625868 3.13004255 -0.62547189 2 4 1341 3.27800000 1297407550 1297407550 -11.00000000
0.96117657 4.02524662 -0.65546042 2 6 1343 4.19000000 1297407555 1297407555 -9.00000000
1.06751049 4.46365738 -0.56352383 6 8 1345 4.62400000 1297407559 1297407559 -7.00000000
0.98642057 4.12141085 -0.37076053 2 10 1346 4.25400000 1297407564 1297407564 -5.00000000
2.51430702 10.49705219 2.09813571 50 11 1347 10.99600000 1297407566 1297407566 11.00000000
0.90134919 3.76017141 -0.20264482 33 12 1348 3.87200000 1297407568 1297407568 -3.00000000
2.38661647 9.94862175 2.36198616 57 13 1349 10.50000000 1297407571 1297407571 13.00000000
0.90282917 3.76055408 -0.06750591 4 14 1350 3.86800000 1297407573 1297407573 -1.00000000
2.06414366 8.59777737 2.36922956 42 15 1350 9.15400000 1297407575 1297407575 15.00000000
0.53525299 2.21585464 -0.61081296 4 0 1358 2.36000000 1297407596 1297407596 -15.00000000
0.91202420 3.77273726 0.06775025 4 1 1359 3.88200000 1297407598 1297407598 1.00000000
0.63327509 2.61764526 -0.62176472 3 2 1360 2.76400000 1297407601 1297407601 -13.00000000
0.96157604 3.97164583 0.21415873 5 3 1361 4.09200000 1297407603 1297407603 3.00000000
0.75717998 3.12741876 -0.62547189 2 4 1361 3.27800000 1297407605 1297407605 -11.00000000
0.93927956 3.87659502 0.34897161 1 5 1362 4.00400000 1297407608 1297407608 5.00000000
0.99709988 4.11209536 -0.67016524 2 6 1363 4.28400000 1297407610 1297407610 -9.00000000
1.08589578 4.47147799 -0.56498629 6 8 1365 4.63600000 1297407614 1297407614 -7.00000000
0.99985993 4.11407042 -0.37041190 4 10 1366 4.25000000 1297407619 1297407619 -5.00000000
0.91541386 3.76088333 -0.20285417 35 12 1368 3.87600000 1297407624 1297407624 -3.00000000
2.42132902 9.94023037 2.36198616 59 13 1369 10.50000000 1297407626 1297407626 13.00000000
0.91642404 3.75932240 -0.06754081 4 14 1370 3.87000000 1297407628 1297407628 -1.00000000
2.09381080 8.58264732 2.36715889 42 15 1371 9.14600000 1297407631 1297407631 15.00000000
0.53845960 2.19718051 -0.60615420 4 0 1377 2.34200000 1297407651 1297407651 -15.00000000
0.92357743 3.76580787 0.06768043 4 1 1378 3.87800000 1297407654 1297407654 1.00000000
0.64195198 2.61553097 -0.62176472 3 2 1379 2.76400000 1297407656 1297407656 -13.00000000
0.98236382 3.99946904 0.21583349 1 3 1380 4.12400000 1297407658 1297407658 3.00000000
0.76754671 3.12489057 -0.62547189 2 4 1380 3.27800000 1297407661 1297407661 -11.00000000
0.94880050 3.85991526 0.34775141 4 5 1381 3.99000000 1297407663 1297407663 5.00000000
1.01450551 4.12411165 -0.67266822 2 6 1382 4.30000000 1297407665 1297407665 -9.00000000
1.09976804 4.46399784 -0.56449878 6 8 1384 4.63200000 1297407670 1297407670 -7.00000000
1.01349723 4.11073208 -0.37041190 4 10 1385 4.25000000 1297407674 1297407674 -5.00000000
2.37453532 9.62385941 1.92678928 9 11 1386 10.09800000 1297407677 1297407677 11.00000000
0.93075305 3.76946115 -0.20348220 38 12 1387 3.88800000 1297407679 1297407679 -3.00000000
2.45521379 9.93593025 2.36288595 55 13 1388 10.50400000 1297407681 1297407681 13.00000000
0.93176562 3.76791024 -0.06775025 4 14 1389 3.88200000 1297407684 1297407684 -1.00000000
2.12076378 8.57602692 2.36715889 42 15 1389 9.14600000 1297407686 1297407686 15.00000000
0.54752505 2.20091176 -0.60770714 4 0 1397 2.34800000 1297407707 1297407707 -15.00000000
0.94154781 3.78196549 0.06802948 4 1 1398 3.89800000 1297407709 1297407709 1.00000000
0.64919353 2.60571051 -0.61996508 3 2 1399 2.75600000 1297407711 1297407711 -13.00000000
0.99100363 3.97469831 0.21468209 1 3 1400 4.10200000 1297407714 1297407714 3.00000000
0.77750003 3.11838245 -0.62470865 2 4 1400 3.27400000 1297407716 1297407716 -11.00000000
0.97046810 3.88944292 0.35071471 1 5 1401 4.02400000 1297407718 1297407718 5.00000000
1.00448883 4.02280188 -0.65671188 2 6 1402 4.19800000 1297407720 1297407720 -9.00000000
1.11871469 4.47361231 -0.56620497 4 8 1404 4.64600000 1297407725 1297407725 -7.00000000
1.04041612 4.15742159 -0.37494400 4 10 1405 4.30200000 1297407730 1297407730 -5.00000000
2.40716052 9.61170292 1.92602599 12 11 1406 10.09400000 1297407732 1297407732 11.00000000
0.94487637 3.77006388 -0.20369154 43 12 1407 3.89200000 1297407734 1297407734 -3.00000000
2.49035573 9.92918968 2.36333585 54 13 1408 10.50600000 1297407737 1297407737 13.00000000
0.94491237 3.76463461 -0.06775025 4 14 1409 3.88200000 1297407739 1297407739 -1.00000000
2.15068674 8.56857204 2.36715889 45 15 1409 9.14600000 1297407741 1297407741 15.00000000
0.55576569 2.20283031 -0.60874242 4 0 1416 2.35200000 1297407762 1297407762 -15.00000000
0.95506316 3.78270030 0.06809929 4 1 1417 3.90200000 1297407764 1297407764 1.00000000
0.65592128 2.59598589 -0.61816549 3 2 1418 2.74800000 1297407767 1297407767 -13.00000000
1.00222027 3.96364498 0.21426341 1 3 1419 4.09400000 1297407769 1297407769 3.00000000
0.78976178 3.12340045 -0.62623513 2 4 1419 3.28200000 1297407771 1297407771 -11.00000000
1.00376105 3.96391582 -0.64763868 2 6 1421 4.14000000 1297407776 1297407776 -9.00000000
1.13061571 4.45833254 -0.56474257 4 8 1423 4.63400000 1297407780 1297407780 -7.00000000
1.06203842 4.18484735 -0.37773299 7 10 1424 4.33400000 1297407785 1297407785 -5.00000000
2.44192052 9.61508465 1.92831576 12 11 1425 10.10600000 1297407787 1297407787 11.00000000
