# .PCD v0.7 - Point Cloud Data file format
VERSION 0.7
FIELDS x y z intensity laser_id azimuth distance_m adjustedtime timestamp vertical_angle
SIZE 4 4 4 1 1 2 8 8 4 8
TYPE F F F U U U F U U F
COUNT 1 1 1 1 1 1 1 1 1 1
WIDTH 535
HEIGHT 1
VIEWPOINT 0 0 0 1 0 0 0
POINTS 535
DATA ascii
3.96175098 0.08229510 -0.62761509 9 6 8881 4.01200000 1297828579 1297828579 -9.00000000
8.12722874 0.16740301 0.99810994 90 7 8882 8.19000000 1297828582 1297828582 7.00000000
5.24748993 0.10717048 -0.64444506 6 8 8883 5.28800000 1297828584 1297828584 -7.00000000
8.21983242 0.16644000 1.30216050 10 9 8884 8.32400000 1297828586 1297828586 9.00000000
6.61138535 0.13387120 -0.57853985 96 10 8884 6.63800000 1297828589 1297828589 -5.00000000
8.10327339 0.16125010 -0.42475861 21 12 8886 8.11600000 1297828593 1297828593 -3.00000000
8.11321354 0.15861477 -0.14164373 20 14 8888 8.11600000 1297828598 1297828598 -1.00000000
8.18948650 0.16010591 2.19478559 56 15 8888 8.48000000 1297828600 1297828600 15.00000000
2.24057865 0.04067416 -0.60046017 4 0 8896 2.32000000 1297828621 1297828621 -15.00000000
8.11145306 0.14583443 0.14160882 21 1 8897 8.11400000 1297828623 1297828623 1.00000000
2.62064004 0.04665850 -0.60511833 6 2 8898 2.69000000 1297828625 1297828625 -13.00000000
8.12358761 0.14321601 0.42580533 13 3 8899 8.13600000 1297828628 1297828628 3.00000000
3.13875604 0.05533518 -0.61020714 5 4 8899 3.19800000 1297828630 1297828630 -11.00000000
8.12571812 0.14183494 0.71101654 76 5 8900 8.15800000 1297828632 1297828632 5.00000000
3.97188950 0.06863616 -0.62917942 9 6 8901 4.02200000 1297828635 1297828635 -9.00000000
8.12974834 0.13906662 0.99835366 90 7 8902 8.19200000 1297828637 1297828637 7.00000000
5.23989248 0.08871826 -0.64347011 6 8 8903 5.28000000 1297828639 1297828639 -7.00000000
8.19863796 0.13738234 1.29871893 10 9 8904 8.30200000 1297828642 1297828642 9.00000000
6.61978054 0.11092587 -0.57923704 49 10 8904 6.64600000 1297828644 1297828644 -5.00000000
8.10778046 0.13302895 -0.42496797 17 12 8906 8.12000000 1297828648 1297828648 -3.00000000
8.09972191 0.13006864 -0.14139940 18 14 8908 8.10200000 1297828653 1297828653 -1.00000000
8.18613148 0.13145626 2.19375014 58 15 8908 8.47600000 1297828655 1297828655 15.00000000
2.23298621 0.03234982 -0.59838963 4 0 8917 2.31200000 1297828676 1297828676 -15.00000000
8.11193371 0.11610349 0.14160882 15 1 8918 8.11400000 1297828678 1297828678 1.00000000
2.61884499 0.03702551 -0.60466844 7 2 8919 2.68800000 1297828681 1297828681 -13.00000000
8.12004375 0.11480206 0.42559600 15 3 8919 8.13200000 1297828683 1297828683 3.00000000
3.13501167 0.04377586 -0.60944390 5 4 8920 3.19400000 1297828685 1297828685 -11.00000000
8.11821461 0.11194187 0.71031928 79 5 8921 8.15000000 1297828688 1297828688 5.00000000
3.96223855 0.05394354 -0.62761509 9 6 8922 4.01200000 1297828690 1297828690 -9.00000000
8.13615894 0.10934871 0.99908489 90 7 8923 8.19800000 1297828692 1297828692 7.00000000
5.24812222 0.06961782 -0.64444506 6 8 8924 5.28800000 1297828694 1297828694 -7.00000000
8.19709206 0.10873672 1.29840600 10 9 8924 8.30000000 1297828697 1297828697 9.00000000
6.59822845 0.08637554 -0.57731962 56 10 8925 6.62400000 1297828699 1297828699 -5.00000000
8.09623146 0.10315888 -0.42433992 17 12 8927 8.10800000 1297828704 1297828704 -3.00000000
8.10614300 0.10045515 -0.14150411 20 14 8929 8.10800000 1297828708 1297828708 -1.00000000
8.17883205 0.10135595 2.19167972 51 15 8929 8.46800000 1297828711 1297828711 15.00000000
2.23308539 0.02455505 -0.59838963 4 0 8937 2.31200000 1297828731 1297828731 -15.00000000
8.11028957 0.08776520 0.14157392 21 1 8938 8.11200000 1297828734 1297828734 1.00000000
2.62285566 0.02792531 -0.60556823 7 2 8939 2.69200000 1297828736 1297828736 -13.00000000
8.13239288 0.08516534 0.42622402 15 3 8940 8.14400000 1297828738 1297828738 3.00000000
3.13514543 0.03283237 -0.60944390 5 4 8940 3.19400000 1297828741 1297828741 -11.00000000
8.11457157 0.08356229 0.70997065 76 5 8941 8.14600000 1297828743 1297828743 5.00000000
3.92684770 0.03975248 -0.62198341 2 6 8942 3.97600000 1297828745 1297828745 -9.00000000
8.13649082 0.08094755 0.99908489 87 7 8943 8.19800000 1297828747 1297828747 7.00000000
5.26421356 0.05145324 -0.64639497 8 8 8944 5.30400000 1297828750 1297828750 -7.00000000
8.20928764 0.07880592 1.30028331 10 9 8945 8.31200000 1297828752 1297828752 9.00000000
6.59450483 0.06330465 -0.57697099 32 10 8945 6.62000000 1297828754 1297828754 -5.00000000
8.11052227 0.07502646 -0.42507264 17 12 8947 8.12200000 1297828759 1297828759 -3.00000000
8.09644604 0.07206982 -0.14132959 18 14 8949 8.09800000 1297828764 1297828764 -1.00000000
8.17335320 0.07132778 2.19012666 47 15 8950 8.46200000 1297828766 1297828766 15.00000000
2.24087882 0.01760018 -0.60046017 4 0 8955 2.32000000 1297828787 1297828787 -15.00000000
8.10052681 0.06220881 0.14139940 15 1 8956 8.10200000 1297828789 1297828789 1.00000000
2.62293029 0.01968524 -0.60556823 7 2 8957 2.69200000 1297828791 1297828791 -13.00000000
8.13261032 0.06103570 0.42622402 15 3 8957 8.14400000 1297828794 1297828794 3.00000000
3.14308572 0.02304043 -0.61097038 5 4 8958 3.20200000 1297828796 1297828796 -11.00000000
8.11479378 0.05806924 0.70997065 76 5 8959 8.14600000 1297828798 1297828798 5.00000000
3.94868183 0.02756745 -0.62542498 2 6 8960 3.99800000 1297828800 1297828800 -9.00000000
8.13074970 0.05534511 0.99835366 92 7 8961 8.19200000 1297828803 1297828803 7.00000000
5.26831913 0.03494133 -0.64688247 6 8 8962 5.30800000 1297828805 1297828805 -7.00000000
8.20751858 0.05300258 1.29997039 10 9 8963 8.31000000 1297828807 1297828807 9.00000000
6.60264063 0.04263858 -0.57766825 16 10 8963 6.62800000 1297828810 1297828810 -5.00000000
8.10472584 0.04950957 -0.42475861 25 12 8965 8.11600000 1297828814 1297828814 -3.00000000
8.10463142 0.04667984 -0.14146921 18 14 8967 8.10600000 1297828819 1297828819 -1.00000000
8.17352867 0.04707667 2.19012666 47 15 8967 8.46200000 1297828821 1297828821 15.00000000
2.23319936 0.00974423 -0.59838963 4 0 8975 2.31200000 1297828842 1297828842 -15.00000000
8.10469437 0.03394906 0.14146921 21 1 8976 8.10600000 1297828844 1297828844 1.00000000
2.61518812 0.01049809 -0.60376865 7 2 8977 2.68400000 1297828846 1297828846 -13.00000000
8.12278748 0.03260713 0.42570066 15 3 8977 8.13400000 1297828849 1297828849 3.00000000
3.14118385 0.01206134 -0.61058879 5 4 8978 3.20000000 1297828851 1297828851 -11.00000000
8.11295509 0.02973567 0.70979637 76 5 8979 8.14400000 1297828853 1297828853 5.00000000
3.93887711 0.01374933 -0.62386066 2 6 8980 3.98800000 1297828856 1297828856 -9.00000000
8.13287830 0.02696975 0.99859738 90 7 8981 8.19400000 1297828858 1297828858 7.00000000
5.24855804 0.01648889 -0.64444506 6 8 8982 5.28800000 1297828860 1297828860 -7.00000000
8.20172787 0.02433509 1.29903185 10 9 8983 8.30400000 1297828863 1297828863 9.00000000
6.59677219 0.01957307 -0.57714534 16 10 8983 6.62200000 1297828865 1297828865 -5.00000000
8.09286594 0.02118712 -0.42413059 25 12 8985 8.10400000 1297828870 1297828870 -3.00000000
8.11274338 0.01840726 -0.14160882 18 14 8987 8.11400000 1297828874 1297828874 -1.00000000
8.17364311 0.01854544 2.19012666 47 15 8987 8.46200000 1297828876 1297828876 15.00000000
2.24094748 0.00156448 -0.60046017 4 0 8996 2.32000000 1297828897 1297828897 -15.00000000
8.11676216 0.00424993 0.14167863 31 1 8997 8.11800000 1297828899 1297828899 1.00000000
2.61131167 0.00091152 -0.60286885 7 2 8998 2.68000000 1297828902 1297828902 -13.00000000
8.12285233 0.00141771 0.42570066 15 3 8999 8.13400000 1297828904 1297828904 3.00000000
3.14317012 0.00054859 -0.61097038 5 4 8999 3.20200000 1297828906 1297828906 -11.00000000
8.11699486 0.00000000 0.71014500 76 5 9000 8.14800000 1297828909 1297828909 5.00000000
3.94482708 -0.00068850 -0.62479925 2 6 9001 3.99400000 1297828911 1297828911 -9.00000000
8.13093758 -0.00283823 0.99835366 92 7 9002 8.19200000 1297828913 1297828913 7.00000000
5.24064302 -0.00274399 -0.64347011 6 8 9003 5.28000000 1297828916 1297828916 -7.00000000
8.20373821 -0.00429547 1.29934466 10 9 9003 8.30600000 1297828918 1297828918 9.00000000
6.60277700 -0.00460961 -0.57766825 16 10 9004 6.62800000 1297828920 1297828920 -5.00000000
8.10886765 -0.00849159 -0.42496797 17 12 9006 8.12000000 1297828925 1297828925 -3.00000000
8.10675716 -0.01131918 -0.14150411 16 14 9008 8.10800000 1297828929 1297828929 -1.00000000
8.17558575 -0.01284219 2.19064450 47 15 9009 8.46400000 1297828932 1297828932 15.00000000
2.23321176 -0.00623632 -0.59838963 4 0 9016 2.31200000 1297828952 1297828952 -15.00000000
8.11272812 -0.02407102 0.14160882 25 1 9017 8.11400000 1297828955 1297828955 1.00000000
2.62299132 -0.00824040 -0.60556823 7 2 9018 2.69200000 1297828957 1297828957 -13.00000000
8.11482334 -0.02549355 0.42528197 18 3 9018 8.12600000 1297828959 1297828959 3.00000000
3.13333678 -0.01039058 -0.60906231 5 4 9019 3.19200000 1297828962 1297828962 -11.00000000
8.11295986 -0.02831969 0.70979637 76 5 9020 8.14400000 1297828964 1297828964 5.00000000
3.94282532 -0.01445127 -0.62448639 4 6 9021 3.99200000 1297828966 1297828966 -9.00000000
8.12889290 -0.03121286 0.99810994 90 7 9022 8.19000000 1297828969 1297828969 7.00000000
5.23663139 -0.02102130 -0.64298266 6 8 9023 5.27600000 1297828971 1297828971 -7.00000000
8.19379044 -0.03432227 1.29778028 10 9 9024 8.29600000 1297828973 1297828973 9.00000000
6.59275866 -0.02761585 -0.57679671 16 10 9024 6.61800000 1297828976 1297828976 -5.00000000
8.10679150 -0.03678770 -0.42486328 17 12 9026 8.11800000 1297828980 1297828980 -3.00000000
8.10066891 -0.03958765 -0.14139940 18 14 9028 8.10200000 1297828985 1297828985 -1.00000000
8.17355919 -0.04137046 2.19012666 47 15 9029 8.46200000 1297828987 1297828987 15.00000000
2.23704243 -0.01366549 -0.59942490 4 0 9035 2.31600000 1297829008 1297829008 -15.00000000
8.11460400 -0.05098623 0.14164373 25 1 9036 8.11600000 1297829010 1297829010 1.00000000
2.62684703 -0.01696367 -0.60646802 7 2 9037 2.69600000 1297829012 1297829012 -13.00000000
8.12468052 -0.05246763 0.42580533 18 3 9037 8.13600000 1297829015 1297829015 3.00000000
3.13524818 -0.02079406 -0.60944390 6 4 9038 3.19400000 1297829017 1297829017 -11.00000000
8.10485268 -0.05516883 0.70909911 76 5 9039 8.13600000 1297829019 1297829019 5.00000000
3.92695308 -0.02741575 -0.62198341 6 6 9040 3.97600000 1297829022 1297829022 -9.00000000
8.13072968 -0.05818328 0.99835366 90 7 9041 8.19200000 1297829024 1297829024 7.00000000
5.24447298 -0.03844468 -0.64395761 6 8 9042 5.28400000 1297829026 1297829026 -7.00000000
8.19364262 -0.06006361 1.29778028 10 9 9042 8.29600000 1297829029 1297829029 9.00000000
6.61653900 -0.04965750 -0.57888842 12 10 9043 6.64200000 1297829031 1297829031 -5.00000000
8.10462761 -0.06365490 -0.42475861 17 12 9045 8.11600000 1297829035 1297829035 -3.00000000
8.10449314 -0.06648303 -0.14146921 20 14 9047 8.10600000 1297829040 1297829040 -1.00000000
8.16951370 -0.06844236 2.18909144 47 15 9048 8.45800000 1297829042 1297829042 15.00000000
2.23311758 -0.02143705 -0.59838963 4 0 9055 2.31200000 1297829063 1297829063 -15.00000000
8.09638023 -0.07913527 0.14132959 21 1 9056 8.09800000 1297829065 1297829065 1.00000000
2.61897707 -0.02605543 -0.60466844 7 2 9057 2.68800000 1297829068 1297829068 -13.00000000
8.13643074 -0.08094695 0.42643338 18 3 9057 8.14800000 1297829070 1297829070 3.00000000
3.13908291 -0.03177774 -0.61020714 6 4 9058 3.19800000 1297829072 1297829072 -11.00000000
8.11058712 -0.08352126 0.70962209 76 5 9059 8.14200000 1297829075 1297829075 5.00000000
3.92683363 -0.04112321 -0.62198341 6 6 9060 3.97600000 1297829077 1297829077 -9.00000000
8.13047695 -0.08656447 0.99835366 90 7 9061 8.19200000 1297829079 1297829079 7.00000000
5.24430704 -0.05675108 -0.64395761 6 8 9062 5.28400000 1297829082 1297829082 -7.00000000
8.20523453 -0.08879264 1.29965758 10 9 9062 8.30800000 1297829084 1297829084 9.00000000
8.07466602 -0.08878917 -0.70648444 17 10 9063 8.10600000 1297829086 1297829086 -5.00000000
8.10235882 -0.09192228 -0.42465395 17 12 9065 8.11400000 1297829091 1297829091 -3.00000000
8.11220932 -0.09486612 -0.14160882 22 14 9067 8.11400000 1297829095 1297829095 -1.00000000
8.17308903 -0.09700473 2.19012666 47 15 9068 8.46200000 1297829098 1297829098 15.00000000
2.24075079 -0.02972419 -0.60046017 4 0 9076 2.32000000 1297829118 1297829118 -15.00000000
8.10403347 -0.10891695 0.14146921 21 1 9077 8.10600000 1297829121 1297829121 1.00000000
2.61301827 -0.03557470 -0.60331875 9 2 9078 2.68200000 1297829123 1297829123 -13.00000000
8.13008785 -0.11068635 0.42611936 18 3 9078 8.14200000 1297829125 1297829125 3.00000000
3.14287138 -0.04333698 -0.61097038 6 4 9079 3.20200000 1297829128 1297829128 -11.00000000
8.11221886 -0.11327530 0.70979637 76 5 9080 8.14400000 1297829130 1297829130 5.00000000
3.93258190 -0.05559927 -0.62292206 8 6 9081 3.98200000 1297829132 1297829132 -9.00000000
8.12216568 -0.11624993 0.99737871 92 7 9082 8.18400000 1297829134 1297829134 7.00000000
5.23215437 -0.07579951 -0.64249516 8 8 9083 5.27200000 1297829137 1297829137 -7.00000000
8.21275425 -0.11898020 1.30090904 10 9 9083 8.31600000 1297829139 1297829139 9.00000000
8.07627869 -0.11841291 -0.70665878 17 10 9084 8.10800000 1297829141 1297829141 -5.00000000
8.09597588 -0.12152836 -0.42433992 17 12 9086 8.10800000 1297829146 1297829146 -3.00000000
8.10980797 -0.12456750 -0.14157392 20 14 9088 8.11200000 1297829151 1297829151 -1.00000000
8.17463207 -0.12556320 2.19064450 47 15 9088 8.46400000 1297829153 1297829153 15.00000000
2.24063325 -0.03754568 -0.60046017 4 0 9096 2.32000000 1297829174 1297829174 -15.00000000
8.10360432 -0.13720465 0.14146921 15 1 9097 8.10600000 1297829176 1297829176 1.00000000
2.61482668 -0.04472895 -0.60376865 7 2 9098 2.68400000 1297829178 1297829178 -13.00000000
8.11367702 -0.13879170 0.42528197 18 3 9098 8.12600000 1297829181 1297829181 3.00000000
3.13092327 -0.05410386 -0.60868067 6 4 9099 3.19000000 1297829183 1297829183 -11.00000000
8.11775017 -0.14169586 0.71031928 76 5 9100 8.15000000 1297829185 1297829185 5.00000000
3.92841387 -0.06925657 -0.62229627 8 6 9101 3.97800000 1297829187 1297829187 -9.00000000
8.12567997 -0.14467156 0.99786621 92 7 9102 8.18800000 1297829190 1297829190 7.00000000
5.22788811 -0.09399130 -0.64200771 8 8 9103 5.26800000 1297829192 1297829192 -7.00000000
8.19648838 -0.14736326 1.29840600 10 9 9103 8.30000000 1297829194 1297829194 9.00000000
8.07780838 -0.14663982 -0.70683306 17 10 9104 8.11000000 1297829197 1297829197 -5.00000000
8.10149384 -0.14989871 -0.42465395 17 12 9106 8.11400000 1297829201 1297829201 -3.00000000
8.10532475 -0.15279987 -0.14150411 22 14 9108 8.10800000 1297829206 1297829206 -1.00000000
8.18184280 -0.15567088 2.19271493 47 15 9109 8.47200000 1297829208 1297829208 15.00000000
2.23276281 -0.04521029 -0.59838963 4 0 9116 2.31200000 1297829229 1297829229 -15.00000000
8.10907364 -0.16561316 0.14157392 18 1 9117 8.11200000 1297829231 1297829231 1.00000000
2.61660290 -0.05389626 -0.60421854 9 2 9118 2.68600000 1297829234 1297829234 -13.00000000
8.11111641 -0.16848740 0.42517731 23 3 9119 8.12400000 1297829236 1297829236 3.00000000
3.12678957 -0.06495094 -0.60791749 8 4 9119 3.18600000 1297829238 1297829238 -11.00000000
8.11122990 -0.16990605 0.70979637 76 5 9120 8.14400000 1297829240 1297829240 5.00000000
3.92814803 -0.08296887 -0.62229627 8 6 9121 3.97800000 1297829243 1297829243 -9.00000000
8.12909508 -0.17311911 0.99835366 90 7 9122 8.19200000 1297829245 1297829245 7.00000000
5.22752810 -0.11223947 -0.64200771 6 8 9123 5.26800000 1297829247 1297829247 -7.00000000
8.19592476 -0.17597345 1.29840600 10 9 9123 8.30000000 1297829250 1297829250 9.00000000
8.06529522 -0.17457704 -0.70578718 17 10 9124 8.09800000 1297829252 1297829252 -5.00000000
8.10491467 -0.17826511 -0.42486328 17 12 9126 8.11800000 1297829257 1297829257 -3.00000000
8.09474659 -0.18086846 -0.14132959 18 14 9128 8.09800000 1297829261 1297829261 -1.00000000
8.17355633 -0.18262938 2.19064450 47 15 9128 8.46400000 1297829264 1297829264 15.00000000
2.21714091 -0.05263700 -0.59424853 4 0 9136 2.29600000 1297829284 1297829284 -15.00000000
8.10244846 -0.19377467 0.14146921 21 1 9137 8.10600000 1297829287 1297829287 1.00000000
2.62029529 -0.06312344 -0.60511833 9 2 9138 2.69000000 1297829289 1297829289 -13.00000000
8.12645245 -0.19718705 0.42601469 18 3 9139 8.14000000 1297829291 1297829291 3.00000000
3.12261868 -0.07576983 -0.60715425 8 4 9139 3.18200000 1297829293 1297829293 -11.00000000
8.10062885 -0.19797510 0.70892483 72 5 9140 8.13400000 1297829296 1297829296 5.00000000
3.91598582 -0.09638851 -0.62041909 8 6 9141 3.96600000 1297829298 1297829298 -9.00000000
8.13439465 -0.20164149 0.99908489 90 7 9142 8.19800000 1297829300 1297829300 7.00000000
5.22313595 -0.13038719 -0.64152020 6 8 9143 5.26400000 1297829303 1297829303 -7.00000000
8.20509815 -0.20626004 1.29997039 10 9 9144 8.31000000 1297829305 1297829305 9.00000000
8.07658768 -0.20302953 -0.70683306 17 10 9144 8.11000000 1297829307 1297829307 -5.00000000
8.11023235 -0.20670812 -0.42517731 17 12 9146 8.12400000 1297829312 1297829312 -3.00000000
8.09606457 -0.20917495 -0.14136449 16 14 9148 8.10000000 1297829317 1297829317 -1.00000000
8.16317558 -0.21233457 2.18805623 47 15 9149 8.45400000 1297829319 1297829319 15.00000000
2.23239279 -0.06079669 -0.59838963 4 0 9156 2.31200000 1297829340 1297829340 -15.00000000
8.09372711 -0.22183716 0.14132959 15 1 9157 8.09800000 1297829342 1297829342 1.00000000
2.61226702 -0.07205467 -0.60331875 9 2 9158 2.68200000 1297829344 1297829344 -13.00000000
8.11972523 -0.22538620 0.42570066 23 3 9159 8.13400000 1297829346 1297829346 3.00000000
3.12626004 -0.08677829 -0.60791749 8 4 9159 3.18600000 1297829349 1297829349 -11.00000000
8.10586357 -0.22641726 0.70944774 72 5 9160 8.14000000 1297829351 1297829351 5.00000000
3.90970182 -0.10989077 -0.61948049 6 6 9161 3.96000000 1297829353 1297829353 -9.00000000
8.12371922 -0.22975399 0.99786621 90 7 9162 8.18800000 1297829356 1297829356 7.00000000
5.23058605 -0.14884441 -0.64249516 8 8 9163 5.27200000 1297829358 1297829358 -7.00000000
8.19844532 -0.23329942 1.29903185 10 9 9163 8.30400000 1297829360 1297829360 9.00000000
8.06387997 -0.23087873 -0.70578718 17 10 9164 8.09800000 1297829363 1297829363 -5.00000000
8.09548664 -0.23461185 -0.42444462 17 12 9166 8.11000000 1297829367 1297829367 -3.00000000
8.09928322 -0.23755145 -0.14143430 18 14 9168 8.10400000 1297829372 1297829372 -1.00000000
8.16821957 -0.23957337 2.18960905 47 15 9168 8.46000000 1297829374 1297829374 15.00000000
2.23989081 -0.06882615 -0.60046017 4 0 9176 2.32000000 1297829395 1297829395 -15.00000000
8.10089874 -0.25033525 0.14146921 15 1 9177 8.10600000 1297829397 1297829397 1.00000000
2.60810399 -0.08105168 -0.60241890 9 2 9178 2.67800000 1297829399 1297829399 -13.00000000
8.11090374 -0.25347841 0.42528197 26 3 9179 8.12600000 1297829402 1297829402 3.00000000
3.13771176 -0.09805840 -0.61020714 6 4 9179 3.19800000 1297829404 1297829404 -11.00000000
8.12892056 -0.25546160 0.71153951 90 5 9180 8.16400000 1297829406 1297829406 5.00000000
3.91521764 -0.12372468 -0.62041909 8 6 9181 3.96600000 1297829409 1297829409 -9.00000000
8.11691570 -0.25792053 0.99713498 90 7 9182 8.18200000 1297829411 1297829411 7.00000000
5.22209835 -0.16684808 -0.64152020 6 8 9183 5.26400000 1297829413 1297829413 -7.00000000
8.20148373 -0.26347351 1.29965758 10 9 9184 8.30800000 1297829416 1297829416 9.00000000
8.08094692 -0.25960127 -0.70735604 17 10 9184 8.11600000 1297829418 1297829418 -5.00000000
8.09262180 -0.26280412 -0.42433992 17 12 9186 8.10800000 1297829422 1297829422 -3.00000000
8.10839748 -0.26614979 -0.14160882 18 14 9188 8.11400000 1297829427 1297829427 -1.00000000
8.16728687 -0.26950979 2.18960905 47 15 9189 8.46000000 1297829429 1297829429 15.00000000
2.24737310 -0.07651646 -0.60253072 4 0 9195 2.32800000 1297829450 1297829450 -15.00000000
8.10801792 -0.27747101 0.14160882 18 1 9196 8.11400000 1297829452 1297829452 1.00000000
2.60587311 -0.08963303 -0.60196900 7 2 9197 2.67600000 1297829455 1297829455 -13.00000000
8.11001873 -0.28037375 0.42528197 26 3 9198 8.12600000 1297829457 1297829457 3.00000000
3.12363482 -0.10798806 -0.60753584 5 4 9198 3.18400000 1297829459 1297829459 -11.00000000
8.11608124 -0.28200155 0.71049362 76 5 9199 8.15200000 1297829462 1297829462 5.00000000
3.92268252 -0.13698308 -0.62167054 8 6 9200 3.97400000 1297829464 1297829464 -9.00000000
8.12593555 -0.28518391 0.99835366 90 7 9201 8.19200000 1297829466 1297829466 7.00000000
5.22151613 -0.18416426 -0.64152020 8 8 9202 5.26400000 1297829469 1297829469 -7.00000000
8.19666767 -0.28909862 1.29903185 10 9 9202 8.30400000 1297829471 1297829471 9.00000000
8.08601570 -0.28660896 -0.70787895 13 10 9203 8.12200000 1297829473 1297829473 -5.00000000
8.09370232 -0.28971022 -0.42444462 17 12 9205 8.11000000 1297829478 1297829478 -3.00000000
8.09547997 -0.29260337 -0.14139940 16 14 9207 8.10200000 1297829482 1297829482 -1.00000000
8.17605305 -0.29551560 2.19219732 47 15 9207 8.47000000 1297829485 1297829485 15.00000000
2.23937035 -0.08407089 -0.60046017 4 0 9215 2.32000000 1297829505 1297829505 -15.00000000
8.11099625 -0.30592230 0.14167863 21 1 9216 8.11800000 1297829508 1297829508 1.00000000
2.61333394 -0.09902383 -0.60376865 7 2 9217 2.68400000 1297829510 1297829510 -13.00000000
8.11298180 -0.30883324 0.42549133 23 3 9218 8.13000000 1297829512 1297829512 3.00000000
3.12912440 -0.11911497 -0.60868067 6 4 9218 3.19000000 1297829515 1297829515 -11.00000000
8.10907459 -0.31010187 0.70997065 76 5 9219 8.14600000 1297829517 1297829517 5.00000000
3.93402386 -0.15112995 -0.62354779 8 6 9220 3.98600000 1297829519 1297829519 -9.00000000
8.13282490 -0.31385317 0.99932861 90 7 9221 8.20000000 1297829522 1297829522 7.00000000
5.21092367 -0.20200515 -0.64030153 8 8 9222 5.25400000 1297829524 1297829524 -7.00000000
8.19160461 -0.31898525 1.29840600 10 9 9223 8.30000000 1297829526 1297829526 9.00000000
6.59777784 -0.25692081 -0.57766825 12 10 9223 6.62800000 1297829528 1297829528 -5.00000000
8.09264183 -0.31796074 -0.42444462 17 12 9225 8.11000000 1297829533 1297829533 -3.00000000
8.09241104 -0.32078087 -0.14136449 16 14 9227 8.10000000 1297829538 1297829538 -1.00000000
8.16333294 -0.32501921 2.18909144 47 15 9228 8.45800000 1297829540 1297829540 15.00000000
2.21977687 -0.09070769 -0.59528381 4 0 9234 2.30000000 1297829561 1297829561 -15.00000000
8.10793972 -0.33273566 0.14164373 18 1 9235 8.11600000 1297829563 1297829563 1.00000000
2.61493826 -0.10776966 -0.60421854 9 2 9236 2.68600000 1297829565 1297829565 -13.00000000
8.11390877 -0.33581775 0.42559600 23 3 9237 8.13200000 1297829568 1297829568 3.00000000
3.12086582 -0.12916613 -0.60715425 6 4 9237 3.18200000 1297829570 1297829570 -11.00000000
8.09804821 -0.33657712 0.70909911 72 5 9238 8.13600000 1297829572 1297829572 5.00000000
3.91771173 -0.16351581 -0.62104481 6 6 9239 3.97000000 1297829575 1297829575 -9.00000000
8.13372231 -0.34090397 0.99957234 87 7 9240 8.20200000 1297829577 1297829577 7.00000000
5.21220827 -0.21936756 -0.64054525 8 8 9241 5.25600000 1297829579 1297829579 -7.00000000
8.20240402 -0.34521669 1.30028331 10 9 9241 8.31200000 1297829581 1297829581 9.00000000
6.58892727 -0.27846193 -0.57697099 16 10 9242 6.62000000 1297829584 1297829584 -5.00000000
8.09952450 -0.34513530 -0.42486328 17 12 9244 8.11800000 1297829588 1297829588 -3.00000000
8.08930492 -0.34752870 -0.14132959 14 14 9246 8.09800000 1297829593 1297829593 -1.00000000
8.16613197 -0.35082927 2.19012666 47 15 9246 8.46200000 1297829595 1297829595 15.00000000
2.21944666 -0.09845560 -0.59528381 4 0 9254 2.30000000 1297829616 1297829616 -15.00000000
8.08475399 -0.36005697 0.14125977 15 1 9255 8.09400000 1297829618 1297829618 1.00000000
2.60286522 -0.11637459 -0.60151911 9 2 9256 2.67400000 1297829621 1297829621 -13.00000000
8.11667824 -0.36431763 0.42580533 21 3 9257 8.13600000 1297829623 1297829623 3.00000000
3.12039590 -0.14005919 -0.60715425 8 4 9257 3.18200000 1297829625 1297829625 -11.00000000
8.10677624 -0.36529097 0.70997065 72 5 9258 8.14600000 1297829628 1297829628 5.00000000
3.89541030 -0.17620827 -0.61760324 4 6 9259 3.94800000 1297829630 1297829630 -9.00000000
8.12455082 -0.36893371 0.99859738 90 7 9260 8.19400000 1297829632 1297829632 7.00000000
5.22925806 -0.23837379 -0.64273894 8 8 9261 5.27400000 1297829634 1297829634 -7.00000000
8.19319057 -0.37491649 1.29903185 10 9 9262 8.30400000 1297829637 1297829637 9.00000000
6.59388590 -0.30173311 -0.57749397 16 10 9262 6.62600000 1297829639 1297829639 -5.00000000
8.09627533 -0.37331381 -0.42475861 17 12 9264 8.11600000 1297829644 1297829644 -3.00000000
8.10002804 -0.37632033 -0.14153902 16 14 9266 8.11000000 1297829648 1297829648 -1.00000000
8.16479111 -0.38075730 2.19012666 47 15 9267 8.46200000 1297829651 1297829651 15.00000000
2.23452663 -0.10694112 -0.59942490 4 0 9274 2.31600000 1297829671 1297829671 -15.00000000
8.09742928 -0.38894743 0.14150411 18 1 9275 8.10800000 1297829674 1297829674 1.00000000
2.60244322 -0.12545958 -0.60151911 9 2 9276 2.67400000 1297829676 1297829676 -13.00000000
8.12333679 -0.39303398 0.42622402 15 3 9277 8.14400000 1297829678 1297829678 3.00000000
3.13165379 -0.15151982 -0.60944390 6 4 9277 3.19400000 1297829681 1297829681 -11.00000000
8.11142159 -0.39387655 0.71049362 72 5 9278 8.15200000 1297829683 1297829683 5.00000000
3.91252875 -0.19067009 -0.62041909 4 6 9279 3.96600000 1297829685 1297829685 -9.00000000
8.11528301 -0.39690354 0.99762243 90 7 9280 8.18600000 1297829687 1297829687 7.00000000
5.21054983 -0.25575000 -0.64054525 8 8 9281 5.25600000 1297829690 1297829690 -7.00000000
8.21557808 -0.40324613 1.30278623 10 9 9281 8.32800000 1297829692 1297829692 9.00000000
6.59677267 -0.32494426 -0.57784259 16 10 9282 6.63000000 1297829694 1297829694 -5.00000000
8.18462944 -0.40459099 1.59287345 6 11 9283 8.34800000 1297829697 1297829697 11.00000000
8.08893871 -0.40127593 -0.42444462 17 12 9284 8.11000000 1297829699 1297829699 -3.00000000
8.11064816 -0.40519106 -0.14174844 14 14 9286 8.12200000 1297829704 1297829704 -1.00000000
8.17313099 -0.40831259 2.19271493 45 15 9286 8.47200000 1297829706 1297829706 15.00000000
2.22642255 -0.11434408 -0.59735435 4 0 9294 2.30800000 1297829727 1297829727 -15.00000000
8.10201359 -0.41751909 0.14160882 15 1 9295 8.11400000 1297829729 1297829729 1.00000000
2.60198951 -0.13454303 -0.60151911 9 2 9296 2.67400000 1297829731 1297829731 -13.00000000
8.11593151 -0.42107689 0.42591003 15 3 9297 8.13800000 1297829734 1297829734 3.00000000
3.12718463 -0.16224696 -0.60868067 6 4 9297 3.19000000 1297829736 1297829736 -11.00000000
8.12790489 -0.42312053 0.71206242 94 5 9298 8.17000000 1297829738 1297829738 5.00000000
3.90986657 -0.20422316 -0.62010622 4 6 9299 3.96400000 1297829740 1297829740 -9.00000000
8.12177753 -0.42564431 0.99859738 90 7 9300 8.19400000 1297829743 1297829743 7.00000000
5.20764303 -0.27383241 -0.64030153 4 8 9301 5.25400000 1297829745 1297829745 -7.00000000
8.19636631 -0.43098786 1.29997039 10 9 9301 8.31000000 1297829747 1297829747 9.00000000
6.59559822 -0.34796932 -0.57784259 28 10 9302 6.63000000 1297829750 1297829750 -5.00000000
8.08948326 -0.42961508 -0.42454928 12 12 9304 8.11200000 1297829754 1297829754 -3.00000000
8.09320927 -0.43264607 -0.14146921 14 14 9306 8.10600000 1297829759 1297829759 -1.00000000
8.17165565 -0.43683964 2.19271493 45 15 9306 8.47200000 1297829761 1297829761 15.00000000
2.22600985 -0.12211505 -0.59735435 4 0 9314 2.30800000 1297829782 1297829782 -15.00000000
8.10449982 -0.44601762 0.14167863 15 1 9315 8.11800000 1297829784 1297829784 1.00000000
2.59955812 -0.14351743 -0.60106921 7 2 9316 2.67200000 1297829787 1297829787 -13.00000000
8.11241817 -0.44929376 0.42580533 18 3 9317 8.13600000 1297829789 1297829789 3.00000000
3.11483765 -0.17251049 -0.60639101 5 4 9317 3.17800000 1297829791 1297829791 -11.00000000
8.10449600 -0.45027387 0.71014500 76 5 9318 8.14800000 1297829793 1297829793 5.00000000
3.92096376 -0.21852945 -0.62198341 4 6 9319 3.97600000 1297829796 1297829796 -9.00000000
8.12024212 -0.45399201 0.99859738 90 7 9320 8.19400000 1297829798 1297829798 7.00000000
5.20665550 -0.29200882 -0.64030153 4 8 9321 5.25400000 1297829800 1297829800 -7.00000000
8.19670391 -0.46113709 1.30028331 10 9 9322 8.31200000 1297829803 1297829803 9.00000000
6.59235430 -0.37087822 -0.57766825 48 10 9322 6.62800000 1297829805 1297829805 -5.00000000
8.09391594 -0.45818868 -0.42486328 17 12 9324 8.11800000 1297829810 1297829810 -3.00000000
8.08366394 -0.46043915 -0.14132959 18 14 9326 8.09800000 1297829814 1297829814 -1.00000000
8.15850830 -0.46470222 2.18960905 47 15 9326 8.46000000 1297829816 1297829816 15.00000000
2.21592712 -0.12932177 -0.59476614 4 0 9334 2.29800000 1297829837 1297829837 -15.00000000
8.09890079 -0.47407117 0.14160882 15 1 9335 8.11400000 1297829840 1297829840 1.00000000
2.60876822 -0.15316178 -0.60331875 9 2 9336 2.68200000 1297829842 1297829842 -13.00000000
8.11079979 -0.47760865 0.42580533 18 3 9337 8.13600000 1297829844 1297829844 3.00000000
3.12009621 -0.18372847 -0.60753584 5 4 9337 3.18400000 1297829846 1297829846 -11.00000000
8.10486317 -0.47867855 0.71031928 76 5 9338 8.15000000 1297829849 1297829849 5.00000000
3.92017722 -0.23221482 -0.62198341 4 6 9339 3.97600000 1297829851 1297829851 -9.00000000
8.13049698 -0.48304054 1.00005984 90 7 9340 8.20600000 1297829853 1297829853 7.00000000
5.21154928 -0.31053588 -0.64103276 6 8 9341 5.26000000 1297829856 1297829856 -7.00000000
8.18715763 -0.48927477 1.29903185 10 9 9342 8.30400000 1297829858 1297829858 9.00000000
8.10422897 -0.48715797 -0.42549133 17 12 9344 8.13000000 1297829865 1297829865 -3.00000000
8.08799553 -0.48901564 -0.14143430 16 14 9346 8.10400000 1297829869 1297829869 -1.00000000
8.15675068 -0.49460155 2.18960905 47 15 9347 8.46000000 1297829872 1297829872 15.00000000
2.22124672 -0.13741386 -0.59631908 4 0 9354 2.30400000 1297829893 1297829893 -15.00000000
8.09520149 -0.50221491 0.14157392 15 1 9355 8.11200000 1297829895 1297829895 1.00000000
2.60043788 -0.16178313 -0.60151911 9 2 9356 2.67400000 1297829897 1297829897 -13.00000000
8.11705685 -0.50641519 0.42622402 18 3 9357 8.14400000 1297829899 1297829899 3.00000000
3.13511133 -0.19559650 -0.61058879 4 4 9357 3.20000000 1297829902 1297829902 -11.00000000
8.09916592 -0.50671810 0.70997065 76 5 9358 8.14600000 1297829904 1297829904 5.00000000
3.89174175 -0.24416572 -0.61760324 4 6 9359 3.94800000 1297829906 1297829906 -9.00000000
8.12083721 -0.51091975 0.99908489 90 7 9360 8.19800000 1297829909 1297829909 7.00000000
5.20647097 -0.32847571 -0.64054525 4 8 9361 5.25600000 1297829911 1297829911 -7.00000000
8.20117092 -0.51884806 1.30153477 10 9 9362 8.32000000 1297829913 1297829913 9.00000000
6.60153484 -0.41764691 -0.57871413 112 10 9362 6.64000000 1297829916 1297829916 -5.00000000
8.17818260 -0.51882684 1.59287345 6 11 9363 8.34800000 1297829918 1297829918 11.00000000
8.09251308 -0.51481003 -0.42496797 17 12 9364 8.12000000 1297829920 1297829920 -3.00000000
8.09222603 -0.51762801 -0.14153902 18 14 9366 8.11000000 1297829925 1297829925 -1.00000000
8.16663265 -0.52238750 2.19271493 45 15 9366 8.47200000 1297829927 1297829927 15.00000000
2.22846437 -0.14567067 -0.59838963 4 0 9374 2.31200000 1297829948 1297829948 -15.00000000
8.09539413 -0.53060019 0.14160882 18 1 9375 8.11400000 1297829950 1297829950 1.00000000
2.59207916 -0.17034820 -0.59971952 9 2 9376 2.66600000 1297829952 1297829952 -13.00000000
8.10926056 -0.53435194 0.42591003 21 3 9377 8.13800000 1297829955 1297829955 3.00000000
3.12657356 -0.20602255 -0.60906231 4 4 9377 3.19200000 1297829957 1297829957 -11.00000000
8.10728836 -0.53564310 0.71084225 76 5 9378 8.15600000 1297829959 1297829959 5.00000000
3.88692355 -0.25748780 -0.61697751 4 6 9379 3.94400000 1297829962 1297829962 -9.00000000
8.11108112 -0.53873742 0.99810994 90 7 9380 8.19000000 1297829964 1297829964 7.00000000
8.12485218 -0.54107642 -0.99981612 2 8 9381 8.20400000 1297829966 1297829966 -7.00000000
8.19142628 -0.54694593 1.30028331 7 9 9382 8.31200000 1297829969 1297829969 9.00000000
8.09265995 -0.54318881 -0.42507264 17 12 9384 8.12200000 1297829975 1297829975 -3.00000000
8.10034561 -0.54654509 -0.14171354 20 14 9386 8.12000000 1297829980 1297829980 -1.00000000
8.16475964 -0.55089116 2.19271493 47 15 9386 8.47200000 1297829982 1297829982 15.00000000
2.22411466 -0.15279491 -0.59735435 4 0 9393 2.30800000 1297830003 1297830003 -15.00000000
8.09757996 -0.55771732 0.14167863 15 1 9394 8.11800000 1297830005 1297830005 1.00000000
2.59344411 -0.17907713 -0.60016942 7 2 9395 2.66800000 1297830008 1297830008 -13.00000000
8.10554981 -0.55968767 0.42580533 23 3 9395 8.13600000 1297830010 1297830010 3.00000000
3.11412168 -0.21557601 -0.60677260 4 4 9396 3.18000000 1297830012 1297830012 -11.00000000
8.11341763 -0.56307667 0.71153951 76 5 9397 8.16400000 1297830015 1297830015 5.00000000
3.89787197 -0.27119854 -0.61885476 4 6 9398 3.95600000 1297830017 1297830017 -9.00000000
8.11321068 -0.56590801 0.99859738 90 7 9399 8.19400000 1297830019 1297830019 7.00000000
5.19817400 -0.36349171 -0.63981408 2 8 9400 5.25000000 1297830021 1297830021 -7.00000000
8.19360828 -0.57295293 1.30090904 7 9 9400 8.31600000 1297830024 1297830024 9.00000000
6.59058905 -0.46201479 -0.57801688 28 10 9401 6.63200000 1297830026 1297830026 -5.00000000
8.08882141 -0.56988168 -0.42496797 17 12 9403 8.12000000 1297830031 1297830031 -3.00000000
8.08851528 -0.57269764 -0.14153902 22 14 9405 8.11000000 1297830035 1297830035 -1.00000000
8.17059612 -0.57850927 2.19478559 47 15 9405 8.48000000 1297830038 1297830038 15.00000000
2.21971393 -0.16027933 -0.59631908 4 0 9413 2.30400000 1297830058 1297830058 -15.00000000
8.09957314 -0.58626848 0.14174844 18 1 9414 8.12200000 1297830061 1297830061 1.00000000
2.59669042 -0.18841091 -0.60106921 7 2 9415 2.67200000 1297830063 1297830063 -13.00000000
8.10742760 -0.58968198 0.42601469 23 3 9416 8.14000000 1297830065 1297830065 3.00000000
3.10160184 -0.22559050 -0.60448289 4 4 9416 3.16800000 1297830068 1297830068 -11.00000000
8.11338997 -0.59153920 0.71171379 76 5 9417 8.16600000 1297830070 1297830070 5.00000000
3.90872240 -0.28566691 -0.62073195 4 6 9418 3.96800000 1297830072 1297830072 -9.00000000
8.11910534 -0.59480512 0.99957234 87 7 9419 8.20200000 1297830074 1297830074 7.00000000
5.20281267 -0.38207069 -0.64054525 4 8 9420 5.25600000 1297830077 1297830077 -7.00000000
8.18751335 -0.60269010 1.30028331 7 9 9421 8.31200000 1297830079 1297830079 9.00000000
6.59489727 -0.48545623 -0.57853985 20 10 9421 6.63800000 1297830081 1297830081 -5.00000000
8.09275818 -0.59855545 -0.42528197 17 12 9423 8.12600000 1297830086 1297830086 -3.00000000
8.08247852 -0.60063195 -0.14146921 18 14 9425 8.10600000 1297830091 1297830091 -1.00000000
8.15878868 -0.60773456 2.19219732 47 15 9426 8.47000000 1297830093 1297830093 15.00000000
2.20758295 -0.16715147 -0.59321326 4 0 9433 2.29200000 1297830114 1297830114 -15.00000000
8.08950138 -0.61393243 0.14160882 15 1 9434 8.11400000 1297830116 1297830116 1.00000000
2.60573244 -0.19821295 -0.60331875 6 2 9435 2.68200000 1297830118 1297830118 -13.00000000
8.10542774 -0.61656398 0.42601469 23 3 9435 8.14000000 1297830121 1297830121 3.00000000
3.11449838 -0.23746051 -0.60715425 5 4 9436 3.18200000 1297830123 1297830123 -11.00000000
8.09935665 -0.61894578 0.71066791 72 5 9437 8.15400000 1297830125 1297830125 5.00000000
3.89588380 -0.29840398 -0.61885476 6 6 9438 3.95600000 1297830127 1297830127 -9.00000000
8.12489605 -0.62375027 1.00054729 90 7 9439 8.21000000 1297830130 1297830130 7.00000000
5.17571735 -0.39824975 -0.63737667 4 8 9440 5.23000000 1297830132 1297830132 -7.00000000
8.19717693 -0.63217753 1.30216050 7 9 9441 8.32400000 1297830134 1297830134 9.00000000
6.58124352 -0.50755453 -0.57749397 40 10 9441 6.62600000 1297830137 1297830137 -5.00000000
8.09659386 -0.62726361 -0.42559600 17 12 9443 8.13200000 1297830141 1297830141 -3.00000000
8.09030151 -0.62961715 -0.14164373 16 14 9445 8.11600000 1297830146 1297830146 -1.00000000
8.15672874 -0.63478673 2.19219732 47 15 9445 8.47000000 1297830148 1297830148 15.00000000
2.21468925 -0.17546667 -0.59528381 4 0 9453 2.30000000 1297830169 1297830169 -15.00000000
8.08332253 -0.64184976 0.14153902 15 1 9454 8.11000000 1297830171 1297830171 1.00000000
2.58948398 -0.20607072 -0.59971952 6 2 9455 2.66600000 1297830173 1297830173 -13.00000000
8.11118984 -0.64548719 0.42643338 21 3 9455 8.14800000 1297830176 1297830176 3.00000000
3.11169338 -0.24817461 -0.60677260 4 4 9456 3.18000000 1297830178 1297830178 -11.00000000
8.09913254 -0.64737278 0.71084225 76 5 9457 8.15600000 1297830180 1297830180 5.00000000
3.87906575 -0.31073946 -0.61635178 6 6 9458 3.94000000 1297830183 1297830183 -9.00000000
8.11475468 -0.65147221 0.99957234 87 7 9459 8.20200000 1297830185 1297830185 7.00000000
5.18221045 -0.41695073 -0.63835162 4 8 9460 5.23800000 1297830187 1297830187 -7.00000000
8.19491959 -0.66078717 1.30216050 7 9 9461 8.32400000 1297830190 1297830190 9.00000000
6.58141756 -0.53068441 -0.57766825 48 10 9461 6.62800000 1297830192 1297830192 -5.00000000
8.18365288 -0.66131628 1.59592640 3 11 9462 8.36400000 1297830194 1297830194 11.00000000
8.08241081 -0.65455484 -0.42496797 17 12 9463 8.12000000 1297830197 1297830197 -3.00000000
8.09004784 -0.65801585 -0.14167863 16 14 9465 8.11800000 1297830201 1297830201 -1.00000000
8.15446281 -0.66325516 2.19219732 47 15 9465 8.47000000 1297830203 1297830203 15.00000000
2.21791387 -0.18351491 -0.59631908 4 0 9473 2.30400000 1297830224 1297830224 -15.00000000
8.09298992 -0.67105335 0.14174844 15 1 9474 8.12200000 1297830226 1297830226 1.00000000
2.58098078 -0.21446297 -0.59791988 6 2 9475 2.65800000 1297830229 1297830229 -13.00000000
8.10876942 -0.67521185 0.42643338 21 3 9476 8.14800000 1297830231 1297830231 3.00000000
3.10689521 -0.25870910 -0.60600936 4 4 9476 3.17600000 1297830233 1297830233 -11.00000000
8.10873604 -0.67663413 0.71188813 76 5 9477 8.16800000 1297830236 1297830236 5.00000000
3.87598896 -0.32411340 -0.61603892 6 6 9478 3.93800000 1297830238 1297830238 -9.00000000
8.10847473 -0.67946249 0.99908489 90 7 9479 8.19800000 1297830240 1297830240 7.00000000
5.18467951 -0.43536970 -0.63883913 4 8 9480 5.24200000 1297830243 1297830243 -7.00000000
8.19662094 -0.68828946 1.30278623 7 9 9480 8.32800000 1297830245 1297830245 9.00000000
6.59937859 -0.55532527 -0.57941139 100 10 9481 6.64800000 1297830247 1297830247 -5.00000000
8.08405685 -0.68310004 -0.42517731 17 12 9483 8.12400000 1297830252 1297830252 -3.00000000
8.09367847 -0.68675858 -0.14178336 16 14 9485 8.12400000 1297830256 1297830256 -1.00000000
8.16352654 -0.69412035 2.19530320 47 15 9486 8.48200000 1297830259 1297830259 15.00000000
2.21341038 -0.19092371 -0.59528381 4 0 9493 2.30000000 1297830279 1297830279 -15.00000000
8.09856701 -0.69998783 0.14188807 15 1 9494 8.13000000 1297830282 1297830282 1.00000000
2.58798218 -0.22414355 -0.59971952 6 2 9495 2.66600000 1297830284 1297830284 -13.00000000
8.11444569 -0.70278716 0.42685205 18 3 9495 8.15600000 1297830286 1297830286 3.00000000
3.10988498 -0.26989210 -0.60677260 4 4 9496 3.18000000 1297830289 1297830289 -11.00000000
8.11625004 -0.70579785 0.71275967 79 5 9497 8.17800000 1297830291 1297830291 5.00000000
3.87876987 -0.33798411 -0.61666465 6 6 9498 3.94200000 1297830293 1297830293 -9.00000000
8.10605335 -0.70776224 0.99908489 90 7 9499 8.19800000 1297830296 1297830296 7.00000000
5.16335297 -0.45173484 -0.63640171 4 8 9500 5.22200000 1297830298 1297830298 -7.00000000
8.20191383 -0.71901697 1.30403769 7 9 9501 8.33600000 1297830300 1297830300 9.00000000
6.60533905 -0.57905400 -0.58010864 80 10 9501 6.65600000 1297830303 1297830303 -5.00000000
8.08361244 -0.71148962 -0.42528197 17 12 9503 8.12600000 1297830307 1297830307 -3.00000000
8.08326435 -0.71430254 -0.14164373 16 14 9505 8.11600000 1297830312 1297830312 -1.00000000
8.16875076 -0.72329366 2.19737363 47 15 9506 8.49000000 1297830314 1297830314 15.00000000
2.20891666 -0.19791779 -0.59424853 4 0 9512 2.29600000 1297830335 1297830335 -15.00000000
8.09420967 -0.72666103 0.14185315 15 1 9513 8.12800000 1297830337 1297830337 1.00000000
2.59110665 -0.23307355 -0.60061932 6 2 9514 2.67000000 1297830339 1297830339 -13.00000000
8.10809135 -0.72933388 0.42664272 18 3 9514 8.15200000 1297830342 1297830342 3.00000000
3.10115170 -0.27949846 -0.60524613 4 4 9515 3.17200000 1297830344 1297830344 -11.00000000
8.10989571 -0.73235005 0.71241105 76 5 9516 8.17400000 1297830346 1297830346 5.00000000
3.88156247 -0.35120073 -0.61729038 6 6 9517 3.94600000 1297830349 1297830349 -9.00000000
8.11354733 -0.73553509 1.00030363 80 7 9518 8.20800000 1297830351 1297830351 7.00000000
5.17961884 -0.47047076 -0.63859534 6 8 9519 5.24000000 1297830353 1297830353 -7.00000000
8.18977833 -0.74388701 1.30247331 5 9 9519 8.32600000 1297830356 1297830356 9.00000000
6.57560396 -0.59842682 -0.57766825 114 10 9520 6.62800000 1297830358 1297830358 -5.00000000
8.09712029 -0.73974562 -0.42611936 17 12 9522 8.14200000 1297830362 1297830362 -3.00000000
8.07686901 -0.74073839 -0.14157392 18 14 9524 8.11200000 1297830367 1297830367 -1.00000000
8.15476513 -0.74931765 2.19426775 47 15 9525 8.47800000 1297830369 1297830369 15.00000000
2.20821238 -0.20562714 -0.59424853 4 0 9532 2.29600000 1297830390 1297830390 -15.00000000
8.08963203 -0.75472492 0.14181826 15 1 9533 8.12600000 1297830392 1297830392 1.00000000
2.59803843 -0.24284223 -0.60241890 6 2 9534 2.67800000 1297830395 1297830395 -13.00000000
8.10748482 -0.75781780 0.42674738 18 3 9534 8.15400000 1297830397 1297830397 3.00000000
3.09233832 -0.28958958 -0.60371965 4 4 9535 3.16400000 1297830399 1297830399 -11.00000000
8.09737206 -0.75972378 0.71153951 83 5 9536 8.16400000 1297830402 1297830402 5.00000000
3.87047935 -0.36382341 -0.61572605 6 6 9537 3.93600000 1297830404 1297830404 -9.00000000
8.12081146 -0.76478279 1.00152230 90 7 9538 8.21800000 1297830406 1297830406 7.00000000
5.17201614 -0.48798874 -0.63786417 8 8 9539 5.23400000 1297830409 1297830409 -7.00000000
8.18123245 -0.77191347 1.30153477 7 9 9539 8.32000000 1297830411 1297830411 9.00000000
6.58140945 -0.62212634 -0.57836550 46 10 9540 6.63600000 1297830413 1297830413 -5.00000000
8.09051228 -0.76762807 -0.42591003 17 12 9542 8.13800000 1297830418 1297830418 -3.00000000
8.08219624 -0.76968575 -0.14171354 16 14 9544 8.12000000 1297830422 1297830422 -1.00000000
8.15979195 -0.77851248 2.19633842 47 15 9545 8.48600000 1297830425 1297830425 15.00000000
2.20367265 -0.21257772 -0.59321326 4 0 9551 2.29200000 1297830445 1297830445 -15.00000000
8.08111382 -0.78096986 0.14171354 12 1 9552 8.12000000 1297830448 1297830448 1.00000000
2.57976174 -0.24976616 -0.59836978 6 2 9553 2.66000000 1297830450 1297830450 -13.00000000
8.11486721 -0.78566140 0.42727074 15 3 9553 8.16400000 1297830452 1297830452 3.00000000
3.09526920 -0.30022162 -0.60448289 4 4 9554 3.16800000 1297830455 1297830455 -11.00000000
8.10472298 -0.78753495 0.71241105 79 5 9555 8.17400000 1297830457 1297830457 5.00000000
3.85942101 -0.37569946 -0.61416173 6 6 9556 3.92600000 1297830459 1297830459 -9.00000000
8.11427975 -0.79132283 1.00103474 90 7 9557 8.21400000 1297830461 1297830461 7.00000000
5.17629671 -0.50571615 -0.63859534 8 8 9558 5.24000000 1297830464 1297830464 -7.00000000
8.20418549 -0.80153620 1.30560207 5 9 9558 8.34600000 1297830466 1297830466 9.00000000
6.57930994 -0.64394766 -0.57836550 40 10 9559 6.63600000 1297830468 1297830468 -5.00000000
8.08792210 -0.79445291 -0.42591003 17 12 9561 8.13800000 1297830473 1297830473 -3.00000000
8.08755970 -0.79726774 -0.14185315 16 14 9563 8.12800000 1297830478 1297830478 -1.00000000
8.14769363 -0.80319571 2.19375014 47 15 9563 8.47600000 1297830480 1297830480 15.00000000
2.20676160 -0.22065309 -0.59424853 4 0 9571 2.29600000 1297830501 1297830501 -15.00000000
8.08032799 -0.80937278 0.14174844 12 1 9572 8.12200000 1297830503 1297830503 1.00000000
2.57499623 -0.25838056 -0.59746999 5 2 9573 2.65600000 1297830505 1297830505 -13.00000000
8.10412598 -0.81318516 0.42685205 13 3 9573 8.15600000 1297830508 1297830508 3.00000000
3.10592294 -0.31220242 -0.60677260 4 4 9574 3.18000000 1297830510 1297830510 -11.00000000
8.10588932 -0.81622016 0.71275967 79 5 9575 8.17800000 1297830512 1297830512 5.00000000
3.84825921 -0.38817778 -0.61259735 6 6 9576 3.91600000 1297830514 1297830514 -9.00000000
8.09961796 -0.81844467 0.99957234 87 7 9577 8.20200000 1297830517 1297830517 7.00000000
5.16659975 -0.52298206 -0.63762039 6 8 9578 5.23200000 1297830519 1297830519 -7.00000000
8.19740677 -0.82977140 1.30497634 5 9 9578 8.34200000 1297830521 1297830521 9.00000000
6.57900429 -0.66711080 -0.57853985 40 10 9579 6.63800000 1297830524 1297830524 -5.00000000
8.08112621 -0.82227582 -0.42570066 17 12 9581 8.13400000 1297830528 1297830528 -3.00000000
8.08870602 -0.82590002 -0.14192297 16 14 9583 8.13200000 1297830533 1297830533 -1.00000000
8.15238285 -0.83383936 2.19582081 47 15 9584 8.48400000 1297830535 1297830535 15.00000000
2.21366429 -0.22915044 -0.59631908 4 0 9591 2.30400000 1297830556 1297830556 -15.00000000
8.08938789 -0.83881092 0.14195788 12 1 9592 8.13400000 1297830558 1297830558 1.00000000
2.57407856 -0.26736739 -0.59746999 4 2 9593 2.65600000 1297830561 1297830561 -13.00000000
8.09513187 -0.84226274 0.42653805 15 3 9594 8.15000000 1297830563 1297830563 3.00000000
3.08919239 -0.32141683 -0.60371965 4 4 9594 3.16400000 1297830565 1297830565 -11.00000000
8.10893536 -0.84512961 0.71328259 76 5 9595 8.18400000 1297830567 1297830567 5.00000000
3.87438655 -0.40447992 -0.61697751 4 6 9596 3.94400000 1297830570 1297830570 -9.00000000
8.10855770 -0.84795141 1.00103474 85 7 9597 8.21400000 1297830572 1297830572 7.00000000
5.15684557 -0.54018641 -0.63664544 6 8 9598 5.22400000 1297830574 1297830574 -7.00000000
8.21017742 -0.86002702 1.30747926 5 9 9598 8.35800000 1297830577 1297830577 9.00000000
6.59446907 -0.69194299 -0.58010864 40 10 9599 6.65600000 1297830579 1297830579 -5.00000000
8.07224751 -0.84985191 -0.42538664 17 12 9601 8.12800000 1297830584 1297830584 -3.00000000
8.08577442 -0.85412979 -0.14192297 16 14 9603 8.13200000 1297830588 1297830588 -1.00000000
8.16302109 -0.86228967 2.19944429 47 15 9603 8.49800000 1297830591 1297830591 15.00000000
2.20132565 -0.23564245 -0.59321326 4 0 9611 2.29200000 1297830611 1297830611 -15.00000000
8.09237576 -0.86768264 0.14206259 12 1 9612 8.14000000 1297830614 1297830614 1.00000000
2.58281755 -0.27739146 -0.59971952 4 2 9613 2.66600000 1297830616 1297830616 -13.00000000
8.10207176 -0.87158298 0.42706141 13 3 9614 8.16000000 1297830618 1297830618 3.00000000
3.07243562 -0.33051828 -0.60066670 4 4 9614 3.14800000 1297830620 1297830620 -11.00000000
8.10395527 -0.87321645 0.71310830 79 5 9615 8.18200000 1297830623 1297830623 5.00000000
3.87295103 -0.41800159 -0.61697751 4 6 9616 3.94400000 1297830625 1297830625 -9.00000000
8.10949516 -0.87667710 1.00152230 85 7 9617 8.21800000 1297830627 1297830627 7.00000000
5.15887594 -0.55861127 -0.63713294 6 8 9618 5.22800000 1297830630 1297830630 -7.00000000
8.19125938 -0.88840902 1.30497634 5 9 9619 8.34200000 1297830632 1297830632 9.00000000
6.57616758 -0.71323913 -0.57871413 12 10 9619 6.64000000 1297830634 1297830634 -5.00000000
8.08908749 -0.88018459 -0.42643338 17 12 9621 8.14800000 1297830639 1297830639 -3.00000000
8.08473110 -0.88256621 -0.14195788 18 14 9623 8.13400000 1297830644 1297830644 -1.00000000
8.15788460 -0.89199281 2.19892669 47 15 9624 8.49600000 1297830646 1297830646 15.00000000
2.20245242 -0.24315301 -0.59373087 4 0 9630 2.29400000 1297830667 1297830667 -15.00000000
8.08349133 -0.89385378 0.14195788 12 1 9631 8.13400000 1297830669 1297830669 1.00000000
2.58575726 -0.28638390 -0.60061932 4 2 9632 2.67000000 1297830671 1297830671 -13.00000000
8.10509205 -0.89910626 0.42737541 13 3 9633 8.16600000 1297830673 1297830673 3.00000000
3.08498168 -0.34222025 -0.60333806 5 4 9633 3.16200000 1297830676 1297830676 -11.00000000
8.10497570 -0.90052539 0.71345693 90 5 9634 8.18600000 1297830678 1297830678 5.00000000
3.87154365 -0.43084246 -0.61697751 4 6 9635 3.94400000 1297830680 1297830680 -9.00000000
8.11048889 -0.90400416 1.00200975 90 7 9636 8.22200000 1297830683 1297830683 7.00000000
