# .PCD v0.7 - Point Cloud Data file format
VERSION 0.7
FIELDS x y z intensity laser_id azimuth distance_m adjustedtime timestamp vertical_angle
SIZE 4 4 4 1 1 2 8 8 4 8
TYPE F F F U U U F U U F
COUNT 1 1 1 1 1 1 1 1 1 1
WIDTH 523
HEIGHT 1
VIEWPOINT 0 0 0 1 0 0 0
POINTS 523
DATA ascii
-3.01437926 10.30169868 2.47806072 57 13 34369 11.01600000 1412599037 1412599037 13.00000000
-2.59771109 8.88347912 2.48000407 40 15 34370 9.58200000 1412599041 1412599041 15.00000000
-0.61138600 2.10166597 -0.58648396 4 0 34378 2.26600000 1412599062 1412599062 -15.00000000
-0.72146493 2.48329854 -0.59702009 3 2 34380 2.65400000 1412599067 1412599067 -13.00000000
-0.85339886 2.93933296 -0.59494245 2 4 34381 3.11800000 1412599071 1412599071 -11.00000000
-1.06943178 3.68821526 -0.60821718 2 6 34383 3.88800000 1412599076 1412599076 -9.00000000
-1.41242361 4.87747717 -0.62348354 2 8 34385 5.11600000 1412599080 1412599080 -7.00000000
-3.08875179 10.68023968 2.16110277 53 11 34387 11.32600000 1412599087 1412599087 11.00000000
-2.97948265 10.31590176 2.47896051 59 13 34389 11.02000000 1412599092 1412599092 13.00000000
-2.56352782 8.88737202 2.47845125 40 15 34391 9.57600000 1412599097 1412599097 15.00000000
-0.60761404 2.11482215 -0.58958977 4 0 34397 2.27800000 1412599117 1412599117 -15.00000000
-0.71430099 2.48942351 -0.59791988 3 2 34399 2.65800000 1412599122 1412599122 -13.00000000
-0.84905845 2.96101880 -0.59875864 2 4 34400 3.13800000 1412599127 1412599127 -11.00000000
-1.05393231 3.68034697 -0.60633999 2 6 34402 3.87600000 1412599131 1412599131 -9.00000000
-1.39624155 4.88213396 -0.62348354 2 8 34404 5.11600000 1412599136 1412599136 -7.00000000
-3.04684782 10.66777039 2.15652323 50 11 34406 11.30200000 1412599143 1412599143 11.00000000
-2.94418859 10.32197762 2.47806072 57 13 34408 11.01600000 1412599147 1412599147 13.00000000
-2.53559470 8.89538193 2.47845125 42 15 34409 9.57600000 1412599152 1412599152 15.00000000
-0.60233617 2.12436461 -0.59166032 4 0 34417 2.28600000 1412599173 1412599173 -15.00000000
-0.70029759 2.47315168 -0.59342086 3 2 34419 2.63800000 1412599177 1412599177 -13.00000000
-0.83978653 2.96774268 -0.59952188 2 4 34420 3.14200000 1412599182 1412599182 -11.00000000
-1.03785598 3.67259789 -0.60446280 2 6 34422 3.86400000 1412599186 1412599186 -9.00000000
-1.37919128 4.88697815 -0.62348354 2 8 34424 5.11600000 1412599191 1412599191 -7.00000000
-3.00746155 10.67078209 2.15499687 50 11 34426 11.29400000 1412599198 1412599198 11.00000000
-2.90602827 10.32468891 2.47626114 57 13 34428 11.00800000 1412599203 1412599203 13.00000000
-2.50400543 8.90231895 2.47793365 40 15 34429 9.57400000 1412599207 1412599207 15.00000000
-0.59528822 2.12635040 -0.59166032 4 0 34436 2.28600000 1412599228 1412599228 -15.00000000
-0.69419134 2.48296738 -0.59522051 3 2 34438 2.64600000 1412599233 1412599233 -13.00000000
-0.83205366 2.97807455 -0.60104835 2 4 34439 3.15000000 1412599237 1412599237 -11.00000000
-1.02567148 3.67601943 -0.60446280 2 6 34441 3.86400000 1412599242 1412599242 -9.00000000
-1.36297786 4.89152479 -0.62348354 2 8 34443 5.11600000 1412599246 1412599246 -7.00000000
-2.97153306 10.67880535 2.15461516 46 11 34445 11.29200000 1412599253 1412599253 11.00000000
-2.86760020 10.31924820 2.47266197 62 13 34447 10.99200000 1412599258 1412599258 13.00000000
-2.47498751 8.91243458 2.47845125 40 15 34448 9.57600000 1412599262 1412599262 15.00000000
-0.58374768 2.11351824 -0.58751923 4 0 34456 2.27000000 1412599283 1412599283 -15.00000000
-0.68759257 2.49288988 -0.59702009 3 2 34458 2.65400000 1412599288 1412599288 -13.00000000
-0.81226283 2.94689274 -0.59417921 2 4 34459 3.11400000 1412599292 1412599292 -11.00000000
-1.01912439 3.70243192 -0.60821718 2 6 34461 3.88800000 1412599297 1412599297 -9.00000000
-1.34589493 4.89625263 -0.62348354 2 8 34463 5.11600000 1412599302 1412599302 -7.00000000
-2.93631768 10.69668579 2.15614176 46 11 34465 11.30000000 1412599309 1412599309 11.00000000
-2.83156180 10.32919502 2.47266197 60 13 34467 10.99200000 1412599313 1412599313 13.00000000
-2.43924475 8.91026592 2.47534537 40 15 34469 9.56400000 1412599318 1412599318 15.00000000
-0.57396740 2.10818768 -0.58544868 4 0 34477 2.26200000 1412599339 1412599339 -15.00000000
-0.67845100 2.49539328 -0.59702009 3 2 34479 2.65400000 1412599343 1412599343 -13.00000000
-0.80763340 2.97258472 -0.59875864 2 4 34480 3.13800000 1412599348 1412599348 -11.00000000
-1.00451303 3.70232940 -0.60759145 2 6 34482 3.88400000 1412599352 1412599352 -9.00000000
-1.33313155 4.92031288 -0.62592095 2 8 34484 5.13600000 1412599357 1412599357 -7.00000000
-2.89504170 10.69979572 2.15461516 43 11 34486 11.29200000 1412599364 1412599364 11.00000000
-2.79266787 10.33574104 2.47176218 57 13 34488 10.98800000 1412599368 1412599368 13.00000000
-2.40661645 8.91313171 2.47379231 40 15 34489 9.55800000 1412599373 1412599373 15.00000000
-0.56760693 2.11390996 -0.58648396 4 0 34497 2.26600000 1412599394 1412599394 -15.00000000
-0.66771758 2.49021721 -0.59522051 3 2 34499 2.64600000 1412599398 1412599398 -13.00000000
-0.79725224 2.97538590 -0.59875864 2 4 34500 3.13800000 1412599403 1412599403 -11.00000000
-0.99158335 3.70581317 -0.60759145 2 6 34502 3.88400000 1412599408 1412599408 -9.00000000
-1.31902301 4.93644333 -0.62738335 2 8 34504 5.14800000 1412599412 1412599412 -7.00000000
-2.85565019 10.70224857 2.15308881 43 11 34506 11.28400000 1412599419 1412599419 11.00000000
-2.75757575 10.34919262 2.47266197 60 13 34508 10.99200000 1412599424 1412599424 13.00000000
-2.37200952 8.90841007 2.47016907 42 15 34509 9.54400000 1412599428 1412599428 15.00000000
-0.56603646 2.13632202 -0.59217799 4 0 34516 2.28800000 1412599450 1412599450 -15.00000000
-0.65945601 2.49241781 -0.59522051 3 2 34518 2.64600000 1412599455 1412599455 -13.00000000
-0.78637743 2.97421718 -0.59799540 2 4 34519 3.13400000 1412599459 1412599459 -11.00000000
-0.97928894 3.70908093 -0.60759145 2 6 34521 3.88400000 1412599464 1412599464 -9.00000000
-1.29454863 4.91007805 -0.62348354 2 8 34523 5.11600000 1412599468 1412599468 -7.00000000
-2.82114434 10.71545696 2.15385199 43 11 34525 11.28800000 1412599475 1412599475 11.00000000
-2.71828651 10.33943272 2.46816301 60 13 34527 10.97200000 1412599480 1412599480 13.00000000
-2.34245515 8.91622734 2.47016907 40 15 34528 9.54400000 1412599485 1412599485 15.00000000
-0.55808759 2.13641572 -0.59166032 4 0 34536 2.28600000 1412599505 1412599505 -15.00000000
-0.65075183 2.49470448 -0.59522051 3 2 34538 2.64600000 1412599510 1412599510 -13.00000000
-0.77698112 2.98074365 -0.59875864 2 4 34539 3.13800000 1412599515 1412599515 -11.00000000
-0.96733105 3.71630001 -0.60821718 2 6 34541 3.88800000 1412599519 1412599519 -9.00000000
-1.28239512 4.93377972 -0.62592095 2 8 34543 5.13600000 1412599524 1412599524 -7.00000000
-2.78175020 10.71763802 2.15232539 46 11 34545 11.28000000 1412599531 1412599531 11.00000000
-2.67728949 10.32999420 2.46366405 62 13 34547 10.95200000 1412599535 1412599535 13.00000000
-2.30975986 8.92475224 2.47016907 40 15 34549 9.54400000 1412599540 1412599540 15.00000000
-0.55099994 2.13825464 -0.59166032 4 0 34555 2.28600000 1412599561 1412599561 -15.00000000
-0.64538926 2.50817227 -0.59791988 3 2 34557 2.65800000 1412599565 1412599565 -13.00000000
-0.77002579 2.99471211 -0.60104835 2 4 34558 3.15000000 1412599570 1412599570 -11.00000000
-0.95991462 3.73862052 -0.61134589 2 6 34560 3.90800000 1412599574 1412599574 -9.00000000
-1.26602709 4.93800497 -0.62592095 2 8 34562 5.13600000 1412599579 1412599579 -7.00000000
-2.74814177 10.73441124 2.15385199 43 11 34564 11.28800000 1412599586 1412599586 11.00000000
-2.64398456 10.34259224 2.46456385 57 13 34566 10.95600000 1412599591 1412599591 13.00000000
-2.27645111 8.91137600 2.46447492 38 15 34567 9.52200000 1412599595 1412599595 15.00000000
-0.53972840 2.12518573 -0.58751923 4 0 34575 2.27000000 1412599616 1412599616 -15.00000000
-0.63854629 2.51796579 -0.59971952 3 2 34577 2.66600000 1412599620 1412599620 -13.00000000
-0.75860304 2.99357557 -0.60028511 2 4 34578 3.14600000 1412599625 1412599625 -11.00000000
-0.94007450 3.71513820 -0.60696572 2 6 34580 3.88000000 1412599630 1412599630 -9.00000000
-1.24780989 4.93854523 -0.62543344 2 8 34582 5.13200000 1412599634 1412599634 -7.00000000
-2.70873380 10.73632431 2.15232539 43 11 34584 11.28000000 1412599641 1412599641 11.00000000
-2.60691404 10.34797859 2.46366405 60 13 34586 10.95200000 1412599646 1412599646 13.00000000
-2.24533057 8.91926765 2.46447492 42 15 34587 9.52200000 1412599650 1412599650 15.00000000
-0.53512079 2.13830113 -0.59062505 4 0 34595 2.28200000 1412599671 1412599671 -15.00000000
-0.62786329 2.51261687 -0.59791988 3 2 34597 2.65800000 1412599676 1412599676 -13.00000000
-0.74910015 3.00001502 -0.60104835 4 4 34598 3.15000000 1412599680 1412599680 -11.00000000
-0.92805630 3.72223043 -0.60759145 2 6 34600 3.88400000 1412599685 1412599685 -9.00000000
-1.23056364 4.94287062 -0.62543344 2 8 34602 5.13200000 1412599690 1412599690 -7.00000000
-2.66745162 10.73047161 2.14927244 43 11 34604 11.26400000 1412599697 1412599697 11.00000000
-2.56889915 10.34945011 2.46186423 59 13 34606 10.94400000 1412599701 1412599701 13.00000000
-2.21169543 8.92368698 2.46343970 38 15 34608 9.51800000 1412599706 1412599706 15.00000000
-0.53042817 2.15141010 -0.59373087 4 0 34615 2.29400000 1412599726 1412599726 -15.00000000
-0.61722547 2.50722432 -0.59612030 3 2 34617 2.65000000 1412599731 1412599731 -13.00000000
-0.74049944 3.01023722 -0.60257483 2 4 34618 3.15800000 1412599736 1412599736 -11.00000000
-0.91694242 3.73312068 -0.60884291 2 6 34620 3.89200000 1412599740 1412599740 -9.00000000
-1.21897626 4.97027159 -0.62835836 2 8 34622 5.15600000 1412599745 1412599745 -7.00000000
-2.63184690 10.74734497 2.15079904 43 11 34624 11.27200000 1412599752 1412599752 11.00000000
-2.53183150 10.35456848 2.46096444 60 13 34626 10.94000000 1412599756 1412599756 13.00000000
-2.18053246 8.93135262 2.46343970 40 15 34628 9.51800000 1412599761 1412599761 15.00000000
-0.52473873 2.16075778 -0.59580141 4 0 34635 2.30200000 1412599782 1412599782 -15.00000000
-0.60938835 2.51315117 -0.59702009 3 2 34637 2.65400000 1412599786 1412599786 -13.00000000
-0.72906262 3.00898767 -0.60181159 2 4 34638 3.15400000 1412599791 1412599791 -11.00000000
-0.90715724 3.74973869 -0.61103302 2 6 34640 3.90600000 1412599796 1412599796 -9.00000000
-1.19602609 4.95134115 -0.62543344 2 8 34642 5.13200000 1412599800 1412599800 -7.00000000
-2.59523606 10.76028347 2.15156221 43 11 34644 11.27600000 1412599807 1412599807 11.00000000
-2.49202180 10.34818649 2.45736527 57 13 34646 10.92400000 1412599812 1412599812 13.00000000
-2.14753628 8.93139648 2.46136904 40 15 34648 9.51000000 1412599816 1412599816 15.00000000
-0.51359832 2.14754534 -0.59166032 4 0 34655 2.28600000 1412599837 1412599837 -15.00000000
-0.60151732 2.51905394 -0.59791988 3 2 34657 2.65800000 1412599842 1412599842 -13.00000000
-0.71855485 3.01151419 -0.60181159 2 4 34658 3.15400000 1412599846 1412599846 -11.00000000
-0.89772505 3.76825523 -0.61353600 2 6 34660 3.92200000 1412599851 1412599851 -9.00000000
-1.18332911 4.97479773 -0.62787086 2 8 34662 5.15200000 1412599856 1412599856 -7.00000000
-2.55584526 10.76163673 2.15003586 43 11 34664 11.26800000 1412599862 1412599862 11.00000000
-2.45408607 10.34923744 2.45556569 55 13 34666 10.91600000 1412599867 1412599867 13.00000000
-2.11545658 8.93507862 2.46033382 40 15 34668 9.50600000 1412599872 1412599872 15.00000000
-0.50558776 2.14547586 -0.59062505 4 0 34674 2.28200000 1412599892 1412599892 -15.00000000
-0.59494579 2.52862263 -0.59971952 3 2 34676 2.66600000 1412599897 1412599897 -13.00000000
-0.70946300 3.01770282 -0.60257483 2 4 34677 3.15800000 1412599902 1412599902 -11.00000000
-0.88386989 3.76544213 -0.61259735 2 6 34679 3.91600000 1412599906 1412599906 -9.00000000
-1.16773152 4.98256016 -0.62835836 2 8 34681 5.15600000 1412599911 1412599911 -7.00000000
-2.51835513 10.76240635 2.14850926 43 11 34683 11.26000000 1412599918 1412599918 11.00000000
-2.42152667 10.36490917 2.45736527 56 13 34685 10.92400000 1412599922 1412599922 13.00000000
-2.08474088 8.93039322 2.45722795 38 15 34686 9.49400000 1412599927 1412599927 15.00000000
-0.49765903 2.14534593 -0.59010744 4 0 34694 2.28000000 1412599948 1412599948 -15.00000000
-0.58347744 2.51929307 -0.59702009 3 2 34696 2.65400000 1412599952 1412599952 -13.00000000
-0.69981021 3.02398634 -0.60333806 2 4 34697 3.16200000 1412599957 1412599957 -11.00000000
-0.86627364 3.74925780 -0.60946870 2 6 34699 3.89600000 1412599961 1412599961 -9.00000000
-1.14631605 4.96919727 -0.62616467 2 8 34701 5.13800000 1412599966 1412599966 -7.00000000
-2.47812819 10.75965309 2.14621949 43 11 34703 11.24800000 1412599973 1412599973 11.00000000
-2.38533163 10.37329865 2.45736527 55 13 34705 10.92400000 1412599978 1412599978 13.00000000
-2.04896951 8.92479420 2.45360446 38 15 34707 9.48000000 1412599982 1412599982 15.00000000
-0.49231720 2.15648699 -0.59269559 4 0 34714 2.29000000 1412600003 1412600003 -15.00000000
-0.57294768 2.51371431 -0.59522051 3 2 34716 2.64600000 1412600008 1412600008 -13.00000000
-0.69186598 3.03789616 -0.60562778 2 4 34717 3.17400000 1412600012 1412600012 -11.00000000
-0.85931271 3.77922583 -0.61384887 2 6 34719 3.92400000 1412600017 1412600017 -9.00000000
-1.12456882 4.95380974 -0.62372732 4 8 34721 5.11800000 1412600021 1412600021 -7.00000000
-2.43795133 10.75674915 2.14392996 43 11 34723 11.23600000 1412600028 1412600028 11.00000000
-2.34523678 10.36445522 2.45331621 54 13 34725 10.90600000 1412600033 1412600033 13.00000000
-2.02021456 8.93530846 2.45463991 38 15 34726 9.48400000 1412600038 1412600038 15.00000000
-0.48732701 2.16950154 -0.59580141 4 0 34734 2.30200000 1412600058 1412600058 -15.00000000
-0.56672823 2.52710795 -0.59791988 3 2 34736 2.65800000 1412600063 1412600063 -13.00000000
-0.67954046 3.03262973 -0.60410130 2 4 34737 3.16600000 1412600067 1412600067 -11.00000000
-0.84870303 3.79376864 -0.61572605 2 6 34739 3.93600000 1412600072 1412600072 -9.00000000
-1.11289501 4.98289108 -0.62689590 2 8 34741 5.14400000 1412600077 1412600077 -7.00000000
-2.40038824 10.76519394 2.14392996 43 11 34743 11.23600000 1412600084 1412600084 11.00000000
-2.30735016 10.36497021 2.45151663 54 13 34745 10.89800000 1412600088 1412600088 13.00000000
-1.98745143 8.94265270 2.45463991 38 15 34747 9.48400000 1412600093 1412600093 15.00000000
-0.47520730 2.15240884 -0.59062505 4 0 34755 2.28200000 1412600114 1412600114 -15.00000000
-0.56081784 2.54439259 -0.60151911 3 2 34757 2.67400000 1412600118 1412600118 -13.00000000
-0.66673172 3.02743077 -0.60257483 2 4 34758 3.15800000 1412600123 1412600123 -11.00000000
-0.83479244 3.79685378 -0.61572605 2 6 34760 3.93600000 1412600127 1412600127 -9.00000000
-2.36343718 10.78542614 2.14621949 43 11 34764 11.24800000 1412600139 1412600139 11.00000000
-2.26892853 10.37145329 2.45106673 50 13 34766 10.89600000 1412600144 1412600144 13.00000000
-1.95333588 8.93632507 2.45101643 36 15 34767 9.47000000 1412600148 1412600148 15.00000000
-0.46769109 2.15405464 -0.59062505 4 0 34775 2.28200000 1412600169 1412600169 -15.00000000
-0.55193281 2.54633474 -0.60151911 3 2 34777 2.67400000 1412600173 1412600173 -13.00000000
-0.65574443 3.02782083 -0.60219318 2 4 34778 3.15600000 1412600178 1412600178 -11.00000000
-0.82069898 3.79588318 -0.61510032 2 6 34780 3.93200000 1412600183 1412600183 -9.00000000
-2.32163930 10.77441788 2.14240336 43 11 34784 11.22800000 1412600194 1412600194 11.00000000
-2.23312140 10.38121605 2.45151663 55 13 34786 10.89800000 1412600199 1412600199 13.00000000
-1.91732466 8.92831326 2.44687533 38 15 34788 9.45400000 1412600203 1412600203 15.00000000
-0.46296722 2.16692901 -0.59373087 4 0 34794 2.29400000 1412600224 1412600224 -15.00000000
-0.54307932 2.54624510 -0.60106921 3 2 34796 2.67200000 1412600229 1412600229 -13.00000000
-0.64651859 3.03381896 -0.60295641 2 4 34797 3.16000000 1412600233 1412600233 -11.00000000
-0.80646271 3.79085517 -0.61384887 2 6 34799 3.92400000 1412600238 1412600238 -9.00000000
-2.28263974 10.76669312 2.13935041 46 11 34803 11.21200000 1412600249 1412600249 11.00000000
-2.19949079 10.39237690 2.45241642 51 13 34805 10.90200000 1412600254 1412600254 13.00000000
-1.88846672 8.93051243 2.44583988 38 15 34806 9.45000000 1412600259 1412600259 15.00000000
-0.45460632 2.16475058 -0.59269559 4 0 34814 2.29000000 1412600279 1412600279 -15.00000000
-0.53298843 2.54240346 -0.59971952 3 2 34816 2.66600000 1412600284 1412600284 -13.00000000
-0.63833952 3.04758644 -0.60524613 2 4 34817 3.17200000 1412600289 1412600289 -11.00000000
-0.80131114 3.83231854 -0.62010622 2 6 34819 3.96400000 1412600293 1412600293 -9.00000000
-1.05132663 5.03680801 -0.63177067 2 8 34821 5.18400000 1412600298 1412600298 -7.00000000
-2.24304080 10.76498508 2.13744235 50 11 34823 11.20200000 1412600305 1412600305 11.00000000
-2.16042328 10.38663578 2.44926715 53 13 34825 10.88800000 1412600309 1412600309 13.00000000
-1.85847127 8.95061493 2.44946337 38 15 34827 9.46400000 1412600314 1412600314 15.00000000
-0.44898832 2.17381382 -0.59476614 4 0 34833 2.29800000 1412600335 1412600335 -15.00000000
-0.52298051 2.53652263 -0.59791988 3 2 34835 2.65800000 1412600339 1412600339 -13.00000000
-0.62664545 3.04199505 -0.60371965 2 4 34836 3.16400000 1412600344 1412600344 -11.00000000
-0.78302795 3.80786610 -0.61572605 2 6 34838 3.93600000 1412600349 1412600349 -9.00000000
-2.20930099 10.78198051 2.13935041 46 11 34842 11.21200000 1412600360 1412600360 11.00000000
-2.12635875 10.39565182 2.44971704 51 13 34844 10.89000000 1412600365 1412600365 13.00000000
-1.82956934 8.95262432 2.44842815 38 15 34845 9.46000000 1412600369 1412600369 15.00000000
-0.43909261 2.16400814 -0.59166032 4 0 34853 2.28600000 1412600390 1412600390 -15.00000000
-0.51489693 2.54215264 -0.59881973 3 2 34855 2.66200000 1412600395 1412600395 -13.00000000
-0.61602306 3.04416394 -0.60371965 2 4 34856 3.16400000 1412600399 1412600399 -11.00000000
-0.76894903 3.80670381 -0.61510032 2 6 34858 3.93200000 1412600404 1412600404 -9.00000000
-1.01466382 5.03217173 -0.63030827 2 8 34860 5.17200000 1412600408 1412600408 -7.00000000
-2.17165136 10.78962708 2.13935041 50 11 34862 11.21200000 1412600415 1412600415 11.00000000
-2.08890653 10.39727974 2.44836736 53 13 34864 10.88400000 1412600420 1412600420 13.00000000
-1.79636419 8.95737553 2.44791055 40 15 34866 9.45800000 1412600425 1412600425 15.00000000
-0.43153614 2.16552782 -0.59166032 4 0 34873 2.28600000 1412600445 1412600445 -15.00000000
-0.50754076 2.55157971 -0.60061932 3 2 34875 2.67000000 1412600450 1412600450 -13.00000000
-0.60462785 3.04244447 -0.60295641 2 4 34876 3.16000000 1412600455 1412600455 -11.00000000
-0.75335026 3.79773879 -0.61322308 2 6 34878 3.92000000 1412600459 1412600459 -9.00000000
-2.13321400 10.79329014 2.13858724 46 11 34882 11.20800000 1412600471 1412600471 11.00000000
-2.05260062 10.40450764 2.44836736 49 13 34884 10.88400000 1412600475 1412600475 13.00000000
-1.76702416 8.96517849 2.44842815 40 15 34885 9.46000000 1412600480 1412600480 15.00000000
-0.42471626 2.17081285 -0.59269559 4 0 34893 2.29000000 1412600501 1412600501 -15.00000000
-0.49863100 2.55333567 -0.60061932 3 2 34895 2.67000000 1412600505 1412600505 -13.00000000
-0.59776360 3.06380582 -0.60677260 2 4 34896 3.18000000 1412600510 1412600510 -11.00000000
-0.73782355 3.78871179 -0.61134589 2 6 34898 3.90800000 1412600514 1412600514 -9.00000000
-0.98481101 5.06641340 -0.63372058 2 8 34900 5.20000000 1412600519 1412600519 -7.00000000
-2.09103823 10.77754307 2.13400769 43 11 34902 11.18400000 1412600526 1412600526 11.00000000
-2.01738119 10.41734886 2.44971704 55 13 34904 10.89000000 1412600531 1412600531 13.00000000
-1.73498523 8.96749878 2.44739294 42 15 34905 9.45600000 1412600535 1412600535 15.00000000
-0.41968632 2.18556237 -0.59631908 4 0 34913 2.30400000 1412600556 1412600556 -15.00000000
-0.48751417 2.54357743 -0.59791988 3 2 34915 2.65800000 1412600561 1412600561 -13.00000000
-0.58780372 3.06973004 -0.60753584 2 4 34916 3.18400000 1412600565 1412600565 -11.00000000
-0.72978550 3.81842780 -0.61572605 2 6 34918 3.93600000 1412600570 1412600570 -9.00000000
-0.96488810 5.05812073 -0.63225818 2 8 34920 5.18800000 1412600574 1412600574 -7.00000000
-2.05413914 10.78863335 2.13477111 46 11 34922 11.18800000 1412600581 1412600581 11.00000000
-1.98027778 10.42049885 2.44881725 53 13 34924 10.88600000 1412600586 1412600586 13.00000000
-1.70403254 8.97539806 2.44791055 40 15 34925 9.45800000 1412600590 1412600590 15.00000000
-0.41205472 2.18701410 -0.59631908 4 0 34933 2.30400000 1412600611 1412600611 -15.00000000
-0.48151362 2.56058502 -0.60151911 3 2 34935 2.67400000 1412600616 1412600616 -13.00000000
-0.57635975 3.06790423 -0.60677260 2 4 34936 3.18000000 1412600620 1412600620 -11.00000000
-0.71572417 3.81706882 -0.61510032 2 6 34938 3.93200000 1412600625 1412600625 -9.00000000
-0.94722611 5.06145811 -0.63225818 2 8 34940 5.18800000 1412600630 1412600630 -7.00000000
-2.01863003 10.80731678 2.13706064 43 11 34942 11.20000000 1412600637 1412600637 11.00000000
-1.94317710 10.42351627 2.44791746 53 13 34944 10.88200000 1412600641 1412600641 13.00000000
-1.67183137 8.98538208 2.44894576 40 15 34946 9.46200000 1412600646 1412600646 15.00000000
-0.40374589 2.18266964 -0.59476614 4 0 34952 2.29800000 1412600667 1412600667 -15.00000000
-0.47231218 2.55833483 -0.60061932 3 2 34954 2.67000000 1412600671 1412600671 -13.00000000
-0.56262219 3.05049181 -0.60295641 2 4 34955 3.16000000 1412600676 1412600676 -11.00000000
-0.70663851 3.83884859 -0.61822903 2 6 34957 3.95200000 1412600680 1412600680 -9.00000000
-0.93258864 5.07628584 -0.63372058 2 8 34959 5.20000000 1412600685 1412600685 -7.00000000
-1.98313475 10.81588268 2.13744235 50 11 34961 11.20200000 1412600692 1412600692 11.00000000
-1.90719771 10.42223454 2.44611788 52 13 34963 10.87400000 1412600696 1412600696 13.00000000
-1.64116287 8.97728729 2.44532228 40 15 34964 9.44800000 1412600701 1412600701 15.00000000
-0.39405593 2.17266059 -0.59166032 4 0 34972 2.28600000 1412600722 1412600722 -15.00000000
-0.46546164 2.57147360 -0.60331875 3 2 34974 2.68200000 1412600726 1412600726 -13.00000000
-0.55616271 3.07562017 -0.60753584 2 4 34975 3.18400000 1412600731 1412600731 -11.00000000
-0.69218165 3.83545995 -0.61729038 2 6 34977 3.94600000 1412600736 1412600736 -9.00000000
-0.91275215 5.06778812 -0.63225818 2 8 34979 5.18800000 1412600740 1412600740 -7.00000000
-1.34354520 7.46711063 -0.66377813 4 10 34980 7.61600000 1412600745 1412600745 -5.00000000
-1.94154763 10.80148411 2.13324451 46 11 34981 11.18000000 1412600747 1412600747 11.00000000
-1.87080574 10.42882919 2.44611788 55 13 34983 10.87400000 1412600752 1412600752 13.00000000
-1.60777175 8.97155190 2.44221640 45 15 34984 9.43600000 1412600756 1412600756 15.00000000
-0.38820279 2.18156314 -0.59373087 4 0 34991 2.29400000 1412600777 1412600777 -15.00000000
-0.45488733 2.56149054 -0.60061932 3 2 34993 2.67000000 1412600782 1412600782 -13.00000000
-0.54527467 3.07358146 -0.60677260 2 4 34994 3.18000000 1412600786 1412600786 -11.00000000
-0.67773706 3.82800865 -0.61572605 2 6 34996 3.93600000 1412600791 1412600791 -9.00000000
-0.89732331 5.07860661 -0.63323313 2 8 34998 5.19600000 1412600795 1412600795 -7.00000000
-1.31877601 7.47152472 -0.66377813 4 10 34999 7.61600000 1412600800 1412600800 -5.00000000
-1.90435421 10.80012989 2.13171816 46 11 35000 11.17200000 1412600802 1412600802 11.00000000
-1.83688760 10.43881416 2.44701767 52 13 35002 10.87800000 1412600807 1412600807 13.00000000
-1.57734323 8.97302914 2.44118118 40 15 35003 9.43200000 1412600812 1412600812 15.00000000
-0.38257620 2.19432402 -0.59683675 4 0 35011 2.30600000 1412600832 1412600832 -15.00000000
-0.44594330 2.56306291 -0.60061932 3 2 35013 2.67000000 1412600837 1412600837 -13.00000000
-0.53387016 3.07159758 -0.60600936 2 4 35014 3.17600000 1412600842 1412600842 -11.00000000
-0.66572106 3.83813620 -0.61697751 2 6 35016 3.94400000 1412600846 1412600846 -9.00000000
-0.88297588 5.10126781 -0.63567048 2 8 35018 5.21600000 1412600851 1412600851 -7.00000000
-1.86363566 10.78929996 2.12828350 50 11 35020 11.15400000 1412600858 1412600858 11.00000000
-1.79845202 10.43363953 2.44431806 54 13 35022 10.86600000 1412600862 1412600862 13.00000000
-1.54346228 8.97303772 2.43962836 45 15 35024 9.42600000 1412600867 1412600867 15.00000000
-0.37323171 2.18809390 -0.59476614 4 0 35032 2.29800000 1412600888 1412600888 -15.00000000
-0.43621922 2.56275892 -0.60016942 3 2 35034 2.66800000 1412600892 1412600892 -13.00000000
-0.52458322 3.08514643 -0.60829908 2 4 35035 3.18800000 1412600897 1412600897 -11.00000000
-0.65396225 3.85418320 -0.61916763 2 6 35037 3.95800000 1412600901 1412600901 -9.00000000
-0.86427283 5.10446978 -0.63567048 2 8 35039 5.21600000 1412600906 1412600906 -7.00000000
-1.82767618 10.81735134 2.13248134 46 11 35041 11.17600000 1412600913 1412600913 11.00000000
-1.75857878 10.43055344 2.44206858 56 13 35043 10.85600000 1412600918 1412600918 13.00000000
-1.51245201 8.98027611 2.44014597 40 15 35044 9.42800000 1412600922 1412600922 15.00000000
-0.36559156 2.18938351 -0.59476614 4 0 35052 2.29800000 1412600943 1412600943 -15.00000000
-0.42887232 2.57387733 -0.60241890 3 2 35054 2.67800000 1412600947 1412600947 -13.00000000
-0.51252145 3.07921243 -0.60677260 2 4 35055 3.18000000 1412600952 1412600952 -11.00000000
-0.64050466 3.85644245 -0.61916763 2 6 35057 3.95800000 1412600957 1412600957 -9.00000000
-0.84450233 5.09570503 -0.63420808 2 8 35059 5.20400000 1412600961 1412600961 -7.00000000
-1.78926480 10.81979179 2.13171816 46 11 35061 11.17200000 1412600968 1412600968 11.00000000
-1.72342777 10.44431877 2.44386816 56 13 35063 10.86400000 1412600973 1412600973 13.00000000
-1.47826803 8.96834564 2.43548727 45 15 35064 9.41000000 1412600977 1412600977 15.00000000
-0.35676998 2.18105125 -0.59217799 4 0 35071 2.28800000 1412600998 1412600998 -15.00000000
-0.42127642 2.58105516 -0.60376865 3 2 35073 2.68400000 1412601003 1412601003 -13.00000000
-0.50230759 3.08089495 -0.60677260 2 4 35074 3.18000000 1412601007 1412601007 -11.00000000
-0.62866431 3.86439466 -0.62010622 2 6 35076 3.96400000 1412601012 1412601012 -9.00000000
-0.83904994 5.16901779 -0.64298266 2 8 35078 5.27600000 1412601017 1412601017 -7.00000000
-1.75337529 10.82566547 2.13171816 46 11 35080 11.17200000 1412601024 1412601024 11.00000000
-1.68816185 10.44612885 2.44296837 56 13 35082 10.86000000 1412601028 1412601028 13.00000000
-1.44480097 8.96010113 2.43186378 45 15 35084 9.39600000 1412601033 1412601033 15.00000000
-0.35007012 2.18800616 -0.59373087 4 0 35091 2.29400000 1412601053 1412601053 -15.00000000
-0.40980670 2.56711483 -0.60016942 3 2 35093 2.66800000 1412601058 1412601058 -13.00000000
-0.49155021 3.08262968 -0.60677260 2 4 35094 3.18000000 1412601063 1412601063 -11.00000000
-0.61330891 3.85486054 -0.61822903 2 6 35096 3.95200000 1412601067 1412601067 -9.00000000
-0.81166500 5.11309862 -0.63567048 2 8 35098 5.21600000 1412601072 1412601072 -7.00000000
-1.71311891 10.81620789 2.12866521 46 11 35100 11.15600000 1412601079 1412601079 11.00000000
-1.65290451 10.45965767 2.44476795 56 13 35102 10.86800000 1412601083 1412601083 13.00000000
-1.41411734 8.96890640 2.43289900 42 15 35104 9.40000000 1412601088 1412601088 15.00000000
-0.34281251 2.18915486 -0.59373087 4 0 35110 2.29400000 1412601109 1412601109 -15.00000000
-0.40129158 2.56845975 -0.60016942 3 2 35112 2.66800000 1412601113 1412601113 -13.00000000
-0.48132515 3.08424282 -0.60677260 2 4 35113 3.18000000 1412601118 1412601118 -11.00000000
-0.60356146 3.87639165 -0.62135768 2 6 35115 3.97200000 1412601123 1412601123 -9.00000000
-0.79714262 5.13145494 -0.63762039 2 8 35117 5.23200000 1412601127 1412601127 -7.00000000
-1.67784309 10.82570934 2.12942839 40 11 35119 11.16000000 1412601134 1412601134 11.00000000
-1.61642325 10.45352650 2.44206858 56 13 35121 10.85600000 1412601139 1412601139 13.00000000
-1.38495672 8.97736454 2.43393421 42 15 35123 9.40400000 1412601143 1412601143 15.00000000
-0.33692214 2.20179605 -0.59683675 4 0 35130 2.30600000 1412601164 1412601164 -15.00000000
-0.39349991 2.57755065 -0.60196900 3 2 35132 2.67600000 1412601169 1412601169 -13.00000000
-0.47173998 3.09366727 -0.60829908 2 4 35133 3.18800000 1412601173 1412601173 -11.00000000
-0.58764988 3.86285162 -0.61885476 2 6 35135 3.95600000 1412601178 1412601178 -9.00000000
-0.78577876 5.17738342 -0.64298266 2 8 35137 5.27600000 1412601183 1412601183 -7.00000000
-1.64033806 10.83344078 2.12981009 43 11 35139 11.16200000 1412601189 1412601189 11.00000000
-1.57875943 10.45139790 2.44026899 56 13 35141 10.84800000 1412601194 1412601194 13.00000000
-1.35303557 8.97832394 2.43289900 40 15 35143 9.40000000 1412601199 1412601199 15.00000000
-0.32866329 2.19913745 -0.59580141 4 0 35150 2.30200000 1412601219 1412601219 -15.00000000
-0.38363808 2.57312608 -0.60061932 3 2 35152 2.67000000 1412601224 1412601224 -13.00000000
-0.45978153 3.08752775 -0.60677260 2 4 35153 3.18000000 1412601229 1412601229 -11.00000000
-0.57822633 3.89223433 -0.62323493 2 6 35155 3.98400000 1412601233 1412601233 -9.00000000
-0.76479137 5.16045856 -0.64054525 2 8 35157 5.25600000 1412601238 1412601238 -7.00000000
-1.12904263 7.62743711 -0.67458546 4 10 35158 7.74000000 1412601242 1412601242 -5.00000000
-1.60165083 10.83327484 2.12866521 46 11 35159 11.15600000 1412601245 1412601245 11.00000000
-1.54113030 10.44913292 2.43846941 57 13 35161 10.84000000 1412601249 1412601249 13.00000000
-1.32043958 8.96364880 2.42772269 45 15 35162 9.38000000 1412601254 1412601254 15.00000000
-0.31986937 2.19262481 -0.59373087 4 0 35170 2.29400000 1412601275 1412601275 -15.00000000
-0.37577641 2.58216333 -0.60241890 3 2 35172 2.67800000 1412601279 1412601279 -13.00000000
-0.45182514 3.10854244 -0.61058879 2 4 35173 3.20000000 1412601284 1412601284 -11.00000000
-0.56151837 3.87272477 -0.61979336 2 6 35175 3.96200000 1412601288 1412601288 -9.00000000
-0.75075155 5.19060183 -0.64395761 2 8 35177 5.28400000 1412601293 1412601293 -7.00000000
-1.08474958 7.50907278 -0.66377813 4 10 35178 7.61600000 1412601298 1412601298 -5.00000000
-1.56270444 10.83102703 2.12713861 46 11 35179 11.14800000 1412601300 1412601300 11.00000000
-1.50575709 10.46216488 2.44026899 55 13 35181 10.84800000 1412601305 1412601305 13.00000000
-1.28757727 8.96842861 2.42772269 42 15 35183 9.38000000 1412601309 1412601309 15.00000000
-0.31166932 2.18990278 -0.59269559 4 0 35190 2.29000000 1412601330 1412601330 -15.00000000
-0.36621287 2.57960057 -0.60151911 3 2 35192 2.67400000 1412601335 1412601335 -13.00000000
-0.43931791 3.09843779 -0.60829908 2 4 35193 3.18800000 1412601339 1412601339 -11.00000000
-0.54882652 3.88052893 -0.62073195 2 6 35195 3.96800000 1412601344 1412601344 -9.00000000
-0.72541863 5.14208460 -0.63762039 2 8 35197 5.23200000 1412601348 1412601348 -7.00000000
-1.52324617 10.82475090 2.12484908 43 11 35199 11.13600000 1412601355 1412601355 11.00000000
-1.46976984 10.47121620 2.44116879 56 13 35201 10.85200000 1412601360 1412601360 13.00000000
-1.25863433 8.97838783 2.42927551 45 15 35202 9.38600000 1412601365 1412601365 15.00000000
-0.30455428 2.19480443 -0.59373087 4 0 35210 2.29400000 1412601385 1412601385 -15.00000000
-0.35560313 2.56928110 -0.59881973 3 2 35212 2.66200000 1412601390 1412601390 -13.00000000
-0.42849967 3.09995222 -0.60829908 2 4 35213 3.18800000 1412601394 1412601394 -11.00000000
-0.54013395 3.91764474 -0.62636358 2 6 35215 4.00400000 1412601399 1412601399 -9.00000000
-0.70800585 5.14851856 -0.63810790 2 8 35217 5.23600000 1412601404 1412601404 -7.00000000
-0.61645252 4.48855972 -0.39638433 5 10 35218 4.54800000 1412601408 1412601408 -5.00000000
-1.48491788 10.82611179 2.12408566 43 11 35219 11.13200000 1412601411 1412601411 11.00000000
-0.55702657 4.06639290 -0.21510078 1 12 35220 4.11000000 1412601413 1412601413 -3.00000000
-1.43056822 10.45697594 2.43666983 56 13 35221 10.83200000 1412601415 1412601415 13.00000000
-0.54599833 3.99625897 -0.07040301 1 14 35222 4.03400000 1412601418 1412601418 -1.00000000
-1.22493494 8.97719860 2.42772269 42 15 35223 9.38000000 1412601420 1412601420 15.00000000
-0.29805893 2.20739269 -0.59683675 4 0 35231 2.30600000 1412601441 1412601441 -15.00000000
-0.34774444 2.58215499 -0.60151911 3 2 35233 2.67400000 1412601445 1412601445 -13.00000000
-0.42079857 3.12874222 -0.61364174 2 4 35234 3.21600000 1412601450 1412601450 -11.00000000
-0.52314520 3.90001965 -0.62323493 2 6 35236 3.98400000 1412601454 1412601454 -9.00000000
-0.61542702 4.60016108 -0.56986105 2 8 35238 4.67600000 1412601459 1412601459 -7.00000000
-0.60026079 4.49276400 -0.39655864 5 10 35239 4.55000000 1412601464 1412601464 -5.00000000
-1.44522822 10.83148193 2.12408566 43 11 35240 11.13200000 1412601466 1412601466 11.00000000
-0.52523524 3.94170284 -0.20840178 1 12 35241 3.98200000 1412601468 1412601468 -3.00000000
-1.39068949 10.45055866 2.43397045 56 13 35242 10.82000000 1412601471 1412601471 13.00000000
-0.51870275 3.90308452 -0.06872758 1 14 35243 3.93800000 1412601473 1412601473 -1.00000000
-1.19359124 8.98141956 2.42772269 42 15 35243 9.38000000 1412601475 1412601475 15.00000000
-0.29035187 2.20841980 -0.59683675 4 0 35251 2.30600000 1412601496 1412601496 -15.00000000
-0.51100928 3.89199829 0.06851815 1 1 35252 3.92600000 1412601498 1412601498 1.00000000
-0.33771551 2.57562423 -0.59971952 3 2 35253 2.66600000 1412601500 1412601500 -13.00000000
-0.40630609 3.10293913 -0.60829908 4 4 35254 3.18800000 1412601505 1412601505 -11.00000000
-0.50952840 3.90182209 -0.62323493 2 6 35256 3.98400000 1412601510 1412601510 -9.00000000
-0.59423852 4.56291199 -0.56498629 4 8 35258 4.63600000 1412601514 1412601514 -7.00000000
-0.57892144 4.45136547 -0.39272377 7 10 35259 4.50600000 1412601519 1412601519 -5.00000000
-1.40741050 10.83646107 2.12408566 43 11 35260 11.13200000 1412601521 1412601521 11.00000000
-0.50427997 3.88805342 -0.20547096 5 12 35261 3.92600000 1412601523 1412601523 -3.00000000
-1.35470235 10.45921421 2.43487024 59 13 35262 10.82400000 1412601526 1412601526 13.00000000
-0.50071454 3.87115717 -0.06813420 3 14 35263 3.90400000 1412601528 1412601528 -1.00000000
-1.15868485 8.97040653 2.42358160 42 15 35264 9.36400000 1412601530 1412601530 15.00000000
-0.28215098 2.20558739 -0.59580141 4 0 35271 2.30200000 1412601551 1412601551 -15.00000000
-0.49285936 3.85805392 0.06788986 3 1 35272 3.89000000 1412601553 1412601553 1.00000000
-0.33069566 2.59225202 -0.60331875 3 2 35273 2.68200000 1412601556 1412601556 -13.00000000
-0.39596853 3.10823369 -0.60906231 2 4 35274 3.19200000 1412601560 1412601560 -11.00000000
-0.49839488 3.92317319 -0.62636358 2 6 35276 4.00400000 1412601565 1412601565 -9.00000000
-0.57930529 4.57283592 -0.56596124 6 8 35278 4.64400000 1412601570 1412601570 -7.00000000
-0.56237954 4.44545269 -0.39202654 7 10 35279 4.49800000 1412601574 1412601574 -5.00000000
-1.36809921 10.82962036 2.12179613 40 11 35280 11.12000000 1412601576 1412601576 11.00000000
-0.49470466 3.92149496 -0.20714572 5 12 35281 3.95800000 1412601579 1412601579 -3.00000000
-1.31842828 10.46581268 2.43532014 62 13 35282 10.82600000 1412601581 1412601581 13.00000000
-0.48495236 3.85502505 -0.06782005 4 14 35283 3.88600000 1412601583 1412601583 -1.00000000
-1.12700260 8.95886612 2.41944051 42 15 35283 9.34800000 1412601586 1412601586 15.00000000
-0.27445033 2.20655870 -0.59580141 4 0 35291 2.30200000 1412601606 1412601606 -15.00000000
-0.47692451 3.83990645 0.06754081 3 1 35292 3.87000000 1412601609 1412601609 1.00000000
-0.32068560 2.58565497 -0.60151911 3 2 35293 2.67400000 1412601611 1412601611 -13.00000000
-0.38463375 3.10570002 -0.60829908 2 4 35294 3.18800000 1412601616 1412601616 -11.00000000
-0.48227632 3.90528417 -0.62323493 2 6 35296 3.98400000 1412601620 1412601620 -9.00000000
-0.56236917 4.56694937 -0.56498629 6 8 35298 4.63600000 1412601625 1412601625 -7.00000000
-0.54515648 4.43354607 -0.39080635 7 10 35299 4.48400000 1412601629 1412601629 -5.00000000
-1.32765663 10.81289577 2.11759830 40 11 35300 11.09800000 1412601632 1412601632 11.00000000
-0.47615191 3.88354945 -0.20505227 3 12 35301 3.91800000 1412601634 1412601634 -3.00000000
-1.28236139 10.47422028 2.43621993 57 13 35302 10.83000000 1412601636 1412601636 13.00000000
-0.47052220 3.84875464 -0.06768043 4 14 35303 3.87800000 1412601639 1412601639 -1.00000000
-1.09415913 8.96293640 2.41944051 40 15 35304 9.34800000 1412601641 1412601641 15.00000000
-0.26759580 2.21129251 -0.59683675 4 0 35310 2.30600000 1412601662 1412601662 -15.00000000
-0.46370852 3.83749628 0.06747101 3 1 35311 3.86600000 1412601664 1412601664 1.00000000
-0.31234291 2.58863878 -0.60196900 3 2 35312 2.67600000 1412601666 1412601666 -13.00000000
-0.49047437 4.07093287 0.21489143 12 3 35313 4.10600000 1412601669 1412601669 3.00000000
-0.37527213 3.11475515 -0.60982555 2 4 35313 3.19600000 1412601671 1412601671 -11.00000000
-0.46932331 3.90686178 -0.62323493 2 6 35315 3.98400000 1412601676 1412601676 -9.00000000
-0.54722154 4.56878901 -0.56498629 6 8 35317 4.63600000 1412601680 1412601680 -7.00000000
-0.53139770 4.44324255 -0.39150360 7 10 35318 4.49200000 1412601685 1412601685 -5.00000000
-1.29155970 10.81528950 2.11721659 40 11 35319 11.09600000 1412601687 1412601687 11.00000000
-0.46279800 3.88114071 -0.20484294 3 12 35320 3.91400000 1412601689 1412601689 -3.00000000
-1.24623811 10.46680450 2.43352056 57 13 35321 10.81800000 1412601692 1412601692 13.00000000
-0.45704845 3.84433675 -0.06757572 4 14 35322 3.87200000 1412601694 1412601694 -1.00000000
-1.06645203 8.97016621 2.42047572 45 15 35322 9.35200000 1412601696 1412601696 15.00000000
-0.26032609 2.21605039 -0.59787202 4 0 35330 2.31000000 1412601717 1412601717 -15.00000000
-0.45077625 3.84306383 0.06754081 3 1 35331 3.87000000 1412601719 1412601719 1.00000000
-0.30421174 2.59745550 -0.60376865 3 2 35332 2.68400000 1412601722 1412601722 -13.00000000
-0.47834903 4.09047365 0.21583349 49 3 35333 4.12400000 1412601724 1412601724 3.00000000
-0.36485338 3.11994600 -0.61058879 2 4 35333 3.20000000 1412601726 1412601726 -11.00000000
-0.46861407 4.01329947 0.35350370 1 5 35334 4.05600000 1412601729 1412601729 5.00000000
-0.45614046 3.91240048 -0.62386066 2 6 35335 3.98800000 1412601731 1412601731 -9.00000000
-0.52897817 4.55095339 -0.56254888 6 8 35337 4.61600000 1412601735 1412601735 -7.00000000
-0.51083148 4.40153027 -0.38766876 10 10 35338 4.44800000 1412601740 1412601740 -5.00000000
-1.25515532 10.83143330 2.11950636 40 11 35339 11.10800000 1412601742 1412601742 11.00000000
-0.44741100 3.86686039 -0.20400555 3 12 35340 3.89800000 1412601745 1412601745 -3.00000000
-1.20835268 10.45947552 2.43082118 60 13 35341 10.80600000 1412601747 1412601747 13.00000000
-0.44248068 3.83597612 -0.06740119 4 14 35342 3.86200000 1412601749 1412601749 -1.00000000
-1.03356755 8.97401428 2.42047572 42 15 35343 9.35200000 1412601752 1412601752 15.00000000
-0.25209987 2.20922399 -0.59580141 4 0 35349 2.30200000 1412601772 1412601772 -15.00000000
-0.43712422 3.83659005 0.06740119 3 1 35350 3.86200000 1412601775 1412601775 1.00000000
-0.29493579 2.59264112 -0.60241890 3 2 35351 2.67800000 1412601777 1412601777 -13.00000000
-0.46275327 4.07417679 0.21489143 63 3 35352 4.10600000 1412601779 1412601779 3.00000000
-0.35361901 3.11333585 -0.60906231 2 4 35352 3.19200000 1412601782 1412601782 -11.00000000
-0.45193529 3.98513579 0.35088903 1 5 35353 4.02600000 1412601784 1412601784 5.00000000
-0.44405296 3.92174292 -0.62511212 2 6 35354 3.99600000 1412601786 1412601786 -9.00000000
-0.51432908 4.55662775 -0.56303638 6 8 35356 4.62000000 1412601791 1412601791 -7.00000000
-0.49355516 4.37944174 -0.38557699 10 10 35357 4.42400000 1412601795 1412601795 -5.00000000
-1.21923018 10.83553600 2.11950636 43 11 35358 11.10800000 1412601798 1412601798 11.00000000
-0.43436259 3.86633801 -0.20390089 3 12 35359 3.89600000 1412601800 1412601800 -3.00000000
-1.17409563 10.46729851 2.43172097 59 13 35360 10.81000000 1412601802 1412601802 13.00000000
-0.42730957 3.81556225 -0.06701724 4 14 35361 3.84000000 1412601805 1412601805 -1.00000000
-1.00450981 8.96953773 2.41840506 45 15 35361 9.34400000 1412601807 1412601807 15.00000000
-0.24396205 2.20625019 -0.59476614 4 0 35369 2.29800000 1412601828 1412601828 -15.00000000
-0.42109615 3.81424117 0.06698234 3 1 35370 3.83800000 1412601830 1412601830 1.00000000
-0.28716502 2.60527706 -0.60511833 3 2 35371 2.69000000 1412601832 1412601832 -13.00000000
-0.44699958 4.06187057 0.21415873 40 3 35372 4.09200000 1412601835 1412601835 3.00000000
-0.34274927 3.11455131 -0.60906231 2 4 35372 3.19200000 1412601837 1412601837 -11.00000000
-0.43584585 3.96688437 0.34914592 1 5 35373 4.00600000 1412601839 1412601839 5.00000000
-0.43079162 3.92719626 -0.62573785 2 6 35374 4.00000000 1412601841 1412601841 -9.00000000
-0.49798882 4.55444860 -0.56254888 6 8 35376 4.61600000 1412601846 1412601846 -7.00000000
-0.47631910 4.36331224 -0.38400820 10 10 35377 4.40600000 1412601851 1412601851 -5.00000000
-1.18012333 10.82801533 2.11721659 40 11 35378 11.09600000 1412601853 1412601853 11.00000000
-0.41978368 3.85790300 -0.20337753 1 12 35379 3.88600000 1412601855 1412601855 -3.00000000
-1.13670897 10.46358395 2.42992139 59 13 35380 10.80200000 1412601858 1412601858 13.00000000
-0.41549751 3.83094692 -0.06726158 4 14 35381 3.85400000 1412601860 1412601860 -1.00000000
-0.97215259 8.96338654 2.41581702 40 15 35381 9.33400000 1412601862 1412601862 15.00000000
-0.23646493 2.20900917 -0.59528381 4 0 35389 2.30000000 1412601883 1412601883 -15.00000000
-0.40735438 3.81171107 0.06691252 3 1 35390 3.83400000 1412601885 1412601885 1.00000000
-0.27600172 2.58688617 -0.60061932 3 2 35391 2.67000000 1412601888 1412601888 -13.00000000
-0.43535683 4.08723831 0.21541479 24 3 35392 4.11600000 1412601890 1412601890 3.00000000
-0.33187538 3.11572886 -0.60906231 2 4 35392 3.19200000 1412601892 1412601892 -11.00000000
-0.41988936 3.94856930 0.34740278 1 5 35393 3.98600000 1412601894 1412601894 5.00000000
-0.41457802 3.90510416 -0.62198341 2 6 35394 3.97600000 1412601897 1412601897 -9.00000000
-0.48334107 4.56800365 -0.56401134 6 8 35396 4.62800000 1412601901 1412601901 -7.00000000
-0.44873679 4.24804783 -0.37372383 7 10 35397 4.28800000 1412601906 1412601906 -5.00000000
-1.14108396 10.82035446 2.11492682 40 11 35398 11.08400000 1412601908 1412601908 11.00000000
-0.40589628 3.85537219 -0.20316818 1 12 35399 3.88200000 1412601911 1412601911 -3.00000000
-1.10058463 10.47136402 2.43082118 60 13 35400 10.80600000 1412601913 1412601913 13.00000000
-0.40066174 3.81845236 -0.06701724 4 14 35401 3.84000000 1412601915 1412601915 -1.00000000
-0.94065702 8.96480465 2.41529942 42 15 35401 9.33200000 1412601917 1412601917 15.00000000
-0.22974719 2.21942902 -0.59787202 4 0 35409 2.31000000 1412601938 1412601938 -15.00000000
-0.39486879 3.82106614 0.06705215 3 1 35410 3.84200000 1412601941 1412601941 1.00000000
-0.26836997 2.60140300 -0.60376865 3 2 35411 2.68400000 1412601943 1412601943 -13.00000000
-0.41842711 4.06290531 0.21405406 22 3 35412 4.09000000 1412601945 1412601945 3.00000000
-0.32361206 3.14225626 -0.61402333 2 4 35412 3.21800000 1412601947 1412601947 -11.00000000
-0.40610373 3.95001101 0.34740278 1 5 35413 3.98600000 1412601950 1412601950 5.00000000
-0.40336433 3.93010807 -0.62573785 2 6 35414 4.00000000 1412601952 1412601952 -9.00000000
-0.46698883 4.56571341 -0.56352383 6 8 35416 4.62400000 1412601957 1412601957 -7.00000000
-0.43775085 4.28724766 -0.37703574 5 10 35417 4.32600000 1412601961 1412601961 -5.00000000
-1.10211241 10.81255245 2.11263728 37 11 35418 11.07200000 1412601964 1412601964 11.00000000
-0.38980767 3.83093452 -0.20180745 1 12 35419 3.85600000 1412601966 1412601966 -3.00000000
-1.06245065 10.45963192 2.42722178 60 13 35420 10.79000000 1412601968 1412601968 13.00000000
-0.38712865 3.81783819 -0.06698234 4 14 35421 3.83800000 1412601970 1412601970 -1.00000000
-0.90798759 8.97011375 2.41581702 40 15 35422 9.33400000 1412601973 1412601973 15.00000000
-0.22218664 2.22602320 -0.59942490 3 0 35430 2.31600000 1412601994 1412601994 -15.00000000
-0.38006818 3.81452847 0.06691252 3 1 35431 3.83400000 1412601996 1412601996 1.00000000
-0.25941217 2.60818648 -0.60511833 3 2 35432 2.69000000 1412601998 1412601998 -13.00000000
-0.40096775 4.03857422 0.21269332 14 3 35433 4.06400000 1412602000 1412602000 3.00000000
-0.31015328 3.12388468 -0.61020714 2 4 35433 3.19800000 1412602003 1412602003 -11.00000000
-0.38887250 3.92371535 0.34496242 3 5 35434 3.95800000 1412602005 1412602005 5.00000000
-0.38740122 3.91583371 -0.62323493 2 6 35435 3.98400000 1412602007 1412602007 -9.00000000
-0.44927779 4.55751657 -0.56230515 6 8 35437 4.61400000 1412602012 1412602012 -7.00000000
-0.42300993 4.29873753 -0.37790731 5 10 35438 4.33600000 1412602017 1412602017 -5.00000000
-1.06285882 10.82042694 2.11340046 40 11 35439 11.07600000 1412602019 1412602019 11.00000000
-0.37595889 3.83432531 -0.20191212 1 12 35440 3.85800000 1412602021 1412602021 -3.00000000
-1.02296805 10.45181847 2.42452240 59 13 35441 10.77800000 1412602023 1412602023 13.00000000
-0.37274411 3.81525111 -0.06691252 4 14 35442 3.83400000 1412602026 1412602026 -1.00000000
-0.87723404 8.97899723 2.41736984 45 15 35442 9.34000000 1412602028 1412602028 15.00000000
-0.21348922 2.21717024 -0.59683675 4 0 35450 2.30600000 1412602049 1412602049 -15.00000000
-0.36713329 3.81981277 0.06698234 3 1 35451 3.83800000 1412602051 1412602051 1.00000000
-0.24993411 2.60519648 -0.60421854 3 2 35452 2.68600000 1412602053 1412602053 -13.00000000
-0.38839117 4.05585480 0.21353070 26 3 35453 4.08000000 1412602056 1412602056 3.00000000
-0.29962128 3.12885714 -0.61097038 2 4 35453 3.20200000 1412602058 1412602058 -11.00000000
-0.37536338 3.92703223 0.34513673 4 5 35454 3.96000000 1412602060 1412602060 5.00000000
-0.37448052 3.92502809 -0.62448639 2 6 35455 3.99200000 1412602063 1412602063 -9.00000000
-0.43580839 4.58474779 -0.56547374 6 8 35457 4.64000000 1412602067 1412602067 -7.00000000
-0.41383594 4.36167574 -0.38331094 7 10 35458 4.39800000 1412602072 1412602072 -5.00000000
-1.02508211 10.82407093 2.11340046 40 11 35459 11.07600000 1412602074 1412602074 11.00000000
-0.36351210 3.84555626 -0.20243548 1 12 35460 3.86800000 1412602076 1412602076 -3.00000000
-0.98757648 10.46696663 2.42722178 59 13 35461 10.79000000 1412602079 1412602079 13.00000000
-0.35886165 3.81055617 -0.06680781 4 14 35462 3.82800000 1412602081 1412602081 -1.00000000
-0.84479934 8.97046375 2.41426396 42 15 35462 9.32800000 1412602083 1412602083 15.00000000
-0.20506296 2.20632482 -0.59373087 4 0 35469 2.29400000 1412602104 1412602104 -15.00000000
-0.35298660 3.80508018 0.06670310 3 1 35470 3.82200000 1412602106 1412602106 1.00000000
-0.24237159 2.61765361 -0.60691792 3 2 35471 2.69800000 1412602109 1412602109 -13.00000000
-0.37638399 4.06500959 0.21394938 22 3 35471 4.08800000 1412602111 1412602111 3.00000000
-0.29032797 3.14156294 -0.61326009 2 4 35472 3.21400000 1412602113 1412602113 -11.00000000
-0.36069182 3.91039968 0.34356794 3 5 35473 3.94200000 1412602116 1412602116 5.00000000
-0.36146259 3.92624831 -0.62448639 2 6 35474 3.99200000 1412602118 1412602118 -9.00000000
-0.42350313 4.61779642 -0.56937355 6 8 35476 4.67200000 1412602122 1412602122 -7.00000000
-0.40027788 4.37294483 -0.38418251 2 10 35477 4.40800000 1412602127 1412602127 -5.00000000
-0.98918253 10.82741070 2.11340046 40 11 35478 11.07600000 1412602129 1412602129 11.00000000
-0.35057640 3.84475160 -0.20233081 1 12 35479 3.86600000 1412602132 1412602132 -3.00000000
-0.95180166 10.45853996 2.42452240 59 13 35480 10.77800000 1412602134 1412602134 13.00000000
-0.34477630 3.79579329 -0.06652857 6 14 35481 3.81200000 1412602136 1412602136 -1.00000000
-0.81434858 8.96552086 2.41219354 42 15 35481 9.32000000 1412602139 1412602139 15.00000000
-0.19753227 2.20895123 -0.59424853 4 0 35489 2.29600000 1412602159 1412602159 -15.00000000
-0.33828017 3.79035497 0.06642386 4 1 35490 3.80600000 1412602162 1412602162 1.00000000
-0.23150387 2.59907317 -0.60241890 3 2 35491 2.67800000 1412602164 1412602164 -13.00000000
