# .PCD v0.7 - Point Cloud Data file format
VERSION 0.7
FIELDS x y z intensity laser_id azimuth distance_m adjustedtime timestamp vertical_angle
SIZE 4 4 4 1 1 2 8 8 4 8
TYPE F F F U U U F U U F
COUNT 1 1 1 1 1 1 1 1 1 1
WIDTH 527
HEIGHT 1
VIEWPOINT 0 0 0 1 0 0 0
POINTS 527
DATA ascii
-3.86802745 1.37506092 -0.50405163 8 8 28957 4.13600000 1411184165 1411184165 -7.00000000
-5.15285492 1.83282256 -0.47848502 6 10 28958 5.49000000 1411184170 1411184170 -5.00000000
-4.11114931 1.46391439 -0.22870813 8 12 28960 4.37000000 1411184174 1411184174 -3.00000000
-9.82839680 3.50166774 2.40877581 59 13 28961 10.70800000 1411184177 1411184177 13.00000000
-3.96873188 1.41476309 -0.07354444 56 14 28962 4.21400000 1411184179 1411184179 -1.00000000
-8.34639359 2.97694230 2.37440586 45 15 28963 9.17400000 1411184181 1411184181 15.00000000
-1.89698899 0.67922038 -0.53989655 4 0 28970 2.08600000 1411184202 1411184202 -15.00000000
-4.05121899 1.45134413 0.07511516 7 1 28971 4.30400000 1411184204 1411184204 1.00000000
-3.98993301 1.43017435 -0.97853708 6 2 28972 4.35000000 1411184207 1411184207 -13.00000000
-4.10781717 1.47323847 0.22870813 7 3 28973 4.37000000 1411184209 1411184209 3.00000000
-2.54839110 0.91396183 -0.52625120 3 4 28973 2.75800000 1411184211 1411184211 -11.00000000
-3.10482574 1.11474633 -0.52249110 3 6 28975 3.34000000 1411184216 1411184216 -9.00000000
-1.91117287 0.68655777 0.24934468 1 7 28976 2.04600000 1411184218 1411184218 7.00000000
-3.85946774 1.38721156 -0.50356412 6 8 28977 4.13200000 1411184221 1411184221 -7.00000000
-5.15579987 1.85416949 -0.47935659 6 10 28978 5.50000000 1411184225 1411184225 -5.00000000
-9.91448212 3.56747866 2.04814386 12 11 28979 10.73400000 1411184227 1411184227 11.00000000
-4.10413504 1.47757947 -0.22860345 6 12 28980 4.36800000 1411184230 1411184230 -3.00000000
-9.80144691 3.53067040 2.40517664 62 13 28981 10.69200000 1411184232 1411184232 13.00000000
-3.96000671 1.42725182 -0.07347463 57 14 28982 4.21000000 1411184234 1411184234 -1.00000000
-8.34011078 3.00591373 2.37544131 47 15 28982 9.17800000 1411184237 1411184237 15.00000000
-1.88552403 0.68255019 -0.53730834 4 0 28990 2.07600000 1411184257 1411184257 -15.00000000
-4.04988813 1.46683860 0.07518496 7 1 28991 4.30800000 1411184260 1411184260 1.00000000
-3.99957371 1.44940472 -0.98213631 6 2 28992 4.36600000 1411184262 1411184262 -13.00000000
-4.10264969 1.48756850 0.22870813 7 3 28993 4.37000000 1411184264 1411184264 3.00000000
-2.54149389 0.92151338 -0.52548796 3 4 28993 2.75400000 1411184267 1411184267 -11.00000000
-1.88231087 0.68287373 0.17518304 1 5 28994 2.01000000 1411184269 1411184269 5.00000000
-3.09348845 1.12288141 -0.52123964 3 6 28995 3.33200000 1411184271 1411184271 -9.00000000
-1.87331355 0.68034965 0.24471363 8 7 28996 2.00800000 1411184274 1411184274 7.00000000
-3.85833335 1.40203106 -0.50405163 6 8 28997 4.13600000 1411184276 1411184276 -7.00000000
-5.14180660 1.86943209 -0.47865933 6 10 28998 5.49200000 1411184280 1411184280 -5.00000000
-9.91672897 3.60743427 2.05119681 12 11 28999 10.75000000 1411184283 1411184283 11.00000000
-4.11959696 1.49941075 -0.22975485 6 12 29000 4.39000000 1411184285 1411184285 -3.00000000
-9.78906250 3.56486225 2.40517664 66 13 29001 10.69200000 1411184287 1411184287 13.00000000
-3.95124292 1.43969691 -0.07340482 59 14 29002 4.20600000 1411184290 1411184290 -1.00000000
-8.31814766 3.03249145 2.37233543 45 15 29003 9.16600000 1411184292 1411184292 15.00000000
-1.87043071 0.68448043 -0.53368485 4 0 29010 2.06200000 1411184313 1411184313 -15.00000000
-4.04474354 1.48096645 0.07518496 5 1 29011 4.30800000 1411184315 1411184315 1.00000000
-3.99631977 1.46402740 -0.98258621 6 2 29012 4.36800000 1411184317 1411184317 -13.00000000
-4.12181044 1.51081598 0.23006886 7 3 29013 4.39600000 1411184320 1411184320 3.00000000
-2.55300832 0.93578446 -0.52854091 3 4 29013 2.77000000 1411184322 1411184322 -11.00000000
-1.88739800 0.69218409 0.17588028 11 5 29014 2.01800000 1411184324 1411184324 5.00000000
-3.07842302 1.12959003 -0.51936245 3 6 29015 3.32000000 1411184327 1411184327 -9.00000000
-3.84968925 1.41412175 -0.50356412 6 8 29017 4.13200000 1411184331 1411184331 -7.00000000
-5.14459991 1.89080560 -0.47953090 3 10 29018 5.50200000 1411184336 1411184336 -5.00000000
-9.90407658 3.64202809 2.05119681 18 11 29019 10.75000000 1411184338 1411184338 11.00000000
-4.11621237 1.51447129 -0.22985952 6 12 29020 4.39200000 1411184340 1411184340 -3.00000000
-9.78021717 3.60035729 2.40607643 60 13 29021 10.69600000 1411184343 1411184343 13.00000000
-3.95369911 1.45624518 -0.07354444 59 14 29022 4.21400000 1411184345 1411184345 -1.00000000
-8.30442047 3.05872321 2.37129998 47 15 29022 9.16200000 1411184347 1411184347 15.00000000
-1.88071311 0.69569689 -0.53730834 4 0 29030 2.07600000 1411184368 1411184368 -15.00000000
-4.04705095 1.49785256 0.07532459 5 1 29031 4.31600000 1411184370 1411184370 1.00000000
-2.17285681 0.80462646 -0.53493363 3 2 29032 2.37800000 1411184373 1411184373 -13.00000000
-4.12962103 1.53005195 0.23080157 7 3 29033 4.41000000 1411184375 1411184375 3.00000000
-2.54236245 0.94196206 -0.52701443 3 4 29033 2.76200000 1411184377 1411184377 -11.00000000
-1.87936592 0.69669050 0.17535736 23 5 29034 2.01200000 1411184380 1411184380 5.00000000
-3.07075715 1.13895500 -0.51873666 3 6 29035 3.31600000 1411184382 1411184382 -9.00000000
-1.86665714 0.69272053 0.24446990 42 7 29036 2.00600000 1411184384 1411184384 7.00000000
-3.85961723 1.43307877 -0.50551403 6 8 29037 4.14800000 1411184386 1411184386 -7.00000000
-5.13423300 1.90736437 -0.47918227 6 10 29038 5.49800000 1411184391 1411184391 -5.00000000
-9.89866352 3.67931366 2.05272317 25 11 29039 10.75800000 1411184393 1411184393 11.00000000
-4.10902882 1.52813411 -0.22975485 6 12 29040 4.39000000 1411184396 1411184396 -3.00000000
-3.95608807 1.47282803 -0.07368406 57 14 29042 4.22200000 1411184400 1411184400 -1.00000000
-8.29858494 3.09116292 2.37285304 47 15 29043 9.16800000 1411184403 1411184403 15.00000000
-1.88008273 0.70293409 -0.53782600 4 0 29050 2.07800000 1411184423 1411184423 -15.00000000
-4.04928923 1.51477289 0.07546420 5 1 29051 4.32400000 1411184426 1411184426 1.00000000
-2.16455960 0.81015694 -0.53358388 4 2 29052 2.37200000 1411184428 1411184428 -13.00000000
-4.12051439 1.54305673 0.23059222 7 3 29053 4.40600000 1411184430 1411184430 3.00000000
-2.55744457 0.95771593 -0.53083062 3 4 29053 2.78200000 1411184433 1411184433 -11.00000000
-1.88065398 0.70464456 0.17570598 35 5 29054 2.01600000 1411184435 1411184435 5.00000000
-3.07786083 1.15382743 -0.52061391 3 6 29055 3.32800000 1411184437 1411184437 -9.00000000
-1.86236906 0.69853503 0.24422616 35 7 29056 2.00400000 1411184439 1411184439 7.00000000
-3.85830832 1.44793761 -0.50600153 6 8 29057 4.15200000 1411184442 1411184442 -7.00000000
-5.14619637 1.93227816 -0.48092538 6 10 29058 5.51800000 1411184446 1411184446 -5.00000000
-9.89127350 3.71591520 2.05386806 25 11 29059 10.76400000 1411184449 1411184449 11.00000000
-4.05319166 1.52349460 -0.22692871 4 12 29060 4.33600000 1411184451 1411184451 -3.00000000
-3.95466590 1.48803687 -0.07375387 59 14 29062 4.22600000 1411184456 1411184456 -1.00000000
-8.29009628 3.11934543 2.37337065 47 15 29062 9.17000000 1411184458 1411184458 15.00000000
-1.89026749 0.71427256 -0.54144943 4 0 29070 2.09200000 1411184479 1411184479 -15.00000000
-4.04958868 1.53101981 0.07556892 5 1 29071 4.33000000 1411184481 1411184481 1.00000000
-2.16718650 0.81977612 -0.53493363 3 2 29072 2.37800000 1411184483 1411184483 -13.00000000
-4.11136723 1.55601680 0.23038287 7 3 29073 4.40200000 1411184486 1411184486 3.00000000
-2.53939676 0.96107787 -0.52777767 3 4 29073 2.76600000 1411184488 1411184488 -11.00000000
-1.86327660 0.70556051 0.17431149 22 5 29074 2.00000000 1411184490 1411184490 5.00000000
-3.06642556 1.16176474 -0.51936245 3 6 29075 3.32000000 1411184492 1411184492 -9.00000000
-1.83393240 0.69518089 0.24081382 24 7 29076 1.97600000 1411184495 1411184495 7.00000000
-3.84580636 1.45858097 -0.50502658 6 8 29077 4.14400000 1411184497 1411184497 -7.00000000
-1.83776486 0.69700050 0.31130460 1 9 29077 1.99000000 1411184499 1411184499 9.00000000
-5.14500856 1.95235050 -0.48144832 6 10 29078 5.52400000 1411184502 1411184502 -5.00000000
-9.88007832 3.75111651 2.05424953 9 11 29079 10.76600000 1411184504 1411184504 11.00000000
-4.10199451 1.55820155 -0.22996420 6 12 29080 4.39400000 1411184506 1411184506 -3.00000000
-3.95131683 1.50254297 -0.07378878 61 14 29082 4.22800000 1411184511 1411184511 -1.00000000
-8.27915764 3.14826417 2.37337065 47 15 29082 9.17000000 1411184513 1411184513 15.00000000
-1.87307489 0.71600705 -0.53730834 4 0 29092 2.07600000 1411184534 1411184534 -15.00000000
-4.06609297 1.55512989 0.07598778 5 1 29093 4.35400000 1411184536 1411184536 1.00000000
-2.17130280 0.83087730 -0.53673321 4 2 29094 2.38600000 1411184539 1411184539 -13.00000000
-4.11841869 1.57679069 0.23111558 7 3 29095 4.41600000 1411184541 1411184541 3.00000000
-2.53935480 0.97222525 -0.52854091 3 4 29095 2.77000000 1411184543 1411184543 -11.00000000
-1.84194827 0.70558268 0.17256837 19 5 29096 1.98000000 1411184545 1411184545 5.00000000
-3.07300925 1.17777205 -0.52123964 3 6 29097 3.33200000 1411184548 1411184548 -9.00000000
-1.82012868 0.69795305 0.23935139 33 7 29098 1.96400000 1411184550 1411184550 7.00000000
-3.84017730 1.47333705 -0.50502658 6 8 29099 4.14400000 1411184552 1411184552 -7.00000000
-1.84048462 0.70649588 0.31224319 4 9 29100 1.99600000 1411184555 1411184555 9.00000000
-5.14305401 1.97423351 -0.48197126 6 10 29100 5.53000000 1411184557 1411184557 -5.00000000
-4.11835337 1.58253741 -0.23122026 6 12 29102 4.41800000 1411184562 1411184562 -3.00000000
-3.96044922 1.52344728 -0.07406801 35 14 29104 4.24400000 1411184566 1411184566 -1.00000000
-8.25979519 3.17725635 2.37129998 47 15 29104 9.16200000 1411184568 1411184568 15.00000000
-1.86335588 0.71975654 -0.53523779 4 0 29112 2.06800000 1411184589 1411184589 -15.00000000
-4.05690956 1.56787205 0.07591797 5 1 29113 4.35000000 1411184592 1411184592 1.00000000
-2.17929506 0.84266835 -0.53943264 3 2 29114 2.39800000 1411184594 1411184594 -13.00000000
-4.12406588 1.59548080 0.23174362 7 3 29115 4.42800000 1411184596 1411184596 3.00000000
-2.53594565 0.98108333 -0.52854091 3 4 29115 2.77000000 1411184598 1411184598 -11.00000000
-1.85433853 0.71776158 0.17396286 23 5 29116 1.99600000 1411184601 1411184601 5.00000000
-3.06887937 1.18849170 -0.52123964 3 6 29117 3.33200000 1411184603 1411184603 -9.00000000
-1.74919426 0.67776543 0.23033306 47 7 29118 1.89000000 1411184605 1411184605 7.00000000
-3.85351992 1.49390817 -0.50746393 6 8 29119 4.16400000 1411184608 1411184608 -7.00000000
-5.14170408 1.99433553 -0.48249421 6 10 29120 5.53600000 1411184612 1411184612 -5.00000000
-1.83941615 0.71383184 0.38352609 1 11 29121 2.01000000 1411184615 1411184615 11.00000000
-4.11652803 1.59834933 -0.23142959 6 12 29122 4.42200000 1411184617 1411184617 -3.00000000
-3.97374582 1.54450691 -0.07441706 24 14 29124 4.26400000 1411184621 1411184621 -1.00000000
-8.23369122 3.20190716 2.36715889 47 15 29125 9.14600000 1411184624 1411184624 15.00000000
-1.86828506 0.72841388 -0.53730834 4 0 29130 2.07600000 1411184645 1411184645 -15.00000000
-4.05568981 1.58206284 0.07598778 3 1 29131 4.35400000 1411184647 1411184647 1.00000000
-2.16211390 0.84384251 -0.53583342 3 2 29132 2.38200000 1411184649 1411184649 -13.00000000
-4.13205624 1.61351442 0.23247632 7 3 29133 4.44200000 1411184651 1411184651 3.00000000
-2.54016590 0.99190187 -0.53006738 3 4 29133 2.77800000 1411184654 1411184654 -11.00000000
-1.84650707 0.72140849 0.17343993 15 5 29134 1.99000000 1411184656 1411184656 5.00000000
-3.06329060 1.19740772 -0.52092677 1 6 29135 3.33000000 1411184658 1411184658 -9.00000000
-1.74520767 0.68253428 0.23008932 79 7 29136 1.88800000 1411184661 1411184661 7.00000000
-3.85250473 1.50745356 -0.50795144 6 8 29137 4.16800000 1411184663 1411184663 -7.00000000
-1.73275006 0.67835969 0.29472253 66 9 29138 1.88400000 1411184665 1411184665 9.00000000
-5.12057114 2.00466824 -0.48109969 6 10 29138 5.52000000 1411184668 1411184668 -5.00000000
-1.74576330 0.68380570 0.36444518 4 11 29139 1.91000000 1411184670 1411184670 11.00000000
-4.10776711 1.60981643 -0.23122026 6 12 29140 4.41800000 1411184672 1411184672 -3.00000000
-3.97073579 1.55771339 -0.07445197 24 14 29142 4.26600000 1411184677 1411184677 -1.00000000
-8.22954941 3.22843957 2.36871195 36 15 29142 9.15200000 1411184679 1411184679 15.00000000
-1.87292075 0.73776311 -0.53937888 4 0 29150 2.08400000 1411184700 1411184700 -15.00000000
-4.05386353 1.59767663 0.07605759 3 1 29151 4.35800000 1411184702 1411184702 1.00000000
-2.15190363 0.84852517 -0.53403378 4 2 29152 2.37400000 1411184704 1411184704 -13.00000000
-4.12082529 1.62572920 0.23216230 7 3 29153 4.43600000 1411184707 1411184707 3.00000000
-2.53668809 1.00076270 -0.53006738 3 4 29153 2.77800000 1411184709 1411184709 -11.00000000
-1.84212434 0.72711807 0.17326562 6 5 29154 1.98800000 1411184711 1411184711 5.00000000
-3.06827879 1.21172130 -0.52249110 3 6 29155 3.34000000 1411184714 1411184714 -9.00000000
-1.72435260 0.68132734 0.22765194 97 7 29156 1.86800000 1411184716 1411184716 7.00000000
-3.82691240 1.51286447 -0.50527030 4 8 29157 4.14600000 1411184718 1411184718 -7.00000000
-1.70649171 0.67495888 0.29065523 68 9 29158 1.85800000 1411184721 1411184721 9.00000000
-5.12651157 2.02765965 -0.48231989 6 10 29158 5.53400000 1411184723 1411184723 -5.00000000
-4.10583687 1.62561584 -0.23142959 6 12 29160 4.42200000 1411184727 1411184727 -3.00000000
-3.97642803 1.57598507 -0.07466140 24 14 29162 4.27800000 1411184732 1411184732 -1.00000000
-1.88110375 0.74858207 -0.54248470 4 0 29170 2.09600000 1411184755 1411184755 -15.00000000
-4.07427168 1.62217343 0.07654625 5 1 29171 4.38600000 1411184757 1411184757 1.00000000
-2.16703248 0.86324328 -0.53853285 3 2 29172 2.39400000 1411184760 1411184760 -13.00000000
-4.10984516 1.63716805 0.23184828 7 3 29172 4.43000000 1411184762 1411184762 3.00000000
-2.52953196 1.00815749 -0.52930415 3 4 29173 2.77400000 1411184764 1411184764 -11.00000000
-3.05669141 1.21949625 -0.52123964 3 6 29175 3.33200000 1411184769 1411184769 -9.00000000
-1.70721459 0.68145496 0.22570202 80 7 29176 1.85200000 1411184771 1411184771 7.00000000
-3.82713890 1.52842236 -0.50600153 6 8 29177 4.15200000 1411184773 1411184773 -7.00000000
-1.71158206 0.68354464 0.29190671 93 9 29177 1.86600000 1411184776 1411184776 9.00000000
-5.13420343 2.05145645 -0.48371437 7 10 29178 5.55000000 1411184778 1411184778 -5.00000000
-4.11126423 1.64438832 -0.23205763 6 12 29180 4.43400000 1411184783 1411184783 -3.00000000
-3.96904635 1.58911252 -0.07462649 21 14 29182 4.27600000 1411184787 1411184787 -1.00000000
-1.86772454 0.75082046 -0.53937888 4 0 29190 2.08400000 1411184810 1411184810 -15.00000000
-4.09084749 1.64533961 0.07696512 3 1 29191 4.41000000 1411184813 1411184813 1.00000000
-2.16039014 0.86934739 -0.53763300 3 2 29192 2.39000000 1411184815 1411184815 -13.00000000
-4.12790251 1.66191745 0.23320901 5 3 29193 4.45600000 1411184817 1411184817 3.00000000
-2.52053380 1.01478148 -0.52815932 3 4 29193 2.76800000 1411184820 1411184820 -11.00000000
-5.27260590 2.12385106 0.49731067 3 5 29194 5.70600000 1411184822 1411184822 5.00000000
-3.06707335 1.23606575 -0.52374262 3 6 29195 3.34800000 1411184824 1411184824 -9.00000000
-1.71218979 0.69037950 0.22667699 77 7 29196 1.86000000 1411184826 1411184826 7.00000000
-3.83282590 1.54622829 -0.50746393 6 8 29197 4.16400000 1411184829 1411184829 -7.00000000
-1.69624269 0.68463790 0.28971663 89 9 29198 1.85200000 1411184831 1411184831 9.00000000
-5.11962128 2.06638265 -0.48301712 3 10 29198 5.54200000 1411184833 1411184833 -5.00000000
-1.71666181 0.69322789 0.35986575 90 11 29199 1.88600000 1411184836 1411184836 11.00000000
-4.10549927 1.65872931 -0.23205763 6 12 29200 4.43400000 1411184838 1411184838 -3.00000000
-3.97089028 1.60595644 -0.07476611 21 14 29202 4.28400000 1411184843 1411184843 -1.00000000
-1.71737957 0.69491261 0.49641493 2 15 29203 1.91800000 1411184845 1411184845 15.00000000
-1.85269415 0.75192446 -0.53575540 4 0 29209 2.07000000 1411184866 1411184866 -15.00000000
-4.08166361 1.65739167 0.07689530 5 1 29210 4.40600000 1411184868 1411184868 1.00000000
-2.16832805 0.88090760 -0.54033244 3 2 29211 2.40200000 1411184870 1411184870 -13.00000000
-4.12636185 1.67638087 0.23341836 5 3 29211 4.46000000 1411184873 1411184873 3.00000000
-2.54079866 1.03274465 -0.53312033 3 4 29212 2.79400000 1411184875 1411184875 -11.00000000
-5.28399038 2.14882946 0.49905378 3 5 29213 5.72600000 1411184877 1411184877 5.00000000
-3.04831982 1.24027407 -0.52123964 3 6 29214 3.33200000 1411184879 1411184879 -9.00000000
-1.70621371 0.69455665 0.22618949 60 7 29215 1.85600000 1411184882 1411184882 7.00000000
-3.82583880 1.55818105 -0.50722021 4 8 29216 4.16200000 1411184884 1411184884 -7.00000000
-1.68847501 0.68802279 0.28877804 79 9 29217 1.84600000 1411184886 1411184886 9.00000000
-5.10905027 2.08184505 -0.48266849 6 10 29217 5.53800000 1411184889 1411184889 -5.00000000
-1.70344567 0.69446975 0.35757607 63 11 29218 1.87400000 1411184891 1411184891 11.00000000
-4.07038641 1.66026533 -0.23038287 2 12 29219 4.40200000 1411184893 1411184893 -3.00000000
-1.71406710 0.69949782 0.42740700 75 13 29220 1.90000000 1411184896 1411184896 13.00000000
-3.96924567 1.62062728 -0.07483592 19 14 29221 4.28800000 1411184898 1411184898 -1.00000000
-1.71161091 0.69884402 0.49537966 18 15 29221 1.91400000 1411184900 1411184900 15.00000000
-1.86435819 0.76424891 -0.53989655 4 0 29229 2.08600000 1411184921 1411184921 -15.00000000
-4.07400322 1.67087042 0.07686040 5 1 29230 4.40400000 1411184923 1411184923 1.00000000
-2.16523981 0.88847113 -0.54033244 3 2 29231 2.40200000 1411184925 1411184925 -13.00000000
-4.14265823 1.69987261 0.23467442 5 3 29231 4.48400000 1411184928 1411184928 3.00000000
-2.53354573 1.04011619 -0.53235710 3 4 29232 2.79000000 1411184930 1411184930 -11.00000000
-3.04031754 1.24940538 -0.52061391 3 6 29234 3.32800000 1411184935 1411184935 -9.00000000
-3.83139157 1.57605731 -0.50868267 4 8 29236 4.17400000 1411184939 1411184939 -7.00000000
-5.10543728 2.10118270 -0.48301712 7 10 29237 5.54200000 1411184944 1411184944 -5.00000000
-1.68467271 0.69368410 0.35414150 68 11 29238 1.85600000 1411184946 1411184946 11.00000000
-4.04425287 1.66609502 -0.22923149 10 12 29239 4.38000000 1411184949 1411184949 -3.00000000
-1.70440817 0.70250636 0.42560738 63 13 29240 1.89200000 1411184951 1411184951 13.00000000
-3.97465634 1.63904679 -0.07504535 19 14 29241 4.30000000 1411184953 1411184953 -1.00000000
-1.86346400 0.77149105 -0.54041415 4 0 29249 2.08800000 1411184976 1411184976 -15.00000000
-4.07368803 1.68737686 0.07696512 7 1 29250 4.41000000 1411184978 1411184978 1.00000000
-2.15132380 0.89154738 -0.53763300 4 2 29251 2.39000000 1411184981 1411184981 -13.00000000
-4.14377975 1.71810472 0.23509312 5 3 29252 4.49200000 1411184983 1411184983 3.00000000
-2.53171325 1.04970551 -0.53273869 3 4 29252 2.79200000 1411184985 1411184985 -11.00000000
-5.42712831 2.25132012 0.51404458 6 5 29253 5.89800000 1411184988 1411184988 5.00000000
-3.03228879 1.25849605 -0.51998818 3 6 29254 3.32400000 1411184990 1411184990 -9.00000000
-1.73432314 0.72015393 0.23057680 3 7 29255 1.89200000 1411184992 1411184992 7.00000000
-3.83136630 1.59170651 -0.50941384 6 8 29256 4.18000000 1411184995 1411184995 -7.00000000
-1.71658862 0.71314126 0.29440966 3 9 29256 1.88200000 1411184997 1411184997 9.00000000
-4.95088816 2.05781507 -0.46907219 6 10 29257 5.38200000 1411184999 1411184999 -5.00000000
-1.70036864 0.70709884 0.35795766 52 11 29258 1.87600000 1411185002 1411185002 11.00000000
-4.03472424 1.67866755 -0.22902215 10 12 29259 4.37600000 1411185004 1411185004 -3.00000000
-1.68755281 0.70246041 0.42200819 69 13 29260 1.87600000 1411185006 1411185006 13.00000000
-3.98367882 1.65906131 -0.07532459 19 14 29261 4.31600000 1411185008 1411185008 -1.00000000
-1.70656633 0.71107405 0.49537966 58 15 29262 1.91400000 1411185011 1411185011 15.00000000
-1.87145364 0.78246224 -0.54351997 4 0 29269 2.10000000 1411185031 1411185031 -15.00000000
-4.07515240 1.70467317 0.07710473 20 1 29270 4.41800000 1411185034 1411185034 1.00000000
-2.14999628 0.89980382 -0.53808290 4 2 29271 2.39200000 1411185036 1411185036 -13.00000000
-4.13805962 1.73183656 0.23509312 5 3 29271 4.49200000 1411185038 1411185038 3.00000000
-2.53346634 1.06081116 -0.53388357 3 4 29272 2.79800000 1411185041 1411185041 -11.00000000
-5.41739893 2.26948071 0.51387024 12 5 29273 5.89600000 1411185043 1411185043 5.00000000
-3.05338311 1.27976322 -0.52436835 3 6 29274 3.35200000 1411185045 1411185045 -9.00000000
-1.75559723 0.73618305 0.23374540 4 7 29275 1.91800000 1411185048 1411185048 7.00000000
-3.81297326 1.59969497 -0.50770766 4 8 29276 4.16600000 1411185050 1411185050 -7.00000000
-1.73217762 0.72707343 0.29753834 5 9 29277 1.90200000 1411185052 1411185052 9.00000000
-4.83528519 2.02958822 -0.45878783 9 10 29277 5.26400000 1411185055 1411185055 -5.00000000
-1.70875072 0.71759093 0.36024737 43 11 29278 1.88800000 1411185057 1411185057 11.00000000
-4.04357100 1.69893026 -0.22985952 8 12 29279 4.39200000 1411185059 1411185059 -3.00000000
-1.68509042 0.70834678 0.42200819 65 13 29280 1.87600000 1411185061 1411185061 13.00000000
-3.97233343 1.67063117 -0.07521987 17 14 29281 4.31000000 1411185064 1411185064 -1.00000000
-1.70229316 0.71627748 0.49486202 63 15 29282 1.91200000 1411185066 1411185066 15.00000000
-1.84721816 0.78029549 -0.53730834 4 0 29290 2.07600000 1411185087 1411185087 -15.00000000
-4.06150961 1.71648419 0.07696512 50 1 29291 4.41000000 1411185089 1411185089 1.00000000
-2.15206861 0.90995473 -0.53943264 3 2 29292 2.39800000 1411185091 1411185091 -13.00000000
-4.13904285 1.75010288 0.23551181 5 3 29292 4.50000000 1411185094 1411185094 3.00000000
-2.51148009 1.06244075 -0.53006738 3 4 29293 2.77800000 1411185096 1411185096 -11.00000000
-5.41271400 2.29087424 0.51421887 9 5 29294 5.90000000 1411185098 1411185098 5.00000000
-3.05230999 1.29248631 -0.52499408 3 6 29295 3.35600000 1411185101 1411185101 -9.00000000
-1.75471497 0.74338704 0.23398913 4 7 29296 1.92000000 1411185103 1411185103 7.00000000
-3.81622291 1.61753285 -0.50892639 6 8 29297 4.17600000 1411185105 1411185105 -7.00000000
-1.72599161 0.73157364 0.29691261 5 9 29297 1.89800000 1411185108 1411185108 9.00000000
-4.78012276 2.02707267 -0.45425573 6 10 29298 5.21200000 1411185110 1411185110 -5.00000000
-4.09247112 1.73715103 -0.23299968 6 12 29300 4.45200000 1411185114 1411185114 -3.00000000
-1.69145143 0.71832693 0.42425770 58 13 29301 1.88600000 1411185117 1411185117 13.00000000
-3.97722650 1.68987119 -0.07542930 17 14 29302 4.32200000 1411185119 1411185119 -1.00000000
-1.68543339 0.71646577 0.49072090 73 15 29303 1.89600000 1411185121 1411185121 15.00000000
-1.84448314 0.78673869 -0.53730834 4 0 29310 2.07600000 1411185142 1411185142 -15.00000000
-4.05733204 1.73143589 0.07700001 15 1 29311 4.41200000 1411185144 1411185144 1.00000000
-2.14887905 0.91746128 -0.53943264 4 2 29312 2.39800000 1411185147 1411185147 -13.00000000
-4.15127707 1.77238262 0.23655853 5 3 29312 4.52000000 1411185149 1411185149 3.00000000
-2.51858878 1.07582819 -0.53235710 3 4 29313 2.79000000 1411185151 1411185151 -11.00000000
-5.40651655 2.31053734 0.51439321 3 5 29314 5.90200000 1411185154 1411185154 5.00000000
-3.05141234 1.30468619 -0.52561980 3 6 29315 3.36000000 1411185156 1411185156 -9.00000000
-1.79043686 0.76590306 0.23910765 4 7 29316 1.96200000 1411185158 1411185158 7.00000000
-3.82150340 1.63553047 -0.51038879 6 8 29317 4.18800000 1411185161 1411185161 -7.00000000
-1.73977184 0.74458909 0.29972842 4 9 29317 1.91600000 1411185163 1411185163 9.00000000
-4.73272371 2.02649260 -0.45042089 6 10 29318 5.16800000 1411185165 1411185165 -5.00000000
-1.68733037 0.72284216 0.35681283 14 11 29319 1.87000000 1411185167 1411185167 11.00000000
-4.09739733 1.75614667 -0.23362771 6 12 29320 4.46400000 1411185170 1411185170 -3.00000000
-1.70505285 0.73113889 0.42830682 63 13 29321 1.90400000 1411185172 1411185172 13.00000000
-3.97314119 1.70453238 -0.07546420 15 14 29322 4.32400000 1411185174 1411185174 -1.00000000
-1.66516984 0.71472502 0.48554453 93 15 29323 1.87600000 1411185177 1411185177 15.00000000
-1.84868383 0.79655159 -0.53937888 4 0 29331 2.08400000 1411185197 1411185197 -15.00000000
-2.14908075 0.92687470 -0.54033244 4 2 29333 2.40200000 1411185202 1411185202 -13.00000000
-4.21444368 1.81764269 0.24053605 1 3 29333 4.59600000 1411185204 1411185204 3.00000000
-2.51102352 1.08349645 -0.53159386 3 4 29334 2.78600000 1411185207 1411185207 -11.00000000
-3.02484846 1.30646241 -0.52186537 3 6 29336 3.33600000 1411185211 1411185211 -9.00000000
-1.77668417 0.76773566 0.23764522 4 7 29337 1.95000000 1411185213 1411185213 7.00000000
-3.81912732 1.65110147 -0.51087630 6 8 29338 4.19200000 1411185216 1411185216 -7.00000000
-1.74791014 0.75566399 0.30160564 4 9 29338 1.92800000 1411185218 1411185218 9.00000000
-4.69600582 2.03117013 -0.44763190 6 10 29339 5.13600000 1411185220 1411185220 -5.00000000
-1.71349823 0.74149692 0.36291870 7 11 29340 1.90200000 1411185223 1411185223 11.00000000
-4.08360147 1.76797843 -0.23320901 4 12 29341 4.45600000 1411185225 1411185225 -3.00000000
-1.70951438 0.74048156 0.43010640 25 13 29342 1.91200000 1411185227 1411185227 13.00000000
-1.67507279 0.72591031 0.48916799 100 15 29343 1.89000000 1411185232 1411185232 15.00000000
-1.84234917 0.80145860 -0.53834361 4 0 29351 2.08000000 1411185253 1411185253 -15.00000000
-2.13868546 0.93125874 -0.53853285 3 2 29353 2.39400000 1411185257 1411185257 -13.00000000
-2.51802540 1.09695947 -0.53388357 3 4 29354 2.79800000 1411185262 1411185262 -11.00000000
-1.70042193 0.74112964 0.16228399 1 5 29355 1.86200000 1411185264 1411185264 5.00000000
-3.04561973 1.32806718 -0.52624553 3 6 29356 3.36400000 1411185266 1411185266 -9.00000000
-1.77035451 0.77234524 0.23715775 4 7 29357 1.94600000 1411185269 1411185269 7.00000000
-3.80970192 1.66283441 -0.51038879 6 8 29358 4.18800000 1411185271 1411185271 -7.00000000
-1.74526179 0.76176071 0.30160564 4 9 29358 1.92800000 1411185273 1411185273 9.00000000
-4.66332436 2.03638721 -0.44519153 3 10 29359 5.10800000 1411185276 1411185276 -5.00000000
-1.72709095 0.75454754 0.36635327 18 11 29360 1.92000000 1411185278 1411185278 11.00000000
-4.08106565 1.78382194 -0.23341836 2 12 29361 4.46000000 1411185280 1411185280 -3.00000000
-1.71406114 0.74956757 0.43190601 22 13 29362 1.92000000 1411185283 1411185283 13.00000000
-1.69009829 0.73979133 0.49434438 81 15 29364 1.91000000 1411185287 1411185287 15.00000000
-1.84145021 0.80834013 -0.53886127 4 0 29370 2.08200000 1411185308 1411185308 -15.00000000
-1.69175708 0.74298161 0.03225205 4 1 29371 1.84800000 1411185310 1411185310 1.00000000
-2.13558555 0.93834573 -0.53853285 3 2 29372 2.39400000 1411185313 1411185313 -13.00000000
-1.69126523 0.74346995 0.09682152 3 3 29373 1.85000000 1411185315 1411185315 3.00000000
-2.49819851 1.09819293 -0.53044903 3 4 29373 2.78000000 1411185317 1411185317 -11.00000000
-1.70160246 0.74836856 0.16263261 5 5 29374 1.86600000 1411185319 1411185319 5.00000000
-3.04119897 1.33815956 -0.52624553 3 6 29375 3.36400000 1411185322 1411185322 -9.00000000
-1.72599626 0.75981617 0.23155175 11 7 29376 1.90000000 1411185324 1411185324 7.00000000
-3.77509975 1.66265678 -0.50648898 2 8 29377 4.15600000 1411185326 1411185326 -7.00000000
-1.70656991 0.75161988 0.29534826 18 9 29377 1.88800000 1411185329 1411185329 9.00000000
-1.71380067 0.75551891 0.36406356 36 11 29379 1.90800000 1411185333 1411185333 11.00000000
-1.69373727 0.74738032 0.42740700 42 13 29381 1.90000000 1411185338 1411185338 13.00000000
-1.69215691 0.74703580 -0.03228695 4 14 29382 1.85000000 1411185340 1411185340 -1.00000000
-1.73194826 0.76460248 0.50728536 53 15 29382 1.96000000 1411185343 1411185343 15.00000000
-1.81918907 0.80615366 -0.53316724 4 0 29390 2.06000000 1411185363 1411185363 -15.00000000
-1.68184090 0.74564052 0.03211243 35 1 29391 1.84000000 1411185366 1411185366 1.00000000
-2.14298534 0.95053548 -0.54123223 3 2 29392 2.40600000 1411185368 1411185368 -13.00000000
-1.69048524 0.75017917 0.09692619 25 3 29393 1.85200000 1411185370 1411185370 3.00000000
-2.49434996 1.10690665 -0.53044903 3 4 29393 2.78000000 1411185372 1411185372 -11.00000000
-1.70262182 0.75592065 0.16298124 25 5 29394 1.87000000 1411185375 1411185375 5.00000000
-3.06178355 1.35999346 -0.53062570 1 6 29395 3.39200000 1411185377 1411185377 -9.00000000
-1.70337915 0.75696880 0.22887063 27 7 29396 1.87800000 1411185379 1411185379 7.00000000
-1.67673051 0.74582732 0.29065523 42 9 29398 1.85800000 1411185384 1411185384 9.00000000
-1.76944923 0.78706962 -0.16943076 1 10 29398 1.94400000 1411185386 1411185386 -5.00000000
-1.70039105 0.75670731 0.36177385 41 11 29399 1.89600000 1411185389 1411185389 11.00000000
-1.68226922 0.74899447 -0.09650750 1 12 29400 1.84400000 1411185391 1411185391 -3.00000000
-1.68577778 0.75090921 0.42605731 45 13 29401 1.89400000 1411185393 1411185393 13.00000000
-1.67127371 0.74479812 -0.03193790 33 14 29402 1.83000000 1411185396 1411185396 -1.00000000
-1.69561017 0.75599831 0.49745020 48 15 29403 1.92200000 1411185398 1411185398 15.00000000
-1.74067104 0.77827525 -0.51090878 10 0 29409 1.97400000 1411185419 1411185419 -15.00000000
-1.67388296 0.74876398 0.03200771 51 1 29410 1.83400000 1411185421 1411185421 1.00000000
-2.13270640 0.95445246 -0.53943264 3 2 29411 2.39800000 1411185423 1411185423 -13.00000000
-1.67522812 0.75006765 0.09619348 28 3 29412 1.83800000 1411185425 1411185425 3.00000000
-2.50141668 1.11998582 -0.53273869 3 4 29412 2.79200000 1411185428 1411185428 -11.00000000
-1.67283130 0.74934500 0.16036656 30 5 29413 1.84000000 1411185430 1411185430 5.00000000
-1.72150958 0.77151120 -0.29878983 3 6 29414 1.91000000 1411185432 1411185432 -9.00000000
-1.70629358 0.76504970 0.22960185 39 7 29415 1.88400000 1411185435 1411185435 7.00000000
-1.74419546 0.78240937 -0.23472035 5 8 29416 1.92600000 1411185437 1411185437 -7.00000000
-1.66356504 0.74624026 0.28877804 37 9 29416 1.84600000 1411185439 1411185439 9.00000000
-1.71229768 0.76845974 -0.16420142 5 10 29417 1.88400000 1411185442 1411185442 -5.00000000
-1.65847027 0.74465036 0.35337827 36 11 29418 1.85200000 1411185444 1411185444 11.00000000
-1.67431056 0.75211376 -0.09619348 12 12 29419 1.83800000 1411185446 1411185446 -3.00000000
-1.67261350 0.75170231 0.42335787 50 13 29420 1.88200000 1411185449 1411185449 13.00000000
-1.64326119 0.73885560 -0.03144924 29 14 29421 1.80200000 1411185451 1411185451 -1.00000000
-1.66327369 0.74785382 0.48865035 75 15 29421 1.88800000 1411185453 1411185453 15.00000000
-1.70096624 0.76765835 -0.50003839 17 0 29429 1.93200000 1411185474 1411185474 -15.00000000
-1.65667880 0.74801916 0.03172848 58 1 29430 1.81800000 1411185476 1411185476 1.00000000
-2.12936187 0.96189117 -0.53943264 4 2 29431 2.39800000 1411185478 1411185478 -13.00000000
-1.68351984 0.76084596 0.09682152 51 3 29432 1.85000000 1411185481 1411185481 3.00000000
-1.72820723 0.78104180 -0.36864299 1 4 29432 1.93200000 1411185483 1411185483 -11.00000000
-1.67928267 0.75928396 0.16123812 53 5 29433 1.85000000 1411185485 1411185485 5.00000000
-1.71340656 0.77507323 -0.29785123 20 6 29434 1.90400000 1411185488 1411185488 -9.00000000
-1.66563404 0.75381321 0.22448333 35 7 29435 1.84200000 1411185490 1411185490 7.00000000
-1.62843013 0.73766083 0.28314638 34 9 29437 1.81000000 1411185495 1411185495 9.00000000
-1.71686435 0.77772051 -0.16489866 20 10 29437 1.89200000 1411185497 1411185497 -5.00000000
-1.62367344 0.73584765 0.34650913 53 11 29438 1.81600000 1411185499 1411185499 11.00000000
-1.65712285 0.75135553 -0.09535611 34 12 29439 1.82200000 1411185501 1411185501 -3.00000000
-1.66997933 0.75753623 0.42335787 43 13 29440 1.88200000 1411185504 1411185504 13.00000000
-1.64249301 0.74541354 -0.03148414 34 14 29441 1.80400000 1411185506 1411185506 -1.00000000
-1.65700352 0.75234765 0.48761508 70 15 29442 1.88400000 1411185508 1411185508 15.00000000
-1.67001462 0.76106954 -0.49175617 27 0 29450 1.90000000 1411185529 1411185529 -15.00000000
-1.64118958 0.74827909 0.03148414 42 1 29451 1.80400000 1411185531 1411185531 1.00000000
-2.12050295 0.96726298 -0.53808290 4 2 29452 2.39200000 1411185534 1411185534 -13.00000000
-1.66073298 0.75788999 0.09567013 38 3 29453 1.82800000 1411185536 1411185536 3.00000000
-1.71283054 0.78166521 -0.36597165 4 4 29453 1.91800000 1411185538 1411185538 -11.00000000
-1.66561389 0.76046878 0.16019225 52 5 29454 1.83800000 1411185541 1411185541 5.00000000
-1.70696068 0.77970648 -0.29722548 24 6 29455 1.90000000 1411185543 1411185543 -9.00000000
-1.65383255 0.75578749 0.22326463 41 7 29456 1.83200000 1411185545 1411185545 7.00000000
-1.71147180 0.78248930 -0.23106427 29 8 29457 1.89600000 1411185548 1411185548 -7.00000000
-1.62225223 0.74169785 0.28252065 51 9 29457 1.80600000 1411185550 1411185550 9.00000000
-1.69950759 0.77737784 -0.16350417 34 10 29458 1.87600000 1411185552 1411185552 -5.00000000
-1.61203957 0.73770905 0.34460104 60 11 29459 1.80600000 1411185554 1411185554 11.00000000
-1.64709389 0.75409847 -0.09493742 48 12 29460 1.81400000 1411185557 1411185557 -3.00000000
-1.63707232 0.74985588 0.41570956 37 13 29461 1.84800000 1411185559 1411185559 13.00000000
-1.65611112 0.75892621 -0.03179828 34 14 29462 1.82200000 1411185561 1411185561 -1.00000000
-1.65085471 0.75651747 0.48657981 78 15 29462 1.88000000 1411185564 1411185564 15.00000000
-1.64628661 0.75720727 -0.48554453 21 0 29470 1.87600000 1411185584 1411185584 -15.00000000
-1.65673351 0.76236260 0.03183319 51 1 29471 1.82400000 1411185587 1411185587 1.00000000
-2.11711383 0.97465903 -0.53808290 4 2 29472 2.39200000 1411185589 1411185589 -13.00000000
-1.65989137 0.76451796 0.09577480 45 3 29473 1.83000000 1411185591 1411185591 3.00000000
-1.69939232 0.78271145 -0.36368194 22 4 29473 1.90600000 1411185594 1411185594 -11.00000000
-1.65209210 0.76127529 0.15914638 46 5 29474 1.82600000 1411185596 1411185596 5.00000000
-1.70781648 0.78731418 -0.29785123 32 6 29475 1.90400000 1411185598 1411185598 -9.00000000
-1.64938164 0.76072448 0.22302090 42 7 29476 1.83000000 1411185601 1411185601 7.00000000
-1.68890297 0.77930987 -0.22838315 34 8 29477 1.87400000 1411185603 1411185603 -7.00000000
-1.61055541 0.74349898 0.28095630 46 9 29478 1.79600000 1411185605 1411185605 9.00000000
-1.66422284 0.76827407 -0.16036656 58 10 29478 1.84000000 1411185607 1411185607 -5.00000000
-1.61836636 0.74744749 0.34650913 63 11 29479 1.81600000 1411185610 1411185610 11.00000000
-1.64445162 0.75984329 -0.09493742 37 12 29480 1.81400000 1411185612 1411185612 -3.00000000
-1.58314729 0.73185211 0.40266240 49 13 29481 1.79000000 1411185614 1411185614 13.00000000
-1.64619184 0.76134485 -0.03165866 38 14 29482 1.81400000 1411185617 1411185617 -1.00000000
-1.64281106 0.76012939 0.48502690 86 15 29483 1.87400000 1411185619 1411185619 15.00000000
-1.63500452 0.75859702 -0.48295635 28 0 29489 1.86600000 1411185640 1411185640 -15.00000000
-1.65419626 0.76785237 0.03183319 45 1 29490 1.82400000 1411185642 1411185642 1.00000000
-2.11033511 0.98003268 -0.53718311 4 2 29491 2.38800000 1411185644 1411185644 -13.00000000
-1.65915835 0.77085972 0.09587947 51 3 29492 1.83200000 1411185647 1411185647 3.00000000
-1.70212877 0.79082417 -0.36482680 27 4 29492 1.91200000 1411185649 1411185649 -11.00000000
-1.64233160 0.76339042 0.15844914 50 5 29493 1.81800000 1411185651 1411185651 5.00000000
-1.69803154 0.78964132 -0.29659975 33 6 29494 1.89600000 1411185654 1411185654 -9.00000000
-1.65224946 0.76870191 0.22375211 45 7 29495 1.83600000 1411185656 1411185656 7.00000000
-1.67551124 0.77988011 -0.22692072 20 8 29496 1.86200000 1411185658 1411185658 -7.00000000
-1.60642087 0.74772143 0.28064343 48 9 29496 1.79400000 1411185660 1411185660 9.00000000
-1.64902282 0.76790106 -0.15914638 54 10 29497 1.82600000 1411185663 1411185663 -5.00000000
-1.61231959 0.75115192 0.34574589 58 11 29498 1.81200000 1411185665 1411185665 11.00000000
-1.64916396 0.76866740 -0.09535611 39 12 29499 1.82200000 1411185667 1411185667 -3.00000000
-1.58424401 0.73874515 0.40356219 54 13 29500 1.79400000 1411185670 1411185670 13.00000000
-1.64365816 0.76679963 -0.03165866 37 14 29501 1.81400000 1411185672 1411185672 -1.00000000
-1.64566708 0.76773685 0.48657981 73 15 29501 1.88000000 1411185674 1411185674 15.00000000
-1.61485088 0.75610775 -0.47777995 57 0 29509 1.84600000 1411185695 1411185695 -15.00000000
-1.64788425 0.77192539 0.03176338 37 1 29510 1.82000000 1411185697 1411185697 1.00000000
-2.10160756 0.98491228 -0.53583342 3 2 29511 2.38200000 1411185700 1411185700 -13.00000000
-1.64379895 0.77071148 0.09514677 45 3 29512 1.81800000 1411185702 1411185702 3.00000000
-1.69047010 0.79259372 -0.36291870 36 4 29512 1.90200000 1411185704 1411185704 -11.00000000
-1.63604927 0.76742631 0.15810052 49 5 29513 1.81400000 1411185707 1411185707 5.00000000
-1.68811178 0.79220694 -0.29534826 36 6 29514 1.88800000 1411185709 1411185709 -9.00000000
-1.64236856 0.77109009 0.22277716 38 7 29515 1.82800000 1411185711 1411185711 7.00000000
-1.66020143 0.77981627 -0.22521454 25 8 29516 1.84800000 1411185713 1411185713 -7.00000000
-1.62333548 0.76284575 0.28408498 42 9 29517 1.81600000 1411185716 1411185716 9.00000000
-1.63731623 0.76941568 -0.15827483 52 10 29517 1.81600000 1411185718 1411185718 -5.00000000
-1.59192085 0.74842244 0.34192973 48 11 29518 1.79200000 1411185720 1411185720 11.00000000
-1.65369999 0.77781963 -0.09577480 42 12 29519 1.83000000 1411185723 1411185723 -3.00000000
-1.57460260 0.74095172 0.40176257 52 13 29520 1.78600000 1411185725 1411185725 13.00000000
-1.64097142 0.77253240 -0.03165866 36 14 29521 1.81400000 1411185727 1411185727 -1.00000000
-1.62012196 0.76306242 0.47985050 47 15 29522 1.85400000 1411185730 1411185730 15.00000000
-1.62268198 0.76669174 -0.48088577 51 0 29529 1.85800000 1411185750 1411185750 -15.00000000
-1.63433230 0.77254534 0.03155395 42 1 29530 1.80800000 1411185753 1411185753 1.00000000
-1.67887771 0.79396039 -0.42875671 4 2 29531 1.90600000 1411185755 1411185755 -13.00000000
-1.64109862 0.77644473 0.09514677 38 3 29532 1.81800000 1411185757 1411185757 3.00000000
-1.68414378 0.79681051 -0.36215547 41 4 29532 1.89800000 1411185760 1411185760 -11.00000000
-1.63155961 0.77228010 0.15792620 48 5 29533 1.81200000 1411185762 1411185762 5.00000000
-1.66569781 0.78879493 -0.29190671 31 6 29534 1.86600000 1411185764 1411185764 -9.00000000
-1.63607907 0.77511853 0.22228968 38 7 29535 1.82400000 1411185766 1411185766 7.00000000
-1.65567553 0.78475648 -0.22497080 34 8 29536 1.84600000 1411185769 1411185769 -7.00000000
-1.63864708 0.77668536 0.28721368 38 9 29536 1.83600000 1411185771 1411185771 9.00000000
-1.63462055 0.77512628 -0.15827483 49 10 29537 1.81600000 1411185773 1411185773 -5.00000000
-1.56091833 0.74051088 0.33582383 55 11 29538 1.76000000 1411185776 1411185776 11.00000000
-1.64375746 0.78016192 -0.09535611 46 12 29539 1.82200000 1411185778 1411185778 -3.00000000
-1.56848586 0.74477184 0.40086278 52 13 29540 1.78200000 1411185780 1411185780 13.00000000
-1.64548981 0.78168797 -0.03179828 36 14 29541 1.82200000 1411185783 1411185783 -1.00000000
-1.56348872 0.74273348 0.46380374 61 15 29541 1.79200000 1411185785 1411185785 15.00000000
-1.61825192 0.77151996 -0.48036814 70 0 29549 1.85600000 1411185806 1411185806 -15.00000000
-1.62982070 0.77738464 0.03151904 45 1 29550 1.80600000 1411185808 1411185808 1.00000000
-1.65499103 0.78974479 -0.42335787 21 2 29551 1.88200000 1411185810 1411185810 -13.00000000
-1.64558792 0.78561038 0.09556545 40 3 29552 1.82600000 1411185813 1411185813 3.00000000
-1.68135214 0.80268443 -0.36215547 41 4 29552 1.89800000 1411185815 1411185815 -11.00000000
-1.63604534 0.78140539 0.15862346 52 5 29553 1.82000000 1411185817 1411185817 5.00000000
-1.65224016 0.78949445 -0.29002950 35 6 29554 1.85400000 1411185819 1411185819 -9.00000000
-1.62440860 0.77654392 0.22107099 35 7 29555 1.81400000 1411185822 1411185822 7.00000000
-1.63501787 0.78196633 -0.22253342 32 8 29556 1.82600000 1411185824 1411185824 -7.00000000
-1.63236177 0.78069597 0.28658795 34 9 29556 1.83200000 1411185826 1411185826 9.00000000
-1.64089119 0.78512716 -0.15914638 46 10 29557 1.82600000 1411185829 1411185829 -5.00000000
-1.55124068 0.74256432 0.33429736 57 11 29558 1.75200000 1411185831 1411185831 11.00000000
-1.63742149 0.78416955 -0.09514677 42 12 29559 1.81800000 1411185833 1411185833 -3.00000000
-1.55181706 0.74350619 0.39726356 54 13 29560 1.76600000 1411185836 1411185836 13.00000000
-1.64275122 0.78742707 -0.03179828 33 14 29561 1.82200000 1411185838 1411185838 -1.00000000
-1.56088662 0.74818653 0.46380374 79 15 29561 1.79200000 1411185840 1411185840 15.00000000
-1.61554897 0.77716398 -0.48036814 86 0 29569 1.85600000 1411185861 1411185861 -15.00000000
-1.62889910 0.78393620 0.03155395 40 1 29570 1.80800000 1411185863 1411185863 1.00000000
-1.64871252 0.79382622 -0.42245808 29 2 29571 1.87800000 1411185866 1411185866 -13.00000000
-1.63383865 0.78701597 0.09504209 51 3 29572 1.81600000 1411185868 1411185868 3.00000000
-1.67146504 0.80514050 -0.36062899 39 4 29572 1.89000000 1411185870 1411185870 -11.00000000
-1.63151288 0.78624654 0.15844914 50 5 29573 1.81800000 1411185872 1411185872 5.00000000
-1.65125358 0.79611492 -0.29034236 37 6 29574 1.85600000 1411185875 1411185875 -9.00000000
-1.63420379 0.78824633 0.22277716 45 7 29575 1.82800000 1411185877 1411185877 7.00000000
-1.63049054 0.78680611 -0.22228968 30 8 29576 1.82400000 1411185879 1411185879 -7.00000000
-1.60280573 0.77379143 0.28189489 52 9 29577 1.80200000 1411185882 1411185882 9.00000000
-1.64172900 0.79258257 -0.15949501 52 10 29577 1.83000000 1411185884 1411185884 -5.00000000
-1.53626418 0.74199766 0.33162603 70 11 29578 1.73800000 1411185886 1411185886 11.00000000
-1.63827085 0.79161835 -0.09535611 46 12 29579 1.82200000 1411185889 1411185889 -3.00000000
-1.53693092 0.74298143 0.39411426 57 13 29580 1.75200000 1411185891 1411185891 13.00000000
-1.63639212 0.79141521 -0.03172848 32 14 29581 1.81800000 1411185893 1411185893 -1.00000000
-1.56348288 0.75615382 0.46535665 92 15 29581 1.79800000 1411185895 1411185895 15.00000000
-1.60935044 0.78111148 -0.47933286 100 0 29589 1.85200000 1411185916 1411185916 -15.00000000
-1.62615275 0.78961736 0.03155395 42 1 29590 1.80800000 1411185919 1411185919 1.00000000
-1.64593160 0.79957646 -0.42245808 23 2 29591 1.87800000 1411185921 1411185921 -13.00000000
-1.62569249 0.79009527 0.09472808 46 3 29592 1.81000000 1411185923 1411185923 3.00000000
-1.66864443 0.81097013 -0.36062899 45 4 29592 1.89000000 1411185925 1411185925 -11.00000000
-1.62875843 0.79193676 0.15844914 49 5 29593 1.81800000 1411185928 1411185928 5.00000000
-1.63958275 0.79755360 -0.28877804 33 6 29594 1.84600000 1411185930 1411185930 -9.00000000
-1.62073267 0.78873408 0.22131473 32 7 29595 1.81600000 1411185932 1411185932 7.00000000
-1.63308859 0.79509968 -0.22302090 32 8 29596 1.83000000 1411185935 1411185935 -7.00000000
-1.59476709 0.77678651 0.28095630 55 9 29597 1.79600000 1411185937 1411185937 9.00000000
-1.63716114 0.79743600 -0.15932070 54 10 29597 1.82800000 1411185939 1411185939 -5.00000000
-1.53719449 0.74907571 0.33238927 88 11 29598 1.74200000 1411185942 1411185942 11.00000000
-1.63190711 0.79558176 -0.09514677 41 12 29599 1.81800000 1411185944 1411185944 -3.00000000
-1.52907348 0.74577898 0.39276454 55 13 29600 1.74600000 1411185946 1411185946 13.00000000
-1.62283659 0.79186094 -0.03151904 32 14 29601 1.80600000 1411185948 1411185948 -1.00000000
-1.54854858 0.75594687 0.46173316 94 15 29602 1.78400000 1411185951 1411185951 15.00000000
-1.59793901 0.78247643 -0.47674468 100 0 29609 1.84200000 1411185972 1411185972 -15.00000000
-1.61620343 0.79176992 0.03141433 40 1 29610 1.80000000 1411185974 1411185974 1.00000000
-1.65012991 0.80874747 -0.42425770 40 2 29611 1.88600000 1411185976 1411185976 -13.00000000
-1.62471795 0.79664445 0.09483276 48 3 29612 1.81200000 1411185978 1411185978 3.00000000
-1.66404068 0.81592548 -0.36024737 47 4 29612 1.88800000 1411185981 1411185981 -11.00000000
-1.61525154 0.79235256 0.15740328 49 5 29613 1.80600000 1411185983 1411185983 5.00000000
-1.63324213 0.80153137 -0.28815228 33 6 29614 1.84200000 1411185985 1411185985 -9.00000000
-1.60549629 0.78826255 0.21960856 42 7 29615 1.80200000 1411185988 1411185988 7.00000000
-1.63386667 0.80254573 -0.22350837 28 8 29616 1.83400000 1411185990 1411185990 -7.00000000
-1.59559166 0.78409100 0.28158203 57 9 29617 1.80000000 1411185992 1411185992 9.00000000
-1.63257945 0.80226719 -0.15914638 49 10 29617 1.82600000 1411185995 1411185995 -5.00000000
-1.52576113 0.75010610 0.33048117 100 11 29618 1.73200000 1411185997 1411185997 11.00000000
-1.64345777 0.80832523 -0.09598415 38 12 29619 1.83400000 1411185999 1411185999 -3.00000000
-1.52995801 0.75283265 0.39366433 63 13 29620 1.75000000 1411186001 1411186001 13.00000000
-1.62006259 0.79752088 -0.03151904 32 14 29621 1.80600000 1411186004 1411186004 -1.00000000
-1.53216755 0.75425208 0.45759207 97 15 29621 1.76800000 1411186006 1411186006 15.00000000
-1.60039401 0.79061645 -0.47829759 100 0 29629 1.84800000 1411186027 1411186027 -15.00000000
-1.60805166 0.79474866 0.03130962 37 1 29630 1.79400000 1411186029 1411186029 1.00000000
-1.63856256 0.81018388 -0.42200819 24 2 29631 1.87600000 1411186031 1411186031 -13.00000000
-1.62013698 0.80142540 0.09472808 40 3 29632 1.81000000 1411186034 1411186034 3.00000000
-1.65590322 0.81911767 -0.35910252 43 4 29632 1.88200000 1411186036 1411186036 -11.00000000
-1.58926201 0.78649783 0.15513723 31 5 29633 1.78000000 1411186038 1411186038 5.00000000
-1.61450171 0.79933935 -0.28533646 38 6 29634 1.82400000 1411186041 1411186041 -9.00000000
-1.59739840 0.79121870 0.21887735 46 7 29635 1.79600000 1411186043 1411186043 7.00000000
-1.64172745 0.81353253 -0.22497080 32 8 29636 1.84600000 1411186045 1411186045 -7.00000000
-1.60346401 0.79492027 0.28345925 40 9 29637 1.81200000 1411186048 1411186048 9.00000000
-1.63690937 0.81150085 -0.15984364 46 10 29637 1.83400000 1411186050 1411186050 -5.00000000
-1.51433945 0.75106585 0.32857308 100 11 29638 1.72200000 1411186052 1411186052 11.00000000
-1.63346970 0.81050605 -0.09556545 42 12 29639 1.82600000 1411186054 1411186054 -3.00000000
-1.52906632 0.75903511 0.39411426 75 13 29640 1.75200000 1411186057 1411186057 13.00000000
-1.60831392 0.79872388 -0.03134452 22 14 29641 1.79600000 1411186059 1411186059 -1.00000000
-1.53298581 0.76131427 0.45862734 94 15 29641 1.77200000 1411186061 1411186061 15.00000000
-1.60626960 0.80050647 -0.48088577 184 0 29649 1.85800000 1411186082 1411186082 -15.00000000
-1.60347807 0.79946470 0.03127471 33 1 29650 1.79200000 1411186084 1411186084 1.00000000
-1.63572443 0.81589860 -0.42200819 24 2 29651 1.87600000 1411186087 1411186087 -13.00000000
-1.63176858 0.81392545 0.09556545 47 3 29651 1.82600000 1411186089 1411186089 3.00000000
-1.64776385 0.82226306 -0.35795766 39 4 29652 1.87600000 1411186091 1411186091 -11.00000000
-1.59720242 0.79738021 0.15618309 45 5 29653 1.79200000 1411186094 1411186094 5.00000000
-1.61170161 0.80497015 -0.28533646 40 6 29654 1.82400000 1411186096 1411186096 -9.00000000
-1.59817827 0.79856443 0.21936482 46 7 29655 1.80000000 1411186098 1411186098 7.00000000
-1.62999964 0.81482023 -0.22375211 31 8 29656 1.83600000 1411186100 1411186100 -7.00000000
-1.58315003 0.79140055 0.28033057 43 9 29656 1.79200000 1411186103 1411186103 9.00000000
-1.64297664 0.82166570 -0.16071519 54 10 29657 1.84400000 1411186105 1411186105 -5.00000000
-1.50995266 0.75546885 0.32819146 100 11 29658 1.72000000 1411186107 1411186107 11.00000000
-1.62705851 0.81441504 -0.09535611 38 12 29659 1.82200000 1411186110 1411186110 -3.00000000
-1.51595259 0.75913250 0.39141482 77 13 29660 1.74000000 1411186112 1411186112 13.00000000
-1.50360692 0.75327849 -0.02935495 21 14 29661 1.68200000 1411186114 1411186114 -1.00000000
