# .PCD v0.7 - Point Cloud Data file format
VERSION 0.7
FIELDS x y z intensity laser_id azimuth distance_m adjustedtime timestamp vertical_angle
SIZE 4 4 4 1 1 2 8 8 4 8
TYPE F F F U U U F U U F
COUNT 1 1 1 1 1 1 1 1 1 1
WIDTH 527
HEIGHT 1
VIEWPOINT 0 0 0 1 0 0 0
POINTS 527
DATA ascii
1.75942111 -1.69312871 -0.56372732 3 2 13390 2.50600000 1412740846 1412740846 -13.00000000
0.77987593 -0.75075358 0.05673218 42 3 13391 1.08400000 1412740849 1412740849 3.00000000
0.84438932 -0.81285793 -0.22782594 15 4 13391 1.19400000 1412740851 1412740851 -11.00000000
0.78071404 -0.75182295 0.09482545 35 5 13392 1.08800000 1412740853 1412740853 5.00000000
0.86069870 -0.82913733 -0.18928570 35 6 13393 1.21000000 1412740856 1412740856 -9.00000000
0.76329917 -0.73556626 0.13015646 34 7 13394 1.06800000 1412740858 1412740858 7.00000000
0.81033301 -0.78116405 -0.13819984 67 8 13395 1.13400000 1412740860 1412740860 -7.00000000
0.75362009 -0.72674638 0.16582054 29 9 13396 1.06000000 1412740863 1412740863 9.00000000
0.79596484 -0.76758111 -0.09674288 64 10 13396 1.11000000 1412740865 1412740865 -5.00000000
0.74886930 -0.72241724 0.20225753 55 11 13397 1.06000000 1412740867 1412740867 11.00000000
0.78614408 -0.75864041 -0.05725554 60 12 13398 1.09400000 1412740869 1412740869 -3.00000000
0.72064990 -0.69568050 0.23124969 29 13 13399 1.02800000 1412740872 1412740872 13.00000000
0.78539944 -0.75845140 -0.01905803 71 14 13400 1.09200000 1412740874 1412740874 -1.00000000
0.70999545 -0.68587416 0.26451308 22 15 13401 1.02200000 1412740876 1412740876 15.00000000
1.50208831 -1.45359278 -0.56008440 4 0 13406 2.16400000 1412740897 1412740897 -15.00000000
0.77872515 -0.75384694 0.01891841 68 1 13407 1.08400000 1412740899 1412740899 1.00000000
1.75689316 -1.70135903 -0.56462717 3 2 13408 2.51000000 1412740902 1412740902 -13.00000000
0.78468615 -0.76014829 0.05725554 44 3 13409 1.09400000 1412740904 1412740904 3.00000000
2.06721115 -2.00256729 -0.55945200 2 4 13409 2.93200000 1412740906 1412740906 -11.00000000
0.77405590 -0.75011235 0.09430251 35 5 13410 1.08200000 1412740909 1412740909 5.00000000
0.78236049 -0.75868982 0.13381253 35 7 13412 1.09800000 1412740913 1412740913 7.00000000
0.81072456 -0.78647029 -0.13868731 64 8 13413 1.13800000 1412740916 1412740916 -7.00000000
0.75571406 -0.73310554 0.16675913 29 9 13413 1.06600000 1412740918 1412740918 9.00000000
0.79211968 -0.76869041 -0.09656856 68 10 13414 1.10800000 1412740920 1412740920 -5.00000000
0.75645673 -0.73433870 0.20492886 47 11 13415 1.07400000 1412740922 1412740922 11.00000000
0.78662252 -0.76388925 -0.05746488 57 12 13416 1.09800000 1412740925 1412740925 -3.00000000
0.72964305 -0.70880395 0.23484890 32 13 13417 1.04400000 1412740927 1412740927 13.00000000
0.78588098 -0.76370227 -0.01912784 71 14 13418 1.09600000 1412740929 1412740929 -1.00000000
0.70657182 -0.68663138 0.26399544 9 15 13418 1.02000000 1412740932 1412740932 15.00000000
1.50115585 -1.46287203 -0.56163734 4 0 13426 2.17000000 1412740952 1412740952 -15.00000000
0.77465713 -0.75516474 0.01888350 73 1 13427 1.08200000 1412740955 1412740955 1.00000000
1.74536288 -1.70203924 -0.56282753 3 2 13428 2.50200000 1412740957 1412740957 -13.00000000
0.78917634 -0.76985604 0.05777889 42 3 13429 1.10400000 1412740959 1412740959 3.00000000
2.04896545 -1.99880373 -0.55639905 3 4 13429 2.91600000 1412740962 1412740962 -11.00000000
0.77998841 -0.76115882 0.09534838 35 5 13430 1.09400000 1412740964 1412740964 5.00000000
2.52596378 -2.46584558 -0.55909675 5 6 13431 3.57400000 1412740966 1412740966 -9.00000000
0.76834559 -0.75032085 0.13186263 27 7 13432 1.08200000 1412740969 1412740969 7.00000000
0.80797434 -0.78929543 -0.13868731 69 8 13433 1.13800000 1412740971 1412740971 -7.00000000
0.76997560 -0.75243783 0.17051357 24 9 13434 1.09000000 1412740973 1412740973 9.00000000
0.79370654 -0.77562827 -0.09709150 58 10 13434 1.11400000 1412740975 1412740975 -5.00000000
0.77354330 -0.75618827 0.21027151 26 11 13435 1.10200000 1412740978 1412740978 11.00000000
0.78395128 -0.76663041 -0.05746488 57 12 13436 1.09800000 1412740980 1412740980 -3.00000000
5.40219069 -5.28467798 1.74472034 26 13 13437 7.75600000 1412740982 1412740982 13.00000000
0.78606880 -0.76923811 -0.01919765 73 14 13438 1.10000000 1412740985 1412740985 -1.00000000
5.38115454 -5.26777601 2.01775336 18 15 13439 7.79600000 1412740987 1412740987 15.00000000
1.49966288 -1.47268593 -0.56319022 4 0 13448 2.17600000 1412741008 1412741008 -15.00000000
0.78601706 -0.77214718 0.01923255 85 1 13449 1.10200000 1412741010 1412741010 1.00000000
1.73325491 -1.70326483 -0.56102794 3 2 13450 2.49400000 1412741012 1412741012 -13.00000000
0.78336585 -0.77008027 0.05756955 39 3 13451 1.10000000 1412741015 1412741015 3.00000000
2.05947638 -2.02454829 -0.56136006 3 4 13451 2.94200000 1412741017 1412741017 -11.00000000
0.78274238 -0.76973605 0.09604563 31 5 13452 1.10200000 1412741019 1412741019 5.00000000
2.52351809 -2.48245287 -0.56066114 5 6 13453 3.58400000 1412741022 1412741022 -9.00000000
0.77111846 -0.75883496 0.13283758 35 7 13454 1.09000000 1412741024 1412741024 7.00000000
0.80210841 -0.78960681 -0.13819984 70 8 13455 1.13400000 1412741026 1412741026 -7.00000000
0.78410536 -0.77188438 0.17426799 28 9 13455 1.11400000 1412741028 1412741028 9.00000000
0.79072249 -0.77867013 -0.09709150 58 10 13456 1.11400000 1412741031 1412741031 -5.00000000
0.78182292 -0.77017504 0.21332446 40 11 13457 1.11800000 1412741033 1412741033 11.00000000
0.76962113 -0.75841981 -0.05662750 54 12 13458 1.08200000 1412741035 1412741035 -3.00000000
5.35549116 -5.27938843 1.73617220 60 13 13459 7.71800000 1412741038 1412741038 13.00000000
0.78595704 -0.77505893 -0.01926746 69 14 13460 1.10400000 1412741040 1412741040 -1.00000000
5.34530449 -5.27118635 2.01154160 29 15 13460 7.77200000 1412741042 1412741042 15.00000000
1.49451315 -1.47791183 -0.56319022 4 0 13468 2.17600000 1412741063 1412741063 -15.00000000
0.78616023 -0.77769887 0.01930236 85 1 13469 1.10600000 1412741065 1412741065 1.00000000
1.73145437 -1.71341681 -0.56237763 4 2 13470 2.50000000 1412741068 1412741068 -13.00000000
0.78351182 -0.77562028 0.05777889 42 3 13471 1.10400000 1412741070 1412741070 3.00000000
2.04821110 -2.02758145 -0.56021523 3 4 13471 2.93600000 1412741072 1412741072 -11.00000000
0.79279202 -0.78508103 0.09761443 31 5 13472 1.12000000 1412741075 1412741075 5.00000000
2.51904726 -2.49541712 -0.56159973 5 6 13473 3.59000000 1412741077 1412741077 -9.00000000
0.77410507 -0.76711118 0.13381253 25 7 13474 1.09800000 1412741079 1412741079 7.00000000
0.79934728 -0.79240191 -0.13819984 67 8 13475 1.13400000 1412741081 1412741081 -7.00000000
0.78968680 -0.78309870 0.17614521 24 9 13476 1.12600000 1412741084 1412741084 9.00000000
0.79365849 -0.78703725 -0.09778874 58 10 13476 1.12200000 1412741086 1412741086 -5.00000000
5.33682966 -5.29415369 1.46121526 18 11 13477 7.65800000 1412741088 1412741088 11.00000000
0.77547520 -0.76954275 -0.05725554 51 12 13478 1.09400000 1412741091 1412741091 -3.00000000
5.31075287 -5.27196503 1.72762406 60 13 13479 7.68000000 1412741093 1412741093 13.00000000
0.78040892 -0.77497959 -0.01919765 65 14 13480 1.10000000 1412741095 1412741095 -1.00000000
5.31361389 -5.27848911 2.00688291 49 15 13481 7.75400000 1412741098 1412741098 15.00000000
1.48438537 -1.47714889 -0.56111968 4 0 13486 2.16800000 1412741118 1412741118 -15.00000000
0.78938198 -0.78580797 0.01944198 83 1 13487 1.11400000 1412741121 1412741121 1.00000000
1.72468209 -1.71747279 -0.56192774 3 2 13488 2.49800000 1412741123 1412741123 -13.00000000
0.78531623 -0.78230661 0.05809291 49 3 13489 1.11000000 1412741125 1412741125 3.00000000
2.02792215 -2.02015042 -0.55639905 3 4 13489 2.91600000 1412741128 1412741128 -11.00000000
0.78467655 -0.78194231 0.09691719 28 5 13490 1.11200000 1412741130 1412741130 5.00000000
2.51679134 -2.50889707 -0.56285119 5 6 13491 3.59800000 1412741132 1412741132 -9.00000000
0.78996450 -0.78776157 0.13698114 27 7 13492 1.12400000 1412741134 1412741134 7.00000000
0.80528623 -0.80332094 -0.13966227 43 8 13493 1.14600000 1412741137 1412741137 -7.00000000
0.78316432 -0.78125304 0.17520660 14 9 13493 1.12000000 1412741139 1412741139 9.00000000
0.78695107 -0.78530461 -0.09726581 42 10 13494 1.11600000 1412741141 1412741141 -5.00000000
5.29377174 -5.28454065 1.45396459 43 11 13495 7.62000000 1412741144 1412741144 11.00000000
0.78012007 -0.77903157 -0.05777889 48 12 13496 1.10400000 1412741146 1412741146 -3.00000000
5.28313494 -5.27760553 1.72402489 60 13 13497 7.66400000 1412741148 1412741148 13.00000000
0.77089798 -0.77035993 -0.01902312 61 14 13498 1.09000000 1412741151 1412741151 -1.00000000
5.27469826 -5.27101707 1.99808300 47 15 13498 7.72000000 1412741153 1412741153 15.00000000
1.47512627 -1.47821903 -0.55956680 4 0 13506 2.16200000 1412741174 1412741174 -15.00000000
0.78239733 -0.78431147 0.01933727 78 1 13507 1.10800000 1412741176 1412741176 1.00000000
1.72693276 -1.73176193 -0.56462717 3 2 13508 2.51000000 1412741178 1412741178 -13.00000000
0.79386115 -0.79635906 0.05893029 49 3 13509 1.12600000 1412741181 1412741181 3.00000000
2.03610468 -2.04251146 -0.56059682 3 4 13509 2.93800000 1412741183 1412741183 -11.00000000
0.78897417 -0.79173303 0.09778874 31 5 13510 1.12200000 1412741185 1412741185 5.00000000
2.49547124 -2.50507164 -0.56003541 5 6 13511 3.58000000 1412741187 1412741187 -9.00000000
0.81102228 -0.81442660 0.14112470 28 7 13512 1.15800000 1412741190 1412741190 7.00000000
5.27488708 -5.29887867 1.18420887 35 9 13513 7.57000000 1412741194 1412741194 9.00000000
0.79263741 -0.79652041 -0.09831168 15 10 13514 1.12800000 1412741197 1412741197 -5.00000000
5.25452423 -5.28210926 1.44824028 59 11 13515 7.59000000 1412741199 1412741199 11.00000000
0.77739602 -0.78174996 -0.05777889 30 12 13516 1.10400000 1412741201 1412741201 -3.00000000
5.25094175 -5.28219414 1.71952581 66 13 13517 7.64400000 1412741204 1412741204 13.00000000
0.77102327 -0.77588308 -0.01909293 43 14 13518 1.09400000 1412741206 1412741206 -1.00000000
5.23039389 -5.26336145 1.98824787 47 15 13518 7.68200000 1412741208 1412741208 15.00000000
1.46969843 -1.48361576 -0.55956680 4 0 13527 2.16200000 1412741229 1412741229 -15.00000000
0.77388918 -0.78149027 0.01919765 64 1 13528 1.10000000 1412741231 1412741231 1.00000000
1.70960605 -1.72700047 -0.56102794 3 2 13529 2.49400000 1412741234 1412741234 -13.00000000
0.79374671 -0.80210263 0.05913963 36 3 13530 1.13000000 1412741236 1412741236 3.00000000
2.03136683 -2.05275130 -0.56136006 3 4 13530 2.94200000 1412741238 1412741238 -11.00000000
0.78606701 -0.79461944 0.09778874 9 5 13531 1.12200000 1412741240 1412741240 5.00000000
2.49043989 -2.51841497 -0.56097400 5 6 13532 3.58600000 1412741243 1412741243 -9.00000000
0.81919634 -0.82868755 0.14307460 66 7 13533 1.17400000 1412741245 1412741245 7.00000000
5.23090219 -5.29520321 1.17889011 45 9 13535 7.53600000 1412741250 1412741250 9.00000000
5.21719551 -5.28317213 1.44327927 59 11 13536 7.56400000 1412741254 1412741254 11.00000000
5.21785831 -5.28753376 1.71502686 66 13 13538 7.62400000 1412741259 1412741259 13.00000000
0.81170893 -0.82283509 -0.02017498 26 14 13539 1.15600000 1412741261 1412741261 -1.00000000
5.19207382 -5.26324224 1.98100102 47 15 13539 7.65400000 1412741263 1412741263 15.00000000
1.47128451 -1.49562275 -0.56215495 4 0 13547 2.17200000 1412741284 1412741284 -15.00000000
1.70083511 -1.73017824 -0.56012815 3 2 13549 2.49000000 1412741289 1412741289 -13.00000000
2.02281284 -2.05842924 -0.56097847 3 4 13550 2.94000000 1412741293 1412741293 -11.00000000
3.02704000 -3.08141375 0.37790731 5 5 13551 4.33600000 1412741296 1412741296 5.00000000
2.47194529 -2.51722693 -0.55878389 5 6 13552 3.57200000 1412741298 1412741298 -9.00000000
0.80934554 -0.82445908 0.14185591 40 7 13553 1.16400000 1412741300 1412741300 7.00000000
3.20065665 -3.26156330 -0.56108648 2 8 13554 4.60400000 1412741303 1412741303 -7.00000000
5.20408678 -5.30496931 1.17701292 60 9 13555 7.52400000 1412741305 1412741305 9.00000000
3.88714838 -3.96250200 -0.48563179 3 10 13555 5.57200000 1412741307 1412741307 -5.00000000
5.17947769 -5.28172731 1.43793654 59 11 13556 7.53600000 1412741310 1412741310 11.00000000
3.80298424 -3.87941408 -0.28470761 2 12 13557 5.44000000 1412741312 1412741312 -3.00000000
5.17481852 -5.28066206 1.70692861 72 13 13558 7.58800000 1412741314 1412741314 13.00000000
5.16328669 -5.27257490 1.97737753 47 15 13560 7.64000000 1412741319 1412741319 15.00000000
1.46496665 -1.49911189 -0.56163734 4 0 13566 2.17000000 1412741340 1412741340 -15.00000000
3.00713372 -3.07829833 0.07511516 15 1 13567 4.30400000 1412741342 1412741342 1.00000000
1.69508827 -1.73580885 -0.56012815 3 2 13568 2.49000000 1412741344 1412741344 -13.00000000
3.00100136 -3.07416677 0.22514929 12 3 13569 4.30200000 1412741346 1412741346 3.00000000
2.01460433 -2.06372094 -0.56059682 3 4 13569 2.93800000 1412741349 1412741349 -11.00000000
3.01263046 -3.08715701 0.37738436 7 5 13570 4.33000000 1412741351 1412741351 5.00000000
2.47048116 -2.53248024 -0.56034827 5 6 13571 3.58200000 1412741353 1412741353 -9.00000000
3.19120884 -3.27358055 -0.56133020 4 8 13573 4.60600000 1412741358 1412741358 -7.00000000
5.16027164 -5.29531765 1.17106843 55 9 13574 7.48600000 1412741360 1412741360 9.00000000
3.87954903 -3.98107815 -0.48632905 3 10 13574 5.58000000 1412741363 1412741363 -5.00000000
5.14549541 -5.28199863 1.43335712 56 11 13575 7.51200000 1412741365 1412741365 11.00000000
3.79427886 -3.89629650 -0.28502160 2 12 13576 5.44600000 1412741367 1412741367 -3.00000000
5.12465477 -5.26428080 1.69613099 70 13 13577 7.54000000 1412741369 1412741369 13.00000000
2.99982381 -3.08263278 -0.07508025 7 14 13578 4.30200000 1412741372 1412741372 -1.00000000
5.13052940 -5.27215576 1.97116590 47 15 13578 7.61600000 1412741374 1412741374 15.00000000
1.45568871 -1.50005734 -0.56008440 4 0 13586 2.16400000 1412741395 1412741395 -15.00000000
3.00193954 -3.09451747 0.07525478 7 1 13587 4.31200000 1412741397 1412741397 1.00000000
1.68901885 -1.74171519 -0.56012815 3 2 13588 2.49000000 1412741399 1412741399 -13.00000000
3.00137377 -3.09609604 0.22598666 7 3 13589 4.31800000 1412741402 1412741402 3.00000000
1.99099028 -2.05382514 -0.55601740 3 4 13589 2.91400000 1412741404 1412741404 -11.00000000
3.00044942 -3.09622359 0.37721005 7 5 13590 4.32800000 1412741406 1412741406 5.00000000
2.46437502 -2.54392600 -0.56097400 5 6 13591 3.58600000 1412741409 1412741409 -9.00000000
3.00357366 -3.10161328 0.53013164 5 7 13592 4.35000000 1412741411 1412741411 7.00000000
3.17976260 -3.28470016 -0.56133020 4 8 13593 4.60600000 1412741413 1412741413 -7.00000000
5.11702967 -5.28774691 1.16543674 55 9 13594 7.45000000 1412741416 1412741416 9.00000000
3.86285782 -3.99173260 -0.48598042 3 10 13594 5.57600000 1412741418 1412741418 -5.00000000
5.11610603 -5.28863907 1.43030429 59 11 13595 7.49600000 1412741420 1412741420 11.00000000
3.82230759 -3.95258951 -0.28816178 2 12 13596 5.50600000 1412741422 1412741422 -3.00000000
5.09270334 -5.26812601 1.69163191 72 13 13597 7.52000000 1412741425 1412741425 13.00000000
3.00433064 -3.10890293 -0.07546420 3 14 13598 4.32400000 1412741427 1412741427 -1.00000000
5.09061575 -5.26780558 1.96288359 47 15 13598 7.58400000 1412741429 1412741429 15.00000000
1.44616008 -1.50120866 -0.55853152 4 0 13607 2.15800000 1412741450 1412741450 -15.00000000
5.11560774 -5.31219006 0.12872896 9 1 13608 7.37600000 1412741452 1412741452 1.00000000
1.69343579 -1.75912559 -0.56372732 3 2 13609 2.50600000 1412741455 1412741455 -13.00000000
3.40886450 -3.54109716 0.25759757 24 3 13609 4.92200000 1412741457 1412741457 3.00000000
1.98344934 -2.06110883 -0.55601740 3 4 13610 2.91400000 1412741459 1412741459 -11.00000000
5.11762714 -5.31985950 0.64582407 3 5 13611 7.41000000 1412741462 1412741462 5.00000000
2.44134212 -2.53870296 -0.55784529 5 6 13612 3.56600000 1412741464 1412741464 -9.00000000
2.99080992 -3.11117005 0.52988791 7 7 13613 4.34800000 1412741466 1412741466 7.00000000
3.16082478 -3.28917575 -0.56011152 4 8 13614 4.59600000 1412741468 1412741468 -7.00000000
5.08759069 -5.29418182 1.16293383 55 9 13614 7.43400000 1412741471 1412741471 9.00000000
5.07765007 -5.28753042 1.42496157 59 11 13616 7.46800000 1412741475 1412741475 11.00000000
3.83269167 -3.99250698 -0.29004586 2 12 13617 5.54200000 1412741478 1412741478 -3.00000000
5.06256628 -5.27550793 1.68803275 68 13 13618 7.50400000 1412741480 1412741480 13.00000000
3.67677355 -3.83276463 -0.09270718 25 14 13619 5.31200000 1412741482 1412741482 -1.00000000
5.04720163 -5.26133442 1.95356619 47 15 13619 7.54800000 1412741485 1412741485 15.00000000
1.43957567 -1.50485158 -0.55801386 2 0 13627 2.15600000 1412741505 1412741505 -15.00000000
5.07492065 -5.30689096 0.12817048 9 1 13628 7.34400000 1412741508 1412741508 1.00000000
1.67651224 -1.75375688 -0.56012815 3 2 13629 2.49000000 1412741510 1412741510 -13.00000000
3.41656089 -3.57522678 0.25916764 24 3 13630 4.95200000 1412741512 1412741512 3.00000000
1.97759902 -2.06943917 -0.55639905 3 4 13630 2.91600000 1412741515 1412741515 -11.00000000
2.43382978 -2.54863811 -0.55815816 3 6 13632 3.56800000 1412741519 1412741519 -9.00000000
5.05656290 -5.29694080 0.89915204 10 7 13633 7.37800000 1412741521 1412741521 7.00000000
3.16714025 -3.31885862 -0.56328011 4 8 13634 4.62200000 1412741524 1412741524 -7.00000000
5.05315399 -5.29707050 1.15949225 52 9 13635 7.41200000 1412741526 1412741526 9.00000000
4.39254618 -4.60457516 -0.55675089 15 10 13635 6.38800000 1412741528 1412741528 -5.00000000
5.03883886 -5.28391075 1.41923726 56 11 13636 7.43800000 1412741531 1412741531 11.00000000
3.81046319 -3.99718761 -0.28941783 2 12 13637 5.53000000 1412741533 1412741533 -3.00000000
5.03336525 -5.28186131 1.68443346 64 13 13638 7.48800000 1412741535 1412741535 13.00000000
3.67716503 -3.86005449 -0.09305623 31 14 13639 5.33200000 1412741538 1412741538 -1.00000000
5.01189709 -5.26301003 1.94735444 47 15 13640 7.52400000 1412741540 1412741540 15.00000000
1.44548917 -1.52056801 -0.56215495 4 0 13645 2.17200000 1412741561 1412741561 -15.00000000
5.03618336 -5.29961491 0.12761199 12 1 13646 7.31200000 1412741563 1412741563 1.00000000
1.66159916 -1.74912512 -0.55697882 3 2 13647 2.47600000 1412741565 1412741565 -13.00000000
3.41144037 -3.59114051 0.25958633 20 3 13647 4.96000000 1412741568 1412741568 3.00000000
1.97243977 -2.07706523 -0.55678064 3 4 13648 2.91800000 1412741570 1412741570 -11.00000000
2.42581105 -2.55627155 -0.55815816 5 6 13650 3.56800000 1412741574 1412741574 -9.00000000
3.13894081 -3.31006670 -0.56011152 4 8 13652 4.59600000 1412741579 1412741579 -7.00000000
5.02561569 -5.30145073 1.15698934 52 9 13653 7.39600000 1412741581 1412741581 9.00000000
4.37531710 -4.61545992 -0.55640227 15 10 13653 6.38400000 1412741584 1412741584 -5.00000000
5.00330830 -5.27976418 1.41389465 59 11 13654 7.41000000 1412741586 1412741586 11.00000000
5.01485872 -5.29380322 -0.38215715 3 12 13655 7.30200000 1412741588 1412741588 -3.00000000
4.99798822 -5.27783871 1.67813492 62 13 13656 7.46000000 1412741591 1412741591 13.00000000
3.67601800 -3.88320541 -0.09333547 34 14 13657 5.34800000 1412741593 1412741593 -1.00000000
4.98032236 -5.26102209 1.94114280 47 15 13657 7.50000000 1412741595 1412741595 15.00000000
1.44017255 -1.52560437 -0.56215495 4 0 13665 2.17200000 1412741616 1412741616 -15.00000000
5.00941849 -5.30843592 0.12740257 12 1 13666 7.30000000 1412741618 1412741618 1.00000000
1.45623708 -1.54370105 -0.48994339 1 2 13667 2.17800000 1412741620 1412741620 -13.00000000
3.41121888 -3.61610222 0.26052839 22 3 13667 4.97800000 1412741623 1412741623 3.00000000
1.97056520 -2.08965111 -0.55830711 3 4 13668 2.92600000 1412741625 1412741625 -11.00000000
2.42500186 -2.57334924 -0.56003541 3 6 13670 3.58000000 1412741630 1412741630 -9.00000000
4.99001455 -5.29712677 0.89354604 65 7 13671 7.33200000 1412741632 1412741632 7.00000000
3.11511922 -3.30799699 -0.55791783 4 8 13672 4.57800000 1412741634 1412741634 -7.00000000
4.97864580 -5.28875589 1.15041900 55 9 13673 7.35400000 1412741637 1412741637 9.00000000
4.35371685 -4.62490177 -0.55570501 19 10 13673 6.37600000 1412741639 1412741639 -5.00000000
4.97273922 -5.28432894 1.41046011 59 11 13674 7.39200000 1412741641 1412741641 11.00000000
4.99361229 -5.30836630 -0.38194782 11 12 13675 7.29800000 1412741644 1412741644 -3.00000000
4.95817471 -5.27253819 1.67093647 66 13 13676 7.42800000 1412741646 1412741646 13.00000000
3.67065859 -3.90475535 -0.09354490 36 14 13677 5.36000000 1412741648 1412741648 -1.00000000
4.95134211 -5.26711416 1.93700171 47 15 13677 7.48400000 1412741650 1412741650 15.00000000
1.43748081 -1.53344107 -0.56319022 5 0 13685 2.17600000 1412741671 1412741671 -15.00000000
4.97718477 -5.31129837 0.12705351 12 1 13686 7.28000000 1412741673 1412741673 1.00000000
1.41087162 -1.50610888 -0.47644633 3 2 13687 2.11800000 1412741676 1412741676 -13.00000000
3.40749860 -3.63878560 0.26126111 20 3 13688 4.99200000 1412741678 1412741678 3.00000000
1.94983959 -2.08218670 -0.55449092 3 4 13688 2.90600000 1412741680 1412741680 -11.00000000
2.40790606 -2.57314444 -0.55815816 5 6 13690 3.56800000 1412741685 1412741685 -9.00000000
4.95522070 -5.29711676 0.89062119 60 7 13691 7.30800000 1412741687 1412741687 7.00000000
3.12524676 -3.34204912 -0.56181765 4 8 13692 4.61000000 1412741690 1412741690 -7.00000000
4.94219112 -5.28503704 1.14603889 55 9 13692 7.32600000 1412741692 1412741692 9.00000000
4.32802248 -4.62988234 -0.55448484 19 10 13693 6.36200000 1412741694 1412741694 -5.00000000
4.93951797 -5.28587627 1.40626228 59 11 13694 7.37000000 1412741697 1412741697 11.00000000
4.96959877 -5.31992722 -0.38152912 11 12 13695 7.29000000 1412741699 1412741699 -3.00000000
4.92909956 -5.27841902 1.66733718 70 13 13696 7.41200000 1412741701 1412741701 13.00000000
3.66655803 -3.92777681 -0.09378923 31 14 13697 5.37400000 1412741703 1412741703 -1.00000000
4.91618776 -5.26827765 1.93079007 47 15 13698 7.46000000 1412741706 1412741706 15.00000000
1.42158914 -1.52713740 -0.55904913 6 0 13705 2.16000000 1412741726 1412741726 -15.00000000
4.93409395 -5.30228901 0.12642524 12 1 13706 7.24400000 1412741729 1412741729 1.00000000
1.40560579 -1.51102459 -0.47644633 4 2 13707 2.11800000 1412741731 1412741731 -13.00000000
3.40765619 -3.66322660 0.26220313 21 3 13707 5.01000000 1412741733 1412741733 3.00000000
1.95325494 -2.10048175 -0.55754387 3 4 13708 2.92200000 1412741736 1412741736 -11.00000000
3.81045270 -4.09910059 0.48964095 2 5 13709 5.61800000 1412741738 1412741738 5.00000000
2.39621997 -2.57863975 -0.55753243 5 6 13710 3.56400000 1412741740 1412741740 -9.00000000
4.92183828 -5.29838324 0.88794005 52 7 13711 7.28600000 1412741743 1412741743 7.00000000
3.11491275 -3.35439253 -0.56206143 6 8 13712 4.61200000 1412741745 1412741745 -7.00000000
4.90666008 -5.28574276 1.14228451 57 9 13713 7.30200000 1412741747 1412741747 9.00000000
4.30099106 -4.63328028 -0.55309033 19 10 13713 6.34600000 1412741750 1412741750 -5.00000000
4.90100574 -5.28149939 1.40053797 59 11 13714 7.34000000 1412741752 1412741752 11.00000000
4.93741560 -5.32259893 -0.38048241 11 12 13715 7.27000000 1412741754 1412741754 -3.00000000
4.88944340 -5.27272987 1.66013873 70 13 13716 7.38000000 1412741756 1412741756 13.00000000
3.67185736 -3.96108294 -0.09427790 23 14 13717 5.40200000 1412741759 1412741759 -1.00000000
4.87413263 -5.25990009 1.92147255 47 15 13718 7.42400000 1412741761 1412741761 15.00000000
1.41493833 -1.53067172 -0.55853152 4 0 13725 2.15800000 1412741782 1412741782 -15.00000000
4.90198374 -5.30479336 0.12607618 9 1 13726 7.22400000 1412741784 1412741784 1.00000000
1.39900041 -1.51449037 -0.47599643 4 2 13727 2.11600000 1412741786 1412741786 -13.00000000
3.42330813 -3.70590830 0.26440126 23 3 13727 5.05200000 1412741789 1412741789 3.00000000
1.93126011 -2.09142113 -0.55334610 3 4 13728 2.90000000 1412741791 1412741791 -11.00000000
3.75017285 -4.06260061 0.48371437 2 5 13729 5.55000000 1412741793 1412741793 5.00000000
2.37648726 -2.57537460 -0.55502951 5 6 13730 3.54800000 1412741796 1412741796 -9.00000000
4.88177824 -5.29218578 0.88404024 52 7 13731 7.25400000 1412741798 1412741798 7.00000000
3.09780192 -3.35940790 -0.56108648 6 8 13732 4.60400000 1412741800 1412741800 -7.00000000
4.87839222 -5.29036713 1.13978148 57 9 13732 7.28600000 1412741803 1412741803 9.00000000
4.27938986 -4.64240551 -0.55239308 19 10 13733 6.33800000 1412741805 1412741805 -5.00000000
4.86524487 -5.27980614 1.39557695 59 11 13734 7.31400000 1412741807 1412741807 11.00000000
4.89174271 -5.31042147 -0.37838897 11 12 13735 7.23000000 1412741809 1412741809 -3.00000000
4.85780764 -5.27542973 1.65563977 72 13 13736 7.36000000 1412741812 1412741812 13.00000000
3.13795090 -3.40891171 -0.08087445 5 14 13737 4.63400000 1412741814 1412741814 -1.00000000
4.83742857 -5.25697994 1.91422570 47 15 13738 7.39600000 1412741816 1412741816 15.00000000
1.41350591 -1.53987098 -0.56008440 4 0 13745 2.16400000 1412741837 1412741837 -15.00000000
4.86721277 -5.30419159 0.12565732 12 1 13746 7.20000000 1412741839 1412741839 1.00000000
1.38711882 -1.51218426 -0.47374693 4 2 13747 2.10600000 1412741842 1412741842 -13.00000000
3.41710186 -3.72519445 0.26492462 23 3 13747 5.06200000 1412741844 1412741844 3.00000000
1.93588960 -2.11117291 -0.55678064 3 4 13748 2.91800000 1412741846 1412741846 -11.00000000
3.74673939 -4.08741617 0.48510885 2 5 13749 5.56600000 1412741849 1412741849 5.00000000
2.36748314 -2.58365440 -0.55502951 5 6 13750 3.54800000 1412741851 1412741851 -9.00000000
4.84450340 -5.28870058 0.88062787 52 7 13751 7.22600000 1412741853 1412741853 7.00000000
3.07533169 -3.35848856 -0.55913657 6 8 13752 4.58800000 1412741856 1412741856 -7.00000000
4.84388733 -5.28988123 1.13602710 55 9 13752 7.26200000 1412741858 1412741858 9.00000000
4.25912285 -4.65290594 -0.55187017 19 10 13753 6.33200000 1412741860 1412741860 -5.00000000
4.82823038 -5.27647972 1.39023435 59 11 13754 7.28600000 1412741862 1412741862 11.00000000
4.85969543 -5.31272745 -0.37734225 11 12 13755 7.21000000 1412741865 1412741865 -3.00000000
4.81832266 -5.26934433 1.64844131 70 13 13756 7.32800000 1412741867 1412741867 13.00000000
3.13547659 -3.43017650 -0.08111878 5 14 13757 4.64800000 1412741869 1412741869 -1.00000000
4.80601740 -5.25957251 1.90904927 49 15 13758 7.37600000 1412741872 1412741872 15.00000000
1.41072488 -1.54765105 -0.56111968 14 0 13765 2.16800000 1412741892 1412741892 -15.00000000
4.83789349 -5.30932426 0.12537809 12 1 13766 7.18400000 1412741895 1412741895 1.00000000
1.38445652 -1.51989830 -0.47464672 4 2 13767 2.11000000 1412741897 1412741897 -13.00000000
3.41483736 -3.74891186 0.26576197 21 3 13767 5.07800000 1412741899 1412741899 3.00000000
1.92189944 -2.11065936 -0.55487257 3 4 13768 2.90800000 1412741902 1412741902 -11.00000000
3.72574306 -4.09310246 0.48423731 2 5 13769 5.55600000 1412741904 1412741904 5.00000000
2.35844994 -2.59190273 -0.55502951 5 6 13770 3.54800000 1412741906 1412741906 -9.00000000
4.81532717 -5.29383135 0.87867796 50 7 13771 7.21000000 1412741908 1412741908 7.00000000
3.05290580 -3.35745335 -0.55718666 6 8 13772 4.57200000 1412741911 1412741911 -7.00000000
4.80678749 -5.28629589 1.13164687 55 9 13772 7.23400000 1412741913 1412741913 9.00000000
4.24151516 -4.66627026 -0.55169582 19 10 13773 6.33000000 1412741915 1412741915 -5.00000000
4.79922009 -5.28167725 1.38718140 56 11 13774 7.27000000 1412741918 1412741918 11.00000000
4.82769203 -5.31487465 -0.37629554 11 12 13775 7.19000000 1412741920 1412741920 -3.00000000
4.77893972 -5.26304770 1.64124286 62 13 13776 7.29600000 1412741922 1412741922 13.00000000
3.13154793 -3.44998455 -0.08132821 5 14 13777 4.66000000 1412741925 1412741925 -1.00000000
4.78205776 -5.26832867 1.90646112 51 15 13777 7.36600000 1412741927 1412741927 15.00000000
1.38197851 -1.52678537 -0.55180222 38 0 13785 2.13200000 1412741948 1412741948 -15.00000000
4.80859756 -5.31431723 0.12509885 12 1 13786 7.16800000 1412741950 1412741950 1.00000000
1.38437152 -1.53050268 -0.47644633 4 2 13787 2.11800000 1412741952 1412741952 -13.00000000
3.41914773 -3.78006482 0.26712272 19 3 13787 5.10400000 1412741955 1412741955 3.00000000
1.91188669 -2.11444283 -0.55410933 3 4 13788 2.90400000 1412741957 1412741957 -11.00000000
3.68471241 -4.07652140 0.48075107 2 5 13789 5.51600000 1412741959 1412741959 5.00000000
2.36263156 -2.61477637 -0.55815816 5 6 13790 3.56800000 1412741961 1412741961 -9.00000000
4.78883505 -5.30176878 0.87721550 52 7 13791 7.19800000 1412741964 1412741964 7.00000000
3.04914951 -3.37692976 -0.55864906 8 8 13792 4.58400000 1412741966 1412741966 -7.00000000
4.76844788 -5.28105068 1.12695384 52 9 13792 7.20400000 1412741968 1412741968 9.00000000
4.22253132 -4.67808962 -0.55134726 19 10 13793 6.32600000 1412741971 1412741971 -5.00000000
4.76760244 -5.28382111 1.38336527 56 11 13794 7.25000000 1412741973 1412741973 11.00000000
4.79573298 -5.31686306 -0.37524882 11 12 13795 7.17000000 1412741975 1412741975 -3.00000000
4.75009966 -5.26811886 1.63764369 66 13 13796 7.28000000 1412741978 1412741978 13.00000000
3.11011434 -3.45049691 -0.08108388 5 14 13797 4.64600000 1412741980 1412741980 -1.00000000
4.73685265 -5.25711632 1.89610827 49 15 13798 7.32600000 1412741982 1412741982 15.00000000
1.36760080 -1.52154267 -0.54817873 64 0 13805 2.11800000 1412742003 1412742003 -15.00000000
4.76863384 -5.30727053 0.12454037 9 1 13806 7.13600000 1412742005 1412742005 1.00000000
1.38943815 -1.54692400 -0.48004556 4 2 13807 2.13400000 1412742008 1412742008 -13.00000000
3.42261672 -3.81189084 0.26848346 17 3 13808 5.13000000 1412742010 1412742010 3.00000000
1.90711761 -2.12402511 -0.55487257 3 4 13808 2.90800000 1412742012 1412742012 -11.00000000
3.67445278 -4.09380674 0.48127401 2 5 13809 5.52200000 1412742014 1412742014 5.00000000
2.34557462 -2.61418581 -0.55628097 5 6 13810 3.55600000 1412742017 1412742017 -9.00000000
4.75704479 -5.30367517 0.87477815 52 7 13811 7.17800000 1412742019 1412742019 7.00000000
3.04264402 -3.39346457 -0.55962402 6 8 13812 4.59200000 1412742021 1412742021 -7.00000000
4.74075365 -5.28736830 1.12476385 52 9 13812 7.19000000 1412742024 1412742024 9.00000000
4.18622875 -4.67054558 -0.54873258 19 10 13813 6.29600000 1412742026 1412742026 -5.00000000
4.73078823 -5.27996063 1.37802255 56 11 13814 7.22200000 1412742028 1412742028 11.00000000
4.76381922 -5.31869364 -0.37420207 11 12 13815 7.15000000 1412742031 1412742031 -3.00000000
4.72128201 -5.27305317 1.63404441 60 13 13816 7.26400000 1412742033 1412742033 13.00000000
4.73976469 -5.29555559 -0.12405171 8 14 13817 7.10800000 1412742035 1412742035 -1.00000000
4.70522118 -5.25696135 1.89041436 47 15 13817 7.30400000 1412742038 1412742038 15.00000000
1.35970855 -1.52342474 -0.54714346 71 0 13825 2.11400000 1412742058 1412742058 -15.00000000
3.04202080 -3.40949392 0.07975750 4 1 13826 4.57000000 1412742061 1412742061 1.00000000
1.38143575 -1.54885590 -0.47914574 4 2 13827 2.13000000 1412742063 1412742063 -13.00000000
3.24979091 -3.64492297 0.25592282 6 3 13828 4.89000000 1412742065 1412742065 3.00000000
1.88923943 -2.11894631 -0.55181962 3 4 13828 2.89200000 1412742067 1412742067 -11.00000000
2.33117890 -2.61645770 -0.55502951 5 6 13830 3.54800000 1412742072 1412742072 -9.00000000
4.71209717 -5.29060030 0.86990339 52 7 13831 7.13800000 1412742074 1412742074 7.00000000
3.02550006 -3.39813423 -0.55864906 8 8 13832 4.58400000 1412742077 1412742077 -7.00000000
4.70558310 -5.28700113 1.12100935 55 9 13833 7.16600000 1412742079 1412742079 9.00000000
4.16460180 -4.67917681 -0.54803532 15 10 13833 6.28800000 1412742081 1412742081 -5.00000000
4.69275379 -5.27444029 1.37229824 59 11 13834 7.19200000 1412742084 1412742084 11.00000000
4.71602297 -5.30245733 -0.37189931 11 12 13835 7.10600000 1412742086 1412742086 -3.00000000
4.69248819 -5.27785063 1.63044524 64 13 13836 7.24800000 1412742088 1412742088 13.00000000
4.70929480 -5.29861593 -0.12373756 8 14 13837 7.09000000 1412742091 1412742091 -1.00000000
4.66924143 -5.25539732 1.88368499 45 15 13838 7.27800000 1412742093 1412742093 15.00000000
1.35667789 -1.53128994 -0.54817873 80 0 13846 2.11800000 1412742114 1412742114 -15.00000000
3.01094246 -3.39966273 0.07926883 8 1 13847 4.54200000 1412742116 1412742116 1.00000000
1.36541533 -1.54223621 -0.47554654 4 2 13848 2.11400000 1412742118 1412742118 -13.00000000
3.01138330 -3.40255284 0.23812860 7 3 13849 4.55000000 1412742120 1412742120 3.00000000
1.89707422 -2.14349842 -0.55639905 3 4 13849 2.91600000 1412742123 1412742123 -11.00000000
2.33335137 -2.63830161 -0.55784529 5 6 13851 3.56600000 1412742127 1412742127 -9.00000000
4.66637754 -5.27809143 0.86502862 55 7 13852 7.09800000 1412742130 1412742130 7.00000000
3.01039577 -3.40622568 -0.55816162 8 8 13853 4.58000000 1412742132 1412742132 -7.00000000
4.67663383 -5.29155350 1.11850643 57 9 13853 7.15000000 1412742134 1412742134 9.00000000
4.14610434 -4.69291639 -0.54786098 15 10 13854 6.28600000 1412742137 1412742137 -5.00000000
4.66299391 -5.27983284 1.36924541 59 11 13855 7.17600000 1412742139 1412742139 11.00000000
4.67805099 -5.29874516 -0.37043390 11 12 13856 7.07800000 1412742141 1412742141 -3.00000000
4.65248060 -5.27163649 1.62324679 66 13 13857 7.21600000 1412742144 1412742144 13.00000000
4.68190527 -5.30684376 -0.12352813 8 14 13858 7.07800000 1412742146 1412742146 -1.00000000
4.64319992 -5.26297188 1.88057923 47 15 13858 7.26600000 1412742148 1412742148 15.00000000
1.34877241 -1.53311551 -0.54714346 83 0 13866 2.11400000 1412742169 1412742169 -15.00000000
3.00698042 -3.41916180 0.07947826 8 1 13867 4.55400000 1412742171 1412742171 1.00000000
1.36774373 -1.55577445 -0.47824594 4 2 13868 2.12600000 1412742173 1412742173 -13.00000000
2.99948788 -3.41304374 0.23812860 7 3 13869 4.55000000 1412742176 1412742176 3.00000000
1.87402833 -2.13241100 -0.55181962 3 4 13869 2.89200000 1412742178 1412742178 -11.00000000
2.31761026 -2.63900924 -0.55628097 5 6 13871 3.55600000 1412742183 1412742183 -9.00000000
4.64006710 -5.28539753 0.86356616 55 7 13872 7.08600000 1412742185 1412742185 7.00000000
2.98277497 -3.39880896 -0.55523676 8 8 13873 4.55600000 1412742187 1412742187 -7.00000000
4.63896990 -5.28786945 1.11412621 57 9 13874 7.12200000 1412742190 1412742190 9.00000000
4.12838364 -4.70586252 -0.54768670 15 10 13874 6.28400000 1412742192 1412742192 -5.00000000
4.62511826 -5.27393675 1.36352110 62 11 13875 7.14600000 1412742194 1412742194 11.00000000
4.64635992 -5.30002403 -0.36938718 11 12 13876 7.05800000 1412742196 1412742196 -3.00000000
4.61606932 -5.26732635 1.61694813 70 13 13877 7.18800000 1412742199 1412742199 13.00000000
4.64754009 -5.30510426 -0.12310927 8 14 13878 7.05400000 1412742201 1412742201 -1.00000000
4.61242437 -5.26687479 1.87592041 47 15 13879 7.24800000 1412742203 1412742203 15.00000000
1.33759201 -1.53007293 -0.54455525 73 0 13884 2.10400000 1412742224 1412742224 -15.00000000
3.01596212 -3.45117784 0.08000183 8 1 13885 4.58400000 1412742226 1412742226 1.00000000
1.38720882 -1.58794808 -0.48679408 3 2 13886 2.16400000 1412742229 1412742229 -13.00000000
2.99794674 -3.43298078 0.23886131 5 3 13887 4.56400000 1412742231 1412742231 3.00000000
1.87765098 -2.15011811 -0.55487257 3 4 13887 2.90800000 1412742233 1412742233 -11.00000000
4.62656879 -5.29979944 0.61549383 37 5 13888 7.06200000 1412742236 1412742236 5.00000000
2.31969881 -2.65818405 -0.55878389 5 6 13889 3.57200000 1412742238 1412742238 -9.00000000
4.60908508 -5.28349352 0.86088502 57 7 13890 7.06400000 1412742240 1412742240 7.00000000
2.97860599 -3.41564345 -0.55645543 8 8 13891 4.56600000 1412742243 1412742243 -7.00000000
4.59599590 -5.27034569 1.10755599 60 9 13891 7.08000000 1412742245 1412742245 9.00000000
4.10048723 -4.70379066 -0.54594356 11 10 13892 6.26400000 1412742247 1412742247 -5.00000000
4.60336781 -5.28252029 1.36199462 59 11 13893 7.13800000 1412742249 1412742249 11.00000000
4.62968683 -5.31459475 -0.36938718 11 12 13894 7.05800000 1412742252 1412742252 -3.00000000
4.58030224 -5.25975800 1.61019969 74 13 13895 7.15800000 1412742254 1412742254 13.00000000
3.31525302 -3.80838943 -0.08813465 2 14 13896 5.05000000 1412742256 1412742256 -1.00000000
4.57521343 -5.25576591 1.86712062 51 15 13896 7.21400000 1412742259 1412742259 15.00000000
1.33477569 -1.53765047 -0.54559052 73 0 13904 2.10800000 1412742279 1412742279 -15.00000000
4.60020828 -5.30127096 0.12251589 9 1 13905 7.02000000 1412742282 1412742282 1.00000000
1.58724606 -1.82978404 -0.55922830 3 2 13906 2.48600000 1412742284 1412742284 -13.00000000
3.48970890 -4.02437019 0.27915999 2 3 13907 5.33400000 1412742286 1412742286 3.00000000
1.87142038 -2.15814233 -0.55525416 3 4 13907 2.91000000 1412742289 1412742289 -11.00000000
4.59629536 -5.30236721 0.61392504 64 5 13908 7.04400000 1412742291 1412742291 5.00000000
2.29746962 -2.65133643 -0.55565524 3 6 13909 3.55200000 1412742293 1412742293 -9.00000000
4.58281612 -5.29054737 0.85942262 57 7 13910 7.05200000 1412742296 1412742296 7.00000000
2.96146727 -3.42001724 -0.55548048 8 8 13911 4.55800000 1412742298 1412742298 -7.00000000
4.57276964 -5.28267479 1.10661745 57 9 13912 7.07400000 1412742300 1412742300 9.00000000
4.07621908 -4.70903683 -0.54489768 11 10 13912 6.25200000 1412742302 1412742302 -5.00000000
4.56434584 -5.27480316 1.35588872 62 11 13913 7.10600000 1412742305 1412742305 11.00000000
4.59542751 -5.31259632 -0.36813113 11 12 13914 7.03400000 1412742307 1412742307 -3.00000000
4.55044270 -5.26244736 1.60615051 70 13 13915 7.14000000 1412742309 1412742309 13.00000000
3.30978537 -3.82901573 -0.08834408 8 14 13916 5.06200000 1412742312 1412742312 -1.00000000
4.53823662 -5.25203562 1.85987365 51 15 13917 7.18600000 1412742314 1412742314 15.00000000
1.32940006 -1.54230034 -0.54559052 64 0 13924 2.10800000 1412742335 1412742335 -15.00000000
4.57123280 -5.30517721 0.12223665 12 1 13925 7.00400000 1412742337 1412742337 1.00000000
1.57703376 -1.83088386 -0.55787861 3 2 13926 2.48000000 1412742339 1412742339 -13.00000000
4.54947853 -5.28365850 0.36540964 2 3 13927 6.98200000 1412742342 1412742342 3.00000000
1.85747063 -2.15722299 -0.55334610 3 4 13927 2.90000000 1412742344 1412742344 -11.00000000
4.55826235 -5.29572868 0.61131036 67 5 13928 7.01400000 1412742346 1412742346 5.00000000
2.27531672 -2.64436603 -0.55252653 3 6 13929 3.53200000 1412742349 1412742349 -9.00000000
4.54749250 -5.28694773 0.85625398 52 7 13930 7.02600000 1412742351 1412742351 7.00000000
2.94951105 -3.43033385 -0.55548048 8 8 13931 4.55800000 1412742353 1412742353 -7.00000000
4.53977203 -5.27983570 1.10286295 55 9 13931 7.05000000 1412742355 1412742355 9.00000000
4.04547119 -4.70661640 -0.54298025 15 10 13932 6.23000000 1412742358 1412742358 -5.00000000
4.53566980 -5.27879095 1.35283577 59 11 13933 7.09000000 1412742360 1412742360 11.00000000
4.55863619 -5.30739355 -0.36666572 11 12 13934 7.00600000 1412742362 1412742362 -3.00000000
4.52188969 -5.26647091 1.60255134 72 13 13935 7.12400000 1412742365 1412742365 13.00000000
3.30291152 -3.84813261 -0.08851860 6 14 13936 5.07200000 1412742367 1412742367 -1.00000000
4.50947094 -5.25386238 1.85521495 47 15 13936 7.16800000 1412742369 1412742369 15.00000000
1.33154547 -1.55573750 -0.54869640 60 0 13944 2.12000000 1412742390 1412742390 -15.00000000
4.53188610 -5.29679012 0.12167818 11 1 13945 6.97200000 1412742392 1412742392 1.00000000
1.57063317 -1.83637762 -0.55787861 1 2 13946 2.48000000 1412742395 1412742395 -13.00000000
4.53360319 -5.30254269 0.36561900 10 3 13947 6.98600000 1412742397 1412742397 3.00000000
1.84992909 -2.16369367 -0.55334610 3 4 13947 2.90000000 1412742399 1412742399 -11.00000000
4.52550983 -5.29494715 0.60939294 64 5 13948 6.99200000 1412742402 1412742402 5.00000000
2.27377129 -2.66130352 -0.55440372 3 6 13949 3.54400000 1412742404 1412742404 -9.00000000
4.51096106 -5.28165674 0.85284168 55 7 13950 6.99800000 1412742406 1412742406 7.00000000
2.94009686 -3.44362807 -0.55596793 8 8 13951 4.56200000 1412742408 1412742408 -7.00000000
4.51269579 -5.28742409 1.10098577 57 9 13952 7.03800000 1412742411 1412742411 9.00000000
4.00056171 -4.68736839 -0.53914541 15 10 13952 6.18600000 1412742413 1412742413 -5.00000000
4.49173069 -5.26472044 1.34520340 53 11 13953 7.05000000 1412742415 1412742415 11.00000000
4.52452946 -5.30503845 -0.36540964 10 12 13954 6.98200000 1412742418 1412742418 -3.00000000
4.48577833 -5.26146221 1.59625268 64 13 13955 7.09600000 1412742420 1412742420 13.00000000
4.52170897 -5.30548096 -0.12167818 6 14 13956 6.97200000 1412742422 1412742422 -1.00000000
4.48141432 -5.26006174 1.85159147 56 15 13957 7.15400000 1412742425 1412742425 15.00000000
1.33736622 -1.57362449 -0.55335510 41 0 13964 2.13800000 1412742445 1412742445 -15.00000000
4.49912739 -5.29581356 0.12129422 11 1 13965 6.95000000 1412742448 1412742448 1.00000000
1.54781449 -1.82253921 -0.55202991 1 2 13966 2.45400000 1412742450 1412742450 -13.00000000
4.49438477 -5.29397488 0.36394423 10 3 13967 6.95400000 1412742452 1412742452 3.00000000
1.84236515 -2.17013788 -0.55334610 3 4 13967 2.90000000 1412742455 1412742455 -11.00000000
4.49926424 -5.30159760 0.60834706 64 5 13968 6.98000000 1412742457 1412742457 5.00000000
2.26702356 -2.67223692 -0.55502951 3 6 13969 3.54800000 1412742459 1412742459 -9.00000000
4.48350954 -5.28677273 0.85113549 60 7 13970 6.98400000 1412742461 1412742461 7.00000000
2.91778898 -3.44175625 -0.55401802 8 8 13971 4.54600000 1412742464 1412742464 -7.00000000
4.47597647 -5.27975798 1.09629273 52 9 13971 7.00800000 1412742466 1412742466 9.00000000
3.98675179 -4.70434427 -0.53949404 15 10 13972 6.19000000 1412742468 1412742468 -5.00000000
4.46571207 -5.27137947 1.34291375 56 11 13973 7.03800000 1412742471 1412742471 11.00000000
4.49049473 -5.30250978 -0.36415359 10 12 13974 6.95800000 1412742473 1412742473 -3.00000000
4.45227575 -5.25924063 1.59085381 64 13 13975 7.07200000 1412742475 1412742475 13.00000000
4.47474241 -5.28765011 -0.12091027 8 14 13976 6.92800000 1412742478 1412742478 -1.00000000
4.45396328 -5.26309633 1.84745038 54 15 13976 7.13800000 1412742480 1412742480 15.00000000
1.33311093 -1.57975948 -0.55387276 37 0 13984 2.14000000 1412742501 1412742501 -15.00000000
4.47029924 -5.29925823 0.12101499 11 1 13985 6.93400000 1412742503 1412742503 1.00000000
1.53641808 -1.82197201 -0.55023026 1 2 13986 2.44600000 1412742505 1412742505 -13.00000000
4.46171761 -5.29283285 0.36279285 10 3 13987 6.93200000 1412742508 1412742508 3.00000000
1.83477879 -2.17655587 -0.55334610 3 4 13987 2.90000000 1412742510 1412742510 -11.00000000
4.46275663 -5.29594040 0.60590672 57 5 13988 6.95200000 1412742512 1412742512 5.00000000
2.26786327 -2.69222021 -0.55753243 3 6 13989 3.56400000 1412742514 1412742514 -9.00000000
4.46119213 -5.29783583 0.85040426 57 7 13990 6.97800000 1412742517 1412742517 7.00000000
2.91470599 -3.46255112 -0.55572420 8 8 13991 4.56000000 1412742519 1412742519 -7.00000000
4.43589306 -5.26965904 1.09097397 57 9 13991 6.97400000 1412742521 1412742521 9.00000000
3.98826575 -4.73957443 -0.54193443 15 10 13992 6.21800000 1412742524 1412742524 -5.00000000
4.43717384 -5.27491665 1.33986080 59 11 13993 7.02200000 1412742526 1412742526 11.00000000
4.45910406 -5.30286598 -0.36310688 10 12 13994 6.93800000 1412742528 1412742528 -3.00000000
4.42636681 -5.26579952 1.58815444 62 13 13995 7.06000000 1412742531 1412742531 13.00000000
4.44210672 -5.28639746 -0.12052632 8 14 13996 6.90600000 1412742533 1412742533 -1.00000000
4.41443682 -5.25346804 1.83865047 49 15 13996 7.10400000 1412742535 1412742535 15.00000000
1.33006990 -1.58736479 -0.55490804 20 0 14004 2.14400000 1412742556 1412742556 -15.00000000
4.42866135 -5.28723669 0.12038670 11 1 14005 6.89800000 1412742558 1412742558 1.00000000
1.52504468 -1.82134748 -0.54843068 1 2 14006 2.43800000 1412742561 1412742561 -13.00000000
4.43552351 -5.29918575 0.36216483 10 3 14007 6.92000000 1412742563 1412742563 3.00000000
1.82969022 -2.18595815 -0.55410933 3 4 14007 2.90400000 1412742565 1412742565 -11.00000000
4.42890024 -5.29314947 0.60381496 40 5 14008 6.92800000 1412742567 1412742567 5.00000000
2.25338221 -2.69405937 -0.55628097 3 6 14009 3.55600000 1412742570 1412742570 -9.00000000
4.42611837 -5.29357815 0.84723568 60 7 14010 6.95200000 1412742572 1412742572 7.00000000
2.89496326 -3.46356535 -0.55426174 8 8 14011 4.54800000 1412742574 1412742574 -7.00000000
4.40388346 -5.27072287 1.08784533 57 9 14012 6.95400000 1412742577 1412742577 9.00000000
3.99596930 -4.78251743 -0.54524630 11 10 14012 6.25600000 1412742579 1412742579 -5.00000000
4.39985609 -5.26777124 1.33413649 59 11 14013 6.99200000 1412742581 1412742581 11.00000000
4.42904615 -5.30460072 -0.36216483 10 12 14014 6.92000000 1412742584 1412742584 -3.00000000
4.39547157 -5.26625729 1.58365548 68 13 14015 7.04000000 1412742586 1412742586 13.00000000
4.41465902 -5.29112291 -0.12028199 8 14 14016 6.89200000 1412742588 1412742588 -1.00000000
4.37626982 -5.24511194 1.83036828 47 15 14016 7.07200000 1412742590 1412742590 15.00000000
1.34181869 -1.61278903 -0.56215495 20 0 14024 2.17200000 1412742611 1412742611 -15.00000000
4.39483404 -5.28421402 0.11996784 11 1 14025 6.87400000 1412742614 1412742614 1.00000000
1.46261489 -1.75922775 -0.52818507 1 2 14026 2.34800000 1412742616 1412742616 -13.00000000
4.41316891 -5.31002808 0.36185080 10 3 14027 6.91400000 1412742618 1412742618 3.00000000
1.81702924 -2.18629217 -0.55258286 3 4 14027 2.89600000 1412742620 1412742620 -11.00000000
4.39511824 -5.29018736 0.60172325 30 5 14028 6.90400000 1412742623 1412742623 5.00000000
2.23386788 -2.68975163 -0.55377799 3 6 14029 3.54000000 1412742625 1412742625 -9.00000000
4.38859320 -5.28608608 0.84357959 52 7 14030 6.92200000 1412742627 1412742627 7.00000000
2.88285542 -3.47364974 -0.55426174 8 8 14031 4.54800000 1412742630 1412742630 -7.00000000
4.37915182 -5.27846193 1.08628094 60 9 14032 6.94400000 1412742632 1412742632 9.00000000
3.99070024 -4.81023693 -0.54681516 11 10 14032 6.27400000 1412742634 1412742634 -5.00000000
4.36640167 -5.26496315 1.32955706 59 11 14033 6.96800000 1412742637 1412742637 11.00000000
4.40030479 -5.30772781 -0.36132744 10 12 14034 6.90400000 1412742639 1412742639 -3.00000000
4.36960125 -5.27256536 1.58095598 68 13 14035 7.02800000 1412742641 1412742641 13.00000000
4.38723278 -5.29572153 -0.12003765 8 14 14036 6.87800000 1412742643 1412742643 -1.00000000
4.34962273 -5.25218916 1.82726240 47 15 14037 7.06000000 1412742646 1412742646 15.00000000
1.34479344 -1.62788868 -0.56577843 22 0 14044 2.18600000 1412742667 1412742667 -15.00000000
4.36744881 -5.28872919 0.11972351 11 1 14045 6.86000000 1412742669 1412742669 1.00000000
1.39319456 -1.68767810 -0.50524008 1 2 14046 2.24600000 1412742671 1412742671 -13.00000000
4.37045336 -5.29613161 0.35986203 10 3 14047 6.87600000 1412742673 1412742673 3.00000000
1.81938314 -2.20473528 -0.55563581 3 4 14047 2.91200000 1412742676 1412742676 -11.00000000
4.37282181 -5.30088615 0.60120034 13 5 14048 6.89800000 1412742678 1412742678 5.00000000
2.21818161 -2.68991280 -0.55221367 3 6 14049 3.53000000 1412742680 1412742680 -9.00000000
2.87828708 -3.49288344 -0.55572420 8 8 14051 4.56000000 1412742685 1412742685 -7.00000000
4.35567617 -5.28761721 1.08502948 62 9 14052 6.93600000 1412742687 1412742687 9.00000000
3.98021889 -4.83182716 -0.54768670 11 10 14052 6.28400000 1412742690 1412742690 -5.00000000
4.33676529 -5.26653290 1.32612252 62 11 14053 6.95000000 1412742692 1412742692 11.00000000
4.36144114 -5.29838324 -0.35965270 10 12 14054 6.87200000 1412742694 1412742694 -3.00000000
4.32888174 -5.26070023 1.57285774 66 13 14055 6.99200000 1412742696 1412742696 13.00000000
4.35855770 -5.29864883 -0.11975841 8 14 14056 6.86200000 1412742699 1412742699 -1.00000000
4.32236433 -5.25464869 1.82312131 47 15 14056 7.04400000 1412742701 1412742701 15.00000000
1.34890413 -1.64452219 -0.56991953 21 0 14064 2.20200000 1412742722 1412742722 -15.00000000
4.33881807 -5.29157162 0.11944427 11 1 14065 6.84400000 1412742724 1412742724 1.00000000
1.39717770 -1.70458829 -0.50883931 1 2 14066 2.26200000 1412742726 1412742726 -13.00000000
4.33168650 -5.28663683 0.35818729 10 3 14067 6.84400000 1412742729 1412742729 3.00000000
