# .PCD v0.7 - Point Cloud Data file format
VERSION 0.7
FIELDS x y z intensity laser_id azimuth distance_m adjustedtime timestamp vertical_angle
SIZE 4 4 4 1 1 2 8 8 4 8
TYPE F F F U U U F U U F
COUNT 1 1 1 1 1 1 1 1 1 1
WIDTH 527
HEIGHT 1
VIEWPOINT 0 0 0 1 0 0 0
POINTS 527
DATA ascii
5.00504541 -1.03831732 -0.62762713 8 8 10172 5.15000000 1412631927 1412631927 -7.00000000
8.16973972 -1.69633329 1.32155836 7 9 10173 8.44800000 1412631929 1412631929 9.00000000
7.69778299 -1.59833813 -0.68783313 12 10 10173 7.89200000 1412631931 1412631931 -5.00000000
8.07192230 -1.67896223 -0.43208566 17 12 10175 8.25600000 1412631936 1412631936 -3.00000000
8.06356239 -1.68016005 -0.14377293 14 14 10177 8.23800000 1412631941 1412631941 -1.00000000
8.13578892 -1.69669127 2.22687912 47 15 10178 8.60400000 1412631943 1412631943 15.00000000
2.14214158 -0.44946802 -0.58648396 4 0 10185 2.26600000 1412631964 1412631964 -15.00000000
8.07265472 -1.69529009 0.14398235 12 1 10186 8.25000000 1412631966 1412631966 1.00000000
2.53068161 -0.53191453 -0.59702009 5 2 10187 2.65400000 1412631968 1412631968 -13.00000000
8.08959103 -1.70179522 0.43323705 15 3 10188 8.27800000 1412631970 1412631970 3.00000000
3.00476193 -0.63210726 -0.59685051 4 4 10188 3.12800000 1412631973 1412631973 -11.00000000
8.08711720 -1.70274889 0.72304404 76 5 10189 8.29600000 1412631975 1412631975 5.00000000
3.73827457 -0.78777802 -0.60508853 4 6 10190 3.86800000 1412631977 1412631977 -9.00000000
8.10158062 -1.70874751 1.01663411 92 7 10191 8.34200000 1412631980 1412631980 7.00000000
4.98585224 -1.05250168 -0.62567723 8 8 10192 5.13400000 1412631982 1412631982 -7.00000000
8.16793442 -1.72423184 1.32218409 7 9 10192 8.45200000 1412631984 1412631984 9.00000000
7.64927101 -1.61613774 -0.68399829 12 10 10193 7.84800000 1412631987 1412631987 -5.00000000
8.07382774 -1.70878243 -0.43250436 12 12 10195 8.26400000 1412631991 1412631991 -3.00000000
8.06742954 -1.71037054 -0.14394745 14 14 10197 8.24800000 1412631996 1412631996 -1.00000000
8.12255859 -1.72205853 2.22480845 47 15 10197 8.59600000 1412631998 1412631998 15.00000000
2.14622760 -0.45815268 -0.58803689 4 0 10205 2.27200000 1412632019 1412632019 -15.00000000
8.05886650 -1.72178733 0.14384273 12 1 10206 8.24200000 1412632021 1412632021 1.00000000
2.52118683 -0.53911501 -0.59522051 5 2 10207 2.64600000 1412632023 1412632023 -13.00000000
8.08946037 -1.73127675 0.43355107 15 3 10208 8.28400000 1412632026 1412632026 3.00000000
3.01213598 -0.64464635 -0.59875864 5 4 10208 3.13800000 1412632028 1412632028 -11.00000000
8.08891773 -1.73263705 0.72374129 72 5 10209 8.30400000 1412632030 1412632030 5.00000000
3.73936510 -0.80165040 -0.60571426 4 6 10210 3.87200000 1412632033 1412632033 -9.00000000
8.09944820 -1.73784983 1.01712155 90 7 10211 8.34600000 1412632035 1412632035 7.00000000
5.00155640 -1.07406712 -0.62811458 8 8 10212 5.15400000 1412632037 1412632037 -7.00000000
8.17894173 -1.75789297 1.32499993 5 9 10213 8.47000000 1412632040 1412632040 9.00000000
7.65916634 -1.64617813 -0.68539274 12 10 10213 7.86400000 1412632042 1412632042 -5.00000000
8.07171917 -1.73779571 -0.43271369 12 12 10215 8.26800000 1412632046 1412632046 -3.00000000
8.06727409 -1.73978543 -0.14405216 12 14 10217 8.25400000 1412632051 1412632051 -1.00000000
8.13129902 -1.75507832 2.22894955 47 15 10218 8.61200000 1412632053 1412632053 15.00000000
2.14461517 -0.46564162 -0.58803689 4 0 10225 2.27200000 1412632074 1412632074 -15.00000000
8.07430172 -1.75457847 0.14422669 12 1 10226 8.26400000 1412632076 1412632076 1.00000000
2.51167274 -0.54625577 -0.59342086 4 2 10227 2.63800000 1412632079 1412632079 -13.00000000
8.08531952 -1.75992846 0.43365574 13 3 10228 8.28600000 1412632081 1412632081 3.00000000
3.01178575 -0.65557426 -0.59914023 4 4 10228 3.14000000 1412632083 1412632083 -11.00000000
8.09255409 -1.76298249 0.72461283 76 5 10229 8.31400000 1412632086 1412632086 5.00000000
3.73461390 -0.81427753 -0.60540140 6 6 10230 3.87000000 1412632088 1412632088 -9.00000000
8.08169556 -1.76357222 1.01565909 90 7 10231 8.33400000 1412632090 1412632090 7.00000000
4.97838306 -1.08728361 -0.62567723 8 8 10232 5.13400000 1412632093 1412632093 -7.00000000
8.18078709 -1.78669167 1.32625139 7 9 10232 8.47800000 1412632095 1412632095 9.00000000
7.64948082 -1.67205262 -0.68504411 12 10 10233 7.86000000 1412632097 1412632097 -5.00000000
8.05779934 -1.76425195 -0.43229499 12 12 10235 8.26000000 1412632102 1412632102 -3.00000000
8.07287121 -1.77050519 -0.14426160 12 14 10237 8.26600000 1412632106 1412632106 -1.00000000
8.14053059 -1.78534377 2.23309064 47 15 10237 8.62800000 1412632109 1412632109 15.00000000
2.14863610 -0.47437432 -0.58958977 4 0 10245 2.27800000 1412632129 1412632129 -15.00000000
8.06617546 -1.78232098 0.14419179 12 1 10246 8.26200000 1412632132 1412632132 1.00000000
2.51165342 -0.55544060 -0.59387076 4 2 10247 2.64000000 1412632134 1412632134 -13.00000000
8.07522678 -1.78727758 0.43344638 13 3 10248 8.28200000 1412632136 1412632136 3.00000000
2.99606085 -0.66311359 -0.59646893 5 4 10248 3.12600000 1412632139 1412632139 -11.00000000
8.09607697 -1.79337454 0.72548443 72 5 10249 8.32400000 1412632141 1412632141 5.00000000
3.72982025 -0.82688123 -0.60508853 6 6 10250 3.86800000 1412632143 1412632143 -9.00000000
8.09099388 -1.79521179 1.01760900 90 7 10251 8.35000000 1412632146 1412632146 7.00000000
4.97649527 -1.10508513 -0.62592095 6 8 10252 5.13600000 1412632148 1412632148 -7.00000000
8.17032719 -1.81580663 1.32562566 5 9 10253 8.47400000 1412632150 1412632150 9.00000000
7.62414837 -1.69442165 -0.68330103 12 10 10253 7.84000000 1412632152 1412632152 -5.00000000
8.07303715 -1.79714203 -0.43344638 17 12 10255 8.28200000 1412632157 1412632157 -3.00000000
8.06273842 -1.79780352 -0.14419179 12 14 10257 8.26200000 1412632162 1412632162 -1.00000000
8.13770294 -1.81600988 2.23412609 47 15 10258 8.63200000 1412632164 1412632164 15.00000000
2.14131212 -0.48060238 -0.58803689 4 0 10265 2.27200000 1412632185 1412632185 -15.00000000
8.08331776 -1.81572545 0.14461064 12 1 10266 8.28600000 1412632187 1412632187 1.00000000
2.51350188 -0.56505936 -0.59477061 4 2 10267 2.64400000 1412632189 1412632189 -13.00000000
8.07283592 -1.81633127 0.43365574 13 3 10268 8.28600000 1412632192 1412632192 3.00000000
2.98606658 -0.67184395 -0.59494245 5 4 10268 3.11800000 1412632194 1412632194 -11.00000000
8.08976746 -1.82162416 0.72548443 76 5 10269 8.32400000 1412632196 1412632196 5.00000000
3.73654652 -0.84206712 -0.60665286 6 6 10270 3.87800000 1412632199 1412632199 -9.00000000
8.09629726 -1.82606423 1.01907146 90 7 10271 8.36200000 1412632201 1412632201 7.00000000
4.96679831 -1.12113833 -0.62518972 4 8 10272 5.13000000 1412632203 1412632203 -7.00000000
8.16426086 -1.84289038 1.32562566 5 9 10272 8.47400000 1412632205 1412632205 9.00000000
7.61430025 -1.72014654 -0.68295240 17 10 10273 7.83600000 1412632208 1412632208 -5.00000000
8.06476688 -1.82487047 -0.43334171 12 12 10275 8.28000000 1412632212 1412632212 -3.00000000
8.05836391 -1.82637882 -0.14422669 14 14 10277 8.26400000 1412632217 1412632217 -1.00000000
8.12975216 -1.84255850 2.23360825 47 15 10277 8.63000000 1412632219 1412632219 15.00000000
2.12267041 -0.48420724 -0.58337814 4 0 10285 2.25400000 1412632240 1412632240 -15.00000000
8.06718254 -1.84170508 0.14443612 12 1 10286 8.27600000 1412632242 1412632242 1.00000000
2.51911330 -0.57556593 -0.59657019 4 2 10287 2.65200000 1412632245 1412632245 -13.00000000
8.08786392 -1.84939694 0.43480712 15 3 10288 8.30800000 1412632247 1412632247 3.00000000
2.99327254 -0.68445134 -0.59685051 4 4 10288 3.12800000 1412632249 1412632249 -11.00000000
8.07753277 -1.84851825 0.72496146 72 5 10289 8.31800000 1412632252 1412632252 5.00000000
3.71625471 -0.85113591 -0.60383701 6 6 10290 3.86000000 1412632254 1412632254 -9.00000000
8.10341835 -1.85741901 1.02077758 90 7 10291 8.37600000 1412632256 1412632256 7.00000000
4.97639847 -1.14157581 -0.62689590 2 8 10292 5.14400000 1412632258 1412632258 -7.00000000
8.17092800 -1.87589562 1.32781577 7 9 10293 8.48800000 1412632261 1412632261 9.00000000
7.59659815 -1.74404001 -0.68190652 12 10 10293 7.82400000 1412632263 1412632263 -5.00000000
8.06613350 -1.85480094 -0.43376040 12 12 10295 8.28800000 1412632268 1412632268 -3.00000000
8.06168365 -1.85674071 -0.14440121 14 14 10297 8.27400000 1412632272 1412632272 -1.00000000
8.12294388 -1.87234318 2.23360825 47 15 10298 8.63000000 1412632275 1412632275 15.00000000
2.12858105 -0.49298716 -0.58544868 4 0 10304 2.26200000 1412632295 1412632295 -15.00000000
8.05518723 -1.86709201 0.14433140 12 1 10305 8.27000000 1412632298 1412632298 1.00000000
2.50010586 -0.57995319 -0.59252107 4 2 10306 2.63400000 1412632300 1412632300 -13.00000000
8.09530449 -1.87936878 0.43553984 10 3 10307 8.32200000 1412632302 1412632302 3.00000000
2.99481106 -0.69526154 -0.59761375 4 4 10307 3.13200000 1412632305 1412632305 -11.00000000
8.07912159 -1.87709773 0.72565871 72 5 10308 8.32600000 1412632307 1412632307 5.00000000
3.71148777 -0.86300743 -0.60352415 6 6 10309 3.85800000 1412632309 1412632309 -9.00000000
8.09334755 -1.88338089 1.02029014 90 7 10310 8.37200000 1412632311 1412632311 7.00000000
4.97451878 -1.15852213 -0.62713963 2 8 10311 5.14600000 1412632314 1412632314 -7.00000000
8.16691875 -1.90200412 1.32812858 5 9 10311 8.49000000 1412632316 1412632316 9.00000000
7.58689213 -1.76831710 -0.68155789 12 10 10312 7.82000000 1412632318 1412632318 -5.00000000
8.06771851 -1.88335514 -0.43417910 12 12 10314 8.29600000 1412632323 1412632323 -3.00000000
8.06716537 -1.88619566 -0.14461064 12 14 10316 8.28600000 1412632328 1412632328 -1.00000000
8.12642765 -1.90005195 2.23619652 47 15 10316 8.64000000 1412632330 1412632330 15.00000000
2.13060832 -0.50129920 -0.58648396 4 0 10324 2.26600000 1412632351 1412632351 -15.00000000
8.06419182 -1.89886522 0.14461064 12 1 10325 8.28600000 1412632353 1412632353 1.00000000
2.49806619 -0.58867669 -0.59252107 4 2 10326 2.63400000 1412632355 1412632355 -13.00000000
8.08091927 -1.90578139 0.43512115 13 3 10327 8.31400000 1412632358 1412632358 3.00000000
2.98854423 -0.70480990 -0.59685051 4 4 10327 3.12800000 1412632360 1412632360 -11.00000000
8.09191036 -1.90986443 0.72740185 79 5 10328 8.34600000 1412632362 1412632362 5.00000000
3.71422005 -0.87731993 -0.60446280 4 6 10329 3.86400000 1412632364 1412632364 -9.00000000
8.08672333 -1.91162050 1.02029014 90 7 10330 8.37200000 1412632367 1412632367 7.00000000
4.96078587 -1.17359436 -0.62592095 2 8 10331 5.13600000 1412632369 1412632369 -7.00000000
8.16791821 -1.93231940 1.32938004 5 9 10331 8.49800000 1412632371 1412632371 9.00000000
7.57291842 -1.79295337 -0.68086064 12 10 10332 7.81200000 1412632374 1412632374 -5.00000000
8.06109524 -1.91150522 -0.43417910 12 12 10334 8.29600000 1412632378 1412632378 -3.00000000
8.07026005 -1.91665411 -0.14478517 14 14 10336 8.29600000 1412632383 1412632383 -1.00000000
8.14042091 -1.93331718 2.24189067 45 15 10336 8.66200000 1412632385 1412632385 15.00000000
2.14387703 -0.51232547 -0.59062505 4 0 10344 2.28200000 1412632406 1412632406 -15.00000000
8.06140423 -1.92793310 0.14468046 12 1 10345 8.29000000 1412632408 1412632408 1.00000000
2.48841524 -0.59557855 -0.59072149 4 2 10346 2.62600000 1412632411 1412632411 -13.00000000
8.07421780 -1.93397748 0.43512115 13 3 10347 8.31400000 1412632413 1412632413 3.00000000
2.98224735 -0.71432292 -0.59608728 4 4 10347 3.12400000 1412632415 1412632415 -11.00000000
8.10069466 -1.94181430 0.72879630 90 5 10348 8.36200000 1412632417 1412632417 5.00000000
3.71497679 -0.89120126 -0.60508853 4 6 10349 3.86800000 1412632420 1412632420 -9.00000000
8.08386230 -1.94076359 1.02077758 85 7 10350 8.37600000 1412632422 1412632422 7.00000000
4.96823978 -1.19368601 -0.62738335 2 8 10351 5.14800000 1412632424 1412632424 -7.00000000
8.15309906 -1.96039617 1.32812858 5 9 10352 8.49000000 1412632427 1412632427 9.00000000
7.57629919 -1.82170582 -0.68173224 12 10 10352 7.82200000 1412632429 1412632429 -5.00000000
8.05825710 -1.94056726 -0.43438843 12 12 10354 8.30000000 1412632434 1412632434 -3.00000000
8.06546402 -1.94528174 -0.14482006 16 14 10356 8.29800000 1412632438 1412632438 -1.00000000
8.13737869 -1.96262670 2.24292588 45 15 10356 8.66600000 1412632440 1412632440 15.00000000
2.13644361 -0.51843917 -0.58907217 4 0 10364 2.27600000 1412632461 1412632461 -15.00000000
8.07988739 -1.96219575 0.14513421 21 1 10365 8.31600000 1412632464 1412632464 1.00000000
2.50147009 -0.60794282 -0.59432071 4 2 10366 2.64200000 1412632466 1412632466 -13.00000000
8.07906246 -1.96498203 0.43574917 10 3 10367 8.32600000 1412632468 1412632468 3.00000000
2.96828985 -0.72194469 -0.59379756 4 4 10367 3.11200000 1412632470 1412632470 -11.00000000
8.08805943 -1.96866560 0.72827339 72 5 10368 8.35600000 1412632473 1412632473 5.00000000
3.71184325 -0.90416354 -0.60508853 4 6 10369 3.86800000 1412632475 1412632475 -9.00000000
8.09246731 -1.97273088 1.02272749 85 7 10370 8.39200000 1412632477 1412632477 7.00000000
4.95632887 -1.20913923 -0.62640840 2 8 10371 5.14000000 1412632480 1412632480 -7.00000000
8.16155815 -1.99259198 1.33063161 5 9 10372 8.50600000 1412632482 1412632482 9.00000000
7.56602335 -1.84719586 -0.68138361 12 10 10372 7.81800000 1412632484 1412632484 -5.00000000
8.06501484 -1.97200477 -0.43512115 12 12 10374 8.31400000 1412632489 1412632489 -3.00000000
8.05473995 -1.97247243 -0.14475025 14 14 10376 8.29400000 1412632493 1412632493 -1.00000000
8.13388348 -1.99335814 2.24396110 45 15 10377 8.67000000 1412632496 1412632496 15.00000000
2.11586308 -0.52127236 -0.58389574 4 0 10384 2.25600000 1412632517 1412632517 -15.00000000
8.06716442 -1.98895180 0.14502950 12 1 10385 8.31000000 1412632519 1412632519 1.00000000
2.49933267 -0.61667091 -0.59432071 4 2 10386 2.64200000 1412632521 1412632521 -13.00000000
8.08184910 -1.99556518 0.43627253 10 3 10387 8.33600000 1412632523 1412632523 3.00000000
2.97337580 -0.73418409 -0.59532404 4 4 10387 3.12000000 1412632526 1412632526 -11.00000000
8.07727051 -1.99593031 0.72792476 72 5 10388 8.35200000 1412632528 1412632528 5.00000000
3.69715881 -0.91426957 -0.60321128 4 6 10389 3.85600000 1412632530 1412632530 -9.00000000
8.09323978 -2.00287437 1.02370250 85 7 10390 8.40000000 1412632533 1412632533 7.00000000
4.95593166 -1.22738707 -0.62689590 2 8 10391 5.14400000 1412632535 1412632535 -7.00000000
8.15071869 -2.02011847 1.33000576 5 9 10392 8.50200000 1412632537 1412632537 9.00000000
7.53632259 -1.86784339 -0.67929184 12 10 10392 7.79400000 1412632540 1412632540 -5.00000000
8.06195927 -2.00110722 -0.43533048 12 12 10394 8.31800000 1412632544 1412632544 -3.00000000
8.05944920 -2.00347114 -0.14495969 12 14 10396 8.30600000 1412632549 1412632549 -1.00000000
8.12347889 -2.01938796 2.24292588 45 15 10396 8.66600000 1412632551 1412632551 15.00000000
2.12902379 -0.53240424 -0.58803689 4 0 10404 2.27200000 1412632572 1412632572 -15.00000000
8.05435276 -2.01564288 0.14492479 12 1 10405 8.30400000 1412632574 1412632574 1.00000000
2.48960352 -0.62349778 -0.59252107 4 2 10406 2.63400000 1412632576 1412632576 -13.00000000
8.08258343 -2.02570605 0.43669122 13 3 10407 8.34400000 1412632579 1412632579 3.00000000
2.97079468 -0.74455863 -0.59532404 4 4 10407 3.12000000 1412632581 1412632581 -11.00000000
8.07025337 -2.02411318 0.72792476 68 5 10408 8.35200000 1412632583 1412632583 5.00000000
3.68244910 -0.92428410 -0.60133410 4 6 10409 3.84400000 1412632586 1412632586 -9.00000000
8.08042336 -2.02966189 1.02297127 80 7 10410 8.39400000 1412632588 1412632588 7.00000000
4.94391632 -1.24274325 -0.62592095 6 8 10411 5.13600000 1412632590 1412632590 -7.00000000
8.16277409 -2.05337644 1.33313453 5 9 10412 8.52200000 1412632593 1412632593 9.00000000
6.63708353 -1.66958332 -0.59875995 12 10 10412 6.87000000 1412632595 1412632595 -5.00000000
8.04524136 -2.02679682 -0.43480712 17 12 10414 8.30800000 1412632599 1412632599 -3.00000000
8.06210136 -2.03403759 -0.14513421 10 14 10416 8.31600000 1412632604 1412632604 -1.00000000
8.12761974 -2.05056763 2.24603176 45 15 10416 8.67800000 1412632606 1412632606 15.00000000
2.12527990 -0.53935748 -0.58751923 4 0 10424 2.27000000 1412632627 1412632627 -15.00000000
8.05502033 -2.04571462 0.14506440 12 1 10425 8.31200000 1412632629 1412632629 1.00000000
2.48741198 -0.63218427 -0.59252107 4 2 10426 2.63400000 1412632632 1412632632 -13.00000000
8.07969284 -2.05348182 0.43690056 10 3 10426 8.34800000 1412632634 1412632634 3.00000000
2.97198296 -0.75589198 -0.59608728 4 4 10427 3.12400000 1412632636 1412632636 -11.00000000
8.09210110 -2.05964279 0.73053944 90 5 10428 8.38200000 1412632639 1412632639 5.00000000
3.69068599 -0.94005811 -0.60321128 4 6 10429 3.85600000 1412632641 1412632641 -9.00000000
8.07328892 -2.05785561 1.02297127 80 7 10430 8.39400000 1412632643 1412632643 7.00000000
4.90492535 -1.25116146 -0.62153363 8 8 10431 5.10000000 1412632645 1412632645 -7.00000000
8.17888927 -2.08629298 1.33688891 5 9 10431 8.54600000 1412632648 1412632648 9.00000000
6.58874464 -1.68189943 -0.59492511 12 10 10432 6.82600000 1412632650 1412632650 -5.00000000
8.17552757 -2.08847523 1.64019418 6 11 10433 8.59600000 1412632652 1412632652 11.00000000
8.04972744 -2.05783582 -0.43543515 17 12 10434 8.32000000 1412632655 1412632655 -3.00000000
8.06463814 -2.06464696 -0.14530873 12 14 10436 8.32600000 1412632659 1412632659 -1.00000000
8.13164139 -2.08180046 2.24913740 45 15 10436 8.69000000 1412632662 1412632662 15.00000000
2.11964250 -0.54580933 -0.58648396 4 0 10444 2.26600000 1412632682 1412632682 -15.00000000
8.05170345 -2.07481742 0.14513421 12 1 10445 8.31600000 1412632685 1412632685 1.00000000
2.48141599 -0.63988990 -0.59162128 4 2 10446 2.63000000 1412632687 1412632687 -13.00000000
8.06437683 -2.08108521 0.43648186 10 3 10447 8.34000000 1412632689 1412632689 3.00000000
2.96172237 -0.76429927 -0.59456080 4 4 10447 3.11600000 1412632692 1412632692 -11.00000000
8.07907581 -2.08638239 0.73001653 76 5 10448 8.37600000 1412632694 1412632694 5.00000000
3.69503212 -0.95491230 -0.60446280 4 6 10449 3.86400000 1412632696 1412632696 -9.00000000
8.07566547 -2.08850932 1.02418995 83 7 10450 8.40400000 1412632698 1412632698 7.00000000
4.89476252 -1.26678312 -0.62080246 8 8 10451 5.09400000 1412632701 1412632701 -7.00000000
8.17118740 -2.11625600 1.33688891 5 9 10452 8.54600000 1412632703 1412632703 9.00000000
6.57511854 -1.70289016 -0.59422785 12 10 10452 6.81800000 1412632705 1412632705 -5.00000000
8.16248608 -2.11552286 1.63904929 6 11 10453 8.59000000 1412632708 1412632708 11.00000000
8.05216122 -2.08842897 -0.43595850 12 12 10454 8.33000000 1412632710 1412632710 -3.00000000
8.05931759 -2.09328794 -0.14534365 12 14 10456 8.32800000 1412632715 1412632715 -1.00000000
8.13143539 -2.11353445 2.25120807 45 15 10457 8.69800000 1412632717 1412632717 15.00000000
2.12146282 -0.55418146 -0.58751923 4 0 10464 2.27000000 1412632738 1412632738 -15.00000000
8.06375885 -2.10796785 0.14548326 12 1 10465 8.33600000 1412632740 1412632740 1.00000000
2.48293781 -0.64953417 -0.59252107 4 2 10466 2.63400000 1412632742 1412632742 -13.00000000
8.07288933 -2.11186004 0.43731925 13 3 10466 8.35600000 1412632745 1412632745 3.00000000
2.95143962 -0.77264416 -0.59303439 4 4 10467 3.10800000 1412632747 1412632747 -11.00000000
8.08137989 -2.11709547 0.73088807 76 5 10468 8.38600000 1412632749 1412632749 5.00000000
3.69358730 -0.96830547 -0.60477567 6 6 10469 3.86600000 1412632751 1412632751 -9.00000000
8.08176708 -2.12021184 1.02589619 90 7 10470 8.41800000 1412632754 1412632754 7.00000000
4.88455057 -1.28234911 -0.62007123 8 8 10471 5.08800000 1412632756 1412632756 -7.00000000
8.14846611 -2.14075041 1.33438599 5 9 10472 8.53000000 1412632758 1412632758 9.00000000
6.57298803 -1.72684371 -0.59457648 12 10 10472 6.82200000 1412632761 1412632761 -5.00000000
8.17214012 -2.14849496 1.64248383 6 11 10473 8.60800000 1412632763 1412632763 11.00000000
8.06413746 -2.12160540 -0.43700522 12 12 10474 8.35000000 1412632765 1412632765 -3.00000000
8.05002785 -2.12089801 -0.14530873 12 14 10476 8.32600000 1412632770 1412632770 -1.00000000
8.12064552 -2.13950324 2.25017285 45 15 10476 8.69400000 1412632772 1412632772 15.00000000
2.10831094 -0.55861467 -0.58441341 4 0 10484 2.25800000 1412632793 1412632793 -15.00000000
8.06021690 -2.13712788 0.14555307 12 1 10485 8.34000000 1412632795 1412632795 1.00000000
2.48065543 -0.65819728 -0.59252107 4 2 10486 2.63400000 1412632797 1412632797 -13.00000000
8.08091164 -2.14412451 0.43815663 13 3 10486 8.37200000 1412632800 1412632800 3.00000000
2.96010947 -0.78596485 -0.59532404 4 4 10487 3.12000000 1412632802 1412632802 -11.00000000
8.06816387 -2.14375710 0.73036510 72 5 10488 8.38000000 1412632804 1412632804 5.00000000
3.68827581 -0.98068500 -0.60446280 6 6 10489 3.86400000 1412632807 1412632807 -9.00000000
8.08390903 -2.15096188 1.02711487 85 7 10490 8.42800000 1412632809 1412632809 7.00000000
4.88196325 -1.29990232 -0.62031496 8 8 10491 5.09000000 1412632811 1412632811 -7.00000000
8.15239620 -2.17223239 1.33626318 5 9 10492 8.54200000 1412632814 1412632814 9.00000000
6.55921936 -1.74772525 -0.59387922 16 10 10492 6.81400000 1412632816 1412632816 -5.00000000
8.18356037 -2.18206596 1.64629996 6 11 10493 8.62800000 1412632818 1412632818 11.00000000
8.07791042 -2.15540552 -0.43815663 12 12 10494 8.37200000 1412632821 1412632821 -3.00000000
8.04643917 -2.15001726 -0.14537854 12 14 10496 8.33000000 1412632825 1412632825 -1.00000000
8.11872673 -2.16933250 2.25172567 47 15 10496 8.70000000 1412632827 1412632827 15.00000000
2.10811496 -0.56683987 -0.58493102 4 0 10505 2.26000000 1412632848 1412632848 -15.00000000
8.05426121 -2.16717529 0.14558798 12 1 10506 8.34200000 1412632850 1412632850 1.00000000
2.47446275 -0.66627157 -0.59162128 4 2 10507 2.63000000 1412632853 1412632853 -13.00000000
8.08611870 -2.17877436 0.43888932 15 3 10508 8.38600000 1412632855 1412632855 3.00000000
2.96100020 -0.79783046 -0.59608728 4 4 10508 3.12400000 1412632857 1412632857 -11.00000000
8.06987095 -2.17590737 0.73123670 76 5 10509 8.39000000 1412632860 1412632860 5.00000000
3.67321348 -0.99110907 -0.60258555 6 6 10510 3.85200000 1412632862 1412632862 -9.00000000
8.07597065 -2.18057632 1.02711487 85 7 10511 8.42800000 1412632864 1412632864 7.00000000
4.88099861 -1.31882250 -0.62080246 8 8 10512 5.09400000 1412632867 1412632867 -7.00000000
8.17527676 -2.20892072 1.34126914 5 9 10512 8.57400000 1412632869 1412632869 9.00000000
6.56430960 -1.77487445 -0.59492511 28 10 10513 6.82600000 1412632871 1412632871 -5.00000000
8.15845203 -2.20743084 1.64286542 3 11 10514 8.61000000 1412632874 1412632874 11.00000000
8.05838871 -2.18186617 -0.43752858 12 12 10515 8.36000000 1412632876 1412632876 -3.00000000
8.17637062 -2.21534228 1.95572448 2 13 10516 8.69400000 1412632878 1412632878 13.00000000
8.06552601 -2.18682051 -0.14586721 12 14 10517 8.35800000 1412632880 1412632880 -1.00000000
8.11965942 -2.20301938 2.25431395 45 15 10518 8.71000000 1412632883 1412632883 15.00000000
2.10798717 -0.57470328 -0.58544868 4 0 10525 2.26200000 1412632903 1412632903 -15.00000000
8.05436420 -2.19738197 0.14572759 12 1 10526 8.35000000 1412632906 1412632906 1.00000000
2.47212195 -0.67490500 -0.59162128 4 2 10527 2.63000000 1412632908 1412632908 -13.00000000
8.07114220 -2.20347285 0.43847063 13 3 10527 8.37800000 1412632910 1412632910 3.00000000
2.95819736 -0.80816144 -0.59608728 4 4 10528 3.12400000 1412632913 1412632913 -11.00000000
8.06607056 -2.20511413 0.73158532 72 5 10529 8.39400000 1412632915 1412632915 5.00000000
3.67735291 -1.00600994 -0.60383701 4 6 10530 3.86000000 1412632917 1412632917 -9.00000000
8.06830978 -2.20875359 1.02711487 90 7 10531 8.42800000 1412632920 1412632920 7.00000000
4.87827969 -1.33637679 -0.62104619 8 8 10532 5.09600000 1412632922 1412632922 -7.00000000
8.16712570 -2.23886967 1.34126914 5 9 10533 8.57400000 1412632924 1412632924 9.00000000
8.16584396 -2.24005079 1.64591837 3 11 10534 8.62600000 1412632929 1412632929 11.00000000
8.04879761 -2.20945311 -0.43742391 12 12 10535 8.35800000 1412632931 1412632931 -3.00000000
8.06169891 -2.21602130 -0.14593703 12 14 10537 8.36200000 1412632936 1412632936 -1.00000000
8.11937141 -2.23339844 2.25638437 47 15 10538 8.71800000 1412632938 1412632938 15.00000000
2.10234547 -0.58066183 -0.58441341 4 0 10544 2.25800000 1412632959 1412632959 -15.00000000
8.06052494 -2.22780800 0.14597192 12 1 10545 8.36400000 1412632961 1412632961 1.00000000
2.45860100 -0.67998230 -0.58892184 4 2 10546 2.61800000 1412632963 1412632963 -13.00000000
8.07149029 -2.23235536 0.43888932 13 3 10546 8.38600000 1412632966 1412632966 3.00000000
2.94414830 -0.81482470 -0.59379756 4 4 10547 3.11200000 1412632968 1412632968 -11.00000000
8.09903622 -2.24301720 0.73524582 83 5 10548 8.43600000 1412632970 1412632970 5.00000000
3.65876770 -1.01397848 -0.60133410 4 6 10549 3.84400000 1412632973 1412632973 -9.00000000
8.06859303 -2.23761892 1.02808976 90 7 10550 8.43600000 1412632975 1412632975 7.00000000
4.86808300 -1.35095394 -0.62031496 8 8 10551 5.09000000 1412632977 1412632977 -7.00000000
10.14153385 -2.81440234 1.66696560 9 9 10551 10.65600000 1412632980 1412632980 9.00000000
8.15837002 -2.26711726 1.64591837 3 11 10553 8.62600000 1412632984 1412632984 11.00000000
8.05681992 -2.24041247 -0.43826130 12 12 10554 8.37400000 1412632986 1412632986 -3.00000000
8.05815887 -2.24381542 -0.14600684 14 14 10556 8.36600000 1412632991 1412632991 -1.00000000
8.12866879 -2.26497769 2.26104307 47 15 10557 8.73600000 1412632993 1412632993 15.00000000
2.10774708 -0.59008008 -0.58648396 4 0 10564 2.26600000 1412633014 1412633014 -15.00000000
8.07195473 -2.26132536 0.14632097 12 1 10565 8.38400000 1412633016 1412633016 1.00000000
2.46371818 -0.69066441 -0.59072149 4 2 10566 2.62600000 1412633019 1412633019 -13.00000000
8.07134151 -2.26267290 0.43930802 10 3 10566 8.39400000 1412633021 1412633021 3.00000000
2.93750548 -0.82403618 -0.59303439 4 4 10567 3.10800000 1412633023 1412633023 -11.00000000
8.08923912 -2.27073598 0.73507154 90 5 10568 8.43400000 1412633026 1412633026 5.00000000
3.65710783 -1.02727795 -0.60164696 6 6 10569 3.84600000 1412633028 1412633028 -9.00000000
8.07984352 -2.27114153 1.03052711 90 7 10570 8.45600000 1412633030 1412633030 7.00000000
4.84996128 -1.36417603 -0.61860877 8 8 10571 5.07600000 1412633033 1412633033 -7.00000000
10.03276539 -2.82197261 1.65069652 11 9 10571 10.55200000 1412633035 1412633035 9.00000000
8.17686367 -2.30303288 1.65126109 3 11 10573 8.65400000 1412633039 1412633039 11.00000000
8.06433010 -2.27285695 -0.43909869 12 12 10574 8.39000000 1412633042 1412633042 -3.00000000
8.05412674 -2.27301621 -0.14607663 14 14 10576 8.37000000 1412633046 1412633046 -1.00000000
8.12071323 -2.29333830 2.26104307 47 15 10577 8.73600000 1412633049 1412633049 15.00000000
2.09276867 -0.59337753 -0.58286047 4 0 10583 2.25200000 1412633069 1412633069 -15.00000000
8.05479240 -2.28535128 0.14614645 12 1 10584 8.37400000 1412633072 1412633072 1.00000000
2.47266221 -0.70202404 -0.59342086 4 2 10585 2.63800000 1412633074 1412633074 -13.00000000
8.07532215 -2.29269886 0.43993604 10 3 10585 8.40600000 1412633076 1412633076 3.00000000
2.93097973 -0.83269972 -0.59227115 4 4 10586 3.10400000 1412633079 1412633079 -11.00000000
8.06633282 -2.29318976 0.73367703 76 5 10587 8.41800000 1412633081 1412633081 5.00000000
3.64798117 -1.03777814 -0.60070837 4 6 10588 3.84000000 1412633083 1412633083 -9.00000000
8.07990456 -2.30009675 1.03150213 90 7 10589 8.46400000 1412633085 1412633085 7.00000000
4.85495663 -1.38297069 -0.61982751 8 8 10590 5.08600000 1412633088 1412633088 -7.00000000
9.96445847 -2.83845067 1.64099753 11 9 10590 10.49000000 1412633090 1412633090 9.00000000
6.56828070 -1.87226343 -0.59753978 79 10 10591 6.85600000 1412633092 1412633092 -5.00000000
10.45549488 -2.98227215 2.11340046 6 11 10592 11.07600000 1412633095 1412633095 11.00000000
8.05674839 -2.29958653 -0.43909869 17 12 10593 8.39000000 1412633097 1412633097 -3.00000000
8.04846764 -2.30026174 -0.14611155 14 14 10595 8.37200000 1412633102 1412633102 -1.00000000
8.11161041 -2.31830812 2.26052547 47 15 10595 8.73400000 1412633104 1412633104 15.00000000
2.09439802 -0.60174596 -0.58389574 4 0 10603 2.25600000 1412633125 1412633125 -15.00000000
8.04292297 -2.31234884 0.14607663 18 1 10604 8.37000000 1412633127 1412633127 1.00000000
2.47019649 -0.71065092 -0.59342086 4 2 10605 2.63800000 1412633129 1412633129 -13.00000000
8.08070564 -2.32473850 0.44066876 13 3 10605 8.42000000 1412633132 1412633132 3.00000000
2.93937492 -0.84618443 -0.59456080 4 4 10606 3.11600000 1412633134 1412633134 -11.00000000
8.06976604 -2.32464170 0.73472291 76 5 10607 8.43000000 1412633136 1412633136 5.00000000
3.65003061 -1.05214715 -0.60164696 6 6 10608 3.84600000 1412633138 1412633138 -9.00000000
8.07182598 -2.32828689 1.03150213 85 7 10609 8.46400000 1412633141 1412633141 7.00000000
4.85009956 -1.39990926 -0.61982751 8 8 10610 5.08600000 1412633143 1412633143 -7.00000000
9.87287998 -2.84966040 1.62754416 11 9 10610 10.40400000 1412633145 1412633145 9.00000000
10.31111050 -2.98004866 2.08630562 12 11 10612 10.93400000 1412633150 1412633150 11.00000000
8.06977749 -2.33379960 -0.44025007 17 12 10613 8.41200000 1412633152 1412633152 -3.00000000
8.05575562 -2.33279181 -0.14639078 14 14 10615 8.38800000 1412633157 1412633157 -1.00000000
8.11604786 -2.35178685 2.26414895 47 15 10616 8.74800000 1412633159 1412633159 15.00000000
2.10341406 -0.61229277 -0.58700162 4 0 10623 2.26800000 1412633180 1412633180 -15.00000000
8.05784130 -2.34712076 0.14649551 15 1 10624 8.39400000 1412633182 1412633182 1.00000000
2.44899201 -0.71381605 -0.58892184 4 2 10625 2.61800000 1412633185 1412633185 -13.00000000
8.07596588 -2.35545850 0.44087809 13 3 10626 8.42400000 1412633187 1412633187 3.00000000
2.92886448 -0.85424078 -0.59303439 4 4 10626 3.10800000 1412633189 1412633189 -11.00000000
8.07690334 -2.35726190 0.73611742 76 5 10627 8.44600000 1412633191 1412633191 5.00000000
3.63685489 -1.06211281 -0.60008264 6 6 10628 3.83600000 1412633194 1412633194 -9.00000000
8.07317734 -2.35923266 1.03272080 92 7 10629 8.47400000 1412633196 1412633196 7.00000000
4.83375120 -1.41348779 -0.61836505 8 8 10630 5.07400000 1412633198 1412633198 -7.00000000
9.80599308 -2.86747313 1.61815810 11 9 10630 10.34400000 1412633201 1412633201 9.00000000
10.21397400 -2.99064565 2.06875110 12 11 10632 10.84200000 1412633205 1412633205 11.00000000
8.05583191 -2.36026931 -0.43993604 12 12 10633 8.40600000 1412633208 1412633208 -3.00000000
8.05907631 -2.36427498 -0.14660022 14 14 10635 8.40000000 1412633212 1412633212 -1.00000000
8.11747265 -2.38140678 2.26673722 47 15 10635 8.75800000 1412633215 1412633215 15.00000000
2.09755802 -0.61853850 -0.58596629 4 0 10643 2.26400000 1412633235 1412633235 -15.00000000
8.05535221 -2.37693119 0.14660022 12 1 10644 8.40000000 1412633238 1412633238 1.00000000
2.45396137 -0.72456765 -0.59072149 4 2 10645 2.62600000 1412633240 1412633240 -13.00000000
8.06577873 -2.38306880 0.44077343 13 3 10646 8.42200000 1412633242 1412633242 3.00000000
2.92209911 -0.86334664 -0.59227115 4 4 10646 3.10400000 1412633244 1412633244 -11.00000000
8.09155273 -2.39221954 0.73820913 76 5 10647 8.47000000 1412633247 1412633247 5.00000000
3.64070201 -1.07704294 -0.60133410 4 6 10648 3.84400000 1412633249 1412633249 -9.00000000
8.07440948 -2.39021635 1.03393948 90 7 10649 8.48400000 1412633251 1412633251 7.00000000
4.81356144 -1.42584181 -0.61641514 8 8 10650 5.05800000 1412633254 1412633254 -7.00000000
9.71397781 -2.87925577 1.60470474 23 9 10651 10.25800000 1412633256 1412633256 9.00000000
6.56932735 -1.94717062 -0.59945720 40 10 10651 6.87800000 1412633258 1412633258 -5.00000000
10.11312675 -2.99948478 2.05043340 9 11 10652 10.74600000 1412633261 1412633261 11.00000000
8.04945850 -2.38894343 -0.44004071 12 12 10653 8.40800000 1412633263 1412633263 -3.00000000
8.04310703 -2.39011359 -0.14646059 18 14 10655 8.39200000 1412633268 1412633268 -1.00000000
8.12905884 -2.41719961 2.27243114 47 15 10656 8.78000000 1412633270 1412633270 15.00000000
2.09168410 -0.62475079 -0.58493102 4 0 10663 2.26000000 1412633291 1412633291 -15.00000000
8.06041813 -2.40904355 0.14684455 12 1 10664 8.41400000 1412633293 1412633293 1.00000000
2.45515108 -0.73424590 -0.59162128 4 2 10665 2.63000000 1412633295 1412633295 -13.00000000
8.07654572 -2.41693497 0.44182014 13 3 10666 8.44200000 1412633297 1412633297 3.00000000
2.91718698 -0.87297857 -0.59188950 5 4 10666 3.10200000 1412633300 1412633300 -11.00000000
8.08315372 -2.42044973 0.73820913 76 5 10667 8.47000000 1412633302 1412633302 5.00000000
3.63692045 -1.08974481 -0.60133410 4 6 10668 3.84400000 1412633304 1412633304 -9.00000000
8.07932758 -2.42237735 1.03564572 97 7 10669 8.49800000 1412633307 1412633307 7.00000000
4.81996298 -1.44605815 -0.61787754 8 8 10670 5.07000000 1412633309 1412633309 -7.00000000
9.66085911 -2.89839673 1.59750879 11 9 10670 10.21200000 1412633311 1412633311 9.00000000
6.56630707 -1.97123575 -0.59980583 60 10 10671 6.88200000 1412633314 1412633314 -5.00000000
8.18097687 -2.45752382 1.66041982 3 11 10672 8.70200000 1412633316 1412633316 11.00000000
8.05637169 -2.42162609 -0.44087809 12 12 10673 8.42400000 1412633318 1412633318 -3.00000000
8.04428959 -2.42105627 -0.14663512 16 14 10675 8.40200000 1412633323 1412633323 -1.00000000
8.12284851 -2.44470000 2.27294874 47 15 10675 8.78200000 1412633325 1412633325 15.00000000
2.08209419 -0.62981099 -0.58286047 4 0 10683 2.25200000 1412633346 1412633346 -15.00000000
8.05578804 -2.43832374 0.14691436 12 1 10684 8.41800000 1412633348 1412633348 1.00000000
2.45257330 -0.74281150 -0.59162128 4 2 10685 2.63000000 1412633350 1412633350 -13.00000000
8.08143902 -2.44916749 0.44255283 15 3 10686 8.45600000 1412633353 1412633353 3.00000000
2.90472746 -0.88030910 -0.58998144 5 4 10686 3.09200000 1412633355 1412633355 -11.00000000
8.07656193 -2.44922853 0.73838347 76 5 10687 8.47200000 1412633357 1412633357 5.00000000
3.62931371 -1.10128617 -0.60070837 4 6 10688 3.84000000 1412633360 1412633360 -9.00000000
8.08031940 -2.45344853 1.03686440 90 7 10689 8.50800000 1412633362 1412633362 7.00000000
4.81108713 -1.46172011 -0.61739010 8 8 10690 5.06600000 1412633364 1412633364 -7.00000000
8.16276741 -2.48159456 1.35128093 5 9 10691 8.63800000 1412633367 1412633367 9.00000000
6.55747986 -1.99356484 -0.59963149 100 10 10691 6.88000000 1412633369 1412633369 -5.00000000
9.88345242 -3.00659108 2.00807381 6 11 10692 10.52400000 1412633371 1412633371 11.00000000
8.06506634 -2.45496774 -0.44182014 12 12 10693 8.44200000 1412633373 1412633373 -3.00000000
8.03961468 -2.45028734 -0.14670493 20 14 10695 8.40600000 1412633378 1412633378 -1.00000000
8.11937714 -2.47614574 2.27450180 47 15 10696 8.78800000 1412633380 1412633380 15.00000000
2.07618856 -0.63594347 -0.58182520 4 0 10703 2.24800000 1412633401 1412633401 -15.00000000
8.04722786 -2.46642876 0.14691436 12 1 10704 8.41800000 1412633403 1412633403 1.00000000
2.44623923 -0.75022531 -0.59072149 4 2 10705 2.62600000 1412633406 1412633406 -13.00000000
8.08047867 -2.47970581 0.44297153 15 3 10706 8.46400000 1412633408 1412633408 3.00000000
2.91665196 -0.89505082 -0.59303439 5 4 10706 3.10800000 1412633410 1412633410 -11.00000000
8.07748604 -2.48033047 0.73925501 76 5 10707 8.48200000 1412633413 1412633413 5.00000000
3.61411786 -1.11046708 -0.59883112 6 6 10708 3.82800000 1412633415 1412633415 -9.00000000
8.07739830 -2.48338914 1.03759563 92 7 10709 8.51400000 1412633417 1412633417 7.00000000
4.81354475 -1.48083973 -0.61836505 8 8 10710 5.07400000 1412633420 1412633420 -7.00000000
9.53843498 -2.93440580 1.58061385 34 9 10710 10.10400000 1412633422 1412633422 9.00000000
9.79596996 -3.01737738 1.99242759 9 11 10712 10.44200000 1412633426 1412633426 11.00000000
8.05072117 -2.48134041 -0.44150612 17 12 10713 8.43600000 1412633429 1412633429 -3.00000000
8.05776405 -2.48659110 -0.14719360 20 14 10715 8.43400000 1412633433 1412633433 -1.00000000
8.11850548 -2.50533557 2.27657223 47 15 10715 8.79600000 1412633436 1412633436 15.00000000
2.08133674 -0.64547575 -0.58389574 4 0 10723 2.25600000 1412633456 1412633456 -15.00000000
8.04811859 -2.49746704 0.14708889 12 1 10724 8.42800000 1412633459 1412633459 1.00000000
2.44174433 -0.75818181 -0.59027159 4 2 10725 2.62400000 1412633461 1412633461 -13.00000000
8.08321762 -2.51145267 0.44359955 13 3 10726 8.47600000 1412633463 1412633463 3.00000000
2.91350985 -0.90522641 -0.59303439 5 4 10726 3.10800000 1412633466 1412633466 -11.00000000
8.08019447 -2.51205993 0.74030089 76 5 10727 8.49400000 1412633468 1412633468 5.00000000
3.61021972 -1.12307584 -0.59883112 4 6 10728 3.82800000 1412633470 1412633470 -9.00000000
8.06488991 -2.51038957 1.03710806 92 7 10729 8.51000000 1412633473 1412633473 7.00000000
4.79697466 -1.49409127 -0.61690259 8 8 10730 5.06200000 1412633475 1412633475 -7.00000000
9.52007198 -2.96699500 1.57936239 51 9 10731 10.09600000 1412633477 1412633477 9.00000000
9.69541454 -3.02349854 1.97410989 18 11 10732 10.34600000 1412633482 1412633482 11.00000000
8.03247833 -2.50645280 -0.44098276 12 12 10733 8.42600000 1412633484 1412633484 -3.00000000
8.05666924 -2.51708817 -0.14733322 16 14 10735 8.44200000 1412633489 1412633489 -1.00000000
8.12401867 -2.53968596 2.28071332 47 15 10736 8.81200000 1412633491 1412633491 15.00000000
2.08275723 -0.65389436 -0.58493102 4 0 10743 2.26000000 1412633512 1412633512 -15.00000000
8.05652142 -2.53093910 0.14740303 12 1 10744 8.44600000 1412633514 1412633514 1.00000000
2.43722391 -0.76611608 -0.58982164 4 2 10745 2.62200000 1412633516 1412633516 -13.00000000
8.07059097 -2.53845453 0.44339022 15 3 10746 8.47200000 1412633519 1412633519 3.00000000
2.89534974 -0.91067851 -0.58998144 4 4 10746 3.09200000 1412633521 1412633521 -11.00000000
8.09038162 -2.54623103 0.74204397 76 5 10747 8.51400000 1412633523 1412633523 5.00000000
3.61381412 -1.13804448 -0.60008264 6 6 10748 3.83600000 1412633526 1412633526 -9.00000000
8.07311821 -2.54389524 1.03930175 90 7 10749 8.52800000 1412633528 1412633528 7.00000000
4.78415728 -1.50843894 -0.61592764 8 8 10750 5.05400000 1412633530 1412633530 -7.00000000
9.48568916 -2.99082637 1.57529509 77 9 10750 10.07000000 1412633532 1412633532 9.00000000
9.65671921 -3.04845810 1.96838558 37 11 10752 10.31600000 1412633537 1412633537 11.00000000
8.04653358 -2.54169512 -0.44223884 12 12 10753 8.45000000 1412633539 1412633539 -3.00000000
8.04783440 -2.54519582 -0.14733322 16 14 10755 8.44200000 1412633544 1412633544 -1.00000000
8.12660408 -2.57010746 2.28381920 47 15 10755 8.82400000 1412633546 1412633546 15.00000000
2.06941533 -0.65764999 -0.58182520 4 0 10763 2.24800000 1412633567 1412633567 -15.00000000
8.07050610 -2.56631780 0.14782189 18 1 10764 8.47000000 1412633569 1412633569 1.00000000
2.43267775 -0.77402806 -0.58937174 4 2 10765 2.62000000 1412633572 1412633572 -13.00000000
8.07310009 -2.57024598 0.44401824 15 3 10766 8.48400000 1412633574 1412633574 3.00000000
2.88467050 -0.91839725 -0.58845496 4 4 10766 3.08400000 1412633576 1412633576 -11.00000000
8.07574940 -2.57264185 0.74152106 76 5 10767 8.50800000 1412633579 1412633579 5.00000000
3.60605526 -1.14945221 -0.59945685 4 6 10768 3.83200000 1412633581 1412633581 -9.00000000
8.07175350 -2.57447314 1.04027677 90 7 10769 8.53600000 1412633583 1412633583 7.00000000
4.77318954 -1.52331901 -0.61519647 8 8 10770 5.04800000 1412633585 1412633585 -7.00000000
6.54418993 -2.08977604 -0.60102600 44 10 10771 6.89600000 1412633590 1412633590 -5.00000000
9.62731743 -3.07617235 1.96456945 50 11 10772 10.29600000 1412633592 1412633592 11.00000000
8.03951550 -2.57037568 -0.44234350 17 12 10773 8.45200000 1412633595 1412633595 -3.00000000
8.03318691 -2.57144356 -0.14722849 16 14 10775 8.43600000 1412633599 1412633599 -1.00000000
8.12264919 -2.60164332 2.28537226 45 15 10776 8.83000000 1412633602 1412633602 15.00000000
2.06549978 -0.66355711 -0.58130759 4 0 10781 2.24600000 1412633622 1412633622 -15.00000000
8.05288506 -2.58859944 0.14764735 21 1 10782 8.46000000 1412633625 1412633625 1.00000000
2.43765473 -0.78405344 -0.59117138 4 2 10783 2.62800000 1412633627 1412633627 -13.00000000
8.07258987 -2.59804320 0.44443694 18 3 10784 8.49200000 1412633629 1412633629 3.00000000
2.90045953 -0.93346977 -0.59227115 4 4 10784 3.10400000 1412633632 1412633632 -11.00000000
8.06762695 -2.59800005 0.74152106 76 5 10785 8.50800000 1412633634 1412633634 5.00000000
3.60618687 -1.16198695 -0.60008264 4 6 10786 3.83600000 1412633636 1412633636 -9.00000000
8.08251953 -2.60590982 1.04271412 90 7 10787 8.55600000 1412633638 1412633638 7.00000000
4.76838017 -1.53830695 -0.61519647 6 8 10788 5.04800000 1412633641 1412633641 -7.00000000
6.52432013 -2.10604048 -0.59980583 40 10 10789 6.88200000 1412633645 1412633645 -5.00000000
9.60079193 -3.10097146 1.96113491 53 11 10790 10.27800000 1412633648 1412633648 11.00000000
8.05230618 -2.60237598 -0.44349489 17 12 10791 8.47400000 1412633650 1412633650 -3.00000000
8.04409504 -2.60282397 -0.14757755 16 14 10793 8.45600000 1412633655 1412633655 -1.00000000
8.11489391 -2.62573242 2.28537226 45 15 10793 8.83000000 1412633657 1412633657 15.00000000
2.07235694 -0.67374951 -0.58389574 4 0 10801 2.25600000 1412633678 1412633678 -15.00000000
8.04189777 -2.61607504 0.14761245 18 1 10802 8.45800000 1412633680 1412633680 1.00000000
2.43119693 -0.79135138 -0.59027159 4 2 10803 2.62400000 1412633682 1412633682 -13.00000000
8.06916904 -2.62806153 0.44475096 21 3 10804 8.49800000 1412633685 1412633685 3.00000000
2.88971639 -0.94115669 -0.59074467 4 4 10804 3.09600000 1412633687 1412633687 -11.00000000
8.07176971 -2.63046670 0.74274123 72 5 10805 8.52200000 1412633689 1412633689 5.00000000
3.59084034 -1.17089355 -0.59820539 4 6 10806 3.82400000 1412633691 1412633691 -9.00000000
8.08092213 -2.63657022 1.04368901 90 7 10807 8.56400000 1412633694 1412633694 7.00000000
4.76675558 -1.55617440 -0.61568391 8 8 10808 5.05200000 1412633696 1412633696 -7.00000000
9.45868397 -3.08792043 1.57592082 186 9 10808 10.07400000 1412633698 1412633698 9.00000000
6.53208017 -2.13375115 -0.60120034 16 10 10809 6.89800000 1412633701 1412633701 -5.00000000
9.57124805 -3.12836623 1.95731866 50 11 10810 10.25800000 1412633703 1412633703 11.00000000
8.04127407 -2.62984705 -0.44339022 17 12 10811 8.47200000 1412633705 1412633705 -3.00000000
8.04636288 -2.63462067 -0.14778697 14 14 10813 8.46800000 1412633710 1412633710 -1.00000000
8.12403870 -2.66005397 2.29054856 47 15 10813 8.85000000 1412633712 1412633712 15.00000000
2.05714679 -0.67675334 -0.58027232 4 0 10821 2.24200000 1412633733 1412633733 -15.00000000
8.05361080 -2.65100813 0.14799641 21 1 10822 8.48000000 1412633735 1412633735 1.00000000
2.42471790 -0.79861373 -0.58937174 4 2 10823 2.62000000 1412633738 1412633738 -13.00000000
8.06753445 -2.65871263 0.44516966 18 3 10824 8.50600000 1412633740 1412633740 3.00000000
2.89387202 -0.95369589 -0.59227115 4 4 10824 3.10400000 1412633742 1412633742 -11.00000000
8.07767582 -2.66361809 0.74413574 72 5 10825 8.53800000 1412633744 1412633744 5.00000000
3.59235907 -1.18527758 -0.59914398 2 6 10826 3.83000000 1412633747 1412633747 -9.00000000
8.06789970 -2.66351724 1.04320157 90 7 10827 8.56000000 1412633749 1412633749 7.00000000
4.75752449 -1.57155871 -0.61519647 6 8 10828 5.04800000 1412633751 1412633751 -7.00000000
9.44730282 -3.12256742 1.57592082 186 9 10829 10.07400000 1412633754 1412633754 9.00000000
6.55296803 -2.16591835 -0.60381496 24 10 10829 6.92800000 1412633756 1412633756 -5.00000000
9.56213379 -3.16237330 1.95770025 46 11 10830 10.26000000 1412633758 1412633758 11.00000000
8.03394127 -2.65852785 -0.44349489 17 12 10831 8.47400000 1412633761 1412633761 -3.00000000
8.04660892 -2.66583610 -0.14796150 18 14 10833 8.47800000 1412633765 1412633765 -1.00000000
8.12203884 -2.69082618 2.29261899 47 15 10833 8.85800000 1412633767 1412633767 15.00000000
2.06576991 -0.68759066 -0.58337814 4 0 10841 2.25400000 1412633788 1412633788 -15.00000000
8.04810238 -2.68036795 0.14806622 15 1 10842 8.48400000 1412633791 1412633791 1.00000000
2.42191553 -0.80707276 -0.58937174 4 2 10843 2.62000000 1412633793 1412633793 -13.00000000
8.06199360 -2.68812108 0.44537899 13 3 10844 8.51000000 1412633795 1412633795 3.00000000
2.88866282 -0.96317059 -0.59188950 4 4 10844 3.10200000 1412633797 1412633797 -11.00000000
8.08722878 -2.69810367 0.74587888 79 5 10845 8.55800000 1412633800 1412633800 5.00000000
3.57883120 -1.19468260 -0.59757966 4 6 10846 3.82000000 1412633802 1412633802 -9.00000000
8.06984997 -2.69543648 1.04466403 85 7 10847 8.57200000 1412633804 1412633804 7.00000000
4.75765800 -1.59004366 -0.61592764 4 8 10848 5.05400000 1412633807 1412633807 -7.00000000
9.44009209 -3.15677857 1.57654655 186 9 10849 10.07800000 1412633809 1412633809 9.00000000
6.56993151 -2.19699335 -0.60608101 100 10 10849 6.95400000 1412633811 1412633811 -5.00000000
9.54917526 -3.19510937 1.95731866 53 11 10850 10.25800000 1412633814 1412633814 11.00000000
8.03597641 -2.69035983 -0.44412291 25 12 10851 8.48600000 1412633816 1412633816 -3.00000000
8.04294205 -2.69581437 -0.14806622 14 14 10853 8.48400000 1412633820 1412633820 -1.00000000
8.12860584 -2.72610521 2.29727793 47 15 10854 8.87600000 1412633823 1412633823 15.00000000
2.05774355 -0.69330698 -0.58182520 4 0 10862 2.24800000 1412633844 1412633844 -15.00000000
8.05527878 -2.71559715 0.14838035 18 1 10863 8.50200000 1412633846 1412633846 1.00000000
2.42632723 -0.81843549 -0.59117138 4 2 10864 2.62800000 1412633848 1412633848 -13.00000000
8.06533337 -2.72212243 0.44611168 13 3 10865 8.52400000 1412633850 1412633850 3.00000000
2.87581253 -0.97061247 -0.58998144 4 4 10865 3.09200000 1412633853 1412633853 -11.00000000
8.07728481 -2.72772670 0.74587888 79 5 10866 8.55800000 1412633855 1412633855 5.00000000
3.58939981 -1.21285045 -0.60008264 4 6 10867 3.83600000 1412633857 1412633857 -9.00000000
8.07496071 -2.73008227 1.04661393 85 7 10868 8.58800000 1412633860 1412633860 7.00000000
4.74051571 -1.60365403 -0.61446524 4 8 10869 5.04200000 1412633862 1412633862 -7.00000000
9.42471600 -3.19009042 1.57592082 181 9 10870 10.07400000 1412633864 1412633864 9.00000000
9.54111958 -3.23134685 1.95808196 53 11 10871 10.26200000 1412633869 1412633869 11.00000000
8.04119492 -2.72492313 -0.44496030 21 12 10872 8.50200000 1412633871 1412633871 -3.00000000
8.03679466 -2.72655988 -0.14813602 16 14 10874 8.48800000 1412633876 1412633876 -1.00000000
8.11721134 -2.75384212 2.29676032 45 15 10874 8.87400000 1412633878 1412633878 15.00000000
2.05348253 -0.69986242 -0.58130759 4 0 10882 2.24600000 1412633899 1412633899 -15.00000000
8.04575062 -2.74369884 0.14838035 12 1 10883 8.50200000 1412633901 1412633901 1.00000000
2.42714429 -0.82815856 -0.59207118 4 2 10884 2.63200000 1412633903 1412633903 -13.00000000
8.06334305 -2.75284028 0.44653037 13 3 10885 8.53200000 1412633906 1412633906 3.00000000
2.87240696 -0.98064506 -0.58998144 4 4 10885 3.09200000 1412633908 1412633908 -11.00000000
8.06960011 -2.75654912 0.74605316 83 5 10886 8.56000000 1412633910 1412633910 5.00000000
3.57019067 -1.22026134 -0.59757966 4 6 10887 3.82000000 1412633913 1412633913 -9.00000000
8.07665157 -2.76210666 1.04807639 83 7 10888 8.60000000 1412633915 1412633915 7.00000000
4.72925472 -1.61826360 -0.61373401 6 8 10889 5.03600000 1412633917 1412633917 -7.00000000
9.41912937 -3.22488904 1.57685935 154 9 10890 10.08000000 1412633920 1412633920 9.00000000
9.52235222 -3.26208687 1.95655549 59 11 10891 10.25400000 1412633924 1412633924 11.00000000
8.04485893 -2.75750875 -0.44569302 17 12 10892 8.51600000 1412633926 1412633926 -3.00000000
8.03479385 -2.75719333 -0.14827564 14 14 10894 8.49600000 1412633931 1412633931 -1.00000000
8.11485863 -2.78466797 2.29883075 47 15 10894 8.88200000 1412633933 1412633933 15.00000000
2.05650616 -0.70891488 -0.58286047 4 0 10902 2.25200000 1412633954 1412633954 -15.00000000
8.04179573 -2.77372313 0.14848508 12 1 10903 8.50800000 1412633956 1412633956 1.00000000
2.41318583 -0.83281147 -0.58937174 4 2 10904 2.62000000 1412633959 1412633959 -13.00000000
8.07305050 -2.78607988 0.44757709 10 3 10904 8.55200000 1412633961 1412633961 3.00000000
