# .PCD v0.7 - Point Cloud Data file format
VERSION 0.7
FIELDS x y z intensity laser_id azimuth distance_m adjustedtime timestamp vertical_angle
SIZE 4 4 4 1 1 2 8 8 4 8
TYPE F F F U U U F U U F
COUNT 1 1 1 1 1 1 1 1 1 1
WIDTH 526
HEIGHT 1
VIEWPOINT 0 0 0 1 0 0 0
POINTS 526
DATA ascii
-4.83447552 1.10457897 0.43386129 9 5 28287 4.97800000 2991078109 2991078109 5.00000000
-3.12151814 0.71377641 -0.50716054 3 6 28288 3.24200000 2991078112 2991078112 -9.00000000
-3.93190169 0.90052569 -0.49527702 4 8 28290 4.06400000 2991078116 2991078116 -7.00000000
-5.22599268 1.19787204 -0.46907219 9 10 28291 5.38200000 2991078121 2991078121 -5.00000000
-4.12293482 0.94655037 -0.22169511 8 12 28293 4.23600000 2991078125 2991078125 -3.00000000
-4.03603745 0.92808360 -0.07228786 100 14 28295 4.14200000 2991078130 2991078130 -1.00000000
-9.83868408 2.26420546 2.70517659 45 15 28296 10.45200000 2991078132 2991078132 15.00000000
-1.91787076 0.44383320 -0.52747321 4 0 28303 2.03800000 2991078153 2991078153 -15.00000000
-4.10081100 0.94976282 0.07347463 17 1 28304 4.21000000 2991078155 2991078155 1.00000000
-4.05880213 0.94077986 -0.96189070 16 2 28305 4.27600000 2991078158 2991078158 -13.00000000
-4.16569376 0.96555597 0.22410257 10 3 28305 4.28200000 2991078160 2991078160 3.00000000
-2.60096288 0.60334921 -0.51900047 3 4 28306 2.72000000 2991078162 2991078162 -11.00000000
-4.82476807 1.12009597 0.43333834 9 5 28307 4.97200000 2991078165 2991078165 5.00000000
-3.11900759 0.72466820 -0.50716054 3 6 28308 3.24200000 2991078167 2991078167 -9.00000000
-3.91133332 0.91019577 -0.49308336 4 8 28310 4.04600000 2991078172 2991078172 -7.00000000
-5.20819616 1.21294343 -0.46785203 9 10 28311 5.36800000 2991078176 2991078176 -5.00000000
-4.11766052 0.96048260 -0.22159044 6 12 28313 4.23400000 2991078181 2991078181 -3.00000000
-4.04445696 0.94489592 -0.07249729 100 14 28315 4.15400000 2991078185 2991078185 -1.00000000
-9.82695770 2.29765534 2.70414138 45 15 28316 10.44800000 2991078188 2991078188 15.00000000
-1.91630971 0.45052510 -0.52747321 4 0 28323 2.03800000 2991078208 2991078208 -15.00000000
-4.07605886 0.95903367 0.07309068 19 1 28324 4.18800000 2991078211 2991078211 1.00000000
-4.05359650 0.95449531 -0.96144080 16 2 28325 4.27400000 2991078213 2991078213 -13.00000000
-4.17007446 0.98192215 0.22452125 8 3 28325 4.29000000 2991078215 2991078215 3.00000000
-2.61030650 0.61512643 -0.52129018 3 4 28326 2.73200000 2991078218 2991078218 -11.00000000
-4.83052492 1.13921738 0.43420991 9 5 28327 4.98200000 2991078220 2991078220 5.00000000
-3.11453652 0.73509741 -0.50684768 3 6 28328 3.24000000 2991078222 2991078222 -9.00000000
-3.93517828 0.93023670 -0.49649569 4 8 28330 4.07400000 2991078227 2991078227 -7.00000000
-5.21944141 1.23478556 -0.46924651 9 10 28331 5.38400000 2991078231 2991078231 -5.00000000
-4.10650873 0.97300816 -0.22117175 16 12 28333 4.22600000 2991078236 2991078236 -3.00000000
-4.03724289 0.95808452 -0.07242749 100 14 28335 4.15000000 2991078241 2991078241 -1.00000000
-9.82680321 2.33201432 2.70621204 47 15 28335 10.45600000 2991078243 2991078243 15.00000000
-1.92412055 0.45945495 -0.53006142 4 0 28343 2.04800000 2991078264 2991078264 -15.00000000
-4.08435583 0.97604460 0.07330011 19 1 28344 4.20000000 2991078266 2991078266 1.00000000
-4.03886843 0.96591955 -0.95874137 15 2 28345 4.26200000 2991078268 2991078268 -13.00000000
-4.15108156 0.99275601 0.22368388 8 3 28345 4.27400000 2991078271 2991078271 3.00000000
-2.61578083 0.62606227 -0.52281666 3 4 28346 2.74000000 2991078273 2991078273 -11.00000000
-4.83620644 1.15839267 0.43508148 9 5 28347 4.99200000 2991078275 2991078275 5.00000000
-3.11387253 0.74642515 -0.50716054 3 6 28348 3.24200000 2991078277 2991078277 -9.00000000
-7.04954672 1.69114518 0.89013368 2 7 28349 7.30400000 2991078280 2991078280 7.00000000
-3.92611647 0.94257712 -0.49576449 4 8 28350 4.06800000 2991078282 2991078282 -7.00000000
-5.22866011 1.25625551 -0.47046670 10 10 28351 5.39800000 2991078287 2991078287 -5.00000000
-4.08561087 0.98313117 -0.22022970 16 12 28353 4.20800000 2991078291 2991078291 -3.00000000
-4.04164982 0.97404534 -0.07256711 100 14 28355 4.15800000 2991078296 2991078296 -1.00000000
-9.82945824 2.37073350 2.70931768 45 15 28356 10.46800000 2991078298 2991078298 15.00000000
-1.92250502 0.46616858 -0.53006142 4 0 28363 2.04800000 2991078319 2991078319 -15.00000000
-4.08286762 0.99076730 0.07333501 19 1 28364 4.20200000 2991078321 2991078321 1.00000000
-4.03925943 0.98093176 -0.95964122 16 2 28365 4.26600000 2991078324 2991078324 -13.00000000
-4.14741468 1.00796378 0.22368388 10 3 28366 4.27400000 2991078326 2991078326 3.00000000
-2.58305597 0.62777102 -0.51671076 3 4 28366 2.70800000 2991078328 2991078328 -11.00000000
-4.83600569 1.17620885 0.43543008 9 5 28367 4.99600000 2991078330 2991078330 5.00000000
-3.11508656 0.75822437 -0.50778627 3 6 28368 3.24600000 2991078333 2991078333 -9.00000000
-3.90351605 0.95157468 -0.49332711 4 8 28370 4.04800000 2991078337 2991078337 -7.00000000
-5.22424316 1.27449918 -0.47046670 10 10 28371 5.39800000 2991078342 2991078342 -5.00000000
-4.09379530 1.00023091 -0.22085774 16 12 28373 4.22000000 2991078347 2991078347 -3.00000000
-11.28401852 2.75909448 2.68186641 56 13 28374 11.92200000 2991078349 2991078349 13.00000000
-4.03045559 0.98624623 -0.07242749 100 14 28375 4.15000000 2991078351 2991078351 -1.00000000
-9.82529545 2.40423441 2.71035314 45 15 28375 10.47200000 2991078354 2991078354 15.00000000
-1.91336274 0.47102937 -0.52799088 4 0 28383 2.04000000 2991078374 2991078374 -15.00000000
-4.08909225 1.00740492 0.07350954 21 1 28384 4.21200000 2991078377 2991078377 1.00000000
-4.04337931 0.99689138 -0.96144080 16 2 28385 4.27400000 2991078379 2991078379 -13.00000000
-4.15550566 1.02530551 0.22431190 8 3 28386 4.28600000 2991078381 2991078381 3.00000000
-2.58847308 0.63866490 -0.51823723 3 4 28386 2.71600000 2991078383 2991078383 -11.00000000
-4.83187056 1.19308245 0.43543008 9 5 28387 4.99600000 2991078386 2991078386 5.00000000
-3.11625648 0.77004117 -0.50841200 3 6 28388 3.25000000 2991078388 2991078388 -9.00000000
-3.90980554 0.96757907 -0.49454579 4 8 28390 4.05800000 2991078393 2991078393 -7.00000000
-5.22169638 1.29320645 -0.47064102 10 10 28391 5.40000000 2991078397 2991078397 -5.00000000
-4.09997129 1.01691890 -0.22138110 6 12 28393 4.23000000 2991078402 2991078402 -3.00000000
-11.11544514 2.75903130 2.64407468 59 13 28394 11.75400000 2991078404 2991078404 13.00000000
-4.02310705 0.99934494 -0.07235768 100 14 28395 4.14600000 2991078407 2991078407 -1.00000000
-9.81829166 2.44069576 2.71087074 47 15 28396 10.47400000 2991078409 2991078409 15.00000000
-1.90608418 0.47630039 -0.52643794 4 0 28403 2.03400000 2991078430 2991078430 -15.00000000
-4.07585096 1.01924670 0.07333501 22 1 28404 4.20200000 2991078432 2991078432 1.00000000
-4.04932690 1.01336479 -0.96369034 19 2 28405 4.28400000 2991078434 2991078434 -13.00000000
-4.14996433 1.03931952 0.22420724 8 3 28406 4.28400000 2991078436 2991078436 3.00000000
-2.57480145 0.64483476 -0.51594752 3 4 28406 2.70400000 2991078439 2991078439 -11.00000000
-4.82187843 1.20848846 0.43490717 9 5 28407 4.99000000 2991078441 2991078441 5.00000000
-3.11163330 0.78043371 -0.50809914 4 6 28408 3.24800000 2991078443 2991078443 -9.00000000
-3.91603065 0.98363888 -0.49576449 4 8 28410 4.06800000 2991078448 2991078448 -7.00000000
-5.20555687 1.30851138 -0.46959513 10 10 28411 5.38800000 2991078453 2991078453 -5.00000000
-4.10608101 1.03366208 -0.22190446 6 12 28413 4.24000000 2991078457 2991078457 -3.00000000
-10.93945408 2.75592136 2.60448337 56 13 28414 11.57800000 2991078460 2991078460 13.00000000
-4.02735043 1.01533759 -0.07249729 100 14 28415 4.15400000 2991078462 2991078462 -1.00000000
-9.80827141 2.47276878 2.71035314 47 15 28415 10.47200000 2991078464 2991078464 15.00000000
-1.91190028 0.48485047 -0.52850848 4 0 28423 2.04200000 2991078485 2991078485 -15.00000000
-4.07226849 1.03346789 0.07333501 22 1 28424 4.20200000 2991078487 2991078487 1.00000000
-4.03632116 1.02509499 -0.96144080 13 2 28425 4.27400000 2991078489 2991078489 -13.00000000
-4.15405369 1.05576706 0.22462593 8 3 28426 4.29200000 2991078492 2991078492 3.00000000
-2.60297894 0.66155607 -0.52205342 3 4 28426 2.73600000 2991078494 2991078494 -11.00000000
-4.83887053 1.23071480 0.43682459 9 5 28427 5.01200000 2991078496 2991078496 5.00000000
-3.11080456 0.79177779 -0.50841200 3 6 28428 3.25000000 2991078499 2991078499 -9.00000000
-3.92026758 0.99926370 -0.49673945 4 8 28430 4.07600000 2991078503 2991078503 -7.00000000
-5.21447182 1.33012140 -0.47081533 10 10 28431 5.40200000 2991078508 2991078508 -5.00000000
-4.10631800 1.04897738 -0.22211380 6 12 28433 4.24400000 2991078512 2991078512 -3.00000000
-10.76739693 2.75258207 2.56579161 56 13 28434 11.40600000 2991078515 2991078515 13.00000000
-4.03153086 1.03137183 -0.07263692 100 14 28435 4.16200000 2991078517 2991078517 -1.00000000
-9.81224251 2.51205516 2.71397662 49 15 28436 10.48600000 2991078519 2991078519 15.00000000
-1.91955078 0.49392834 -0.53109670 4 0 28443 2.05200000 2991078540 2991078540 -15.00000000
-4.06669950 1.04717779 0.07330011 21 1 28444 4.20000000 2991078542 2991078542 1.00000000
-4.02894402 1.03820550 -0.96054101 6 2 28445 4.27000000 2991078545 2991078545 -13.00000000
-4.14067316 1.06776738 0.22410257 8 3 28446 4.28200000 2991078547 2991078547 3.00000000
-2.60065389 0.67063814 -0.52205342 3 4 28446 2.73600000 2991078549 2991078549 -11.00000000
-4.84804964 1.25108302 0.43804476 9 5 28447 5.02600000 2991078552 2991078552 5.00000000
-3.10419655 0.80164385 -0.50778627 3 6 28448 3.24600000 2991078554 2991078554 -9.00000000
-3.93020868 1.01642108 -0.49844560 4 8 28450 4.09000000 2991078559 2991078559 -7.00000000
-5.20979691 1.34831524 -0.47081533 10 10 28451 5.40200000 2991078563 2991078563 -5.00000000
-4.09489775 1.06130040 -0.22169511 6 12 28453 4.23600000 2991078568 2991078568 -3.00000000
-10.58418083 2.74514008 2.52440071 55 13 28454 11.22200000 2991078570 2991078570 13.00000000
-4.02790594 1.04543829 -0.07263692 100 14 28455 4.16200000 2991078572 2991078572 -1.00000000
-9.80759811 2.54555058 2.71501184 47 15 28455 10.49000000 2991078575 2991078575 15.00000000
-1.92529178 0.50257760 -0.53316724 4 0 28463 2.06000000 2991078595 2991078595 -15.00000000
-4.07269335 1.06389391 0.07347463 22 1 28464 4.21000000 2991078598 2991078598 1.00000000
-4.04226398 1.05669868 -0.96459013 5 2 28465 4.28800000 2991078600 2991078600 -13.00000000
-4.13692093 1.08221447 0.22410257 8 3 28466 4.28200000 2991078602 2991078602 3.00000000
-2.59829712 0.67971206 -0.52205342 3 4 28466 2.73600000 2991078605 2991078605 -11.00000000
-4.83787060 1.26648450 0.43752182 9 5 28467 5.02000000 2991078607 2991078607 5.00000000
-3.11284471 0.81547827 -0.50966346 3 6 28468 3.25800000 2991078609 2991078609 -9.00000000
-3.90743566 1.02509654 -0.49600822 4 8 28470 4.07000000 2991078614 2991078614 -7.00000000
-5.20698547 1.36699855 -0.47098964 10 10 28471 5.40400000 2991078618 2991078618 -5.00000000
-4.08923674 1.07507992 -0.22159044 6 12 28473 4.23400000 2991078623 2991078623 -3.00000000
-10.40680408 2.73794079 2.48435950 52 13 28474 11.04400000 2991078625 2991078625 13.00000000
-4.02036476 1.05847371 -0.07256711 100 14 28475 4.15800000 2991078628 2991078628 -1.00000000
-9.80193901 2.58246446 2.71604705 47 15 28476 10.49400000 2991078630 2991078630 15.00000000
-1.91979074 0.50830609 -0.53213197 4 0 28483 2.05600000 2991078651 2991078651 -15.00000000
-4.06895494 1.07810378 0.07347463 21 1 28484 4.21000000 2991078653 2991078653 1.00000000
-4.03855085 1.07080233 -0.96459013 5 2 28485 4.28800000 2991078655 2991078655 -13.00000000
-4.13311815 1.09664845 0.22410257 8 3 28486 4.28200000 2991078658 2991078658 3.00000000
-2.58452296 0.68575668 -0.51976371 3 4 28486 2.72400000 2991078660 2991078660 -11.00000000
-4.84882545 1.28745449 0.43891633 9 5 28487 5.03600000 2991078662 2991078662 5.00000000
-3.11379743 0.82735366 -0.51028925 3 6 28488 3.26200000 2991078665 2991078665 -9.00000000
-3.90767026 1.03975070 -0.49649569 6 8 28490 4.07400000 2991078669 2991078669 -7.00000000
-5.20410776 1.38567865 -0.47116396 10 10 28491 5.40600000 2991078674 2991078674 -5.00000000
-4.09124851 1.09089124 -0.22190446 6 12 28493 4.24000000 2991078678 2991078678 -3.00000000
-10.27479744 2.74159455 2.45511580 62 13 28494 10.91400000 2991078681 2991078681 13.00000000
-4.00891733 1.07043743 -0.07242749 100 14 28495 4.15000000 2991078683 2991078683 -1.00000000
-9.80451965 2.61794496 2.71915293 47 15 28495 10.50600000 2991078685 2991078685 15.00000000
-1.90494442 0.51149750 -0.52850848 4 0 28503 2.04200000 2991078706 2991078706 -15.00000000
-4.05744219 1.09022486 0.07333501 21 1 28504 4.20200000 2991078708 2991078708 1.00000000
-4.03855228 1.08590496 -0.96548992 5 2 28505 4.29200000 2991078711 2991078711 -13.00000000
-4.13505077 1.11262596 0.22441658 8 3 28506 4.28800000 2991078713 2991078713 3.00000000
-2.58211350 0.69477421 -0.51976371 3 4 28506 2.72400000 2991078715 2991078715 -11.00000000
-4.84237814 1.30385423 0.43874201 9 5 28507 5.03400000 2991078718 2991078718 5.00000000
-3.10707569 0.83718997 -0.50966346 3 6 28508 3.25800000 2991078720 2991078720 -9.00000000
-3.90401697 1.05338466 -0.49649569 6 8 28510 4.07400000 2991078724 2991078724 -7.00000000
-5.20308590 1.40487456 -0.47151256 10 10 28511 5.41000000 2991078729 2991078729 -5.00000000
-4.09127188 1.10620832 -0.22211380 6 12 28513 4.24400000 2991078734 2991078734 -3.00000000
-10.20120716 2.76013875 2.43981910 56 13 28514 10.84600000 2991078736 2991078736 13.00000000
-4.01673746 1.08756030 -0.07263692 100 14 28515 4.16200000 2991078738 2991078738 -1.00000000
-9.78367138 2.65083146 2.71604705 49 15 28516 10.49400000 2991078741 2991078741 15.00000000
-1.91805935 0.52220374 -0.53264958 4 0 28523 2.05800000 2991078761 2991078761 -15.00000000
-4.05168247 1.10385573 0.07330011 19 1 28524 4.20000000 2991078764 2991078764 1.00000000
-4.03661728 1.10050809 -0.96593982 5 2 28525 4.29400000 2991078766 2991078766 -13.00000000
-4.13884926 1.12915587 0.22483526 7 3 28526 4.29600000 2991078768 2991078768 3.00000000
-2.59861302 0.70895046 -0.52357990 3 4 28526 2.74400000 2991078771 2991078771 -11.00000000
-4.85125160 1.32442248 0.43996218 9 5 28527 5.04800000 2991078773 2991078773 5.00000000
-3.10413456 0.84803057 -0.50966346 3 6 28528 3.25800000 2991078775 2991078775 -9.00000000
-3.92137837 1.07276773 -0.49917683 4 8 28530 4.09600000 2991078780 2991078780 -7.00000000
-5.19430685 1.42197609 -0.47116396 10 10 28531 5.40600000 2991078784 2991078784 -5.00000000
-4.09123802 1.12153888 -0.22232315 6 12 28533 4.24800000 2991078789 2991078789 -3.00000000
-10.18023491 2.79263759 2.43711972 56 13 28534 10.83400000 2991078791 2991078791 13.00000000
-4.02063036 1.10369205 -0.07277653 100 14 28535 4.17000000 2991078794 2991078794 -1.00000000
-9.79159355 2.68786311 2.72070575 49 15 28535 10.51200000 2991078796 2991078796 15.00000000
-1.91063821 0.52735388 -0.53109670 4 0 28543 2.05200000 2991078817 2991078817 -15.00000000
-4.04587698 1.11745965 0.07326520 19 1 28544 4.19800000 2991078819 2991078819 1.00000000
-4.03087282 1.11407268 -0.96548992 5 2 28545 4.29200000 2991078821 2991078821 -13.00000000
-4.13103247 1.14253151 0.22462593 8 3 28546 4.29200000 2991078824 2991078824 3.00000000
-2.59990692 0.71906370 -0.52434313 3 4 28546 2.74800000 2991078826 2991078826 -11.00000000
-4.86196041 1.34559989 0.44135669 9 5 28547 5.06400000 2991078828 2991078828 5.00000000
-3.12019253 0.86413318 -0.51279217 3 6 28548 3.27800000 2991078830 2991078830 -9.00000000
-6.98623180 1.93614054 0.89013368 2 7 28549 7.30400000 2991078833 2991078833 7.00000000
-3.90039372 1.08167493 -0.49698317 6 8 28550 4.07800000 2991078835 2991078835 -7.00000000
-5.19315147 1.44116449 -0.47151256 10 10 28551 5.41000000 2991078840 2991078840 -5.00000000
-4.06997919 1.13100028 -0.22138110 6 12 28553 4.23000000 2991078844 2991078844 -3.00000000
-10.15540409 2.82397962 2.43352056 60 13 28554 10.81800000 2991078847 2991078847 13.00000000
-4.02060604 1.11879218 -0.07284635 100 14 28555 4.17400000 2991078849 2991078849 -1.00000000
-9.77470684 2.71995425 2.71863532 49 15 28555 10.50400000 2991078851 2991078851 15.00000000
-1.91259992 0.53472722 -0.53213197 4 0 28562 2.05600000 2991078872 2991078872 -15.00000000
-4.05948067 1.13571894 0.07357935 19 1 28563 4.21600000 2991078874 2991078874 1.00000000
-2.20498991 0.61730397 -0.52863497 4 2 28564 2.35000000 2991078877 2991078877 -13.00000000
-4.12722111 1.15622425 0.22462593 8 3 28565 4.29200000 2991078879 2991078879 3.00000000
-2.58616519 0.72450370 -0.52205342 3 4 28565 2.73600000 2991078881 2991078881 -11.00000000
-4.86898232 1.36494219 0.44240254 9 5 28566 5.07600000 2991078883 2991078883 5.00000000
-3.11350608 0.87340832 -0.51216644 3 6 28567 3.27400000 2991078886 2991078886 -9.00000000
-3.90442991 1.09675050 -0.49795812 6 8 28569 4.08600000 2991078890 2991078890 -7.00000000
-5.21136045 1.46484733 -0.47360429 10 10 28570 5.43400000 2991078895 2991078895 -5.00000000
-4.08543158 1.14990199 -0.22242782 6 12 28572 4.25000000 2991078900 2991078900 -3.00000000
-10.13097763 2.85341406 2.42992139 62 13 28573 10.80200000 2991078902 2991078902 13.00000000
-4.01302433 1.13103390 -0.07277653 100 14 28574 4.17000000 2991078904 2991078904 -1.00000000
-9.68195915 2.72877073 2.69534159 47 15 28574 10.41400000 2991078906 2991078906 15.00000000
-1.90142834 0.53876692 -0.52954376 4 0 28582 2.04600000 2991078927 2991078927 -15.00000000
-4.05741549 1.15042782 0.07361425 17 1 28583 4.21800000 2991078930 2991078930 1.00000000
-2.20844603 0.62659281 -0.52998471 4 2 28584 2.35600000 2991078932 2991078932 -13.00000000
-4.12700272 1.17171478 0.22483526 7 3 28585 4.29600000 2991078934 2991078934 3.00000000
-2.57606602 0.73138189 -0.52052695 3 4 28585 2.72800000 2991078936 2991078936 -11.00000000
-4.86418819 1.38192976 0.44240254 9 5 28586 5.07600000 2991078939 2991078939 5.00000000
-3.11423850 0.88535148 -0.51279217 3 6 28587 3.27800000 2991078941 2991078941 -9.00000000
-3.90439606 1.11145973 -0.49844560 6 8 28589 4.09000000 2991078946 2991078946 -7.00000000
-5.19471836 1.47975445 -0.47255844 10 10 28590 5.42200000 2991078950 2991078950 -5.00000000
-4.09291697 1.16744280 -0.22305584 6 12 28592 4.26200000 2991078955 2991078955 -3.00000000
-10.12095642 2.88876033 2.42992139 64 13 28593 10.80200000 2991078957 2991078957 13.00000000
-4.00905228 1.14503503 -0.07277653 100 14 28594 4.17000000 2991078959 2991078959 -1.00000000
-9.52515221 2.72230005 2.65444803 45 15 28595 10.25600000 2991078962 2991078962 15.00000000
-1.90324974 0.54646713 -0.53057903 4 0 28602 2.05000000 2991078983 2991078983 -15.00000000
-4.05337524 1.16458380 0.07361425 17 1 28603 4.21800000 2991078985 2991078985 1.00000000
-2.21748257 0.63752860 -0.53268409 4 2 28604 2.36800000 2991078987 2991078987 -13.00000000
-4.12864542 1.18777025 0.22514929 7 3 28605 4.30200000 2991078989 2991078989 3.00000000
-2.58104420 0.74254072 -0.52205342 3 4 28605 2.73600000 2991078992 2991078992 -11.00000000
-4.86124945 1.39945173 0.44257686 10 5 28606 5.07800000 2991078994 2991078994 5.00000000
-3.09973979 0.89293599 -0.51091498 3 6 28607 3.26600000 2991078996 2991078996 -9.00000000
-3.90430737 1.12618220 -0.49893311 6 8 28609 4.09400000 2991079001 2991079001 -7.00000000
-5.17803574 1.49456334 -0.47151256 10 10 28610 5.41000000 2991079006 2991079006 -5.00000000
-4.10032892 1.18504989 -0.22368388 6 12 28612 4.27400000 2991079010 2991079010 -3.00000000
-10.09957886 2.92082310 2.42722178 62 13 28613 10.79000000 2991079012 2991079012 13.00000000
-4.00503063 1.15902233 -0.07277653 100 14 28614 4.17000000 2991079015 2991079015 -1.00000000
-9.37318325 2.71252060 2.61458993 47 15 28614 10.10200000 2991079017 2991079017 15.00000000
-1.90689552 0.55472624 -0.53213197 4 0 28622 2.05600000 2991079038 2991079038 -15.00000000
-4.03968525 1.17593110 0.07343972 17 1 28623 4.20800000 2991079040 2991079040 1.00000000
-2.20775962 0.64308524 -0.53088450 4 2 28624 2.36000000 2991079042 2991079042 -13.00000000
-4.13022661 1.20385134 0.22546330 8 3 28625 4.30800000 2991079045 2991079045 3.00000000
-2.58597589 0.75374323 -0.52357990 3 4 28625 2.74400000 2991079047 2991079047 -11.00000000
-4.86207294 1.41808569 0.44309980 10 5 28626 5.08400000 2991079049 2991079049 5.00000000
-3.09281158 0.90264380 -0.51028925 3 6 28627 3.26200000 2991079052 2991079052 -9.00000000
-3.90035248 1.13980389 -0.49893311 6 8 28629 4.09400000 2991079056 2991079056 -7.00000000
-5.18808603 1.51710248 -0.47290707 10 10 28630 5.42600000 2991079061 2991079061 -5.00000000
-4.09233379 1.19823301 -0.22347453 6 12 28632 4.27000000 2991079065 2991079065 -3.00000000
-10.09306145 2.95715523 2.42812157 62 13 28633 10.79400000 2991079068 2991079068 13.00000000
-4.00479841 1.17412055 -0.07284635 80 14 28634 4.17400000 2991079070 2991079070 -1.00000000
-9.23759747 2.70826435 2.57939053 45 15 28634 9.96600000 2991079072 2991079072 15.00000000
-1.90494752 0.56137919 -0.53213197 4 0 28642 2.05600000 2991079093 2991079093 -15.00000000
-4.04514599 1.19285309 0.07361425 15 1 28643 4.21800000 2991079095 2991079095 1.00000000
-2.19054890 0.64637572 -0.52728528 4 2 28644 2.34400000 2991079098 2991079098 -13.00000000
-4.11854935 1.21528006 0.22504461 7 3 28644 4.30000000 2991079100 2991079100 3.00000000
-2.57956338 0.76165348 -0.52281666 3 4 28645 2.74000000 2991079102 2991079102 -11.00000000
-4.87237883 1.43956518 0.44449428 10 5 28646 5.10000000 2991079105 2991079105 5.00000000
-3.10858512 0.91903466 -0.51341790 3 6 28647 3.28200000 2991079107 2991079107 -9.00000000
-3.88492942 1.15003097 -0.49747065 6 8 28649 4.08200000 2991079111 2991079111 -7.00000000
-5.19422054 1.53859830 -0.47395292 10 10 28650 5.43800000 2991079116 2991079116 -5.00000000
-4.08812618 1.21251059 -0.22347453 6 12 28652 4.27000000 2991079121 2991079121 -3.00000000
-10.07520485 2.99015069 2.42632198 66 13 28653 10.78600000 2991079123 2991079123 13.00000000
-3.99109077 1.18524635 -0.07267182 63 14 28654 4.16400000 2991079125 2991079125 -1.00000000
-9.12067604 2.70859504 2.54936767 40 15 28654 9.85000000 2991079128 2991079128 15.00000000
-1.91038096 0.57023549 -0.53420252 4 0 28662 2.06400000 2991079148 2991079148 -15.00000000
-4.05436993 1.21097207 0.07385858 16 1 28663 4.23200000 2991079151 2991079151 1.00000000
-2.20321631 0.65848249 -0.53088450 4 2 28664 2.36000000 2991079153 2991079153 -13.00000000
-4.11598110 1.23093939 0.22514929 7 3 28665 4.30200000 2991079155 2991079155 3.00000000
-2.57688880 0.77065319 -0.52281666 3 4 28665 2.74000000 2991079158 2991079158 -11.00000000
-4.88641167 1.46227622 0.44623742 10 5 28666 5.12000000 2991079160 2991079160 5.00000000
-3.11292768 0.93214667 -0.51466942 3 6 28667 3.29000000 2991079162 2991079162 -9.00000000
-3.89990592 1.16928601 -0.49990806 6 8 28669 4.10200000 2991079167 2991079167 -7.00000000
-5.19454336 1.55843771 -0.47447586 10 10 28670 5.44400000 2991079171 2991079171 -5.00000000
-4.10108423 1.23194480 -0.22441658 6 12 28672 4.28800000 2991079176 2991079176 -3.00000000
-10.06097317 3.02417970 2.42542219 66 13 28673 10.78200000 2991079178 2991079178 13.00000000
-3.98692918 1.19917071 -0.07267182 61 14 28674 4.16400000 2991079181 2991079181 -1.00000000
-8.99044514 2.70581675 2.51572108 45 15 28675 9.72000000 2991079183 2991079183 15.00000000
-1.90098190 0.57466441 -0.53213197 4 0 28682 2.05600000 2991079204 2991079204 -15.00000000
-4.05011797 1.22511709 0.07385858 16 1 28683 4.23200000 2991079206 2991079206 1.00000000
-2.20090437 0.66616917 -0.53088450 4 2 28684 2.36000000 2991079208 2991079208 -13.00000000
-4.11952305 1.24689615 0.22556797 7 3 28684 4.31000000 2991079211 2991079211 3.00000000
-2.57794094 0.78078169 -0.52357990 3 4 28685 2.74400000 2991079213 2991079213 -11.00000000
-4.88699818 1.48105764 0.44676033 10 5 28686 5.12600000 2991079215 2991079215 5.00000000
-3.10209322 0.94071412 -0.51341790 3 6 28687 3.28200000 2991079217 2991079217 -9.00000000
-3.89200163 1.18173862 -0.49942058 6 8 28689 4.09800000 2991079222 2991079222 -7.00000000
-5.18525887 1.57540214 -0.47412723 10 10 28690 5.44000000 2991079227 2991079227 -5.00000000
-4.10822392 1.24974048 -0.22504461 6 12 28692 4.30000000 2991079231 2991079231 -3.00000000
-10.03917027 3.05587578 2.42272282 64 13 28693 10.77000000 2991079234 2991079234 13.00000000
-3.97698021 1.21133232 -0.07256711 59 14 28694 4.15800000 2991079236 2991079236 -1.00000000
-8.87608528 2.70353103 2.48621583 45 15 28694 9.60600000 2991079238 2991079238 15.00000000
-1.88418651 0.57677287 -0.52799088 4 0 28702 2.04000000 2991079259 2991079259 -15.00000000
-4.04964113 1.24041843 0.07392839 16 1 28703 4.23600000 2991079261 2991079261 1.00000000
-2.20229197 0.67498982 -0.53178430 4 2 28704 2.36400000 2991079263 2991079263 -13.00000000
-4.11896467 1.26243889 0.22577731 7 3 28704 4.31400000 2991079266 2991079266 3.00000000
-2.58270788 0.79207820 -0.52510637 3 4 28705 2.75200000 2991079268 2991079268 -11.00000000
-4.88751268 1.49986088 0.44728327 10 5 28706 5.13200000 2991079270 2991079270 5.00000000
-3.09501410 0.95037699 -0.51279217 3 6 28707 3.27800000 2991079273 2991079273 -9.00000000
-3.89923763 1.19881713 -0.50088298 6 8 28709 4.11000000 2991079277 2991079277 -7.00000000
-5.18924999 1.59642172 -0.47499880 6 10 28710 5.45000000 2991079282 2991079282 -5.00000000
-4.12674141 1.27112854 -0.22630067 6 12 28712 4.32400000 2991079287 2991079287 -3.00000000
-10.03589153 3.09319639 2.42452240 66 13 28713 10.77800000 2991079289 2991079289 13.00000000
-3.97654939 1.22638595 -0.07263692 57 14 28714 4.16200000 2991079291 2991079291 -1.00000000
-8.73921585 2.69521403 2.45049882 45 15 28714 9.46800000 2991079293 2991079293 15.00000000
-1.89323318 0.58677787 -0.53109670 4 0 28722 2.05200000 2991079314 2991079314 -15.00000000
-4.03764677 1.25217748 0.07378878 16 1 28723 4.22800000 2991079316 2991079316 1.00000000
-2.19620013 0.68151802 -0.53088450 4 2 28724 2.36000000 2991079319 2991079319 -13.00000000
-4.12003183 1.27930391 0.22609133 7 3 28725 4.32000000 2991079321 2991079321 3.00000000
-2.58742690 0.80341744 -0.52663285 3 4 28725 2.76000000 2991079323 2991079323 -11.00000000
-4.88985777 1.51927698 0.44798052 10 5 28726 5.14000000 2991079326 2991079326 5.00000000
-3.10676837 0.96586633 -0.51529515 3 6 28727 3.29400000 2991079328 2991079328 -9.00000000
-3.89881992 1.21360075 -0.50137049 6 8 28729 4.11400000 2991079333 2991079333 -7.00000000
-5.17984104 1.61334085 -0.47465017 6 10 28730 5.44600000 2991079337 2991079337 -5.00000000
-4.07079840 1.26947153 -0.22347453 6 12 28732 4.27000000 2991079342 2991079342 -3.00000000
-10.02875328 3.12937021 2.42542219 66 13 28733 10.78200000 2991079344 2991079344 13.00000000
-3.98369718 1.24383509 -0.07284635 54 14 28734 4.17400000 2991079346 2991079346 -1.00000000
-8.62048626 2.69323707 2.41995811 45 15 28735 9.35000000 2991079349 2991079349 15.00000000
-1.90223300 0.59685296 -0.53420252 4 0 28742 2.06400000 2991079369 2991079369 -15.00000000
-4.04279041 1.26925886 0.07396330 15 1 28743 4.23800000 2991079372 2991079372 1.00000000
-2.20124435 0.69151622 -0.53268409 4 2 28744 2.36800000 2991079374 2991079374 -13.00000000
-4.11767244 1.29355800 0.22619601 7 3 28744 4.32200000 2991079376 2991079376 3.00000000
-2.58460665 0.81244433 -0.52663285 3 4 28745 2.76000000 2991079379 2991079379 -11.00000000
-4.90923262 1.54410791 0.45024657 10 5 28746 5.16600000 2991079381 2991079381 5.00000000
-3.10526204 0.97729814 -0.51560801 3 6 28747 3.29600000 2991079383 2991079383 -9.00000000
-3.88698673 1.22481632 -0.50039554 6 8 28749 4.10600000 2991079388 2991079388 -7.00000000
-5.18177891 1.63380849 -0.47534743 6 10 28750 5.45400000 2991079393 2991079393 -5.00000000
-4.10633945 1.29629982 -0.22567265 6 12 28752 4.31200000 2991079397 2991079397 -3.00000000
-9.99918652 3.15848827 2.42092323 66 13 28753 10.76200000 2991079399 2991079399 13.00000000
-3.98695803 1.26014388 -0.07298596 56 14 28754 4.18200000 2991079402 2991079402 -1.00000000
-8.55393219 2.70525360 2.40391135 45 15 28755 9.28800000 2991079404 2991079404 15.00000000
-1.90576720 0.60491109 -0.53575540 4 0 28761 2.07000000 2991079425 2991079425 -15.00000000
-4.04618263 1.28507948 0.07410292 15 1 28762 4.24600000 2991079427 2991079427 1.00000000
-2.19522476 0.69763160 -0.53178430 4 2 28763 2.36400000 2991079429 2991079429 -13.00000000
-4.11716700 1.30841541 0.22640535 7 3 28763 4.32600000 2991079432 2991079432 3.00000000
-2.57815647 0.81982088 -0.52586961 3 4 28764 2.75600000 2991079434 2991079434 -11.00000000
-4.91547680 1.56400359 0.45129243 10 5 28765 5.17800000 2991079436 2991079436 5.00000000
-3.09635735 0.98579240 -0.51466942 3 6 28766 3.29000000 2991079439 2991079439 -9.00000000
-3.88290358 1.23769939 -0.50039554 6 8 28768 4.10600000 2991079443 2991079443 -7.00000000
-5.18012857 1.65219378 -0.47569606 6 10 28769 5.45800000 2991079448 2991079448 -5.00000000
-4.09821272 1.30869472 -0.22546330 6 12 28771 4.30800000 2991079452 2991079452 -3.00000000
-9.97751999 3.18807077 2.41822386 64 13 28772 10.75000000 2991079455 2991079455 13.00000000
-3.98656678 1.27457607 -0.07305577 56 14 28773 4.18600000 2991079457 2991079457 -1.00000000
-8.50259495 2.72006607 2.39200568 42 15 28774 9.24200000 2991079459 2991079459 15.00000000
-1.89444768 0.60860538 -0.53316724 4 0 28781 2.06000000 2991079480 2991079480 -15.00000000
-4.05880642 1.30470312 0.07441706 33 1 28782 4.26400000 2991079482 2991079482 1.00000000
-2.19092107 0.70469344 -0.53133440 3 2 28783 2.36200000 2991079485 2991079485 -13.00000000
-4.10877228 1.32155597 0.22619601 7 3 28783 4.32200000 2991079487 2991079487 3.00000000
-2.57901669 0.83001822 -0.52663285 3 4 28784 2.76000000 2991079489 2991079489 -11.00000000
-4.92515945 1.58603799 0.45268694 7 5 28785 5.19400000 2991079492 2991079492 5.00000000
-3.11545968 1.00386465 -0.51842380 3 6 28786 3.31400000 2991079494 2991079494 -9.00000000
-3.88233805 1.25246465 -0.50088298 6 8 28788 4.11000000 2991079499 2991079499 -7.00000000
-5.16295338 1.66659355 -0.47465017 6 10 28789 5.44600000 2991079503 2991079503 -5.00000000
-4.12022638 1.33159101 -0.22692871 6 12 28791 4.33600000 2991079508 2991079508 -3.00000000
-9.96633053 3.22287941 2.41822386 66 13 28792 10.75000000 2991079510 2991079510 13.00000000
-3.96877527 1.28417468 -0.07281144 63 14 28793 4.17200000 2991079512 2991079512 -1.00000000
-8.47283077 2.74318337 2.38631153 45 15 28794 9.22000000 2991079515 2991079515 15.00000000
-1.88301885 0.61255670 -0.53057903 4 0 28802 2.05000000 2991079535 2991079535 -15.00000000
-4.04448938 1.31647599 0.07424254 80 1 28803 4.25400000 2991079538 2991079538 1.00000000
-2.19944119 0.71633971 -0.53403378 3 2 28804 2.37400000 2991079540 2991079540 -13.00000000
-4.11909342 1.34155464 0.22703338 7 3 28804 4.33800000 2991079542 2991079542 3.00000000
-2.57595730 0.83946526 -0.52663285 3 4 28805 2.76000000 2991079545 2991079545 -11.00000000
-4.94014978 1.61087334 0.45460436 7 5 28806 5.21600000 2991079547 2991079547 5.00000000
-3.10988140 1.01466393 -0.51811093 3 6 28807 3.31200000 2991079549 2991079549 -9.00000000
-6.32548094 2.06504226 0.81701207 2 7 28808 6.70400000 2991079551 2991079551 7.00000000
-3.88526940 1.26915121 -0.50185794 6 8 28809 4.11800000 2991079554 2991079554 -7.00000000
-5.15681028 1.68550551 -0.47465017 3 10 28810 5.44600000 2991079558 2991079558 -5.00000000
-4.10772514 1.34419882 -0.22651002 6 12 28812 4.32800000 2991079563 2991079563 -3.00000000
-9.95815468 3.26059890 2.41912365 66 13 28813 10.75400000 2991079565 2991079565 13.00000000
-3.96784258 1.29995751 -0.07288125 63 14 28814 4.17600000 2991079568 2991079568 -1.00000000
-8.45586014 2.77033663 2.38424110 45 15 28814 9.21200000 2991079570 2991079570 15.00000000
-1.89004421 0.62214607 -0.53316724 4 0 28822 2.06000000 2991079591 2991079591 -15.00000000
-4.01517820 1.32245338 0.07378878 13 1 28823 4.22800000 2991079593 2991079593 1.00000000
-2.19692731 0.72401285 -0.53403378 4 2 28824 2.37400000 2991079595 2991079595 -13.00000000
-4.11817932 1.35717499 0.22724272 7 3 28824 4.34200000 2991079598 2991079598 3.00000000
-2.57674026 0.84968156 -0.52739608 3 4 28825 2.76400000 2991079600 2991079600 -11.00000000
-4.92125225 1.62373793 0.45338416 7 5 28826 5.20200000 2991079602 2991079602 5.00000000
-3.10632062 1.02551329 -0.51811093 3 6 28827 3.31200000 2991079604 2991079604 -9.00000000
-3.88458514 1.28395164 -0.50234544 6 8 28829 4.12200000 2991079609 2991079609 -7.00000000
-5.18116140 1.71350539 -0.47743917 6 10 28830 5.47800000 2991079614 2991079614 -5.00000000
-4.11059237 1.36104035 -0.22692871 6 12 28832 4.33600000 2991079618 2991079618 -3.00000000
-9.95041275 3.29656506 2.42002344 66 13 28833 10.75800000 2991079621 2991079621 13.00000000
-3.97277141 1.31694603 -0.07305577 54 14 28834 4.18600000 2991079623 2991079623 -1.00000000
-8.43464756 2.79766107 2.38113523 47 15 28835 9.20000000 2991079625 2991079625 15.00000000
-1.89519250 0.63118148 -0.53523779 4 0 28842 2.06800000 2991079646 2991079646 -15.00000000
-4.02192020 1.34025419 0.07399821 7 1 28843 4.24000000 2991079648 2991079648 1.00000000
-2.17774844 0.72612947 -0.52998471 4 2 28844 2.35600000 2991079651 2991079651 -13.00000000
-4.11317730 1.37225974 0.22724272 7 3 28845 4.34200000 2991079653 2991079653 3.00000000
-2.57375860 0.85867083 -0.52739608 3 4 28845 2.76400000 2991079655 2991079655 -11.00000000
-4.95902109 1.65541649 0.45739335 5 5 28846 5.24800000 2991079657 2991079657 5.00000000
-3.08023834 1.02884030 -0.51435649 1 6 28847 3.28800000 2991079660 2991079660 -9.00000000
-3.88761020 1.30002165 -0.50332040 6 8 28849 4.13000000 2991079664 2991079664 -7.00000000
-5.17514896 1.73158050 -0.47743917 3 10 28850 5.47800000 2991079669 2991079669 -5.00000000
-4.09445333 1.37157428 -0.22630067 6 12 28852 4.32400000 2991079674 2991079674 -3.00000000
-9.92406273 3.32632399 2.41642427 66 13 28853 10.74200000 2991079676 2991079676 13.00000000
-3.97952557 1.33462059 -0.07326520 59 14 28854 4.19800000 2991079678 2991079678 -1.00000000
-8.42166138 2.82438755 2.38010001 45 15 28854 9.19600000 2991079681 2991079681 15.00000000
-1.89297771 0.63779306 -0.53523779 4 0 28862 2.06800000 2991079701 2991079701 -15.00000000
-4.02669191 1.35747921 0.07417273 7 1 28863 4.25000000 2991079704 2991079704 1.00000000
-2.18074012 0.73559541 -0.53133440 4 2 28864 2.36200000 2991079706 2991079706 -13.00000000
-4.10457754 1.38533175 0.22703338 7 3 28865 4.33800000 2991079708 2991079708 3.00000000
-2.57074571 0.86764973 -0.52739608 3 4 28865 2.76400000 2991079710 2991079710 -11.00000000
-4.96265078 1.67590404 0.45826489 2 5 28866 5.25800000 2991079713 2991079713 5.00000000
-3.10657120 1.04970372 -0.51936245 3 6 28867 3.32000000 2991079715 2991079715 -9.00000000
-3.87552691 1.31103957 -0.50234544 6 8 28869 4.12200000 2991079720 2991079720 -7.00000000
-5.17284727 1.75091219 -0.47778779 6 10 28870 5.48200000 2991079724 2991079724 -5.00000000
-4.11423159 1.39419138 -0.22766142 6 12 28872 4.35000000 2991079729 2991079729 -3.00000000
-9.90131855 3.35719061 2.41372490 66 13 28873 10.73000000 2991079731 2991079731 13.00000000
-3.96726799 1.34593379 -0.07312559 59 14 28874 4.19000000 2991079734 2991079734 -1.00000000
-8.42222881 2.85896134 2.38320565 45 15 28875 9.20800000 2991079736 2991079736 15.00000000
-1.89096463 0.64373690 -0.53523779 4 0 28880 2.06800000 2991079757 2991079757 -15.00000000
-4.04890823 1.37914932 0.07466140 13 1 28881 4.27800000 2991079759 2991079759 1.00000000
-2.19133019 0.74684334 -0.53448373 4 2 28882 2.37600000 2991079761 2991079761 -13.00000000
-4.10965681 1.40144289 0.22755674 7 3 28883 4.34800000 2991079763 2991079763 3.00000000
-2.56800723 0.87572163 -0.52739608 3 4 28883 2.76400000 2991079766 2991079766 -11.00000000
-4.98941708 1.70242405 0.46122819 2 5 28884 5.29200000 2991079768 2991079768 5.00000000
-3.10886645 1.06137276 -0.52030104 3 6 28885 3.32600000 2991079770 2991079770 -9.00000000
-3.87514567 1.32449245 -0.50283289 6 8 28887 4.12600000 2991079775 2991079775 -7.00000000
-5.16732121 1.76715457 -0.47778779 6 10 28888 5.48200000 2991079780 2991079780 -5.00000000
-4.08904600 1.39999330 -0.22651002 6 12 28890 4.32800000 2991079784 2991079784 -3.00000000
-9.89072227 3.38827991 2.41372490 66 13 28891 10.73000000 2991079787 2991079787 13.00000000
-3.96302009 1.35839069 -0.07312559 56 14 28892 4.19000000 2991079789 2991079789 -1.00000000
-8.39543438 2.87767410 2.37802935 47 15 28892 9.18800000 2991079791 2991079791 15.00000000
-1.87774646 0.64655995 -0.53213197 4 0 28900 2.05600000 2991079812 2991079812 -15.00000000
-4.03839731 1.39132023 0.07455668 7 1 28901 4.27200000 2991079814 2991079814 1.00000000
-2.19055223 0.75512302 -0.53493363 4 2 28902 2.37800000 2991079816 2991079816 -13.00000000
-4.11040401 1.41773343 0.22787075 7 3 28903 4.35400000 2991079819 2991079819 3.00000000
-2.55751085 0.88211977 -0.52586961 3 4 28903 2.75600000 2991079821 2991079821 -11.00000000
-5.06631327 1.74842882 0.46889791 2 5 28904 5.38000000 2991079823 2991079823 5.00000000
-3.09393954 1.06834984 -0.51842380 3 6 28905 3.31400000 2991079826 2991079826 -9.00000000
-3.88550806 1.34319985 -0.50478280 6 8 28907 4.14200000 2991079830 2991079830 -7.00000000
-5.14794064 1.78062201 -0.47656760 6 10 28908 5.46800000 2991079835 2991079835 -5.00000000
-4.09168339 1.41687238 -0.22692871 6 12 28910 4.33600000 2991079839 2991079839 -3.00000000
-9.87515259 3.42150831 2.41282511 68 13 28911 10.72600000 2991079842 2991079842 13.00000000
-3.96959043 1.37614596 -0.07333501 57 14 28912 4.20200000 2991079844 2991079844 -1.00000000
-8.37387943 2.90462685 2.37492347 45 15 28913 9.17600000 2991079846 2991079846 15.00000000
-1.88460004 0.65628719 -0.53472012 4 0 28920 2.06600000 2991079867 2991079867 -15.00000000
-4.04295778 1.40869820 0.07473120 7 1 28921 4.28200000 2991079869 2991079869 1.00000000
-2.18238258 0.76084036 -0.53358388 4 2 28922 2.37200000 2991079872 2991079872 -13.00000000
-4.12617445 1.43930888 0.22902215 7 3 28923 4.37600000 2991079874 2991079874 3.00000000
-2.56739211 0.89556813 -0.52854091 3 4 28923 2.77000000 2991079876 2991079876 -11.00000000
-3.08086681 1.07588685 -0.51685947 3 6 28925 3.30400000 2991079881 2991079881 -9.00000000
-3.89203906 1.36068535 -0.50624526 6 8 28927 4.15400000 2991079886 2991079886 -7.00000000
-5.16238070 1.80581725 -0.47848502 6 10 28928 5.49000000 2991079890 2991079890 -5.00000000
-4.11687279 1.44170833 -0.22860345 6 12 28930 4.36800000 2991079895 2991079895 -3.00000000
-9.87050533 3.45853591 2.41462469 60 13 28931 10.73400000 2991079897 2991079897 13.00000000
-3.96853685 1.39131713 -0.07340482 57 14 28932 4.20600000 2991079899 2991079899 -1.00000000
-8.36784744 2.93365812 2.37595892 45 15 28932 9.18000000 2991079902 2991079902 15.00000000
-1.88594210 0.66414505 -0.53575540 4 0 28940 2.07000000 2991079922 2991079922 -15.00000000
-4.04933214 1.42678940 0.07494064 7 1 28941 4.29400000 2991079925 2991079925 1.00000000
-2.17420006 0.76650983 -0.53223419 3 2 28942 2.36600000 2991079927 2991079927 -13.00000000
-4.10982418 1.44971669 0.22839411 7 3 28943 4.36400000 2991079929 2991079929 3.00000000
-2.56425047 0.90452451 -0.52854091 3 4 28943 2.77000000 2991079932 2991079932 -11.00000000
-3.09199357 1.09189665 -0.51936245 3 6 28945 3.32000000 2991079936 2991079936 -9.00000000
-3.86854982 1.36764622 -0.50380784 6 8 28947 4.13400000 2991079941 2991079941 -7.00000000
-5.14665413 1.82050431 -0.47761348 6 10 28948 5.48000000 2991079945 2991079945 -5.00000000
-4.10804987 1.45473671 -0.22839411 6 12 28950 4.36400000 2991079950 2991079950 -3.00000000
-9.84000397 3.48646116 2.41012549 66 13 28951 10.71400000 2991079952 2991079952 13.00000000
-3.96931028 1.40716600 -0.07350954 66 14 28952 4.21200000 2991079955 2991079955 -1.00000000
-8.36432171 2.96689129 2.37802935 45 15 28953 9.18800000 2991079957 2991079957 15.00000000
-1.88531494 0.67170125 -0.53627306 4 0 28961 2.07200000 2991079978 2991079978 -15.00000000
-4.04595900 1.44229281 0.07497554 7 1 28962 4.29600000 2991079980 2991079980 1.00000000
-3.99401021 1.42455995 -0.97898698 6 2 28963 4.35200000 2991079982 2991079982 -13.00000000
-4.10260201 1.46409893 0.22828944 7 3 28964 4.36200000 2991079985 2991079985 3.00000000
-2.56461596 0.91523665 -0.52930415 3 4 28964 2.77400000 2991079987 2991079987 -11.00000000
-3.08983111 1.10388660 -0.51967531 3 6 28966 3.32200000 2991079992 2991079992 -9.00000000
-5.70496941 2.03930545 0.74389046 2 7 28967 6.10400000 2991079994 2991079994 7.00000000
-3.85603452 1.37914193 -0.50283289 6 8 28968 4.12600000 2991079996 2991079996 -7.00000000
-5.16996145 1.85009623 -0.48040244 6 10 28969 5.51200000 2991080001 2991080001 -5.00000000
-4.10833120 1.47180450 -0.22870813 6 12 28971 4.37000000 2991080005 2991080005 -3.00000000
-9.81615257 3.51855779 2.40742612 62 13 28972 10.70200000 2991080008 2991080008 13.00000000
-3.96412611 1.42170477 -0.07350954 61 14 28973 4.21200000 2991080010 2991080010 -1.00000000
-8.35391426 2.99607015 2.37802935 45 15 28973 9.18800000 2991080012 2991080012 15.00000000
-1.88114130 0.67762345 -0.53575540 4 0 28981 2.07000000 2991080033 2991080033 -15.00000000
-4.05783129 1.46250939 0.07528968 7 1 28982 4.31400000 2991080035 2991080035 1.00000000
-3.99817920 1.44179833 -0.98123652 6 2 28983 4.36200000 2991080038 2991080038 -13.00000000
-4.10498095 1.48112226 0.22870813 7 3 28984 4.37000000 2991080040 2991080040 3.00000000
-2.54847860 0.91951901 -0.52663285 3 4 28984 2.76000000 2991080042 2991080042 -11.00000000
-3.08967471 1.11600757 -0.52030104 3 6 28986 3.32600000 2991080047 2991080047 -9.00000000
-5.66047812 2.04571295 0.73901570 2 7 28987 6.06400000 2991080049 2991080049 7.00000000
-3.85493064 1.39394367 -0.50332040 6 8 28988 4.13000000 2991080051 2991080051 -7.00000000
-5.16159821 1.86745369 -0.48022816 6 10 28989 5.51000000 2991080056 2991080056 -5.00000000
-9.92607498 3.59318900 2.05195999 12 11 28990 10.75400000 2991080058 2991080058 11.00000000
-4.10880232 1.48817670 -0.22902215 6 12 28991 4.37600000 2991080061 2991080061 -3.00000000
-9.79648209 3.55014539 2.40562654 66 13 28992 10.69400000 2991080063 2991080063 13.00000000
-3.95161963 1.43280697 -0.07336992 66 14 28993 4.20400000 2991080065 2991080065 -1.00000000
-8.33198071 3.02271557 2.37492347 45 15 28994 9.17600000 2991080068 2991080068 15.00000000
-1.86617649 0.67923266 -0.53213197 4 0 29000 2.05600000 2991080088 2991080088 -15.00000000
-4.04920101 1.47458899 0.07521987 5 1 29001 4.31000000 2991080091 2991080091 1.00000000
-2.17703986 0.79323846 -0.53493363 3 2 29002 2.37800000 2991080093 2991080093 -13.00000000
-4.12068796 1.50225163 0.22985952 7 3 29003 4.39200000 2991080095 2991080095 3.00000000
-2.53803730 0.92527527 -0.52510637 3 4 29003 2.75200000 2991080098 2991080098 -11.00000000
-3.09523511 1.12963343 -0.52186537 3 6 29005 3.33600000 2991080102 2991080102 -9.00000000
-5.59212923 2.04200292 0.73097235 2 7 29006 5.99800000 2991080104 2991080104 7.00000000
-3.86520338 1.41216910 -0.50527030 6 8 29007 4.14600000 2991080107 2991080107 -7.00000000
-5.14227819 1.87977147 -0.47900796 3 10 29008 5.49600000 2991080111 2991080111 -5.00000000
-9.91779232 3.62743402 2.05272317 12 11 29009 10.75800000 2991080114 2991080114 11.00000000
-4.11509848 1.50591207 -0.22965017 6 12 29010 4.38800000 2991080116 2991080116 -3.00000000
-9.78831577 3.58395219 2.40652633 68 13 29011 10.69800000 2991080118 2991080118 13.00000000
-3.95623469 1.44934249 -0.07354444 57 14 29012 4.21400000 2991080121 2991080121 -1.00000000
-8.31155968 3.04488921 2.37181783 47 15 29012 9.16400000 2991080123 2991080123 15.00000000
-1.87829840 0.69107926 -0.53627306 4 0 29020 2.07200000 2991080144 2991080144 -15.00000000
-4.04778242 1.49009609 0.07528968 5 1 29021 4.31400000 2991080146 2991080146 1.00000000
-2.18157220 0.80352706 -0.53673321 4 2 29022 2.38600000 2991080148 2991080148 -13.00000000
-4.11729288 1.51731694 0.22996420 7 3 29023 4.39400000 2991080151 2991080151 3.00000000
-2.56610847 0.94566983 -0.53159386 3 4 29023 2.78600000 2991080153 2991080153 -11.00000000
-5.24543190 1.93410206 0.48911804 2 5 29024 5.61200000 2991080155 2991080155 5.00000000
-3.08941984 1.13974714 -0.52155250 3 6 29025 3.33400000 2991080157 2991080157 -9.00000000
-5.58682919 2.06219792 0.73121607 2 7 29026 6.00000000 2991080160 2991080160 7.00000000
-3.86025023 1.42565262 -0.50527030 6 8 29027 4.14600000 2991080162 2991080162 -7.00000000
-5.14316082 1.90047228 -0.47970521 3 10 29028 5.50400000 2991080167 2991080167 -5.00000000
-9.89770412 3.65930843 2.05119681 21 11 29029 10.75000000 2991080169 2991080169 11.00000000
-4.12105560 1.52442479 -0.23027821 6 12 29030 4.40000000 2991080171 2991080171 -3.00000000
-9.77209091 3.61674500 2.40562654 48 13 29031 10.69400000 2991080174 2991080174 13.00000000
-3.95677733 1.46522677 -0.07364915 64 14 29032 4.22000000 2991080176 2991080176 -1.00000000
-8.30450344 3.07522511 2.37285304 47 15 29032 9.16800000 2991080178 2991080178 15.00000000
-1.87394226 0.69728518 -0.53575540 4 0 29041 2.07000000 2991080199 2991080199 -15.00000000
-4.06103373 1.51189888 0.07563873 5 1 29042 4.33400000 2991080201 2991080201 1.00000000
-2.17130804 0.80879658 -0.53493363 3 2 29043 2.37800000 2991080204 2991080204 -13.00000000
-4.11919022 1.53518736 0.23038287 7 3 29044 4.40200000 2991080206 2991080206 3.00000000
-2.54974771 0.95026940 -0.52892256 3 4 29044 2.77200000 2991080208 2991080208 -11.00000000
-3.08522177 1.15106285 -0.52155250 3 6 29046 3.33400000 2991080213 2991080213 -9.00000000
-3.85499907 1.43979156 -0.50527030 6 8 29048 4.14600000 2991080217 2991080217 -7.00000000
-5.13989353 1.92070496 -0.48005384 3 10 29049 5.50800000 2991080222 2991080222 -5.00000000
-9.89525986 3.69968605 2.05348635 25 11 29050 10.76200000 2991080224 2991080224 11.00000000
-4.09486341 1.53182137 -0.22912681 6 12 29051 4.37800000 2991080227 2991080227 -3.00000000
-3.95887113 1.48252439 -0.07378878 63 14 29053 4.22800000 2991080231 2991080231 -1.00000000
-8.30041313 3.10835195 2.37492347 45 15 29053 9.17600000 2991080233 2991080233 15.00000000
-1.87330508 0.70450222 -0.53627306 4 0 29061 2.07200000 2991080254 2991080254 -15.00000000
-4.05573177 1.52606523 0.07563873 5 1 29062 4.33400000 2991080257 2991080257 1.00000000
-2.16482401 0.81499773 -0.53403378 3 2 29063 2.37400000 2991080259 2991080259 -13.00000000
-4.11754417 1.55096471 0.23059222 7 3 29064 4.40600000 2991080261 2991080261 3.00000000
-2.56662464 0.96677631 -0.53312033 3 4 29064 2.79400000 2991080263 2991080263 -11.00000000
-3.08118510 1.16182518 -0.52155250 3 6 29066 3.33400000 2991080268 2991080268 -9.00000000
-3.83880663 1.44903302 -0.50380784 6 8 29068 4.13400000 2991080273 2991080273 -7.00000000
-5.14247704 1.94215453 -0.48092538 6 10 29069 5.51800000 2991080277 2991080277 -5.00000000
-9.90248680 3.74183798 2.05768418 25 11 29070 10.78400000 2991080280 2991080280 11.00000000
-4.08762360 1.54539955 -0.22902215 6 12 29071 4.37600000 2991080282 2991080282 -3.00000000
-3.95554233 1.49704218 -0.07382368 57 14 29073 4.23000000 2991080286 2991080286 -1.00000000
-8.29257870 3.14012194 2.37595892 47 15 29074 9.18000000 2991080289 2991080289 15.00000000
-1.86734664 0.70933843 -0.53523779 4 0 29080 2.06800000 2991080310 2991080310 -15.00000000
-4.07121038 1.54732096 0.07602268 5 1 29081 4.35600000 2991080312 2991080312 1.00000000
-2.16393089 0.82286471 -0.53448373 4 2 29082 2.37600000 2991080314 2991080314 -13.00000000
-4.11237860 1.56461048 0.23059222 7 3 29083 4.40600000 2991080316 2991080316 3.00000000
-2.53588057 0.96481037 -0.52739608 3 4 29083 2.76400000 2991080319 2991080319 -11.00000000
-3.09577560 1.17906725 -0.52468121 3 6 29085 3.35400000 2991080323 2991080323 -9.00000000
-3.85252905 1.46882689 -0.50624526 6 8 29087 4.15400000 2991080328 2991080328 -7.00000000
-5.13228512 1.95777667 -0.48057675 6 10 29088 5.51400000 2991080333 2991080333 -5.00000000
-9.89736080 3.77745533 2.05921078 25 11 29089 10.79200000 2991080335 2991080335 11.00000000
-4.12352467 1.57462108 -0.23132493 6 12 29090 4.42000000 2991080337 2991080337 -3.00000000
-3.94121671 1.50658095 -0.07364915 64 14 29092 4.22000000 2991080342 2991080342 -1.00000000
-8.26101875 3.15788078 2.36974716 45 15 29092 9.15600000 2991080344 2991080344 15.00000000
