# .PCD v0.7 - Point Cloud Data file format
VERSION 0.7
FIELDS x y z intensity laser_id azimuth distance_m adjustedtime timestamp vertical_angle
SIZE 4 4 4 1 1 2 8 8 4 8
TYPE F F F U U U F U U F
COUNT 1 1 1 1 1 1 1 1 1 1
WIDTH 518
HEIGHT 1
VIEWPOINT 0 0 0 1 0 0 0
POINTS 518
DATA ascii
-0.51575273 -1.71582878 -0.28377211 3 6 19673 1.81400000 2991254340 2991254340 -9.00000000
-1.14476454 -3.80363584 -0.48772112 2 8 19675 4.00200000 2991254345 2991254345 -7.00000000
-1.53112817 -5.08416653 -0.46454009 3 10 19676 5.33000000 2991254349 2991254349 -5.00000000
-2.97390318 -9.84383297 2.75538754 52 15 19681 10.64600000 2991254361 2991254361 15.00000000
-0.49419540 -1.62863231 -0.45603916 88 0 19688 1.76200000 2991254382 2991254382 -15.00000000
-0.49229112 -1.62032092 -0.39096493 67 2 19690 1.73800000 2991254386 2991254386 -13.00000000
-0.50595045 -1.66423476 -0.33811355 46 4 19691 1.77200000 2991254391 2991254391 -11.00000000
-0.53899604 -1.77071106 -0.29315817 1 6 19693 1.87400000 2991254395 2991254395 -9.00000000
-1.15919209 -3.80341458 -0.48820859 2 8 19695 4.00600000 2991254400 2991254400 -7.00000000
-1.55584025 -5.10165977 -0.46663186 3 10 19696 5.35400000 2991254405 2991254405 -5.00000000
-3.01161361 -9.85054398 2.76004624 54 15 19700 10.66400000 2991254416 2991254416 15.00000000
-0.50271440 -1.63613057 -0.45862734 96 0 19708 1.77200000 2991254437 2991254437 -15.00000000
-0.50138217 -1.62976813 -0.39366433 71 2 19710 1.75000000 2991254441 2991254441 -13.00000000
-0.51175666 -1.66245854 -0.33811355 47 4 19711 1.77200000 2991254446 2991254446 -11.00000000
-0.92568976 -3.00340533 -0.49777448 3 6 19713 3.18200000 2991254451 2991254451 -9.00000000
-1.16953468 -3.78986096 -0.48698989 1 8 19715 3.99600000 2991254455 2991254455 -7.00000000
-1.57246315 -5.09239054 -0.46628323 3 10 19716 5.35000000 2991254460 2991254460 -5.00000000
-3.04826522 -9.84735394 2.76211691 59 15 19720 10.67200000 2991254471 2991254471 15.00000000
-0.50670558 -1.63085341 -0.45759207 100 0 19726 1.76800000 2991254492 2991254492 -15.00000000
-0.51055175 -1.64121044 -0.39681366 72 2 19728 1.76400000 2991254497 2991254497 -13.00000000
-0.51580989 -1.65709352 -0.33735031 55 4 19729 1.76800000 2991254501 2991254501 -11.00000000
-0.93747169 -3.00802588 -0.49902594 3 6 19731 3.19000000 2991254506 2991254506 -9.00000000
-1.17552197 -3.76721811 -0.48455250 1 8 19733 3.97600000 2991254511 2991254511 -7.00000000
-1.58370304 -5.07221031 -0.46488872 3 10 19734 5.33400000 2991254515 2991254515 -5.00000000
-3.07859397 -9.82981682 2.76004624 57 15 19739 10.66400000 2991254527 2991254527 15.00000000
-0.51181555 -1.62723196 -0.45707443 100 0 19746 1.76600000 2991254547 2991254547 -15.00000000
-0.51803356 -1.64499462 -0.39816338 71 2 19748 1.77000000 2991254552 2991254552 -13.00000000
-0.52808148 -1.67588031 -0.34154812 55 4 19749 1.79000000 2991254557 2991254557 -11.00000000
-0.94915462 -3.00850296 -0.49965167 3 6 19751 3.19400000 2991254561 2991254561 -9.00000000
-1.19165456 -3.77255630 -0.48577121 1 8 19753 3.98600000 2991254566 2991254566 -7.00000000
-1.59779608 -5.05525303 -0.46384287 3 10 19754 5.32200000 2991254571 2991254571 -5.00000000
-3.11405516 -9.82269382 2.76108146 54 15 19759 10.66800000 2991254582 2991254582 15.00000000
-0.51690650 -1.62359464 -0.45655680 100 0 19766 1.76400000 2991254603 2991254603 -15.00000000
-0.52495617 -1.64688969 -0.39906317 71 2 19768 1.77400000 2991254607 2991254607 -13.00000000
-0.53571790 -1.67963803 -0.34269294 52 4 19769 1.79600000 2991254612 2991254612 -11.00000000
-0.95123780 -2.97882676 -0.49527150 3 6 19771 3.16600000 2991254617 2991254617 -9.00000000
-1.20783854 -3.77782774 -0.48698989 1 8 19773 3.99600000 2991254621 2991254621 -7.00000000
-1.60936165 -5.03066826 -0.46209976 3 10 19774 5.30200000 2991254626 2991254626 -5.00000000
-3.15127492 -9.82096100 2.76366973 66 15 19779 10.67800000 2991254637 2991254637 15.00000000
-0.52375573 -1.62545788 -0.45759207 100 0 19786 1.76800000 2991254658 2991254658 -15.00000000
-0.52950507 -1.64133799 -0.39816338 64 2 19788 1.77000000 2991254663 2991254663 -13.00000000
-0.54519618 -1.68896770 -0.34498265 52 4 19789 1.80800000 2991254667 2991254667 -11.00000000
-0.96527487 -2.98676610 -0.49714872 3 6 19791 3.17800000 2991254672 2991254672 -9.00000000
-1.21551824 -3.75659060 -0.48479626 1 8 19793 3.97800000 2991254677 2991254677 -7.00000000
-1.63673139 -5.05534840 -0.46488872 3 10 19794 5.33400000 2991254681 2991254681 -5.00000000
-3.18732738 -9.81541348 2.76522279 54 15 19799 10.68400000 2991254693 2991254693 15.00000000
-0.53062421 -1.62729311 -0.45862734 100 0 19806 1.77200000 2991254713 2991254713 -15.00000000
-0.54127902 -1.65800488 -0.40266240 52 2 19808 1.79000000 2991254718 2991254718 -13.00000000
-0.55230772 -1.69078684 -0.34574589 48 4 19809 1.81200000 2991254723 2991254723 -11.00000000
-0.97569472 -2.98337841 -0.49714872 3 6 19811 3.17800000 2991254727 2991254727 -9.00000000
-1.22491741 -3.74100542 -0.48333383 1 8 19813 3.96600000 2991254732 2991254732 -7.00000000
-1.65064597 -5.03824377 -0.46384287 3 10 19814 5.32200000 2991254736 2991254736 -5.00000000
-3.22226977 -9.81213188 2.76729321 59 15 19818 10.69200000 2991254748 2991254748 15.00000000
-0.53266948 -1.61442351 -0.45552152 100 0 19826 1.76000000 2991254769 2991254769 -15.00000000
-0.55562061 -1.68201089 -0.40896103 75 2 19828 1.81800000 2991254773 2991254773 -13.00000000
-0.55759019 -1.68698454 -0.34536427 40 4 19829 1.81000000 2991254778 2991254778 -11.00000000
-0.98734391 -2.98370528 -0.49777448 3 6 19831 3.18200000 2991254782 2991254782 -9.00000000
-1.24233854 -3.74989748 -0.48503998 1 8 19833 3.98000000 2991254787 2991254787 -7.00000000
-1.66195345 -5.01353931 -0.46209976 3 10 19834 5.30200000 2991254792 2991254792 -5.00000000
-3.25699258 -9.79658890 2.76625800 68 15 19839 10.68800000 2991254803 2991254803 15.00000000
-0.53830165 -1.61255431 -0.45552152 100 0 19846 1.76000000 2991254824 2991254824 -15.00000000
-0.56704783 -1.69669545 -0.41301015 66 2 19848 1.83600000 2991254829 2991254829 -13.00000000
-0.57343745 -1.71481848 -0.35147017 18 4 19849 1.84200000 2991254833 2991254833 -11.00000000
-0.99649870 -2.97649407 -0.49714872 3 6 19851 3.17800000 2991254838 2991254838 -9.00000000
-1.25415885 -3.74177361 -0.48455250 1 8 19853 3.97600000 2991254842 2991254842 -7.00000000
-1.67944384 -5.00770760 -0.46209976 3 10 19854 5.30200000 2991254847 2991254847 -5.00000000
-3.28946137 -9.78573513 2.76625800 66 15 19858 10.68800000 2991254859 2991254859 15.00000000
-0.54949009 -1.62713826 -0.46018025 63 0 19866 1.77800000 2991254879 2991254879 -15.00000000
-0.57109451 -1.68916750 -0.41166043 61 2 19868 1.83000000 2991254884 2991254884 -13.00000000
-1.00814986 -2.97673965 -0.49777448 3 6 19871 3.18200000 2991254893 2991254893 -9.00000000
-1.26211298 -3.72233343 -0.48260260 1 8 19873 3.96000000 2991254898 2991254898 -7.00000000
-1.69691384 -5.00181484 -0.46209976 3 10 19874 5.30200000 2991254902 2991254902 -5.00000000
-3.32779479 -9.78092861 2.76832843 61 15 19879 10.69600000 2991254914 2991254914 15.00000000
-0.56078690 -1.64166343 -0.46483901 77 0 19886 1.79600000 2991254935 2991254935 -15.00000000
-0.57761794 -1.68900752 -0.41211033 68 2 19888 1.83200000 2991254939 2991254939 -13.00000000
-0.84535879 -2.47049785 -0.50755191 3 4 19889 2.66000000 2991254944 2991254944 -11.00000000
-1.01981485 -2.97693992 -0.49840021 3 6 19891 3.18600000 2991254948 2991254948 -9.00000000
-1.27316678 -3.71227193 -0.48187140 1 8 19893 3.95400000 2991254953 2991254953 -7.00000000
-1.72470999 -5.02601337 -0.46488872 3 10 19894 5.33400000 2991254958 2991254958 -5.00000000
-3.36021113 -9.76983929 2.76832843 61 15 19898 10.69600000 2991254969 2991254969 15.00000000
-0.57092994 -1.65247750 -0.46846247 67 0 19906 1.81000000 2991254990 2991254990 -15.00000000
-0.59115440 -1.70908117 -0.41750917 68 2 19908 1.85600000 2991254994 2991254994 -13.00000000
-0.84884053 -2.45268965 -0.50449896 4 4 19909 2.64400000 2991254999 2991254999 -11.00000000
-1.02373302 -2.95469666 -0.49527150 3 6 19911 3.16600000 2991255004 2991255004 -9.00000000
-1.29327321 -3.72843528 -0.48455250 1 8 19913 3.97600000 2991255008 2991255008 -7.00000000
-1.74224365 -5.01996231 -0.46488872 3 10 19914 5.33400000 2991255013 2991255013 -5.00000000
-3.39980674 -9.76840496 2.77143431 68 15 19919 10.70800000 2991255024 2991255024 15.00000000
-0.58051813 -1.66141689 -0.47156829 53 0 19926 1.82200000 2991255045 2991255045 -15.00000000
-0.59840351 -1.71068621 -0.41840896 59 2 19928 1.86000000 2991255050 2991255050 -13.00000000
-0.85674834 -2.44785857 -0.50411737 4 4 19929 2.64200000 2991255054 2991255054 -11.00000000
-1.03926635 -2.96601915 -0.49777448 3 6 19931 3.18200000 2991255059 2991255059 -9.00000000
-1.30496573 -3.72015190 -0.48406503 1 8 19933 3.97200000 2991255064 2991255064 -7.00000000
-1.74919868 -4.98377085 -0.46209976 3 10 19934 5.30200000 2991255068 2991255068 -5.00000000
-3.43218136 -9.75707722 2.77143431 68 15 19938 10.70800000 2991255080 2991255080 15.00000000
-0.59017557 -1.67030931 -0.47467414 31 0 19946 1.83400000 2991255100 2991255100 -15.00000000
-0.60762054 -1.71777284 -0.42065847 50 2 19948 1.87000000 2991255105 2991255105 -13.00000000
-0.86725277 -2.45040536 -0.50526220 3 4 19949 2.64800000 2991255110 2991255110 -11.00000000
-1.04433560 -2.94747782 -0.49527150 3 6 19951 3.16600000 2991255114 2991255114 -9.00000000
-1.32657063 -3.73989534 -0.48723364 1 8 19953 3.99800000 2991255119 2991255119 -7.00000000
-1.77458131 -5.00016642 -0.46419150 3 10 19954 5.32600000 2991255123 2991255123 -5.00000000
-3.46791983 -9.74443150 2.77143431 68 15 19959 10.70800000 2991255135 2991255135 15.00000000
-0.64118540 -1.79569745 -0.51090878 6 0 19965 1.97400000 2991255156 2991255156 -15.00000000
-0.87405157 -2.44381881 -0.50449896 3 4 19968 2.64400000 2991255165 2991255165 -11.00000000
-1.05809939 -2.95515704 -0.49714872 3 6 19970 3.17800000 2991255170 2991255170 -9.00000000
-1.32757831 -3.70370841 -0.48309007 1 8 19972 3.96400000 2991255174 2991255174 -7.00000000
-1.79653347 -5.00925732 -0.46558598 3 10 19973 5.34200000 2991255179 2991255179 -5.00000000
-3.49916911 -9.73530674 2.77195191 68 15 19977 10.71000000 2991255190 2991255190 15.00000000
-0.65794528 -1.82252157 -0.51919103 5 0 19985 2.00600000 2991255211 2991255211 -15.00000000
-0.75574338 -2.09113836 -0.51333833 3 2 19987 2.28200000 2991255216 2991255216 -13.00000000
-0.88658237 -2.45183063 -0.50678867 3 4 19988 2.65600000 2991255220 2991255220 -11.00000000
-1.06706357 -2.94773078 -0.49652299 3 6 19990 3.17400000 2991255225 2991255225 -9.00000000
-1.34388030 -3.70838332 -0.48430878 1 8 19992 3.97400000 2991255229 2991255229 -7.00000000
-1.80042517 -4.96549463 -0.46209976 3 10 19993 5.30200000 2991255234 2991255234 -5.00000000
-3.53548741 -9.72423172 2.77246952 71 15 19998 10.71200000 2991255246 2991255246 15.00000000
-0.67026389 -1.83654666 -0.52384973 6 0 20005 2.02400000 2991255266 2991255266 -15.00000000
-0.76303822 -2.08848763 -0.51333833 4 2 20007 2.28200000 2991255271 2991255271 -13.00000000
-0.89513546 -2.44872093 -0.50678867 3 4 20008 2.65600000 2991255276 2991255276 -11.00000000
-1.07463121 -2.93656778 -0.49527150 3 6 20010 3.16600000 2991255280 2991255280 -9.00000000
-1.35271966 -3.69248605 -0.48284635 1 8 20012 3.96200000 2991255285 2991255285 -7.00000000
-1.81774700 -4.95917988 -0.46209976 3 10 20013 5.30200000 2991255289 2991255289 -5.00000000
-3.57104516 -9.72152138 2.77505779 66 15 20017 10.72200000 2991255301 2991255301 15.00000000
-0.67399597 -1.82694602 -0.52177918 6 0 20025 2.01600000 2991255322 2991255322 -15.00000000
-0.77437449 -2.09677982 -0.51603770 4 2 20027 2.29400000 2991255326 2991255326 -13.00000000
-0.90095574 -2.43821502 -0.50526220 3 4 20028 2.64800000 2991255331 2991255331 -11.00000000
-1.08761644 -2.94020939 -0.49652299 3 6 20030 3.17400000 2991255335 2991255335 -9.00000000
-1.37111545 -3.70263410 -0.48479626 3 8 20032 3.97800000 2991255340 2991255340 -7.00000000
-3.60361314 -9.70537472 2.77402258 61 15 20037 10.71800000 2991255356 2991255356 15.00000000
-0.67496938 -1.81010139 -0.51763809 6 0 20045 2.00000000 2991255377 2991255377 -15.00000000
-0.78305191 -2.09771514 -0.51693749 4 2 20047 2.29800000 2991255382 2991255382 -13.00000000
-0.90877426 -2.43321609 -0.50488061 4 4 20048 2.64600000 2991255386 2991255386 -11.00000000
-1.09648955 -2.93269444 -0.49589726 3 6 20050 3.17000000 2991255391 2991255391 -9.00000000
-1.38472748 -3.69968462 -0.48503998 1 8 20052 3.98000000 2991255395 2991255395 -7.00000000
-3.63475418 -9.68550205 2.77195191 64 15 20057 10.71000000 2991255411 2991255411 15.00000000
-0.68469012 -1.81677294 -0.52022630 6 0 20065 2.01000000 2991255432 2991255432 -15.00000000
-0.78899384 -2.09132242 -0.51603770 4 2 20067 2.29400000 2991255437 2991255437 -13.00000000
-0.91864890 -2.43370271 -0.50564384 4 4 20068 2.65000000 2991255441 2991255441 -11.00000000
-1.10671985 -2.92884922 -0.49589726 3 6 20070 3.17000000 2991255446 2991255446 -9.00000000
-1.39482415 -3.68740153 -0.48406503 1 8 20072 3.97200000 2991255451 2991255451 -7.00000000
-3.67022896 -9.67211437 2.77195191 66 15 20078 10.71000000 2991255467 2991255467 15.00000000
-0.69377798 -1.82159328 -0.52229685 6 0 20085 2.01800000 2991255488 2991255488 -15.00000000
-0.79559487 -2.08673477 -0.51558781 4 2 20087 2.29200000 2991255492 2991255492 -13.00000000
-0.93063712 -2.43965268 -0.50755191 4 4 20088 2.66000000 2991255497 2991255497 -11.00000000
-1.11693668 -2.92496800 -0.49589726 3 6 20090 3.17000000 2991255501 2991255501 -9.00000000
-1.40981340 -3.68807292 -0.48479626 1 8 20092 3.97800000 2991255506 2991255506 -7.00000000
-3.70850492 -9.67612553 2.77661061 71 15 20097 10.72800000 2991255522 2991255522 15.00000000
-0.70082623 -1.82096338 -0.52281445 6 0 20105 2.02000000 2991255543 2991255543 -15.00000000
-0.79796994 -2.07121587 -0.51243848 4 2 20107 2.27800000 2991255547 2991255547 -13.00000000
-0.93491071 -2.42539811 -0.50526220 4 4 20108 2.64800000 2991255552 2991255552 -11.00000000
-1.12998450 -2.92842317 -0.49714872 3 6 20110 3.17800000 2991255557 2991255557 -9.00000000
-1.41409540 -3.66090846 -0.48187140 1 8 20112 3.95400000 2991255561 2991255561 -7.00000000
-3.74435115 -9.66852570 2.77816367 68 15 20117 10.73400000 2991255577 2991255577 15.00000000
-0.70507777 -1.81310439 -0.52126157 6 0 20125 2.01400000 2991255598 2991255598 -15.00000000
-0.80802268 -2.07568169 -0.51423812 4 2 20127 2.28600000 2991255603 2991255603 -13.00000000
-0.94337124 -2.42211986 -0.50526220 3 4 20128 2.64800000 2991255607 2991255607 -11.00000000
-1.13732946 -2.91709924 -0.49589726 3 6 20130 3.17000000 2991255612 2991255612 -9.00000000
-1.42397881 -3.64855313 -0.48089644 1 8 20132 3.94600000 2991255616 2991255616 -7.00000000
-1.92120552 -4.92002392 -0.46209976 3 10 20133 5.30200000 2991255621 2991255621 -5.00000000
-3.77596617 -9.64999962 2.77661061 71 15 20137 10.72800000 2991255633 2991255633 15.00000000
-0.70787007 -1.80164194 -0.51867336 6 0 20145 2.00400000 2991255653 2991255653 -15.00000000
-0.81811631 -2.08010268 -0.51603770 4 2 20147 2.29400000 2991255658 2991255658 -13.00000000
-0.95182025 -2.41881227 -0.50526220 3 4 20148 2.64800000 2991255663 2991255663 -11.00000000
-1.14750504 -2.91311145 -0.49589726 3 6 20150 3.17000000 2991255667 2991255667 -9.00000000
-1.43670595 -3.64356017 -0.48089644 1 8 20152 3.94600000 2991255672 2991255672 -7.00000000
-1.93836796 -4.91328764 -0.46209976 3 10 20153 5.30200000 2991255676 2991255676 -5.00000000
-3.81202030 -9.63789177 2.77712846 66 15 20158 10.73000000 2991255688 2991255688 15.00000000
-0.71700561 -1.80634236 -0.52074391 6 0 20165 2.01200000 2991255709 2991255709 -15.00000000
-0.82393306 -2.07361221 -0.51513791 4 2 20167 2.29000000 2991255713 2991255713 -13.00000000
-0.96025771 -2.41547489 -0.50526220 3 4 20168 2.64800000 2991255718 2991255718 -11.00000000
-1.15620601 -2.90541744 -0.49527150 3 6 20170 3.16600000 2991255722 2991255722 -9.00000000
-1.45455790 -3.65143204 -0.48260260 1 8 20172 3.96000000 2991255727 2991255727 -7.00000000
-3.84395957 -9.62519741 2.77712846 66 15 20177 10.73000000 2991255743 2991255743 15.00000000
-0.72330654 -1.80382860 -0.52074391 6 0 20185 2.01200000 2991255764 2991255764 -15.00000000
-0.82826269 -2.06348944 -0.51333833 4 2 20187 2.28200000 2991255768 2991255768 -13.00000000
-0.96283036 -2.39753366 -0.50220925 3 4 20188 2.63200000 2991255773 2991255773 -11.00000000
-1.16781437 -2.90502930 -0.49589726 3 6 20190 3.17000000 2991255778 2991255778 -9.00000000
-1.46655393 -3.64449096 -0.48235887 1 8 20192 3.95800000 2991255782 2991255782 -7.00000000
-3.88042545 -9.61888790 2.77919888 66 15 20197 10.73800000 2991255798 2991255798 15.00000000
-0.72959870 -1.80129278 -0.52074391 5 0 20205 2.01200000 2991255819 2991255819 -15.00000000
-0.83546054 -2.06058574 -0.51333833 4 2 20207 2.28200000 2991255824 2991255824 -13.00000000
-0.97562134 -2.40507364 -0.50449896 3 4 20208 2.64400000 2991255828 2991255828 -11.00000000
-1.18240678 -2.91191673 -0.49777448 3 6 20210 3.18200000 2991255833 2991255833 -9.00000000
-1.46880186 -3.61360359 -0.47894651 1 8 20212 3.93000000 2991255838 2991255838 -7.00000000
-4.36548376 -10.71867657 2.67196870 62 13 20216 11.87800000 2991255849 2991255849 13.00000000
-3.92003012 -9.61533356 2.78230476 68 15 20218 10.75000000 2991255854 2991255854 15.00000000
-0.73661339 -1.80052304 -0.52126157 5 0 20225 2.01400000 2991255874 2991255874 -15.00000000
-0.84855640 -2.07208395 -0.51693749 4 2 20227 2.29800000 2991255879 2991255879 -13.00000000
-0.98103333 -2.39438677 -0.50297248 3 4 20228 2.63600000 2991255884 2991255884 -11.00000000
-1.19331360 -2.90959930 -0.49808735 3 6 20230 3.18400000 2991255888 2991255888 -9.00000000
-1.48743796 -3.62314558 -0.48089644 1 8 20232 3.94600000 2991255893 2991255893 -7.00000000
-4.37025309 -10.62407494 2.65217304 66 13 20236 11.79000000 2991255904 2991255904 13.00000000
-3.94915676 -9.59087372 2.77919888 61 15 20238 10.73800000 2991255909 2991255909 15.00000000
-0.74068075 -1.79258442 -0.51970863 6 0 20245 2.00800000 2991255930 2991255930 -15.00000000
-0.85429454 -2.06550765 -0.51603770 4 2 20247 2.29400000 2991255934 2991255934 -13.00000000
-0.99388939 -2.40183210 -0.50526220 3 4 20248 2.64800000 2991255939 2991255939 -11.00000000
-1.19892704 -2.89446592 -0.49621013 3 6 20250 3.17200000 2991255944 2991255944 -9.00000000
-1.50919962 -3.63993597 -0.48382130 1 8 20252 3.97000000 2991255948 2991255948 -7.00000000
-4.36843443 -10.51517487 2.62877798 72 13 20256 11.68600000 2991255960 2991255960 13.00000000
-3.98261118 -9.57703018 2.77919888 59 15 20258 10.73800000 2991255964 2991255964 15.00000000
-0.74693352 -1.78998804 -0.51970863 5 0 20265 2.00800000 2991255985 2991255985 -15.00000000
-0.85999709 -2.05891657 -0.51513791 4 2 20267 2.29000000 2991255990 2991255990 -13.00000000
-1.00680923 -2.40921688 -0.50755191 3 4 20268 2.66000000 2991255994 2991255994 -11.00000000
-1.20749867 -2.88661861 -0.49558440 3 6 20270 3.16800000 2991255999 2991255999 -9.00000000
-1.51116240 -3.60901093 -0.48040897 1 8 20272 3.94200000 2991256004 2991256004 -7.00000000
-4.37495613 -10.42798233 2.61078191 62 13 20276 11.60600000 2991256015 2991256015 13.00000000
-4.01900911 -9.57019424 2.78126955 68 15 20278 10.74600000 2991256020 2991256020 15.00000000
-0.75586468 -1.79462278 -0.52177918 6 0 20284 2.01600000 2991256040 2991256040 -15.00000000
-0.86076361 -2.04168797 -0.51153868 4 2 20286 2.27400000 2991256045 2991256045 -13.00000000
-1.01021492 -2.39501143 -0.50526220 3 4 20287 2.64800000 2991256050 2991256050 -11.00000000
-1.21014929 -2.86622024 -0.49276856 3 6 20289 3.15000000 2991256054 2991256054 -9.00000000
-1.52389479 -3.60580826 -0.48065269 1 8 20291 3.94400000 2991256059 2991256059 -7.00000000
-2.05698252 -4.86482191 -0.46209976 3 10 20292 5.30200000 2991256063 2991256063 -5.00000000
-3.05002832 -7.20638847 -0.41010454 4 12 20294 7.83600000 2991256068 2991256068 -3.00000000
-4.36392021 -10.30574799 2.58378792 68 13 20295 11.48600000 2991256070 2991256070 13.00000000
-4.05282259 -9.56641483 2.78385758 66 15 20296 10.75600000 2991256075 2991256075 15.00000000
-0.76061231 -1.78841794 -0.52074391 6 0 20304 2.01200000 2991256096 2991256096 -15.00000000
-0.86941183 -2.04225707 -0.51243848 4 2 20306 2.27800000 2991256100 2991256100 -13.00000000
-1.01703036 -2.38785815 -0.50449896 3 4 20307 2.64400000 2991256105 2991256105 -11.00000000
-1.22556984 -2.87469840 -0.49495864 3 6 20309 3.16400000 2991256109 2991256109 -9.00000000
-1.53880954 -3.60594440 -0.48138392 1 8 20311 3.95000000 2991256114 2991256114 -7.00000000
-2.07395148 -4.85761166 -0.46209976 3 10 20312 5.30200000 2991256119 2991256119 -5.00000000
-3.08301353 -7.21406412 -0.41115126 4 12 20314 7.85600000 2991256123 2991256123 -3.00000000
-4.36615801 -10.21161175 2.56399202 64 13 20315 11.39800000 2991256126 2991256126 13.00000000
-4.04453182 -9.45026302 2.75435233 52 15 20317 10.64200000 2991256130 2991256130 15.00000000
-0.76487434 -1.78029323 -0.51919103 5 0 20325 2.00600000 2991256151 2991256151 -15.00000000
-0.88151050 -2.04979801 -0.51513791 4 2 20327 2.29000000 2991256156 2991256156 -13.00000000
-1.02577543 -2.38411450 -0.50449896 3 4 20328 2.64400000 2991256160 2991256160 -11.00000000
-1.24078596 -2.88107276 -0.49683586 3 6 20330 3.17600000 2991256165 2991256165 -9.00000000
-1.55594480 -3.60939479 -0.48260260 1 8 20332 3.96000000 2991256169 2991256169 -7.00000000
-2.09174156 -4.84997797 -0.46209976 3 10 20333 5.30200000 2991256174 2991256174 -5.00000000
-3.10468388 -7.19171381 -0.41052324 4 12 20335 7.84400000 2991256179 2991256179 -3.00000000
-4.36646700 -10.10966778 2.54239678 64 13 20336 11.30200000 2991256181 2991256181 13.00000000
-4.12577200 -9.54780960 2.78696346 59 15 20337 10.76800000 2991256186 2991256186 15.00000000
-0.77031529 -1.77584016 -0.51867336 5 0 20345 2.00400000 2991256206 2991256206 -15.00000000
-0.89021248 -2.05028367 -0.51603770 4 2 20347 2.29400000 2991256211 2991256211 -13.00000000
-1.03409135 -2.38051915 -0.50449896 3 4 20348 2.64400000 2991256215 2991256215 -11.00000000
-1.24453378 -2.86223173 -0.49433291 3 6 20350 3.16000000 2991256220 2991256220 -9.00000000
-1.55427504 -3.57117844 -0.47821531 1 8 20352 3.92400000 2991256225 2991256225 -7.00000000
-2.10865831 -4.84264660 -0.46209976 3 10 20353 5.30200000 2991256229 2991256229 -5.00000000
-3.15849686 -7.24674511 -0.41429144 4 12 20355 7.91600000 2991256234 2991256234 -3.00000000
-4.37057257 -10.02291298 2.52440071 62 13 20356 11.22200000 2991256236 2991256236 13.00000000
-4.15919304 -9.52908230 2.78592825 66 15 20358 10.76400000 2991256241 2991256241 15.00000000
-0.77991998 -1.78008270 -0.52074391 6 0 20366 2.01200000 2991256262 2991256262 -15.00000000
-0.89459050 -2.03986835 -0.51423812 4 2 20368 2.28600000 2991256266 2991256266 -13.00000000
-1.04438698 -2.38030887 -0.50526220 3 4 20369 2.64800000 2991256271 2991256271 -11.00000000
-1.25739896 -2.86307693 -0.49527150 3 6 20371 3.16600000 2991256275 2991256275 -9.00000000
-1.58093417 -3.59635115 -0.48235887 1 8 20373 3.95800000 2991256280 2991256280 -7.00000000
-3.15606689 -7.16931295 -0.41052324 4 12 20376 7.84400000 2991256289 2991256289 -3.00000000
-4.38685656 -9.96045685 2.51270318 66 13 20377 11.17000000 2991256292 2991256292 13.00000000
-4.19476748 -9.51980972 2.78748107 71 15 20378 10.77000000 2991256296 2991256296 15.00000000
-0.78612888 -1.77734947 -0.52074391 5 0 20386 2.01200000 2991256317 2991256317 -15.00000000
-0.90012771 -2.03316951 -0.51333833 4 2 20388 2.28200000 2991256321 2991256321 -13.00000000
-1.04950917 -2.36946845 -0.50373572 3 4 20389 2.64000000 2991256326 2991256326 -11.00000000
-1.26418281 -2.85144711 -0.49402004 3 6 20391 3.15800000 2991256331 2991256331 -9.00000000
-1.58059502 -3.56177926 -0.47845903 1 8 20393 3.92600000 2991256335 2991256335 -7.00000000
-2.14325738 -4.82743359 -0.46209976 3 10 20394 5.30200000 2991256340 2991256340 -5.00000000
-3.16971803 -7.13270044 -0.40905783 4 12 20396 7.81600000 2991256344 2991256344 -3.00000000
-4.39626455 -9.88810158 2.49830651 66 13 20397 11.10600000 2991256347 2991256347 13.00000000
-4.23512936 -9.51672554 2.79110456 66 15 20399 10.78400000 2991256351 2991256351 15.00000000
-0.79516762 -1.78178942 -0.52281445 5 0 20405 2.02000000 2991256372 2991256372 -15.00000000
-0.90527540 -2.02661467 -0.51243848 4 2 20407 2.27800000 2991256377 2991256377 -13.00000000
-1.05575883 -2.36239028 -0.50297248 3 4 20408 2.63600000 2991256381 2991256381 -11.00000000
-1.27443826 -2.84904242 -0.49433291 3 6 20410 3.16000000 2991256386 2991256386 -9.00000000
-1.59239769 -3.55651832 -0.47845903 1 8 20412 3.92600000 2991256391 2991256391 -7.00000000
-2.32052612 -5.18032217 -0.49661341 3 10 20413 5.69800000 2991256395 2991256395 -5.00000000
-3.19335341 -7.12214994 -0.40905783 4 12 20415 7.81600000 2991256400 2991256400 -3.00000000
-4.42583990 -9.86635685 2.49650669 62 13 20416 11.09800000 2991256402 2991256402 13.00000000
-4.26421499 -9.50161171 2.79058695 76 15 20417 10.78200000 2991256407 2991256407 15.00000000
-0.79820859 -1.77195740 -0.52074391 5 0 20425 2.01200000 2991256427 2991256427 -15.00000000
-0.91875213 -2.03765440 -0.51603770 4 2 20427 2.29400000 2991256432 2991256432 -13.00000000
-1.06238401 -2.35511136 -0.50220925 3 4 20428 2.63200000 2991256437 2991256437 -11.00000000
-1.29006577 -2.85717893 -0.49652299 3 6 20430 3.17400000 2991256441 2991256441 -9.00000000
-1.61297774 -3.56902742 -0.48089644 1 8 20432 3.94600000 2991256446 2991256446 -7.00000000
-2.34023619 -5.17582130 -0.49696204 7 10 20433 5.70200000 2991256450 2991256450 -5.00000000
-2.38482404 -5.26953411 -0.30312985 9 12 20435 5.79200000 2991256455 2991256455 -3.00000000
-4.46025324 -9.85084820 2.49650669 66 13 20436 11.09800000 2991256457 2991256457 13.00000000
-4.29661942 -9.48063946 2.78903413 64 15 20438 10.77600000 2991256462 2991256462 15.00000000
-0.80119061 -1.76212585 -0.51867336 5 0 20445 2.00400000 2991256483 2991256483 -15.00000000
-0.92747366 -2.03798246 -0.51693749 4 2 20447 2.29800000 2991256487 2991256487 -13.00000000
-1.07710671 -2.36568284 -0.50526220 3 4 20448 2.64800000 2991256492 2991256492 -11.00000000
-1.29839289 -2.84906340 -0.49589726 3 6 20450 3.17000000 2991256497 2991256497 -9.00000000
-1.62542617 -3.56337547 -0.48089644 1 8 20452 3.94600000 2991256501 2991256501 -7.00000000
-2.35332584 -5.15674543 -0.49591619 7 10 20453 5.69000000 2991256506 2991256506 -5.00000000
-2.39739490 -5.24846029 -0.30239716 15 12 20455 5.77800000 2991256510 2991256510 -3.00000000
-4.49623156 -9.83876324 2.49740672 68 13 20456 11.10200000 2991256513 2991256513 13.00000000
-2.41296268 -5.27766657 -0.10129377 2 14 20457 5.80400000 2991256515 2991256515 -1.00000000
-4.32401800 -9.45755482 2.78644586 73 15 20457 10.76600000 2991256517 2991256517 15.00000000
-0.80733675 -1.75931847 -0.51867336 6 0 20465 2.00400000 2991256538 2991256538 -15.00000000
-0.92970157 -2.02410722 -0.51423812 4 2 20467 2.28600000 2991256543 2991256543 -13.00000000
-1.08043933 -2.35120511 -0.50297248 3 4 20468 2.63600000 2991256547 2991256547 -11.00000000
-1.31163192 -2.85169220 -0.49714872 3 6 20470 3.17800000 2991256552 2991256552 -9.00000000
-1.62789321 -3.53604174 -0.47797155 1 8 20472 3.92200000 2991256556 2991256556 -7.00000000
-2.35964298 -5.12316418 -0.49347582 7 10 20473 5.66200000 2991256561 2991256561 -5.00000000
-2.41402841 -5.23643255 -0.30218780 15 12 20475 5.77400000 2991256566 2991256566 -3.00000000
-4.53218031 -9.82654762 2.49830651 66 13 20476 11.10600000 2991256568 2991256568 13.00000000
-2.41796517 -5.24016047 -0.10073529 20 14 20477 5.77200000 2991256570 2991256570 -1.00000000
-4.34164906 -9.40480995 2.77557540 80 15 20478 10.72400000 2991256573 2991256573 15.00000000
-0.81459171 -1.75810039 -0.51919103 5 0 20486 2.00600000 2991256593 2991256593 -15.00000000
-0.93055511 -2.00654316 -0.51063889 4 2 20488 2.27000000 2991256598 2991256598 -13.00000000
-1.09400737 -2.35791469 -0.50526220 3 4 20489 2.64800000 2991256603 2991256603 -11.00000000
-2.42782569 -5.22791338 -0.91295153 24 6 20491 5.83600000 2991256607 2991256607 -9.00000000
-1.63916898 -3.52645111 -0.47748408 1 8 20493 3.91800000 2991256612 2991256612 -7.00000000
-2.37840438 -5.11448097 -0.49347582 7 10 20494 5.66200000 2991256616 2991256616 -5.00000000
-2.42309093 -5.20582104 -0.30093175 24 12 20496 5.75000000 2991256621 2991256621 -3.00000000
-4.56816578 -9.80987072 2.49830651 66 13 20497 11.10600000 2991256623 2991256623 13.00000000
-2.44222212 -5.24213886 -0.10094472 22 14 20498 5.78400000 2991256626 2991256626 -1.00000000
-4.34345007 -9.32305336 2.75590515 66 15 20498 10.64800000 2991256628 2991256628 15.00000000
-0.82236016 -1.75874627 -0.52022630 5 0 20506 2.01000000 2991256649 2991256649 -15.00000000
-2.45130062 -5.24010706 0.10097963 11 1 20507 5.78600000 2991256651 2991256651 1.00000000
-0.94416189 -2.01740265 -0.51423812 4 2 20508 2.28600000 2991256653 2991256653 -13.00000000
-1.09723639 -2.34341359 -0.50297248 3 4 20509 2.63600000 2991256658 2991256658 -11.00000000
-2.43715954 -5.19569492 -0.70464855 2 8 20513 5.78200000 2991256667 2991256667 -7.00000000
-2.40809298 -5.13139915 -0.49591619 10 10 20514 5.69000000 2991256672 2991256672 -5.00000000
-2.44294620 -5.20094633 -0.30114108 27 12 20516 5.75400000 2991256676 2991256676 -3.00000000
-4.59906578 -9.78680992 2.49650669 66 13 20517 11.09800000 2991256679 2991256679 13.00000000
-2.45455003 -5.22091389 -0.10070039 24 14 20518 5.77000000 2991256681 2991256681 -1.00000000
-4.34555578 -9.24314880 2.73675251 78 15 20518 10.57400000 2991256683 2991256683 15.00000000
-0.82818788 -1.75600958 -0.52022630 5 0 20525 2.01000000 2991256704 2991256704 -15.00000000
-2.48402381 -5.26450253 0.10160791 27 1 20526 5.82200000 2991256706 2991256706 1.00000000
-0.95251042 -2.01778507 -0.51513791 4 2 20527 2.29000000 2991256709 2991256709 -13.00000000
-1.10500145 -2.33976197 -0.50297248 3 4 20528 2.63600000 2991256713 2991256713 -11.00000000
-2.45153570 -5.18626404 -0.90857136 122 6 20530 5.80800000 2991256718 2991256718 -9.00000000
-2.47050619 -5.22167826 -0.70927960 4 8 20532 5.82000000 2991256722 2991256722 -7.00000000
-2.43191528 -5.13779211 -0.49731067 10 10 20533 5.70600000 2991256727 2991256727 -5.00000000
-2.44735289 -5.16574287 -0.29957101 33 12 20535 5.72400000 2991256732 2991256732 -3.00000000
-4.63316393 -9.77502728 2.49740672 64 13 20536 11.10200000 2991256734 2991256734 13.00000000
-2.46071148 -5.18925667 -0.10024662 33 14 20537 5.74400000 2991256736 2991256736 -1.00000000
-4.34141874 -9.15537548 2.71501184 76 15 20537 10.49000000 2991256738 2991256738 15.00000000
-0.82850128 -1.74089718 -0.51660281 5 0 20545 1.99600000 2991256759 2991256759 -15.00000000
-2.49464846 -5.23955011 0.10129377 35 1 20546 5.80400000 2991256762 2991256762 1.00000000
-0.95535785 -2.00565124 -0.51288843 4 2 20547 2.28000000 2991256764 2991256764 -13.00000000
-1.11147285 -2.33234596 -0.50220925 3 4 20548 2.63200000 2991256768 2991256768 -11.00000000
-2.47047472 -5.17945814 -0.90888423 124 6 20550 5.81000000 2991256773 2991256773 -9.00000000
-2.49128389 -5.21839666 -0.71001077 2 8 20552 5.82600000 2991256778 2991256778 -7.00000000
-2.44811726 -5.12567616 -0.49696204 10 10 20553 5.70200000 2991256782 2991256782 -5.00000000
-2.46364689 -5.15356445 -0.29936168 36 12 20555 5.72000000 2991256787 2991256787 -3.00000000
-4.67061996 -9.76582718 2.49920630 64 13 20556 11.11000000 2991256789 2991256789 13.00000000
-2.48916745 -5.20228195 -0.10066548 24 14 20557 5.76800000 2991256791 2991256791 -1.00000000
-4.33991289 -9.06621647 2.69327092 71 15 20558 10.40600000 2991256794 2991256794 15.00000000
-0.83928543 -1.74858999 -0.51970863 5 0 20564 2.00800000 2991256815 2991256815 -15.00000000
-2.50595045 -5.21863031 0.10104943 22 1 20565 5.79000000 2991256817 2991256817 1.00000000
-0.96453512 -2.00774169 -0.51423812 4 2 20566 2.28600000 2991256819 2991256819 -13.00000000
-1.12430382 -2.33926439 -0.50449896 3 4 20567 2.64400000 2991256824 2991256824 -11.00000000
-1.68874550 -3.50738740 -0.47797155 1 8 20571 3.92200000 2991256833 2991256833 -7.00000000
-2.46164250 -5.11034966 -0.49626479 10 10 20572 5.69400000 2991256838 2991256838 -5.00000000
-2.49720359 -5.17954874 -0.30135044 18 12 20574 5.75800000 2991256842 2991256842 -3.00000000
-4.70805883 -9.76081657 2.50190568 64 13 20575 11.12200000 2991256844 2991256844 13.00000000
-2.50553608 -5.19219780 -0.10063057 22 14 20576 5.76600000 2991256847 2991256847 -1.00000000
-4.33479023 -8.98294258 2.67256546 71 15 20576 10.32600000 2991256849 2991256849 15.00000000
-0.84369999 -1.74217224 -0.51867336 5 0 20584 2.00400000 2991256870 2991256870 -15.00000000
-2.51979208 -5.20085287 0.10087491 11 1 20585 5.78000000 2991256872 2991256872 1.00000000
-0.96813762 -1.99734831 -0.51243848 4 2 20586 2.27800000 2991256874 2991256874 -13.00000000
-1.13246250 -2.33532548 -0.50449896 3 4 20587 2.64400000 2991256879 2991256879 -11.00000000
-2.49877238 -5.14830494 -0.90638131 22 6 20589 5.79400000 2991256884 2991256884 -9.00000000
-1.70965230 -3.51932669 -0.48040897 1 8 20591 3.94200000 2991256888 2991256888 -7.00000000
-2.47598243 -5.09455776 -0.49556756 7 10 20592 5.68600000 2991256893 2991256893 -5.00000000
-2.51352096 -5.16720819 -0.30114108 12 12 20594 5.75400000 2991256897 2991256897 -3.00000000
-4.74039650 -9.74081802 2.50100589 64 13 20595 11.11800000 2991256900 2991256900 13.00000000
-2.52714634 -5.19061184 -0.10077020 15 14 20596 5.77400000 2991256902 2991256902 -1.00000000
-4.33652210 -8.90696430 2.65444803 66 15 20596 10.25600000 2991256904 2991256904 15.00000000
-0.85401654 -1.74789536 -0.52126157 5 0 20604 2.01400000 2991256925 2991256925 -15.00000000
-0.97681600 -1.99745798 -0.51333833 4 2 20606 2.28200000 2991256930 2991256930 -13.00000000
-1.13715625 -2.32430434 -0.50297248 3 4 20607 2.63600000 2991256934 2991256934 -11.00000000
-2.52107167 -5.14842176 -0.90794563 27 6 20609 5.80400000 2991256939 2991256939 -9.00000000
-1.71144307 -3.49194717 -0.47748408 1 8 20611 3.91800000 2991256943 2991256943 -7.00000000
-2.49199629 -5.08230639 -0.49521893 7 10 20612 5.68200000 2991256948 2991256948 -5.00000000
-2.52890277 -5.15302420 -0.30082709 12 12 20614 5.74800000 2991256953 2991256953 -3.00000000
-4.77093363 -9.71721458 2.49920630 64 13 20615 11.11000000 2991256955 2991256955 13.00000000
-2.53819656 -5.16739988 -0.10049096 9 14 20616 5.75800000 2991256957 2991256957 -1.00000000
-4.34118366 -8.83802032 2.63840127 71 15 20616 10.19400000 2991256960 2991256960 15.00000000
-0.85327959 -1.73104143 -0.51712048 5 0 20624 1.99800000 2991256980 2991256980 -15.00000000
-0.98205805 -1.99054086 -0.51243848 4 2 20626 2.27800000 2991256985 2991256985 -13.00000000
-1.14178681 -2.31327868 -0.50144607 3 4 20627 2.62800000 2991256990 2991256990 -11.00000000
-1.72538149 -3.48951077 -0.47797155 3 8 20631 3.92200000 2991256999 2991256999 -7.00000000
-2.50795484 -5.07000494 -0.49487031 7 10 20632 5.67800000 2991257003 2991257003 -5.00000000
-2.53978539 -5.12984610 -0.29998970 12 12 20634 5.73200000 2991257008 2991257008 -3.00000000
-4.81001377 -9.71097946 2.50190568 60 13 20635 11.12200000 2991257010 2991257010 13.00000000
-4.33407640 -8.74243164 2.61458993 71 15 20637 10.10200000 2991257015 2991257015 15.00000000
-0.85759652 -1.72459280 -0.51608515 5 0 20644 1.99400000 2991257036 2991257036 -15.00000000
-0.99334186 -1.99582374 -0.51468801 4 2 20646 2.28800000 2991257040 2991257040 -13.00000000
-1.15160489 -2.31279397 -0.50220925 3 4 20647 2.63200000 2991257045 2991257045 -11.00000000
-1.38597059 -2.78104234 -0.49214283 3 6 20649 3.14600000 2991257049 2991257049 -9.00000000
-1.73755169 -3.48346686 -0.47797155 3 8 20651 3.92200000 2991257054 2991257054 -7.00000000
-2.53097510 -5.07191610 -0.49591619 7 10 20652 5.69000000 2991257059 2991257059 -5.00000000
-2.57463241 -5.15489817 -0.30197847 6 12 20654 5.77000000 2991257063 2991257063 -3.00000000
-4.84562445 -9.69761658 2.50280547 64 13 20655 11.12600000 2991257066 2991257066 13.00000000
-4.32849169 -8.65889168 2.59388447 71 15 20656 10.02200000 2991257070 2991257070 15.00000000
-0.86620986 -1.72676909 -0.51763809 4 0 20664 2.00000000 2991257091 2991257091 -15.00000000
-0.99680501 -1.98537791 -0.51288843 4 2 20666 2.28000000 2991257095 2991257095 -13.00000000
-1.16495836 -2.31928635 -0.50449896 3 4 20667 2.64400000 2991257100 2991257100 -11.00000000
-1.39921892 -2.78324723 -0.49339432 3 6 20669 3.15400000 2991257105 2991257105 -9.00000000
-1.75862312 -3.49511313 -0.48040897 3 8 20671 3.94200000 2991257109 2991257109 -7.00000000
-2.48774672 -4.94203568 -0.48406300 3 10 20672 5.55400000 2991257114 2991257114 -5.00000000
-3.46879625 -6.88495541 -0.40403357 4 12 20674 7.72000000 2991257119 2991257119 -3.00000000
-4.88821697 -9.69804478 2.50730443 60 13 20675 11.14600000 2991257121 2991257121 13.00000000
-4.33259583 -8.59198093 2.57835531 74 15 20676 9.96200000 2991257125 2991257125 15.00000000
-0.87310433 -1.72545862 -0.51815575 5 0 20684 2.00200000 2991257146 2991257146 -15.00000000
-1.00284874 -1.98014784 -0.51243848 4 2 20686 2.27800000 2991257151 2991257151 -13.00000000
-1.17482173 -2.31870818 -0.50526220 3 4 20687 2.64800000 2991257155 2991257155 -11.00000000
-1.40356517 -2.76777530 -0.49151710 2 6 20689 3.14200000 2991257160 2991257160 -9.00000000
-1.76003146 -3.46771145 -0.47748408 1 8 20691 3.91800000 2991257165 2991257165 -7.00000000
-2.39132476 -4.70948362 -0.46209976 3 10 20692 5.30200000 2991257169 2991257169 -5.00000000
-3.48375940 -6.85499954 -0.40298685 4 12 20694 7.70000000 2991257174 2991257174 -3.00000000
-4.92027330 -9.67744827 2.50640464 62 13 20695 11.14200000 2991257176 2991257176 13.00000000
-4.33076429 -8.51061726 2.55868506 72 15 20697 9.88600000 2991257181 2991257181 15.00000000
-0.88526970 -1.73444510 -0.52177918 5 0 20704 2.01600000 2991257201 2991257201 -15.00000000
-1.00798154 -1.97316432 -0.51153868 4 2 20706 2.27400000 2991257206 2991257206 -13.00000000
-1.17397404 -2.29711151 -0.50144607 3 4 20707 2.62800000 2991257211 2991257211 -11.00000000
-1.42581189 -2.78748035 -0.49589726 3 6 20709 3.17000000 2991257215 2991257215 -9.00000000
-1.77122068 -3.45977950 -0.47724035 3 8 20711 3.91600000 2991257220 2991257220 -7.00000000
-2.40774941 -4.70110750 -0.46209976 3 10 20712 5.30200000 2991257225 2991257225 -5.00000000
-3.50766659 -6.84279728 -0.40298685 4 12 20714 7.70000000 2991257229 2991257229 -3.00000000
-4.94335318 -9.63940620 2.50100589 62 13 20715 11.11800000 2991257231 2991257231 13.00000000
-4.34015656 -8.45591831 2.54677939 60 15 20717 9.84000000 2991257236 2991257236 15.00000000
-0.88542902 -1.71916664 -0.51815575 5 0 20725 2.00200000 2991257257 2991257257 -15.00000000
-1.01788545 -1.97465301 -0.51288843 4 2 20727 2.28000000 2991257261 2991257261 -13.00000000
-1.17878604 -2.28581357 -0.49991956 3 4 20728 2.62000000 2991257266 2991257266 -11.00000000
-1.42877090 -2.76819277 -0.49339432 3 6 20730 3.15400000 2991257271 2991257271 -9.00000000
-1.78662276 -3.45855546 -0.47797155 1 8 20732 3.92200000 2991257275 2991257275 -7.00000000
-2.42496347 -4.69225121 -0.46209976 3 10 20733 5.30200000 2991257280 2991257280 -5.00000000
-3.52538252 -6.81570339 -0.40214950 4 12 20735 7.68400000 2991257284 2991257284 -3.00000000
-4.98760605 -9.63853073 2.50550485 64 13 20736 11.13800000 2991257287 2991257287 13.00000000
-4.33380508 -8.36790562 2.52503872 65 15 20738 9.75600000 2991257291 2991257291 15.00000000
-0.88608146 -1.70577943 -0.51504987 5 0 20745 1.99000000 2991257312 2991257312 -15.00000000
-1.02567101 -1.97281694 -0.51333833 4 2 20747 2.28200000 2991257317 2991257317 -13.00000000
-1.19400525 -2.29561877 -0.50297248 3 4 20748 2.63600000 2991257321 2991257321 -11.00000000
-1.43660069 -2.75968432 -0.49276856 3 6 20750 3.15000000 2991257326 2991257326 -9.00000000
-1.80602229 -3.46638179 -0.47992146 1 8 20752 3.93800000 2991257331 2991257331 -7.00000000
-2.44132781 -4.68375778 -0.46209976 3 10 20753 5.30200000 2991257335 2991257335 -5.00000000
-3.56578016 -6.83522987 -0.40403357 4 12 20755 7.72000000 2991257340 2991257340 -3.00000000
-5.02122021 -9.62106228 2.50550485 62 13 20756 11.13800000 2991257342 2991257342 13.00000000
-4.32900047 -8.28765869 2.50536847 54 15 20758 9.68000000 2991257347 2991257347 15.00000000
-0.89352554 -1.70625448 -0.51608515 5 0 20764 1.99400000 2991257367 2991257367 -15.00000000
-1.03220749 -1.96940494 -0.51333833 4 2 20766 2.28200000 2991257372 2991257372 -13.00000000
-1.20161128 -2.29164672 -0.50297248 3 4 20767 2.63600000 2991257377 2991257377 -11.00000000
-1.44574428 -2.75490522 -0.49276856 3 6 20769 3.15000000 2991257381 2991257381 -9.00000000
-1.81289208 -3.45158672 -0.47870278 1 8 20771 3.92800000 2991257386 2991257386 -7.00000000
-2.45684624 -4.67563629 -0.46209976 3 10 20772 5.30200000 2991257390 2991257390 -5.00000000
-3.56239700 -6.77387190 -0.40110278 4 12 20774 7.66400000 2991257395 2991257395 -3.00000000
-5.05672693 -9.61125660 2.50730443 64 13 20775 11.14600000 2991257397 2991257397 13.00000000
-4.33881903 -8.24324703 2.49605083 56 15 20776 9.64400000 2991257402 2991257402 15.00000000
-0.90398699 -1.71166635 -0.51867336 5 0 20784 2.00400000 2991257423 2991257423 -15.00000000
-1.03543293 -1.95889831 -0.51153868 4 2 20786 2.27400000 2991257427 2991257427 -13.00000000
-1.21143878 -2.29090953 -0.50373572 3 4 20787 2.64000000 2991257432 2991257432 -11.00000000
-1.45165575 -2.74285817 -0.49151710 2 6 20789 3.14200000 2991257436 2991257436 -9.00000000
-1.82771683 -3.45050001 -0.47943398 1 8 20791 3.93400000 2991257441 2991257441 -7.00000000
-2.47315240 -4.66703176 -0.46209976 3 10 20792 5.30200000 2991257446 2991257446 -5.00000000
-3.57291913 -6.73669291 -0.39963737 4 12 20794 7.63600000 2991257450 2991257450 -3.00000000
-5.09207249 -9.59698963 2.50820422 62 13 20795 11.15000000 2991257453 2991257453 13.00000000
-4.35178804 -8.19487095 2.48621583 67 15 20797 9.60600000 2991257457 2991257457 15.00000000
-0.91086441 -1.71020544 -0.51919103 5 0 20804 2.00600000 2991257478 2991257478 -15.00000000
-1.04409790 -1.95871139 -0.51243848 4 2 20806 2.27800000 2991257483 2991257483 -13.00000000
-1.21388531 -2.27627301 -0.50144607 3 4 20807 2.62800000 2991257487 2991257487 -11.00000000
-1.47052252 -2.75520110 -0.49464577 3 6 20809 3.16200000 2991257492 2991257492 -9.00000000
-1.83413839 -3.43359351 -0.47797155 1 8 20811 3.92200000 2991257496 2991257496 -7.00000000
-2.48942828 -4.65837049 -0.46209976 3 10 20812 5.30200000 2991257501 2991257501 -5.00000000
-3.60771632 -6.74531460 -0.40089342 4 12 20814 7.66000000 2991257506 2991257506 -3.00000000
-5.12186337 -9.57228374 2.50640464 64 13 20815 11.14200000 2991257508 2991257508 13.00000000
-4.37255716 -8.16847229 2.48259234 63 15 20816 9.59200000 2991257513 2991257513 15.00000000
-0.91500044 -1.70361173 -0.51815575 5 0 20824 2.00200000 2991257533 2991257533 -15.00000000
-1.05277407 -1.95848787 -0.51333833 4 2 20826 2.28200000 2991257538 2991257538 -13.00000000
-1.21996391 -2.26856351 -0.50068283 3 4 20827 2.62400000 2991257542 2991257542 -11.00000000
-1.47264135 -2.73613572 -0.49214283 3 6 20829 3.14600000 2991257547 2991257547 -9.00000000
-1.83858132 -3.41318893 -0.47602165 1 8 20831 3.90600000 2991257552 2991257552 -7.00000000
-3.64072108 -6.75025892 -0.40194014 4 12 20834 7.68000000 2991257561 2991257561 -3.00000000
-5.15709639 -9.55777645 2.50730443 60 13 20835 11.14600000 2991257563 2991257563 13.00000000
-4.39787674 -8.14389229 2.48000407 67 15 20837 9.58200000 2991257568 2991257568 15.00000000
-0.91542143 -1.69021511 -0.51504987 5 0 20844 1.99000000 2991257589 2991257589 -15.00000000
-1.06331861 -1.96165395 -0.51513791 4 2 20846 2.29000000 2991257593 2991257593 -13.00000000
-1.23161876 -2.27119470 -0.50220925 3 4 20847 2.63200000 2991257598 2991257598 -11.00000000
-1.48595238 -2.73792315 -0.49339432 3 6 20849 3.15400000 2991257602 2991257602 -9.00000000
-1.85995948 -3.42419386 -0.47845903 3 8 20851 3.92600000 2991257607 2991257607 -7.00000000
-2.49715519 -4.59536171 -0.45756766 3 10 20852 5.25000000 2991257612 2991257612 -5.00000000
-3.68334627 -6.77260065 -0.40403357 4 12 20854 7.72000000 2991257616 2991257616 -3.00000000
-5.19415331 -9.54656410 2.50910401 55 13 20855 11.15400000 2991257619 2991257619 13.00000000
-4.42208815 -8.12417316 2.47845125 65 15 20856 9.57600000 2991257623 2991257623 15.00000000
-0.92316771 -1.69040036 -0.51608515 5 0 20864 1.99400000 2991257644 2991257644 -15.00000000
-1.06455183 -1.94767046 -0.51243848 4 2 20866 2.27800000 2991257648 2991257648 -13.00000000
-1.23953915 -2.26688170 -0.50220925 3 4 20867 2.63200000 2991257653 2991257653 -11.00000000
-1.49360383 -2.72925401 -0.49276856 3 6 20869 3.15000000 2991257658 2991257658 -9.00000000
-1.87285435 -3.41942167 -0.47870278 3 8 20871 3.92800000 2991257662 2991257662 -7.00000000
-2.52275467 -4.60408974 -0.45931077 3 10 20872 5.27000000 2991257667 2991257667 -5.00000000
-3.68391633 -6.71767282 -0.40152144 4 12 20874 7.67200000 2991257671 2991257671 -3.00000000
-5.22744560 -9.52837467 2.50910401 33 13 20875 11.15400000 2991257674 2991257674 13.00000000
-4.44811583 -8.10113716 2.47638059 63 15 20877 9.56800000 2991257678 2991257678 15.00000000
-0.93249446 -1.69409943 -0.51815575 5 0 20883 2.00200000 2991257699 2991257699 -15.00000000
-1.06912410 -1.94071579 -0.51153868 4 2 20885 2.27400000 2991257704 2991257704 -13.00000000
-1.24894488 -2.26619768 -0.50297248 3 4 20886 2.63600000 2991257708 2991257708 -11.00000000
-1.50073802 -2.72082663 -0.49214283 3 6 20888 3.14600000 2991257713 2991257713 -9.00000000
-1.87938654 -3.40450287 -0.47748408 3 8 20890 3.91800000 2991257718 2991257718 -7.00000000
-2.55341959 -4.62360430 -0.46209976 3 10 20891 5.30200000 2991257722 2991257722 -5.00000000
-3.70230794 -6.69842720 -0.40110278 4 12 20893 7.66400000 2991257727 2991257727 -3.00000000
-5.01478148 -9.06929016 2.39257932 11 13 20894 10.63600000 2991257729 2991257729 13.00000000
-4.48289537 -8.10402775 2.48155689 63 15 20895 9.58800000 2991257734 2991257734 15.00000000
-0.94027722 -1.69421232 -0.51919103 4 0 20903 2.00600000 2991257754 2991257754 -15.00000000
-1.07778442 -1.94037926 -0.51243848 4 2 20905 2.27800000 2991257759 2991257759 -13.00000000
-1.25303328 -2.25495982 -0.50144607 3 4 20906 2.62800000 2991257764 2991257764 -11.00000000
-1.50254560 -2.70176053 -0.48963988 2 6 20908 3.13000000 2991257768 2991257768 -9.00000000
-1.88257027 -3.38231111 -0.47529045 3 8 20910 3.90000000 2991257773 2991257773 -7.00000000
-2.55015802 -4.57984829 -0.45861351 3 10 20911 5.26200000 2991257777 2991257777 -5.00000000
-3.72566724 -6.68546295 -0.40110278 4 12 20913 7.66400000 2991257782 2991257782 -3.00000000
-5.04925537 -9.05683613 2.39392900 16 13 20914 10.64200000 2991257784 2991257784 13.00000000
-4.52009821 -8.10103893 2.48569822 60 15 20916 9.60400000 2991257789 2991257789 15.00000000
-0.94429868 -1.68754816 -0.51815575 5 0 20923 2.00200000 2991257810 2991257810 -15.00000000
-1.08264661 -1.93320465 -0.51153868 4 2 20925 2.27400000 2991257814 2991257814 -13.00000000
-1.26281619 -2.25399756 -0.50220925 3 4 20926 2.63200000 2991257819 2991257819 -11.00000000
-1.52356064 -2.71717525 -0.49339432 3 6 20928 3.15400000 2991257824 2991257824 -9.00000000
-1.89242232 -3.37225676 -0.47480297 3 8 20930 3.89600000 2991257828 2991257828 -7.00000000
-2.56612921 -4.57091904 -0.45861351 3 10 20931 5.26200000 2991257833 2991257833 -5.00000000
-3.77637458 -6.72117186 -0.40403357 4 12 20933 7.72000000 2991257837 2991257837 -3.00000000
-5.09134245 -9.05784225 2.39887810 20 13 20934 10.66400000 2991257840 2991257840 13.00000000
-4.53936243 -8.07253456 2.48155689 60 15 20935 9.58800000 2991257844 2991257844 15.00000000
-0.94543743 -1.67582881 -0.51556754 4 0 20943 1.99200000 2991257865 2991257865 -15.00000000
-1.09705317 -1.94298923 -0.51513791 4 2 20945 2.29000000 2991257870 2991257870 -13.00000000
-1.26681411 -2.24273825 -0.50068283 3 4 20946 2.62400000 2991257874 2991257874 -11.00000000
-1.52914762 -2.70496202 -0.49214283 3 6 20948 3.14600000 2991257879 2991257879 -9.00000000
-1.92177725 -3.39672971 -0.47919026 3 8 20950 3.93200000 2991257883 2991257883 -7.00000000
-2.58599448 -4.56886911 -0.45931077 3 10 20951 5.27000000 2991257888 2991257888 -5.00000000
-3.79981279 -6.70794916 -0.40403357 4 12 20953 7.72000000 2991257893 2991257893 -3.00000000
