# .PCD v0.7 - Point Cloud Data file format
VERSION 0.7
FIELDS x y z intensity laser_id azimuth distance_m adjustedtime timestamp vertical_angle
SIZE 4 4 4 1 1 2 8 8 4 8
TYPE F F F U U U F U U F
COUNT 1 1 1 1 1 1 1 1 1 1
WIDTH 522
HEIGHT 1
VIEWPOINT 0 0 0 1 0 0 0
POINTS 522
DATA ascii
-1.04698825 3.70491385 -0.60978156 2 6 34422 3.89800000 2990895081 2990895081 -9.00000000
-1.37757373 4.88124657 -0.62275237 2 8 34424 5.11000000 2990895086 2990895086 -7.00000000
-3.01385236 10.69345856 2.15957618 50 11 34426 11.31800000 2990895093 2990895093 11.00000000
-2.90127635 10.30780602 2.47221208 51 13 34428 10.99000000 2990895097 2990895097 13.00000000
-2.50714397 8.91347694 2.48103929 40 15 34429 9.58600000 2990895102 2990895102 15.00000000
-0.58971220 2.10785007 -0.58648396 4 0 34437 2.26600000 2990895123 2990895123 -15.00000000
-0.69480669 2.48684216 -0.59612030 3 2 34439 2.65000000 2990895127 2990895127 -13.00000000
-0.82836610 2.96687412 -0.59875864 4 4 34440 3.13800000 2990895132 2990895132 -11.00000000
-1.03829372 3.72376823 -0.61228448 2 6 34442 3.91400000 2990895136 2990895136 -9.00000000
-1.36478651 4.90132427 -0.62470227 2 8 34444 5.12600000 2990895141 2990895141 -7.00000000
-2.97545505 10.70013046 2.15881300 50 11 34446 11.31400000 2990895148 2990895148 11.00000000
-2.86632061 10.32162571 2.47311187 51 13 34448 10.99400000 2990895153 2990895153 13.00000000
-2.46877885 8.90212822 2.47534537 45 15 34450 9.56400000 2990895157 2990895157 15.00000000
-0.58440679 2.11734462 -0.58855450 4 0 34457 2.27400000 2990895178 2990895178 -15.00000000
-0.68715745 2.49300981 -0.59702009 3 2 34459 2.65400000 2990895183 2990895183 -13.00000000
-0.81904745 2.97353315 -0.59952188 2 4 34460 3.14200000 2990895187 2990895187 -11.00000000
-1.01795435 3.70070505 -0.60790431 2 6 34462 3.88600000 2990895192 2990895192 -9.00000000
-1.35397923 4.92902899 -0.62762713 2 8 34464 5.15000000 2990895196 2990895196 -7.00000000
-2.93133450 10.68583870 2.15385199 46 11 34466 11.28800000 2990895203 2990895203 11.00000000
-2.83181858 10.33720684 2.47446156 50 13 34468 11.00000000 2990895208 2990895208 13.00000000
-2.43822455 8.90653992 2.47431016 42 15 34469 9.56000000 2990895213 2990895213 15.00000000
-0.57802731 2.12309980 -0.58958977 4 0 34477 2.27800000 2990895233 2990895233 -15.00000000
-0.67640597 2.48787117 -0.59522051 3 2 34479 2.64600000 2990895238 2990895238 -13.00000000
-0.81381035 2.99531960 -0.60333806 2 4 34480 3.16200000 2990895242 2990895242 -11.00000000
-1.01227188 3.73092604 -0.61228448 2 6 34482 3.91400000 2990895247 2990895247 -9.00000000
-1.32638288 4.89540482 -0.62275237 2 8 34484 5.11000000 2990895252 2990895252 -7.00000000
-2.89401627 10.69600582 2.15385199 43 11 34486 11.28800000 2990895259 2990895259 11.00000000
-2.79114294 10.33009720 2.47041249 53 13 34488 10.98200000 2990895263 2990895263 13.00000000
-2.40707374 8.92101192 2.47586298 38 15 34490 9.56600000 2990895268 2990895268 15.00000000
-0.57098365 2.12500477 -0.58958977 4 0 34496 2.27800000 2990895289 2990895289 -15.00000000
-0.66916221 2.49386501 -0.59612030 3 2 34498 2.65000000 2990895293 2990895293 -13.00000000
-0.80082226 2.98662424 -0.60104835 4 4 34499 3.15000000 2990895298 2990895298 -11.00000000
-1.00193775 3.74189496 -0.61353600 2 6 34501 3.92200000 2990895302 2990895302 -9.00000000
-1.31219292 4.90744734 -0.62372732 2 8 34503 5.11800000 2990895307 2990895307 -7.00000000
-2.85954404 10.70933723 2.15461516 43 11 34505 11.29200000 2990895314 2990895314 11.00000000
-2.75586748 10.33553028 2.46951270 57 13 34507 10.97800000 2990895319 2990895319 13.00000000
-2.37704611 8.92106342 2.47379231 40 15 34508 9.55800000 2990895323 2990895323 15.00000000
-0.56554168 2.13445473 -0.59166032 4 0 34516 2.28600000 2990895344 2990895344 -15.00000000
-0.65845913 2.48864985 -0.59432071 3 2 34518 2.64200000 2990895348 2990895348 -13.00000000
-0.78938848 2.98560548 -0.60028511 2 4 34519 3.14600000 2990895353 2990895353 -11.00000000
-0.98382735 3.72627044 -0.61040729 2 6 34521 3.90200000 2990895358 2990895358 -9.00000000
-1.28898180 4.88896370 -0.62080246 2 8 34523 5.09400000 2990895362 2990895362 -7.00000000
-2.82314372 10.72305107 2.15537834 43 11 34525 11.29600000 2990895369 2990895369 11.00000000
-2.72175503 10.35262585 2.47131228 57 13 34527 10.98600000 2990895374 2990895374 13.00000000
-2.33795571 8.90542412 2.46706319 40 15 34529 9.53200000 2990895378 2990895378 15.00000000
-0.55687767 2.12874508 -0.58958977 4 0 34534 2.27800000 2990895399 2990895399 -15.00000000
-0.65457779 2.50579000 -0.59791988 3 2 34536 2.65800000 2990895404 2990895404 -13.00000000
-0.78298026 2.99946809 -0.60257483 2 4 34537 3.15800000 2990895408 2990895408 -11.00000000
-0.97410917 3.73698878 -0.61165875 2 6 34539 3.91000000 2990895413 2990895413 -9.00000000
-1.28661752 4.94293690 -0.62713963 2 8 34541 5.14600000 2990895418 2990895418 -7.00000000
-2.78845453 10.72806644 2.15461516 46 11 34543 11.29200000 2990895424 2990895424 11.00000000
-2.68628049 10.34980774 2.46861291 57 13 34545 10.97400000 2990895429 2990895429 13.00000000
-2.30958247 8.90484238 2.46499252 40 15 34546 9.52400000 2990895434 2990895434 15.00000000
-0.54847878 2.12693453 -0.58855450 4 0 34554 2.27400000 2990895454 2990895454 -15.00000000
-0.64291131 2.49673653 -0.59522051 3 2 34556 2.64600000 2990895459 2990895459 -13.00000000
-0.77152693 2.99838042 -0.60181159 2 4 34557 3.15400000 2990895464 2990895464 -11.00000000
-0.96400827 3.75184560 -0.61353600 2 6 34559 3.92200000 2990895468 2990895468 -9.00000000
-1.26442218 4.92817020 -0.62470227 2 8 34561 5.12600000 2990895473 2990895473 -7.00000000
-2.74611712 10.71871662 2.15079904 40 11 34563 11.27200000 2990895480 2990895480 11.00000000
-2.65013647 10.35912132 2.46861291 59 13 34565 10.97400000 2990895484 2990895484 13.00000000
-2.27788544 8.91699123 2.46602798 45 15 34567 9.52800000 2990895489 2990895489 15.00000000
-0.54163057 2.13267541 -0.58958977 4 0 34575 2.27800000 2990895510 2990895510 -15.00000000
-0.63375598 2.49907613 -0.59522051 3 2 34577 2.64600000 2990895514 2990895514 -13.00000000
-0.75860304 2.99357557 -0.60028511 2 4 34578 3.14600000 2990895519 2990895519 -11.00000000
-0.94443566 3.73237348 -0.60978156 2 6 34580 3.89800000 2990895524 2990895524 -9.00000000
-1.24829626 4.94046974 -0.62567723 2 8 34582 5.13400000 2990895528 2990895528 -7.00000000
-2.70681262 10.72871017 2.15079904 43 11 34584 11.27200000 2990895535 2990895535 11.00000000
-2.60739017 10.34986877 2.46411395 60 13 34586 10.95400000 2990895540 2990895540 13.00000000
-2.24344420 8.91177464 2.46240449 45 15 34587 9.51400000 2990895544 2990895544 15.00000000
-0.53512079 2.13830113 -0.59062505 4 0 34595 2.28200000 2990895565 2990895565 -15.00000000
-0.62408388 2.49749207 -0.59432071 3 2 34597 2.64200000 2990895570 2990895570 -13.00000000
-0.75005138 3.00382447 -0.60181159 2 4 34598 3.15400000 2990895574 2990895574 -11.00000000
-0.93235731 3.73948073 -0.61040729 2 6 34600 3.90200000 2990895579 2990895579 -9.00000000
-1.23775709 4.97176504 -0.62908953 2 8 34602 5.16200000 2990895583 2990895583 -7.00000000
-2.67029333 10.74190331 2.15156221 40 11 34604 11.27600000 2990895590 2990895590 11.00000000
-2.56842971 10.34755898 2.46141434 59 13 34606 10.94200000 2990895595 2990895595 13.00000000
-2.21123052 8.92181206 2.46292210 42 15 34608 9.51600000 2990895600 2990895600 15.00000000
-0.52765346 2.14015603 -0.59062505 4 0 34615 2.28200000 2990895620 2990895620 -15.00000000
-0.61815715 2.51100874 -0.59702009 3 2 34617 2.65400000 2990895625 2990895625 -13.00000000
-0.73862356 3.00261164 -0.60104835 4 4 34618 3.15000000 2990895630 2990895630 -11.00000000
-0.92683750 3.77340627 -0.61541319 2 6 34620 3.93400000 2990895634 2990895634 -9.00000000
-1.21472073 4.95291996 -0.62616467 2 8 34622 5.13800000 2990895639 2990895639 -7.00000000
-2.63324761 10.75306606 2.15194392 40 11 34624 11.27800000 2990895646 2990895646 11.00000000
-2.53229427 10.35646152 2.46141434 59 13 34626 10.94200000 2990895650 2990895650 13.00000000
-2.17888141 8.91783619 2.45981622 40 15 34627 9.50400000 2990895655 2990895655 15.00000000
-0.51653254 2.12696648 -0.58648396 4 0 34635 2.26600000 2990895676 2990895676 -15.00000000
-0.60938835 2.51315117 -0.59702009 3 2 34637 2.65400000 2990895680 2990895680 -13.00000000
-0.72998726 3.01280379 -0.60257483 4 4 34638 3.15800000 2990895685 2990895685 -11.00000000
-0.91644716 3.78813839 -0.61729038 2 6 34640 3.94600000 2990895689 2990895689 -9.00000000
-1.19462776 4.94555235 -0.62470227 2 8 34642 5.12600000 2990895694 2990895694 -7.00000000
-2.59201407 10.74692440 2.14889097 40 11 34644 11.26200000 2990895701 2990895701 11.00000000
-2.49612808 10.36523724 2.46141434 57 13 34646 10.94200000 2990895706 2990895706 13.00000000
-2.14457536 8.91223907 2.45619273 40 15 34647 9.49000000 2990895710 2990895710 15.00000000
-0.51127511 2.13618279 -0.58855450 4 0 34654 2.27400000 2990895731 2990895731 -15.00000000
-0.60105109 2.51515818 -0.59702009 3 2 34656 2.65400000 2990895736 2990895736 -13.00000000
-0.71999240 3.01520777 -0.60257483 2 4 34657 3.15800000 2990895740 2990895740 -11.00000000
-0.89884084 3.77002001 -0.61384887 2 6 34659 3.92400000 2990895745 2990895745 -9.00000000
-1.18281829 4.96879816 -0.62713963 2 8 34661 5.14600000 2990895749 2990895749 -7.00000000
-2.55409169 10.74590969 2.14698291 40 11 34663 11.25200000 2990895756 2990895756 11.00000000
-2.46084189 10.36966610 2.46051455 55 13 34665 10.93800000 2990895761 2990895761 13.00000000
-2.11456394 8.91742229 2.45567513 40 15 34666 9.48800000 2990895765 2990895765 15.00000000
-0.50647396 2.14923668 -0.59166032 4 0 34674 2.28600000 2990895786 2990895786 -15.00000000
-0.59048259 2.50965309 -0.59522051 3 2 34676 2.64600000 2990895791 2990895791 -13.00000000
-0.71036160 3.02152514 -0.60333806 2 4 34677 3.16200000 2990895795 2990895795 -11.00000000
-0.88070995 3.75198030 -0.61040729 2 6 34679 3.90200000 2990895800 2990895800 -9.00000000
-1.16818440 4.98449278 -0.62860209 2 8 34681 5.15800000 2990895805 2990895805 -7.00000000
-2.51611876 10.75284863 2.14660120 40 11 34683 11.25000000 2990895812 2990895812 11.00000000
-2.42197013 10.36680698 2.45781517 57 13 34685 10.92600000 2990895816 2990895816 13.00000000
-2.08142686 8.92323112 2.45515752 40 15 34687 9.48600000 2990895821 2990895821 15.00000000
-0.50027829 2.15663719 -0.59321326 4 0 34694 2.29200000 2990895842 2990895842 -15.00000000
-0.58347744 2.51929307 -0.59702009 3 2 34696 2.65400000 2990895846 2990895846 -13.00000000
-0.69981021 3.02398634 -0.60333806 2 4 34697 3.16200000 2990895851 2990895851 -11.00000000
-0.87561232 3.78967595 -0.61603892 2 6 34699 3.93800000 2990895855 2990895855 -9.00000000
-1.14586985 4.96726274 -0.62592095 2 8 34701 5.13600000 2990895860 2990895860 -7.00000000
-2.47856879 10.76156616 2.14660120 40 11 34703 11.25000000 2990895867 2990895867 11.00000000
-2.38227463 10.36000443 2.45421600 56 13 34705 10.91000000 2990895871 2990895871 13.00000000
-2.05182481 8.93008423 2.45515752 40 15 34706 9.48600000 2990895876 2990895876 15.00000000
-0.49145725 2.15272021 -0.59166032 4 0 34714 2.28600000 2990895897 2990895897 -15.00000000
-0.57641220 2.52891445 -0.59881973 3 2 34716 2.66200000 2990895901 2990895901 -13.00000000
-0.68837833 3.02258205 -0.60257483 2 4 34717 3.15800000 2990895906 2990895906 -11.00000000
-0.85799879 3.77344704 -0.61291021 2 6 34719 3.91800000 2990895911 2990895911 -9.00000000
-1.12061369 4.93638754 -0.62153363 4 8 34721 5.10000000 2990895915 2990895915 -7.00000000
-2.44185686 10.77398109 2.14736438 37 11 34723 11.25400000 2990895922 2990895922 11.00000000
-2.34437680 10.36065388 2.45241642 55 13 34725 10.90200000 2990895927 2990895927 13.00000000
-2.01808429 8.92588711 2.45205164 40 15 34726 9.47400000 2990895931 2990895931 15.00000000
-0.48177353 2.14302921 -0.58855450 4 0 34733 2.27400000 2990895952 2990895952 -15.00000000
-0.56716931 2.52700901 -0.59791988 3 2 34735 2.65800000 2990895957 2990895957 -13.00000000
-0.67663288 3.01718569 -0.60104835 2 4 34736 3.15000000 2990895961 2990895961 -11.00000000
-0.84548086 3.77627158 -0.61291021 2 6 34738 3.91800000 2990895966 2990895966 -9.00000000
-1.11766195 5.00013208 -0.62908953 2 8 34740 5.16200000 2990895970 2990895970 -7.00000000
-2.40269470 10.76669121 2.14431143 40 11 34742 11.23800000 2990895977 2990895977 11.00000000
-2.31170177 10.37597942 2.45421600 59 13 34744 10.91000000 2990895982 2990895982 13.00000000
-1.98511577 8.91744423 2.44791055 40 15 34745 9.45800000 2990895987 2990895987 15.00000000
-0.47595859 2.15224290 -0.59062505 4 0 34753 2.28200000 2990896007 2990896007 -15.00000000
-0.55834496 2.52897334 -0.59791988 3 2 34755 2.65800000 2990896012 2990896012 -13.00000000
-0.67117184 3.04253507 -0.60562778 2 4 34756 3.17400000 2990896017 2990896017 -11.00000000
-0.83654261 3.79849124 -0.61603892 2 6 34758 3.93800000 2990896021 2990896021 -9.00000000
-1.10361159 5.01951361 -0.63103944 2 8 34760 5.17800000 2990896026 2990896026 -7.00000000
-2.36341381 10.76734161 2.14278507 37 11 34762 11.23000000 2990896033 2990896033 11.00000000
-2.27588582 10.38589001 2.45466590 54 13 34764 10.91200000 2990896037 2990896037 13.00000000
-1.95241845 8.92466068 2.44791055 38 15 34766 9.45800000 2990896042 2990896042 15.00000000
-0.46926409 2.15766668 -0.59166032 4 0 34773 2.28600000 2990896063 2990896063 -15.00000000
-0.54868680 2.52709818 -0.59702009 3 2 34775 2.65400000 2990896067 2990896067 -13.00000000
-0.65888238 3.03718472 -0.60410130 2 4 34776 3.16600000 2990896072 2990896072 -11.00000000
-0.82495081 3.80911064 -0.61729038 2 6 34778 3.94600000 2990896076 2990896076 -9.00000000
-1.09531248 5.06602097 -0.63640171 2 8 34780 5.22200000 2990896081 2990896081 -7.00000000
-2.32415748 10.76784992 2.14125848 34 11 34782 11.22200000 2990896088 2990896088 11.00000000
-2.23633456 10.37853050 2.45106673 53 13 34784 10.89600000 2990896093 2990896093 13.00000000
-1.92443883 8.93863964 2.44998097 40 15 34785 9.46600000 2990896097 2990896097 15.00000000
-0.46334541 2.16684818 -0.59373087 4 0 34793 2.29400000 2990896118 2990896118 -15.00000000
-0.54393053 2.54805613 -0.60151911 3 2 34795 2.67400000 2990896122 2990896122 -13.00000000
-0.65073377 3.05098653 -0.60639101 2 4 34796 3.17800000 2990896127 2990896127 -11.00000000
-0.81247222 3.81583118 -0.61791611 2 6 34798 3.95000000 2990896132 2990896132 -9.00000000
-2.28451896 10.76629448 2.13935041 37 11 34802 11.21200000 2990896143 2990896143 11.00000000
-2.19686246 10.37102222 2.44746757 54 13 34804 10.88000000 2990896148 2990896148 13.00000000
-1.89242542 8.94152260 2.44894576 38 15 34805 9.46200000 2990896152 2990896152 15.00000000
-0.45414764 2.15695071 -0.59062505 4 0 34811 2.28200000 2990896173 2990896173 -15.00000000
-0.53271621 2.53449583 -0.59791988 3 2 34813 2.65800000 2990896178 2990896178 -13.00000000
-0.63953167 3.04533052 -0.60486454 2 4 34814 3.17000000 2990896182 2990896182 -11.00000000
-0.80048048 3.81836486 -0.61791611 2 6 34816 3.95000000 2990896187 2990896187 -9.00000000
-1.05518353 5.04208565 -0.63250190 2 8 34818 5.19000000 2990896192 2990896192 -7.00000000
-2.25349474 10.78687096 2.14202189 37 11 34820 11.22600000 2990896199 2990896199 11.00000000
-2.16586161 10.38550377 2.44926715 53 13 34822 10.88800000 2990896203 2990896203 13.00000000
-1.86079514 8.93829250 2.44635773 38 15 34824 9.45200000 2990896208 2990896208 15.00000000
-0.44505000 2.15095568 -0.58855450 4 0 34831 2.27400000 2990896228 2990896228 -15.00000000
-0.52465427 2.54015684 -0.59881973 3 2 34833 2.66200000 2990896233 2990896233 -13.00000000
-0.63207185 3.06292629 -0.60791749 2 4 34834 3.18600000 2990896238 2990896238 -11.00000000
-0.78634989 3.81726646 -0.61729038 2 6 34836 3.94600000 2990896242 2990896242 -9.00000000
-1.03757703 5.04573822 -0.63250190 2 8 34838 5.19000000 2990896247 2990896247 -7.00000000
-2.21188021 10.77543926 2.13820553 37 11 34840 11.20600000 2990896254 2990896254 11.00000000
-2.12959623 10.39300060 2.44926715 52 13 34842 10.88800000 2990896258 2990896258 13.00000000
-1.82919621 8.94284153 2.44583988 40 15 34844 9.45000000 2990896263 2990896263 15.00000000
-0.43907833 2.16006851 -0.59062505 4 0 34851 2.28200000 2990896284 2990896284 -15.00000000
-0.51965946 2.56107092 -0.60331875 3 2 34853 2.68200000 2990896288 2990896288 -13.00000000
-0.61903596 3.05356932 -0.60562778 2 4 34854 3.17400000 2990896293 2990896293 -11.00000000
-0.76988596 3.80449891 -0.61478746 2 6 34856 3.93000000 2990896298 2990896298 -9.00000000
-1.01759946 5.03765488 -0.63103944 2 8 34858 5.17800000 2990896302 2990896302 -7.00000000
-2.17153692 10.76962280 2.13553429 37 11 34860 11.19200000 2990896309 2990896309 11.00000000
-2.09445834 10.40610218 2.45061684 56 13 34862 10.89400000 2990896314 2990896314 13.00000000
-1.79720771 8.94538403 2.44480467 38 15 34864 9.44600000 2990896318 2990896318 15.00000000
-0.43229201 2.16537714 -0.59166032 4 0 34871 2.28600000 2990896339 2990896339 -15.00000000
-0.50614631 2.53993535 -0.59791988 3 2 34873 2.65800000 2990896344 2990896344 -13.00000000
-0.60837328 3.05571151 -0.60562778 2 4 34874 3.17400000 2990896348 2990896348 -11.00000000
-0.75737119 3.81103802 -0.61541319 2 6 34876 3.93400000 2990896353 2990896353 -9.00000000
-2.13545609 10.78484154 2.13706064 43 11 34880 11.20000000 2990896364 2990896364 11.00000000
-2.05472088 10.39614391 2.44656777 52 13 34882 10.87600000 2990896369 2990896369 13.00000000
-1.76746714 8.95918369 2.44687533 38 15 34884 9.45400000 2990896374 2990896374 15.00000000
-0.42621717 2.17445588 -0.59373087 4 0 34891 2.29400000 2990896394 2990896394 -15.00000000
-0.49652883 2.53786182 -0.59702009 3 2 34893 2.65400000 2990896399 2990896399 -13.00000000
-0.59544337 3.04625583 -0.60333806 2 4 34894 3.16200000 2990896404 2990896404 -11.00000000
-0.74708974 3.82916927 -0.61791611 2 6 34896 3.95000000 2990896408 2990896408 -9.00000000
-0.98012877 5.03294516 -0.62957704 2 8 34898 5.16600000 2990896413 2990896413 -7.00000000
-2.09854603 10.79608440 2.13782406 43 11 34900 11.20400000 2990896420 2990896420 11.00000000
-2.01841903 10.40325260 2.44656777 55 13 34902 10.87600000 2990896424 2990896424 13.00000000
-1.73848295 8.96878910 2.44791055 40 15 34903 9.45800000 2990896429 2990896429 15.00000000
-0.41789436 2.17213631 -0.59269559 4 0 34911 2.29000000 2990896450 2990896450 -15.00000000
-0.48987201 2.55106211 -0.59971952 3 2 34913 2.66600000 2990896454 2990896454 -13.00000000
-0.58480632 3.04831576 -0.60333806 2 4 34914 3.16200000 2990896459 2990896459 -11.00000000
-0.73223287 3.82399321 -0.61666465 2 6 34916 3.94200000 2990896463 2990896463 -9.00000000
-2.06305528 10.81491470 2.14011359 46 11 34920 11.21600000 2990896475 2990896475 11.00000000
-1.98209274 10.41023540 2.44656777 53 13 34922 10.87600000 2990896480 2990896480 13.00000000
-1.70559907 8.97510052 2.44791055 38 15 34924 9.45800000 2990896484 2990896484 15.00000000
-0.40853694 2.16212058 -0.58958977 4 0 34930 2.27800000 2990896505 2990896505 -15.00000000
-0.48502117 2.57182240 -0.60421854 3 2 34932 2.68600000 2990896510 2990896510 -13.00000000
-0.57614857 3.05795550 -0.60486454 2 4 34933 3.17000000 2990896514 2990896514 -11.00000000
-0.72027814 3.83028293 -0.61729038 2 6 34935 3.94600000 2990896519 2990896519 -9.00000000
-0.95243943 5.07461834 -0.63396430 2 8 34937 5.20200000 2990896523 2990896523 -7.00000000
-2.02645731 10.81783676 2.13935041 40 11 34939 11.21200000 2990896530 2990896530 11.00000000
-1.94756019 10.41675091 2.44656777 53 13 34941 10.87600000 2990896535 2990896535 13.00000000
-1.67313814 8.95762634 2.44169879 38 15 34942 9.43400000 2990896540 2990896540 15.00000000
-0.40098724 2.16353345 -0.58958977 4 0 34950 2.27800000 2990896560 2990896560 -15.00000000
-0.47249627 2.55433750 -0.59971952 3 2 34952 2.66600000 2990896565 2990896565 -13.00000000
-0.56832486 3.07539248 -0.60791749 2 4 34953 3.18600000 2990896569 2990896569 -11.00000000
-0.70905334 3.84442949 -0.61916763 2 6 34955 3.95800000 2990896574 2990896574 -9.00000000
-0.93687612 5.08962584 -0.63542676 2 8 34957 5.21400000 2990896579 2990896579 -7.00000000
-1.98336267 10.79588032 2.13362622 40 11 34959 11.18200000 2990896586 2990896586 11.00000000
-1.91189003 10.42731857 2.44746757 54 13 34961 10.88000000 2990896590 2990896590 13.00000000
-1.63994777 8.96179867 2.44118118 38 15 34963 9.43200000 2990896595 2990896595 15.00000000
-0.39619601 2.18012571 -0.59373087 4 0 34970 2.29400000 2990896616 2990896616 -15.00000000
-0.46218601 2.54830146 -0.59791988 3 2 34972 2.65800000 2990896620 2990896620 -13.00000000
-0.55828637 3.08122110 -0.60868067 2 4 34973 3.19000000 2990896625 2990896625 -11.00000000
-0.69562942 3.84688115 -0.61916763 2 6 34975 3.95800000 2990896629 2990896629 -9.00000000
-0.91698897 5.08114386 -0.63396430 2 8 34977 5.20200000 2990896634 2990896634 -7.00000000
-1.34933329 7.48428822 -0.66534692 4 10 34978 7.63400000 2990896639 2990896639 -5.00000000
-1.94740593 10.81239891 2.13553429 43 11 34979 11.19200000 2990896641 2990896641 11.00000000
-1.87341166 10.42242146 2.44476795 53 13 34981 10.86800000 2990896646 2990896646 13.00000000
-1.61261046 8.98049736 2.44480467 40 15 34982 9.44600000 2990896650 2990896650 15.00000000
-0.38993865 2.18910313 -0.59580141 4 0 34990 2.30200000 2990896671 2990896671 -15.00000000
-0.45431119 2.55565524 -0.59926963 3 2 34992 2.66400000 2990896675 2990896675 -13.00000000
-0.54752749 3.08315134 -0.60868067 2 4 34993 3.19000000 2990896680 2990896680 -11.00000000
-0.68219709 3.84928608 -0.61916763 2 6 34995 3.95800000 2990896685 2990896685 -9.00000000
-0.89509809 5.06085682 -0.63103944 2 8 34997 5.17800000 2990896689 2990896689 -7.00000000
-1.33498645 7.55566072 -0.67127353 4 10 34998 7.70200000 2990896694 2990896694 -5.00000000
-1.91033423 10.82299709 2.13629746 43 11 34999 11.19600000 2990896696 2990896696 11.00000000
-1.83499086 10.41738224 2.44206858 54 13 35001 10.85600000 2990896701 2990896701 13.00000000
-1.57767761 8.97493172 2.44169879 40 15 35003 9.43400000 2990896705 2990896705 15.00000000
-0.37925810 2.17529249 -0.59166032 4 0 35011 2.28600000 2990896726 2990896726 -15.00000000
-0.44727945 2.57074237 -0.60241890 3 2 35013 2.67800000 2990896731 2990896731 -13.00000000
-0.53286159 3.06579471 -0.60486454 2 4 35014 3.17000000 2990896735 2990896735 -11.00000000
-0.67078483 3.86733103 -0.62167054 2 6 35016 3.97400000 2990896740 2990896740 -9.00000000
-0.88602293 5.11887169 -0.63786417 2 8 35018 5.23400000 2990896745 2990896745 -7.00000000
-1.30728459 7.56050301 -0.67127353 4 10 35019 7.70200000 2990896749 2990896749 -5.00000000
-1.86864817 10.81831837 2.13400769 46 11 35020 11.18400000 2990896751 2990896751 11.00000000
-1.79845202 10.43363953 2.44431806 56 13 35022 10.86600000 2990896756 2990896756 13.00000000
-1.54470062 8.97086525 2.43911076 42 15 35023 9.42400000 2990896761 2990896761 15.00000000
-0.36971161 2.16517735 -0.58855450 4 0 35031 2.27400000 2990896781 2990896781 -15.00000000
-0.43830317 2.57228804 -0.60241890 3 2 35033 2.67800000 2990896786 2990896786 -13.00000000
-0.52545106 3.08699036 -0.60868067 2 4 35034 3.19000000 2990896791 2990896791 -11.00000000
-0.65165782 3.83654165 -0.61635178 2 6 35036 3.94000000 2990896795 2990896795 -9.00000000
-0.86748588 5.11801910 -0.63737667 2 8 35038 5.23000000 2990896800 2990896800 -7.00000000
-1.82759964 10.80541801 2.13019156 46 11 35040 11.16400000 2990896807 2990896807 11.00000000
-1.76137221 10.43601036 2.44341826 57 13 35042 10.86200000 2990896811 2990896811 13.00000000
-1.50988531 8.96503639 2.43600488 40 15 35044 9.41200000 2990896816 2990896816 15.00000000
-0.36546114 2.18157053 -0.59269559 4 0 35049 2.29000000 2990896837 2990896837 -15.00000000
-0.43054125 2.57557440 -0.60286885 3 2 35051 2.68000000 2990896841 2990896841 -13.00000000
-0.51381034 3.07700706 -0.60639101 2 4 35052 3.17800000 2990896846 2990896846 -11.00000000
-0.64187449 3.85220957 -0.61854190 2 6 35054 3.95400000 2990896851 2990896851 -9.00000000
-0.85921693 5.16771603 -0.64322639 2 8 35056 5.27800000 2990896855 2990896855 -7.00000000
-1.79428709 10.81497955 2.13095474 43 11 35058 11.16800000 2990896862 2990896862 11.00000000
-1.72921443 10.44533825 2.44431806 57 13 35060 10.86600000 2990896867 2990896867 13.00000000
-1.48201811 8.96185303 2.43393421 45 15 35061 9.40400000 2990896871 2990896871 15.00000000
-0.35721874 2.17902017 -0.59166032 4 0 35069 2.28600000 2990896892 2990896892 -15.00000000
-0.42217737 2.58090782 -0.60376865 3 2 35071 2.68400000 2990896897 2990896897 -13.00000000
-0.50433278 3.08653212 -0.60791749 2 4 35072 3.18600000 2990896901 2990896901 -11.00000000
-0.62969530 3.86222529 -0.61979336 2 6 35074 3.96200000 2990896906 2990896906 -9.00000000
-0.84117299 5.17068386 -0.64322639 2 8 35076 5.27800000 2990896910 2990896910 -7.00000000
-1.75652492 10.82117748 2.13095474 43 11 35078 11.16800000 2990896917 2990896917 11.00000000
-1.69149661 10.44361591 2.44251847 55 13 35080 10.85800000 2990896922 2990896922 13.00000000
-1.44977772 8.97103882 2.43496966 45 15 35082 9.40800000 2990896927 2990896927 15.00000000
-0.35083386 2.18788362 -0.59373087 4 0 35089 2.29400000 2990896947 2990896947 -15.00000000
-0.41070276 2.56697178 -0.60016942 3 2 35091 2.66800000 2990896952 2990896952 -13.00000000
-0.49293604 3.08439660 -0.60715425 2 4 35092 3.18200000 2990896957 2990896957 -11.00000000
-0.61745405 3.87220263 -0.62104481 2 6 35094 3.97000000 2990896961 2990896961 -9.00000000
-0.81688070 5.13437986 -0.63835162 2 8 35096 5.23800000 2990896966 2990896966 -7.00000000
-1.20424116 7.57759857 -0.67127353 4 10 35097 7.70200000 2990896970 2990896970 -5.00000000
-1.72058797 10.83887672 2.13324451 46 11 35098 11.18000000 2990896973 2990896973 11.00000000
-1.65289736 10.43598270 2.43936920 53 13 35100 10.84400000 2990896977 2990896977 13.00000000
-1.42002070 8.97579670 2.43496966 42 15 35101 9.40800000 2990896982 2990896982 15.00000000
-0.34319457 2.18909502 -0.59373087 4 0 35109 2.29400000 2990897003 2990897003 -15.00000000
-0.40173984 2.56838965 -0.60016942 3 2 35111 2.66800000 2990897007 2990897007 -13.00000000
-0.48216650 3.08609843 -0.60715425 2 4 35112 3.18200000 2990897012 2990897012 -11.00000000
-0.60545498 3.88409352 -0.62260920 2 6 35114 3.98000000 2990897016 2990897016 -9.00000000
-0.80261409 5.16073799 -0.64127648 2 8 35116 5.26200000 2990897021 2990897021 -7.00000000
-1.17778313 7.58175611 -0.67127353 4 10 35117 7.70200000 2990897026 2990897026 -5.00000000
-1.68334484 10.84869671 2.13400769 43 11 35118 11.18400000 2990897028 2990897028 11.00000000
-1.61645889 10.44168949 2.43936920 52 13 35120 10.84400000 2990897033 2990897033 13.00000000
-1.38690937 8.96924400 2.43186378 42 15 35121 9.39600000 2990897037 2990897037 15.00000000
-0.33379585 2.17882228 -0.59062505 4 0 35129 2.28200000 2990897058 2990897058 -15.00000000
-0.39571637 2.58904004 -0.60466844 3 2 35131 2.68800000 2990897063 2990897063 -13.00000000
-0.47376135 3.10328889 -0.61020714 2 4 35132 3.19800000 2990897067 2990897067 -11.00000000
-0.58981127 3.87251329 -0.62041909 2 6 35134 3.96600000 2990897072 2990897072 -9.00000000
-0.78340203 5.15565825 -0.64030153 2 8 35136 5.25400000 2990897076 2990897076 -7.00000000
-1.15131068 7.58582115 -0.67127353 4 10 35137 7.70200000 2990897081 2990897081 -5.00000000
-1.64252305 10.83509541 2.13019156 43 11 35138 11.16400000 2990897083 2990897083 11.00000000
-1.58000076 10.44726849 2.43936920 53 13 35140 10.84400000 2990897088 2990897088 13.00000000
-1.35443830 8.96638966 2.42979312 40 15 35141 9.38800000 2990897092 2990897092 15.00000000
-0.32733181 2.18761635 -0.59269559 4 0 35149 2.29000000 2990897113 2990897113 -15.00000000
-0.38437489 2.57498646 -0.60106921 3 2 35151 2.67200000 2990897118 2990897118 -13.00000000
-0.46350500 3.10880733 -0.61097038 2 4 35152 3.20200000 2990897122 2990897122 -11.00000000
-0.57483703 3.86477900 -0.61885476 2 6 35154 3.95600000 2990897127 2990897127 -9.00000000
-0.76889694 5.18192434 -0.64322639 2 8 35156 5.27800000 2990897132 2990897132 -7.00000000
-1.12482417 7.58979368 -0.67127353 4 10 35157 7.70200000 2990897136 2990897136 -5.00000000
-1.60296667 10.82911015 2.12790203 43 11 35158 11.15200000 2990897139 2990897139 11.00000000
-1.54409266 10.45657539 2.44026899 52 13 35160 10.84800000 2990897143 2990897143 13.00000000
-1.32043958 8.96364880 2.42772269 42 15 35162 9.38000000 2990897148 2990897148 15.00000000
-0.32025203 2.19256878 -0.59373087 4 0 35169 2.29400000 2990897169 2990897169 -15.00000000
-0.37397927 2.56667066 -0.59881973 3 2 35171 2.66200000 2990897173 2990897173 -13.00000000
-0.45265040 3.11040616 -0.61097038 2 4 35172 3.20200000 2990897178 2990897178 -11.00000000
-0.56105912 3.86480713 -0.61854190 2 6 35174 3.95400000 2990897182 2990897182 -9.00000000
-0.75080401 5.18457699 -0.64322639 2 8 35176 5.27800000 2990897187 2990897187 -7.00000000
-1.09261990 7.55423641 -0.66778731 4 10 35177 7.66200000 2990897192 2990897192 -5.00000000
-1.56291068 10.81909561 2.12484908 43 11 35178 11.13600000 2990897194 2990897194 11.00000000
-1.50508153 10.44454193 2.43621993 51 13 35180 10.83000000 2990897198 2990897198 13.00000000
-1.29180861 8.97562695 2.42979312 42 15 35181 9.38800000 2990897203 2990897203 15.00000000
-0.31259659 2.19367337 -0.59373087 4 0 35189 2.29400000 2990897224 2990897224 -15.00000000
-0.36392066 2.56024313 -0.59702009 3 2 35191 2.65400000 2990897228 2990897228 -13.00000000
-0.44123840 3.10807967 -0.61020714 2 4 35192 3.19800000 2990897233 2990897233 -11.00000000
-0.55144256 3.89412427 -0.62292206 2 6 35194 3.98200000 2990897238 2990897238 -9.00000000
-0.73270184 5.18716621 -0.64322639 2 8 35196 5.27800000 2990897242 2990897242 -7.00000000
-1.07181048 7.59746122 -0.67127353 4 10 35197 7.70200000 2990897247 2990897247 -5.00000000
-1.52677894 10.83614922 2.12713861 43 11 35198 11.14800000 2990897249 2990897249 11.00000000
-1.46861410 10.44973183 2.43621993 56 13 35200 10.83000000 2990897254 2990897254 13.00000000
-1.26046991 8.98008156 2.42979312 45 15 35201 9.38800000 2990897258 2990897258 15.00000000
-0.30440563 2.19092417 -0.59269559 4 0 35209 2.29000000 2990897279 2990897279 -15.00000000
-0.36033165 2.60010362 -0.60601813 3 2 35211 2.69400000 2990897284 2990897284 -13.00000000
-0.42877156 3.09793282 -0.60791749 2 4 35212 3.18600000 2990897288 2990897288 -11.00000000
-0.54054755 3.91559362 -0.62605071 2 6 35214 4.00200000 2990897293 2990897293 -9.00000000
-0.71459079 5.18969202 -0.64322639 2 8 35216 5.27800000 2990897297 2990897297 -7.00000000
-1.04528379 7.60115623 -0.67127353 4 10 35217 7.70200000 2990897302 2990897302 -5.00000000
-1.48814297 10.83557796 2.12599373 37 11 35218 11.14200000 2990897304 2990897304 11.00000000
-1.43159986 10.45093346 2.43532014 55 13 35220 10.82600000 2990897309 2990897309 13.00000000
-1.22859216 8.98059845 2.42875791 42 15 35221 9.38400000 2990897314 2990897314 15.00000000
-0.29675603 2.19197345 -0.59269559 4 0 35229 2.29000000 2990897334 2990897334 -15.00000000
-0.34916729 2.58589602 -0.60241890 3 2 35231 2.67800000 2990897339 2990897339 -13.00000000
-0.41900462 3.10719323 -0.60944390 2 4 35232 3.19400000 2990897344 2990897344 -11.00000000
-0.52476984 3.90179467 -0.62354779 2 6 35234 3.98600000 2990897348 2990897348 -9.00000000
-0.69383192 5.17248011 -0.64078903 2 8 35236 5.25800000 2990897353 2990897353 -7.00000000
-1.01874447 7.60475874 -0.67127353 4 10 35237 7.70200000 2990897357 2990897357 -5.00000000
-1.44926941 10.83292294 2.12446737 40 11 35238 11.13400000 2990897360 2990897360 11.00000000
-1.39536822 10.45779896 2.43577003 52 13 35240 10.82800000 2990897364 2990897364 13.00000000
-1.19312012 8.96589184 2.42358160 42 15 35242 9.36400000 2990897369 2990897369 15.00000000
-0.28999120 2.19677591 -0.59373087 4 0 35248 2.29400000 2990897390 2990897390 -15.00000000
-0.34059021 2.58703947 -0.60241890 3 2 35250 2.67800000 2990897394 2990897394 -13.00000000
-0.40972215 3.11635160 -0.61097038 2 4 35251 3.20200000 2990897399 2990897399 -11.00000000
-0.50771910 3.87217546 -0.61854190 2 6 35253 3.95400000 2990897403 2990897403 -9.00000000
-0.67719030 5.17868900 -0.64127648 2 8 35255 5.26200000 2990897408 2990897408 -7.00000000
-1.41206872 10.82793522 2.12255931 43 11 35257 11.12400000 2990897415 2990897415 11.00000000
-1.36068130 10.46236897 2.43577003 54 13 35259 10.82800000 2990897420 2990897420 13.00000000
-1.16444945 8.96576405 2.42254615 42 15 35260 9.36000000 2990897424 2990897424 15.00000000
-0.28232124 2.19777489 -0.59373087 4 0 35268 2.29400000 2990897445 2990897445 -15.00000000
-0.33106247 2.58434677 -0.60151911 3 2 35270 2.67400000 2990897449 2990897449 -13.00000000
-0.39933980 3.12165761 -0.61173362 2 4 35271 3.20600000 2990897454 2990897454 -11.00000000
-0.49519950 3.88176227 -0.61979336 2 6 35273 3.96200000 2990897459 2990897459 -9.00000000
-0.66111332 5.19677544 -0.64322639 2 8 35275 5.27800000 2990897463 2990897463 -7.00000000
-0.97900975 7.70638895 -0.67964047 4 10 35276 7.79800000 2990897468 2990897468 -5.00000000
-1.37278116 10.82111263 2.12026954 40 11 35277 11.11200000 2990897470 2990897470 11.00000000
-1.32390797 10.46512127 2.43532014 55 13 35279 10.82600000 2990897475 2990897475 13.00000000
-1.13266170 8.96594143 2.42151093 42 15 35280 9.35600000 2990897479 2990897479 15.00000000
-0.27536622 2.20449781 -0.59528381 4 0 35288 2.30000000 2990897500 2990897500 -15.00000000
-0.32203940 2.58548665 -0.60151911 3 2 35290 2.67400000 2990897505 2990897505 -13.00000000
-0.38795608 3.11913586 -0.61097038 2 4 35291 3.20200000 2990897509 2990897509 -11.00000000
-0.48407793 3.90307069 -0.62292206 2 6 35293 3.98200000 2990897514 2990897514 -9.00000000
-0.64004546 5.17541027 -0.64030153 2 8 35295 5.25400000 2990897519 2990897519 -7.00000000
-1.33620143 10.83558083 2.12217760 40 11 35297 11.12200000 2990897526 2990897526 11.00000000
-1.28689408 10.46581078 2.43442035 56 13 35299 10.82200000 2990897530 2990897530 13.00000000
-1.09955728 8.96811485 2.42099333 45 15 35301 9.35400000 2990897535 2990897535 15.00000000
-0.26743665 2.20352793 -0.59476614 4 0 35308 2.29800000 2990897555 2990897555 -15.00000000
-0.31371474 2.59239888 -0.60286885 3 2 35310 2.68000000 2990897560 2990897560 -13.00000000
-0.37659487 3.11657310 -0.61020714 2 4 35311 3.19800000 2990897565 2990897565 -11.00000000
-0.47045073 3.90473676 -0.62292206 2 6 35313 3.98200000 2990897569 2990897569 -9.00000000
-0.62481713 5.20126390 -0.64322639 2 8 35315 5.27800000 2990897574 2990897574 -7.00000000
-1.29743612 10.83238220 2.12065125 40 11 35317 11.11400000 2990897581 2990897581 11.00000000
-1.25035381 10.47023869 2.43442035 57 13 35319 10.82200000 2990897585 2990897585 13.00000000
-1.06801760 8.96998024 2.42047572 45 15 35321 9.35200000 2990897590 2990897590 15.00000000
-0.25929114 2.20061088 -0.59373087 4 0 35328 2.29400000 2990897611 2990897611 -15.00000000
-0.30602783 2.60509086 -0.60556823 3 2 35330 2.69200000 2990897615 2990897615 -13.00000000
-0.36617115 3.12176847 -0.61097038 2 4 35331 3.20200000 2990897620 2990897620 -11.00000000
-0.45911220 3.92597508 -0.62605071 2 6 35333 4.00200000 2990897625 2990897625 -9.00000000
-0.60665756 5.20341349 -0.64322639 2 8 35335 5.27800000 2990897629 2990897629 -7.00000000
-1.25802946 10.82319355 2.11797976 40 11 35337 11.10000000 2990897636 2990897636 11.00000000
-1.21379817 10.47453976 2.43442035 57 13 35339 10.82200000 2990897641 2990897641 13.00000000
-1.03514802 8.96021938 2.41685224 45 15 35341 9.33800000 2990897645 2990897645 15.00000000
-0.25073054 2.19382501 -0.59166032 4 0 35348 2.28600000 2990897666 2990897666 -15.00000000
-0.29627070 2.60033441 -0.60421854 3 2 35350 2.68600000 2990897671 2990897671 -13.00000000
-0.35615954 3.13083029 -0.61249685 2 4 35351 3.21000000 2990897675 2990897675 -11.00000000
-0.44050819 3.88437223 -0.61916763 2 6 35353 3.95800000 2990897680 2990897680 -9.00000000
-0.58849055 5.20549917 -0.64322639 2 8 35355 5.27800000 2990897685 2990897685 -7.00000000
-0.86327136 7.64803362 -0.67336529 4 10 35356 7.72600000 2990897689 2990897689 -5.00000000
-1.22024179 10.82751942 2.11797976 40 11 35357 11.10000000 2990897691 2990897691 11.00000000
-1.17722785 10.47871208 2.43442035 57 13 35359 10.82200000 2990897696 2990897696 13.00000000
-1.00493979 8.97337818 2.41944051 45 15 35361 9.34800000 2990897701 2990897701 15.00000000
-0.24519774 2.21388793 -0.59683675 4 0 35368 2.30600000 2990897721 2990897721 -15.00000000
-0.28505358 2.58198309 -0.59971952 3 2 35370 2.66600000 2990897726 2990897726 -13.00000000
-0.34393814 3.12034583 -0.61020714 2 4 35371 3.19800000 2990897731 2990897731 -11.00000000
-0.42996687 3.91337609 -0.62354779 2 6 35373 3.98600000 2990897735 2990897735 -9.00000000
-0.56556195 5.16410923 -0.63786417 2 8 35375 5.23400000 2990897740 2990897740 -7.00000000
-0.83656949 7.65100050 -0.67336529 4 10 35376 7.72600000 2990897744 2990897744 -5.00000000
-1.18073487 10.81609917 2.11492682 40 11 35377 11.08400000 2990897747 2990897747 11.00000000
-1.13895679 10.46725941 2.43082118 56 13 35379 10.80600000 2990897751 2990897751 13.00000000
-0.97392559 8.96513748 2.41633463 42 15 35380 9.33600000 2990897756 2990897756 15.00000000
-0.23664452 2.20704699 -0.59476614 4 0 35388 2.29800000 2990897777 2990897777 -15.00000000
-0.27852401 2.60621500 -0.60511833 3 2 35390 2.69000000 2990897781 2990897781 -13.00000000
-0.33471027 3.13714480 -0.61326009 2 4 35391 3.21400000 2990897786 2990897786 -11.00000000
-0.41797507 3.93056750 -0.62605071 2 6 35393 4.00200000 2990897790 2990897790 -9.00000000
-0.55046147 5.19368839 -0.64127648 2 8 35395 5.26200000 2990897795 2990897795 -7.00000000
-1.14359117 10.82601261 2.11607170 43 11 35397 11.09000000 2990897802 2990897802 11.00000000
-1.10118806 10.45954323 2.42812157 57 13 35399 10.79400000 2990897807 2990897807 13.00000000
-0.94146341 8.97248936 2.41736984 42 15 35401 9.34000000 2990897811 2990897811 15.00000000
-0.22834130 2.20209503 -0.59321326 4 0 35408 2.29200000 2990897832 2990897832 -15.00000000
-0.26982558 2.61104798 -0.60601813 3 2 35410 2.69400000 2990897837 2990897837 -13.00000000
-0.32254875 3.12657666 -0.61097038 2 4 35411 3.20200000 2990897841 2990897841 -11.00000000
-0.40425229 3.93200254 -0.62605071 2 6 35413 4.00200000 2990897846 2990897846 -9.00000000
-0.53071016 5.17978048 -0.63932657 2 8 35415 5.24600000 2990897850 2990897850 -7.00000000
-1.10599375 10.83189106 2.11645341 43 11 35417 11.09200000 2990897857 2990897857 11.00000000
-1.06506526 10.46720123 2.42902160 57 13 35419 10.79800000 2990897862 2990897862 13.00000000
-0.91131389 8.97171879 2.41633463 42 15 35420 9.33600000 2990897867 2990897867 15.00000000
-0.21969044 2.19326735 -0.59062505 4 0 35428 2.28200000 2990897887 2990897887 -15.00000000
-0.26070967 2.61197400 -0.60601813 3 2 35430 2.69400000 2990897892 2990897892 -13.00000000
-0.31280088 3.13940501 -0.61326009 4 4 35431 3.21400000 2990897896 2990897896 -11.00000000
-0.38857293 3.91373253 -0.62292206 2 6 35433 3.98200000 2990897901 2990897901 -9.00000000
-0.51340783 5.18950319 -0.64030153 2 8 35435 5.25400000 2990897906 2990897906 -7.00000000
-1.06663585 10.82005596 2.11340046 40 11 35437 11.07600000 2990897913 2990897913 11.00000000
-1.02814043 10.46697617 2.42812157 59 13 35439 10.79400000 2990897917 2990897917 13.00000000
-0.87729573 8.96346188 2.41322875 40 15 35441 9.32400000 2990897922 2990897922 15.00000000
-0.21314816 2.20555830 -0.59373087 4 0 35448 2.29400000 2990897943 2990897943 -15.00000000
-0.25046992 2.60122967 -0.60331875 3 2 35450 2.68200000 2990897947 2990897947 -13.00000000
-0.30033779 3.12484384 -0.61020714 2 4 35451 3.19800000 2990897952 2990897952 -11.00000000
-0.37490907 3.91506529 -0.62292206 2 6 35453 3.98200000 2990897956 2990897956 -9.00000000
-0.49755242 5.21497679 -0.64322639 2 8 35455 5.27800000 2990897961 2990897961 -7.00000000
-0.73419654 7.70953703 -0.67754877 4 10 35456 7.77400000 2990897966 2990897966 -5.00000000
-1.02755988 10.81003189 2.11072922 40 11 35457 11.06200000 2990897968 2990897968 11.00000000
-0.99233252 10.47826099 2.42992139 59 13 35459 10.80200000 2990897973 2990897973 13.00000000
-0.84756696 8.96632195 2.41322875 42 15 35460 9.32400000 2990897977 2990897977 15.00000000
-0.20616449 2.21398306 -0.59580141 4 0 35468 2.30200000 2990897998 2990897998 -15.00000000
-0.24066839 2.59432650 -0.60151911 3 2 35470 2.67400000 2990898002 2990898002 -13.00000000
-0.29160029 3.14933181 -0.61478657 2 4 35471 3.22200000 2990898007 2990898007 -11.00000000
-0.36232927 3.92815208 -0.62479925 2 6 35473 3.99400000 2990898012 2990898012 -9.00000000
-0.47716606 5.19296074 -0.64030153 2 8 35475 5.25400000 2990898016 2990898016 -7.00000000
-0.98981953 10.81355286 2.11072922 37 11 35477 11.06200000 2990898023 2990898023 11.00000000
-0.95398092 10.46225452 2.42542219 56 13 35479 10.78200000 2990898028 2990898028 13.00000000
-0.81539708 8.97706413 2.41529942 45 15 35481 9.33200000 2990898032 2990898032 15.00000000
-0.19972728 2.22039199 -0.59735435 3 0 35486 2.30800000 2990898053 2990898053 -15.00000000
-0.23390816 2.61059737 -0.60511833 3 2 35488 2.69000000 2990898058 2990898058 -13.00000000
-0.28135523 3.14632154 -0.61402333 2 4 35489 3.21800000 2990898062 2990898062 -11.00000000
-0.34998685 3.92927098 -0.62479925 2 6 35491 3.99400000 2990898067 2990898067 -9.00000000
-0.46084958 5.19443417 -0.64030153 2 8 35493 5.25400000 2990898072 2990898072 -7.00000000
-0.95497882 10.80683041 2.10882092 40 11 35495 11.05200000 2990898078 2990898078 11.00000000
-0.92042470 10.45743465 2.42362261 60 13 35497 10.77400000 2990898083 2990898083 13.00000000
-0.78858900 8.97751999 2.41478181 45 15 35498 9.33000000 2990898088 2990898088 15.00000000
-0.19064459 2.20567822 -0.59321326 3 0 35506 2.29200000 2990898108 2990898108 -15.00000000
-0.22412552 2.60363173 -0.60331875 3 2 35508 2.68200000 2990898113 2990898113 -13.00000000
-0.26936257 3.13554811 -0.61173362 2 4 35509 3.20600000 2990898118 2990898118 -11.00000000
-0.33626902 3.93046880 -0.62479925 2 6 35511 3.99400000 2990898122 2990898122 -9.00000000
-0.44608530 5.23556995 -0.64517629 2 8 35513 5.29400000 2990898127 2990898127 -7.00000000
-0.66658276 7.83965778 -0.68835604 4 10 35514 7.89800000 2990898131 2990898131 -5.00000000
-0.91808009 10.81987953 2.11072922 37 11 35515 11.06200000 2990898134 2990898134 11.00000000
-0.88391584 10.46058464 2.42362261 59 13 35517 10.77400000 2990898138 2990898138 13.00000000
-0.75551748 8.97842407 2.41426396 40 15 35519 9.32800000 2990898143 2990898143 15.00000000
-0.18278454 2.20440507 -0.59269559 4 0 35526 2.29000000 2990898164 2990898164 -15.00000000
-0.21599792 2.61605096 -0.60601813 3 2 35528 2.69400000 2990898168 2990898168 -13.00000000
-0.25744858 3.12472939 -0.60944390 2 4 35529 3.19400000 2990898173 2990898173 -11.00000000
-0.32416221 3.95130634 -0.62792796 2 6 35531 4.01400000 2990898178 2990898178 -9.00000000
-0.42489788 5.20148182 -0.64078903 2 8 35533 5.25800000 2990898182 2990898182 -7.00000000
-0.87887365 10.80540752 2.10729456 37 11 35535 11.04400000 2990898189 2990898189 11.00000000
-0.84708154 10.45972157 2.42272282 56 13 35537 10.77000000 2990898194 2990898194 13.00000000
-0.72511739 8.97317791 2.41219354 45 15 35538 9.32000000 2990898198 2990898198 15.00000000
-0.17508861 2.20502973 -0.59269559 3 0 35546 2.29000000 2990898219 2990898219 -15.00000000
-0.20563628 2.60124755 -0.60241890 3 2 35548 2.67800000 2990898224 2990898224 -13.00000000
-0.24777469 3.14126658 -0.61249685 2 4 35549 3.21000000 2990898228 2990898228 -11.00000000
-0.30820262 3.92484331 -0.62354779 2 6 35551 3.98600000 2990898233 2990898233 -9.00000000
-0.40952355 5.23855639 -0.64517629 2 8 35553 5.29400000 2990898237 2990898237 -7.00000000
-0.83947480 10.78687859 2.10309672 34 11 35555 11.02200000 2990898244 2990898244 11.00000000
-0.80996305 10.45484257 2.42092323 57 13 35557 10.76200000 2990898249 2990898249 13.00000000
-0.69207561 8.97384930 2.41167593 45 15 35559 9.31800000 2990898254 2990898254 15.00000000
-0.16782914 2.21140647 -0.59424853 3 0 35566 2.29600000 2990898274 2990898274 -15.00000000
-0.19655499 2.60194969 -0.60241890 3 2 35568 2.67800000 2990898279 2990898279 -13.00000000
-0.23680812 3.14211226 -0.61249685 2 4 35569 3.21000000 2990898284 2990898284 -11.00000000
-0.29775137 3.96923184 -0.63043088 2 6 35571 4.03000000 2990898288 2990898288 -9.00000000
-0.39153069 5.24391317 -0.64566380 2 8 35573 5.29800000 2990898293 2990898293 -7.00000000
-0.80137992 10.78386974 2.10195184 37 11 35575 11.01600000 2990898300 2990898300 11.00000000
-0.77260149 10.44594574 2.41822386 56 13 35577 10.75000000 2990898304 2990898304 13.00000000
-0.66302425 8.98572826 2.41426396 45 15 35578 9.32800000 2990898309 2990898309 15.00000000
-0.16094568 2.22353959 -0.59735435 3 0 35586 2.30800000 2990898330 2990898330 -15.00000000
-0.18747129 2.60261989 -0.60241890 3 2 35588 2.67800000 2990898334 2990898334 -13.00000000
-0.22583866 3.14291978 -0.61249685 2 4 35589 3.21000000 2990898339 2990898339 -11.00000000
-0.28192189 3.94266200 -0.62605071 2 6 35591 4.00200000 2990898343 2990898343 -9.00000000
-0.37294185 5.24128771 -0.64517629 2 8 35593 5.29400000 2990898348 2990898348 -7.00000000
-0.76359367 10.78464317 2.10157037 34 11 35595 11.01400000 2990898355 2990898355 11.00000000
-0.73503798 10.43302727 2.41462469 56 13 35597 10.73400000 2990898360 2990898360 13.00000000
-0.15251939 2.21445131 -0.59476614 3 0 35606 2.29800000 2990898385 2990898385 -15.00000000
-0.17971753 2.62270021 -0.60691792 3 2 35608 2.69800000 2990898390 2990898390 -13.00000000
-0.21486644 3.14368892 -0.61249685 2 4 35609 3.21000000 2990898394 2990898394 -11.00000000
-0.27083793 3.98303866 -0.63230813 2 6 35611 4.04200000 2990898399 2990898399 -9.00000000
-0.35518000 5.25048018 -0.64615124 2 8 35613 5.30200000 2990898403 2990898403 -7.00000000
-0.72660267 10.79703712 2.10347843 37 11 35615 11.02400000 2990898410 2990898410 11.00000000
-0.69861543 10.43552971 2.41462469 56 13 35617 10.73400000 2990898415 2990898415 13.00000000
-0.44943506 6.73103809 1.80759215 2 15 35618 6.98400000 2990898419 2990898419 15.00000000
-0.14428453 2.20725942 -0.59269559 3 0 35626 2.29000000 2990898440 2990898440 -15.00000000
-0.17081438 2.62720084 -0.60781777 3 2 35628 2.70200000 2990898445 2990898445 -13.00000000
-0.20414568 3.14833808 -0.61326009 4 4 35629 3.21400000 2990898449 2990898449 -11.00000000
-0.25667864 3.98001719 -0.63168240 2 6 35631 4.03800000 2990898454 2990898454 -9.00000000
-0.33659610 5.24772596 -0.64566380 2 8 35633 5.29800000 2990898459 2990898459 -7.00000000
-0.50225514 7.85189867 -0.68835604 4 10 35634 7.89800000 2990898463 2990898463 -5.00000000
-0.68915957 10.80342579 2.10424161 43 11 35635 11.02800000 2990898466 2990898466 11.00000000
-0.66218442 10.43790436 2.41462469 56 13 35637 10.73400000 2990898470 2990898470 13.00000000
-0.42476156 6.73264027 1.80759215 2 15 35639 6.98400000 2990898475 2990898475 15.00000000
-0.13744268 2.21543837 -0.59476614 3 0 35645 2.29800000 2990898496 2990898496 -15.00000000
-0.16114144 2.61219239 -0.60421854 3 2 35647 2.68600000 2990898500 2990898500 -13.00000000
-0.19490968 3.16859317 -0.61707628 2 4 35648 3.23400000 2990898505 2990898505 -11.00000000
-0.24251425 3.96507311 -0.62917942 2 6 35650 4.02200000 2990898509 2990898509 -9.00000000
-0.31919217 5.24881315 -0.64566380 2 8 35652 5.29800000 2990898514 2990898514 -7.00000000
-0.47621456 7.85352087 -0.68835604 4 10 35653 7.89800000 2990898519 2990898519 -5.00000000
-0.65250093 10.79193401 2.10157037 37 11 35654 11.01400000 2990898521 2990898521 11.00000000
-0.40279922 6.72044277 1.80396879 2 15 35657 6.97000000 2990898530 2990898530 15.00000000
-0.13049874 2.22940445 -0.59838963 3 0 35665 2.31200000 2990898551 2990898551 -15.00000000
-0.15224859 2.61662984 -0.60511833 3 2 35667 2.69000000 2990898555 2990898555 -13.00000000
-0.18316585 3.15749454 -0.61478657 2 4 35668 3.22200000 2990898560 2990898560 -11.00000000
-0.22708014 3.93828607 -0.62479925 2 6 35670 3.99400000 2990898565 2990898565 -9.00000000
-0.30086845 5.24989510 -0.64566380 2 8 35672 5.29800000 2990898569 2990898569 -7.00000000
-0.44879776 7.85513544 -0.68835604 4 10 35673 7.89800000 2990898574 2990898574 -5.00000000
-0.61348635 10.77062511 2.09699082 37 11 35674 10.99000000 2990898576 2990898576 11.00000000
-0.43626428 7.70662117 1.78206229 2 13 35676 7.92200000 2990898581 2990898581 13.00000000
